ply
format ascii 1.0
comment Created by Open3D
element vertex 1300
property double x
property double y
property double z
property uchar red
property uchar green
property uchar blue
end_header
0.1342 -0.179514 -0.61 163 114 97
0.148927 -0.18334 -0.623 149 101 91
0.258378 -0.149791 -0.509 148 116 121
0.289052 -0.148614 -0.505 144 109 113
0.313483 -0.147437 -0.501 137 103 104
0.327797 -0.147437 -0.501 136 107 111
0.337894 -0.146849 -0.499 129 97 98
0.352151 -0.146849 -0.499 128 97 95
0.365458 -0.146849 -0.499 126 95 93
0.485821 -0.178926 -0.608 67 37 37
0.429849 -0.152146 -0.517 185 136 121
0.433788 -0.152146 -0.517 160 106 96
0.443949 -0.153617 -0.522 122 75 65
0.4485 -0.1545 -0.525 112 72 62
0.457671 -0.156266 -0.531 150 103 97
-0.147883 -0.189266 -0.639 194 194 186
-0.146895 -0.189562 -0.64 194 194 186
0.100131 -0.175937 -0.594 213 165 151
0.136971 -0.181269 -0.612 156 107 92
0.243213 -0.153427 -0.518 154 119 125
0.266579 -0.150465 -0.508 147 112 118
0.271849 -0.150169 -0.507 145 110 114
0.31062 -0.148391 -0.501 137 103 104
0.320163 -0.148391 -0.501 134 100 101
0.366623 -0.147503 -0.498 124 93 91
0.483933 -0.180676 -0.61 59 33 36
0.440267 -0.154019 -0.52 138 85 77
-0.168574 -0.190483 -0.639 187 184 177
-0.162681 -0.18929 -0.635 187 187 179
-0.153487 -0.189887 -0.637 193 193 185
-0.146895 -0.190781 -0.64 195 195 187
-0.1419 -0.192271 -0.645 197 197 189
0.0988333 -0.17677 -0.593 210 164 148
0.112009 -0.177963 -0.597 211 165 149
0.121714 -0.178857 -0.6 188 143 124
0.128278 -0.18005 -0.604 175 128 112
0.13398 -0.18154 -0.609 160 111 96
0.243257 -0.153817 -0.516 154 117 125
0.28095 -0.150836 -0.506 141 106 110
0.290782 -0.149942 -0.503 145 108 115
0.293656 -0.149942 -0.503 136 99 106
0.308711 -0.149346 -0.501 136 102 103
0.3173 -0.149346 -0.501 136 102 103
0.325238 -0.149048 -0.5 126 95 100
0.346449 -0.14875 -0.499 129 97 98
0.347399 -0.14875 -0.499 129 97 98
0.351446 -0.148451 -0.498 126 94 95
0.364726 -0.148451 -0.498 125 93 94
0.473834 -0.180646 -0.606 69 49 51
0.481826 -0.179751 -0.603 63 38 41
0.480571 -0.178857 -0.6 76 46 48
0.428864 -0.154115 -0.517 192 133 125
0.434772 -0.154115 -0.517 160 103 96
0.442106 -0.155308 -0.521 131 84 76
0.467086 -0.159779 -0.536 157 105 94
-0.166833 -0.1911 -0.637 187 184 177
-0.151297 -0.1914 -0.638 191 193 182
-0.148114 -0.192 -0.64 194 196 185
0.0859943 -0.1818 -0.606 204 161 145
0.115613 -0.1794 -0.598 204 158 142
0.121714 -0.18 -0.6 188 143 124
0.129857 -0.1818 -0.606 168 121 105
0.137195 -0.1839 -0.613 154 105 91
0.140213 -0.1848 -0.616 148 98 87
0.248683 -0.1539 -0.513 150 115 121
0.255 -0.153 -0.51 151 116 120
0.262191 -0.1521 -0.507 147 112 116
0.269917 -0.1521 -0.507 146 111 115
0.296897 -0.1506 -0.502 136 100 104
0.309048 -0.15 -0.5 135 101 102
0.32839 -0.1497 -0.499 130 111 115
0.334092 -0.1497 -0.499 125 95 97
0.359983 -0.1494 -0.498 127 95 96
0.375305 -0.1506 -0.502 122 92 92
0.438595 -0.1635 -0.545 128 94 93
0.423429 -0.156 -0.52 188 141 135
0.423603 -0.1557 -0.519 198 145 137
0.42591 -0.1551 -0.517 198 141 132
0.449354 -0.1578 -0.526 116 75 69
0.453074 -0.1584 -0.528 130 86 83
0.4558 -0.159 -0.53 143 98 95
-0.153487 -0.192313 -0.637 191 193 182
-0.149333 -0.193219 -0.64 194 196 185
-0.14212 -0.19503 -0.646 196 197 189
-0.13681 -0.196238 -0.65 199 199 191
0.0964114 -0.178728 -0.592 208 165 148
0.104833 -0.179633 -0.595 210 164 148
0.11542 -0.180237 -0.597 200 154 138
0.140213 -0.185973 -0.616 150 100 91
0.157594 -0.191408 -0.634 131 87 84
0.24623 -0.155179 -0.514 148 116 121
0.258378 -0.15367 -0.509 146 114 117
0.260773 -0.153368 -0.508 147 112 116
0.27378 -0.153066 -0.507 145 110 114
0.299169 -0.151254 -0.501 135 101 102
0.30619 -0.150952 -0.5 137 102 106
0.308095 -0.150952 -0.5 135 100 104
0.309048 -0.150952 -0.5 135 100 104
0.315714 -0.150952 -0.5 137 102 106
0.321429 -0.150952 -0.5 131 99 100
0.3486 -0.150349 -0.498 128 97 95
0.388192 -0.155179 -0.514 65 45 46
0.469191 -0.182049 -0.603 64 45 47
0.466214 -0.161519 -0.535 154 103 99
-0.163374 -0.192311 -0.633 189 189 181
0.11903 -0.181678 -0.598 189 147 123
0.12849 -0.183805 -0.605 166 121 102
0.135806 -0.185931 -0.612 148 100 90
0.161524 -0.194438 -0.64 127 88 83
0.285991 -0.152816 -0.503 147 111 115
0.287908 -0.152816 -0.503 147 111 115
0.308095 -0.151905 -0.5 134 99 103
0.316033 -0.151601 -0.499 134 99 103
0.320786 -0.151601 -0.499 130 96 95
0.323637 -0.151601 -0.499 141 116 122
0.327439 -0.151601 -0.499 216 197 201
0.335043 -0.151601 -0.499 124 92 97
0.335993 -0.151601 -0.499 127 95 98
0.360207 -0.150993 -0.497 125 93 94
0.36926 -0.151601 -0.499 126 92 93
0.481259 -0.186539 -0.614 74 53 60
0.483978 -0.186235 -0.613 55 32 38
0.423603 -0.157677 -0.519 197 147 138
0.432803 -0.15707 -0.517 157 104 96
0.435613 -0.157373 -0.518 142 87 80
0.103351 -0.181289 -0.593 211 165 150
0.111633 -0.1819 -0.595 209 163 147
0.112767 -0.1819 -0.595 206 160 144
0.116362 -0.182206 -0.596 197 152 133
0.153 -0.1926 -0.63 127 88 83
0.166011 -0.198103 -0.648 119 81 80
0.243213 -0.15836 -0.518 99 74 78
0.305238 -0.152857 -0.5 135 100 104
0.30619 -0.152857 -0.5 135 100 104
0.316984 -0.152551 -0.499 133 98 102
0.320786 -0.152551 -0.499 135 100 98
0.336944 -0.152551 -0.499 127 95 98
0.351687 -0.15194 -0.497 127 95 96
0.35926 -0.15194 -0.497 124 92 93
0.48361 -0.188626 -0.617 74 53 62
0.485557 -0.188014 -0.615 71 48 56
0.429953 -0.162946 -0.533 154 116 115
0.422438 -0.158971 -0.52 188 141 133
0.441113 -0.159277 -0.521 133 83 76
0.45494 -0.161723 -0.529 142 97 92
-0.168197 -0.194723 -0.633 184 185 179
-0.162169 -0.194723 -0.633 188 187 182
-0.159052 -0.195338 -0.635 189 188 183
-0.145586 -0.198414 -0.645 195 196 188
0.0834 -0.1938 -0.63 202 153 149
0.0872829 -0.184264 -0.599 204 160 147
0.10787 -0.182418 -0.593 206 160 144
0.111446 -0.182726 -0.594 206 160 144
0.117497 -0.183341 -0.596 190 145 126
0.121511 -0.184264 -0.599 180 138 116
0.129857 -0.186417 -0.606 161 115 102
0.133038 -0.187648 -0.61 148 101 93
0.24424 -0.158731 -0.516 106 84 87
0.248683 -0.157809 -0.513 148 113 117
0.254527 -0.157193 -0.511 145 113 116
0.27324 -0.155655 -0.506 142 108 109
0.275586 -0.155348 -0.505 145 109 113
0.32934 -0.153502 -0.499 133 106 111
0.352633 -0.152887 -0.497 124 92 93
0.48282 -0.190416 -0.619 90 72 84
0.486746 -0.191031 -0.621 93 73 85
0.429953 -0.163961 -0.533 157 119 118
0.424925 -0.159039 -0.517 193 145 131
0.430983 -0.158731 -0.516 166 114 101
0.0837657 -0.198714 -0.642 202 153 149
0.121511 -0.185405 -0.599 179 137 113
0.131444 -0.18819 -0.608 156 106 95
0.133038 -0.18881 -0.61 151 102 95
0.136028 -0.189738 -0.613 141 96 90
0.159086 -0.198095 -0.64 122 84 83
0.160806 -0.198714 -0.642 125 87 86
0.247706 -0.158786 -0.513 138 103 107
0.264123 -0.156929 -0.507 144 112 113
0.267457 -0.156619 -0.506 144 110 111
0.292116 -0.155381 -0.502 137 101 105
0.294029 -0.155381 -0.502 136 100 104
0.294985 -0.155381 -0.502 136 100 104
0.29726 -0.155071 -0.501 135 101 102
0.304286 -0.154762 -0.5 134 99 103
0.30619 -0.154762 -0.5 135 100 104
0.312231 -0.154452 -0.499 138 103 107
0.316033 -0.154452 -0.499 135 100 104
0.320786 -0.154452 -0.499 132 103 108
0.332191 -0.154452 -0.499 128 99 101
0.335993 -0.154452 -0.499 129 97 100
0.34196 -0.154143 -0.498 128 96 99
0.346953 -0.153833 -0.497 126 94 97
0.358313 -0.153833 -0.497 110 85 89
0.3621 -0.153833 -0.497 123 92 97
0.42394 -0.160024 -0.517 191 149 137
0.462441 -0.164976 -0.533 157 102 99
-0.165524 -0.196823 -0.632 186 186 178
-0.151023 -0.199937 -0.642 193 193 183
-0.147042 -0.201183 -0.646 195 195 185
0.0837657 -0.199937 -0.642 196 151 148
0.111258 -0.184677 -0.593 205 159 143
0.116167 -0.1853 -0.595 187 142 123
0.13464 -0.190594 -0.612 145 98 90
0.141124 -0.193086 -0.62 133 90 84
0.166524 -0.202429 -0.65 122 87 85
0.24603 -0.163189 -0.524 115 96 102
0.246173 -0.16132 -0.518 107 86 93
0.24769 -0.160386 -0.515 97 68 70
0.255 -0.158829 -0.51 147 112 116
0.285423 -0.156337 -0.502 147 111 113
0.286379 -0.156337 -0.502 147 111 113
0.296306 -0.156026 -0.501 135 101 102
0.315083 -0.155403 -0.499 135 100 104
0.322989 -0.155091 -0.498 227 198 200
0.334371 -0.155091 -0.498 129 99 101
0.346953 -0.15478 -0.497 125 95 95
0.42394 -0.161009 -0.517 192 148 135
-0.160514 -0.19928 -0.636 189 189 179
-0.150267 -0.201787 -0.644 194 194 184
0.105076 -0.184867 -0.59 210 167 150
0.108631 -0.18518 -0.591 209 164 145
0.1173 -0.186433 -0.595 182 137 118
0.142993 -0.195207 -0.623 127 89 86
0.252591 -0.16074 -0.513 143 116 123
0.257914 -0.1598 -0.51 147 112 116
0.259806 -0.159173 -0.508 144 112 115
0.263157 -0.15886 -0.507 141 109 112
0.27696 -0.15792 -0.504 143 107 111
0.294397 -0.15698 -0.501 134 98 100
0.317934 -0.156353 -0.499 134 100 101
0.324886 -0.15604 -0.498 212 180 183
0.332474 -0.15604 -0.498 130 98 99
0.336269 -0.15604 -0.498 127 95 96
0.352869 -0.155413 -0.496 122 92 92
0.364726 -0.15604 -0.498 127 95 98
0.425309 -0.164813 -0.526 173 127 114
0.42394 -0.161993 -0.517 194 148 133
0.426069 -0.16168 -0.516 181 132 117
-0.171271 -0.198915 -0.631 183 183 175
-0.165786 -0.199546 -0.633 187 187 179
-0.15762 -0.201437 -0.639 190 190 180
-0.148272 -0.203644 -0.646 193 193 183
0.09688 -0.18536 -0.588 212 167 148
0.101532 -0.185675 -0.589 210 167 148
0.1062 -0.18599 -0.59 209 166 147
0.113326 -0.186621 -0.592 196 150 134
0.1173 -0.187567 -0.595 182 137 118
0.151556 -0.199861 -0.634 119 84 82
0.251665 -0.168968 -0.536 73 56 72
0.248626 -0.163609 -0.519 109 94 99
0.268852 -0.159195 -0.505 143 108 112
0.276 -0.15888 -0.504 142 106 110
0.298571 -0.157619 -0.5 133 99 100
0.303677 -0.157304 -0.499 136 102 103
0.311606 -0.156989 -0.498 135 101 102
0.313503 -0.156989 -0.498 134 100 101
0.316349 -0.156989 -0.498 132 98 99
0.318246 -0.156989 -0.498 133 99 100
0.324233 -0.156673 -0.497 142 107 111
0.33532 -0.156989 -0.498 128 96 97
0.340327 -0.156673 -0.497 127 95 96
0.364726 -0.156989 -0.498 123 91 94
0.432962 -0.169598 -0.538 156 112 109
-0.178311 -0.202654 -0.639 178 179 171
-0.163632 -0.201069 -0.634 189 189 179
-0.154691 -0.203606 -0.642 192 192 182
-0.147497 -0.205509 -0.648 192 192 182
0.08358 -0.189334 -0.597 206 163 146
0.0842914 -0.188383 -0.594 207 164 147
0.0900067 -0.186163 -0.587 209 163 147
0.0932019 -0.185846 -0.586 207 161 145
0.0954343 -0.185846 -0.586 210 164 148
0.10602 -0.186797 -0.589 209 166 149
0.114453 -0.187749 -0.592 190 144 128
0.141579 -0.197263 -0.622 122 87 81
0.2505 -0.1665 -0.525 93 81 91
0.256 -0.162377 -0.512 141 114 119
0.27408 -0.15984 -0.504 141 105 107
0.287335 -0.159206 -0.502 135 99 103
0.306529 -0.158254 -0.499 137 103 104
0.30876 -0.157937 -0.498 135 101 102
0.317297 -0.157937 -0.498 133 99 100
0.341531 -0.157303 -0.496 127 95 96
0.451212 -0.167134 -0.527 133 84 80
0.0828571 -0.191429 -0.6 204 161 144
0.10584 -0.1876 -0.588 208 165 148
0.113134 -0.188557 -0.591 191 146 127
0.121309 -0.19079 -0.598 167 119 105
0.138538 -0.19749 -0.619 128 91 85
0.15445 -0.20451 -0.641 122 88 87
0.258886 -0.162714 -0.51 143 109 110
0.292857 -0.159524 -0.5 135 99 101
0.32518 -0.158567 -0.497 132 98 99
0.33086 -0.158567 -0.497 131 97 98
0.352157 -0.157929 -0.495 128 97 95
0.3531 -0.157929 -0.495 128 97 95
0.474965 -0.189195 -0.593 129 89 89
0.428938 -0.170052 -0.533 161 118 112
0.436454 -0.165586 -0.519 135 85 78
0.443803 -0.166862 -0.523 131 83 81
0.46056 -0.169733 -0.532 145 96 92
-0.173675 -0.202521 -0.631 179 179 171
0.131876 -0.195781 -0.61 140 95 89
0.255048 -0.166895 -0.52 110 94 104
0.257477 -0.164649 -0.513 95 69 72
0.259393 -0.164007 -0.511 125 95 97
0.260829 -0.163686 -0.51 140 108 111
0.262709 -0.163044 -0.508 142 107 113
0.265089 -0.162723 -0.507 143 106 113
0.27641 -0.161439 -0.503 142 106 110
0.27873 -0.161118 -0.502 141 105 109
0.305914 -0.159834 -0.498 136 102 103
0.31666 -0.159513 -0.497 133 99 100
0.3195 -0.159513 -0.497 123 91 92
0.33938 -0.159513 -0.497 129 95 96
0.339642 -0.159192 -0.496 128 96 97
0.343421 -0.159192 -0.496 126 94 95
0.346255 -0.159192 -0.496 126 95 93
0.348386 -0.158871 -0.495 126 94 95
0.422883 -0.167858 -0.523 184 136 124
0.422955 -0.165932 -0.517 187 138 124
0.426224 -0.16529 -0.515 174 117 100
0.430833 -0.165932 -0.517 157 99 87
0.439276 -0.166895 -0.52 129 80 75
0.44196 -0.167537 -0.522 129 80 75
0.462587 -0.170747 -0.532 145 97 95
-0.177562 -0.204046 -0.632 179 179 169
-0.170729 -0.203077 -0.629 183 183 173
0.0849914 -0.190809 -0.591 206 163 144
0.0866524 -0.189517 -0.587 208 165 146
0.087621 -0.189194 -0.586 209 166 149
0.0885857 -0.188871 -0.585 209 166 149
0.0895467 -0.188549 -0.584 205 162 145
0.14249 -0.202109 -0.626 115 85 83
0.144141 -0.202754 -0.628 119 85 86
0.258 -0.166594 -0.516 98 77 86
0.257979 -0.165949 -0.514 96 73 79
0.265089 -0.163689 -0.507 140 105 111
0.285809 -0.161751 -0.501 135 99 101
0.290952 -0.161429 -0.5 135 99 103
0.302727 -0.161106 -0.499 136 102 101
0.303677 -0.161106 -0.499 137 103 102
0.311927 -0.16046 -0.497 134 100 99
0.3195 -0.16046 -0.497 127 93 94
0.334647 -0.16046 -0.497 129 97 98
0.356871 -0.159814 -0.495 233 216 226
0.3621 -0.16046 -0.497 120 91 96
0.422955 -0.166917 -0.517 186 137 123
-0.177 -0.2046 -0.63 178 180 169
-0.16484 -0.205899 -0.634 186 188 177
-0.16198 -0.206873 -0.637 189 189 179
-0.05616 -0.210446 -0.648 89 87 92
-0.0550952 -0.211095 -0.65 91 89 94
0.0838657 -0.191934 -0.591 208 165 148
0.0893933 -0.189336 -0.583 209 163 147
0.0984457 -0.189661 -0.584 212 169 150
0.128915 -0.19713 -0.607 143 100 93
0.156378 -0.21077 -0.649 115 83 86
0.260409 -0.166603 -0.513 95 72 78
0.26134 -0.165953 -0.511 99 79 81
0.262313 -0.165953 -0.511 107 82 85
0.262771 -0.165629 -0.51 116 91 94
0.263676 -0.164979 -0.508 136 107 109
0.281991 -0.162706 -0.501 137 101 103
0.287717 -0.162706 -0.501 137 98 99
0.307811 -0.161731 -0.498 135 101 102
0.33654 -0.161407 -0.497 129 95 96
0.354986 -0.160757 -0.495 226 203 213
0.3621 -0.161407 -0.497 127 97 99
0.431134 -0.174397 -0.537 166 116 109
0.421154 -0.167577 -0.516 193 141 130
0.443803 -0.16985 -0.523 125 76 71
0.465343 -0.173423 -0.534 141 97 88
-0.182033 -0.207433 -0.635 179 179 169
-0.159334 -0.209393 -0.641 190 190 180
-0.15836 -0.20972 -0.642 190 190 180
-0.0586286 -0.21168 -0.648 82 80 83
0.0871724 -0.190447 -0.583 211 165 149
0.0947829 -0.19012 -0.582 211 165 149
0.1053 -0.1911 -0.585 205 160 141
0.155142 -0.212007 -0.649 117 83 84
0.263743 -0.1666 -0.51 106 81 85
0.266054 -0.16562 -0.507 143 107 111
0.269385 -0.165293 -0.506 145 106 111
0.275452 -0.164313 -0.503 140 105 109
0.32547 -0.162027 -0.496 131 97 98
0.345557 -0.1617 -0.495 127 95 96
0.348386 -0.1617 -0.495 126 94 95
0.354986 -0.1617 -0.495 226 205 214
0.440121 -0.170193 -0.521 128 83 78
0.44565 -0.171173 -0.524 128 81 75
-0.164407 -0.2093 -0.637 187 189 178
-0.157382 -0.211271 -0.643 188 188 178
-0.152434 -0.212914 -0.648 189 189 177
0.0811695 -0.195829 -0.596 207 161 145
0.0823048 -0.195829 -0.596 207 161 145
0.114067 -0.193857 -0.59 174 127 109
0.260949 -0.169543 -0.516 101 80 87
0.26702 -0.166586 -0.507 142 106 110
0.27641 -0.165271 -0.503 138 104 105
0.27873 -0.164943 -0.502 143 109 110
0.323581 -0.162971 -0.496 131 97 98
0.32547 -0.162971 -0.496 131 97 98
0.331139 -0.162971 -0.496 131 97 98
0.348386 -0.162643 -0.495 126 94 95
0.420813 -0.1702 -0.518 193 141 130
0.42312 -0.169543 -0.516 185 131 119
0.440121 -0.171186 -0.521 128 84 81
0.44196 -0.171514 -0.522 126 82 79
0.449354 -0.172829 -0.526 128 81 73
-0.186831 -0.211174 -0.639 177 177 167
-0.182666 -0.209191 -0.633 178 178 168
-0.164407 -0.210513 -0.637 187 187 177
-0.0610971 -0.214149 -0.648 73 73 75
-0.0583571 -0.213157 -0.645 81 79 82
-0.0571286 -0.213157 -0.645 82 80 83
0.0807057 -0.198616 -0.601 210 162 150
0.10383 -0.192668 -0.583 200 157 138
0.112751 -0.19465 -0.589 175 130 111
0.262496 -0.172839 -0.523 102 87 94
0.262914 -0.170526 -0.516 97 80 90
0.279129 -0.165569 -0.501 144 110 111
0.287717 -0.165569 -0.501 136 100 102
0.304017 -0.164577 -0.498 136 102 103
0.30814 -0.164247 -0.497 135 101 102
0.335863 -0.163916 -0.496 127 96 94
0.337752 -0.163916 -0.496 126 95 93
0.352157 -0.163586 -0.495 134 108 111
0.420637 -0.171517 -0.519 191 141 134
0.440121 -0.172178 -0.521 128 87 83
0.451212 -0.174161 -0.527 125 80 75
-0.176438 -0.208735 -0.628 180 180 172
-0.170729 -0.209068 -0.629 184 184 176
-0.164407 -0.211727 -0.637 187 187 177
-0.0623314 -0.215383 -0.648 72 72 72
-0.0594933 -0.214053 -0.644 76 76 78
0.0867238 -0.192781 -0.58 209 166 149
0.0990467 -0.193113 -0.581 210 167 148
0.114067 -0.196105 -0.59 169 124 105
0.116906 -0.197102 -0.593 164 119 100
0.142426 -0.209732 -0.631 112 83 87
0.265233 -0.169847 -0.511 93 76 86
0.295123 -0.165858 -0.499 133 99 100
0.318857 -0.164861 -0.496 131 97 98
0.347682 -0.164196 -0.494 125 93 94
0.363777 -0.165526 -0.498 115 86 90
0.455948 -0.17583 -0.529 135 94 90
-0.332429 -0.217286 -0.65 251 252 244
-0.32423 -0.215949 -0.646 250 251 243
-0.318814 -0.215614 -0.645 251 252 246
-0.159831 -0.214946 -0.643 188 188 176
-0.158853 -0.21528 -0.644 188 188 176
-0.0547562 -0.215949 -0.646 83 81 84
0.0931914 -0.193551 -0.579 211 168 151
0.109945 -0.195891 -0.586 182 137 118
0.129552 -0.203914 -0.61 130 93 87
0.13869 -0.208929 -0.625 114 84 86
0.140776 -0.210266 -0.629 113 83 85
0.275452 -0.168146 -0.503 143 107 109
0.278174 -0.167477 -0.501 147 111 113
0.293222 -0.166809 -0.499 135 99 99
0.296073 -0.166809 -0.499 135 101 100
0.30246 -0.16614 -0.497 137 103 104
0.316023 -0.165806 -0.496 132 98 99
0.321691 -0.165806 -0.496 132 98 99
0.32547 -0.165806 -0.496 131 97 98
0.333973 -0.165806 -0.496 128 96 97
0.341786 -0.165471 -0.495 128 96 97
0.343671 -0.165471 -0.495 127 95 96
0.3465 -0.165471 -0.495 126 94 95
0.351214 -0.165471 -0.495 116 91 95
0.439276 -0.173829 -0.52 129 88 86
0.456955 -0.176837 -0.529 137 94 88
-0.311702 -0.21617 -0.643 254 255 250
-0.0605314 -0.215834 -0.642 73 73 75
0.0895724 -0.193982 -0.577 210 167 150
0.26718 -0.171793 -0.511 94 81 90
0.27504 -0.16944 -0.504 141 107 108
0.296429 -0.167423 -0.498 134 100 99
0.3053 -0.167087 -0.497 135 101 102
0.30941 -0.16675 -0.496 133 99 100
0.333029 -0.16675 -0.496 131 97 98
0.334918 -0.16675 -0.496 126 94 95
0.338697 -0.16675 -0.496 125 93 94
0.429017 -0.173474 -0.516 156 102 90
0.465343 -0.179526 -0.534 131 93 90
-0.32214 -0.215367 -0.637 252 253 245
-0.30707 -0.216719 -0.641 255 255 248
-0.173125 -0.212662 -0.629 184 184 174
-0.154903 -0.219086 -0.648 188 188 178
0.0806248 -0.200152 -0.592 206 164 148
0.0884733 -0.195081 -0.577 209 163 147
0.0906714 -0.195081 -0.577 212 166 150
0.0917705 -0.195081 -0.577 212 166 150
0.129977 -0.206914 -0.612 125 88 82
0.131786 -0.207929 -0.615 122 88 86
0.27504 -0.1704 -0.504 146 111 115
0.284286 -0.169048 -0.5 133 97 99
0.285238 -0.169048 -0.5 133 97 99
0.289789 -0.168371 -0.498 133 97 97
0.303407 -0.168033 -0.497 135 101 102
0.325757 -0.167357 -0.495 130 96 97
0.341531 -0.167695 -0.496 124 92 93
0.366923 -0.169386 -0.501 70 51 57
0.425086 -0.174457 -0.516 169 116 102
0.452216 -0.178176 -0.527 131 90 84
-0.18271 -0.21386 -0.629 180 180 172
-0.162997 -0.21794 -0.641 186 188 177
-0.0629771 -0.21828 -0.642 69 67 70
0.0916114 -0.19584 -0.576 210 167 148
0.119969 -0.20298 -0.597 144 102 90
0.123062 -0.20434 -0.601 142 100 88
0.272534 -0.17918 -0.527 72 59 69
0.279129 -0.17034 -0.501 136 102 103
0.283717 -0.16966 -0.499 133 97 97
0.302796 -0.16864 -0.496 135 101 102
0.35521 -0.16796 -0.494 123 94 96
0.439276 -0.1768 -0.52 126 88 85
0.460706 -0.18054 -0.531 132 97 95
-0.327691 -0.217451 -0.636 251 252 246
-0.317 -0.216768 -0.634 239 240 235
-0.303677 -0.218477 -0.639 252 253 247
-0.167783 -0.217451 -0.636 186 186 176
-0.062781 -0.218819 -0.64 70 68 71
-0.0547562 -0.22087 -0.646 80 78 81
0.0972657 -0.197279 -0.577 202 160 138
0.11125 -0.200698 -0.587 170 122 108
0.112751 -0.201382 -0.589 165 117 105
0.121714 -0.205143 -0.6 144 102 90
0.128601 -0.208904 -0.611 121 90 87
0.2911 -0.169927 -0.497 131 95 97
0.29962 -0.169927 -0.497 133 99 100
0.306575 -0.169585 -0.496 135 101 100
0.32604 -0.168901 -0.494 130 96 97
0.327643 -0.169243 -0.495 129 95 94
0.336129 -0.169243 -0.495 127 91 91
0.337071 -0.169243 -0.495 127 91 91
0.338957 -0.169243 -0.495 128 89 92
0.35521 -0.168901 -0.494 123 91 92
0.357814 -0.169243 -0.495 128 92 96
-0.331847 -0.219007 -0.637 247 248 242
-0.323734 -0.217631 -0.633 235 236 230
-0.308547 -0.217975 -0.634 231 232 227
-0.191377 -0.220726 -0.642 178 179 171
-0.185106 -0.216256 -0.629 179 180 172
-0.0698448 -0.223132 -0.649 62 61 66
-0.0611771 -0.218663 -0.636 72 70 73
-0.0557267 -0.22107 -0.643 78 76 79
0.0881667 -0.19769 -0.575 213 168 149
0.0903571 -0.19769 -0.575 213 168 149
0.105687 -0.199753 -0.581 184 141 124
0.108457 -0.200785 -0.584 175 129 114
0.274089 -0.176374 -0.513 108 86 98
0.276131 -0.173968 -0.506 95 75 87
0.303741 -0.17053 -0.496 134 100 99
0.312557 -0.170186 -0.495 131 97 96
0.31569 -0.169842 -0.494 130 96 95
0.317571 -0.169842 -0.494 130 96 95
0.330471 -0.170186 -0.495 129 95 96
0.338014 -0.170186 -0.495 127 91 91
0.348856 -0.169498 -0.493 178 155 163
0.420086 -0.179469 -0.522 181 131 122
0.42312 -0.177406 -0.516 176 124 113
0.431818 -0.17775 -0.517 137 94 87
0.438431 -0.178437 -0.519 132 89 82
-0.335487 -0.22022 -0.637 250 251 243
-0.317204 -0.218491 -0.632 139 140 135
-0.303463 -0.219874 -0.636 251 252 247
-0.296838 -0.221257 -0.64 251 254 247
-0.175876 -0.216417 -0.626 182 182 170
-0.171543 -0.218491 -0.632 184 184 172
-0.160329 -0.222986 -0.645 186 186 174
-0.159347 -0.223331 -0.646 185 185 173
0.0983648 -0.199477 -0.577 199 156 137
0.0994638 -0.199477 -0.577 198 155 136
0.1044 -0.200514 -0.58 183 140 123
0.275691 -0.178389 -0.516 112 91 100
0.276255 -0.175623 -0.508 92 79 89
0.280642 -0.173549 -0.502 119 90 94
0.30563 -0.171474 -0.496 134 100 99
0.3333 -0.171129 -0.495 126 95 93
0.342977 -0.170783 -0.494 121 91 93
0.423704 -0.182883 -0.529 175 125 116
0.419827 -0.17908 -0.518 181 131 122
0.440267 -0.179771 -0.52 130 87 81
0.448644 -0.181154 -0.524 132 93 88
0.454224 -0.182191 -0.527 133 94 89
-0.345149 -0.224562 -0.646 250 251 245
-0.29269 -0.22491 -0.647 251 252 246
-0.177069 -0.21761 -0.626 182 182 170
-0.167095 -0.221781 -0.638 186 186 174
-0.0724286 -0.225952 -0.65 60 59 64
-0.0587543 -0.221086 -0.636 75 73 78
-0.0567743 -0.222824 -0.641 78 76 81
-0.0547562 -0.224562 -0.646 78 76 81
0.0981943 -0.200229 -0.576 199 156 139
0.105687 -0.201967 -0.581 179 136 120
0.135551 -0.217957 -0.627 111 82 84
0.27721 -0.179719 -0.517 103 85 99
0.285238 -0.17381 -0.5 134 100 101
0.286569 -0.173462 -0.499 133 99 100
0.314749 -0.171724 -0.494 129 95 94
0.327922 -0.171724 -0.494 126 92 93
0.346978 -0.171376 -0.493 199 173 176
0.35926 -0.172767 -0.497 121 92 96
0.422102 -0.183195 -0.527 174 126 116
0.438431 -0.180414 -0.519 130 87 81
0.443098 -0.18111 -0.521 123 82 76
-0.340191 -0.223346 -0.639 251 252 246
-0.312389 -0.220899 -0.632 133 133 131
-0.298341 -0.222996 -0.638 254 255 249
-0.292359 -0.226841 -0.649 250 251 246
-0.1866 -0.2202 -0.63 180 182 169
-0.157614 -0.226841 -0.649 184 185 171
-0.155381 -0.22719 -0.65 181 182 168
-0.0718714 -0.225443 -0.645 58 57 62
-0.0578143 -0.223346 -0.639 77 75 80
0.0785019 -0.207268 -0.593 216 171 152
0.0994638 -0.201675 -0.577 195 154 136
0.124086 -0.211811 -0.606 126 89 83
0.339334 -0.226841 -0.649 119 124 156
0.281201 -0.17581 -0.503 90 74 87
0.289207 -0.173713 -0.497 133 97 99
0.292047 -0.173713 -0.497 134 98 100
0.299017 -0.173364 -0.496 131 99 100
0.300907 -0.173364 -0.496 130 98 99
0.304686 -0.173364 -0.496 132 98 97
0.311614 -0.173014 -0.495 130 96 95
0.318512 -0.172665 -0.494 129 95 94
0.422696 -0.184898 -0.529 154 113 107
0.419281 -0.182102 -0.521 181 133 123
0.419827 -0.181053 -0.518 181 131 122
0.43 -0.180354 -0.516 140 95 89
0.435613 -0.181053 -0.518 132 89 82
0.460848 -0.185248 -0.53 127 94 87
-0.3003 -0.22386 -0.637 247 248 243
-0.298341 -0.224211 -0.638 252 253 248
-0.292106 -0.225969 -0.643 251 252 247
-0.181838 -0.219994 -0.626 185 186 172
-0.157614 -0.228077 -0.649 181 184 167
-0.156619 -0.228429 -0.65 180 181 165
0.09348 -0.20172 -0.574 206 163 146
0.0958333 -0.202071 -0.575 203 160 143
0.11125 -0.206289 -0.587 153 109 98
0.340191 -0.224563 -0.639 120 125 157
0.28351 -0.176417 -0.502 96 75 82
0.304686 -0.174309 -0.496 131 97 96
0.312867 -0.173606 -0.494 129 95 94
0.317571 -0.173606 -0.494 129 95 94
0.326319 -0.173254 -0.493 126 92 93
0.343222 -0.173254 -0.493 119 93 96
0.347917 -0.173254 -0.493 204 183 188
0.350734 -0.173254 -0.493 141 114 119
0.41866 -0.182391 -0.519 182 134 124
0.4223 -0.180986 -0.515 170 120 109
0.438431 -0.182391 -0.519 135 96 89
0.45897 -0.185906 -0.529 130 95 89
-0.3294 -0.2226 -0.63 160 163 156
-0.192313 -0.225073 -0.637 178 180 167
-0.186304 -0.222247 -0.629 183 184 170
-0.173675 -0.222953 -0.631 184 186 172
-0.157857 -0.229667 -0.65 180 181 167
0.0822591 -0.202107 -0.572 218 172 157
0.293349 -0.175253 -0.496 132 98 99
0.306575 -0.175253 -0.496 131 97 96
0.307843 -0.1749 -0.495 130 96 95
0.331953 -0.174193 -0.493 122 92 92
0.333831 -0.174193 -0.493 123 91 94
0.340405 -0.174193 -0.493 121 89 92
0.341344 -0.174193 -0.493 121 90 95
0.346274 -0.17384 -0.492 175 150 153
0.347211 -0.17384 -0.492 203 184 188
0.420299 -0.185853 -0.526 172 129 122
0.433788 -0.182673 -0.517 139 96 89
-0.322887 -0.223445 -0.629 152 151 149
-0.292418 -0.227708 -0.641 251 252 247
-0.183323 -0.222734 -0.627 184 184 172
-0.180646 -0.222379 -0.626 184 184 174
-0.171148 -0.225576 -0.635 185 185 173
-0.170206 -0.225931 -0.636 185 185 173
-0.167619 -0.227352 -0.64 187 188 174
-0.0725333 -0.227352 -0.64 65 63 68
0.0853781 -0.202841 -0.571 217 174 158
0.0886409 -0.202841 -0.571 215 172 155
0.283842 -0.17975 -0.506 100 80 91
0.28695 -0.178685 -0.503 91 74 84
0.291686 -0.176909 -0.498 131 97 98
0.301243 -0.175843 -0.495 130 96 95
0.302186 -0.175843 -0.495 131 97 96
0.31599 -0.175132 -0.493 126 92 93
0.337588 -0.175132 -0.493 126 91 95
0.341589 -0.174777 -0.492 134 105 109
0.350734 -0.175132 -0.493 117 92 96
0.4195 -0.1865 -0.525 174 130 117
-0.331943 -0.224286 -0.628 189 192 185
-0.292106 -0.229643 -0.643 251 252 247
-0.290674 -0.231429 -0.648 252 253 248
-0.167357 -0.228214 -0.639 187 187 175
-0.0640981 -0.224643 -0.629 67 66 72
0.0830571 -0.203571 -0.57 217 174 158
0.123134 -0.216786 -0.607 124 89 83
0.128897 -0.220714 -0.618 116 85 83
0.292047 -0.1775 -0.497 130 95 99
0.292993 -0.1775 -0.497 134 100 98
0.299962 -0.177143 -0.496 129 97 98
0.417671 -0.185357 -0.519 191 143 133
0.424262 -0.183929 -0.515 164 114 103
0.435757 -0.184643 -0.517 137 96 90
0.460848 -0.189286 -0.53 133 88 85
-0.338336 -0.226559 -0.631 250 253 246
-0.335531 -0.225482 -0.628 253 255 249
-0.327831 -0.225123 -0.627 143 146 139
-0.290674 -0.232663 -0.648 252 253 248
-0.191408 -0.227636 -0.634 179 181 168
-0.174877 -0.226559 -0.631 183 185 172
-0.16692 -0.230509 -0.642 186 186 174
-0.0675848 -0.225482 -0.628 66 63 70
-0.063 -0.2262 -0.63 69 68 74
0.0874 -0.204657 -0.57 212 171 153
0.0884857 -0.204657 -0.57 211 170 152
0.118089 -0.21507 -0.599 132 91 85
0.133588 -0.225841 -0.629 113 83 85
0.289626 -0.179883 -0.501 91 74 82
0.296183 -0.178088 -0.496 132 96 96
0.307221 -0.17737 -0.494 130 96 97
0.313172 -0.17701 -0.493 127 93 94
0.31599 -0.17701 -0.493 129 95 94
0.323502 -0.17701 -0.493 128 94 93
0.333154 -0.176651 -0.492 124 92 93
0.33784 -0.176651 -0.492 124 94 92
0.419297 -0.188859 -0.526 180 132 128
0.417047 -0.185628 -0.517 187 137 128
0.418206 -0.185269 -0.516 187 137 128
0.431966 -0.185269 -0.516 136 93 86
0.438573 -0.185987 -0.518 131 88 82
0.43956 -0.185987 -0.518 125 82 76
0.441397 -0.186346 -0.519 119 76 70
-0.191408 -0.228844 -0.634 180 182 169
-0.180357 -0.225595 -0.625 186 186 178
-0.176438 -0.226678 -0.628 183 185 172
-0.0700886 -0.227039 -0.629 66 65 71
-0.068781 -0.226678 -0.628 65 64 72
-0.0546714 -0.232814 -0.645 75 74 80
0.099119 -0.207548 -0.575 183 144 127
0.125519 -0.221264 -0.613 114 83 81
0.350157 -0.229205 -0.635 118 118 144
0.289625 -0.182642 -0.506 99 82 92
0.299357 -0.178671 -0.495 133 95 94
0.301243 -0.178671 -0.495 132 98 99
0.305339 -0.17831 -0.494 131 97 98
-0.355952 -0.235857 -0.65 251 252 244
-0.332078 -0.227149 -0.626 167 169 164
-0.330886 -0.227149 -0.626 148 150 145
-0.176438 -0.227874 -0.628 183 185 174
-0.0608886 -0.229689 -0.633 72 71 77
0.0860114 -0.206103 -0.568 210 167 151
0.0906571 -0.206829 -0.57 202 159 140
0.1044 -0.210457 -0.58 160 122 111
0.108643 -0.212271 -0.585 153 111 99
0.290197 -0.183969 -0.507 105 88 96
0.294531 -0.180703 -0.498 125 96 100
0.301575 -0.179251 -0.494 130 96 97
0.319097 -0.178526 -0.492 124 90 89
0.321909 -0.178526 -0.492 128 94 95
0.332217 -0.178526 -0.492 125 90 94
0.335283 -0.178163 -0.491 121 89 92
0.33784 -0.178526 -0.492 123 93 95
0.421319 -0.186871 -0.515 171 119 108
0.423281 -0.186871 -0.515 164 112 99
0.428186 -0.186871 -0.515 137 93 84
0.431966 -0.187234 -0.516 142 98 89
0.432949 -0.187234 -0.516 147 103 94
-0.167619 -0.233448 -0.64 188 188 178
-0.164987 -0.234907 -0.644 188 188 176
-0.0833143 -0.236366 -0.648 62 60 65
-0.0765629 -0.230894 -0.633 65 64 72
-0.0736829 -0.229435 -0.629 65 64 72
-0.0697543 -0.228341 -0.626 65 64 72
0.0766771 -0.208279 -0.571 215 173 161
0.08262 -0.20682 -0.567 217 174 158
0.0929914 -0.208279 -0.571 199 156 137
0.130566 -0.228341 -0.626 111 84 91
0.323783 -0.179463 -0.492 124 92 93
0.339024 -0.179098 -0.491 206 181 185
0.416906 -0.19077 -0.523 182 132 125
0.417047 -0.188582 -0.517 184 134 125
0.437727 -0.188582 -0.517 141 96 90
0.442386 -0.189311 -0.519 138 95 89
0.443374 -0.189311 -0.519 130 87 81
-0.347494 -0.2343 -0.639 251 252 246
-0.330357 -0.229167 -0.625 142 144 139
-0.1896 -0.231733 -0.632 183 185 171
-0.170741 -0.233933 -0.638 187 187 177
-0.0746429 -0.2299 -0.627 64 62 73
-0.0733314 -0.229533 -0.626 65 63 74
-0.0618981 -0.231367 -0.631 72 69 78
-0.0523762 -0.237233 -0.647 78 75 84
0.094079 -0.209367 -0.571 194 151 132
0.100389 -0.2112 -0.576 172 131 113
0.105869 -0.2134 -0.582 149 113 101
0.119074 -0.221467 -0.604 116 86 86
0.357888 -0.233933 -0.638 144 143 159
0.293857 -0.187 -0.51 100 84 95
0.297727 -0.182233 -0.497 128 96 97
0.301243 -0.1815 -0.495 129 95 96
0.330607 -0.180033 -0.491 127 93 92
0.415505 -0.190667 -0.52 182 132 123
0.418206 -0.1892 -0.516 183 135 125
0.419357 -0.188833 -0.515 175 127 117
0.425243 -0.188833 -0.515 149 99 88
0.433931 -0.1892 -0.516 143 99 90
0.46374 -0.1947 -0.531 127 87 85
-0.327976 -0.230357 -0.625 134 136 131
-0.326786 -0.230357 -0.625 130 135 128
-0.187502 -0.231831 -0.629 183 184 176
-0.159095 -0.239571 -0.65 181 179 166
-0.0838962 -0.236991 -0.643 64 61 68
-0.0523762 -0.238466 -0.647 79 76 85
0.110695 -0.217457 -0.59 133 98 92
0.1314 -0.2322 -0.63 110 80 88
0.295572 -0.185391 -0.503 99 79 88
0.302516 -0.182074 -0.494 129 95 96
0.318449 -0.180969 -0.491 125 93 94
0.3437 -0.180969 -0.491 114 91 97
0.43688 -0.190183 -0.516 130 86 77
0.44806 -0.192026 -0.521 135 90 84
-0.289976 -0.237475 -0.641 252 253 248
-0.187502 -0.23303 -0.629 184 185 177
-0.181548 -0.231548 -0.625 187 187 177
-0.173567 -0.235252 -0.635 188 188 178
-0.168838 -0.237105 -0.64 189 189 177
-0.0741667 -0.230807 -0.623 64 63 71
-0.0566857 -0.237105 -0.64 72 71 79
0.0846305 -0.20969 -0.566 209 167 151
0.08586 -0.21006 -0.567 206 164 148
0.08802 -0.21006 -0.567 203 162 144
0.0915819 -0.210801 -0.569 192 151 131
0.297377 -0.184497 -0.498 106 85 94
0.299962 -0.183756 -0.496 127 93 92
0.309096 -0.181904 -0.491 130 96 97
0.310031 -0.181904 -0.491 129 95 96
0.321254 -0.181904 -0.491 123 91 92
0.340894 -0.181904 -0.491 213 196 202
0.427205 -0.190795 -0.515 151 99 88
0.429167 -0.190795 -0.515 155 107 95
0.432949 -0.191166 -0.516 144 97 87
0.444363 -0.192277 -0.519 130 85 79
0.456368 -0.19487 -0.526 139 91 81
0.460114 -0.195611 -0.528 123 89 90
0.462867 -0.196352 -0.53 122 88 89
-0.326786 -0.232738 -0.625 124 129 122
-0.28865 -0.241675 -0.649 251 252 247
-0.160087 -0.241675 -0.649 179 179 169
-0.157857 -0.242048 -0.65 180 178 166
-0.0766629 -0.232366 -0.624 66 63 72
-0.0739286 -0.231249 -0.621 65 64 72
-0.0523762 -0.24093 -0.647 77 74 81
-0.0500657 -0.241675 -0.649 80 77 84
0.0738467 -0.217098 -0.583 215 173 161
0.08694 -0.21114 -0.567 204 162 146
0.094079 -0.21263 -0.571 190 147 128
0.102014 -0.215609 -0.579 159 121 108
0.116387 -0.224173 -0.602 114 86 85
0.12006 -0.22678 -0.609 113 85 84
0.296771 -0.189914 -0.51 110 89 96
0.30566 -0.183584 -0.493 130 96 97
0.415077 -0.192521 -0.517 187 134 130
0.415433 -0.191776 -0.515 191 138 132
0.434914 -0.192149 -0.516 146 99 89
-0.288993 -0.242163 -0.647 251 252 247
-0.1878 -0.2358 -0.63 185 186 178
-0.184811 -0.235051 -0.628 187 187 177
-0.183323 -0.234677 -0.627 187 187 177
-0.0803571 -0.233929 -0.625 65 62 71
-0.0738095 -0.232057 -0.62 66 65 73
-0.0725114 -0.231683 -0.619 66 65 73
-0.0702667 -0.232057 -0.62 66 65 73
0.0867867 -0.211846 -0.566 202 159 143
0.0939143 -0.213343 -0.57 188 145 126
0.109571 -0.220829 -0.59 129 96 89
0.122414 -0.230186 -0.615 111 82 84
0.297543 -0.190137 -0.508 96 83 93
0.310967 -0.183774 -0.491 125 94 92
0.328736 -0.183774 -0.491 122 90 91
0.416414 -0.192757 -0.515 189 136 130
0.427205 -0.192757 -0.515 148 98 87
0.44252 -0.19388 -0.518 129 85 76
0.449052 -0.195003 -0.521 135 90 84
-0.351571 -0.241514 -0.642 251 252 244
-0.326786 -0.235119 -0.625 116 121 114
-0.182129 -0.235871 -0.627 188 188 178
-0.176719 -0.236624 -0.629 186 187 179
-0.175154 -0.237752 -0.632 187 188 180
-0.169102 -0.241138 -0.641 192 189 180
-0.164269 -0.243019 -0.646 186 186 176
-0.0761714 -0.233238 -0.62 65 64 72
-0.0598714 -0.238881 -0.635 71 70 78
0.0731571 -0.214052 -0.569 215 173 161
0.124791 -0.233614 -0.621 110 83 88
0.131233 -0.238881 -0.635 103 80 90
0.138048 -0.244524 -0.65 101 76 82
0.29904 -0.1896 -0.504 100 80 89
0.310031 -0.18471 -0.491 130 94 94
0.32219 -0.18471 -0.491 127 93 94
0.32593 -0.18471 -0.491 125 93 96
0.339267 -0.184333 -0.49 115 93 96
0.3437 -0.18471 -0.491 125 93 98
0.348623 -0.185838 -0.494 114 88 87
0.350979 -0.18659 -0.496 117 91 90
0.352633 -0.186967 -0.497 96 77 83
0.415257 -0.194114 -0.516 190 137 131
0.418376 -0.193738 -0.515 178 125 119
0.423438 -0.193362 -0.514 157 105 94
0.432949 -0.194114 -0.516 135 88 78
0.435897 -0.194114 -0.516 141 94 86
0.472049 -0.202014 -0.537 124 81 74
0.48204 -0.2054 -0.546 137 91 91
-0.345863 -0.240469 -0.636 251 254 245
-0.291197 -0.242359 -0.641 252 253 248
-0.1899 -0.239334 -0.633 188 188 180
-0.1729 -0.240847 -0.637 190 190 180
-0.168143 -0.242737 -0.642 193 190 181
-0.0867238 -0.237444 -0.628 62 59 70
-0.085119 -0.23631 -0.625 66 63 72
-0.0772276 -0.234041 -0.619 66 65 73
-0.0723943 -0.233663 -0.618 66 64 75
-0.0619962 -0.238956 -0.632 68 68 76
-0.0608886 -0.239334 -0.633 68 68 76
-0.05336 -0.243493 -0.644 73 72 80
0.0729 -0.21438 -0.567 213 173 163
0.0953333 -0.21627 -0.572 180 137 120
0.0994638 -0.218161 -0.577 155 116 99
0.300826 -0.18867 -0.499 92 71 76
0.308477 -0.186401 -0.493 131 95 99
0.317513 -0.185645 -0.491 126 91 95
0.414092 -0.195475 -0.517 190 137 133
0.415433 -0.194719 -0.515 187 134 130
0.433931 -0.195097 -0.516 143 94 87
0.435897 -0.195097 -0.516 139 92 84
-0.359667 -0.247 -0.65 250 251 245
-0.33631 -0.2375 -0.625 251 254 245
-0.162058 -0.24586 -0.647 187 185 173
-0.0996667 -0.247 -0.65 206 206 194
-0.0758029 -0.23446 -0.617 66 64 75
-0.0671543 -0.23712 -0.624 67 67 77
-0.0639962 -0.23864 -0.628 67 67 77
-0.0618981 -0.23978 -0.631 69 69 77
-0.0565971 -0.24282 -0.639 72 71 79
-0.0489048 -0.247 -0.65 77 76 84
0.0714886 -0.21774 -0.573 209 173 161
0.0980238 -0.2185 -0.575 160 118 102
0.302154 -0.19228 -0.506 102 85 93
0.302031 -0.19038 -0.501 95 78 84
0.30246 -0.18886 -0.497 111 85 88
0.303407 -0.18886 -0.497 120 94 97
0.305339 -0.18772 -0.494 126 91 95
0.310031 -0.18658 -0.491 128 93 97
0.32406 -0.18658 -0.491 123 91 94
0.34183 -0.18658 -0.491 120 88 93
0.4135 -0.1995 -0.525 172 121 126
0.417564 -0.19532 -0.514 175 125 118
0.418543 -0.19532 -0.514 174 124 117
0.420501 -0.19532 -0.514 170 120 111
0.445351 -0.19722 -0.519 133 89 80
-0.348711 -0.244037 -0.639 251 252 244
-0.298886 -0.242128 -0.634 239 240 234
-0.297678 -0.242128 -0.634 252 253 247
-0.289329 -0.246329 -0.645 254 255 249
-0.176719 -0.240218 -0.629 188 188 180
-0.168143 -0.245183 -0.642 191 191 181
-0.16718 -0.245565 -0.643 190 190 180
-0.0565971 -0.244037 -0.639 72 71 79
-0.0489048 -0.248238 -0.65 75 74 82
0.378371 -0.24671 -0.646 141 139 161
0.304316 -0.194008 -0.508 99 87 97
0.316578 -0.187515 -0.491 124 92 93
0.346741 -0.188661 -0.494 112 83 85
0.35381 -0.190952 -0.5 81 58 64
0.418554 -0.203937 -0.534 157 113 112
0.417564 -0.196299 -0.514 175 125 118
0.4565 -0.2005 -0.525 137 87 86
-0.331017 -0.239497 -0.624 248 251 242
-0.329829 -0.239497 -0.624 226 229 220
-0.295729 -0.243719 -0.635 255 255 251
-0.184811 -0.241032 -0.628 184 186 175
-0.15984 -0.248709 -0.648 186 184 172
-0.08272 -0.236427 -0.616 67 64 75
-0.0802429 -0.236043 -0.615 64 62 73
-0.0723943 -0.237194 -0.618 67 65 76
0.0796086 -0.215317 -0.561 208 170 159
0.0939143 -0.218771 -0.57 173 132 114
0.0953333 -0.219539 -0.572 167 126 108
0.104008 -0.224145 -0.584 136 99 90
0.110871 -0.229134 -0.597 119 89 89
0.3069 -0.189986 -0.495 125 98 103
0.316578 -0.18845 -0.491 125 93 94
0.318733 -0.188067 -0.49 123 93 93
0.3206 -0.188067 -0.49 124 94 96
0.336467 -0.188067 -0.49 108 96 96
0.342526 -0.188834 -0.492 118 89 93
0.431966 -0.198046 -0.516 130 81 74
0.432949 -0.198046 -0.516 133 84 77
0.434914 -0.198046 -0.516 141 92 85
0.435897 -0.198046 -0.516 140 91 84
0.43688 -0.198046 -0.516 137 90 82
0.46664 -0.204187 -0.532 126 78 68
-0.349257 -0.246857 -0.64 251 254 247
-0.335655 -0.241457 -0.626 250 253 244
-0.329829 -0.240686 -0.624 243 246 237
-0.301554 -0.243771 -0.632 75 76 71
-0.298886 -0.244543 -0.634 188 189 184
-0.164269 -0.249171 -0.646 186 186 178
-0.0874133 -0.2376 -0.616 67 66 74
0.0806771 -0.216386 -0.561 208 170 161
0.0829619 -0.216771 -0.562 202 164 153
0.131048 -0.246857 -0.64 100 80 89
0.339024 -0.189386 -0.491 115 99 102
0.349793 -0.1917 -0.497 106 82 82
0.410947 -0.1998 -0.518 185 138 132
0.422459 -0.198257 -0.514 155 105 96
0.431966 -0.199029 -0.516 130 81 74
0.44819 -0.200571 -0.52 141 96 90
-0.331548 -0.242262 -0.625 251 254 245
-0.29962 -0.245363 -0.633 117 118 113
-0.188396 -0.244975 -0.632 190 191 185
-0.1866 -0.2442 -0.63 189 189 181
-0.170741 -0.247301 -0.638 194 194 184
-0.164014 -0.250014 -0.645 187 187 179
-0.0834848 -0.23761 -0.613 67 66 74
-0.0683429 -0.241874 -0.624 66 66 74
-0.0651924 -0.243425 -0.628 69 68 73
0.0900209 -0.219392 -0.566 176 137 122
0.312662 -0.200399 -0.517 44 48 59
0.309103 -0.191484 -0.494 129 99 101
0.310031 -0.190321 -0.491 123 91 92
0.312837 -0.190321 -0.491 123 93 91
0.414274 -0.200011 -0.516 188 133 128
0.441666 -0.200399 -0.517 135 87 83
0.44265 -0.200399 -0.517 137 89 85
0.451037 -0.20195 -0.521 141 96 90
0.46112 -0.204663 -0.528 128 79 75
-0.336191 -0.244231 -0.627 251 254 247
-0.297678 -0.246958 -0.634 176 176 174
-0.294233 -0.248127 -0.637 251 252 247
-0.289777 -0.251632 -0.646 254 255 250
-0.17974 -0.244231 -0.627 187 187 177
-0.177634 -0.244621 -0.628 191 188 181
-0.17395 -0.246179 -0.632 194 191 184
-0.170741 -0.248516 -0.638 193 193 183
-0.110639 -0.252801 -0.649 239 237 225
-0.0869876 -0.238778 -0.613 68 67 75
-0.0726286 -0.241505 -0.62 67 67 75
-0.0673695 -0.243842 -0.626 67 67 75
-0.0566857 -0.249295 -0.64 73 72 78
0.0682171 -0.219691 -0.564 210 174 162
0.0749314 -0.217354 -0.558 209 171 158
0.0851029 -0.218912 -0.562 195 157 138
0.10126 -0.226313 -0.581 136 99 93
0.121048 -0.241505 -0.62 108 86 88
0.313772 -0.191256 -0.491 130 98 103
0.3374 -0.190867 -0.49 136 109 118
0.342283 -0.192035 -0.493 118 87 93
0.3465 -0.192814 -0.495 115 86 91
0.416755 -0.207616 -0.533 154 117 125
0.410552 -0.202552 -0.52 190 135 132
0.40996 -0.201773 -0.518 187 130 123
0.418706 -0.199826 -0.513 159 109 98
0.424417 -0.200215 -0.514 152 102 93
0.44634 -0.202163 -0.519 144 97 91
0.449181 -0.202552 -0.52 143 98 92
-0.333803 -0.245426 -0.627 254 255 250
-0.329693 -0.245034 -0.626 254 255 250
-0.3054 -0.2466 -0.63 252 253 248
-0.296194 -0.248949 -0.636 185 185 183
-0.29348 -0.249731 -0.638 254 255 250
-0.17974 -0.245426 -0.627 191 191 181
-0.159593 -0.253254 -0.647 213 211 199
-0.157371 -0.253646 -0.648 217 213 201
-0.153906 -0.254037 -0.649 216 213 198
-0.103251 -0.248166 -0.634 74 73 78
-0.100041 -0.246209 -0.629 72 71 79
-0.0832124 -0.239163 -0.611 67 67 75
-0.0727457 -0.243077 -0.621 68 67 75
0.0749314 -0.218417 -0.558 207 169 158
0.0793248 -0.218809 -0.559 206 166 154
0.0925029 -0.222331 -0.568 166 124 110
0.123411 -0.245034 -0.626 106 86 88
0.318083 -0.191409 -0.489 130 99 104
0.330191 -0.191409 -0.489 115 87 83
0.342283 -0.192974 -0.493 118 87 93
0.3472 -0.194149 -0.496 112 85 90
0.409763 -0.203151 -0.519 186 133 129
0.414627 -0.201194 -0.514 179 124 119
0.414797 -0.200803 -0.513 177 124 116
0.424417 -0.201194 -0.514 149 99 90
0.426375 -0.201194 -0.514 137 88 83
0.451037 -0.203934 -0.521 139 92 86
-0.353077 -0.254487 -0.647 251 252 247
-0.34967 -0.252913 -0.643 251 252 247
-0.340076 -0.248587 -0.632 251 252 247
-0.3135 -0.24662 -0.627 238 239 233
-0.312804 -0.247013 -0.628 240 241 235
-0.311608 -0.247013 -0.628 243 244 239
-0.310411 -0.247013 -0.628 244 245 240
-0.30851 -0.247407 -0.629 255 255 251
-0.303962 -0.248587 -0.632 255 255 253
-0.188377 -0.25016 -0.636 214 214 206
-0.179453 -0.246227 -0.626 191 191 181
-0.171814 -0.24898 -0.633 196 193 184
-0.168574 -0.25134 -0.639 196 193 184
-0.14919 -0.255667 -0.65 221 216 197
-0.0900476 -0.239933 -0.61 69 68 76
-0.0799819 -0.241113 -0.613 67 67 75
-0.0789429 -0.241507 -0.614 66 66 74
0.0694924 -0.219087 -0.557 204 167 158
0.0705533 -0.219087 -0.557 207 170 161
0.0816 -0.220267 -0.56 196 157 142
0.103071 -0.2301 -0.585 124 94 94
0.127806 -0.25016 -0.636 103 83 92
0.312231 -0.196273 -0.499 95 79 82
0.314708 -0.193127 -0.491 127 95 100
0.321809 -0.19234 -0.489 123 91 96
0.327657 -0.191947 -0.488 116 84 89
0.34531 -0.195093 -0.496 114 89 93
0.409169 -0.203353 -0.517 184 129 122
0.413648 -0.202173 -0.514 181 128 122
0.419683 -0.20178 -0.513 158 108 97
0.431129 -0.202567 -0.515 136 87 80
0.43309 -0.202567 -0.515 143 94 87
0.458371 -0.206893 -0.526 126 83 76
0.46664 -0.209253 -0.532 117 78 71
-0.321347 -0.247419 -0.626 255 255 250
-0.302031 -0.250186 -0.633 252 254 251
-0.29333 -0.254138 -0.643 249 250 245
-0.293014 -0.254929 -0.645 251 252 247
-0.177069 -0.247419 -0.626 193 190 181
-0.167357 -0.252557 -0.639 198 195 186
-0.160577 -0.255324 -0.646 206 204 192
-0.144238 -0.256905 -0.65 224 221 206
-0.117874 -0.256114 -0.648 248 245 228
-0.113467 -0.254533 -0.644 216 213 206
-0.0899 -0.2407 -0.609 69 68 74
-0.0854 -0.241095 -0.61 68 69 74
-0.0842381 -0.241095 -0.61 68 69 74
-0.0760486 -0.244652 -0.619 70 69 77
-0.0749905 -0.245048 -0.62 68 69 74
0.0704267 -0.219752 -0.556 208 170 161
0.0900209 -0.223705 -0.566 167 128 113
0.0969286 -0.227262 -0.575 141 105 91
0.110102 -0.236748 -0.599 113 89 89
0.390619 -0.256905 -0.65 153 154 174
0.388877 -0.252557 -0.639 114 117 136
0.315643 -0.194062 -0.491 131 96 100
0.316578 -0.194062 -0.491 130 98 101
0.3206 -0.193667 -0.49 122 90 95
0.323671 -0.193271 -0.489 125 93 98
0.328587 -0.192876 -0.488 199 175 175
0.329516 -0.192876 -0.488 198 174 174
0.339024 -0.194062 -0.491 116 89 94
0.409562 -0.205524 -0.52 172 123 116
0.431129 -0.203548 -0.515 136 87 80
0.458371 -0.207895 -0.526 125 82 75
-0.354714 -0.258143 -0.65 252 253 248
-0.329026 -0.249009 -0.627 252 253 247
-0.326637 -0.249009 -0.627 252 253 247
-0.325443 -0.249009 -0.627 252 253 247
-0.305166 -0.250994 -0.632 253 254 248
-0.303962 -0.250994 -0.632 253 254 248
-0.2944 -0.254171 -0.64 150 150 148
-0.166833 -0.25298 -0.637 198 195 186
-0.162997 -0.254569 -0.641 193 190 181
-0.162029 -0.254966 -0.642 198 195 186
-0.16008 -0.25576 -0.644 207 205 193
-0.152199 -0.256951 -0.647 220 217 202
-0.0958571 -0.242257 -0.61 66 65 71
0.0674914 -0.221606 -0.558 210 173 167
0.0703 -0.220414 -0.555 208 170 161
0.108415 -0.236697 -0.596 112 87 91
0.11792 -0.24464 -0.616 111 86 90
0.390693 -0.25576 -0.644 114 115 135
0.31599 -0.195791 -0.493 127 92 96
0.318733 -0.1946 -0.49 125 93 96
0.324603 -0.194203 -0.489 124 89 95
0.329516 -0.193806 -0.488 187 162 165
0.333917 -0.194203 -0.489 154 128 137
0.334849 -0.194203 -0.489 123 93 101
0.339024 -0.194997 -0.491 114 85 90
0.41249 -0.204529 -0.515 188 135 129
0.41789 -0.203337 -0.512 162 110 97
0.423591 -0.203734 -0.513 149 99 92
0.44265 -0.205323 -0.517 144 97 89
-0.344919 -0.25579 -0.641 252 253 247
-0.3078 -0.2514 -0.63 251 252 246
-0.295013 -0.256987 -0.644 137 137 135
-0.294699 -0.257785 -0.646 165 164 162
-0.294377 -0.258583 -0.648 186 185 183
-0.173491 -0.249804 -0.626 198 195 186
-0.156643 -0.257386 -0.645 222 219 204
-0.143794 -0.258583 -0.648 236 231 212
-0.122053 -0.256987 -0.644 243 240 231
-0.111352 -0.252198 -0.632 73 74 78
-0.0708333 -0.249405 -0.625 69 70 75
-0.0487543 -0.258583 -0.648 73 72 80
0.0790409 -0.22227 -0.557 197 159 148
0.0849514 -0.223866 -0.561 184 145 130
0.103248 -0.233842 -0.586 117 91 94
0.105076 -0.235438 -0.59 115 89 92
0.11426 -0.24302 -0.609 109 87 90
0.390686 -0.253794 -0.636 94 91 112
0.31663 -0.19713 -0.494 135 104 109
0.323671 -0.195134 -0.489 123 91 94
0.420815 -0.204312 -0.512 153 103 92
0.43225 -0.20511 -0.514 136 87 82
0.437995 -0.20551 -0.515 139 92 86
0.438976 -0.20551 -0.515 139 92 86
-0.324766 -0.251798 -0.628 252 253 247
-0.318785 -0.251798 -0.628 252 253 247
-0.303716 -0.254204 -0.634 253 254 248
-0.172299 -0.250996 -0.626 196 196 188
-0.167931 -0.253402 -0.632 200 197 188
-0.124313 -0.257812 -0.643 246 246 238
-0.119889 -0.256209 -0.639 222 221 217
-0.0815467 -0.246987 -0.616 72 71 77
-0.0664943 -0.252199 -0.629 68 67 75
-0.0588467 -0.255407 -0.637 71 70 76
0.082519 -0.224132 -0.559 188 149 134
0.105254 -0.236963 -0.591 116 89 94
0.10692 -0.238166 -0.594 111 88 96
0.321254 -0.196868 -0.491 123 94 98
0.32219 -0.196868 -0.491 123 94 98
0.32274 -0.196066 -0.489 120 91 95
0.342729 -0.198471 -0.495 111 86 89
0.414797 -0.205689 -0.513 171 118 110
0.416914 -0.205288 -0.512 161 109 96
0.418865 -0.205288 -0.512 162 110 97
0.422766 -0.205288 -0.512 147 97 88
0.43225 -0.20609 -0.514 137 88 81
0.443635 -0.207292 -0.517 141 94 88
0.469411 -0.214109 -0.534 117 83 74
-0.305649 -0.255009 -0.633 252 253 247
-0.304924 -0.255411 -0.634 253 254 248
-0.296846 -0.261051 -0.648 182 183 178
-0.18917 -0.260649 -0.647 238 238 236
-0.175314 -0.251383 -0.624 209 208 203
-0.170186 -0.252591 -0.627 198 197 192
-0.166464 -0.254203 -0.631 201 198 189
-0.165524 -0.254606 -0.632 200 197 188
-0.0785333 -0.249771 -0.62 70 69 75
-0.0522143 -0.259843 -0.645 72 71 77
-0.0464286 -0.261857 -0.65 73 72 78
0.0680629 -0.223183 -0.554 207 172 166
0.391926 -0.258634 -0.642 134 126 149
0.360562 -0.232851 -0.578 86 80 90
0.319524 -0.201429 -0.5 85 75 84
0.322467 -0.1974 -0.49 119 93 96
0.330446 -0.196594 -0.488 135 110 116
0.438976 -0.207471 -0.515 139 92 86
0.442777 -0.207874 -0.516 141 94 88
-0.306614 -0.257024 -0.635 253 254 249
-0.175595 -0.252976 -0.625 236 236 234
-0.14146 -0.260262 -0.643 229 226 209
-0.123976 -0.257024 -0.635 207 207 207
-0.10399 -0.246905 -0.61 73 73 83
-0.0849286 -0.248929 -0.615 71 70 78
-0.0487543 -0.262286 -0.648 72 71 77
0.0755857 -0.224643 -0.555 200 163 155
0.323125 -0.198738 -0.491 119 90 92
0.323671 -0.197929 -0.489 121 92 97
0.408774 -0.210071 -0.519 173 121 110
0.409169 -0.209262 -0.517 176 126 117
0.423741 -0.207238 -0.512 146 96 87
0.47219 -0.216952 -0.536 115 82 75
-0.330284 -0.257827 -0.634 252 253 248
-0.317204 -0.257013 -0.632 251 252 246
-0.30952 -0.25864 -0.636 253 254 249
-0.30388 -0.26108 -0.642 252 252 250
-0.171473 -0.253353 -0.623 239 239 237
-0.170287 -0.253353 -0.623 234 235 230
-0.1691 -0.253353 -0.623 226 227 222
-0.168183 -0.25376 -0.624 219 218 214
-0.156387 -0.257827 -0.634 220 218 206
-0.152034 -0.25864 -0.636 226 224 211
-0.150823 -0.25864 -0.636 227 225 212
-0.14742 -0.259047 -0.637 224 222 207
-0.121607 -0.255793 -0.629 80 79 84
-0.11169 -0.249693 -0.614 76 75 81
-0.0566857 -0.260267 -0.64 71 70 78
0.0743943 -0.225293 -0.554 202 165 157
0.082519 -0.227327 -0.559 184 142 126
0.0886286 -0.22936 -0.564 158 120 107
0.0926657 -0.231393 -0.569 143 106 97
0.0942438 -0.232613 -0.572 137 102 96
0.0956667 -0.233427 -0.574 133 98 92
0.100498 -0.237087 -0.583 117 92 95
0.32847 -0.209027 -0.514 62 52 60
0.325534 -0.19886 -0.489 122 89 96
0.332986 -0.19886 -0.489 117 89 88
0.335533 -0.199267 -0.49 118 86 89
0.348531 -0.204147 -0.502 78 55 63
0.430431 -0.20862 -0.513 140 90 81
