ply
format ascii 1.0
comment Created by Open3D
element vertex 1315
property double x
property double y
property double z
property uchar red
property uchar green
property uchar blue
end_header
0.13912 -0.128126 -0.444 192 143 128
0.14742 -0.12726 -0.441 192 140 127
0.155594 -0.126394 -0.438 179 125 115
0.1606 -0.126394 -0.438 172 120 109
0.165606 -0.126394 -0.438 162 112 103
0.173067 -0.126971 -0.44 159 109 98
0.178063 -0.127549 -0.442 152 104 94
0.1937 -0.128991 -0.447 134 90 81
0.207059 -0.130434 -0.452 134 91 82
0.21057 -0.131011 -0.454 139 95 86
0.246913 -0.138803 -0.481 100 70 70
0.252883 -0.141111 -0.489 103 73 73
0.270707 -0.148326 -0.514 108 73 77
0.293524 -0.154674 -0.536 82 59 67
0.303049 -0.153809 -0.533 85 62 68
0.334861 -0.151211 -0.524 193 172 179
0.346171 -0.150057 -0.52 122 99 105
0.352114 -0.150057 -0.52 231 226 233
0.366114 -0.148903 -0.516 134 109 113
0.370046 -0.148903 -0.516 120 87 94
0.439719 -0.154386 -0.535 163 108 105
-0.135154 -0.188229 -0.648 195 192 185
-0.131654 -0.188519 -0.649 198 195 188
0.126676 -0.136524 -0.47 198 150 138
0.1271 -0.135071 -0.465 195 147 135
0.127525 -0.132748 -0.457 194 146 134
0.13689 -0.129262 -0.445 195 146 132
0.147924 -0.12781 -0.44 191 139 126
0.209705 -0.131876 -0.454 136 92 83
0.222597 -0.13391 -0.461 141 97 86
0.223475 -0.13391 -0.461 141 97 86
0.22709 -0.13449 -0.463 137 90 84
0.25641 -0.143495 -0.494 102 72 72
0.293995 -0.155405 -0.535 80 57 63
0.304064 -0.154824 -0.533 84 63 70
0.310003 -0.154243 -0.531 95 69 78
0.311858 -0.153662 -0.529 64 54 62
0.314881 -0.153662 -0.529 199 204 208
0.341537 -0.151629 -0.522 124 96 108
0.354403 -0.150757 -0.519 230 224 234
0.35668 -0.150467 -0.518 231 228 237
0.369063 -0.149886 -0.516 95 64 70
0.379848 -0.151048 -0.52 102 76 79
0.4922 -0.186486 -0.642 85 69 79
0.420027 -0.154533 -0.532 185 127 123
0.42411 -0.153081 -0.527 190 135 130
0.450833 -0.157148 -0.541 163 108 105
0.130714 -0.131571 -0.45 192 143 129
0.178063 -0.129232 -0.442 152 104 94
0.211434 -0.132741 -0.454 139 95 84
0.214103 -0.133326 -0.456 140 96 85
0.241119 -0.138881 -0.475 100 66 67
0.243552 -0.139758 -0.478 97 66 64
0.245486 -0.140343 -0.48 98 67 65
0.302033 -0.155839 -0.533 84 63 70
0.303049 -0.155839 -0.533 85 64 71
0.304064 -0.155839 -0.533 85 64 71
0.306533 -0.155547 -0.532 89 68 75
0.3235 -0.1535 -0.525 150 161 165
0.347162 -0.152038 -0.52 196 173 179
0.352426 -0.151746 -0.519 230 224 234
0.35964 -0.151453 -0.518 235 228 236
0.3619 -0.151161 -0.517 236 229 237
0.374702 -0.151161 -0.517 123 91 94
0.491234 -0.185954 -0.636 81 69 73
0.419013 -0.155547 -0.532 192 134 130
0.42411 -0.154085 -0.527 188 133 128
0.443409 -0.157009 -0.537 163 108 105
-0.13741 -0.190403 -0.647 193 193 185
0.126407 -0.13802 -0.469 197 148 141
0.136043 -0.130957 -0.445 193 144 130
0.140494 -0.130369 -0.443 190 141 126
0.150438 -0.129486 -0.44 190 138 124
0.173067 -0.129486 -0.44 158 108 97
0.179747 -0.130074 -0.442 150 102 92
0.216313 -0.134489 -0.457 140 97 88
0.322112 -0.154794 -0.526 191 201 210
0.333226 -0.153911 -0.523 209 196 203
0.347483 -0.152734 -0.519 204 179 185
0.34946 -0.152734 -0.519 230 225 232
0.35372 -0.15244 -0.518 232 229 238
0.35993 -0.152146 -0.517 234 226 239
0.374702 -0.152146 -0.517 125 99 102
0.382039 -0.153911 -0.523 72 47 50
0.432581 -0.155971 -0.53 162 104 102
0.434409 -0.156266 -0.531 156 98 96
0.43706 -0.156854 -0.533 153 95 94
0.438897 -0.157149 -0.534 152 94 93
0.447113 -0.15862 -0.539 157 97 97
0.449803 -0.159209 -0.541 155 97 95
-0.14335 -0.191339 -0.646 188 188 180
-0.14089 -0.191339 -0.646 191 191 183
-0.136389 -0.191931 -0.648 195 192 185
-0.13289 -0.192228 -0.649 196 193 186
0.126214 -0.137729 -0.465 196 148 138
0.128428 -0.133582 -0.451 193 143 132
0.13689 -0.131805 -0.445 194 142 129
0.13965 -0.131212 -0.443 190 141 127
0.151769 -0.130028 -0.439 187 135 122
0.154277 -0.130028 -0.439 184 132 119
0.159401 -0.129435 -0.437 172 120 109
0.17139 -0.130324 -0.44 160 110 99
0.180997 -0.131212 -0.443 148 100 90
0.197547 -0.132693 -0.448 141 94 86
0.224353 -0.136544 -0.461 131 87 78
0.233109 -0.138617 -0.468 105 69 71
0.240214 -0.14069 -0.475 99 65 66
0.244571 -0.142171 -0.48 97 67 67
0.2889 -0.158462 -0.535 81 56 62
0.306969 -0.157277 -0.531 91 70 79
0.323114 -0.155796 -0.526 206 211 217
0.330237 -0.154908 -0.523 118 97 104
0.335218 -0.154908 -0.523 215 192 200
0.33989 -0.154315 -0.521 121 98 104
0.368348 -0.152538 -0.515 122 93 97
0.38277 -0.155204 -0.524 59 37 40
0.421689 -0.156685 -0.529 188 133 128
0.421897 -0.156389 -0.528 187 132 127
-0.151433 -0.193464 -0.649 187 184 179
-0.131857 -0.193762 -0.65 198 195 188
0.12661 -0.137124 -0.46 197 147 136
0.13965 -0.132056 -0.443 191 139 126
0.15476 -0.130566 -0.438 182 133 119
0.171001 -0.130864 -0.439 160 110 99
0.178063 -0.131758 -0.442 157 109 99
0.18648 -0.132354 -0.444 144 95 88
0.200553 -0.133845 -0.449 139 95 86
0.204883 -0.134441 -0.451 143 96 88
0.227581 -0.138316 -0.464 120 79 75
0.24072 -0.141893 -0.476 94 64 66
0.301467 -0.158587 -0.532 91 66 72
0.305957 -0.158289 -0.531 96 71 77
0.31328 -0.157394 -0.528 111 92 96
0.317706 -0.157096 -0.527 161 159 164
0.325878 -0.156202 -0.524 134 124 132
0.352733 -0.154413 -0.518 157 137 146
0.419237 -0.158289 -0.531 197 142 139
0.419886 -0.157394 -0.528 196 141 138
0.432581 -0.15799 -0.53 152 97 94
0.458514 -0.162164 -0.544 164 108 107
0.12628 -0.1386 -0.462 196 148 136
0.152605 -0.1317 -0.439 185 136 122
0.154277 -0.1317 -0.439 181 132 118
0.158097 -0.1314 -0.438 176 127 113
0.161898 -0.1311 -0.437 168 116 105
0.18648 -0.1332 -0.444 144 95 88
0.205742 -0.1353 -0.451 142 98 89
0.2461 -0.1449 -0.483 93 64 66
0.287881 -0.1605 -0.535 73 50 58
0.290938 -0.1605 -0.535 73 50 58
0.296957 -0.1599 -0.533 86 61 67
0.303493 -0.1596 -0.532 93 70 76
0.316101 -0.1578 -0.526 166 157 162
0.332589 -0.1566 -0.522 146 131 136
0.35076 -0.1554 -0.518 127 100 109
0.355007 -0.1551 -0.517 141 115 124
0.386422 -0.1587 -0.529 46 29 35
0.419237 -0.1593 -0.531 199 141 139
-0.152434 -0.195634 -0.648 187 184 177
-0.144133 -0.194427 -0.644 189 189 181
-0.1419 -0.194729 -0.645 190 190 182
0.13184 -0.135253 -0.448 196 144 131
0.137429 -0.134046 -0.444 195 143 130
0.142703 -0.133442 -0.442 190 138 125
0.147086 -0.132838 -0.44 185 136 122
0.173067 -0.132838 -0.44 159 107 96
0.31328 -0.159406 -0.528 109 87 89
0.3215 -0.1585 -0.525 132 119 126
0.328245 -0.157896 -0.523 113 92 101
0.332589 -0.157594 -0.522 207 190 198
0.372732 -0.156085 -0.517 121 96 102
0.474129 -0.167557 -0.555 149 96 92
0.127851 -0.137322 -0.452 192 144 132
0.13184 -0.136107 -0.448 195 145 134
0.1338 -0.135499 -0.446 192 142 131
0.138807 -0.134588 -0.443 191 139 126
0.14574 -0.13398 -0.441 186 137 123
0.161066 -0.132765 -0.437 173 121 110
0.180153 -0.134588 -0.443 157 104 96
0.187748 -0.135195 -0.445 144 95 88
0.291957 -0.162538 -0.535 77 52 58
0.293446 -0.162234 -0.534 77 52 58
0.298427 -0.161627 -0.532 90 65 71
0.372732 -0.15707 -0.517 119 94 100
0.482233 -0.191096 -0.629 68 55 64
0.483431 -0.191096 -0.629 76 55 60
0.420171 -0.164057 -0.54 155 116 119
0.420094 -0.160108 -0.527 188 131 124
0.432581 -0.161019 -0.53 130 81 74
0.438897 -0.162234 -0.534 122 75 69
0.455603 -0.164969 -0.543 164 111 107
-0.147584 -0.196574 -0.643 189 186 177
-0.14089 -0.197491 -0.646 192 192 184
-0.136599 -0.198409 -0.649 194 194 186
0.125246 -0.143074 -0.468 197 148 141
0.129 -0.137571 -0.45 193 145 133
0.136043 -0.136043 -0.445 190 142 130
0.170552 -0.134514 -0.44 161 109 98
0.177622 -0.135431 -0.443 158 106 95
0.17931 -0.135431 -0.443 158 105 97
0.188595 -0.136043 -0.445 143 94 87
0.216787 -0.140017 -0.458 134 87 79
0.281152 -0.162029 -0.53 70 45 51
0.290938 -0.163557 -0.535 71 50 59
0.315099 -0.160806 -0.526 115 86 90
0.325256 -0.159889 -0.523 125 94 102
0.333583 -0.159583 -0.522 125 102 112
0.351068 -0.158054 -0.517 120 91 96
0.363166 -0.157749 -0.516 115 89 98
0.417537 -0.163251 -0.534 185 137 137
-0.13681 -0.199952 -0.65 195 195 187
0.126688 -0.139659 -0.454 193 146 138
0.130694 -0.137506 -0.447 192 146 133
0.14406 -0.13566 -0.441 186 138 124
0.158569 -0.13443 -0.437 174 125 111
0.159401 -0.13443 -0.437 171 122 108
0.1869 -0.13689 -0.445 149 100 93
0.191997 -0.137506 -0.447 146 97 90
0.1984 -0.137813 -0.448 142 95 87
0.2119 -0.139967 -0.455 139 92 84
0.288419 -0.164884 -0.536 70 47 57
0.308251 -0.162423 -0.528 112 81 79
0.312687 -0.162115 -0.527 112 84 81
0.3165 -0.1615 -0.525 120 89 95
0.318891 -0.161192 -0.524 121 97 97
0.344517 -0.159654 -0.519 122 93 95
0.346813 -0.159347 -0.518 123 92 97
0.348787 -0.159347 -0.518 122 86 96
0.358251 -0.158731 -0.516 121 92 97
0.361481 -0.158424 -0.515 116 91 97
0.475923 -0.192877 -0.627 59 48 56
0.420695 -0.16673 -0.542 145 111 112
0.442583 -0.164884 -0.536 130 85 79
0.44814 -0.165807 -0.539 143 92 88
0.458514 -0.167345 -0.544 165 112 108
-0.14536 -0.199333 -0.644 190 189 184
0.129843 -0.138357 -0.447 191 144 134
0.140177 -0.13681 -0.442 187 139 127
0.150096 -0.135881 -0.439 183 133 122
0.153091 -0.135571 -0.438 182 132 121
0.165606 -0.135571 -0.438 162 112 101
0.172229 -0.13619 -0.44 156 106 97
0.22132 -0.143 -0.462 118 75 68
0.222681 -0.14331 -0.463 114 75 76
0.284291 -0.165286 -0.534 67 44 50
0.287398 -0.165905 -0.536 68 45 51
0.296957 -0.164976 -0.533 94 65 70
0.309257 -0.163429 -0.528 112 80 81
0.344517 -0.160643 -0.519 125 95 97
0.3478 -0.160333 -0.518 125 94 99
0.364149 -0.159714 -0.516 132 98 96
0.384407 -0.163738 -0.529 40 24 34
0.428937 -0.163429 -0.528 135 82 78
0.443409 -0.166214 -0.537 126 82 73
0.44814 -0.166833 -0.539 142 93 86
0.45 -0.167143 -0.54 149 100 93
0.46228 -0.169 -0.546 162 113 109
0.466911 -0.169929 -0.549 150 101 96
-0.13681 -0.202429 -0.65 194 194 186
0.12671 -0.140454 -0.451 194 147 137
0.138274 -0.138274 -0.444 186 138 126
0.13965 -0.137963 -0.443 188 138 127
0.141019 -0.137651 -0.442 191 141 130
0.14322 -0.13734 -0.441 190 142 130
0.151423 -0.136406 -0.438 182 132 121
0.159401 -0.136094 -0.437 170 120 109
0.214572 -0.142323 -0.457 132 89 82
0.224529 -0.144814 -0.465 110 71 72
0.315099 -0.163811 -0.526 119 89 91
0.320275 -0.162877 -0.523 120 90 90
0.334929 -0.162254 -0.521 123 94 99
0.335276 -0.161943 -0.52 122 93 98
0.425113 -0.164123 -0.527 156 102 90
-0.14212 -0.202413 -0.646 192 192 184
0.127858 -0.140687 -0.449 194 147 137
0.128427 -0.140373 -0.448 193 146 136
0.132101 -0.139747 -0.446 190 142 130
0.1338 -0.139747 -0.446 189 141 129
0.146751 -0.137553 -0.439 190 142 130
0.148424 -0.137553 -0.439 190 142 130
0.14926 -0.137553 -0.439 189 139 128
0.160233 -0.136927 -0.437 168 118 107
0.164771 -0.13724 -0.438 166 114 103
0.189869 -0.139747 -0.446 149 97 86
0.198843 -0.140687 -0.449 142 94 84
0.202714 -0.141 -0.45 137 93 82
0.209705 -0.142253 -0.454 133 90 81
0.215042 -0.143507 -0.458 126 85 79
0.295942 -0.167007 -0.533 95 64 70
0.305812 -0.165753 -0.529 108 78 78
0.309257 -0.16544 -0.528 111 81 81
0.311091 -0.164813 -0.526 119 89 89
0.327617 -0.16356 -0.522 223 200 206
0.350389 -0.16168 -0.516 123 94 98
0.416987 -0.166693 -0.532 195 140 133
0.42411 -0.165127 -0.527 164 110 100
0.444431 -0.16826 -0.537 125 82 75
0.464169 -0.171393 -0.547 152 103 99
-0.15323 -0.202068 -0.641 185 185 175
-0.14234 -0.203959 -0.647 192 192 184
0.124886 -0.148162 -0.47 190 146 137
0.128991 -0.140911 -0.447 192 144 132
0.132101 -0.140596 -0.446 193 145 133
0.13912 -0.139966 -0.444 190 141 127
0.17139 -0.138705 -0.44 163 110 96
0.217733 -0.14501 -0.46 119 80 75
0.236683 -0.150369 -0.477 93 61 64
0.293911 -0.168022 -0.533 94 65 70
0.3135 -0.1655 -0.525 119 87 90
0.314899 -0.165185 -0.524 121 89 92
0.31629 -0.16487 -0.523 121 89 92
0.350389 -0.162663 -0.516 122 93 95
0.354614 -0.162348 -0.515 123 93 95
0.368793 -0.162978 -0.517 117 90 95
0.374624 -0.164239 -0.521 54 33 40
0.468573 -0.196078 -0.622 57 55 77
0.473534 -0.197654 -0.627 65 63 85
0.489133 -0.201122 -0.638 133 133 157
0.425113 -0.16613 -0.527 155 101 91
0.426117 -0.16613 -0.527 144 94 87
0.431571 -0.167076 -0.53 131 80 76
-0.161557 -0.204557 -0.645 179 179 169
0.12613 -0.143349 -0.452 196 148 138
0.129843 -0.141763 -0.447 194 144 133
0.142895 -0.139543 -0.44 191 143 131
0.148424 -0.139226 -0.439 191 143 131
0.156904 -0.138591 -0.437 174 125 111
0.164311 -0.139226 -0.439 166 112 102
0.182251 -0.140811 -0.444 151 101 90
0.295387 -0.16872 -0.532 94 63 69
0.30279 -0.167769 -0.529 105 74 79
0.369507 -0.16428 -0.518 118 91 98
0.482754 -0.201703 -0.636 94 98 127
0.41734 -0.17094 -0.539 135 114 123
0.425113 -0.167134 -0.527 152 98 86
-0.164014 -0.205786 -0.645 181 181 171
-0.15421 -0.20419 -0.64 186 186 176
-0.145586 -0.205786 -0.645 190 190 182
0.125233 -0.145167 -0.455 196 147 140
0.127286 -0.143571 -0.45 197 149 139
0.127858 -0.143252 -0.449 198 148 139
0.134348 -0.141976 -0.445 193 145 133
0.170552 -0.140381 -0.44 162 108 96
0.17346 -0.1407 -0.441 160 106 94
0.18817 -0.142295 -0.446 149 96 88
0.189019 -0.142295 -0.446 147 94 86
0.194133 -0.142933 -0.448 144 95 88
0.213702 -0.145805 -0.457 117 78 73
0.222757 -0.148357 -0.465 106 68 67
0.22646 -0.149633 -0.469 102 68 67
0.228733 -0.149952 -0.47 100 66 67
0.234373 -0.151867 -0.476 93 61 64
0.238668 -0.153462 -0.481 91 61 63
0.251846 -0.158886 -0.498 72 47 51
0.294831 -0.169414 -0.531 95 64 70
0.325997 -0.166224 -0.521 227 204 212
0.337933 -0.165267 -0.518 123 92 97
0.350389 -0.164629 -0.516 123 93 95
0.352652 -0.16431 -0.515 124 94 96
0.354905 -0.16399 -0.514 126 94 97
0.379942 -0.168138 -0.527 39 29 40
0.471587 -0.199724 -0.626 73 78 108
0.422221 -0.174838 -0.548 124 115 132
0.416566 -0.171648 -0.538 137 116 123
0.427931 -0.168457 -0.528 148 95 87
0.454764 -0.172924 -0.542 157 112 107
0.464169 -0.174519 -0.547 147 103 102
-0.145586 -0.207014 -0.645 191 188 181
-0.144581 -0.207335 -0.646 191 188 181
-0.141544 -0.208298 -0.649 193 190 183
0.127286 -0.144429 -0.45 196 148 138
0.132101 -0.143145 -0.446 193 145 133
0.156071 -0.140256 -0.437 181 129 116
0.157736 -0.140256 -0.437 173 121 108
0.166362 -0.141219 -0.44 165 111 101
0.178063 -0.141861 -0.442 153 101 90
0.18647 -0.143145 -0.446 150 97 89
0.189869 -0.143145 -0.446 144 94 87
0.204476 -0.14507 -0.452 127 84 78
0.212831 -0.146675 -0.457 114 74 72
0.21868 -0.14828 -0.462 110 72 71
0.281272 -0.17203 -0.536 72 47 53
0.307668 -0.169142 -0.527 111 79 82
0.308086 -0.168821 -0.526 112 80 83
0.317674 -0.167537 -0.522 123 89 90
0.320657 -0.167537 -0.522 123 94 96
0.344174 -0.165932 -0.517 121 91 93
0.35069 -0.16529 -0.515 123 91 94
0.48655 -0.20573 -0.641 118 124 156
0.42145 -0.175561 -0.547 115 104 118
0.420891 -0.169463 -0.528 176 126 117
0.430562 -0.170105 -0.53 144 93 90
0.43788 -0.171389 -0.534 127 82 77
0.129843 -0.144317 -0.447 195 148 130
0.135195 -0.143671 -0.445 191 143 129
0.13912 -0.143349 -0.444 191 142 128
0.157736 -0.141089 -0.437 172 118 106
0.206654 -0.146254 -0.453 122 79 73
0.213297 -0.147869 -0.458 113 73 71
0.215981 -0.148514 -0.46 109 71 68
0.285356 -0.173051 -0.536 77 50 57
0.295843 -0.171437 -0.531 100 68 73
0.3105 -0.1695 -0.525 117 85 88
0.324012 -0.168209 -0.521 200 181 187
0.327352 -0.167886 -0.52 124 91 100
0.331666 -0.167563 -0.519 112 90 93
0.334631 -0.167563 -0.519 121 92 97
0.33892 -0.16724 -0.518 124 95 99
0.345159 -0.166917 -0.517 122 92 94
0.351671 -0.166271 -0.515 121 90 95
0.495729 -0.208243 -0.645 141 129 141
0.415791 -0.173374 -0.537 141 119 122
0.420094 -0.170146 -0.527 173 123 114
0.422102 -0.170146 -0.527 167 118 104
0.424914 -0.170469 -0.528 157 105 94
0.4332 -0.17176 -0.532 134 85 81
0.439719 -0.172729 -0.535 127 82 79
0.449167 -0.17402 -0.539 140 95 90
-0.155186 -0.207523 -0.639 185 185 177
-0.14904 -0.209147 -0.644 191 188 179
0.126429 -0.146143 -0.45 195 147 133
0.127858 -0.145818 -0.449 196 147 133
0.129843 -0.145169 -0.447 195 147 133
0.145915 -0.14257 -0.439 189 141 127
0.154884 -0.141596 -0.436 182 133 119
0.165984 -0.14257 -0.439 164 110 98
0.175537 -0.143545 -0.442 157 103 93
0.176379 -0.143545 -0.442 154 102 91
0.2093 -0.147767 -0.455 114 77 71
0.219627 -0.15069 -0.464 103 70 65
0.221461 -0.151339 -0.466 102 69 64
0.229292 -0.153612 -0.473 98 67 65
0.237328 -0.156535 -0.482 91 62 64
0.280251 -0.174072 -0.536 72 45 52
0.28985 -0.173098 -0.533 90 59 67
0.301782 -0.171799 -0.529 104 73 78
0.321651 -0.169526 -0.522 166 139 144
0.322028 -0.169201 -0.521 231 204 209
0.32302 -0.169201 -0.521 224 197 202
0.34319 -0.167902 -0.517 122 90 95
0.348423 -0.167577 -0.516 120 88 89
0.367533 -0.168227 -0.518 116 94 97
0.445259 -0.174722 -0.538 122 77 71
0.453925 -0.175696 -0.541 147 100 94
0.126429 -0.147 -0.45 196 146 135
0.132101 -0.145693 -0.446 193 143 132
0.138807 -0.144713 -0.443 192 144 132
0.143733 -0.143733 -0.44 193 145 131
0.149412 -0.142753 -0.437 189 140 126
0.168038 -0.143733 -0.44 159 105 93
0.184357 -0.145367 -0.445 144 96 86
0.191997 -0.14602 -0.447 142 89 83
0.199286 -0.147 -0.45 128 85 78
0.218743 -0.151573 -0.464 104 69 67
0.22378 -0.153207 -0.469 102 68 66
0.227909 -0.154187 -0.472 99 68 66
0.23214 -0.15582 -0.477 94 64 64
0.234026 -0.156473 -0.479 92 62 62
0.267477 -0.170847 -0.523 70 41 46
0.27512 -0.173787 -0.532 69 42 49
0.283314 -0.175093 -0.536 79 49 57
0.297305 -0.173133 -0.53 100 69 75
0.304229 -0.17248 -0.528 106 75 80
0.329333 -0.169867 -0.52 123 94 96
0.333643 -0.16954 -0.519 122 93 97
0.415262 -0.174767 -0.535 171 130 128
0.419886 -0.17248 -0.528 173 121 107
0.453086 -0.1764 -0.54 146 101 95
0.464169 -0.178687 -0.547 146 101 98
-0.15421 -0.210286 -0.64 185 185 175
-0.152246 -0.210943 -0.642 188 185 176
0.129843 -0.146871 -0.447 194 146 132
0.1335 -0.146214 -0.445 191 143 129
0.14154 -0.1449 -0.441 195 146 132
0.147251 -0.143914 -0.438 187 138 124
0.154884 -0.143257 -0.436 178 128 117
0.156545 -0.143257 -0.436 174 124 113
0.168038 -0.144571 -0.44 160 106 96
0.199286 -0.147857 -0.45 125 85 77
0.200143 -0.147857 -0.45 123 83 75
0.204929 -0.148843 -0.453 114 76 75
0.21022 -0.150157 -0.457 110 75 73
0.227971 -0.155743 -0.474 97 66 64
0.230747 -0.1564 -0.476 96 65 63
0.241706 -0.160671 -0.489 82 57 63
0.267477 -0.171843 -0.523 70 41 46
0.300206 -0.173486 -0.528 104 74 76
0.307084 -0.172829 -0.526 113 81 84
0.3095 -0.1725 -0.525 116 84 87
0.318669 -0.171514 -0.522 118 91 96
0.322028 -0.171186 -0.521 201 172 176
0.32302 -0.171186 -0.521 211 182 186
0.324012 -0.171186 -0.521 218 191 196
0.326362 -0.170857 -0.52 124 95 100
0.327711 -0.170529 -0.519 123 92 97
0.334973 -0.1702 -0.518 122 91 96
0.349406 -0.169543 -0.516 121 91 93
0.378651 -0.173486 -0.528 39 33 45
0.41441 -0.174143 -0.53 189 145 136
0.432187 -0.1748 -0.532 130 85 80
0.435846 -0.175457 -0.534 127 83 80
0.43952 -0.176114 -0.536 125 82 76
0.125246 -0.154663 -0.468 197 147 136
0.124857 -0.152019 -0.46 196 146 135
0.128991 -0.147723 -0.447 194 146 132
0.138274 -0.146731 -0.444 193 144 130
0.1407 -0.14574 -0.441 193 144 130
0.146417 -0.144749 -0.438 188 139 125
0.153223 -0.144088 -0.436 179 129 118
0.17094 -0.14574 -0.441 159 107 96
0.190294 -0.147723 -0.447 137 88 81
0.198429 -0.148714 -0.45 129 84 79
0.288293 -0.175813 -0.532 91 60 68
0.29382 -0.175483 -0.531 95 64 70
0.301211 -0.174491 -0.528 105 75 77
0.304229 -0.174491 -0.528 108 78 80
0.334973 -0.171187 -0.518 122 91 96
0.361481 -0.170195 -0.515 125 93 98
0.364149 -0.170526 -0.516 124 95 99
0.376215 -0.17383 -0.526 43 32 46
0.4859 -0.213157 -0.645 105 116 148
0.416869 -0.174491 -0.528 182 133 119
0.469662 -0.182092 -0.551 134 90 87
0.474983 -0.183745 -0.556 133 89 86
-0.159553 -0.211727 -0.637 182 182 172
-0.15762 -0.212391 -0.639 184 184 174
-0.148502 -0.21505 -0.647 191 188 179
-0.145476 -0.216048 -0.65 190 188 176
0.128703 -0.148242 -0.446 194 146 134
0.134891 -0.147577 -0.444 191 143 131
0.142057 -0.146248 -0.44 192 143 129
0.146915 -0.14525 -0.437 186 136 125
0.14858 -0.14525 -0.437 184 134 123
0.154053 -0.144918 -0.436 178 128 117
0.17178 -0.14658 -0.441 155 102 94
0.1743 -0.14658 -0.441 152 99 91
0.200588 -0.149904 -0.451 122 81 75
0.208023 -0.151566 -0.456 108 72 72
0.26196 -0.172173 -0.518 65 39 48
0.270546 -0.17583 -0.529 71 44 51
0.276154 -0.177491 -0.534 72 45 52
0.298314 -0.176162 -0.53 101 70 75
0.300206 -0.175497 -0.528 107 75 78
0.309088 -0.174832 -0.526 116 86 88
0.342526 -0.171509 -0.516 121 90 95
0.41418 -0.176494 -0.531 190 146 135
0.41441 -0.176162 -0.53 188 144 133
0.415643 -0.17583 -0.529 189 141 131
0.450193 -0.179153 -0.539 144 103 99
0.458706 -0.180483 -0.543 144 103 99
-0.147725 -0.216951 -0.649 191 188 179
0.12672 -0.14976 -0.448 191 143 133
0.153223 -0.145749 -0.436 178 128 117
0.155714 -0.145749 -0.436 172 122 113
0.197571 -0.150429 -0.45 127 83 80
0.213816 -0.154106 -0.461 104 70 69
0.229895 -0.159789 -0.478 99 65 63
0.27923 -0.179177 -0.536 76 49 58
0.372789 -0.175166 -0.524 48 32 43
0.41441 -0.177171 -0.53 186 139 129
0.416869 -0.176503 -0.528 180 131 117
0.423909 -0.176503 -0.528 153 96 85
-0.16198 -0.214153 -0.637 183 183 173
-0.160767 -0.214153 -0.637 182 184 173
0.125571 -0.151286 -0.45 189 139 130
0.141219 -0.147924 -0.44 192 144 132
0.156545 -0.146579 -0.436 172 119 111
0.165524 -0.147924 -0.44 160 106 96
0.1743 -0.14826 -0.441 149 99 90
0.176379 -0.148596 -0.442 147 97 90
0.181406 -0.149269 -0.444 143 94 87
0.19887 -0.151622 -0.451 123 79 78
0.285309 -0.179526 -0.534 84 54 62
0.31668 -0.175491 -0.522 118 87 92
0.332013 -0.174147 -0.518 123 92 97
0.33925 -0.17381 -0.517 123 92 97
0.416313 -0.181207 -0.539 161 121 119
0.414635 -0.177845 -0.529 180 132 122
0.423909 -0.177509 -0.528 154 97 86
0.432187 -0.178853 -0.532 129 81 77
0.445259 -0.18087 -0.538 126 79 73
-0.152957 -0.218071 -0.645 186 186 178
0.13986 -0.1491 -0.441 195 147 133
0.161434 -0.148086 -0.438 165 112 104
0.168038 -0.148762 -0.44 161 104 97
0.177221 -0.149438 -0.442 145 95 88
0.18647 -0.15079 -0.446 134 89 83
0.18732 -0.15079 -0.446 133 88 82
0.18817 -0.15079 -0.446 133 88 82
0.203651 -0.153495 -0.454 107 74 69
0.2134 -0.1562 -0.462 103 69 67
0.225738 -0.160595 -0.475 95 64 62
0.286267 -0.179867 -0.532 89 59 67
0.295286 -0.17919 -0.53 97 66 72
0.30508 -0.177838 -0.526 111 79 82
0.314691 -0.176486 -0.522 118 88 90
0.320043 -0.176148 -0.521 118 89 93
0.32141 -0.17581 -0.52 115 86 90
0.333342 -0.174795 -0.517 121 92 96
0.335311 -0.174795 -0.517 122 93 97
0.338266 -0.174795 -0.517 123 92 97
0.344805 -0.174119 -0.515 125 93 98
0.352652 -0.174119 -0.515 212 193 199
0.359519 -0.174119 -0.515 113 84 89
0.419886 -0.178514 -0.528 166 117 102
0.430363 -0.179529 -0.531 133 84 79
-0.30843 -0.22066 -0.649 252 253 245
0.137651 -0.15028 -0.442 195 146 132
0.157375 -0.14824 -0.436 169 116 110
0.163475 -0.14926 -0.439 162 107 100
0.176379 -0.15028 -0.442 142 93 86
0.205417 -0.15504 -0.456 106 73 68
0.220676 -0.1598 -0.47 97 66 64
0.23944 -0.16728 -0.492 82 53 57
0.300206 -0.17952 -0.528 104 73 78
0.301211 -0.17952 -0.528 104 73 78
0.304078 -0.17884 -0.526 111 79 82
0.3065 -0.1785 -0.525 113 81 84
0.32708 -0.17612 -0.518 123 93 95
0.329053 -0.17612 -0.518 120 90 92
0.341862 -0.1751 -0.515 122 91 96
0.353633 -0.1751 -0.515 229 212 218
0.356576 -0.1751 -0.515 122 91 99
0.360217 -0.17544 -0.516 116 87 92
0.414486 -0.18156 -0.534 192 140 129
0.425719 -0.17986 -0.529 145 92 84
0.434014 -0.18122 -0.533 124 79 74
0.444431 -0.18258 -0.537 126 81 76
-0.311657 -0.221554 -0.648 249 250 244
-0.30255 -0.221212 -0.647 254 255 247
-0.170589 -0.219503 -0.642 180 180 172
-0.168047 -0.217793 -0.637 183 180 171
-0.156648 -0.218819 -0.64 185 185 175
0.124437 -0.153515 -0.449 194 145 131
0.127289 -0.152831 -0.447 195 146 132
0.127853 -0.15249 -0.446 195 146 132
0.131805 -0.152148 -0.445 193 144 129
0.14824 -0.14907 -0.436 180 130 119
0.17094 -0.15078 -0.441 153 100 92
0.18351 -0.152148 -0.445 139 91 87
0.192856 -0.153515 -0.449 122 81 75
0.202787 -0.155225 -0.454 112 74 71
0.209848 -0.157276 -0.46 110 70 68
0.273105 -0.183261 -0.536 70 43 48
0.283274 -0.182577 -0.534 86 56 64
0.290238 -0.18121 -0.53 94 63 71
0.292257 -0.18121 -0.53 96 65 71
0.296744 -0.180868 -0.529 101 70 76
0.304078 -0.179842 -0.526 110 80 82
0.315686 -0.178474 -0.522 116 86 88
0.338594 -0.176423 -0.516 122 92 94
0.344805 -0.176081 -0.515 124 95 99
0.365981 -0.17779 -0.52 66 46 55
0.414635 -0.180868 -0.529 179 134 129
0.424711 -0.180868 -0.529 146 96 89
0.464169 -0.187022 -0.547 132 92 90
0.470514 -0.188731 -0.552 130 90 88
-0.299621 -0.222101 -0.646 219 220 212
-0.295155 -0.222445 -0.647 239 240 234
-0.293143 -0.222789 -0.648 250 251 246
-0.153947 -0.221413 -0.644 186 186 176
-0.150197 -0.223132 -0.649 187 187 175
0.125867 -0.154027 -0.448 195 146 132
0.13818 -0.15162 -0.441 196 147 133
0.150386 -0.149557 -0.435 179 127 116
0.151214 -0.149557 -0.435 178 125 117
0.154884 -0.149901 -0.436 174 119 114
0.157736 -0.150245 -0.437 164 109 104
0.161803 -0.150932 -0.439 164 109 104
0.1672 -0.151276 -0.44 156 103 95
0.16842 -0.15162 -0.441 155 102 94
0.16926 -0.15162 -0.441 155 102 94
0.175537 -0.151964 -0.442 143 94 87
0.17931 -0.152308 -0.443 141 92 85
0.188591 -0.153683 -0.447 130 85 79
0.19072 -0.154027 -0.448 127 84 78
0.208971 -0.158152 -0.46 109 71 70
0.22859 -0.165372 -0.481 94 65 61
0.293721 -0.181875 -0.529 98 67 73
0.298194 -0.181531 -0.528 103 72 77
0.301645 -0.181188 -0.527 106 75 80
0.309317 -0.179812 -0.523 114 84 86
0.31905 -0.179125 -0.521 116 85 90
0.325734 -0.178437 -0.519 121 90 95
0.329053 -0.178093 -0.518 122 91 96
0.337938 -0.177062 -0.515 122 92 94
0.346767 -0.177062 -0.515 120 89 94
0.418369 -0.186689 -0.543 155 120 116
0.416869 -0.181531 -0.528 172 114 103
0.417874 -0.181531 -0.528 172 114 103
0.422903 -0.181531 -0.528 149 99 92
0.4387 -0.183938 -0.535 128 83 80
0.457671 -0.186689 -0.543 134 94 92
0.464169 -0.188064 -0.547 132 92 90
-0.29716 -0.223331 -0.646 160 161 156
-0.156892 -0.221603 -0.641 184 184 174
-0.0464286 -0.224714 -0.65 72 71 79
0.127853 -0.154189 -0.446 197 145 132
0.134891 -0.153497 -0.444 193 144 129
0.147748 -0.151077 -0.437 182 130 117
0.156071 -0.151077 -0.437 170 115 108
0.156904 -0.151077 -0.437 167 112 105
0.18732 -0.154189 -0.446 130 86 77
0.198889 -0.156609 -0.453 113 75 72
0.200192 -0.156954 -0.454 111 73 70
0.21571 -0.161449 -0.467 99 69 67
0.270025 -0.185994 -0.538 69 45 58
0.286267 -0.18392 -0.532 90 59 65
0.291706 -0.182883 -0.529 95 66 70
0.298194 -0.182537 -0.528 102 73 75
0.303076 -0.181846 -0.526 108 78 80
0.3045 -0.1815 -0.525 108 78 80
0.36499 -0.179771 -0.52 58 43 50
0.481391 -0.193946 -0.561 132 92 90
-0.155914 -0.223171 -0.642 184 184 174
-0.0474467 -0.22491 -0.647 71 70 78
-0.0462857 -0.225257 -0.648 72 71 79
0.138705 -0.152952 -0.44 195 146 131
0.14257 -0.152605 -0.439 196 147 132
0.14907 -0.151562 -0.436 181 129 118
0.153223 -0.151562 -0.436 174 119 112
0.18647 -0.155038 -0.446 129 85 76
0.200633 -0.158167 -0.455 108 73 69
0.20988 -0.1606 -0.462 102 71 69
0.277198 -0.187019 -0.538 73 50 56
0.277706 -0.186671 -0.537 76 51 57
0.283759 -0.185281 -0.533 86 59 64
0.303076 -0.182848 -0.526 106 78 77
0.314089 -0.18111 -0.521 117 87 89
0.322769 -0.180414 -0.519 119 88 93
0.33368 -0.179371 -0.516 119 90 92
0.346093 -0.178676 -0.514 125 94 102
0.3633 -0.180414 -0.519 72 51 56
0.482238 -0.225952 -0.65 79 80 108
0.417086 -0.187714 -0.54 178 129 122
0.424711 -0.18389 -0.529 147 98 93
0.427533 -0.184238 -0.53 141 92 87
0.457671 -0.188757 -0.543 133 92 88
-0.305578 -0.224744 -0.643 142 143 135
-0.151433 -0.226841 -0.649 189 187 175
0.123857 -0.157286 -0.45 192 144 130
0.1329 -0.154839 -0.443 195 146 131
0.141411 -0.153091 -0.438 193 144 129
0.142246 -0.153091 -0.438 193 144 129
0.152392 -0.152392 -0.436 175 120 113
0.173011 -0.15449 -0.442 144 95 88
0.17509 -0.154839 -0.443 142 93 86
0.184771 -0.155888 -0.446 130 85 79
0.199328 -0.158684 -0.454 107 73 71
0.209 -0.16148 -0.462 100 69 67
0.210789 -0.162179 -0.464 99 69 67
0.224902 -0.167422 -0.479 95 69 72
0.231441 -0.170218 -0.487 123 103 112
0.234277 -0.171616 -0.491 153 137 148
0.294171 -0.184549 -0.528 100 71 73
0.326093 -0.181053 -0.518 119 88 93
0.331714 -0.180354 -0.516 119 90 92
0.332697 -0.180354 -0.516 119 90 92
0.334995 -0.180005 -0.515 120 91 95
0.342177 -0.179655 -0.514 124 93 99
0.35993 -0.180704 -0.517 83 68 73
0.416313 -0.188393 -0.539 181 132 125
0.444431 -0.187694 -0.537 134 93 87
0.470514 -0.192937 -0.552 132 91 87
0.477754 -0.195034 -0.558 139 98 94
-0.321035 -0.227374 -0.647 253 255 247
-0.159804 -0.224211 -0.638 184 184 172
0.18056 -0.156034 -0.444 136 89 83
0.278729 -0.188717 -0.537 79 56 62
0.283274 -0.187663 -0.534 85 60 64
0.291706 -0.185906 -0.529 96 70 73
0.302074 -0.184851 -0.526 105 76 78
0.319803 -0.182391 -0.519 117 86 91
0.328418 -0.181689 -0.517 121 90 95
0.351968 -0.180634 -0.514 122 93 98
0.35964 -0.18204 -0.518 96 76 77
0.361323 -0.182391 -0.519 64 51 58
0.430363 -0.186609 -0.531 136 89 81
0.441757 -0.188014 -0.535 124 84 76
0.443604 -0.188366 -0.536 136 95 89
-0.313174 -0.226487 -0.641 167 173 163
-0.301434 -0.22684 -0.642 143 144 138
-0.286619 -0.229667 -0.65 219 215 212
-0.155414 -0.2279 -0.645 186 186 174
-0.0536914 -0.22896 -0.648 68 68 76
0.144749 -0.15476 -0.438 186 139 123
0.14907 -0.154053 -0.436 181 132 118
0.16013 -0.155113 -0.439 162 109 101
0.170486 -0.156173 -0.442 147 97 88
0.220773 -0.168187 -0.476 99 65 63
0.285253 -0.187973 -0.532 87 60 67
0.288293 -0.187973 -0.532 92 65 70
0.292713 -0.186913 -0.529 95 69 72
0.294171 -0.18656 -0.528 97 71 74
0.296626 -0.186207 -0.527 100 74 77
0.298633 -0.186207 -0.527 101 75 76
0.305332 -0.184793 -0.523 111 81 83
0.320791 -0.18338 -0.519 116 85 90
0.327433 -0.182673 -0.517 117 86 91
0.33368 -0.18232 -0.516 119 88 93
0.431374 -0.18762 -0.531 135 90 84
0.436045 -0.188327 -0.533 126 81 75
-0.304152 -0.227352 -0.64 145 147 142
-0.170741 -0.226642 -0.638 185 182 173
-0.0535257 -0.229484 -0.646 68 68 76
0.130663 -0.157726 -0.444 196 147 130
0.151562 -0.154884 -0.436 173 127 114
0.1659 -0.15666 -0.441 150 101 87
0.175934 -0.15737 -0.443 139 92 82
0.178023 -0.157726 -0.444 136 92 83
0.185186 -0.158791 -0.447 125 82 76
0.281286 -0.195381 -0.55 65 49 59
0.325464 -0.183658 -0.517 117 86 91
0.348351 -0.182237 -0.513 209 183 194
0.350306 -0.182237 -0.513 120 88 99
0.351283 -0.182237 -0.513 124 89 95
0.425719 -0.187921 -0.529 143 96 86
0.427533 -0.188276 -0.53 140 93 83
0.435227 -0.188987 -0.532 124 79 73
0.446667 -0.190408 -0.536 141 98 92
0.452247 -0.191473 -0.539 138 95 89
0.464169 -0.194315 -0.547 130 86 83
-0.32423 -0.230714 -0.646 254 255 250
-0.307329 -0.228214 -0.639 147 150 143
-0.162937 -0.227143 -0.636 186 186 176
-0.153669 -0.231429 -0.648 188 186 173
0.122414 -0.161071 -0.451 190 142 128
0.127567 -0.158929 -0.445 193 146 130
0.130663 -0.158571 -0.444 190 148 126
0.131509 -0.158571 -0.444 190 148 126
0.141411 -0.156429 -0.438 194 147 127
0.149901 -0.155714 -0.436 178 129 115
0.150731 -0.155714 -0.436 175 126 112
0.155239 -0.156071 -0.437 165 113 102
0.159294 -0.156786 -0.439 162 110 99
0.161333 -0.157143 -0.44 156 106 97
0.208586 -0.166071 -0.465 99 68 66
0.294618 -0.188214 -0.527 99 70 74
0.3015 -0.1875 -0.525 108 76 77
0.302922 -0.187143 -0.524 108 77 82
0.311505 -0.185714 -0.52 112 82 84
0.364804 -0.187143 -0.524 54 46 59
0.440931 -0.190714 -0.534 136 93 86
0.459551 -0.194286 -0.544 132 88 85
-0.32 -0.22979 -0.64 248 251 244
-0.312924 -0.229072 -0.638 149 154 147
-0.167783 -0.228354 -0.636 187 184 175
-0.162937 -0.228354 -0.636 187 184 175
-0.1564 -0.231227 -0.644 187 187 175
-0.0495257 -0.230509 -0.642 71 69 80
0.125305 -0.160135 -0.446 192 145 127
0.137553 -0.157622 -0.439 197 150 130
0.141921 -0.156904 -0.437 192 145 127
0.156429 -0.157263 -0.438 164 112 101
0.187725 -0.161212 -0.449 115 80 74
0.190279 -0.16193 -0.451 112 77 71
0.195433 -0.163367 -0.455 107 74 69
0.198033 -0.164085 -0.457 106 73 68
0.286805 -0.191372 -0.533 90 63 68
0.291706 -0.189936 -0.529 93 66 71
0.311894 -0.186346 -0.519 113 83 85
0.352947 -0.18455 -0.514 122 91 96
0.443983 -0.191731 -0.534 144 101 95
-0.312433 -0.229927 -0.637 148 153 146
-0.281667 -0.234619 -0.65 255 252 249
-0.16926 -0.229927 -0.637 187 184 175
-0.167783 -0.229566 -0.636 188 185 176
-0.162234 -0.230288 -0.638 185 185 175
-0.0598629 -0.233897 -0.648 66 64 77
-0.0472267 -0.232453 -0.644 72 72 82
0.141921 -0.157736 -0.437 191 144 124
0.142753 -0.157736 -0.437 191 144 124
0.154407 -0.157736 -0.437 162 110 99
0.16338 -0.15918 -0.441 153 103 92
0.179271 -0.160624 -0.445 133 90 83
0.181373 -0.160985 -0.446 124 85 80
0.286421 -0.194192 -0.538 79 57 70
0.302344 -0.188778 -0.523 108 77 82
0.325817 -0.186251 -0.516 119 89 91
0.331071 -0.18589 -0.515 117 89 88
0.415643 -0.190944 -0.529 172 122 113
0.417874 -0.190583 -0.528 164 112 101
0.429552 -0.191305 -0.53 138 93 87
0.476042 -0.20069 -0.556 141 97 94
-0.32395 -0.233317 -0.643 250 253 246
-0.314366 -0.230777 -0.636 155 160 153
-0.173714 -0.232229 -0.64 180 182 171
-0.170741 -0.231503 -0.638 185 185 175
-0.0541629 -0.231866 -0.639 70 68 81
-0.0529457 -0.231866 -0.639 70 68 79
0.124455 -0.161834 -0.446 192 145 127
0.138591 -0.158569 -0.437 191 146 123
0.142753 -0.158569 -0.437 187 140 120
0.146579 -0.158206 -0.436 180 131 116
0.159657 -0.159657 -0.44 159 107 96
0.208149 -0.169817 -0.468 99 68 63
0.289307 -0.19304 -0.532 93 68 72
0.301924 -0.190137 -0.524 105 76 80
0.305157 -0.189049 -0.521 110 79 84
0.308533 -0.188686 -0.52 110 80 82
0.31228 -0.18796 -0.518 112 82 84
0.335649 -0.186146 -0.513 119 89 87
0.33858 -0.186146 -0.513 114 84 84
0.352947 -0.186509 -0.514 106 80 83
0.473118 -0.234406 -0.646 77 81 106
0.441121 -0.193403 -0.533 142 99 92
0.443983 -0.193766 -0.534 143 98 93
0.47242 -0.20066 -0.553 145 102 96
-0.310731 -0.231989 -0.636 144 147 140
-0.159583 -0.234177 -0.642 187 187 177
-0.155896 -0.236001 -0.647 188 188 176
-0.0528629 -0.232718 -0.638 70 70 78
-0.045121 -0.23673 -0.649 72 72 82
0.135571 -0.159766 -0.438 196 149 129
0.155594 -0.159766 -0.438 163 108 101
0.159657 -0.160495 -0.44 157 104 96
0.169184 -0.16159 -0.443 147 97 86
0.175881 -0.162319 -0.445 140 93 85
0.219428 -0.17545 -0.481 96 68 67
0.289083 -0.198066 -0.543 75 54 69
0.297931 -0.191135 -0.524 103 74 78
0.32054 -0.188582 -0.517 115 85 87
0.412933 -0.194053 -0.532 183 133 124
0.433397 -0.193689 -0.531 130 86 77
0.478817 -0.203537 -0.558 136 92 89
-0.319713 -0.233567 -0.637 252 255 246
-0.31629 -0.232833 -0.635 220 226 216
-0.27919 -0.238333 -0.65 252 253 247
-0.154903 -0.2376 -0.648 191 189 177
-0.0619467 -0.236133 -0.644 62 60 71
0.121871 -0.164633 -0.449 191 144 126
0.122453 -0.164267 -0.448 191 144 126
0.141089 -0.160233 -0.437 186 139 119
0.159657 -0.161333 -0.44 157 104 96
0.161333 -0.161333 -0.44 154 101 93
0.165434 -0.162067 -0.442 148 98 87
0.180929 -0.1639 -0.447 123 82 76
0.18178 -0.1639 -0.447 121 80 74
0.194551 -0.167567 -0.457 102 71 68
0.209928 -0.173067 -0.472 97 69 66
0.291797 -0.1947 -0.531 95 68 73
0.293166 -0.1936 -0.528 97 70 75
0.295061 -0.192867 -0.526 102 73 77
0.299355 -0.191767 -0.523 104 75 79
0.310307 -0.189933 -0.518 112 82 84
0.33009 -0.188833 -0.515 118 89 91
0.4134 -0.194333 -0.53 184 134 125
0.419886 -0.1936 -0.528 166 114 101
0.427734 -0.193967 -0.529 139 92 84
0.445 -0.1958 -0.534 141 98 92
0.123031 -0.164751 -0.447 190 143 123
0.135262 -0.161066 -0.437 195 148 128
0.175033 -0.164014 -0.445 141 93 83
0.180929 -0.164751 -0.447 123 82 76
0.19801 -0.169911 -0.461 98 68 66
0.224467 -0.1806 -0.49 155 152 163
0.300771 -0.192394 -0.522 107 76 81
0.327148 -0.189814 -0.515 115 85 85
0.328129 -0.189814 -0.515 117 87 87
0.336626 -0.189077 -0.513 118 88 90
0.421897 -0.194606 -0.528 152 98 88
0.426727 -0.194974 -0.529 138 91 83
0.43928 -0.19608 -0.532 146 103 96
0.445 -0.196817 -0.534 140 97 91
0.467957 -0.202346 -0.549 139 95 92
-0.169526 -0.236364 -0.638 188 186 173
-0.0587543 -0.235623 -0.636 67 65 78
-0.0562429 -0.235252 -0.635 69 67 80
0.142753 -0.161898 -0.437 183 134 119
0.15476 -0.162269 -0.438 162 108 98
0.15595 -0.162639 -0.439 163 111 100
0.173338 -0.164862 -0.445 140 93 85
0.197132 -0.17079 -0.461 102 71 69
0.29376 -0.201539 -0.544 80 60 71
0.304571 -0.192648 -0.52 109 79 81
0.317586 -0.191536 -0.517 113 83 83
0.31992 -0.191166 -0.516 114 84 84
0.326167 -0.190795 -0.515 113 83 83
0.32911 -0.190795 -0.515 116 86 86
0.332387 -0.190425 -0.514 114 87 92
0.431765 -0.195982 -0.529 132 87 81
-0.0539086 -0.236834 -0.636 68 68 80
0.119506 -0.168689 -0.453 194 147 127
0.123329 -0.16571 -0.445 194 147 127
0.136927 -0.16273 -0.437 192 147 128
0.146579 -0.162358 -0.436 180 127 113
0.14741 -0.162358 -0.436 176 123 109
0.15595 -0.163475 -0.439 160 107 99
0.159657 -0.163848 -0.44 156 104 93
0.186396 -0.168316 -0.452 110 79 76
0.22031 -0.18135 -0.487 145 130 149
0.306951 -0.193266 -0.519 109 79 81
0.327148 -0.191776 -0.515 114 84 84
0.423007 -0.220822 -0.593 78 79 99
0.414635 -0.19699 -0.529 170 120 113
0.415863 -0.196617 -0.528 167 114 108
0.438454 -0.197734 -0.531 132 87 81
0.440477 -0.197734 -0.531 145 101 92
-0.325384 -0.239917 -0.641 251 254 247
-0.162743 -0.239543 -0.64 188 188 176
-0.0597771 -0.237297 -0.634 68 66 79
-0.05512 -0.238046 -0.636 68 68 80
0.123329 -0.166557 -0.445 193 146 126
0.12615 -0.165809 -0.443 196 149 131
0.130864 -0.164311 -0.439 195 150 129
0.135571 -0.163937 -0.438 194 147 127
0.142753 -0.163563 -0.437 187 140 120
0.151077 -0.163563 -0.437 166 114 103
0.164592 -0.165434 -0.442 150 100 91
0.325186 -0.192757 -0.515 116 85 90
0.352354 -0.193131 -0.516 90 64 73
0.412975 -0.200617 -0.536 185 137 127
0.413628 -0.197997 -0.529 170 122 112
0.446017 -0.199869 -0.534 141 98 92
-0.16008 -0.242267 -0.644 190 190 178
0.119893 -0.168533 -0.448 192 145 129
0.122481 -0.167405 -0.445 195 148 132
0.133903 -0.164771 -0.438 196 148 128
0.135262 -0.164395 -0.437 197 149 129
0.175033 -0.167405 -0.445 137 90 80
0.183 -0.169286 -0.45 113 77 77
0.201017 -0.176057 -0.468 97 67 67
0.215265 -0.182076 -0.484 115 95 96
0.295014 -0.201262 -0.535 85 63 76
0.311293 -0.194867 -0.518 112 82 84
0.316601 -0.19449 -0.517 113 83 85
0.429143 -0.225714 -0.6 71 69 90
0.4134 -0.199381 -0.53 177 127 118
0.422903 -0.198629 -0.528 148 99 94
0.475385 -0.20841 -0.554 141 100 96
-0.314089 -0.239334 -0.633 179 184 177
-0.1763 -0.243871 -0.645 184 186 173
-0.172765 -0.242359 -0.641 187 188 174
-0.163706 -0.241603 -0.639 189 189 177
-0.0606962 -0.238578 -0.631 67 65 76
0.118714 -0.170143 -0.45 195 147 133
0.120477 -0.169009 -0.447 194 147 131
0.130566 -0.165606 -0.438 198 151 131
0.133903 -0.165606 -0.438 195 148 128
0.144088 -0.16485 -0.436 179 134 113
0.16375 -0.167118 -0.442 151 101 92
0.174186 -0.168252 -0.445 134 90 81
0.178374 -0.169009 -0.447 122 82 82
0.223929 -0.187157 -0.495 208 202 212
0.2985 -0.1985 -0.525 105 74 79
0.301766 -0.197366 -0.522 106 77 81
0.304974 -0.196231 -0.519 109 80 84
0.307347 -0.195853 -0.518 111 80 85
0.315006 -0.195097 -0.516 113 83 85
0.330763 -0.193963 -0.513 113 84 88
0.352052 -0.195475 -0.517 84 63 70
0.35813 -0.197744 -0.523 56 46 54
0.41192 -0.201147 -0.532 182 132 123
0.41888 -0.199634 -0.528 150 100 93
0.421897 -0.199634 -0.528 147 97 90
-0.330894 -0.24586 -0.647 252 253 247
-0.310962 -0.24092 -0.634 124 131 123
-0.280367 -0.24586 -0.647 255 255 251
-0.16831 -0.24244 -0.638 187 187 175
-0.0680152 -0.24016 -0.632 60 59 73
-0.0631 -0.23978 -0.631 68 66 77
-0.0462857 -0.24624 -0.648 69 69 79
0.11904 -0.17024 -0.448 196 149 133
0.132765 -0.16606 -0.437 197 150 130
0.13443 -0.16606 -0.437 196 149 129
0.138591 -0.16606 -0.437 193 145 125
0.189329 -0.17366 -0.457 102 74 71
0.196648 -0.17632 -0.464 101 71 69
0.214343 -0.18392 -0.484 140 125 132
0.3005 -0.1995 -0.525 105 75 77
0.306951 -0.19722 -0.519 110 81 85
0.328809 -0.19494 -0.513 114 84 92
0.334994 -0.19456 -0.512 176 147 149
0.336945 -0.19456 -0.512 208 187 192
0.340846 -0.19456 -0.512 126 103 109
0.348051 -0.19532 -0.514 111 86 90
0.442214 -0.2337 -0.615 65 63 84
0.412157 -0.20178 -0.531 183 133 124
0.421897 -0.20064 -0.528 152 102 95
0.461623 -0.20672 -0.544 134 91 85
-0.330894 -0.247092 -0.647 252 253 247
-0.323151 -0.244037 -0.639 251 254 247
-0.310962 -0.242128 -0.634 145 150 143
-0.175343 -0.24671 -0.646 184 184 172
-0.156619 -0.248238 -0.65 194 192 180
-0.0439524 -0.248238 -0.65 71 71 81
0.123618 -0.169184 -0.443 197 150 130
0.130028 -0.167656 -0.439 199 152 132
0.132765 -0.166892 -0.437 196 149 129
0.133597 -0.166892 -0.437 197 150 130
0.136927 -0.166892 -0.437 194 147 127
0.142427 -0.16651 -0.436 184 139 118
0.146915 -0.166892 -0.437 173 127 111
0.16375 -0.168802 -0.442 148 100 90
0.169566 -0.169566 -0.444 141 94 86
0.172103 -0.169566 -0.444 135 92 83
0.190615 -0.174912 -0.458 100 72 69
0.30046 -0.207374 -0.543 87 67 78
0.351747 -0.197827 -0.518 74 51 57
0.420748 -0.22647 -0.593 98 99 117
0.412157 -0.202791 -0.531 183 133 126
0.41262 -0.202028 -0.529 176 126 119
0.422903 -0.201646 -0.528 153 103 96
0.42592 -0.201646 -0.528 155 105 98
0.438454 -0.202791 -0.531 139 92 84
0.441307 -0.203173 -0.532 139 92 84
-0.328643 -0.247557 -0.645 251 252 246
-0.162029 -0.246406 -0.642 192 189 180
-0.0823333 -0.249476 -0.65 64 62 65
-0.0712867 -0.241416 -0.629 61 63 75
-0.0541629 -0.245254 -0.639 67 67 77
-0.0519714 -0.246406 -0.642 67 67 77
-0.0485286 -0.247557 -0.645 67 67 77
-0.0473733 -0.247941 -0.646 68 68 78
0.118509 -0.171179 -0.446 198 151 131
0.119938 -0.170795 -0.445 199 152 132
0.139935 -0.167341 -0.436 190 142 122
0.141596 -0.167341 -0.436 187 142 121
0.147748 -0.167725 -0.437 171 124 106
0.149412 -0.167725 -0.437 166 119 103
0.16375 -0.169644 -0.442 149 101 91
0.200086 -0.18039 -0.47 104 70 71
0.304333 -0.211095 -0.55 79 65 82
0.300453 -0.204187 -0.532 94 69 75
0.303754 -0.200349 -0.522 105 76 80
0.325877 -0.196894 -0.513 115 85 87
0.330763 -0.196894 -0.513 117 85 88
0.342796 -0.19651 -0.512 121 90 96
0.355457 -0.200349 -0.522 53 44 49
0.422876 -0.22875 -0.596 105 106 124
0.436295 -0.234124 -0.61 69 68 86
0.423704 -0.203035 -0.529 156 103 95
0.426727 -0.203035 -0.529 155 105 96
0.431571 -0.203419 -0.53 135 86 79
0.464548 -0.209176 -0.545 120 77 71
-0.173843 -0.248786 -0.645 190 190 180
-0.0552067 -0.2457 -0.637 66 66 76
-0.0485286 -0.248786 -0.645 67 67 75
0.118509 -0.172029 -0.446 198 152 129
0.120514 -0.171257 -0.444 199 153 130
0.1311 -0.168557 -0.437 199 151 129
0.131932 -0.168557 -0.437 198 150 128
0.157143 -0.169714 -0.44 159 109 98
0.166652 -0.170871 -0.443 143 96 86
0.304036 -0.209057 -0.542 88 67 76
0.302923 -0.204814 -0.531 99 69 79
0.310692 -0.199414 -0.517 112 83 87
0.314023 -0.199029 -0.516 112 81 86
0.315006 -0.199029 -0.516 112 81 86
0.329143 -0.197486 -0.512 114 81 88
0.428991 -0.232586 -0.603 75 74 92
0.440477 -0.204814 -0.531 137 90 84
0.458047 -0.208671 -0.541 128 85 79
0.47281 -0.212529 -0.551 136 93 86
-0.329152 -0.250402 -0.646 250 253 246
-0.280367 -0.25079 -0.647 255 255 253
-0.171276 -0.248076 -0.64 189 189 179
-0.160806 -0.248851 -0.642 194 191 182
-0.076079 -0.243812 -0.629 71 70 78
-0.0709467 -0.24265 -0.626 68 66 80
-0.04968 -0.249627 -0.644 69 69 77
-0.0485286 -0.250014 -0.645 69 69 77
0.117659 -0.172878 -0.446 195 148 128
0.12474 -0.17094 -0.441 198 152 129
0.150589 -0.169777 -0.438 165 116 101
0.16002 -0.17094 -0.441 156 108 98
0.167496 -0.171715 -0.443 142 95 85
0.179172 -0.174041 -0.449 114 75 78
0.203547 -0.184507 -0.476 103 81 84
0.212889 -0.18877 -0.487 163 156 172
0.315006 -0.200011 -0.516 112 81 86
0.317338 -0.199624 -0.515 113 83 85
0.330118 -0.198461 -0.512 114 80 81
0.335313 -0.198073 -0.511 123 105 105
0.343466 -0.198849 -0.513 112 81 89
0.345114 -0.199236 -0.514 117 86 94
0.424711 -0.20505 -0.529 154 103 99
0.428742 -0.20505 -0.529 139 89 82
0.4346 -0.205438 -0.53 127 80 74
-0.332429 -0.25319 -0.65 251 254 247
-0.318 -0.247737 -0.636 252 255 248
-0.30952 -0.247737 -0.636 245 247 242
-0.281599 -0.252022 -0.647 238 237 235
-0.163706 -0.248906 -0.639 191 189 177
-0.157129 -0.252022 -0.647 196 193 184
-0.0732143 -0.243452 -0.625 69 67 80
-0.0629 -0.24501 -0.629 66 66 76
0.128063 -0.170611 -0.438 197 151 128
0.1308 -0.169832 -0.436 197 151 128
0.138786 -0.169443 -0.435 191 145 122
0.141271 -0.169443 -0.435 184 137 119
0.165809 -0.172559 -0.443 141 95 82
0.187998 -0.178402 -0.458 100 70 72
0.193112 -0.180739 -0.464 99 69 71
0.305234 -0.205669 -0.528 101 78 84
0.327192 -0.199436 -0.512 113 84 86
0.440587 -0.239947 -0.616 82 80 102
0.410134 -0.206837 -0.531 184 134 125
0.413628 -0.206058 -0.529 172 122 115
0.416869 -0.205669 -0.528 162 107 102
0.41888 -0.205669 -0.528 158 103 96
0.432772 -0.206058 -0.529 127 79 75
0.463695 -0.211901 -0.544 125 82 76
-0.281599 -0.253254 -0.647 204 205 200
-0.16588 -0.249731 -0.638 193 191 179
-0.156137 -0.253646 -0.648 197 194 185
-0.0450514 -0.253646 -0.648 69 69 77
0.121655 -0.173011 -0.442 199 152 132
0.145749 -0.170663 -0.436 170 123 105
0.146579 -0.170663 -0.436 167 118 103
0.150589 -0.171446 -0.438 163 114 99
0.306082 -0.205891 -0.526 105 80 84
0.311677 -0.202369 -0.517 112 83 85
0.318319 -0.201586 -0.515 114 85 89
0.336287 -0.20002 -0.511 120 95 99
0.338233 -0.20002 -0.511 121 91 93
0.409148 -0.209414 -0.535 185 137 127
0.409893 -0.20824 -0.532 184 135 130
0.415863 -0.206674 -0.528 169 114 107
0.424711 -0.207066 -0.529 135 86 81
0.446197 -0.208631 -0.533 144 95 90
0.461809 -0.212546 -0.543 128 83 78
-0.32843 -0.254487 -0.647 252 253 247
-0.30758 -0.250553 -0.637 254 255 251
-0.298809 -0.25134 -0.639 222 223 218
-0.160305 -0.251733 -0.64 196 193 184
-0.0791667 -0.245833 -0.625 70 68 79
-0.0740476 -0.244653 -0.622 69 67 78
-0.0651924 -0.247013 -0.628 68 68 78
-0.0450514 -0.25488 -0.648 69 69 77
0.113466 -0.17818 -0.453 201 153 139
0.129139 -0.171493 -0.436 199 153 130
0.141271 -0.1711 -0.435 182 137 118
0.149754 -0.17228 -0.438 161 112 97
0.170795 -0.175033 -0.445 132 88 79
0.212333 -0.192733 -0.49 238 236 249
0.319659 -0.202173 -0.514 113 84 86
0.335313 -0.200993 -0.511 172 149 157
0.338233 -0.200993 -0.511 115 85 87
0.340846 -0.201387 -0.512 116 86 88
0.409654 -0.21122 -0.537 182 134 124
0.409649 -0.209647 -0.533 186 135 131
-0.312433 -0.251767 -0.637 252 255 248
-0.308793 -0.251767 -0.637 254 255 251
-0.301243 -0.252557 -0.639 255 255 251
-0.279997 -0.25651 -0.649 215 216 211
-0.0706067 -0.246233 -0.623 68 67 73
-0.0542476 -0.252952 -0.64 67 67 77
-0.0497571 -0.254929 -0.645 69 69 79
0.128309 -0.172324 -0.436 200 154 130
0.147748 -0.172719 -0.437 162 115 99
0.156305 -0.173905 -0.44 159 105 93
0.15834 -0.1743 -0.441 156 104 91
0.162067 -0.174695 -0.442 147 99 87
0.177857 -0.177857 -0.45 107 76 81
0.309419 -0.209476 -0.53 99 78 83
0.324267 -0.202362 -0.512 113 84 88
0.327192 -0.202362 -0.512 114 85 89
0.42811 -0.239119 -0.605 70 71 91
0.408633 -0.210662 -0.533 184 134 123
0.412846 -0.208686 -0.528 169 116 112
0.415863 -0.208686 -0.528 161 109 98
0.416869 -0.208686 -0.528 156 104 93
0.422696 -0.209081 -0.529 141 88 80
0.4425 -0.209871 -0.531 145 98 92
-0.312924 -0.253377 -0.638 251 252 246
-0.310007 -0.25298 -0.637 251 252 246
-0.305632 -0.253377 -0.638 251 252 246
-0.300495 -0.254171 -0.64 251 252 247
-0.169893 -0.25576 -0.644 225 226 220
-0.16198 -0.25298 -0.637 194 191 182
-0.100905 -0.258143 -0.65 202 198 195
-0.0799714 -0.247023 -0.622 68 67 75
-0.0727457 -0.246626 -0.621 69 68 74
-0.0473733 -0.256554 -0.646 70 70 78
0.113749 -0.176331 -0.444 197 156 134
0.123891 -0.173949 -0.438 202 157 134
0.140443 -0.172757 -0.435 179 132 112
0.145749 -0.173154 -0.436 160 113 97
0.16375 -0.175537 -0.442 145 98 88
0.192582 -0.185466 -0.467 96 71 77
0.309317 -0.207706 -0.523 106 77 79
0.326217 -0.203337 -0.512 115 86 90
0.345474 -0.204926 -0.516 86 65 72
0.421582 -0.237889 -0.599 97 99 114
0.410645 -0.214854 -0.541 180 132 128
0.408891 -0.212869 -0.536 184 131 123
0.408383 -0.212074 -0.534 184 131 123
0.411381 -0.210486 -0.53 175 124 120
0.438638 -0.210486 -0.53 142 95 89
0.44536 -0.21128 -0.532 141 96 90
0.456353 -0.21406 -0.539 126 83 77
0.47386 -0.218826 -0.551 132 91 87
0.482006 -0.221606 -0.558 128 93 89
-0.322 -0.256987 -0.644 251 252 246
-0.304894 -0.254991 -0.639 251 252 247
-0.298057 -0.25539 -0.64 252 253 248
-0.290881 -0.256588 -0.643 252 253 247
-0.159553 -0.254193 -0.637 200 198 186
-0.0952467 -0.254193 -0.637 71 68 75
-0.0621924 -0.252996 -0.634 70 68 79
-0.0473733 -0.257785 -0.646 70 70 78
0.114078 -0.176379 -0.442 201 156 137
0.129671 -0.173586 -0.435 200 154 131
0.182834 -0.181966 -0.456 99 70 74
0.195129 -0.187951 -0.471 94 81 98
0.320991 -0.204711 -0.513 108 82 85
0.325242 -0.204312 -0.512 116 87 89
0.332714 -0.203514 -0.51 150 128 131
0.409893 -0.212293 -0.532 179 129 122
0.431571 -0.211495 -0.53 148 99 94
0.456353 -0.215087 -0.539 120 79 73
-0.3235 -0.259416 -0.647 251 252 247
-0.292106 -0.257812 -0.643 252 253 247
-0.288547 -0.259015 -0.646 253 254 248
