ply
format ascii 1.0
comment Created by Open3D
element vertex 1297
property double x
property double y
property double z
property uchar red
property uchar green
property uchar blue
end_header
0.438977 -0.284863 -0.522 142 95 79
0.442807 -0.285409 -0.523 128 85 69
0.469853 -0.293594 -0.538 135 92 76
0.126106 -0.23931 -0.437 167 124 108
0.132838 -0.240952 -0.44 156 107 100
0.135968 -0.242048 -0.442 150 103 97
0.137963 -0.242595 -0.443 146 101 96
0.151097 -0.247524 -0.452 118 82 84
0.153833 -0.249167 -0.455 106 75 81
0.343305 -0.349381 -0.638 151 165 204
0.371837 -0.349929 -0.639 185 191 223
0.391311 -0.349929 -0.639 176 180 209
0.426609 -0.349929 -0.639 110 120 156
0.430802 -0.349381 -0.638 106 117 162
0.408766 -0.308857 -0.564 123 79 80
0.403857 -0.30119 -0.55 117 86 81
0.403738 -0.299548 -0.547 122 85 79
0.40502 -0.295167 -0.539 124 86 77
0.409893 -0.291333 -0.532 138 94 83
0.436151 -0.28531 -0.521 145 96 79
0.446648 -0.286952 -0.524 130 87 71
0.459694 -0.290786 -0.531 138 95 79
0.0946 -0.25388 -0.462 201 163 152
0.1022 -0.240691 -0.438 201 165 143
0.106129 -0.240142 -0.437 199 157 141
0.109208 -0.239592 -0.436 197 154 137
0.115021 -0.239592 -0.436 194 149 130
0.128063 -0.240691 -0.438 159 116 100
0.13912 -0.243989 -0.444 140 96 93
0.161295 -0.254979 -0.464 92 73 79
0.38766 -0.351146 -0.639 156 173 216
0.393746 -0.351146 -0.639 130 135 164
0.399206 -0.350596 -0.638 117 127 162
0.400421 -0.350596 -0.638 167 177 212
0.401636 -0.350596 -0.638 177 184 210
0.414437 -0.351146 -0.639 177 183 205
0.432017 -0.350596 -0.638 102 108 142
0.429858 -0.330264 -0.601 117 90 81
0.411293 -0.31103 -0.566 118 80 79
0.405669 -0.298941 -0.544 121 84 78
0.40454 -0.295094 -0.537 125 87 78
0.40711 -0.293995 -0.535 127 89 80
0.415191 -0.291797 -0.531 132 88 75
0.458829 -0.291248 -0.53 138 95 79
0.465343 -0.293446 -0.534 134 91 75
0.1022 -0.241526 -0.438 200 162 141
0.11253 -0.240423 -0.436 191 148 131
0.331847 -0.35126 -0.637 207 211 236
0.360967 -0.35126 -0.637 185 196 228
0.378547 -0.351811 -0.638 90 110 161
0.380977 -0.351811 -0.638 97 128 185
0.387053 -0.351811 -0.638 153 171 211
0.419865 -0.351811 -0.638 174 180 202
0.424726 -0.351811 -0.638 173 175 200
0.434297 -0.350709 -0.636 161 174 209
0.438452 -0.350157 -0.635 61 86 142
0.406705 -0.299977 -0.544 120 83 75
0.406318 -0.296669 -0.538 123 85 76
0.411434 -0.294463 -0.534 127 85 73
0.411679 -0.293911 -0.533 129 87 75
0.422102 -0.290603 -0.527 142 95 79
0.4245 -0.2895 -0.525 144 97 81
0.42804 -0.287846 -0.522 148 99 84
0.428212 -0.287294 -0.521 146 97 82
0.440966 -0.287846 -0.522 139 93 77
0.447646 -0.288949 -0.524 131 85 70
0.0951429 -0.24568 -0.444 206 167 150
0.11336 -0.241253 -0.436 192 147 128
0.124156 -0.241253 -0.436 166 123 106
0.143787 -0.247893 -0.448 125 85 83
0.146143 -0.249 -0.45 119 85 84
0.175215 -0.270027 -0.488 153 171 211
0.280446 -0.35192 -0.636 215 224 255
0.32648 -0.35192 -0.636 207 213 239
0.331326 -0.35192 -0.636 207 213 239
0.337383 -0.35192 -0.636 187 194 222
0.35126 -0.352473 -0.637 194 199 228
0.352473 -0.352473 -0.637 192 202 227
0.35854 -0.352473 -0.637 187 198 220
0.384623 -0.353027 -0.638 114 143 203
0.407712 -0.353027 -0.638 177 184 202
0.422295 -0.353027 -0.638 175 180 202
0.428913 -0.352473 -0.637 150 153 184
0.440587 -0.340853 -0.616 106 96 105
0.40849 -0.301567 -0.545 116 79 71
0.408891 -0.296587 -0.536 123 85 76
0.411679 -0.294927 -0.533 129 87 75
0.417214 -0.29382 -0.531 134 88 75
0.420467 -0.293267 -0.53 139 91 77
0.420681 -0.292713 -0.529 141 93 79
0.432343 -0.287733 -0.52 151 103 83
0.448644 -0.289947 -0.524 135 89 76
0.470149 -0.296587 -0.536 138 94 81
0.0920971 -0.252078 -0.454 202 163 146
0.0927933 -0.249302 -0.449 201 162 147
0.1022 -0.243194 -0.438 199 161 142
0.107547 -0.242084 -0.436 199 158 138
0.110038 -0.242084 -0.436 196 155 135
0.117243 -0.241529 -0.435 187 142 121
0.120557 -0.241529 -0.435 174 131 112
0.124156 -0.242084 -0.436 162 119 102
0.143787 -0.248747 -0.448 124 87 81
0.146143 -0.249857 -0.45 120 86 87
0.151566 -0.253189 -0.456 106 81 84
0.302986 -0.352576 -0.635 221 226 255
0.3175 -0.352576 -0.635 141 159 199
0.319919 -0.352576 -0.635 128 146 192
0.337383 -0.353131 -0.636 192 199 225
0.344651 -0.353131 -0.636 198 205 233
0.354343 -0.353131 -0.636 190 201 221
0.39858 -0.353687 -0.637 177 181 206
0.42406 -0.353687 -0.637 173 178 200
0.427029 -0.353131 -0.636 173 175 196
0.436554 -0.352021 -0.634 66 96 158
0.441385 -0.352021 -0.634 38 72 136
0.41207 -0.307602 -0.554 112 75 69
0.409392 -0.298718 -0.538 119 81 72
0.412451 -0.296497 -0.534 127 83 72
0.41574 -0.295942 -0.533 130 86 75
0.423909 -0.293166 -0.528 145 97 83
0.457097 -0.293166 -0.528 134 88 73
0.461857 -0.294276 -0.53 139 93 78
0.473952 -0.298718 -0.538 137 91 78
0.0916914 -0.251829 -0.452 202 163 146
0.0936619 -0.247929 -0.445 203 164 147
0.0976381 -0.245143 -0.44 203 162 144
0.0990886 -0.244586 -0.439 203 162 144
0.101967 -0.243471 -0.437 200 162 143
0.107547 -0.242914 -0.436 198 157 137
0.110869 -0.242914 -0.436 193 152 130
0.118071 -0.242357 -0.435 182 139 120
0.121665 -0.242914 -0.436 170 127 110
0.158986 -0.259071 -0.465 94 72 84
0.160559 -0.260186 -0.467 118 96 108
0.271538 -0.353786 -0.635 194 201 220
0.319415 -0.353229 -0.634 125 146 191
0.330805 -0.353786 -0.635 125 134 165
0.372514 -0.354343 -0.636 166 175 208
0.388263 -0.354343 -0.636 153 167 206
0.391897 -0.354343 -0.636 80 93 137
0.423394 -0.354343 -0.636 171 176 196
0.425513 -0.3237 -0.581 116 81 75
0.410645 -0.301414 -0.541 117 79 70
0.41777 -0.296957 -0.533 135 89 76
0.4515 -0.2925 -0.525 134 88 73
0.464751 -0.295843 -0.531 139 93 78
0.486049 -0.304757 -0.547 138 94 81
0.490652 -0.306986 -0.551 139 95 82
0.0928143 -0.248776 -0.445 202 163 146
0.0968 -0.245981 -0.44 204 163 145
0.104814 -0.243186 -0.435 196 158 137
0.106471 -0.243186 -0.435 198 157 135
0.120557 -0.243186 -0.435 170 127 108
0.165119 -0.265548 -0.475 199 189 216
0.332699 -0.354436 -0.634 158 164 198
0.364671 -0.354995 -0.635 179 186 214
0.388862 -0.354995 -0.635 86 100 149
0.402167 -0.354995 -0.635 182 184 205
0.438907 -0.337665 -0.604 111 84 89
0.433172 -0.331515 -0.593 114 83 81
0.424405 -0.321452 -0.575 115 82 77
0.412706 -0.302445 -0.541 116 78 69
0.423283 -0.296854 -0.531 135 91 78
0.426868 -0.292382 -0.523 146 97 80
0.43119 -0.291264 -0.521 153 105 85
0.438431 -0.290146 -0.519 152 103 86
0.44409 -0.291264 -0.521 140 94 78
0.455366 -0.294059 -0.526 138 90 76
0.0904286 -0.252429 -0.45 197 160 142
0.093241 -0.248502 -0.443 202 163 146
0.118071 -0.244014 -0.435 180 138 116
0.14006 -0.250746 -0.447 124 91 84
0.170091 -0.271501 -0.484 239 237 255
0.327869 -0.355644 -0.634 162 169 197
0.330284 -0.355644 -0.634 145 151 183
0.331491 -0.355644 -0.634 166 172 204
0.399118 -0.355644 -0.634 149 153 165
0.400326 -0.355644 -0.634 169 173 185
0.401533 -0.355644 -0.634 181 184 203
0.435866 -0.355083 -0.633 55 89 153
0.419733 -0.314133 -0.56 110 75 69
0.415541 -0.301792 -0.538 118 78 70
0.415791 -0.301231 -0.537 120 80 72
0.442248 -0.291695 -0.52 145 98 80
0.460114 -0.296183 -0.528 141 95 82
0.463876 -0.297305 -0.53 142 96 83
0.091119 -0.250471 -0.445 196 159 143
0.09176 -0.249909 -0.444 198 161 145
0.105643 -0.244843 -0.435 196 155 137
0.120004 -0.245406 -0.436 167 126 108
0.131758 -0.248783 -0.442 143 99 90
0.147442 -0.255537 -0.454 104 79 75
0.317204 -0.355726 -0.632 114 135 192
0.321323 -0.356289 -0.633 177 193 244
0.327351 -0.356289 -0.633 128 143 182
0.334586 -0.356289 -0.633 210 212 237
0.371343 -0.356851 -0.634 64 84 143
0.373758 -0.356851 -0.634 64 92 165
0.374966 -0.356851 -0.634 49 77 150
0.383419 -0.356851 -0.634 38 75 146
0.393666 -0.356289 -0.633 173 174 194
0.436381 -0.355726 -0.632 90 120 184
0.4424 -0.355726 -0.632 30 67 135
0.415533 -0.305069 -0.542 112 74 63
0.429034 -0.293811 -0.522 154 105 88
0.440409 -0.292123 -0.519 152 104 82
0.445219 -0.292686 -0.52 142 95 79
0.450776 -0.294374 -0.523 140 93 77
0.468667 -0.29944 -0.532 145 99 84
0.478051 -0.302817 -0.538 145 99 83
0.0921886 -0.249625 -0.442 202 163 148
0.09282 -0.24906 -0.441 202 163 148
0.106471 -0.245671 -0.435 195 154 136
0.145391 -0.255837 -0.453 110 81 75
0.26544 -0.35693 -0.632 169 174 203
0.299147 -0.35693 -0.632 203 212 241
0.316 -0.35693 -0.632 107 131 191
0.317204 -0.35693 -0.632 90 112 172
0.32494 -0.357494 -0.633 153 171 217
0.391254 -0.357494 -0.633 172 180 217
0.398489 -0.357494 -0.633 170 173 188
0.429837 -0.357494 -0.633 66 75 114
0.437724 -0.33321 -0.59 111 80 75
0.432514 -0.327562 -0.58 108 77 74
0.42606 -0.32022 -0.567 109 78 73
0.417067 -0.30723 -0.544 113 76 68
0.426926 -0.298194 -0.528 140 92 80
0.428682 -0.295935 -0.524 150 101 84
0.458371 -0.297065 -0.526 143 96 80
0.465895 -0.299324 -0.53 142 95 77
0.0882476 -0.256133 -0.452 199 162 146
0.0887143 -0.255 -0.45 200 161 144
0.0913467 -0.250467 -0.442 202 163 146
0.0978048 -0.247633 -0.437 201 160 142
0.100671 -0.2465 -0.435 196 158 139
0.1329 -0.251033 -0.443 138 95 86
0.144529 -0.2567 -0.453 110 81 77
0.30949 -0.357567 -0.631 130 151 196
0.316702 -0.357567 -0.631 83 107 169
0.336465 -0.358133 -0.632 200 209 226
0.337669 -0.358133 -0.632 197 201 210
0.338872 -0.358133 -0.632 170 174 183
0.343688 -0.358133 -0.632 173 176 195
0.358133 -0.358133 -0.632 190 195 215
0.367764 -0.358133 -0.632 117 134 190
0.374374 -0.3587 -0.633 61 94 171
0.40934 -0.3587 -0.633 109 116 144
0.414163 -0.3587 -0.633 178 182 207
0.422395 -0.303167 -0.535 123 80 71
0.433489 -0.2941 -0.519 157 109 89
0.437587 -0.293533 -0.518 155 107 84
0.442386 -0.2941 -0.519 150 104 81
0.443374 -0.2941 -0.519 146 99 81
0.452769 -0.296367 -0.523 140 93 75
0.45563 -0.296933 -0.524 144 97 79
0.0894238 -0.253014 -0.445 203 164 149
0.100671 -0.247329 -0.435 196 158 137
0.12978 -0.25074 -0.441 142 98 89
0.137506 -0.254151 -0.447 124 89 83
0.139831 -0.255289 -0.449 121 88 83
0.143349 -0.256994 -0.452 109 81 78
0.269828 -0.358769 -0.631 232 239 255
0.301077 -0.358769 -0.631 209 215 241
0.308289 -0.358769 -0.631 146 161 202
0.313096 -0.358769 -0.631 92 121 181
0.320308 -0.358769 -0.631 91 115 175
0.337669 -0.359337 -0.632 203 207 219
0.360541 -0.359337 -0.632 190 193 212
0.378598 -0.359337 -0.632 47 85 150
0.390636 -0.359337 -0.632 102 119 162
0.408693 -0.359337 -0.632 146 150 175
0.418324 -0.359337 -0.632 129 131 143
0.42247 -0.358769 -0.631 181 179 200
0.426075 -0.358769 -0.631 104 110 144
0.430883 -0.358769 -0.631 160 175 214
0.4314 -0.3582 -0.63 164 177 211
0.42145 -0.311009 -0.547 112 75 67
0.421143 -0.304754 -0.536 119 79 69
0.433174 -0.296226 -0.521 157 108 91
0.43956 -0.29452 -0.518 156 110 86
0.462254 -0.299637 -0.527 142 97 78
0.0879257 -0.254432 -0.446 200 163 147
0.09198 -0.25158 -0.441 203 164 147
0.108129 -0.248157 -0.435 186 144 122
0.109786 -0.248157 -0.435 186 144 122
0.113929 -0.248157 -0.435 179 134 113
0.134348 -0.253862 -0.445 127 90 82
0.152457 -0.264701 -0.464 95 71 71
0.2694 -0.3594 -0.63 234 240 255
0.2718 -0.3594 -0.63 232 238 252
0.2982 -0.3594 -0.63 220 225 245
0.3054 -0.3594 -0.63 130 139 178
0.315 -0.3594 -0.63 75 104 170
0.333529 -0.35997 -0.631 200 208 229
0.338336 -0.35997 -0.631 201 204 223
0.362374 -0.35997 -0.631 178 181 196
0.375595 -0.35997 -0.631 72 101 167
0.381605 -0.35997 -0.631 118 138 197
0.402037 -0.35997 -0.631 134 133 141
0.450411 -0.344568 -0.604 106 86 85
0.421447 -0.307487 -0.539 120 82 73
0.421929 -0.306346 -0.537 121 81 71
0.424877 -0.304064 -0.533 128 84 73
0.429856 -0.298359 -0.523 151 103 81
0.43956 -0.295507 -0.518 156 110 86
0.473733 -0.303493 -0.532 152 107 88
0.0866133 -0.256427 -0.448 199 161 148
0.09198 -0.25242 -0.441 205 166 149
0.0926095 -0.251848 -0.44 203 164 147
0.0996133 -0.248413 -0.434 200 159 141
0.102093 -0.248413 -0.434 196 158 139
0.114757 -0.248986 -0.435 175 130 109
0.156219 -0.269019 -0.47 114 102 106
0.3246 -0.3606 -0.63 69 90 145
0.3342 -0.3606 -0.63 200 207 233
0.373191 -0.361172 -0.631 133 154 201
0.3966 -0.3606 -0.63 187 183 206
0.3978 -0.3606 -0.63 185 181 204
0.4014 -0.3606 -0.63 177 180 187
0.4146 -0.3606 -0.63 176 179 196
0.4403 -0.360028 -0.629 101 126 183
0.4422 -0.3606 -0.63 89 114 171
0.4434 -0.3606 -0.63 95 115 165
0.443894 -0.360028 -0.629 108 128 178
0.452281 -0.360028 -0.629 167 173 197
0.449354 -0.342284 -0.598 108 80 76
0.432982 -0.325685 -0.569 110 80 72
0.427329 -0.303934 -0.531 130 83 73
0.433174 -0.29821 -0.521 156 107 90
0.44252 -0.296493 -0.518 148 100 80
0.0903 -0.25326 -0.441 204 167 151
0.115021 -0.250389 -0.436 172 127 106
0.115851 -0.250389 -0.436 167 122 101
0.119447 -0.250963 -0.437 154 111 94
0.1281 -0.25326 -0.441 140 97 88
0.319292 -0.361226 -0.629 107 134 189
0.332471 -0.361226 -0.629 201 208 227
0.3486 -0.3618 -0.63 194 201 220
0.3738 -0.3618 -0.63 146 166 217
0.41514 -0.361226 -0.629 184 187 202
0.4278 -0.3618 -0.63 159 165 197
0.433111 -0.361226 -0.629 134 149 182
0.437904 -0.361226 -0.629 102 129 176
0.445092 -0.361226 -0.629 113 126 170
0.453863 -0.346869 -0.604 103 84 86
0.441766 -0.334234 -0.582 110 80 72
0.424433 -0.307243 -0.535 124 84 76
0.425674 -0.306669 -0.534 125 85 77
0.441533 -0.29748 -0.518 149 101 78
0.445351 -0.298054 -0.519 146 99 83
0.456753 -0.300351 -0.523 142 95 77
0.47576 -0.30552 -0.532 150 107 100
0.0843143 -0.26159 -0.454 198 160 151
0.0996133 -0.250067 -0.434 194 155 138
0.10292 -0.250067 -0.434 193 151 135
0.113929 -0.250643 -0.435 170 128 103
0.122223 -0.252371 -0.438 146 107 92
0.129232 -0.254676 -0.442 133 95 84
0.135803 -0.257557 -0.447 121 88 83
0.144934 -0.263319 -0.457 104 76 73
0.297253 -0.361848 -0.628 224 229 251
0.30443 -0.361848 -0.628 129 145 181
0.308019 -0.361848 -0.628 158 180 238
0.319292 -0.362424 -0.629 120 148 196
0.349245 -0.362424 -0.629 194 201 219
0.3582 -0.363 -0.63 192 199 218
0.376801 -0.362424 -0.629 111 133 182
0.381 -0.363 -0.63 153 171 219
0.397169 -0.362424 -0.629 171 174 193
0.44917 -0.361848 -0.628 169 180 200
0.424286 -0.311143 -0.54 120 82 73
0.427533 -0.305381 -0.53 136 89 73
0.429316 -0.303076 -0.526 140 93 75
0.433333 -0.299619 -0.52 158 110 88
0.443507 -0.298467 -0.518 149 102 82
0.0847171 -0.258409 -0.447 201 161 149
0.0860333 -0.257252 -0.445 199 159 147
0.087979 -0.255518 -0.442 200 162 149
0.124174 -0.253784 -0.439 144 104 92
0.137266 -0.259565 -0.449 116 87 81
0.157881 -0.274595 -0.475 162 149 156
0.30514 -0.362466 -0.627 159 171 211
0.316392 -0.363044 -0.628 138 174 226
0.322373 -0.363044 -0.628 200 217 245
0.334335 -0.363044 -0.628 203 208 227
0.33912 -0.363044 -0.628 198 210 226
0.356433 -0.363622 -0.629 191 199 212
0.361848 -0.363044 -0.628 91 94 125
0.373207 -0.363622 -0.629 144 159 202
0.410891 -0.363044 -0.628 174 180 196
0.412088 -0.363044 -0.628 172 183 203
0.41448 -0.363044 -0.628 173 176 195
0.421657 -0.363044 -0.628 115 118 149
0.453231 -0.362466 -0.627 162 164 179
0.457278 -0.361888 -0.626 151 149 173
0.426905 -0.317952 -0.55 114 80 71
0.425892 -0.308125 -0.533 135 89 73
0.434324 -0.30061 -0.52 154 108 85
0.443507 -0.299453 -0.518 149 101 79
0.4635 -0.3035 -0.525 144 97 77
0.109533 -0.25172 -0.434 180 138 114
0.266923 -0.36366 -0.627 231 239 252
0.32955 -0.36424 -0.628 151 161 197
0.340316 -0.36424 -0.628 183 187 196
0.360651 -0.36424 -0.628 88 91 122
0.376202 -0.36424 -0.628 131 149 197
0.396537 -0.36424 -0.628 132 135 166
0.404266 -0.36366 -0.627 156 158 196
0.42218 -0.36366 -0.627 166 168 189
0.4389 -0.36366 -0.627 105 131 182
0.4416 -0.33408 -0.576 113 80 71
0.43485 -0.32654 -0.563 116 83 76
0.427174 -0.31842 -0.549 122 88 79
0.425674 -0.30972 -0.534 137 91 78
0.462617 -0.30392 -0.524 144 97 77
0.0825305 -0.261275 -0.449 198 160 149
0.0890543 -0.255456 -0.439 203 161 147
0.10044 -0.252547 -0.434 194 153 133
0.115851 -0.25371 -0.436 164 117 97
0.122502 -0.255456 -0.439 144 104 92
0.139044 -0.263021 -0.452 111 82 78
0.140524 -0.264185 -0.454 104 79 75
0.147719 -0.269422 -0.463 96 75 74
0.237444 -0.365436 -0.628 176 183 211
0.28319 -0.364272 -0.626 232 235 254
0.28796 -0.364272 -0.626 226 228 253
0.290345 -0.364272 -0.626 227 229 254
0.291537 -0.364272 -0.626 227 229 254
0.326637 -0.364854 -0.627 125 138 170
0.334997 -0.364854 -0.627 199 205 221
0.359455 -0.365436 -0.628 93 98 130
0.419791 -0.364854 -0.627 133 140 168
0.423891 -0.364272 -0.626 134 137 146
0.427469 -0.364272 -0.626 173 174 194
0.429853 -0.364272 -0.626 170 176 192
0.442483 -0.364854 -0.627 73 100 153
0.448454 -0.364854 -0.627 176 177 197
0.452509 -0.364272 -0.626 164 165 183
0.456548 -0.36369 -0.625 169 168 186
0.460376 -0.352052 -0.605 101 86 89
0.425857 -0.315392 -0.542 126 86 76
0.425553 -0.313647 -0.539 130 87 78
0.425789 -0.313065 -0.538 134 90 79
0.433011 -0.303754 -0.522 149 98 77
0.435314 -0.30259 -0.52 150 99 78
0.44462 -0.300845 -0.517 146 98 76
0.446467 -0.301427 -0.518 147 96 77
0.0854533 -0.258044 -0.442 201 161 149
0.088419 -0.256876 -0.44 203 161 149
0.101858 -0.25279 -0.433 191 150 130
0.109786 -0.253957 -0.435 179 136 117
0.111443 -0.253957 -0.435 177 132 113
0.126707 -0.258044 -0.442 129 92 86
0.139351 -0.264466 -0.453 109 80 76
0.240265 -0.365465 -0.626 170 182 222
0.304653 -0.365465 -0.626 195 202 230
0.318277 -0.366049 -0.627 170 189 222
0.379186 -0.366049 -0.627 97 120 174
0.385157 -0.366049 -0.627 187 189 214
0.38874 -0.366049 -0.627 182 187 207
0.402429 -0.365465 -0.626 168 178 203
0.403621 -0.365465 -0.626 144 156 194
0.411968 -0.365465 -0.626 142 153 181
0.421507 -0.365465 -0.626 182 180 201
0.453701 -0.365465 -0.626 172 171 185
0.431676 -0.305916 -0.524 144 95 78
0.433174 -0.304165 -0.521 148 97 76
0.435159 -0.304165 -0.521 149 98 77
0.441533 -0.302413 -0.518 149 101 79
0.441666 -0.30183 -0.517 151 103 81
0.44844 -0.302413 -0.518 141 93 73
0.459857 -0.304749 -0.522 146 100 77
0.471289 -0.307668 -0.527 149 102 84
0.473189 -0.308251 -0.528 151 105 82
0.479813 -0.310587 -0.532 150 108 86
0.083959 -0.259471 -0.443 198 160 147
0.0867429 -0.257714 -0.44 201 161 149
0.0911457 -0.255957 -0.437 197 158 143
0.09796 -0.2542 -0.434 191 152 135
0.107053 -0.2542 -0.434 179 136 117
0.11253 -0.255371 -0.436 169 123 107
0.11419 -0.255371 -0.436 164 118 102
0.118614 -0.255957 -0.437 149 107 95
0.306548 -0.366071 -0.625 173 186 218
0.315385 -0.366657 -0.626 149 173 217
0.31777 -0.366657 -0.626 166 185 218
0.326116 -0.366657 -0.626 197 204 230
0.336848 -0.366657 -0.626 161 163 178
0.339232 -0.366657 -0.626 193 192 210
0.349329 -0.367243 -0.627 193 197 224
0.352911 -0.367243 -0.627 187 195 218
0.368437 -0.367243 -0.627 187 191 202
0.379186 -0.367243 -0.627 95 120 174
0.382769 -0.367243 -0.627 183 188 217
0.404167 -0.366071 -0.625 85 97 137
0.407738 -0.366071 -0.625 127 142 183
0.4125 -0.366071 -0.625 96 116 166
0.424405 -0.366071 -0.625 175 178 187
0.432738 -0.366071 -0.625 78 103 160
0.439881 -0.366071 -0.625 89 115 172
0.444162 -0.366657 -0.626 81 107 156
0.446547 -0.366657 -0.626 164 178 207
0.454167 -0.366071 -0.625 174 173 187
0.459833 -0.3649 -0.623 80 95 138
0.454994 -0.346743 -0.592 117 88 84
0.437144 -0.305157 -0.521 148 97 78
0.457105 -0.304571 -0.52 144 96 74
0.463727 -0.306329 -0.523 147 100 80
0.4761 -0.309843 -0.529 149 107 83
0.0971333 -0.255027 -0.434 194 152 136
0.109786 -0.255614 -0.435 172 126 110
0.11253 -0.256202 -0.436 166 120 104
0.13011 -0.26149 -0.445 128 90 87
0.141452 -0.268542 -0.457 101 77 75
0.296549 -0.366674 -0.624 192 197 226
0.316071 -0.367262 -0.625 147 163 197
0.36785 -0.36785 -0.626 170 172 184
0.392262 -0.367262 -0.625 185 184 202
0.396389 -0.366674 -0.624 50 71 126
0.426103 -0.366674 -0.624 153 157 168
0.448214 -0.367262 -0.625 122 121 135
0.455705 -0.346695 -0.59 116 87 83
0.44659 -0.303799 -0.517 145 94 73
0.48184 -0.312613 -0.532 146 105 85
0.0963067 -0.255853 -0.434 193 151 135
0.0987867 -0.255853 -0.434 190 147 130
0.101267 -0.255853 -0.434 187 147 121
0.103747 -0.255853 -0.434 185 145 119
0.110869 -0.257032 -0.436 169 124 105
0.15181 -0.278845 -0.473 98 82 82
0.275154 -0.367863 -0.624 210 211 231
0.32032 -0.367863 -0.624 206 215 244
0.324405 -0.368452 -0.625 204 209 229
0.325595 -0.368452 -0.625 206 211 231
0.333929 -0.368452 -0.625 165 170 190
0.358929 -0.368452 -0.625 189 196 212
0.379167 -0.368452 -0.625 101 129 177
0.396389 -0.367863 -0.624 47 68 123
0.404709 -0.367863 -0.624 33 63 123
0.415406 -0.367863 -0.624 62 83 130
0.435611 -0.367863 -0.624 104 134 184
0.4368 -0.367863 -0.624 113 134 189
0.437989 -0.367863 -0.624 107 128 183
0.456273 -0.367273 -0.623 113 119 155
0.463834 -0.366684 -0.622 161 167 189
0.434739 -0.327775 -0.556 128 93 87
0.428711 -0.320111 -0.543 145 97 85
0.431676 -0.30891 -0.524 153 100 82
0.437295 -0.306552 -0.52 156 101 81
0.445605 -0.304784 -0.517 149 99 76
0.467608 -0.30891 -0.524 155 103 82
0.479923 -0.313037 -0.531 146 105 85
0.133845 -0.265551 -0.449 105 84 79
0.313189 -0.369051 -0.624 151 174 218
0.319131 -0.369051 -0.624 189 200 232
0.364881 -0.369643 -0.625 195 198 213
0.38688 -0.369051 -0.624 160 161 179
0.443931 -0.369051 -0.624 129 142 177
0.451063 -0.369051 -0.624 170 171 192
0.456726 -0.367869 -0.622 161 169 205
0.426471 -0.316414 -0.535 155 104 87
0.426691 -0.315823 -0.534 152 100 86
0.427734 -0.312866 -0.529 158 107 90
0.431849 -0.309317 -0.523 154 101 83
0.436305 -0.307543 -0.52 151 99 78
0.43942 -0.306951 -0.519 152 100 79
0.450529 -0.305769 -0.517 139 91 69
0.467608 -0.309909 -0.524 151 104 84
0.0789333 -0.265813 -0.448 196 156 146
0.0805838 -0.262847 -0.443 201 161 151
0.0842286 -0.261067 -0.44 201 161 149
0.0863486 -0.25988 -0.438 200 158 146
0.0880171 -0.25988 -0.438 200 157 148
0.108129 -0.2581 -0.435 173 130 111
0.296783 -0.369053 -0.622 218 223 243
0.30794 -0.369647 -0.623 153 171 209
0.317433 -0.369647 -0.623 119 141 190
0.31862 -0.369647 -0.623 170 184 221
0.335771 -0.37024 -0.624 133 146 191
0.348846 -0.37024 -0.624 118 139 170
0.373806 -0.37024 -0.624 119 148 192
0.4183 -0.369647 -0.623 116 132 168
0.464271 -0.36846 -0.621 165 172 190
0.428125 -0.312687 -0.527 159 106 88
0.436305 -0.308533 -0.52 154 102 81
0.436454 -0.30794 -0.519 154 102 81
0.440409 -0.30794 -0.519 155 103 82
0.447691 -0.30616 -0.516 146 95 76
0.464829 -0.30972 -0.522 151 104 84
0.479019 -0.314467 -0.53 149 104 85
0.496974 -0.32218 -0.543 146 103 84
0.0804019 -0.263095 -0.442 204 161 152
0.0971333 -0.258333 -0.434 190 149 131
0.1073 -0.258929 -0.435 172 129 110
0.1359 -0.269643 -0.453 98 77 74
0.294413 -0.370238 -0.622 218 222 247
0.299152 -0.370238 -0.622 218 220 243
0.324553 -0.370833 -0.623 205 210 230
0.32574 -0.370833 -0.623 202 209 227
0.35066 -0.370833 -0.623 121 144 188
0.38982 -0.370833 -0.623 177 185 208
0.402227 -0.370238 -0.622 136 151 172
0.41474 -0.370833 -0.623 170 177 196
0.425922 -0.370238 -0.622 174 180 194
0.429476 -0.370238 -0.622 138 149 171
0.44678 -0.370833 -0.623 118 121 140
0.450802 -0.370238 -0.622 140 145 177
0.453171 -0.370238 -0.622 63 67 104
0.457174 -0.369643 -0.621 174 172 193
0.469429 -0.369048 -0.62 169 170 191
0.431849 -0.31131 -0.523 161 106 86
0.432017 -0.310714 -0.522 158 103 83
0.446709 -0.307143 -0.516 149 98 77
0.45064 -0.307143 -0.516 145 97 75
0.467711 -0.31131 -0.523 155 107 87
0.475304 -0.31369 -0.527 152 105 85
0.483761 -0.317262 -0.533 149 104 85
0.0782286 -0.265131 -0.444 197 157 147
0.09796 -0.25916 -0.434 188 147 129
0.10044 -0.25916 -0.434 182 141 121
0.103747 -0.25916 -0.434 181 140 120
0.108129 -0.259757 -0.435 168 126 104
0.120267 -0.262743 -0.44 143 100 93
0.138841 -0.272894 -0.457 93 73 74
0.140629 -0.274686 -0.46 94 74 76
0.232806 -0.371423 -0.622 244 242 255
0.272649 -0.370826 -0.621 216 222 248
0.316924 -0.371423 -0.622 142 164 213
0.373792 -0.371423 -0.622 137 161 205
0.386825 -0.371423 -0.622 184 188 213
0.464705 -0.370229 -0.62 169 172 187
0.427709 -0.318874 -0.534 159 106 90
0.441533 -0.30932 -0.518 169 114 94
0.445726 -0.308126 -0.516 153 101 79
0.448674 -0.308126 -0.516 149 99 76
0.453483 -0.308723 -0.517 147 99 77
0.454468 -0.308723 -0.517 148 100 78
0.127567 -0.266576 -0.445 118 87 84
0.233614 -0.372009 -0.621 245 243 254
0.314049 -0.372009 -0.621 125 146 193
0.325877 -0.372009 -0.621 194 201 219
0.375557 -0.372009 -0.621 117 140 184
0.383837 -0.372009 -0.621 166 171 190
0.40815 -0.372608 -0.622 182 187 209
0.411705 -0.372608 -0.622 179 180 208
0.419323 -0.372009 -0.621 73 85 111
0.461162 -0.37141 -0.62 170 172 187
0.452258 -0.34565 -0.577 128 93 89
0.437396 -0.331872 -0.554 130 96 87
0.427329 -0.318094 -0.531 161 105 88
0.432017 -0.312703 -0.522 159 106 88
0.443635 -0.309708 -0.517 163 108 87
0.445605 -0.309708 -0.517 159 105 81
0.447691 -0.309109 -0.516 155 103 79
0.474402 -0.315099 -0.526 153 105 83
0.492398 -0.322288 -0.538 144 99 80
0.0751667 -0.27103 -0.451 196 153 146
0.0760324 -0.268025 -0.446 197 157 149
0.0836543 -0.262616 -0.437 206 163 154
0.085319 -0.262616 -0.437 200 157 148
0.0932143 -0.261414 -0.435 190 148 134
0.101267 -0.260813 -0.434 177 136 118
0.126719 -0.267424 -0.445 120 87 82
0.135335 -0.272832 -0.454 98 76 78
0.1371 -0.274635 -0.457 96 74 76
0.291105 -0.37259 -0.62 218 224 255
0.31 -0.37259 -0.62 150 172 209
0.338343 -0.37259 -0.62 169 176 204
0.392117 -0.373191 -0.621 179 185 209
0.408677 -0.373191 -0.621 179 185 207
0.430457 -0.37259 -0.62 151 163 201
0.44298 -0.373191 -0.621 139 152 194
0.443448 -0.37259 -0.62 164 174 201
0.44699 -0.37259 -0.62 143 153 180
0.462776 -0.37199 -0.619 171 174 191
0.470269 -0.371389 -0.618 171 172 193
0.428133 -0.319707 -0.532 164 108 91
0.432017 -0.313697 -0.522 164 112 91
0.478217 -0.317303 -0.528 153 105 83
0.511263 -0.332928 -0.554 142 99 80
0.0770343 -0.266463 -0.442 199 156 149
0.0792 -0.265257 -0.44 201 158 151
0.0996133 -0.26164 -0.434 180 139 119
0.10292 -0.26164 -0.434 176 135 117
0.104573 -0.26164 -0.434 175 132 113
0.1073 -0.262243 -0.435 164 121 102
0.11388 -0.264051 -0.438 154 107 101
0.122497 -0.266463 -0.442 128 91 85
0.282382 -0.373169 -0.619 197 211 240
0.313543 -0.373771 -0.62 132 151 191
0.318267 -0.373771 -0.62 202 216 245
0.330076 -0.373771 -0.62 195 201 225
0.345429 -0.373771 -0.62 195 200 229
0.378495 -0.373771 -0.62 165 180 209
0.392117 -0.374374 -0.621 181 187 209
0.403295 -0.373771 -0.62 174 179 198
0.427405 -0.373169 -0.619 152 159 185
0.436333 -0.331571 -0.55 138 100 89
0.450748 -0.310471 -0.515 160 104 81
0.453589 -0.311074 -0.516 159 105 81
0.475404 -0.317103 -0.526 154 106 84
0.0813429 -0.264886 -0.438 206 162 153
0.102093 -0.262467 -0.434 177 136 118
0.108129 -0.263071 -0.435 163 120 103
0.134767 -0.275167 -0.455 104 75 79
0.1377 -0.277586 -0.459 95 73 76
0.228146 -0.374348 -0.619 243 242 255
0.285919 -0.374348 -0.619 178 184 216
0.305963 -0.374348 -0.619 166 181 220
0.32129 -0.374348 -0.619 205 209 236
0.335439 -0.374348 -0.619 202 207 229
0.343692 -0.374348 -0.619 196 200 227
0.360781 -0.374952 -0.62 167 178 208
0.366094 -0.375557 -0.621 157 161 188
0.37141 -0.374952 -0.62 111 130 173
0.399108 -0.374348 -0.619 187 192 212
0.40854 -0.374348 -0.619 184 187 204
0.412077 -0.374348 -0.619 182 184 197
0.413256 -0.374348 -0.619 184 186 199
0.419151 -0.374348 -0.619 152 153 173
0.438016 -0.374348 -0.619 69 96 165
0.455702 -0.374348 -0.619 181 173 184
0.460418 -0.374348 -0.619 168 169 187
0.461597 -0.374348 -0.619 158 159 177
0.432285 -0.327176 -0.541 153 100 84
0.428543 -0.320524 -0.53 161 108 90
0.441533 -0.313267 -0.518 173 116 96
0.07902 -0.266327 -0.439 204 155 148
0.0899 -0.2639 -0.435 197 150 140
0.0963067 -0.263293 -0.434 181 138 122
0.0971333 -0.263293 -0.434 180 137 120
0.105643 -0.2639 -0.435 171 126 107
0.111123 -0.265113 -0.437 158 112 99
0.126437 -0.27118 -0.447 113 85 82
0.132449 -0.27482 -0.453 104 80 78
0.146095 -0.286347 -0.472 91 75 76
0.268977 -0.37492 -0.618 212 217 246
0.273686 -0.37492 -0.618 192 207 240
0.274863 -0.37492 -0.618 142 157 190
0.29252 -0.37492 -0.618 210 217 246
0.316063 -0.37492 -0.618 183 195 221
0.360199 -0.375527 -0.619 136 147 179
0.369048 -0.376133 -0.62 159 170 202
0.369631 -0.375527 -0.619 98 121 165
0.380243 -0.375527 -0.619 178 194 210
0.381422 -0.375527 -0.619 181 197 213
0.405003 -0.375527 -0.619 182 186 215
0.413766 -0.37492 -0.618 181 182 203
0.462029 -0.37492 -0.618 136 140 169
0.429351 -0.32214 -0.531 163 110 94
0.433333 -0.315467 -0.52 170 113 93
0.455554 -0.31304 -0.516 160 105 84
0.457422 -0.313647 -0.517 160 105 85
0.483969 -0.32214 -0.531 142 99 82
0.0731543 -0.270206 -0.444 196 151 146
0.09052 -0.26412 -0.434 194 148 135
0.11886 -0.26838 -0.441 132 95 87
0.123051 -0.270206 -0.444 118 87 82
0.137124 -0.279943 -0.46 95 74 73
0.29252 -0.376097 -0.618 188 193 222
0.294874 -0.376097 -0.618 214 219 248
0.298406 -0.376097 -0.618 221 224 241
0.303114 -0.376097 -0.618 167 180 214
0.318417 -0.376097 -0.618 204 213 230
0.323126 -0.376097 -0.618 145 154 185
0.33372 -0.376097 -0.618 197 204 222
0.368452 -0.376706 -0.619 158 172 207
0.376097 -0.376097 -0.618 140 157 203
0.378451 -0.376097 -0.618 177 187 223
0.386138 -0.376706 -0.619 152 161 204
0.394931 -0.376097 -0.618 177 189 205
0.453054 -0.375489 -0.617 116 107 112
0.45893 -0.375489 -0.617 150 148 169
0.463631 -0.375489 -0.617 131 138 166
0.465982 -0.375489 -0.617 106 115 146
0.43016 -0.32376 -0.532 161 109 95
0.430197 -0.317066 -0.521 172 115 96
0.433333 -0.316457 -0.52 172 115 98
0.440547 -0.31524 -0.518 172 115 95
0.0717848 -0.272272 -0.446 196 153 146
0.0723086 -0.271051 -0.444 197 152 146
0.0963067 -0.264947 -0.434 179 136 119
0.0993838 -0.264336 -0.433 179 136 119
0.136248 -0.280819 -0.46 97 72 75
0.317902 -0.376664 -0.617 200 211 231
0.343137 -0.377274 -0.618 196 203 222
0.444828 -0.376664 -0.617 52 79 134
0.45658 -0.376664 -0.617 125 122 131
0.46288 -0.376053 -0.616 143 147 172
0.465227 -0.376053 -0.616 116 122 148
0.468747 -0.376053 -0.616 147 151 176
0.469421 -0.363844 -0.596 122 94 90
0.429552 -0.323552 -0.53 160 107 89
0.429316 -0.32111 -0.526 170 114 97
0.43119 -0.318058 -0.521 171 114 94
0.449767 -0.314395 -0.515 162 107 87
0.45752 -0.315006 -0.516 158 106 85
0.4689 -0.318058 -0.521 155 107 85
0.0921733 -0.265773 -0.434 190 144 129
0.0993838 -0.265161 -0.433 179 133 117
0.103747 -0.265773 -0.434 173 125 111
0.11029 -0.26761 -0.437 153 114 99
0.125867 -0.274347 -0.448 111 83 79
0.218007 -0.377839 -0.617 219 223 250
0.271627 -0.377227 -0.616 219 225 249
0.328479 -0.377839 -0.617 166 165 181
0.349633 -0.377839 -0.617 196 202 214
0.359035 -0.377839 -0.617 85 96 128
0.389046 -0.378451 -0.618 184 179 186
0.393117 -0.377839 -0.617 188 182 192
0.395468 -0.377839 -0.617 167 169 184
0.453493 -0.377227 -0.616 154 148 152
0.454667 -0.377227 -0.616 127 121 125
0.45893 -0.377839 -0.617 164 162 176
0.463777 -0.358855 -0.586 125 96 92
0.4295 -0.3215 -0.525 173 118 98
0.430029 -0.319663 -0.522 172 115 96
0.435613 -0.317213 -0.518 172 115 95
0.449872 -0.314764 -0.514 159 104 84
0.473689 -0.320275 -0.523 155 107 85
0.09052 -0.2666 -0.434 191 145 132
0.107547 -0.267829 -0.436 162 119 102
0.128428 -0.277043 -0.451 104 79 75
0.29744 -0.3784 -0.616 215 221 243
0.302133 -0.3784 -0.616 164 171 199
0.31856 -0.3784 -0.616 166 180 215
0.340231 -0.379014 -0.617 173 178 198
0.347283 -0.379014 -0.617 194 200 216
0.35551 -0.379014 -0.617 186 191 211
0.386691 -0.379629 -0.618 185 187 210
0.44176 -0.3784 -0.616 57 86 144
0.462513 -0.358129 -0.583 124 96 93
0.436181 -0.332943 -0.542 155 106 92
0.432586 -0.328643 -0.535 157 105 91
0.430318 -0.323114 -0.526 171 119 98
0.43119 -0.320043 -0.521 174 117 97
0.45183 -0.315743 -0.514 162 107 87
0.46333 -0.317586 -0.517 159 108 87
0.0714943 -0.270508 -0.439 199 152 144
0.073 -0.269891 -0.438 200 152 138
0.0865857 -0.268043 -0.435 195 152 136
0.106471 -0.268043 -0.435 162 121 103
0.1144 -0.271124 -0.44 138 99 92
0.125292 -0.27667 -0.449 113 85 82
0.218007 -0.38019 -0.617 243 241 255
0.284071 -0.378957 -0.615 220 226 250
0.296957 -0.378957 -0.615 216 222 246
0.303986 -0.378957 -0.615 117 134 177
0.33264 -0.379573 -0.616 189 188 196
0.343757 -0.38019 -0.617 193 198 220
0.364911 -0.38019 -0.617 78 93 148
0.38254 -0.38019 -0.617 143 173 227
0.415947 -0.379573 -0.616 176 174 179
0.434014 -0.378957 -0.615 39 76 146
0.458614 -0.378957 -0.615 177 175 188
0.459786 -0.378957 -0.615 178 176 190
0.467986 -0.378957 -0.615 174 170 184
0.438595 -0.335824 -0.545 154 106 94
0.43364 -0.319187 -0.518 174 117 97
0.435757 -0.31857 -0.517 174 117 97
0.441794 -0.317954 -0.516 177 120 100
0.448893 -0.316722 -0.514 172 115 95
0.45183 -0.316722 -0.514 165 110 89
0.461451 -0.317954 -0.516 162 111 90
0.467187 -0.319187 -0.518 159 108 89
0.560623 -0.366017 -0.594 185 189 201
0.073 -0.270726 -0.438 200 153 135
0.11029 -0.270108 -0.437 150 110 100
0.295305 -0.37951 -0.614 176 185 214
0.303986 -0.380129 -0.615 106 128 177
0.3075 -0.380129 -0.615 90 121 178
0.358453 -0.380747 -0.616 129 131 144
0.377227 -0.380747 -0.616 42 75 152
0.410586 -0.380129 -0.615 161 160 168
0.437529 -0.380129 -0.615 92 117 171
0.458614 -0.380129 -0.615 173 171 184
0.459786 -0.380129 -0.615 182 178 195
0.470733 -0.37951 -0.614 173 169 183
0.430029 -0.322646 -0.522 173 116 97
0.43364 -0.320173 -0.518 173 118 97
0.434772 -0.319555 -0.517 171 116 95
0.436742 -0.319555 -0.517 172 117 96
0.439829 -0.318937 -0.516 177 120 100
0.447914 -0.317701 -0.514 177 119 97
0.490868 -0.329445 -0.533 147 104 87
0.09548 -0.26908 -0.434 179 134 115
0.11029 -0.27094 -0.437 148 108 98
0.134788 -0.28582 -0.461 93 72 71
0.216129 -0.3813 -0.615 238 242 254
0.310509 -0.38068 -0.614 134 163 223
0.343814 -0.3813 -0.615 169 174 196
0.352587 -0.38192 -0.616 190 196 212
0.35376 -0.38192 -0.616 195 198 215
0.35728 -0.38192 -0.616 145 140 147
0.374271 -0.3813 -0.615 42 70 144
0.387157 -0.3813 -0.615 194 193 207
0.401731 -0.38068 -0.614 166 172 196
0.421129 -0.3813 -0.615 82 97 136
0.4305 -0.3813 -0.615 61 97 155
0.440326 -0.38068 -0.614 155 173 209
0.452021 -0.38068 -0.614 173 176 191
0.461377 -0.38068 -0.614 184 177 195
0.463937 -0.36084 -0.582 127 96 94
0.44044 -0.33852 -0.546 141 101 93
0.431023 -0.32364 -0.522 175 118 98
0.456726 -0.31868 -0.514 165 113 89
0.461538 -0.3193 -0.515 164 112 91
0.0766429 -0.270529 -0.435 199 156 137
0.0799571 -0.270529 -0.435 197 154 137
0.0890714 -0.270529 -0.435 192 146 130
0.102093 -0.269907 -0.434 167 124 107
0.118823 -0.276126 -0.444 123 90 83
0.124714 -0.279857 -0.45 110 81 77
0.129567 -0.282967 -0.455 96 75 74
0.150118 -0.30349 -0.488 108 98 109
0.216947 -0.38185 -0.614 244 242 255
0.270304 -0.381228 -0.613 227 229 242
0.326882 -0.38185 -0.614 200 205 224
0.343255 -0.38185 -0.614 147 149 174
0.345594 -0.38185 -0.614 164 167 186
0.363729 -0.382471 -0.615 38 76 149
0.382471 -0.382471 -0.615 175 190 229
0.402901 -0.38185 -0.614 184 185 205
0.409918 -0.38185 -0.614 177 175 186
0.425122 -0.38185 -0.614 145 163 209
0.471903 -0.38185 -0.614 180 173 189
0.476194 -0.380606 -0.612 95 96 127
0.46872 -0.36568 -0.588 129 101 100
0.43119 -0.324012 -0.521 172 117 97
0.431511 -0.322769 -0.519 176 119 99
0.438846 -0.320903 -0.516 179 123 100
0.456814 -0.319037 -0.513 165 113 89
0.468254 -0.321525 -0.517 158 110 88
0.477673 -0.325256 -0.523 154 107 87
0.06762 -0.2751 -0.441 198 156 142
0.0726667 -0.271981 -0.436 201 158 142
0.0774714 -0.271357 -0.435 198 155 136
0.0807857 -0.271357 -0.435 194 151 134
0.0849286 -0.271357 -0.435 193 150 133
0.105886 -0.271981 -0.436 158 116 102
0.11466 -0.2751 -0.441 133 95 86
0.326882 -0.383019 -0.614 194 202 221
0.376002 -0.383019 -0.614 96 128 177
0.412753 -0.382395 -0.613 187 185 199
0.447051 -0.381771 -0.612 88 95 124
0.455955 -0.382395 -0.613 180 175 195
0.460626 -0.382395 -0.613 182 178 195
0.474637 -0.382395 -0.613 149 151 164
0.435643 -0.333738 -0.535 149 105 92
0.434772 -0.32251 -0.517 177 120 101
0.438976 -0.321262 -0.515 177 120 100
0.487184 -0.329995 -0.529 154 108 92
0.0669314 -0.276566 -0.442 199 157 143
0.0710057 -0.272811 -0.436 201 158 142
0.103157 -0.272186 -0.435 163 120 104
0.123857 -0.281571 -0.45 109 81 78
0.137726 -0.292834 -0.468 91 70 69
0.139506 -0.294711 -0.471 87 66 65
0.216593 -0.383563 -0.613 239 241 255
0.282686 -0.382937 -0.612 219 222 241
0.286183 -0.382937 -0.612 220 225 247
0.293177 -0.382937 -0.612 155 159 184
0.321679 -0.383563 -0.613 199 202 211
0.342696 -0.383563 -0.613 182 184 205
0.399257 -0.382937 -0.612 189 186 205
0.452452 -0.383563 -0.613 111 118 137
0.44171 -0.341014 -0.545 135 106 92
0.434409 -0.332254 -0.531 161 109 96
0.456814 -0.320991 -0.513 167 115 94
0.4825 -0.3285 -0.525 153 107 91
0.0686714 -0.27427 -0.437 201 158 142
0.0758143 -0.273014 -0.435 199 156 137
0.0807857 -0.273014 -0.435 192 149 132
0.0882429 -0.273014 -0.435 189 146 127
0.0932143 -0.273014 -0.435 182 136 120
0.289207 -0.383475 -0.611 213 216 235
0.297353 -0.383475 -0.611 104 123 179
0.308331 -0.384103 -0.612 63 93 163
0.311829 -0.384103 -0.612 78 107 175
0.334523 -0.38473 -0.613 161 159 170
0.35087 -0.38473 -0.613 205 201 215
0.366049 -0.38473 -0.613 73 108 166
0.378892 -0.38473 -0.613 173 187 222
0.387066 -0.38473 -0.613 185 190 210
0.419759 -0.38473 -0.613 130 142 180
0.440057 -0.384103 -0.612 170 176 198
0.450549 -0.384103 -0.612 79 87 106
0.462206 -0.384103 -0.612 151 157 181
0.464537 -0.384103 -0.612 120 122 145
0.466106 -0.383475 -0.611 171 169 193
0.47658 -0.383475 -0.611 118 123 153
0.4389 -0.338287 -0.539 141 105 91
0.438976 -0.323224 -0.515 174 122 100
0.484421 -0.330128 -0.526 154 111 92
0.488191 -0.33201 -0.529 154 108 92
0.0685143 -0.274472 -0.436 202 159 143
0.0693448 -0.274472 -0.436 202 159 142
0.0766429 -0.273843 -0.435 200 155 136
0.0774714 -0.273843 -0.435 199 154 135
0.0913467 -0.273213 -0.434 186 140 124
0.11492 -0.27825 -0.442 126 91 89
0.123273 -0.283915 -0.451 109 81 78
0.133897 -0.292099 -0.464 92 71 70
0.297353 -0.384639 -0.611 133 153 204
0.299681 -0.384639 -0.611 86 111 178
0.388766 -0.385269 -0.612 192 194 209
0.402754 -0.385269 -0.612 189 188 202
0.423737 -0.385269 -0.612 167 177 202
0.431897 -0.385269 -0.612 104 130 187
0.456377 -0.385269 -0.612 149 150 181
0.438294 -0.338054 -0.537 142 110 95
0.443019 -0.323575 -0.514 184 130 104
0.455924 -0.322316 -0.512 169 117 93
0.4617 -0.322946 -0.513 159 113 90
0.06356 -0.286669 -0.454 195 153 137
0.07812 -0.27404 -0.434 194 149 130
0.0822533 -0.27404 -0.434 193 148 129
0.0921733 -0.27404 -0.434 183 136 120
0.0938267 -0.27404 -0.434 177 130 114
0.098559 -0.273409 -0.433 176 128 114
0.109709 -0.276566 -0.438 138 101 93
0.125823 -0.286669 -0.454 104 78 77
0.260848 -0.385171 -0.61 226 231 251
0.278276 -0.385171 -0.61 211 216 235
0.307828 -0.385803 -0.611 73 107 171
0.33925 -0.385803 -0.611 205 207 222
0.364854 -0.385803 -0.611 92 125 178
0.398605 -0.385803 -0.611 163 165 180
0.441666 -0.385803 -0.611 175 186 208
0.456795 -0.385803 -0.611 122 131 170
0.457959 -0.385803 -0.611 132 141 180
0.433174 -0.328974 -0.521 174 119 99
0.45114 -0.32266 -0.511 175 124 97
0.45406 -0.32266 -0.511 172 120 96
0.469386 -0.325186 -0.515 160 114 91
0.0723333 -0.274867 -0.434 203 158 139
0.0789467 -0.274867 -0.434 192 147 128
0.0888667 -0.274867 -0.434 187 140 124
0.11518 -0.280567 -0.443 122 87 81
0.134763 -0.295767 -0.467 91 71 72
0.350314 -0.386333 -0.61 174 180 206
0.351476 -0.386333 -0.61 143 149 175
0.367182 -0.386967 -0.611 107 142 200
0.377656 -0.386967 -0.611 191 195 224
0.389819 -0.386333 -0.61 182 181 199
0.392786 -0.386967 -0.611 190 191 209
0.39679 -0.386333 -0.61 176 177 195
0.398605 -0.386967 -0.611 136 137 155
0.409079 -0.386967 -0.611 187 189 204
0.425372 -0.386967 -0.611 109 131 172
0.47618 -0.3857 -0.609 173 171 184
0.47734 -0.3857 -0.609 173 171 184
0.4446 -0.3458 -0.546 136 106 95
0.4345 -0.3325 -0.525 160 117 101
0.46275 -0.324267 -0.512 162 116 93
0.468474 -0.325533 -0.514 158 111 91
0.4855 -0.3325 -0.525 149 108 88
0.0698533 -0.275693 -0.434 202 157 136
0.0847333 -0.275693 -0.434 189 143 127
0.0921733 -0.275693 -0.434 182 135 119
0.127804 -0.290939 -0.458 97 76 75
0.2465 -0.38686 -0.609 158 179 224
0.24998 -0.38686 -0.609 127 145 185
0.30914 -0.38686 -0.609 147 170 222
0.33814 -0.38686 -0.609 203 200 219
0.34626 -0.38686 -0.609 199 203 214
0.37239 -0.387495 -0.61 137 161 207
0.400276 -0.387495 -0.61 170 172 193
0.425838 -0.387495 -0.61 88 109 152
0.453724 -0.387495 -0.61 74 91 135
0.461857 -0.387495 -0.61 113 130 176
0.467667 -0.387495 -0.61 103 125 175
0.463311 -0.363991 -0.573 129 99 99
0.436619 -0.336676 -0.53 148 110 97
0.43688 -0.327783 -0.516 177 125 103
0.440938 -0.327148 -0.515 178 124 98
0.44822 -0.324607 -0.511 181 129 107
0.0631324 -0.279706 -0.439 200 157 138
0.0771152 -0.275883 -0.433 197 152 131
0.09526 -0.275883 -0.433 179 133 117
0.120161 -0.286077 -0.449 105 77 74
0.128083 -0.292449 -0.459 94 72 74
0.22446 -0.38802 -0.609 232 234 255
0.276206 -0.387383 -0.608 222 225 242
0.30566 -0.38802 -0.609 117 147 207
0.32654 -0.38802 -0.609 201 206 228
0.370067 -0.388657 -0.61 95 121 170
0.40841 -0.388657 -0.61 149 157 193
0.46342 -0.38802 -0.609 58 80 140
0.47038 -0.38802 -0.609 47 76 132
0.47154 -0.38802 -0.609 56 77 132
0.4727 -0.38802 -0.609 91 112 167
0.454933 -0.3568 -0.56 135 103 104
0.443408 -0.345331 -0.542 144 107 99
0.43467 -0.333863 -0.524 162 114 94
0.435613 -0.33004 -0.518 167 116 95
0.437863 -0.328766 -0.516 178 126 102
0.452113 -0.32558 -0.511 180 128 104
0.460873 -0.32558 -0.511 165 114 95
0.0828886 -0.276708 -0.433 195 150 129
0.0960848 -0.276708 -0.433 179 133 118
0.0977343 -0.276708 -0.433 173 127 114
0.11904 -0.286293 -0.448 104 79 75
0.224091 -0.388541 -0.608 226 232 254
0.308632 -0.388541 -0.608 132 154 201
0.3277 -0.38918 -0.609 208 210 223
0.37294 -0.38918 -0.609 159 171 209
0.38338 -0.38918 -0.609 160 169 178
0.389699 -0.388541 -0.608 146 155 194
0.4089 -0.38918 -0.609 74 88 135
0.42746 -0.38918 -0.609 127 149 199
0.44718 -0.38918 -0.609 177 177 189
0.475398 -0.388541 -0.608 171 169 180
0.441919 -0.32911 -0.515 179 123 96
0.4522 -0.325914 -0.51 180 129 102
0.459971 -0.325914 -0.51 169 121 99
0.059439 -0.287788 -0.449 198 156 134
0.0762905 -0.277532 -0.433 195 150 129
0.0896933 -0.278173 -0.434 183 136 120
0.0921733 -0.278173 -0.434 180 133 117
0.09526 -0.277532 -0.433 180 134 119
0.098559 -0.277532 -0.433 168 124 111
0.102329 -0.278814 -0.435 154 114 102
0.107206 -0.280737 -0.438 137 99 88
0.130362 -0.297402 -0.464 94 73 72
0.280376 -0.389058 -0.607 224 226 247
0.313265 -0.389699 -0.608 205 209 236
0.315581 -0.389699 -0.608 205 209 236
0.317897 -0.389699 -0.608 172 183 215
0.326004 -0.389699 -0.608 206 207 228
0.330636 -0.389699 -0.608 197 198 218
0.337585 -0.389699 -0.608 191 198 216
0.353798 -0.389699 -0.608 194 195 216
0.357272 -0.389699 -0.608 148 149 167
0.3741 -0.39034 -0.609 159 175 208
0.394331 -0.389699 -0.608 173 182 221
0.410545 -0.389699 -0.608 154 166 214
0.418651 -0.389699 -0.608 166 166 176
0.440655 -0.389699 -0.608 144 154 179
0.442971 -0.389699 -0.608 178 176 189
0.45878 -0.39034 -0.609 46 77 132
0.480397 -0.389058 -0.607 175 177 192
0.48076 -0.388417 -0.606 169 171 186
0.435613 -0.332013 -0.518 170 119 92
0.439957 -0.33009 -0.515 172 121 94
0.451229 -0.326886 -0.51 181 127 101
0.454143 -0.326886 -0.51 175 121 95
0.460943 -0.326886 -0.51 164 116 96
0.06572 -0.279 -0.434 201 159 137
0.0663933 -0.278357 -0.433 200 158 136
0.0754657 -0.278357 -0.433 195 150 129
0.0771152 -0.278357 -0.433 193 148 127
0.0795895 -0.278357 -0.433 193 148 127
0.09526 -0.278357 -0.433 178 135 119
0.120696 -0.289929 -0.451 97 76 73
0.127486 -0.295714 -0.46 97 76 75
0.250315 -0.390214 -0.607 198 205 233
0.326624 -0.390214 -0.607 168 167 185
0.340498 -0.390214 -0.607 186 190 215
0.360747 -0.390857 -0.608 142 160 198
0.363063 -0.390857 -0.608 115 134 177
0.367695 -0.390857 -0.608 141 169 209
0.385067 -0.390857 -0.608 185 190 209
0.387383 -0.390857 -0.608 89 106 150
0.402438 -0.390857 -0.608 118 136 186
0.415177 -0.390857 -0.608 182 185 194
0.437181 -0.390857 -0.608 91 114 156
0.442971 -0.390857 -0.608 181 177 191
0.445288 -0.390857 -0.608 184 183 199
0.44992 -0.390857 -0.608 176 182 198
0.464975 -0.390857 -0.608 24 59 123
0.473318 -0.375429 -0.584 127 100 91
0.436742 -0.332357 -0.517 171 119 97
0.44822 -0.3285 -0.511 182 128 104
0.449286 -0.327857 -0.51 178 124 98
0.0604857 -0.282406 -0.438 199 157 145
0.0711771 -0.278537 -0.432 201 156 137
0.0870124 -0.279182 -0.433 183 141 119
0.091961 -0.279182 -0.433 177 134 117
0.0944352 -0.279182 -0.433 176 134 118
0.0960848 -0.279182 -0.433 174 132 116
0.114852 -0.286919 -0.445 118 85 78
0.201755 -0.39137 -0.607 237 238 255
0.244131 -0.390726 -0.606 174 190 226
0.291457 -0.390726 -0.606 175 179 204
0.345709 -0.390726 -0.606 93 112 152
0.362466 -0.39137 -0.607 115 132 175
0.365934 -0.39137 -0.607 151 174 218
0.372871 -0.39137 -0.607 127 147 182
0.383277 -0.39137 -0.607 183 185 197
0.395995 -0.39137 -0.607 92 115 169
0.412182 -0.39137 -0.607 178 186 199
0.423744 -0.39137 -0.607 89 116 163
0.4249 -0.39137 -0.607 98 121 173
0.432993 -0.39137 -0.607 103 128 185
0.438774 -0.39137 -0.607 114 125 153
0.456869 -0.392015 -0.608 63 90 145
0.474989 -0.390726 -0.606 161 168 187
0.479967 -0.390081 -0.605 165 163 187
0.443019 -0.331408 -0.514 173 121 99
0.45907 -0.328184 -0.509 172 120 96
0.492436 -0.339145 -0.526 148 107 89
0.496252 -0.341079 -0.529 150 109 91
0.0640667 -0.280653 -0.434 198 155 138
0.07794 -0.280007 -0.433 193 148 129
0.0795895 -0.280007 -0.433 187 144 125
0.0911362 -0.280007 -0.433 177 136 118
0.09526 -0.280007 -0.433 173 131 115
0.1015 -0.2813 -0.435 154 110 97
0.11511 -0.288413 -0.446 115 84 79
0.133226 -0.30458 -0.471 90 72 72
0.13674 -0.30846 -0.477 92 73 75
0.20358 -0.39382 -0.609 234 236 255
0.272989 -0.39188 -0.606 219 220 238
0.296738 -0.391233 -0.605 122 144 185
0.300691 -0.39188 -0.606 154 178 222
0.362466 -0.392527 -0.607 111 128 171
0.364778 -0.392527 -0.607 135 158 202
0.372871 -0.392527 -0.607 115 136 179
0.384433 -0.392527 -0.607 175 182 200
0.39137 -0.392527 -0.607 62 90 153
0.408713 -0.392527 -0.607 148 162 191
0.466909 -0.39188 -0.606 73 99 158
0.453252 -0.329153 -0.509 178 126 102
0.486703 -0.33756 -0.522 149 106 89
0.0615867 -0.28148 -0.434 197 154 137
0.0678857 -0.280183 -0.432 197 154 135
0.0695314 -0.280183 -0.432 201 156 137
0.0736457 -0.280183 -0.432 194 152 130
0.0820638 -0.280831 -0.433 187 145 123
0.091961 -0.280831 -0.433 176 135 117
0.105537 -0.284074 -0.438 141 101 91
0.107695 -0.285371 -0.44 133 96 88
0.112057 -0.287966 -0.444 115 87 83
0.130315 -0.302883 -0.467 92 73 75
0.200269 -0.393034 -0.606 233 236 255
0.281757 -0.392386 -0.605 162 169 197
0.303652 -0.392386 -0.605 146 175 217
0.304805 -0.392386 -0.605 146 175 217
0.322623 -0.393034 -0.606 174 185 205
0.340529 -0.392386 -0.605 115 139 187
0.360714 -0.393034 -0.606 90 112 153
0.382646 -0.393034 -0.606 192 194 206
0.398806 -0.393034 -0.606 50 83 150
0.418429 -0.393034 -0.606 185 187 200
0.452649 -0.393683 -0.607 160 164 193
0.46729 -0.392386 -0.605 93 122 180
0.468443 -0.392386 -0.605 117 139 186
0.474205 -0.392386 -0.605 60 78 118
0.47651 -0.392386 -0.605 93 102 131
0.478814 -0.392386 -0.605 94 99 121
0.48332 -0.39044 -0.602 69 86 132
0.437727 -0.335311 -0.517 166 120 97
0.438976 -0.334014 -0.515 169 118 99
0.446273 -0.33142 -0.511 177 127 104
0.461009 -0.330123 -0.509 168 120 97
0.469633 -0.33142 -0.511 155 112 93
0.0687086 -0.281006 -0.432 199 154 133
0.0695314 -0.281006 -0.432 200 155 134
0.0744686 -0.281006 -0.432 194 152 130
0.0878371 -0.281656 -0.433 180 139 121
0.110117 -0.288161 -0.443 121 92 86
0.118119 -0.293365 -0.451 102 78 78
0.199114 -0.394189 -0.606 234 237 252
0.204068 -0.394839 -0.607 231 233 255
0.25483 -0.392888 -0.604 185 196 214
0.290976 -0.393538 -0.605 212 215 234
0.319786 -0.393538 -0.605 203 205 226
0.348595 -0.393538 -0.605 188 195 211
0.35551 -0.393538 -0.605 189 198 215
0.402757 -0.393538 -0.605 85 120 184
0.40391 -0.393538 -0.605 111 141 191
0.446548 -0.393538 -0.605 164 169 189
0.455767 -0.393538 -0.605 53 85 146
0.474571 -0.392888 -0.604 72 83 111
0.46002 -0.364917 -0.561 129 103 102
0.437826 -0.340199 -0.523 160 113 95
0.459135 -0.330442 -0.508 167 119 96
0.463006 -0.330442 -0.508 159 114 93
0.0563143 -0.285743 -0.438 191 150 130
0.0711771 -0.281829 -0.432 195 152 133
0.0828886 -0.282481 -0.433 189 144 123
0.0878371 -0.282481 -0.433 183 138 119
0.0903114 -0.282481 -0.433 179 136 119
0.09526 -0.282481 -0.433 169 127 111
0.10794 -0.2877 -0.441 126 91 87
0.129426 -0.304662 -0.467 89 72 78
0.268636 -0.394038 -0.604 191 197 223
0.296248 -0.394038 -0.604 139 158 198
0.302 -0.394038 -0.604 146 168 207
0.315806 -0.394038 -0.604 201 206 225
0.35147 -0.394038 -0.604 196 203 219
0.373948 -0.39469 -0.605 131 146 179
0.421195 -0.39469 -0.605 64 99 157
0.44309 -0.39469 -0.605 162 172 184
0.463833 -0.39469 -0.605 13 53 123
0.464986 -0.39469 -0.605 12 52 122
