ply
format ascii 1.0
comment Created by Open3D
element vertex 1291
property double x
property double y
property double z
property uchar red
property uchar green
property uchar blue
end_header
0.0376429 -0.276452 -0.425 197 152 129
0.0464381 -0.275802 -0.424 196 149 129
0.0572057 -0.277103 -0.426 188 141 123
0.0589667 -0.277753 -0.427 181 134 118
0.0713333 -0.278404 -0.428 167 124 107
0.0800429 -0.280355 -0.431 147 105 93
0.0820638 -0.281656 -0.433 144 104 94
0.0900952 -0.28621 -0.44 125 87 84
0.109667 -0.305724 -0.47 93 74 80
0.314024 -0.393538 -0.605 208 219 241
0.350904 -0.394839 -0.607 196 203 221
0.354372 -0.394839 -0.607 201 204 223
0.364778 -0.394839 -0.607 112 136 180
0.369949 -0.394189 -0.606 97 126 182
0.408519 -0.393538 -0.605 179 191 217
0.432719 -0.393538 -0.605 86 117 174
0.438481 -0.393538 -0.605 143 169 218
0.439633 -0.393538 -0.605 143 169 218
0.450005 -0.393538 -0.605 139 150 182
0.453462 -0.393538 -0.605 123 140 183
0.466909 -0.394189 -0.606 28 63 127
0.475357 -0.393538 -0.605 62 76 111
0.481119 -0.393538 -0.605 150 152 173
0.4425 -0.345403 -0.531 142 105 96
0.438124 -0.334345 -0.514 167 116 97
0.443457 -0.331743 -0.51 169 121 99
0.446466 -0.331092 -0.509 174 124 101
0.464074 -0.329141 -0.506 159 117 95
0.0290086 -0.279871 -0.429 198 157 135
0.0367467 -0.27661 -0.424 199 154 131
0.0497857 -0.277262 -0.425 199 152 134
0.0589667 -0.278567 -0.427 183 138 119
0.0972857 -0.293571 -0.45 101 75 74
0.3025 -0.39469 -0.605 156 175 218
0.312871 -0.39469 -0.605 203 214 246
0.327852 -0.39469 -0.605 96 122 173
0.333614 -0.39469 -0.605 108 133 190
0.353789 -0.395343 -0.606 197 200 219
0.372257 -0.395343 -0.606 100 128 178
0.410824 -0.39469 -0.605 181 183 206
0.414747 -0.394038 -0.604 185 185 209
0.462291 -0.395343 -0.606 20 57 127
0.468063 -0.395343 -0.606 23 61 126
0.475357 -0.39469 -0.605 89 100 128
0.472595 -0.375119 -0.575 129 100 96
0.447309 -0.350981 -0.538 142 105 97
0.452509 -0.330105 -0.506 172 124 104
0.4545 -0.329452 -0.505 171 123 100
0.46982 -0.330757 -0.507 160 115 94
0.562876 -0.378381 -0.58 116 117 147
0.0304286 -0.278726 -0.426 200 160 135
0.0327857 -0.278071 -0.425 193 153 128
0.0407848 -0.277417 -0.424 195 150 127
0.0546429 -0.278071 -0.425 191 146 125
0.0671 -0.27938 -0.427 174 129 108
0.10428 -0.30228 -0.462 91 69 71
0.17285 -0.397151 -0.607 171 190 222
0.295097 -0.395189 -0.604 162 169 197
0.30085 -0.395189 -0.604 164 183 225
0.306602 -0.395189 -0.604 161 180 222
0.311204 -0.395189 -0.604 181 195 224
0.32501 -0.395189 -0.604 101 120 163
0.362424 -0.395843 -0.605 106 133 176
0.369338 -0.395843 -0.605 98 130 187
0.371643 -0.395843 -0.605 98 124 175
0.385985 -0.395189 -0.604 186 191 211
0.391233 -0.395843 -0.605 94 124 178
0.401114 -0.396497 -0.606 28 71 149
0.414747 -0.395189 -0.604 181 185 212
0.415897 -0.395189 -0.604 182 192 217
0.416357 -0.394534 -0.603 157 167 192
0.436606 -0.395189 -0.604 62 94 151
0.456919 -0.395843 -0.605 25 59 123
0.479173 -0.395189 -0.604 170 175 194
0.481474 -0.395189 -0.604 174 168 196
0.451614 -0.330414 -0.505 176 126 103
0.458348 -0.330414 -0.505 163 115 93
0.460271 -0.330414 -0.505 164 118 95
0.475551 -0.333031 -0.509 150 109 89
0.0281257 -0.28085 -0.428 196 156 131
0.0335162 -0.278225 -0.424 196 154 132
0.0343238 -0.278225 -0.424 197 155 133
0.0439114 -0.277569 -0.423 193 147 123
0.0588286 -0.279537 -0.426 181 136 113
0.06222 -0.280193 -0.427 180 134 111
0.0721486 -0.28085 -0.428 163 120 101
0.273238 -0.396339 -0.604 208 223 254
0.303797 -0.395683 -0.603 147 170 211
0.316431 -0.395683 -0.603 215 218 227
0.333063 -0.396339 -0.604 83 111 185
0.362975 -0.396339 -0.604 94 127 180
0.365276 -0.396339 -0.604 75 107 166
0.418654 -0.395683 -0.603 120 136 151
0.424397 -0.395683 -0.603 47 88 152
0.426694 -0.395683 -0.603 42 82 152
0.428991 -0.395683 -0.603 42 86 147
0.459615 -0.396339 -0.604 18 56 121
0.466518 -0.396339 -0.604 28 63 129
0.469831 -0.373372 -0.569 137 99 98
0.456238 -0.360905 -0.55 139 105 93
0.448574 -0.332689 -0.507 175 125 102
0.4584 -0.33072 -0.504 166 118 96
0.0228905 -0.287588 -0.437 195 154 134
0.0455229 -0.278374 -0.423 191 143 120
0.0588286 -0.280349 -0.426 184 138 114
0.324471 -0.396831 -0.603 176 195 235
0.327917 -0.396831 -0.603 83 110 165
0.343417 -0.39749 -0.604 138 173 231
0.368728 -0.39749 -0.604 98 134 192
0.372711 -0.396831 -0.603 78 103 160
0.384197 -0.396831 -0.603 146 161 190
0.389436 -0.39749 -0.604 105 137 196
0.400941 -0.39749 -0.604 26 65 144
0.408317 -0.396831 -0.603 67 93 154
0.409933 -0.396173 -0.602 55 83 131
0.44581 -0.39749 -0.604 166 172 184
0.44696 -0.39749 -0.604 128 139 159
0.47227 -0.39749 -0.604 141 154 170
0.480677 -0.396831 -0.603 174 171 188
0.444523 -0.349449 -0.531 146 110 98
0.451614 -0.332338 -0.505 172 124 102
0.452576 -0.332338 -0.505 177 129 107
0.46032 -0.33168 -0.504 165 117 97
0.031901 -0.27984 -0.424 201 156 133
0.0343238 -0.27984 -0.424 201 156 133
0.0588286 -0.28116 -0.426 185 139 115
0.0662867 -0.28182 -0.427 172 127 108
0.0873819 -0.28974 -0.439 114 83 80
0.0942933 -0.29568 -0.448 101 75 74
0.315907 -0.39732 -0.602 215 213 224
0.3417 -0.39798 -0.603 125 157 208
0.348019 -0.39864 -0.604 196 198 213
0.34917 -0.39864 -0.604 199 200 218
0.35147 -0.39864 -0.604 200 200 224
0.356072 -0.39864 -0.604 185 192 221
0.382413 -0.39732 -0.602 91 102 130
0.4042 -0.39732 -0.602 30 77 131
0.40764 -0.39732 -0.602 42 75 142
0.41796 -0.39732 -0.602 110 121 149
0.448517 -0.39798 -0.603 158 162 189
0.469191 -0.39798 -0.603 134 145 175
0.472637 -0.39798 -0.603 117 124 134
0.471743 -0.3762 -0.57 134 105 101
0.444111 -0.33858 -0.513 170 122 100
0.491853 -0.34188 -0.518 152 110 88
0.0342429 -0.279986 -0.423 200 156 131
0.0431057 -0.279986 -0.423 192 146 122
0.057881 -0.28131 -0.425 188 142 118
0.0636971 -0.281971 -0.426 172 125 105
0.0729638 -0.283295 -0.428 157 111 95
0.0755857 -0.283957 -0.429 147 107 97
0.076581 -0.284619 -0.43 144 104 94
0.0804143 -0.286605 -0.433 137 96 90
0.0932314 -0.295871 -0.447 101 75 74
0.238329 -0.399129 -0.603 181 194 226
0.2666 -0.398467 -0.602 144 171 218
0.29412 -0.398467 -0.602 149 163 198
0.298707 -0.398467 -0.602 134 158 202
0.305587 -0.398467 -0.602 124 154 208
0.312467 -0.398467 -0.602 202 207 229
0.337693 -0.398467 -0.602 49 86 166
0.347443 -0.399129 -0.603 182 189 218
0.40764 -0.398467 -0.602 96 124 174
0.417266 -0.397805 -0.601 145 155 182
0.437453 -0.398467 -0.602 146 168 207
0.4558 -0.398467 -0.602 29 63 127
0.45924 -0.398467 -0.602 27 62 130
0.472637 -0.399129 -0.603 154 158 167
0.482173 -0.398467 -0.602 172 174 187
0.486286 -0.397143 -0.6 70 98 148
0.445534 -0.351471 -0.531 146 109 100
0.444023 -0.349486 -0.528 148 108 98
0.441113 -0.344852 -0.521 156 112 99
0.441257 -0.34419 -0.52 160 113 95
0.450581 -0.334924 -0.506 174 123 104
0.49284 -0.342867 -0.518 154 112 90
0.04794 -0.280791 -0.423 194 148 125
0.0612629 -0.282783 -0.426 180 133 113
0.0620743 -0.282783 -0.426 177 130 110
0.0757619 -0.285438 -0.43 145 105 95
0.076581 -0.285438 -0.43 141 101 91
0.0844867 -0.290085 -0.437 121 86 84
0.0867429 -0.292076 -0.44 114 83 81
0.08778 -0.29274 -0.441 109 79 77
0.0959962 -0.300042 -0.452 99 75 73
0.098799 -0.303361 -0.457 93 72 71
0.109483 -0.316637 -0.477 97 79 79
0.166244 -0.400941 -0.604 202 209 235
0.251693 -0.399613 -0.602 231 237 253
0.262013 -0.399613 -0.602 132 155 197
0.295921 -0.39895 -0.601 140 163 205
0.315382 -0.39895 -0.601 210 212 233
0.317671 -0.39895 -0.601 203 208 238
0.333698 -0.39895 -0.601 44 81 159
0.334843 -0.39895 -0.601 46 81 162
0.353747 -0.399613 -0.602 160 166 190
0.35948 -0.399613 -0.602 78 108 168
0.379489 -0.39895 -0.601 139 141 164
0.404673 -0.39895 -0.601 127 149 196
0.412687 -0.39895 -0.601 179 186 202
0.414976 -0.39895 -0.601 180 187 205
0.471853 -0.399613 -0.602 159 162 177
0.474147 -0.399613 -0.602 172 170 191
0.486286 -0.398286 -0.6 64 90 141
0.455205 -0.361776 -0.545 140 105 99
0.444186 -0.349828 -0.527 145 107 98
0.441257 -0.345181 -0.52 158 112 96
0.451614 -0.335224 -0.505 169 118 97
0.452576 -0.335224 -0.505 161 110 89
0.45744 -0.33456 -0.504 170 122 102
0.0209343 -0.286923 -0.431 192 152 127
0.0286705 -0.282263 -0.424 199 154 131
0.0350486 -0.281597 -0.423 199 155 126
0.038181 -0.280931 -0.422 196 152 125
0.0405924 -0.280931 -0.422 194 148 122
0.0537067 -0.282263 -0.424 184 138 115
0.0671 -0.28426 -0.427 170 125 104
0.313714 -0.399429 -0.6 199 207 230
0.316 -0.399429 -0.6 204 211 239
0.325143 -0.399429 -0.6 114 139 195
0.351453 -0.40076 -0.602 164 179 210
0.366896 -0.400094 -0.601 36 78 154
0.373143 -0.399429 -0.6 110 139 173
0.387502 -0.400094 -0.601 119 147 187
0.405143 -0.399429 -0.6 174 188 227
0.439016 -0.400094 -0.601 159 182 216
0.456188 -0.400094 -0.601 33 71 134
0.46878 -0.400094 -0.601 75 88 123
0.446371 -0.339514 -0.51 148 99 82
0.447435 -0.338849 -0.509 160 111 94
0.447524 -0.338183 -0.508 166 118 98
0.461323 -0.334854 -0.503 170 122 102
0.467071 -0.334854 -0.503 164 116 96
0.472776 -0.336186 -0.505 164 119 100
0.474676 -0.336851 -0.506 157 112 93
0.499629 -0.347503 -0.522 148 112 90
0.02318 -0.285073 -0.427 195 155 129
0.046219 -0.281735 -0.422 195 147 124
0.057881 -0.283738 -0.425 185 137 117
0.06532 -0.284406 -0.426 172 125 105
0.0705181 -0.285741 -0.428 162 117 98
0.0915286 -0.298426 -0.447 99 80 76
0.0951352 -0.301764 -0.452 99 78 75
0.238683 -0.401239 -0.601 146 165 208
0.247841 -0.401239 -0.601 225 231 253
0.248986 -0.401239 -0.601 227 233 255
0.27646 -0.401239 -0.601 155 179 227
0.296571 -0.400571 -0.6 130 156 213
0.309658 -0.401239 -0.601 98 128 182
0.312571 -0.400571 -0.6 174 190 226
0.314857 -0.400571 -0.6 204 216 242
0.353747 -0.401907 -0.602 166 171 190
0.355449 -0.401239 -0.601 123 130 159
0.357738 -0.401239 -0.601 82 99 143
0.367429 -0.400571 -0.6 47 95 161
0.376571 -0.400571 -0.6 183 189 211
0.389143 -0.400571 -0.6 66 96 166
0.413143 -0.400571 -0.6 185 188 205
0.440571 -0.400571 -0.6 184 183 199
0.445143 -0.400571 -0.6 174 180 192
0.474504 -0.401239 -0.601 167 173 187
0.482857 -0.400571 -0.6 160 164 176
0.486943 -0.399236 -0.598 94 121 164
0.441794 -0.344491 -0.516 157 111 95
0.444327 -0.341153 -0.511 159 112 94
0.4454 -0.340486 -0.51 157 108 93
0.447524 -0.33915 -0.508 167 119 99
0.450652 -0.337148 -0.505 163 112 93
0.451614 -0.337148 -0.505 158 107 88
0.45945 -0.335145 -0.502 166 117 100
0.465155 -0.335812 -0.503 164 117 97
0.468988 -0.335812 -0.503 162 115 97
0.501582 -0.349165 -0.523 151 106 85
0.0246905 -0.284548 -0.425 197 157 132
0.0333581 -0.282539 -0.422 198 154 127
0.0373771 -0.282539 -0.422 199 155 128
0.0413962 -0.282539 -0.422 195 149 123
0.0470229 -0.282539 -0.422 192 145 119
0.0495514 -0.283209 -0.423 191 143 120
0.057881 -0.284548 -0.425 184 136 114
0.093 -0.301286 -0.45 98 77 72
0.100978 -0.30999 -0.463 89 68 67
0.281714 -0.401714 -0.6 203 205 230
0.301143 -0.401714 -0.6 72 110 175
0.338857 -0.401714 -0.6 43 80 160
0.345714 -0.401714 -0.6 130 158 205
0.370239 -0.401045 -0.599 68 100 175
0.398763 -0.401045 -0.599 27 67 136
0.42 -0.401714 -0.6 57 101 162
0.423864 -0.401045 -0.599 72 112 171
0.447429 -0.401714 -0.6 167 176 193
0.459233 -0.401045 -0.599 61 86 143
0.460374 -0.401045 -0.599 77 102 159
0.477143 -0.401714 -0.6 170 176 190
0.479429 -0.401714 -0.6 173 176 195
0.442777 -0.345474 -0.516 161 118 101
0.451614 -0.33811 -0.505 165 116 99
0.45264 -0.33744 -0.504 169 120 103
0.494843 -0.346144 -0.517 148 109 92
0.0199733 -0.287371 -0.428 201 157 132
0.0238248 -0.284686 -0.424 197 155 131
0.0349657 -0.283343 -0.422 198 154 127
0.0389848 -0.283343 -0.422 196 150 124
0.0422 -0.283343 -0.422 194 148 122
0.0454152 -0.283343 -0.422 193 147 123
0.0511629 -0.284014 -0.423 190 143 117
0.0519686 -0.284014 -0.423 185 138 112
0.0654733 -0.2867 -0.427 169 122 102
0.296077 -0.402186 -0.599 84 114 176
0.345714 -0.402857 -0.6 169 185 211
0.349143 -0.402857 -0.6 198 196 218
0.357143 -0.402857 -0.6 99 115 148
0.37138 -0.402186 -0.599 87 131 194
0.38279 -0.402186 -0.599 165 168 187
0.409031 -0.402186 -0.599 194 194 204
0.453529 -0.402186 -0.599 74 96 137
0.463797 -0.402186 -0.599 78 98 131
0.46722 -0.402186 -0.599 56 75 115
0.476 -0.402857 -0.6 166 167 187
0.477143 -0.402857 -0.6 169 167 189
0.47863 -0.402186 -0.599 170 168 189
0.483193 -0.402186 -0.599 145 156 176
0.450086 -0.358543 -0.534 143 109 97
0.443238 -0.349143 -0.52 151 113 100
0.445196 -0.343771 -0.512 166 118 104
0.446466 -0.341757 -0.509 161 112 97
0.450652 -0.339071 -0.505 160 111 96
0.463274 -0.337057 -0.502 159 111 89
0.47282 -0.337729 -0.503 160 115 94
0.0245743 -0.28482 -0.423 197 155 131
0.0365733 -0.284147 -0.422 198 154 125
0.0438076 -0.284147 -0.422 193 147 121
0.0742962 -0.290207 -0.431 144 100 91
0.101632 -0.313773 -0.466 92 72 71
0.248157 -0.403327 -0.599 219 225 255
0.295583 -0.402653 -0.598 71 105 168
0.302417 -0.402653 -0.598 57 99 171
0.317225 -0.402653 -0.598 166 172 194
0.33545 -0.402653 -0.598 34 73 148
0.363926 -0.402653 -0.598 59 103 166
0.374177 -0.402653 -0.598 183 189 213
0.384429 -0.402653 -0.598 126 128 151
0.390776 -0.403327 -0.599 37 71 135
0.440242 -0.402653 -0.598 174 180 194
0.481248 -0.402653 -0.598 164 167 184
0.486129 -0.40198 -0.597 85 108 152
0.446349 -0.354173 -0.526 151 108 99
0.444363 -0.34946 -0.519 152 112 102
0.453658 -0.338687 -0.503 170 118 104
0.467123 -0.33734 -0.501 158 111 93
0.501649 -0.350807 -0.521 154 113 95
0.0183429 -0.289002 -0.428 193 153 127
0.0562619 -0.286976 -0.425 182 134 111
0.0628857 -0.287651 -0.426 168 120 98
0.0752914 -0.291703 -0.432 142 99 92
0.080141 -0.294404 -0.436 125 90 84
0.0821771 -0.295754 -0.438 119 88 83
0.0961876 -0.308584 -0.457 94 73 72
0.269385 -0.403792 -0.598 80 110 174
0.279636 -0.403792 -0.598 99 126 171
0.284192 -0.403792 -0.598 176 185 214
0.312146 -0.403117 -0.597 198 205 231
0.323517 -0.403117 -0.597 111 130 170
0.337728 -0.403792 -0.598 45 84 161
0.350257 -0.403792 -0.598 159 159 167
0.38329 -0.403792 -0.598 138 145 171
0.396958 -0.403792 -0.598 60 98 163
0.399236 -0.403792 -0.598 54 86 143
0.404931 -0.403792 -0.598 95 101 125
0.42586 -0.403117 -0.597 94 125 169
0.441381 -0.403792 -0.598 174 179 198
0.487585 -0.402442 -0.596 96 117 162
0.445083 -0.351799 -0.521 148 111 95
0.445089 -0.346397 -0.513 162 116 101
0.462351 -0.338294 -0.501 160 113 95
0.480459 -0.34167 -0.506 155 109 93
0.0190686 -0.288463 -0.426 196 156 131
0.0285352 -0.285754 -0.422 196 150 124
0.0324771 -0.285077 -0.421 199 154 125
0.0454152 -0.285754 -0.422 187 140 112
0.0511629 -0.286431 -0.423 188 140 117
0.0628857 -0.288463 -0.426 169 121 99
0.0716667 -0.291171 -0.43 142 98 89
0.288266 -0.404254 -0.597 188 199 227
0.293951 -0.404254 -0.597 96 129 183
0.311009 -0.404254 -0.597 194 205 225
0.334889 -0.404254 -0.597 43 83 155
0.350257 -0.404931 -0.598 182 183 188
0.361043 -0.404254 -0.597 72 117 176
0.367866 -0.404254 -0.597 76 116 177
0.391746 -0.404254 -0.597 92 124 175
0.429688 -0.403577 -0.596 81 108 151
0.43877 -0.403577 -0.596 176 183 202
0.44178 -0.404254 -0.597 173 179 193
0.448603 -0.404254 -0.597 80 89 122
0.459204 -0.403577 -0.596 144 152 175
0.446648 -0.354823 -0.524 146 109 93
0.445219 -0.352114 -0.52 152 108 95
0.443998 -0.348051 -0.514 159 116 100
0.4536 -0.34128 -0.504 164 115 101
0.454616 -0.340603 -0.503 168 119 105
0.0261238 -0.286558 -0.422 197 153 126
0.029339 -0.286558 -0.422 195 151 124
0.0373771 -0.286558 -0.422 194 148 122
0.0454152 -0.286558 -0.422 186 139 113
0.0553219 -0.287916 -0.424 179 131 109
0.0612629 -0.289274 -0.426 169 121 99
0.06466 -0.289953 -0.427 167 120 100
0.0698657 -0.291311 -0.429 153 106 96
0.0940333 -0.308967 -0.455 97 71 74
0.0955257 -0.311004 -0.458 96 70 73
0.162586 -0.40675 -0.599 177 188 220
0.275757 -0.405391 -0.597 153 175 232
0.316164 -0.404712 -0.596 199 207 228
0.340574 -0.405391 -0.597 112 137 191
0.357631 -0.405391 -0.597 78 114 174
0.372926 -0.404712 -0.596 183 185 208
0.376331 -0.404712 -0.596 180 186 200
0.383786 -0.405391 -0.597 80 94 129
0.38606 -0.405391 -0.597 63 82 124
0.404254 -0.405391 -0.597 76 91 120
0.407666 -0.405391 -0.597 169 184 207
0.411077 -0.405391 -0.597 184 186 201
0.426282 -0.404712 -0.596 127 152 193
0.459204 -0.404712 -0.596 141 149 170
0.464523 -0.405391 -0.597 160 165 194
0.485314 -0.404712 -0.596 83 101 147
0.44621 -0.353105 -0.52 156 110 95
0.448574 -0.344277 -0.507 170 122 108
0.485261 -0.344956 -0.508 155 107 87
0.02532 -0.287362 -0.422 199 155 128
0.0276657 -0.286681 -0.421 193 149 122
0.0356848 -0.286681 -0.421 198 154 127
0.0397886 -0.287362 -0.422 191 144 118
0.0438076 -0.287362 -0.422 189 142 116
0.0446114 -0.287362 -0.422 188 141 115
0.0519686 -0.288043 -0.423 181 133 111
0.0690486 -0.292129 -0.429 153 106 96
0.0698657 -0.292129 -0.429 150 103 93
0.100071 -0.318005 -0.467 88 72 72
0.241643 -0.406529 -0.597 112 142 196
0.286648 -0.405848 -0.596 198 206 219
0.302541 -0.405848 -0.596 85 128 196
0.334328 -0.405848 -0.596 51 87 149
0.348534 -0.406529 -0.597 195 195 203
0.36952 -0.405848 -0.596 129 165 217
0.37179 -0.405848 -0.596 182 191 206
0.377467 -0.405848 -0.596 178 186 199
0.379737 -0.405848 -0.596 175 178 195
0.39563 -0.405848 -0.596 168 184 209
0.445581 -0.405848 -0.596 84 91 120
0.453528 -0.405848 -0.596 166 170 195
0.471691 -0.405848 -0.596 66 77 105
0.479638 -0.405848 -0.596 160 166 188
0.4845 -0.405167 -0.595 77 94 138
0.486767 -0.405167 -0.595 83 105 154
0.446171 -0.348648 -0.512 160 116 103
0.448405 -0.346605 -0.509 165 117 103
0.45168 -0.3432 -0.504 163 116 100
0.461429 -0.340476 -0.5 171 120 101
0.034081 -0.287483 -0.421 197 151 127
0.0872714 -0.305237 -0.447 103 78 81
0.0946533 -0.312749 -0.458 93 73 75
0.27416 -0.406983 -0.596 151 171 224
0.313367 -0.4063 -0.595 199 212 220
0.346815 -0.406983 -0.596 190 190 200
0.367767 -0.4063 -0.595 91 125 173
0.370033 -0.4063 -0.595 174 182 195
0.3757 -0.4063 -0.595 180 188 199
0.376833 -0.4063 -0.595 181 189 202
0.401307 -0.406983 -0.596 120 136 169
0.422167 -0.4063 -0.595 96 120 166
0.424433 -0.4063 -0.595 120 146 195
0.456167 -0.4063 -0.595 152 153 173
0.467153 -0.37762 -0.553 133 100 93
0.456531 -0.367377 -0.538 140 100 98
0.447247 -0.34894 -0.511 167 119 107
0.46811 -0.340746 -0.499 164 117 97
0.489125 -0.347574 -0.509 152 109 92
0.0324771 -0.288285 -0.421 194 148 122
0.0413962 -0.28897 -0.422 191 147 122
0.0446114 -0.28897 -0.422 192 144 121
0.0553219 -0.290339 -0.424 176 127 110
0.277566 -0.408118 -0.596 197 212 245
0.296367 -0.407433 -0.595 95 138 193
0.329233 -0.407433 -0.595 95 119 163
0.349633 -0.407433 -0.595 192 196 208
0.367767 -0.407433 -0.595 106 140 186
0.3689 -0.407433 -0.595 130 164 210
0.371167 -0.407433 -0.595 184 192 205
0.3757 -0.407433 -0.595 182 190 201
0.376833 -0.407433 -0.595 181 190 205
0.399036 -0.408118 -0.596 160 160 184
0.403577 -0.408118 -0.596 160 171 193
0.409253 -0.408118 -0.596 151 158 186
0.417633 -0.407433 -0.595 131 137 159
0.425983 -0.406749 -0.594 83 104 157
0.450122 -0.408118 -0.596 171 172 192
0.458433 -0.407433 -0.595 162 169 187
0.4607 -0.407433 -0.595 164 172 191
0.473167 -0.407433 -0.595 68 87 120
0.4743 -0.407433 -0.595 68 87 120
0.4845 -0.407433 -0.595 116 130 177
0.455855 -0.367032 -0.536 138 105 100
0.4495 -0.3595 -0.525 144 107 99
0.44806 -0.356761 -0.521 147 109 98
0.447247 -0.349913 -0.511 159 118 98
0.450581 -0.34649 -0.506 166 119 103
0.452576 -0.345805 -0.505 170 123 107
0.462407 -0.341696 -0.499 171 124 106
0.0165562 -0.291147 -0.424 197 155 130
0.0252 -0.2884 -0.42 197 153 126
0.0276 -0.2884 -0.42 195 151 124
0.0503571 -0.29046 -0.423 179 133 109
0.0612629 -0.29252 -0.426 164 119 98
0.0639962 -0.293893 -0.428 161 116 97
0.0683905 -0.295267 -0.43 149 107 93
0.0710124 -0.295953 -0.431 147 104 95
0.0925029 -0.31312 -0.456 91 74 80
0.292474 -0.40788 -0.594 109 144 198
0.303789 -0.40788 -0.594 92 132 194
0.317366 -0.40788 -0.594 169 173 185
0.346233 -0.408567 -0.595 189 196 202
0.363754 -0.40788 -0.594 101 133 172
0.370543 -0.40788 -0.594 180 191 211
0.373937 -0.40788 -0.594 183 187 198
0.377331 -0.40788 -0.594 173 184 204
0.401767 -0.408567 -0.595 173 171 192
0.425983 -0.40788 -0.594 79 104 160
0.481423 -0.40788 -0.594 136 152 186
0.455171 -0.36668 -0.534 140 105 99
0.456626 -0.34402 -0.501 166 117 100
0.45758 -0.34402 -0.501 163 114 97
0.459524 -0.343333 -0.5 173 124 107
0.466209 -0.342647 -0.499 168 121 103
0.46906 -0.342647 -0.499 169 122 104
0.491064 -0.349513 -0.509 150 109 91
-0.35119 -0.406257 -0.59 232 233 227
0.0220524 -0.289889 -0.421 197 156 128
0.0292 -0.2892 -0.42 198 154 127
0.03 -0.2892 -0.42 198 154 127
0.0520914 -0.291954 -0.424 178 130 108
0.063181 -0.294709 -0.428 161 116 97
0.0853771 -0.307103 -0.446 101 80 79
0.0969857 -0.320186 -0.465 94 69 72
0.0985029 -0.322251 -0.468 94 69 73
0.277766 -0.409011 -0.594 198 206 229
0.309446 -0.409011 -0.594 196 204 223
0.315103 -0.409011 -0.594 191 195 220
0.381857 -0.409011 -0.594 173 183 208
0.395434 -0.409011 -0.594 171 176 196
0.402223 -0.409011 -0.594 172 177 197
0.4131 -0.4097 -0.595 169 179 206
0.429784 -0.408323 -0.593 112 131 171
0.43882 -0.408323 -0.593 68 82 119
0.453137 -0.409011 -0.594 171 170 184
0.448317 -0.357369 -0.519 151 112 97
0.447691 -0.355303 -0.516 156 115 97
0.44822 -0.35186 -0.511 164 122 100
0.454616 -0.346351 -0.503 169 120 103
0.475714 -0.344286 -0.5 158 113 94
0.478574 -0.344974 -0.501 155 112 95
0.0188895 -0.291381 -0.422 198 158 132
0.0308 -0.29 -0.42 197 153 126
0.0389848 -0.291381 -0.422 186 140 114
0.0446114 -0.291381 -0.422 189 145 118
0.046219 -0.291381 -0.422 187 143 116
0.0665971 -0.296214 -0.429 151 107 94
0.0683905 -0.296905 -0.43 147 107 95
0.0739867 -0.299667 -0.434 129 92 84
0.07884 -0.302429 -0.438 116 85 80
0.237034 -0.410143 -0.594 122 155 209
0.24156 -0.410143 -0.594 119 151 202
0.247217 -0.410143 -0.594 216 224 243
0.317961 -0.409452 -0.593 154 162 181
0.328127 -0.409452 -0.593 159 167 188
0.334904 -0.409452 -0.593 154 165 193
0.382344 -0.409452 -0.593 175 181 203
0.411274 -0.410143 -0.594 121 134 166
0.4151 -0.409452 -0.593 170 176 198
0.435825 -0.408762 -0.592 99 115 140
0.445597 -0.409452 -0.593 165 171 183
0.456892 -0.409452 -0.593 172 174 187
0.466061 -0.378381 -0.548 127 100 91
0.0180429 -0.291492 -0.421 199 158 130
0.0235438 -0.290108 -0.419 194 153 125
0.0430038 -0.292185 -0.422 187 141 115
0.0454152 -0.292185 -0.422 189 143 117
0.0487457 -0.292877 -0.423 183 137 113
0.0845276 -0.308802 -0.446 103 79 77
0.0918352 -0.316418 -0.457 90 71 73
0.0961 -0.321957 -0.465 92 70 73
0.156967 -0.411967 -0.595 225 231 255
0.264873 -0.410582 -0.593 121 143 184
0.268262 -0.410582 -0.593 151 176 216
0.320808 -0.40989 -0.592 143 162 204
0.337163 -0.410582 -0.593 159 171 197
0.34336 -0.40989 -0.592 123 131 168
0.389121 -0.410582 -0.593 174 179 198
0.409452 -0.410582 -0.593 65 80 119
0.415528 -0.40989 -0.592 157 163 185
0.430187 -0.40989 -0.592 142 155 189
0.431314 -0.40989 -0.592 156 169 203
0.435825 -0.40989 -0.592 97 113 146
0.443338 -0.410582 -0.593 166 173 189
0.453504 -0.410582 -0.593 167 167 175
0.454633 -0.410582 -0.593 166 170 181
0.468526 -0.40989 -0.592 160 166 178
0.469653 -0.40989 -0.592 159 165 181
0.476419 -0.40989 -0.592 90 97 126
0.477547 -0.40989 -0.592 70 82 120
0.478674 -0.40989 -0.592 65 77 115
0.485746 -0.409197 -0.591 30 59 115
0.489123 -0.409197 -0.591 23 54 109
0.464548 -0.377348 -0.545 141 104 98
0.449306 -0.359346 -0.519 150 110 98
0.0117933 -0.29646 -0.427 199 159 134
0.0212 -0.2916 -0.42 194 153 125
0.0227457 -0.290906 -0.419 194 153 125
0.0243419 -0.290906 -0.419 200 156 129
0.0299286 -0.290906 -0.419 198 152 126
0.0380905 -0.292294 -0.421 189 141 118
0.0562619 -0.295071 -0.425 166 117 100
0.0780057 -0.304097 -0.438 114 84 76
0.08022 -0.30618 -0.441 111 82 76
0.103071 -0.333951 -0.481 97 78 82
0.245671 -0.411711 -0.593 220 223 242
0.25019 -0.411711 -0.593 221 224 241
0.266003 -0.411711 -0.593 119 134 167
0.270521 -0.411711 -0.593 148 173 204
0.27683 -0.411017 -0.592 185 196 224
0.352976 -0.411711 -0.593 181 183 206
0.398613 -0.411017 -0.592 172 180 191
0.412145 -0.411017 -0.592 124 139 170
0.430586 -0.410323 -0.591 139 154 193
0.453867 -0.411017 -0.592 166 169 184
0.471909 -0.411017 -0.592 164 169 188
0.49112 -0.40824 -0.588 33 58 112
0.467957 -0.381163 -0.549 137 103 101
0.4525 -0.3645 -0.525 147 107 99
0.450171 -0.361029 -0.52 148 108 98
0.449427 -0.35964 -0.518 154 112 98
0.454669 -0.348531 -0.502 169 124 105
0.500786 -0.356169 -0.513 147 109 88
0.00957238 -0.304235 -0.437 191 152 123
0.0219476 -0.291704 -0.419 195 151 126
0.0323229 -0.291704 -0.419 191 145 121
0.0388924 -0.293096 -0.421 191 145 119
0.0545143 -0.295185 -0.424 164 118 95
0.0553219 -0.295185 -0.424 171 122 105
0.057881 -0.295881 -0.425 161 112 95
0.06578 -0.298666 -0.429 149 105 94
0.07316 -0.302147 -0.434 121 91 81
0.095419 -0.324425 -0.466 90 70 72
0.15444 -0.413537 -0.594 231 237 253
0.329829 -0.412145 -0.592 124 129 151
0.403569 -0.411449 -0.591 167 174 190
0.40582 -0.411449 -0.591 165 172 190
0.42158 -0.411449 -0.591 68 99 154
0.436214 -0.411449 -0.591 92 109 152
0.464357 -0.411449 -0.591 162 166 175
0.465483 -0.411449 -0.591 162 166 175
0.474489 -0.411449 -0.591 153 161 184
0.475614 -0.411449 -0.591 131 139 162
0.450427 -0.353665 -0.508 168 121 105
0.47476 -0.346703 -0.498 160 117 98
0.477614 -0.347399 -0.499 155 112 93
0.00874 -0.305068 -0.437 190 151 122
0.0102143 -0.299483 -0.429 191 151 125
0.0243419 -0.292502 -0.419 198 154 129
0.0421 -0.293898 -0.421 191 143 120
0.0545143 -0.295992 -0.424 169 121 101
0.0605933 -0.298087 -0.427 158 111 93
0.0623657 -0.298785 -0.428 159 112 94
0.063181 -0.298785 -0.428 157 110 92
0.0649629 -0.299483 -0.429 154 107 91
0.0693705 -0.300879 -0.431 135 97 86
0.0703543 -0.301577 -0.432 135 97 86
0.0761629 -0.305068 -0.437 117 87 79
0.0804019 -0.308558 -0.442 113 82 77
0.24413 -0.413272 -0.592 221 218 235
0.284243 -0.412574 -0.591 210 210 222
0.365294 -0.412574 -0.591 139 158 200
0.446346 -0.412574 -0.591 110 109 107
0.46886 -0.412574 -0.591 158 155 172
0.455948 -0.369292 -0.529 146 106 96
0.453712 -0.350444 -0.502 172 125 105
0.486233 -0.351142 -0.503 152 111 91
0.0117105 -0.2968 -0.424 196 156 130
0.0203514 -0.2933 -0.419 188 147 119
0.02514 -0.2933 -0.419 197 153 128
0.0267362 -0.2933 -0.419 197 153 128
0.0347171 -0.2933 -0.419 193 146 120
0.0421 -0.2947 -0.421 193 145 122
0.0470229 -0.2954 -0.422 183 137 113
0.0478267 -0.2954 -0.422 182 136 112
0.063181 -0.2996 -0.428 158 109 94
0.0703543 -0.3024 -0.432 131 93 82
0.0753305 -0.3059 -0.437 119 89 81
0.0828286 -0.3122 -0.446 105 77 73
0.0865257 -0.3164 -0.452 100 75 71
0.343324 -0.413 -0.59 107 125 173
0.3658 -0.413 -0.59 153 171 217
0.371419 -0.413 -0.59 98 117 149
0.377521 -0.4123 -0.589 174 180 192
0.448597 -0.4137 -0.591 137 139 151
0.451974 -0.4137 -0.591 125 134 149
0.462448 -0.413 -0.59 100 103 112
0.486346 -0.4123 -0.589 20 52 103
0.480743 -0.3948 -0.564 130 99 94
0.456809 -0.371 -0.53 141 107 95
0.453658 -0.3521 -0.503 167 120 102
0.46718 -0.3479 -0.497 160 115 94
0.48912 -0.3528 -0.504 148 110 89
0.492025 -0.3542 -0.506 147 110 91
0.00862 -0.302521 -0.431 195 155 129
0.0164 -0.2948 -0.42 195 154 126
0.0219476 -0.294098 -0.419 193 149 124
0.0282648 -0.293396 -0.418 196 152 127
0.0364 -0.2948 -0.42 191 145 119
0.0372 -0.2948 -0.42 192 145 119
0.0495514 -0.296906 -0.423 180 132 109
0.0651143 -0.301819 -0.43 150 101 87
0.0705171 -0.303925 -0.433 130 92 81
0.0830143 -0.313751 -0.447 103 75 71
0.217826 -0.414826 -0.591 188 187 193
0.262854 -0.414826 -0.591 191 199 218
0.325343 -0.414124 -0.59 189 201 217
0.337132 -0.413422 -0.589 185 195 207
0.352314 -0.414124 -0.59 164 179 212
0.359057 -0.414124 -0.59 83 115 176
0.374155 -0.413422 -0.589 169 178 207
0.379765 -0.413422 -0.589 174 182 195
0.39006 -0.414826 -0.591 148 154 166
0.395019 -0.414124 -0.59 166 169 186
0.39839 -0.414124 -0.59 148 148 160
0.420153 -0.413422 -0.589 18 55 110
0.4366 -0.414124 -0.59 137 144 172
0.450086 -0.414124 -0.59 119 122 137
0.453457 -0.414124 -0.59 98 114 140
0.467662 -0.382538 -0.545 134 106 103
0.451513 -0.362885 -0.517 158 114 101
0.450748 -0.361481 -0.515 158 112 96
0.45264 -0.35376 -0.504 168 123 104
0.459607 -0.348847 -0.497 165 120 99
0.463393 -0.348847 -0.497 160 115 94
0.469074 -0.348145 -0.496 172 127 104
0.471909 -0.348145 -0.496 167 122 99
0.474753 -0.348847 -0.497 162 119 100
0.501753 -0.358673 -0.511 147 111 89
0.0148 -0.2956 -0.42 197 156 128
0.0274686 -0.294192 -0.418 197 153 128
0.0388924 -0.296304 -0.421 193 146 120
0.0554524 -0.299119 -0.425 170 121 104
0.05964 -0.299823 -0.426 159 110 93
0.0614067 -0.300527 -0.427 155 107 93
0.0755029 -0.308269 -0.438 115 88 79
0.0983733 -0.335013 -0.476 91 74 67
0.151921 -0.417359 -0.593 227 234 253
0.2167 -0.415951 -0.591 194 194 204
0.260162 -0.415248 -0.59 203 210 228
0.284403 -0.414544 -0.589 200 208 227
0.339376 -0.414544 -0.589 168 177 182
0.34162 -0.414544 -0.589 185 189 198
0.346108 -0.414544 -0.589 103 118 151
0.440348 -0.414544 -0.589 157 153 154
0.449323 -0.414544 -0.589 136 139 154
0.450445 -0.414544 -0.589 127 130 145
0.462448 -0.415248 -0.59 158 161 176
0.46503 -0.414544 -0.589 104 104 114
0.48664 -0.41384 -0.588 33 67 115
0.48888 -0.41384 -0.588 39 70 125
0.491957 -0.411729 -0.585 128 139 167
0.45183 -0.361758 -0.514 157 111 95
0.459607 -0.349793 -0.497 167 120 100
0.46813 -0.34909 -0.496 171 124 104
0.472853 -0.34909 -0.496 167 122 101
-0.3549 -0.412843 -0.585 231 232 224
0.0156 -0.2964 -0.42 200 156 129
0.0179571 -0.295694 -0.419 200 156 127
0.02508 -0.294989 -0.418 197 153 128
0.0274686 -0.294989 -0.418 198 154 129
0.0315248 -0.295694 -0.419 193 149 124
0.0364 -0.2964 -0.42 190 144 118
0.0605933 -0.30134 -0.427 156 110 95
0.063181 -0.302046 -0.428 151 103 91
0.0669076 -0.304163 -0.431 145 98 88
0.0696924 -0.305574 -0.433 133 96 87
0.0883533 -0.322511 -0.457 91 71 70
0.21521 -0.416371 -0.59 210 219 236
0.217457 -0.416371 -0.59 207 210 225
0.26533 -0.415666 -0.589 201 203 218
0.267574 -0.415666 -0.589 206 212 234
0.31528 -0.41496 -0.588 185 192 210
0.319182 -0.415666 -0.589 188 197 214
0.33096 -0.41496 -0.588 190 194 206
0.33432 -0.41496 -0.588 185 188 203
0.343864 -0.415666 -0.589 179 187 200
0.385374 -0.415666 -0.589 145 149 160
0.397715 -0.415666 -0.589 150 153 168
0.4004 -0.41496 -0.588 100 104 107
0.403325 -0.415666 -0.589 160 164 167
0.449323 -0.415666 -0.589 150 152 165
0.457176 -0.415666 -0.589 147 154 173
0.46984 -0.41496 -0.588 146 147 165
0.49 -0.41496 -0.588 54 81 128
0.452498 -0.364854 -0.517 156 110 95
0.455753 -0.352151 -0.499 164 117 97
0.457654 -0.352151 -0.499 169 122 104
0.459583 -0.351446 -0.498 167 120 100
0.029061 -0.295785 -0.418 193 149 124
0.033121 -0.296492 -0.419 188 142 118
0.0446114 -0.298615 -0.422 181 135 111
0.04794 -0.299323 -0.423 175 127 104
0.0605933 -0.302153 -0.427 156 110 95
0.0614067 -0.302153 -0.427 158 112 97
0.0696924 -0.306399 -0.433 131 94 86
0.0872914 -0.322674 -0.456 93 72 71
0.230551 -0.416788 -0.589 160 184 222
0.251868 -0.416788 -0.589 160 171 199
0.264209 -0.416788 -0.589 195 197 210
0.33432 -0.41608 -0.588 183 188 207
0.35784 -0.41608 -0.588 34 75 141
0.3836 -0.41608 -0.588 122 126 137
0.41496 -0.41608 -0.588 39 74 132
0.42392 -0.41608 -0.588 41 70 126
0.42504 -0.41608 -0.588 64 94 148
0.45304 -0.41608 -0.588 125 128 147
0.4788 -0.41608 -0.588 129 145 171
0.483576 -0.415372 -0.587 55 78 128
0.454669 -0.355225 -0.502 168 123 104
0.455671 -0.354517 -0.501 171 124 106
0.459583 -0.352394 -0.498 166 119 99
0.472843 -0.350271 -0.495 167 120 100
0.480433 -0.351687 -0.497 153 111 89
0.487143 -0.35381 -0.5 148 110 89
0.491982 -0.355932 -0.503 149 111 90
0.0124 -0.298 -0.42 197 156 128
0.0155629 -0.29729 -0.419 194 152 127
0.0266724 -0.296581 -0.418 197 153 128
0.0281971 -0.295871 -0.417 193 149 124
0.0438076 -0.299419 -0.422 185 137 114
0.0471343 -0.300129 -0.423 179 131 108
0.0512838 -0.300838 -0.424 175 127 107
0.0931543 -0.332057 -0.468 91 69 71
0.25928 -0.4172 -0.588 211 218 236
0.304681 -0.41649 -0.587 180 195 226
0.353877 -0.41649 -0.587 39 78 135
0.36953 -0.41649 -0.587 123 136 171
0.3892 -0.4172 -0.588 92 107 136
0.403073 -0.41649 -0.587 135 135 137
0.414254 -0.41649 -0.587 49 85 135
0.425435 -0.41649 -0.587 88 118 170
0.435498 -0.41649 -0.587 92 107 136
0.441089 -0.41649 -0.587 158 160 173
0.456742 -0.41649 -0.587 159 161 174
0.484694 -0.41649 -0.587 48 79 133
0.491682 -0.415781 -0.586 114 130 164
0.469074 -0.351924 -0.496 165 119 96
0.480433 -0.352633 -0.497 158 115 96
0.503686 -0.361857 -0.51 150 109 87
0.0092219 -0.299511 -0.421 196 156 130
0.01946 -0.296666 -0.417 200 156 131
0.0210486 -0.296666 -0.417 197 153 126
0.0314495 -0.297377 -0.418 191 143 120
0.05964 -0.303069 -0.426 162 108 96
0.0905905 -0.330103 -0.464 89 69 70
0.151409 -0.420454 -0.591 231 234 251
0.24024 -0.41832 -0.588 213 219 235
0.2436 -0.41832 -0.588 185 191 215
0.24472 -0.41832 -0.588 145 159 185
0.26152 -0.41832 -0.588 208 214 228
0.281201 -0.417609 -0.587 127 145 181
0.282319 -0.417609 -0.587 115 133 169
0.289028 -0.417609 -0.587 144 161 205
0.291264 -0.417609 -0.587 90 115 169
0.292382 -0.417609 -0.587 73 98 152
0.327043 -0.417609 -0.587 145 149 160
0.354995 -0.417609 -0.587 27 66 131
0.35835 -0.417609 -0.587 28 63 129
0.400837 -0.417609 -0.587 170 173 182
0.4102 -0.416897 -0.586 79 105 142
0.411316 -0.416897 -0.586 93 119 156
0.42879 -0.417609 -0.587 128 150 187
0.446679 -0.417609 -0.587 163 165 180
0.450033 -0.417609 -0.587 163 165 180
0.45227 -0.417609 -0.587 161 160 176
0.464569 -0.417609 -0.587 164 164 176
0.470159 -0.417609 -0.587 55 66 94
0.484985 -0.416897 -0.586 53 84 131
0.469912 -0.387017 -0.544 138 105 96
0.453483 -0.367809 -0.517 155 113 97
0.456626 -0.356426 -0.501 162 117 98
0.457619 -0.355714 -0.5 169 122 102
0.49294 -0.357849 -0.503 149 108 88
0.569014 -0.399111 -0.561 183 170 162
0.0330419 -0.298173 -0.418 193 147 121
0.0346343 -0.298173 -0.418 189 145 116
0.0396 -0.2996 -0.42 187 141 115
0.0429019 -0.300313 -0.421 184 136 113
0.046219 -0.301027 -0.422 176 128 105
0.0520914 -0.302453 -0.424 168 119 102
0.052899 -0.302453 -0.424 169 120 103
0.0816752 -0.320287 -0.449 99 74 70
0.22344 -0.41944 -0.588 199 207 228
0.247658 -0.418727 -0.587 178 187 216
0.309743 -0.418013 -0.586 188 196 217
0.327602 -0.418013 -0.586 142 153 171
0.356623 -0.418013 -0.586 34 65 130
0.37783 -0.418013 -0.586 127 126 131
0.390774 -0.418727 -0.587 145 157 179
0.400154 -0.418013 -0.586 165 169 181
0.415781 -0.418013 -0.586 111 137 174
0.418013 -0.418013 -0.586 50 80 130
0.429175 -0.418013 -0.586 148 168 195
0.46345 -0.418727 -0.587 160 162 174
0.48945 -0.418013 -0.586 79 103 149
0.478357 -0.3959 -0.555 133 103 92
0.453252 -0.363087 -0.509 160 119 99
0.458605 -0.355953 -0.499 168 121 101
0.470006 -0.352387 -0.494 174 128 105
0.50662 -0.364513 -0.511 149 108 88
0.0186657 -0.298254 -0.417 197 156 124
0.0226371 -0.298254 -0.417 196 155 123
0.0297857 -0.298254 -0.417 191 147 118
0.0363133 -0.299685 -0.419 189 145 116
0.0421 -0.301115 -0.421 182 134 111
0.0429019 -0.301115 -0.421 182 134 111
0.0454152 -0.30183 -0.422 178 130 108
0.0503571 -0.302546 -0.423 171 120 101
0.0688676 -0.309698 -0.433 129 88 82
0.073 -0.313274 -0.438 111 82 76
0.0843143 -0.324718 -0.454 97 71 72
0.146657 -0.42199 -0.59 180 187 215
0.150896 -0.421275 -0.589 219 226 252
0.238713 -0.419845 -0.587 193 208 241
0.251012 -0.419845 -0.587 212 219 235
0.257721 -0.419845 -0.587 209 217 230
0.259957 -0.419845 -0.587 213 217 229
0.267784 -0.419845 -0.587 209 211 223
0.276257 -0.41913 -0.586 150 152 151
0.310859 -0.41913 -0.586 189 197 210
0.3159 -0.418414 -0.585 184 193 210
0.334299 -0.41913 -0.586 166 168 180
0.406157 -0.418414 -0.585 68 76 99
0.415071 -0.418414 -0.585 129 148 181
0.420643 -0.418414 -0.585 51 86 140
0.435872 -0.41913 -0.586 51 63 87
0.438105 -0.41913 -0.586 106 111 130
0.44257 -0.41913 -0.586 163 162 178
0.460429 -0.41913 -0.586 163 165 178
0.462661 -0.41913 -0.586 158 160 173
0.463777 -0.41913 -0.586 156 158 171
0.464893 -0.41913 -0.586 153 155 168
0.4719 -0.418414 -0.585 118 123 145
0.488614 -0.418414 -0.585 79 103 149
0.492229 -0.417699 -0.584 132 136 161
0.459583 -0.356189 -0.498 166 119 99
0.460553 -0.355473 -0.497 167 120 100
0.46435 -0.354758 -0.496 132 84 64
0.00523714 -0.303351 -0.423 194 158 126
0.0115448 -0.299766 -0.418 198 157 127
0.0146943 -0.299049 -0.417 198 157 125
0.0266086 -0.299049 -0.417 193 150 118
0.03058 -0.299049 -0.417 191 148 116
0.0388 -0.3012 -0.42 188 142 116
0.0446114 -0.302634 -0.422 179 131 109
0.0520914 -0.304069 -0.424 168 119 104
0.0633286 -0.307654 -0.429 141 97 86
0.072001 -0.313391 -0.437 116 88 77
0.087181 -0.329886 -0.46 91 70 69
0.239423 -0.420246 -0.586 209 215 247
0.261747 -0.420246 -0.586 201 207 219
0.265095 -0.420246 -0.586 161 159 172
0.309214 -0.419529 -0.585 174 180 194
0.319243 -0.419529 -0.585 126 128 140
0.328157 -0.419529 -0.585 126 141 162
0.330386 -0.419529 -0.585 149 164 185
0.333729 -0.419529 -0.585 173 180 190
0.343757 -0.419529 -0.585 130 136 150
0.348214 -0.419529 -0.585 56 80 128
0.349329 -0.419529 -0.585 61 96 152
0.353786 -0.419529 -0.585 75 106 152
0.3549 -0.419529 -0.585 47 78 124
0.358243 -0.419529 -0.585 43 78 136
0.36208 -0.418811 -0.584 72 103 157
0.363814 -0.419529 -0.585 79 108 152
0.382295 -0.420246 -0.586 166 174 187
0.396129 -0.419529 -0.585 166 169 178
0.405043 -0.419529 -0.585 80 94 120
0.470786 -0.419529 -0.585 137 145 164
0.482217 -0.418811 -0.584 92 108 144
0.469382 -0.387974 -0.541 144 108 96
0.461516 -0.355703 -0.496 169 122 102
0.0068 -0.302 -0.42 193 154 123
0.0554524 -0.305595 -0.425 159 110 96
0.0763648 -0.318538 -0.443 99 78 75
0.0900933 -0.335076 -0.466 89 69 68
0.1484 -0.4228 -0.588 133 140 169
0.217099 -0.421362 -0.586 147 158 190
0.283586 -0.420643 -0.585 75 103 151
0.312023 -0.419924 -0.584 185 192 210
0.316472 -0.419924 -0.584 185 189 201
0.31981 -0.419924 -0.584 152 154 166
0.323147 -0.419924 -0.584 141 153 169
0.325371 -0.419924 -0.584 114 126 142
0.329821 -0.419924 -0.584 155 170 189
0.348214 -0.420643 -0.585 115 133 173
0.360968 -0.419924 -0.584 111 139 187
0.395014 -0.420643 -0.585 169 167 181
0.403238 -0.419924 -0.584 98 109 131
0.409912 -0.419924 -0.584 155 163 176
0.477768 -0.419924 -0.584 109 123 150
0.47888 -0.419924 -0.584 83 97 124
0.479414 -0.399071 -0.555 135 105 95
0.46112 -0.379657 -0.528 148 109 94
0.455462 -0.363119 -0.505 165 120 101
0.455574 -0.361681 -0.503 168 123 104
0.455625 -0.360962 -0.502 171 124 106
0.460571 -0.356648 -0.496 172 125 105
0.465301 -0.35521 -0.494 166 119 99
0.467183 -0.35521 -0.494 170 123 103
0.471871 -0.35449 -0.493 169 121 99
0.47281 -0.35449 -0.493 168 120 98
0.47375 -0.35449 -0.493 164 116 94
0.496772 -0.361681 -0.503 156 111 88
0.57018 -0.401948 -0.559 181 167 156
0.00283333 -0.306405 -0.425 190 150 124
0.0154886 -0.300637 -0.417 197 156 126
0.018621 -0.299916 -0.416 195 154 122
0.0194133 -0.299916 -0.416 196 155 123
0.0421 -0.303521 -0.421 182 131 110
0.0520914 -0.305684 -0.424 166 117 100
0.052899 -0.305684 -0.424 163 114 97
0.0554524 -0.306405 -0.425 155 107 93
0.0700143 -0.313614 -0.435 120 86 77
0.0775571 -0.320824 -0.445 97 78 74
0.242357 -0.421757 -0.585 176 186 221
0.293112 -0.421036 -0.584 53 81 144
0.29645 -0.421036 -0.584 67 105 170
0.312023 -0.421036 -0.584 184 192 211
0.323147 -0.421036 -0.584 160 169 186
0.327596 -0.421036 -0.584 150 161 181
0.364305 -0.421036 -0.584 154 173 205
0.379414 -0.421757 -0.585 169 172 181
0.3861 -0.421757 -0.585 171 174 183
0.413652 -0.420315 -0.583 110 124 150
0.425486 -0.421036 -0.584 102 117 150
0.434385 -0.421036 -0.584 144 147 166
0.444396 -0.421036 -0.584 156 158 173
0.459643 -0.421757 -0.585 153 155 168
0.461871 -0.421757 -0.585 147 149 172
0.486944 -0.420315 -0.583 80 100 135
0.489165 -0.420315 -0.583 64 83 125
0.491386 -0.420315 -0.583 94 107 141
0.491651 -0.419594 -0.582 140 146 158
0.460375 -0.379221 -0.526 152 110 94
0.453973 -0.369128 -0.512 158 117 99
0.504586 -0.365523 -0.507 152 107 84
0.00598571 -0.302877 -0.419 193 154 125
0.0329629 -0.301431 -0.417 186 142 113
0.0379095 -0.302877 -0.419 185 139 113
0.0445057 -0.304323 -0.421 178 127 108
0.0691857 -0.314443 -0.435 127 86 80
0.0777314 -0.322394 -0.446 98 78 77
0.212271 -0.422871 -0.585 219 223 235
0.2535 -0.422871 -0.585 209 212 231
0.255729 -0.422871 -0.585 188 193 212
0.256843 -0.422871 -0.585 176 181 200
0.266415 -0.422149 -0.584 161 167 183
0.276427 -0.422149 -0.584 196 200 209
0.279764 -0.422149 -0.584 155 157 172
0.280876 -0.422149 -0.584 153 155 170
0.285326 -0.422149 -0.584 64 94 156
0.304826 -0.421426 -0.583 105 126 169
0.305936 -0.421426 -0.583 128 149 192
0.318151 -0.421426 -0.583 185 187 199
0.342582 -0.421426 -0.583 96 105 136
0.36035 -0.421426 -0.583 137 159 198
0.372565 -0.421426 -0.583 130 142 166
0.378766 -0.422149 -0.584 167 171 180
0.379878 -0.422149 -0.584 168 172 181
0.467756 -0.422149 -0.584 151 154 173
0.468869 -0.422149 -0.584 151 154 173
0.472206 -0.422149 -0.584 149 151 166
0.485833 -0.421426 -0.583 93 116 150
0.487217 -0.420703 -0.582 61 83 124
0.491651 -0.420703 -0.582 116 124 137
0.457984 -0.376609 -0.521 156 115 97
0.455924 -0.370103 -0.512 158 117 99
0.495751 -0.362151 -0.501 154 109 86
0.504554 -0.365766 -0.506 154 109 86
0.00281333 -0.30585 -0.422 194 154 129
0.0123114 -0.302226 -0.417 195 159 127
0.0170362 -0.301501 -0.416 192 153 122
0.052899 -0.307299 -0.424 162 113 98
0.0605933 -0.309473 -0.427 144 100 91
0.0779057 -0.323969 -0.447 98 77 76
0.08136 -0.327592 -0.452 94 72 74
0.0825848 -0.329042 -0.454 93 71 73
0.144793 -0.425435 -0.587 224 230 244
0.236381 -0.423261 -0.584 92 116 178
0.24083 -0.423261 -0.584 172 186 225
0.24973 -0.423261 -0.584 207 210 229
0.276427 -0.423261 -0.584 199 206 214
0.299273 -0.422536 -0.583 91 126 182
0.303715 -0.422536 -0.583 99 126 173
0.329256 -0.422536 -0.583 181 184 201
0.350355 -0.422536 -0.583 144 156 180
0.379228 -0.422536 -0.583 167 169 181
0.408509 -0.421811 -0.582 159 160 178
0.412943 -0.421811 -0.582 94 105 133
0.424757 -0.422536 -0.583 79 99 136
0.425868 -0.422536 -0.583 108 123 152
0.456161 -0.368904 -0.509 161 119 97
0.45648 -0.36528 -0.504 165 120 99
0.459583 -0.360931 -0.498 168 122 99
0.465301 -0.358032 -0.494 173 125 103
0.477506 -0.357308 -0.493 163 117 94
0.480356 -0.358032 -0.494 162 117 96
0.484157 -0.358757 -0.495 156 111 88
0.0562619 -0.308833 -0.425 150 102 90
0.0746771 -0.321913 -0.443 102 78 74
0.080321 -0.327727 -0.451 95 71 71
0.251954 -0.424373 -0.584 204 209 228
0.263738 -0.423647 -0.583 164 170 194
0.289279 -0.423647 -0.583 117 153 205
0.350355 -0.423647 -0.583 142 154 176
0.356406 -0.42292 -0.582 93 117 155
0.357514 -0.42292 -0.582 93 117 155
0.378117 -0.423647 -0.583 168 172 183
0.382559 -0.423647 -0.583 169 167 180
0.38478 -0.423647 -0.583 156 159 174
0.396314 -0.42292 -0.582 155 154 168
0.39964 -0.42292 -0.582 116 123 139
0.404074 -0.42292 -0.582 147 155 174
0.41334 -0.422193 -0.581 75 98 140
0.419594 -0.42292 -0.582 94 116 155
0.465845 -0.423647 -0.583 156 154 167
0.469176 -0.423647 -0.583 137 137 147
0.470287 -0.423647 -0.583 95 95 105
0.458605 -0.362607 -0.499 169 123 100
0.459555 -0.362607 -0.499 169 123 100
0.483214 -0.3597 -0.495 157 115 91
0.4899 -0.361153 -0.497 155 109 86
0.00911238 -0.303086 -0.416 197 157 122
0.0249 -0.302357 -0.415 190 149 119
0.0272714 -0.302357 -0.415 190 146 117
0.0321686 -0.303814 -0.417 185 141 112
0.0454152 -0.307457 -0.422 170 124 101
0.0554524 -0.309643 -0.425 153 105 95
0.0663933 -0.315471 -0.433 129 90 83
0.0792857 -0.327857 -0.45 98 75 69
0.234866 -0.424757 -0.583 90 119 175
0.254854 -0.424757 -0.583 196 202 218
0.279285 -0.424757 -0.583 117 122 160
0.282616 -0.424757 -0.583 141 154 188
0.289279 -0.424757 -0.583 132 161 203
0.296543 -0.424029 -0.582 112 151 210
0.312063 -0.424029 -0.582 147 149 162
0.313171 -0.424029 -0.582 140 138 151
0.325366 -0.424029 -0.582 185 187 200
0.339777 -0.424029 -0.582 92 103 131
0.341994 -0.424029 -0.582 91 106 147
0.366383 -0.424029 -0.582 174 173 191
0.370817 -0.424029 -0.582 87 100 119
0.373034 -0.424029 -0.582 60 73 92
0.398953 -0.4233 -0.581 108 116 139
0.401167 -0.4233 -0.581 144 156 172
0.407807 -0.4233 -0.581 166 165 183
0.437331 -0.424029 -0.582 147 148 166
0.441766 -0.424029 -0.582 54 64 99
0.451743 -0.424029 -0.582 35 48 90
0.458394 -0.424029 -0.582 80 97 123
0.487487 -0.4233 -0.581 55 76 119
0.456726 -0.374486 -0.514 160 115 96
0.470914 -0.358457 -0.492 172 127 104
0.479384 -0.359186 -0.493 158 116 92
0.496667 -0.364286 -0.5 152 111 89
0.518406 -0.374486 -0.514 144 106 85
0.0305067 -0.303878 -0.416 186 142 113
0.0562619 -0.310452 -0.425 151 103 93
0.0645943 -0.315566 -0.432 129 90 83
0.07266 -0.32214 -0.441 110 81 77
0.0794619 -0.329445 -0.451 98 75 69
0.146529 -0.427329 -0.585 226 228 241
0.215988 -0.425868 -0.583 195 198 217
0.269937 -0.425137 -0.582 199 206 222
0.27548 -0.425137 -0.582 190 198 209
0.277697 -0.425137 -0.582 139 147 170
0.279914 -0.425137 -0.582 87 95 134
0.30378 -0.424407 -0.581 143 159 192
0.311527 -0.424407 -0.581 136 139 158
0.3237 -0.424407 -0.581 167 170 185
0.325913 -0.424407 -0.581 180 184 195
0.341407 -0.424407 -0.581 124 142 182
0.342513 -0.424407 -0.581 148 155 184
0.37636 -0.425137 -0.582 164 172 185
0.380794 -0.425137 -0.582 158 160 183
0.409314 -0.423676 -0.58 123 127 139
0.41998 -0.424407 -0.581 80 108 147
0.424407 -0.424407 -0.581 64 87 131
0.477527 -0.424407 -0.581 69 89 126
0.480847 -0.424407 -0.581 81 102 145
0.486648 -0.423676 -0.58 55 76 119
0.493529 -0.422946 -0.579 131 126 132
0.475967 -0.39811 -0.545 141 111 101
0.470878 -0.392996 -0.538 145 109 93
0.457537 -0.366699 -0.502 169 124 101
0.458571 -0.365238 -0.5 167 121 97
0.461529 -0.361586 -0.495 173 125 103
0.470914 -0.359394 -0.492 171 123 101
0.476537 -0.359394 -0.492 159 114 93
0.482238 -0.360855 -0.494 159 114 91
0.51538 -0.373273 -0.511 151 110 90
0.00673524 -0.30467 -0.416 194 155 122
0.0329629 -0.305403 -0.417 185 140 111
0.0337571 -0.305403 -0.417 183 138 107
0.0437038 -0.308332 -0.421 173 121 107
0.0608771 -0.314191 -0.429 137 97 89
0.0636238 -0.315656 -0.431 127 88 81
0.115154 -0.386697 -0.528 231 234 241
0.222269 -0.426246 -0.582 106 133 186
0.232246 -0.426246 -0.582 135 160 216
0.248874 -0.426246 -0.582 206 212 224
0.275007 -0.425513 -0.581 180 185 204
0.276113 -0.425513 -0.581 145 159 188
0.355181 -0.424781 -0.58 119 145 180
0.38014 -0.425513 -0.581 150 156 182
0.384567 -0.425513 -0.581 98 104 128
0.3901 -0.425513 -0.581 152 159 188
0.428833 -0.425513 -0.581 92 94 106
0.434367 -0.425513 -0.581 152 152 160
0.43658 -0.425513 -0.581 148 150 163
0.438793 -0.425513 -0.581 121 128 154
0.443562 -0.424781 -0.58 78 90 128
0.4756 -0.424781 -0.58 92 98 114
0.481953 -0.425513 -0.581 94 112 148
0.460851 -0.382303 -0.522 149 112 93
0.461529 -0.362529 -0.495 174 128 105
0.469977 -0.360331 -0.492 169 122 102
0.487929 -0.362529 -0.495 159 117 93
0.555937 -0.39695 -0.542 142 105 86
0.00515048 -0.305463 -0.416 192 154 118
0.0114619 -0.304729 -0.415 188 148 113
0.0288524 -0.304729 -0.415 185 140 109
0.0470229 -0.309869 -0.422 169 118 101
0.0572057 -0.312806 -0.426 143 99 88
0.0581533 -0.31354 -0.427 143 99 88
0.0626571 -0.315743 -0.43 128 90 81
0.0954171 -0.355394 -0.484 91 72 68
0.111643 -0.382563 -0.521 238 236 247
0.245127 -0.42662 -0.581 204 205 225
0.26062 -0.42662 -0.581 203 206 223
0.296629 -0.425886 -0.58 146 170 204
0.323143 -0.425886 -0.58 129 136 154
0.324248 -0.425886 -0.58 85 101 134
0.335873 -0.42662 -0.581 177 178 199
0.341407 -0.42662 -0.581 159 173 200
0.344727 -0.42662 -0.581 176 180 192
0.350762 -0.425886 -0.58 92 113 144
0.356286 -0.425886 -0.58 105 131 168
0.35898 -0.425151 -0.579 79 104 145
0.360705 -0.425886 -0.58 113 139 176
0.381695 -0.425886 -0.58 154 162 185
0.406403 -0.425151 -0.579 104 107 112
0.432514 -0.425886 -0.58 153 156 165
0.436933 -0.425886 -0.58 152 156 168
0.451295 -0.425886 -0.58 53 74 119
0.460133 -0.425886 -0.58 50 62 88
0.461238 -0.425886 -0.58 36 48 74
0.480019 -0.425886 -0.58 80 105 145
0.466237 -0.362003 -0.493 174 126 104
0.471851 -0.361269 -0.492 173 127 104
0.484079 -0.362003 -0.493 158 114 89
0.0177429 -0.304783 -0.414 197 154 120
0.01932 -0.304783 -0.414 193 152 120
0.0272714 -0.305519 -0.415 189 144 113
0.0297143 -0.306255 -0.416 186 141 110
0.0305067 -0.306255 -0.416 187 142 111
0.0321686 -0.306991 -0.417 184 139 108
0.0362267 -0.307728 -0.418 183 137 104
0.074 -0.326869 -0.444 104 75 71
0.0775714 -0.331286 -0.45 98 74 72
0.0941048 -0.354844 -0.482 92 72 71
0.0958114 -0.357789 -0.486 93 73 72
0.100617 -0.36515 -0.496 85 74 68
0.146028 -0.429199 -0.583 229 229 241
0.263486 -0.42699 -0.58 202 210 221
0.270114 -0.42699 -0.58 202 204 217
0.280057 -0.42699 -0.58 194 202 221
