ply
format ascii 1.0
comment Created by Open3D
element vertex 1275
property double x
property double y
property double z
property uchar red
property uchar green
property uchar blue
end_header
-0.116136 -0.295351 -0.619 89 90 95
-0.0290505 -0.309666 -0.649 201 200 198
0.0470314 -0.253363 -0.531 206 172 163
0.0531 -0.253363 -0.531 207 173 164
0.057361 -0.254317 -0.533 198 163 157
0.0640476 -0.256703 -0.538 186 142 139
0.0735886 -0.261474 -0.548 167 128 123
0.0978686 -0.283423 -0.594 116 98 110
0.11232 -0.297737 -0.624 121 99 111
0.36185 -0.258611 -0.542 140 94 94
0.367333 -0.25384 -0.532 147 102 99
0.368666 -0.253363 -0.531 145 100 97
0.369292 -0.252409 -0.529 145 100 97
0.394397 -0.246683 -0.517 159 110 105
0.401497 -0.246206 -0.516 159 108 104
0.426375 -0.245251 -0.514 151 103 93
0.434208 -0.245251 -0.514 148 98 89
0.437145 -0.245251 -0.514 137 93 84
0.468924 -0.252886 -0.53 128 87 81
0.60912 -0.309189 -0.648 213 212 217
0.622697 -0.309189 -0.648 214 214 216
-0.340227 -0.309465 -0.646 251 252 246
-0.282394 -0.309465 -0.646 251 252 246
-0.266398 -0.309465 -0.646 253 253 251
-0.259416 -0.309944 -0.647 253 253 251
-0.247474 -0.310423 -0.648 253 253 251
-0.233897 -0.310423 -0.648 253 253 253
-0.138133 -0.283596 -0.592 96 101 105
-0.116324 -0.29701 -0.62 91 92 96
-0.0425829 -0.310423 -0.648 187 185 186
-0.0413486 -0.310423 -0.648 189 187 188
-0.0352314 -0.310902 -0.649 197 195 196
-0.0167143 -0.311381 -0.65 208 208 208
0.000618095 -0.310902 -0.649 221 219 222
0.00678857 -0.310423 -0.648 229 224 228
0.0469429 -0.253895 -0.53 204 170 161
0.07756 -0.265392 -0.554 157 122 120
0.0998333 -0.28695 -0.599 113 95 109
0.114236 -0.300842 -0.628 119 97 109
0.12671 -0.310902 -0.649 139 159 196
0.365746 -0.267788 -0.559 125 76 82
0.363551 -0.260123 -0.543 137 92 87
0.373919 -0.252458 -0.527 144 99 93
0.374211 -0.251979 -0.526 147 102 96
0.376215 -0.251979 -0.526 145 100 94
0.397566 -0.247189 -0.516 160 111 106
0.404446 -0.247189 -0.516 162 112 103
0.420501 -0.24623 -0.514 148 98 89
0.438124 -0.24623 -0.514 136 92 83
0.479967 -0.258207 -0.539 129 88 82
-0.340227 -0.310695 -0.646 252 253 247
-0.320539 -0.310695 -0.646 252 253 248
-0.277472 -0.310695 -0.646 253 254 249
-0.276242 -0.310695 -0.646 253 254 249
-0.249557 -0.311176 -0.647 253 253 251
-0.234769 -0.311176 -0.647 253 253 253
-0.179034 -0.310695 -0.646 252 252 252
-0.151077 -0.301557 -0.627 94 97 106
-0.143946 -0.291938 -0.607 96 101 107
-0.123643 -0.27751 -0.577 72 69 76
-0.122497 -0.279914 -0.582 132 130 135
-0.119271 -0.290976 -0.605 104 105 107
-0.11832 -0.294343 -0.612 101 102 106
-0.0499114 -0.311176 -0.647 176 174 175
-0.0437495 -0.311176 -0.647 189 187 188
-0.0425171 -0.311176 -0.647 190 188 189
-0.0351771 -0.311657 -0.648 196 194 195
-0.03024 -0.311657 -0.648 202 200 201
-0.0265371 -0.311657 -0.648 204 202 203
-0.019161 -0.312138 -0.649 208 206 207
-0.00679905 -0.312138 -0.649 216 214 215
0.0339952 -0.312138 -0.649 241 238 247
0.0459333 -0.254905 -0.53 207 172 166
0.0541114 -0.255386 -0.531 207 170 164
0.0616524 -0.25731 -0.535 188 149 142
0.0673714 -0.259714 -0.54 172 133 128
0.0698143 -0.261157 -0.543 163 123 121
0.0802457 -0.268371 -0.558 141 109 112
0.08786 -0.275586 -0.573 126 104 117
0.0927248 -0.280395 -0.583 121 101 113
0.365304 -0.260195 -0.541 139 94 89
0.366011 -0.25779 -0.536 144 99 94
0.36668 -0.256829 -0.534 144 99 94
0.371308 -0.254424 -0.529 145 100 95
0.400514 -0.248171 -0.516 159 111 101
0.413648 -0.24721 -0.514 153 105 95
0.416585 -0.24721 -0.514 153 105 95
0.430291 -0.24721 -0.514 148 100 88
0.437145 -0.24721 -0.514 137 93 84
0.439103 -0.24721 -0.514 131 91 83
0.445843 -0.24769 -0.515 127 84 78
0.459742 -0.251538 -0.523 129 86 80
0.60048 -0.311657 -0.648 211 211 223
0.642924 -0.310695 -0.646 213 213 211
-0.354443 -0.311443 -0.645 252 253 245
-0.347071 -0.311443 -0.645 252 253 247
-0.335305 -0.311926 -0.646 252 253 247
-0.24425 -0.311926 -0.646 253 253 251
-0.217179 -0.311926 -0.646 253 253 253
-0.212257 -0.311926 -0.646 253 253 253
-0.122497 -0.281023 -0.582 151 149 154
-0.0595857 -0.311443 -0.645 137 135 136
-0.0486038 -0.311926 -0.646 180 178 179
-0.0412848 -0.312409 -0.647 192 190 191
0.015381 -0.311926 -0.646 238 233 239
0.0314743 -0.312891 -0.648 245 242 253
0.0327086 -0.312891 -0.648 243 238 244
0.0449238 -0.255914 -0.53 207 172 166
0.0478619 -0.255431 -0.529 208 173 167
0.0540095 -0.255914 -0.53 204 167 161
0.0639286 -0.259294 -0.537 183 144 139
0.06622 -0.26026 -0.539 174 135 130
0.07756 -0.267503 -0.554 154 118 118
0.08786 -0.276677 -0.573 124 102 114
0.0911429 -0.280057 -0.58 122 102 114
0.0980333 -0.2873 -0.595 118 96 109
0.212333 -0.313857 -0.65 234 235 255
0.21481 -0.313857 -0.65 235 236 254
0.23673 -0.313374 -0.649 204 208 235
0.367271 -0.264123 -0.547 132 92 93
0.372315 -0.255431 -0.529 148 100 96
0.380314 -0.252051 -0.522 154 105 101
0.383555 -0.251569 -0.521 153 104 99
0.436166 -0.248189 -0.514 137 93 82
0.492905 -0.265571 -0.55 134 90 87
0.5049 -0.270883 -0.561 134 96 93
0.603549 -0.311926 -0.646 215 213 224
-0.334786 -0.312671 -0.645 252 253 247
-0.259843 -0.312671 -0.645 253 253 251
-0.143709 -0.293766 -0.606 98 103 109
-0.128019 -0.277284 -0.572 102 109 115
-0.122708 -0.282616 -0.583 140 138 143
-0.0571286 -0.312671 -0.645 155 153 154
-0.0449124 -0.313156 -0.646 189 187 188
-0.0400524 -0.313641 -0.647 194 192 193
0.0166114 -0.313156 -0.646 238 233 239
0.0338905 -0.313641 -0.647 235 226 231
0.0374714 -0.312671 -0.645 193 163 153
0.0419743 -0.257409 -0.531 203 168 162
0.0582667 -0.257893 -0.532 194 157 149
0.0604067 -0.258378 -0.533 189 152 144
0.196238 -0.315095 -0.65 184 195 223
0.3755 -0.2545 -0.525 146 97 93
0.383555 -0.252561 -0.521 155 104 100
0.394617 -0.250137 -0.516 159 109 100
0.429454 -0.248683 -0.513 149 99 88
0.438249 -0.248683 -0.513 139 95 86
0.467154 -0.255954 -0.528 128 88 80
-0.337947 -0.313413 -0.644 252 253 247
-0.27416 -0.313413 -0.644 253 254 249
-0.25944 -0.313413 -0.644 253 253 251
-0.18216 -0.313413 -0.644 251 251 249
-0.150354 -0.30368 -0.624 94 97 106
-0.119093 -0.299787 -0.616 103 104 108
-0.0485286 -0.3139 -0.645 184 182 183
-0.0473 -0.3139 -0.645 186 184 185
0.0190724 -0.314387 -0.646 242 237 243
0.0301467 -0.314387 -0.646 244 241 250
0.0686533 -0.263773 -0.542 169 129 127
0.1 -0.292 -0.6 114 96 110
0.195 -0.316333 -0.65 185 197 237
0.196238 -0.316333 -0.65 185 196 224
0.20119 -0.316333 -0.65 195 201 233
0.239203 -0.315847 -0.649 195 201 225
0.268871 -0.315847 -0.649 254 255 255
0.27919 -0.316333 -0.65 234 234 246
0.291571 -0.316333 -0.65 239 244 250
0.303952 -0.316333 -0.65 240 240 250
0.372315 -0.257447 -0.529 148 99 95
0.383555 -0.253553 -0.521 153 103 96
0.41382 -0.24966 -0.513 154 104 95
0.44118 -0.24966 -0.513 130 86 77
0.4635 -0.2555 -0.525 130 90 80
-0.328849 -0.314151 -0.643 251 252 246
-0.322725 -0.314151 -0.643 252 253 247
-0.250464 -0.314151 -0.643 253 253 251
-0.245565 -0.314151 -0.643 253 253 253
-0.242267 -0.31464 -0.644 253 253 253
-0.232453 -0.31464 -0.644 253 253 253
-0.227547 -0.31464 -0.644 253 253 253
-0.21896 -0.31464 -0.644 253 253 253
-0.140672 -0.292166 -0.598 101 106 110
-0.124969 -0.279951 -0.573 109 114 120
-0.121424 -0.289723 -0.593 219 218 223
-0.0631733 -0.31464 -0.644 142 140 141
-0.0485286 -0.315129 -0.645 184 184 184
-0.00924286 -0.316106 -0.647 215 215 213
0.00675714 -0.315129 -0.645 227 225 228
0.0178143 -0.315129 -0.645 241 236 242
0.0288714 -0.315129 -0.645 244 239 246
0.0301 -0.315129 -0.645 243 240 247
0.0517943 -0.257966 -0.528 204 167 161
0.0735886 -0.267737 -0.548 161 121 121
0.0880133 -0.28044 -0.574 121 103 117
0.124507 -0.31464 -0.644 139 148 187
0.1947 -0.317083 -0.649 187 200 242
0.20459 -0.317083 -0.649 193 198 236
0.209534 -0.317083 -0.649 234 232 253
0.244148 -0.317083 -0.649 167 182 213
0.251952 -0.317571 -0.65 151 165 210
0.256905 -0.317571 -0.65 186 201 244
0.259381 -0.317571 -0.65 166 180 219
0.270926 -0.316594 -0.648 253 252 255
0.284143 -0.317571 -0.65 208 211 226
0.285381 -0.317571 -0.65 202 208 222
0.287857 -0.317571 -0.65 214 222 235
0.302714 -0.317571 -0.65 241 244 251
0.417747 -0.315617 -0.646 179 177 191
0.380047 -0.255523 -0.523 151 102 97
0.383555 -0.254546 -0.521 151 101 94
0.394617 -0.252103 -0.516 161 111 102
0.426375 -0.251126 -0.514 156 106 95
0.427354 -0.251126 -0.514 155 106 92
0.4275 -0.250637 -0.513 157 108 94
0.428477 -0.250637 -0.513 156 107 93
0.44118 -0.250637 -0.513 130 86 77
0.443998 -0.251126 -0.514 128 84 75
0.455237 -0.253569 -0.519 133 90 81
-0.31905 -0.315376 -0.643 252 253 247
-0.262711 -0.315376 -0.643 253 253 251
-0.239441 -0.315376 -0.643 253 253 253
-0.138133 -0.290362 -0.592 103 108 112
-0.135617 -0.287419 -0.586 104 109 113
-0.118877 -0.304586 -0.621 148 152 151
-0.0325571 -0.316357 -0.645 203 201 202
0.0456733 -0.258481 -0.527 211 174 168
0.0549152 -0.259462 -0.529 199 162 156
0.0614219 -0.261424 -0.533 186 147 142
0.0832571 -0.276629 -0.564 130 104 113
0.101817 -0.296248 -0.604 112 99 109
0.209211 -0.317829 -0.648 230 229 247
0.228607 -0.317338 -0.647 243 245 255
0.249092 -0.318319 -0.649 164 177 221
0.251565 -0.318319 -0.649 150 164 209
0.255667 -0.31881 -0.65 150 165 206
0.28865 -0.318319 -0.649 225 233 246
0.297304 -0.318319 -0.649 254 252 255
0.304721 -0.318319 -0.649 196 205 234
0.30843 -0.318319 -0.649 162 175 219
0.319555 -0.318319 -0.649 137 154 206
0.390458 -0.253576 -0.517 153 103 94
0.391669 -0.253086 -0.516 154 104 95
0.3956 -0.253086 -0.516 160 110 101
0.397776 -0.252595 -0.515 164 114 103
0.4017 -0.252595 -0.515 163 113 102
0.406794 -0.252105 -0.514 161 111 100
0.423591 -0.251614 -0.513 155 106 92
0.449657 -0.253086 -0.516 131 86 80
0.479209 -0.263386 -0.537 131 88 81
-0.351571 -0.316109 -0.642 251 252 246
-0.340566 -0.316109 -0.642 250 251 245
-0.33812 -0.316109 -0.642 251 252 246
-0.274531 -0.316109 -0.642 253 254 249
-0.263526 -0.316109 -0.642 253 253 251
-0.25252 -0.316109 -0.642 253 253 251
-0.224394 -0.316109 -0.642 253 253 253
-0.179149 -0.316109 -0.642 251 251 251
-0.12606 -0.282134 -0.573 102 107 110
-0.121933 -0.290505 -0.59 225 226 231
-0.00184286 -0.317586 -0.645 220 218 219
-0.000613333 -0.317093 -0.644 220 218 219
0.0104429 -0.317586 -0.645 234 229 235
0.0226933 -0.317093 -0.644 243 238 245
0.0417371 -0.259977 -0.528 205 168 162
0.0749048 -0.27081 -0.55 156 116 117
0.130619 -0.320048 -0.65 157 162 192
0.187283 -0.319555 -0.649 94 116 173
0.20304 -0.319063 -0.648 219 222 253
0.249943 -0.319063 -0.648 155 164 207
0.269691 -0.319063 -0.648 255 254 255
0.304721 -0.319555 -0.649 189 195 227
0.320791 -0.319555 -0.649 159 173 218
0.334905 -0.320048 -0.65 228 228 252
0.374578 -0.266378 -0.541 137 92 87
0.373723 -0.261454 -0.531 150 101 96
0.377779 -0.258008 -0.524 149 100 95
0.382563 -0.25653 -0.521 151 101 94
0.392651 -0.254069 -0.516 155 105 96
0.393634 -0.254069 -0.516 156 106 97
0.394833 -0.253576 -0.515 159 109 100
0.40092 -0.253084 -0.514 164 114 103
0.403857 -0.253084 -0.514 166 116 105
0.412843 -0.252591 -0.513 152 104 92
0.428333 -0.253084 -0.514 157 105 91
0.428477 -0.252591 -0.513 155 106 91
0.433363 -0.252591 -0.513 147 99 85
0.43434 -0.252591 -0.513 146 100 85
0.436294 -0.252591 -0.513 138 94 81
0.482914 -0.265886 -0.54 132 85 77
0.486631 -0.267363 -0.543 134 87 79
-0.230509 -0.317331 -0.642 253 253 253
-0.220726 -0.317331 -0.642 253 253 253
-0.215834 -0.317331 -0.642 253 253 253
-0.141849 -0.298054 -0.603 93 97 106
-0.03496 -0.31832 -0.644 201 199 200
-0.0288267 -0.31832 -0.644 205 203 204
-0.0116714 -0.318814 -0.645 215 213 214
-0.0104429 -0.318814 -0.645 216 214 215
0.000613333 -0.31832 -0.644 224 222 223
0.00552 -0.31832 -0.644 228 223 227
0.0214667 -0.31832 -0.644 243 238 245
0.0696857 -0.267903 -0.542 166 126 126
0.0805333 -0.2768 -0.56 138 109 114
0.0818914 -0.277789 -0.562 133 107 116
0.0897276 -0.285697 -0.578 120 104 117
0.10382 -0.30102 -0.609 110 103 110
0.105497 -0.302503 -0.612 115 102 112
0.10736 -0.30448 -0.616 115 102 112
0.130619 -0.321286 -0.65 138 141 174
0.192868 -0.319803 -0.647 145 162 216
0.206424 -0.319803 -0.647 234 232 253
0.245006 -0.320297 -0.648 162 174 214
0.253646 -0.320297 -0.648 155 170 209
0.279134 -0.319803 -0.647 250 249 255
0.284503 -0.320297 -0.648 238 237 245
0.301783 -0.320297 -0.648 213 218 237
0.377217 -0.259994 -0.526 154 105 100
0.382303 -0.258017 -0.522 152 102 95
0.404836 -0.254063 -0.514 166 117 103
0.410889 -0.253569 -0.513 157 109 95
0.423591 -0.253569 -0.513 161 109 96
0.449657 -0.255051 -0.516 129 85 76
0.45436 -0.25604 -0.518 133 89 80
0.477424 -0.264443 -0.535 127 83 74
-0.349803 -0.318058 -0.641 250 251 245
-0.348582 -0.318058 -0.641 251 252 246
-0.336372 -0.318058 -0.641 252 253 247
-0.233812 -0.318058 -0.641 253 253 253
-0.136543 -0.292752 -0.59 93 98 102
-0.127373 -0.284813 -0.574 93 96 101
-0.120651 -0.303669 -0.612 229 227 230
-0.119069 -0.30863 -0.622 200 201 203
-0.0496029 -0.31905 -0.643 188 186 187
-0.0410295 -0.31905 -0.643 198 196 197
-0.0398048 -0.31905 -0.643 198 196 197
0.00428667 -0.31905 -0.643 227 225 228
0.0214333 -0.31905 -0.643 247 239 250
0.0311829 -0.318554 -0.642 194 163 158
0.0356829 -0.269431 -0.543 205 168 160
0.0475 -0.2605 -0.525 208 171 163
0.0659743 -0.266454 -0.537 176 136 136
0.0696857 -0.268935 -0.542 165 126 127
0.07228 -0.27092 -0.546 153 119 120
0.0805333 -0.277867 -0.56 131 108 118
0.0932019 -0.290768 -0.586 121 101 113
0.173952 -0.322524 -0.65 185 187 212
0.202413 -0.320539 -0.646 213 213 237
0.2279 -0.320043 -0.645 245 246 251
0.229129 -0.320043 -0.645 252 253 255
0.25488 -0.321531 -0.648 150 165 204
0.280367 -0.321035 -0.647 249 248 254
0.291458 -0.321035 -0.647 250 250 250
0.295155 -0.321035 -0.647 250 250 250
0.30672 -0.321531 -0.648 231 235 255
0.307954 -0.321531 -0.648 220 224 253
0.319063 -0.321531 -0.648 168 186 234
0.380452 -0.273401 -0.551 132 92 90
0.377161 -0.26447 -0.533 155 106 101
0.387026 -0.257523 -0.519 149 99 92
0.40092 -0.255042 -0.514 161 111 100
0.422614 -0.254546 -0.513 163 111 98
0.425546 -0.254546 -0.513 158 106 93
0.430291 -0.255042 -0.514 152 103 88
0.434208 -0.255042 -0.514 152 103 89
0.458095 -0.258019 -0.52 133 89 80
0.473733 -0.263973 -0.532 131 87 78
0.481126 -0.26695 -0.538 128 87 81
-0.356571 -0.318781 -0.64 250 251 243
-0.222824 -0.319279 -0.641 253 253 253
-0.12214 -0.294374 -0.591 226 225 231
-0.119673 -0.308321 -0.619 220 219 224
-0.0372971 -0.319777 -0.642 200 198 199
-0.02024 -0.320773 -0.644 212 210 211
0.00551143 -0.320275 -0.643 227 225 228
0.0323552 -0.319279 -0.641 190 157 148
0.0386467 -0.262496 -0.527 207 170 162
0.0396505 -0.262496 -0.527 205 168 160
0.0735886 -0.272956 -0.548 145 113 116
0.0949619 -0.293876 -0.59 118 100 112
0.186706 -0.322268 -0.647 82 104 161
0.1938 -0.32177 -0.646 106 125 181
0.2193 -0.321271 -0.645 218 219 239
0.221757 -0.321271 -0.645 242 241 255
0.296388 -0.322268 -0.647 248 251 255
0.29762 -0.322268 -0.647 235 238 247
0.319803 -0.322268 -0.647 169 188 228
0.32843 -0.322268 -0.647 218 225 244
0.346751 -0.323264 -0.649 193 194 214
0.363381 -0.323762 -0.65 106 113 142
0.37081 -0.323762 -0.65 203 203 227
0.38012 -0.27196 -0.546 134 95 90
0.377934 -0.262496 -0.527 152 102 95
0.379221 -0.261998 -0.526 147 97 90
0.381771 -0.261002 -0.524 150 100 93
0.403857 -0.256021 -0.514 160 110 99
0.406003 -0.255523 -0.513 166 114 101
0.418706 -0.255523 -0.513 165 113 100
0.421637 -0.255523 -0.513 162 110 97
0.445956 -0.256021 -0.514 130 86 75
0.480231 -0.267477 -0.537 130 87 80
1.12437 -0.310313 -0.623 202 204 190
-0.273676 -0.32 -0.64 253 254 249
-0.261486 -0.32 -0.64 253 253 251
-0.240762 -0.32 -0.64 253 253 251
-0.218819 -0.32 -0.64 253 253 253
-0.137237 -0.2965 -0.593 83 88 92
-0.122347 -0.296 -0.592 221 220 226
-0.0226581 -0.3215 -0.643 211 209 210
-0.00183429 -0.321 -0.642 222 220 221
0.0165086 -0.321 -0.642 241 236 240
0.0274714 -0.3205 -0.641 242 231 235
0.0286924 -0.3205 -0.641 220 209 213
0.0464114 -0.262 -0.524 205 168 160
0.0526 -0.263 -0.526 198 161 155
0.07756 -0.277 -0.554 136 110 121
0.0985276 -0.299 -0.598 115 99 109
0.10382 -0.3045 -0.609 114 101 108
0.141544 -0.3245 -0.649 177 182 204
0.155381 -0.325 -0.65 114 121 150
0.156619 -0.325 -0.65 117 124 153
0.157857 -0.325 -0.65 134 139 168
0.167504 -0.3245 -0.649 188 197 212
0.182057 -0.324 -0.648 78 99 162
0.1938 -0.323 -0.646 135 155 208
0.247941 -0.323 -0.646 161 173 213
0.254487 -0.3235 -0.647 161 178 224
0.294699 -0.323 -0.646 253 255 252
0.302082 -0.323 -0.646 217 223 247
0.311926 -0.323 -0.646 180 195 226
0.317338 -0.3235 -0.647 181 193 241
0.319803 -0.3235 -0.647 170 181 226
0.334591 -0.3235 -0.647 156 165 194
0.34992 -0.324 -0.648 190 194 219
0.37081 -0.325 -0.65 206 202 227
0.375762 -0.325 -0.65 129 146 192
0.42702 -0.3235 -0.647 183 178 200
0.427493 -0.322 -0.644 181 179 203
0.388426 -0.2805 -0.561 139 94 99
0.383297 -0.261 -0.522 152 98 88
0.397983 -0.257 -0.514 162 110 99
0.401117 -0.2565 -0.513 160 110 99
0.412038 -0.256 -0.512 164 112 99
0.421637 -0.2565 -0.513 162 110 99
0.46273 -0.2615 -0.523 130 90 80
-0.278117 -0.320717 -0.639 253 254 249
-0.264729 -0.320717 -0.639 253 254 249
-0.119673 -0.310679 -0.619 225 225 227
-0.07242 -0.320717 -0.639 147 146 144
-0.0665419 -0.321721 -0.641 168 166 167
-0.0238457 -0.322223 -0.642 211 209 210
-0.00915714 -0.321721 -0.641 220 216 217
0.0165086 -0.322223 -0.642 242 237 241
0.0177038 -0.321721 -0.641 246 236 244
0.0494057 -0.262998 -0.524 203 166 158
0.0578286 -0.265006 -0.528 183 148 142
0.100333 -0.302147 -0.602 113 97 107
0.10736 -0.309173 -0.616 119 101 113
0.131654 -0.325736 -0.649 86 99 151
0.139071 -0.325736 -0.649 173 178 207
0.147725 -0.325736 -0.649 168 171 186
0.172183 -0.325234 -0.648 193 197 224
0.209147 -0.323227 -0.644 239 238 252
0.2623 -0.323729 -0.645 208 214 236
0.265986 -0.323729 -0.645 191 198 226
0.285643 -0.323729 -0.645 254 254 255
0.394333 -0.326238 -0.65 192 196 223
0.42768 -0.325234 -0.648 182 177 197
0.394657 -0.286086 -0.57 140 96 87
0.379493 -0.267013 -0.532 140 95 90
0.3825 -0.2635 -0.525 147 97 90
0.383768 -0.262998 -0.524 150 100 91
0.386781 -0.26099 -0.52 153 103 94
0.397983 -0.257979 -0.514 163 111 100
0.405211 -0.256975 -0.512 163 114 100
0.419683 -0.257477 -0.513 166 117 102
0.424569 -0.257477 -0.513 160 108 94
0.446935 -0.257979 -0.514 135 92 76
0.451623 -0.258983 -0.516 137 93 80
0.453483 -0.259485 -0.517 134 90 77
-0.261077 -0.321934 -0.639 253 254 249
-0.130033 -0.292713 -0.581 80 83 90
-0.12276 -0.299263 -0.594 157 155 166
-0.12122 -0.30682 -0.609 227 225 228
-0.0712029 -0.321934 -0.639 155 154 152
-0.0152619 -0.322942 -0.641 217 213 214
-0.000611429 -0.323446 -0.642 224 220 221
0.0177038 -0.322942 -0.641 248 238 247
0.0494057 -0.263996 -0.524 201 164 156
0.08832 -0.290194 -0.576 121 101 113
0.164777 -0.326469 -0.648 190 195 215
0.179034 -0.325461 -0.646 143 163 213
0.213721 -0.32395 -0.643 240 239 255
0.27784 -0.324453 -0.644 254 253 255
0.286427 -0.324453 -0.644 254 252 255
0.287653 -0.324453 -0.644 254 251 255
0.295471 -0.324957 -0.645 184 185 205
0.326186 -0.324957 -0.645 235 242 252
0.34938 -0.325965 -0.647 166 170 195
0.358007 -0.325965 -0.647 102 114 162
0.380129 -0.326972 -0.649 132 167 221
0.401144 -0.326972 -0.649 126 141 180
0.425868 -0.326972 -0.649 184 182 196
0.385286 -0.262989 -0.522 150 101 94
0.394617 -0.259966 -0.516 159 109 100
0.415939 -0.25795 -0.512 166 117 102
0.41789 -0.25795 -0.512 164 115 100
0.424569 -0.258454 -0.513 163 111 97
0.440203 -0.258454 -0.513 146 100 85
0.444977 -0.258958 -0.514 140 97 81
0.46273 -0.263492 -0.523 133 91 77
-0.34452 -0.322646 -0.638 249 250 242
-0.260669 -0.322646 -0.638 253 253 251
-0.258238 -0.322646 -0.638 252 252 250
-0.121917 -0.303934 -0.601 226 223 232
-0.121576 -0.305957 -0.605 228 225 234
-0.0663343 -0.323151 -0.639 172 170 171
-0.0639 -0.323151 -0.639 175 173 174
-0.0579048 -0.323657 -0.64 185 183 184
-0.0310857 -0.323657 -0.64 207 205 206
0.0356705 -0.310509 -0.614 202 165 156
0.0338829 -0.268534 -0.531 207 170 161
0.0432514 -0.263983 -0.522 209 172 163
0.0682733 -0.27258 -0.539 162 126 128
0.0695571 -0.273591 -0.541 155 119 121
0.1005 -0.304946 -0.603 113 97 108
0.127354 -0.326691 -0.646 97 107 166
0.186129 -0.326186 -0.645 126 148 198
0.20056 -0.32568 -0.644 160 170 205
0.203923 -0.325174 -0.643 214 218 245
0.225969 -0.325174 -0.643 250 251 255
0.232092 -0.325174 -0.643 224 230 246
0.234542 -0.325174 -0.643 187 193 217
0.25576 -0.32568 -0.644 198 207 240
0.274959 -0.325174 -0.643 251 251 251
0.277409 -0.325174 -0.643 250 250 252
0.306053 -0.32568 -0.644 245 244 255
0.308507 -0.32568 -0.644 196 205 236
0.320773 -0.32568 -0.644 196 207 239
0.3311 -0.326186 -0.645 227 238 255
0.341457 -0.326691 -0.646 170 183 225
0.353762 -0.326691 -0.646 130 145 184
0.362936 -0.327197 -0.647 205 206 227
0.382011 -0.327703 -0.648 121 153 202
0.393727 -0.328209 -0.649 193 194 222
0.394963 -0.328209 -0.649 189 196 212
0.409797 -0.328209 -0.649 66 95 161
0.424631 -0.328209 -0.649 177 182 202
0.429485 -0.327197 -0.647 177 178 198
0.38628 -0.263983 -0.522 151 102 95
0.394617 -0.260949 -0.516 161 108 100
0.403261 -0.258926 -0.512 168 116 103
0.423591 -0.259431 -0.513 167 115 101
0.43225 -0.259937 -0.514 157 107 96
0.448786 -0.260443 -0.515 138 94 81
0.470171 -0.267017 -0.528 130 88 76
-0.13475 -0.30051 -0.592 74 76 88
-0.12403 -0.29645 -0.584 70 70 78
-0.0614657 -0.324369 -0.639 183 181 182
-0.0541629 -0.324369 -0.639 191 189 190
-0.0395571 -0.324369 -0.639 202 200 201
-0.00183143 -0.325384 -0.641 225 220 224
0.0402686 -0.264977 -0.522 207 170 161
0.0472286 -0.264977 -0.522 200 163 155
0.0589457 -0.26853 -0.529 177 142 138
0.102323 -0.308125 -0.607 115 97 109
0.127157 -0.327414 -0.645 108 119 173
0.133713 -0.32843 -0.647 95 107 155
0.157129 -0.32843 -0.647 187 188 206
0.16919 -0.327922 -0.646 185 193 216
0.182443 -0.327414 -0.645 141 157 193
0.191675 -0.326399 -0.643 180 194 231
0.233317 -0.326399 -0.643 174 179 201
0.24189 -0.326399 -0.643 223 228 250
0.262711 -0.326399 -0.643 255 252 255
0.31832 -0.326907 -0.644 186 201 244
0.353762 -0.327922 -0.646 102 124 173
0.378309 -0.328937 -0.648 111 136 193
0.399291 -0.328937 -0.648 191 194 211
0.400526 -0.328937 -0.648 180 185 214
0.415978 -0.329445 -0.649 30 65 131
0.43195 -0.32843 -0.647 176 177 207
0.433232 -0.323861 -0.638 86 106 165
0.426507 -0.312693 -0.616 123 103 105
0.393187 -0.262947 -0.518 158 105 97
0.395382 -0.262439 -0.517 161 108 100
0.3956 -0.261931 -0.516 161 108 100
0.401117 -0.260409 -0.513 162 112 101
0.414964 -0.259901 -0.512 167 118 104
0.423591 -0.260409 -0.513 165 116 101
0.43225 -0.260916 -0.514 157 107 96
0.457214 -0.263454 -0.519 133 91 79
0.464613 -0.265992 -0.524 129 89 79
-0.124929 -0.297052 -0.583 73 72 80
-0.121375 -0.307752 -0.604 232 229 238
-0.120822 -0.309281 -0.607 231 230 236
-0.07098 -0.324567 -0.637 167 165 166
-0.0346343 -0.325076 -0.638 206 204 205
-0.0115629 -0.325586 -0.639 220 216 217
0.00792381 -0.326095 -0.64 237 232 238
0.0326857 -0.269029 -0.528 204 166 155
0.0354324 -0.26699 -0.524 207 171 159
0.0373571 -0.266481 -0.523 210 172 161
0.0492171 -0.265971 -0.522 197 160 152
0.06232 -0.271067 -0.532 174 136 135
0.0634524 -0.271576 -0.533 173 133 134
0.0721476 -0.27769 -0.545 149 114 121
0.107709 -0.314886 -0.618 118 99 119
0.135968 -0.329152 -0.646 127 135 174
0.155655 -0.329152 -0.646 180 178 189
0.160577 -0.329152 -0.646 184 189 208
0.175071 -0.328643 -0.645 195 204 233
0.180933 -0.328133 -0.644 164 171 200
0.215498 -0.326605 -0.641 228 227 245
0.223171 -0.327114 -0.642 244 245 249
0.231731 -0.327114 -0.642 168 170 195
0.274531 -0.327114 -0.642 221 227 243
0.316601 -0.327624 -0.643 204 220 255
0.330587 -0.328133 -0.644 230 233 252
0.334267 -0.328133 -0.644 211 218 246
0.340929 -0.328643 -0.645 113 136 188
0.349529 -0.328643 -0.645 120 150 214
0.351986 -0.328643 -0.645 90 116 175
0.353214 -0.328643 -0.645 84 110 169
0.372795 -0.329662 -0.647 124 138 165
0.377725 -0.329662 -0.647 99 126 181
0.430717 -0.329662 -0.647 178 179 210
0.387659 -0.276162 -0.542 133 90 84
0.385823 -0.274124 -0.538 136 91 86
0.38541 -0.273105 -0.536 137 92 87
0.41026 -0.260367 -0.511 167 118 104
0.416914 -0.260876 -0.512 162 113 99
0.41984 -0.260876 -0.512 166 117 102
0.463727 -0.266481 -0.523 129 89 79
-0.259851 -0.325269 -0.636 252 252 250
-0.223509 -0.325269 -0.636 253 253 251
-0.193223 -0.325269 -0.636 253 253 253
-0.0624867 -0.32578 -0.637 184 183 181
-0.0492171 -0.326291 -0.638 197 196 194
-0.0212667 -0.326291 -0.638 215 211 212
-0.00912857 -0.326803 -0.639 219 217 218
-0.00182857 -0.327314 -0.64 226 221 225
0.0304552 -0.277194 -0.542 206 170 158
0.03168 -0.270034 -0.528 203 167 155
0.0451533 -0.266454 -0.521 206 170 158
0.0471381 -0.266454 -0.521 199 162 154
0.0481305 -0.266454 -0.521 199 162 154
0.0524 -0.267989 -0.524 193 158 152
0.0556057 -0.269011 -0.526 186 151 147
0.0735886 -0.280263 -0.548 140 113 122
0.139443 -0.329871 -0.645 179 181 206
0.140671 -0.329871 -0.645 181 183 208
0.151964 -0.330383 -0.646 188 188 200
0.160329 -0.329871 -0.645 189 195 211
0.165243 -0.329871 -0.645 194 196 221
0.188931 -0.328337 -0.642 148 164 198
0.193521 -0.327826 -0.641 214 219 249
0.196269 -0.328337 -0.642 224 228 255
0.206951 -0.327826 -0.641 240 237 255
0.242737 -0.328337 -0.642 209 214 236
0.258634 -0.328337 -0.642 252 252 252
0.264336 -0.327826 -0.641 249 247 250
0.279423 -0.328337 -0.642 236 243 255
0.280646 -0.328337 -0.642 202 209 225
0.287983 -0.328337 -0.642 199 206 234
0.316601 -0.328849 -0.643 195 209 248
0.31905 -0.328849 -0.643 170 183 225
0.331298 -0.328849 -0.643 232 234 255
0.342853 -0.32936 -0.644 88 123 179
0.34408 -0.32936 -0.644 95 129 190
0.360586 -0.329871 -0.645 207 213 237
0.388215 -0.330383 -0.646 180 192 214
0.39621 -0.330894 -0.647 192 196 223
0.428252 -0.330894 -0.647 176 177 205
0.436346 -0.326803 -0.639 45 78 147
0.39052 -0.27924 -0.546 131 87 84
0.402094 -0.262363 -0.513 166 117 103
0.408313 -0.26134 -0.511 170 121 107
0.445089 -0.262363 -0.513 136 90 77
0.46284 -0.266966 -0.522 132 89 80
0.4665 -0.2685 -0.525 131 88 79
-0.130924 -0.302867 -0.59 76 77 82
-0.0708686 -0.32648 -0.636 173 171 174
-0.0661267 -0.326993 -0.637 179 178 176
-0.0552067 -0.326993 -0.637 194 190 189
-0.0515667 -0.326993 -0.637 197 193 192
-0.0406467 -0.326993 -0.637 202 200 201
-0.0370067 -0.326993 -0.637 205 203 204
-0.0285581 -0.327507 -0.638 211 207 208
-0.0175933 -0.326993 -0.637 217 213 214
-0.00789905 -0.327507 -0.638 220 218 219
-0.00182571 -0.32802 -0.639 227 222 226
0.0224467 -0.326993 -0.637 245 234 240
0.02366 -0.326993 -0.637 211 200 206
0.0471381 -0.267447 -0.521 193 159 149
0.1333 -0.3311 -0.645 152 154 179
0.139443 -0.3311 -0.645 158 164 198
0.193521 -0.329047 -0.641 208 213 242
0.20451 -0.329047 -0.641 169 173 202
0.236254 -0.329047 -0.641 229 225 242
0.24358 -0.329047 -0.641 189 199 234
0.263924 -0.328533 -0.64 254 252 255
0.293639 -0.329047 -0.641 236 241 247
0.303407 -0.329047 -0.641 247 248 250
0.30829 -0.329047 -0.641 185 201 237
0.334972 -0.330073 -0.643 220 226 252
0.338647 -0.330073 -0.643 141 168 215
0.350213 -0.330587 -0.644 67 97 170
0.357573 -0.330587 -0.644 200 213 247
0.370989 -0.331613 -0.646 170 187 215
0.398059 -0.331613 -0.646 166 170 199
0.410999 -0.332127 -0.647 31 60 138
0.418393 -0.332127 -0.647 77 106 166
0.392277 -0.280793 -0.547 129 85 84
0.393187 -0.265907 -0.518 157 108 94
0.394397 -0.265393 -0.517 156 107 93
0.40092 -0.263853 -0.514 169 117 104
0.406367 -0.262313 -0.511 165 116 102
0.429454 -0.26334 -0.513 159 108 91
0.433363 -0.26334 -0.513 158 105 89
0.439226 -0.26334 -0.513 158 101 84
0.499049 -0.282847 -0.551 131 93 84
-0.13002 -0.304506 -0.591 80 81 86
-0.0515667 -0.328207 -0.637 196 195 193
-0.0308914 -0.327691 -0.636 209 207 208
-0.0248733 -0.328207 -0.637 214 210 211
-0.0212333 -0.328207 -0.637 216 212 213
-0.0188067 -0.328207 -0.637 217 213 214
-0.000607619 -0.328722 -0.638 228 223 227
0.0187771 -0.327691 -0.636 248 243 250
0.0306743 -0.272046 -0.528 204 171 156
0.0342371 -0.268439 -0.521 205 172 155
0.0430857 -0.267924 -0.52 204 168 154
0.0481305 -0.268439 -0.521 195 161 152
0.0791829 -0.287503 -0.558 129 109 121
0.0956057 -0.306051 -0.594 118 100 114
0.125538 -0.331298 -0.643 127 141 180
0.213943 -0.329752 -0.64 229 230 250
0.221257 -0.329752 -0.64 200 199 217
0.254966 -0.330783 -0.642 184 195 225
0.273676 -0.329752 -0.64 166 179 221
0.29486 -0.330268 -0.641 254 255 255
0.298523 -0.330268 -0.641 255 255 255
0.3205 -0.330268 -0.641 170 188 228
0.339343 -0.330783 -0.642 139 163 207
0.355793 -0.331298 -0.643 202 209 235
0.366729 -0.332329 -0.645 204 208 235
0.367957 -0.332329 -0.645 198 203 233
0.40175 -0.332844 -0.646 83 104 161
0.409133 -0.332844 -0.646 32 66 140
0.418977 -0.332844 -0.646 63 86 136
0.420208 -0.332844 -0.646 68 91 141
0.440686 -0.329752 -0.64 29 62 131
0.393714 -0.267924 -0.52 162 108 96
0.399941 -0.264832 -0.514 164 114 103
0.418865 -0.263802 -0.512 167 115 102
0.436294 -0.264317 -0.513 155 102 88
-0.12933 -0.306666 -0.593 84 85 90
-0.124602 -0.306149 -0.592 80 79 87
-0.0636 -0.328903 -0.636 184 184 182
-0.0587543 -0.328903 -0.636 191 191 189
-0.0442171 -0.328903 -0.636 202 200 201
-0.0429381 -0.328386 -0.635 203 201 202
-0.0368905 -0.328386 -0.635 205 203 204
-0.0151429 -0.328903 -0.636 219 215 216
-0.000606667 -0.32942 -0.637 228 223 227
0.0139314 -0.328903 -0.636 244 238 242
0.0212 -0.328903 -0.636 244 235 240
0.029781 -0.274086 -0.53 206 170 154
0.0341714 -0.268914 -0.52 207 171 157
0.0410257 -0.268397 -0.519 204 168 154
0.0709791 -0.281326 -0.544 143 113 121
0.0791829 -0.288566 -0.558 129 106 122
0.0973886 -0.309251 -0.598 118 100 116
0.101 -0.313389 -0.606 118 100 116
0.129413 -0.33304 -0.644 183 186 205
0.139227 -0.33304 -0.644 86 96 132
0.158607 -0.332523 -0.643 128 127 143
0.168405 -0.332523 -0.643 177 183 217
0.170854 -0.332523 -0.643 200 205 225
0.211174 -0.330454 -0.639 210 216 240
0.235886 -0.330971 -0.64 249 243 255
0.239543 -0.330971 -0.64 247 248 252
0.247243 -0.331489 -0.641 209 218 249
0.252127 -0.331489 -0.641 201 215 244
0.272031 -0.330454 -0.639 169 178 207
0.278552 -0.330971 -0.64 180 194 233
0.28221 -0.330971 -0.64 171 184 226
0.298057 -0.330971 -0.64 254 254 254
0.30781 -0.330971 -0.64 188 201 245
0.326605 -0.331489 -0.641 238 237 251
0.350349 -0.332006 -0.642 84 117 186
0.359468 -0.332523 -0.643 181 190 221
0.364933 -0.33304 -0.644 201 207 231
0.4171 -0.333557 -0.645 59 89 143
0.424471 -0.333557 -0.645 124 138 173
0.426929 -0.333557 -0.645 161 168 194
0.439617 -0.332006 -0.642 18 65 137
0.441374 -0.331489 -0.641 38 75 146
0.390514 -0.277189 -0.536 136 93 87
0.400719 -0.266329 -0.515 164 115 101
0.401899 -0.265811 -0.514 166 117 103
0.404236 -0.264777 -0.512 168 119 104
0.405211 -0.264777 -0.512 167 118 103
0.423741 -0.264777 -0.512 163 109 97
0.433363 -0.265294 -0.513 160 107 91
0.440203 -0.265294 -0.513 158 105 89
0.442157 -0.265294 -0.513 145 97 85
-0.123891 -0.308314 -0.594 75 74 82
-0.119469 -0.314543 -0.606 164 161 168
-0.0743857 -0.329595 -0.635 176 174 175
-0.0623886 -0.330114 -0.636 188 188 186
-0.0284238 -0.329595 -0.635 214 210 211
-0.00787429 -0.330114 -0.636 221 219 220
0.000605714 -0.330114 -0.636 229 224 228
0.00181714 -0.330114 -0.636 232 227 231
0.0647095 -0.27769 -0.535 162 122 122
0.101 -0.314543 -0.606 117 100 116
0.102154 -0.314543 -0.606 117 100 116
0.131867 -0.334267 -0.644 184 186 207
0.134111 -0.333748 -0.643 182 187 216
0.140235 -0.333748 -0.643 98 108 144
0.162281 -0.333748 -0.643 158 162 187
0.173034 -0.333229 -0.642 166 168 183
0.177649 -0.33271 -0.641 176 180 205
0.188049 -0.331671 -0.639 166 182 216
0.20874 -0.331671 -0.639 181 191 227
0.230649 -0.331671 -0.639 238 245 251
0.235886 -0.33219 -0.64 253 248 255
0.246857 -0.33219 -0.64 193 202 241
0.250514 -0.33219 -0.64 191 207 243
0.318781 -0.33219 -0.64 168 187 230
0.344919 -0.33271 -0.641 77 107 179
0.361917 -0.333748 -0.643 172 178 204
0.398053 -0.334267 -0.644 109 122 174
0.42872 -0.334267 -0.644 176 182 206
0.437307 -0.334267 -0.644 64 94 158
0.390984 -0.273538 -0.527 146 102 93
0.401899 -0.26679 -0.514 166 114 100
-0.137686 -0.317781 -0.61 91 92 97
-0.118705 -0.316739 -0.608 104 103 108
-0.0766838 -0.330284 -0.634 177 175 176
-0.065919 -0.330805 -0.635 185 185 183
-0.0647095 -0.330805 -0.635 185 185 183
-0.0392476 -0.330284 -0.634 207 205 206
-0.0368324 -0.330284 -0.634 207 205 206
-0.0102971 -0.331326 -0.636 222 218 219
0.00302381 -0.330805 -0.635 234 229 233
0.0078619 -0.330805 -0.635 238 233 237
0.0286086 -0.274542 -0.527 206 168 155
0.0522 -0.271937 -0.522 189 152 144
0.0855276 -0.297985 -0.572 120 102 116
0.0991867 -0.313613 -0.602 116 99 115
0.140235 -0.334972 -0.643 113 121 157
0.148809 -0.334972 -0.643 174 176 199
0.165697 -0.334451 -0.642 199 199 225
0.177371 -0.33341 -0.64 154 160 186
0.202654 -0.332889 -0.639 222 226 251
0.239169 -0.332889 -0.639 221 223 235
0.248906 -0.332889 -0.639 183 197 244
0.259453 -0.332368 -0.638 250 251 255
0.266745 -0.332368 -0.638 250 251 255
0.272821 -0.332368 -0.638 184 199 238
0.284203 -0.332889 -0.639 146 166 216
0.289071 -0.332889 -0.639 237 244 255
0.290289 -0.332889 -0.639 245 252 255
0.295157 -0.332889 -0.639 254 252 253
0.320717 -0.332889 -0.639 182 198 234
0.343698 -0.33393 -0.641 84 112 175
0.404187 -0.335493 -0.644 62 89 136
0.437852 -0.334972 -0.643 56 94 156
0.444687 -0.331847 -0.637 65 96 160
0.445008 -0.330284 -0.634 167 168 189
0.400793 -0.288087 -0.553 125 88 82
0.398213 -0.285482 -0.548 126 89 83
0.393248 -0.274021 -0.526 148 101 91
0.40129 -0.269332 -0.517 163 111 97
0.419993 -0.266207 -0.511 157 105 91
0.428617 -0.266728 -0.512 163 110 94
0.431409 -0.267249 -0.513 154 101 85
0.455452 -0.269332 -0.517 132 88 77
0.461953 -0.271416 -0.521 128 88 78
-0.128357 -0.313191 -0.599 90 91 96
-0.0163286 -0.332014 -0.635 219 215 216
-0.0078619 -0.332014 -0.635 223 222 220
-0.00302381 -0.332014 -0.635 229 225 226
0.0186886 -0.330969 -0.633 238 227 231
0.0198943 -0.330969 -0.633 224 200 196
0.0359438 -0.270317 -0.517 209 172 156
0.0398829 -0.270317 -0.517 209 172 156
0.0671219 -0.281297 -0.538 158 119 120
0.119513 -0.33306 -0.637 177 189 215
0.155914 -0.335674 -0.642 161 171 207
0.192615 -0.333583 -0.638 197 206 237
0.201122 -0.333583 -0.638 233 233 255
0.204768 -0.333583 -0.638 181 190 221
0.207198 -0.333583 -0.638 150 164 201
0.235149 -0.333583 -0.638 252 245 253
0.237579 -0.333583 -0.638 243 245 255
0.24487 -0.333583 -0.638 178 190 232
0.247689 -0.334106 -0.639 166 182 231
0.272821 -0.333583 -0.638 201 218 248
0.280112 -0.333583 -0.638 137 156 212
0.294695 -0.333583 -0.638 245 244 250
0.29591 -0.333583 -0.638 253 252 255
0.311709 -0.333583 -0.638 141 164 218
0.329752 -0.334629 -0.64 151 158 187
0.330971 -0.334629 -0.64 151 158 187
0.350476 -0.334629 -0.64 70 100 173
0.354687 -0.335151 -0.641 112 138 187
0.357129 -0.335151 -0.641 138 148 183
0.37539 -0.336197 -0.643 71 112 192
0.428054 -0.336197 -0.643 179 182 197
0.431729 -0.336197 -0.643 160 163 182
0.438932 -0.335151 -0.641 50 88 151
0.445385 -0.333583 -0.638 68 102 166
0.39811 -0.284957 -0.545 125 90 84
0.395334 -0.280774 -0.537 129 91 82
0.409112 -0.267703 -0.512 161 112 97
0.411063 -0.267703 -0.512 160 111 96
0.42179 -0.267703 -0.512 159 106 90
0.440203 -0.268226 -0.513 154 101 87
-0.13376 -0.319055 -0.608 93 94 99
-0.0669171 -0.332174 -0.633 187 185 186
-0.0367743 -0.332174 -0.633 208 206 207
-0.0163029 -0.332699 -0.634 220 216 217
-0.0138876 -0.332699 -0.634 222 218 219
-0.0102648 -0.332699 -0.634 224 220 221
0.03784 -0.270777 -0.516 203 168 149
0.0437371 -0.270777 -0.516 203 165 152
0.0521 -0.273401 -0.521 187 150 141
0.05984 -0.277074 -0.528 169 131 128
0.0622029 -0.278649 -0.531 166 128 125
0.07228 -0.28652 -0.546 139 110 115
0.0986924 -0.314332 -0.599 118 101 117
0.156892 -0.336372 -0.641 121 139 185
0.158113 -0.336372 -0.641 105 119 166
0.167881 -0.336372 -0.641 204 206 227
0.19383 -0.334798 -0.638 217 226 255
0.204768 -0.334798 -0.638 197 204 233
0.2275 -0.334273 -0.637 241 244 249
0.233933 -0.334798 -0.638 252 247 254
0.251767 -0.334273 -0.637 181 199 239
0.259047 -0.334273 -0.637 251 250 255
0.262687 -0.334273 -0.637 252 251 249
0.276033 -0.334273 -0.637 148 169 214
0.291807 -0.334273 -0.637 195 201 217
0.3003 -0.334273 -0.637 210 221 241
0.30394 -0.334273 -0.637 166 181 220
0.340191 -0.335323 -0.639 85 114 172
0.343843 -0.335323 -0.639 75 102 171
0.349929 -0.335323 -0.639 77 109 184
0.374806 -0.336897 -0.642 78 119 198
0.377251 -0.336897 -0.642 55 97 171
0.378474 -0.336897 -0.642 64 110 188
0.390094 -0.336372 -0.641 192 198 220
0.40111 -0.337422 -0.643 138 154 180
0.432953 -0.337422 -0.643 105 128 172
0.4466 -0.334798 -0.638 136 153 183
0.395707 -0.279173 -0.532 125 92 83
0.408137 -0.268678 -0.512 165 113 99
0.420815 -0.268678 -0.512 155 104 87
0.436294 -0.269203 -0.513 157 104 88
0.444111 -0.269203 -0.513 148 99 85
0.4815 -0.280748 -0.535 130 86 77
-0.0728305 -0.332853 -0.632 182 180 181
-0.0596829 -0.33338 -0.633 191 191 189
-0.0572714 -0.33338 -0.633 195 195 193
-0.0403914 -0.33338 -0.633 208 204 205
-0.03798 -0.33338 -0.633 210 206 207
0.0282829 -0.274393 -0.521 208 171 155
0.0300933 -0.272813 -0.518 206 168 155
0.0388229 -0.27176 -0.516 206 168 155
0.0541886 -0.27492 -0.522 182 145 139
0.0563924 -0.275973 -0.524 174 139 135
0.0610762 -0.279133 -0.53 169 129 129
0.159086 -0.337067 -0.64 73 93 146
0.178967 -0.335487 -0.637 150 171 216
0.189887 -0.335487 -0.637 154 167 211
0.237207 -0.335487 -0.637 244 246 255
0.268331 -0.33496 -0.636 214 224 251
0.305153 -0.335487 -0.637 153 172 215
0.369338 -0.337593 -0.641 153 155 176
0.38399 -0.337593 -0.641 98 138 200
0.392536 -0.337593 -0.641 201 201 225
0.420051 -0.33812 -0.642 162 181 224
0.437711 -0.337593 -0.641 84 119 173
0.438248 -0.337067 -0.64 85 116 171
0.447623 -0.33496 -0.636 179 171 184
0.448419 -0.332853 -0.632 163 157 167
0.39886 -0.283873 -0.539 121 90 85
0.399206 -0.27492 -0.522 157 104 96
0.422766 -0.269653 -0.512 156 103 87
0.426667 -0.269653 -0.512 159 106 92
0.430568 -0.269653 -0.512 159 106 90
-0.122179 -0.321371 -0.608 101 102 104
-0.0644038 -0.334057 -0.632 192 190 191
-0.0355124 -0.334057 -0.632 211 207 208
-0.0306971 -0.334057 -0.632 214 210 211
-0.0282895 -0.334057 -0.632 215 213 214
-0.0186886 -0.334586 -0.633 218 214 215
-0.01266 -0.334586 -0.633 222 218 219
0.0436524 -0.272214 -0.515 203 165 152
0.0610762 -0.280143 -0.53 169 129 129
0.08262 -0.2997 -0.567 120 102 118
0.090659 -0.308686 -0.584 118 100 116
0.138362 -0.338286 -0.64 174 189 210
0.155429 -0.338286 -0.64 76 102 151
0.177753 -0.3367 -0.637 139 164 204
0.222297 -0.336171 -0.636 188 202 237
0.250553 -0.3367 -0.637 167 188 243
0.28408 -0.336171 -0.636 140 167 214
0.305886 -0.336171 -0.636 143 161 201
0.335487 -0.3367 -0.637 189 202 244
0.380952 -0.338286 -0.64 86 125 194
0.393143 -0.338286 -0.64 198 199 219
0.420051 -0.339343 -0.642 142 159 211
0.401194 -0.275914 -0.522 157 105 92
0.41071 -0.271686 -0.514 161 112 95
0.435317 -0.271157 -0.513 155 102 86
0.440203 -0.271157 -0.513 150 97 79
0.45271 -0.272214 -0.515 137 91 78
1.118 -0.324014 -0.613 201 203 190
-0.0739171 -0.33473 -0.631 185 183 184
-0.057181 -0.335261 -0.632 196 196 194
-0.0451429 -0.335261 -0.632 205 203 204
-0.0415314 -0.335261 -0.632 208 206 207
-0.0246781 -0.335261 -0.632 216 214 215
-0.0235114 -0.335791 -0.633 216 214 215
-0.0198943 -0.335791 -0.633 216 214 215
-0.00783714 -0.335791 -0.633 225 223 224
-0.00542571 -0.335791 -0.633 226 224 225
0.00661048 -0.33473 -0.631 241 236 242
0.0396514 -0.272665 -0.514 204 167 149
0.047761 -0.274256 -0.517 192 155 146
0.0487457 -0.274256 -0.517 190 153 144
0.0563924 -0.27797 -0.524 175 137 134
0.060961 -0.280622 -0.529 170 130 130
0.0684 -0.286457 -0.54 150 115 121
0.0842905 -0.302902 -0.571 120 102 118
0.09352 -0.31192 -0.588 118 101 119
0.122323 -0.338974 -0.639 138 153 192
0.12861 -0.339505 -0.64 171 176 206
0.134494 -0.338974 -0.639 188 194 208
0.153969 -0.338974 -0.639 60 89 147
0.16345 -0.338444 -0.638 197 202 222
0.170473 -0.337913 -0.637 207 209 222
0.177753 -0.337913 -0.637 139 164 204
0.18232 -0.337383 -0.636 115 142 187
0.195338 -0.336852 -0.635 235 235 255
0.247737 -0.337383 -0.636 151 177 226
0.248949 -0.337383 -0.636 148 168 219
0.2667 -0.336852 -0.635 167 176 215
0.287714 -0.337383 -0.636 198 209 255
0.34209 -0.338444 -0.638 72 101 171
0.366324 -0.339505 -0.64 183 185 200
0.368762 -0.339505 -0.64 156 158 173
0.38766 -0.338974 -0.639 193 199 215
0.401083 -0.340035 -0.641 52 91 148
0.405967 -0.340035 -0.641 105 134 190
0.437563 -0.338974 -0.639 120 147 200
0.439997 -0.338974 -0.639 113 139 198
0.401733 -0.27797 -0.524 149 102 84
0.422766 -0.271604 -0.512 154 103 86
0.444221 -0.271604 -0.512 147 98 83
0.455554 -0.273726 -0.516 136 92 79
0.468606 -0.27797 -0.524 128 91 82
-0.0798 -0.3354 -0.63 182 180 181
-0.0762 -0.3354 -0.63 185 183 184
-0.0390619 -0.335932 -0.631 209 207 208
-0.0366581 -0.335932 -0.631 209 207 208
0.0138 -0.3354 -0.63 239 233 235
0.0327981 -0.273644 -0.514 204 167 151
0.0766429 -0.295471 -0.555 123 105 121
0.0875257 -0.307716 -0.578 120 101 120
0.0903486 -0.309846 -0.582 118 101 119
0.12354 -0.340191 -0.639 136 155 198
0.136929 -0.340191 -0.639 182 187 206
0.143014 -0.340191 -0.639 106 129 179
0.144231 -0.340191 -0.639 83 106 156
0.154943 -0.339659 -0.638 49 80 144
0.157373 -0.339659 -0.638 109 134 191
0.162234 -0.339659 -0.638 197 203 219
0.164665 -0.339659 -0.638 208 207 225
0.170473 -0.339127 -0.637 203 205 220
0.201386 -0.338062 -0.635 217 224 250
0.224367 -0.338062 -0.635 188 198 233
0.234411 -0.338594 -0.636 200 203 220
0.239257 -0.338594 -0.636 168 183 224
0.243719 -0.338062 -0.635 141 168 213
0.280005 -0.338062 -0.635 146 159 211
0.302509 -0.33753 -0.634 165 178 212
0.31629 -0.338062 -0.635 142 168 219
0.338594 -0.338594 -0.636 90 117 172
0.356672 -0.339659 -0.638 205 214 243
0.369403 -0.340191 -0.639 113 144 190
0.371837 -0.340191 -0.639 95 131 191
0.376706 -0.340191 -0.639 108 147 204
0.392529 -0.340191 -0.639 162 160 165
0.402895 -0.340724 -0.64 105 136 191
0.407771 -0.340724 -0.64 65 88 138
0.41021 -0.340724 -0.64 154 174 224
0.421181 -0.340724 -0.64 169 182 214
0.439997 -0.340191 -0.639 130 156 213
0.40612 -0.29068 -0.546 119 90 86
0.402959 -0.278435 -0.523 145 101 88
0.4056 -0.276838 -0.52 155 103 90
0.405809 -0.276306 -0.519 157 105 92
0.431673 -0.272047 -0.511 152 103 88
0.44227 -0.272579 -0.512 146 97 82
0.445196 -0.272579 -0.512 144 97 81
0.46028 -0.275773 -0.518 132 90 76
0.49751 -0.291212 -0.547 127 93 83
1.11734 -0.325817 -0.612 201 203 189
-0.0738 -0.3366 -0.63 186 184 185
-0.01262 -0.337134 -0.631 227 223 224
-0.00420667 -0.337134 -0.631 232 228 229
0.0445467 -0.274623 -0.514 200 162 149
0.0684 -0.288514 -0.54 144 114 124
0.0988571 -0.320571 -0.6 118 103 122
0.122323 -0.341409 -0.639 138 156 202
0.14279 -0.340874 -0.638 119 143 191
0.175051 -0.339806 -0.636 125 143 191
0.19503 -0.338737 -0.634 231 236 255
0.243335 -0.338737 -0.634 140 162 209
0.27111 -0.338737 -0.634 189 204 243
0.282424 -0.339271 -0.635 136 152 203
0.284843 -0.339271 -0.635 183 205 255
0.287262 -0.339271 -0.635 224 238 255
0.327176 -0.339271 -0.635 231 236 255
0.337383 -0.339806 -0.636 98 124 181
0.338594 -0.339806 -0.636 97 123 180
0.400457 -0.341943 -0.64 58 91 145
0.447113 -0.34034 -0.637 175 181 193
0.404269 -0.281034 -0.526 141 99 87
0.447147 -0.273554 -0.512 141 95 79
-0.0210333 -0.338336 -0.631 219 217 218
-0.0174 -0.3378 -0.63 220 218 219
-0.0114 -0.3378 -0.63 227 223 224
0.0465952 -0.276138 -0.515 195 157 146
0.0812524 -0.302948 -0.565 121 103 119
0.0827657 -0.304556 -0.568 121 103 119
0.100667 -0.323859 -0.604 118 103 122
0.115984 -0.338336 -0.631 129 150 197
0.119138 -0.340481 -0.635 119 141 190
0.13793 -0.34209 -0.638 184 189 209
0.155913 -0.341553 -0.637 115 140 206
0.182954 -0.339945 -0.634 98 130 191
0.184162 -0.339945 -0.634 105 140 198
0.196238 -0.339945 -0.634 223 225 248
0.256214 -0.339409 -0.633 239 246 255
0.278356 -0.339945 -0.634 136 152 204
0.294055 -0.339945 -0.634 243 248 252
0.297678 -0.339945 -0.634 238 245 253
0.30806 -0.339409 -0.633 148 174 225
0.323038 -0.339945 -0.634 229 234 255
0.333224 -0.340481 -0.635 128 141 175
0.366394 -0.34209 -0.638 186 185 203
0.405333 -0.343162 -0.64 165 184 224
0.419962 -0.343162 -0.64 156 170 205
0.432017 -0.34209 -0.638 129 144 177
0.4459 -0.341553 -0.637 155 158 175
0.40527 -0.282036 -0.526 138 96 84
0.407581 -0.278819 -0.52 158 104 92
0.412309 -0.276674 -0.516 155 103 89
0.429592 -0.27453 -0.512 152 100 86
0.431543 -0.27453 -0.512 153 101 87
0.45752 -0.276674 -0.516 135 93 77
0.485463 -0.287398 -0.536 130 92 81
-0.0676924 -0.338462 -0.629 193 191 192
-0.0617019 -0.338462 -0.629 195 195 193
-0.0473248 -0.338462 -0.629 205 204 202
-0.0437305 -0.338462 -0.629 209 207 208
0.0297448 -0.275505 -0.512 211 172 157
0.0586114 -0.283038 -0.526 168 127 131
0.0812524 -0.304024 -0.565 120 103 119
0.0870714 -0.309405 -0.575 120 103 119
0.0972257 -0.321243 -0.597 116 102 119
0.100667 -0.32501 -0.604 118 104 121
0.117557 -0.340614 -0.633 104 129 183
0.122131 -0.343305 -0.638 122 145 197
0.14014 -0.342767 -0.637 160 175 208
0.206453 -0.340076 -0.632 141 156 199
0.212472 -0.340076 -0.632 129 149 199
0.220043 -0.340614 -0.633 152 166 215
0.245363 -0.340614 -0.633 139 164 220
0.252198 -0.340076 -0.632 172 190 238
0.2743 -0.340614 -0.633 148 164 213
0.277917 -0.340614 -0.633 158 173 228
0.304443 -0.340614 -0.633 160 183 225
0.305649 -0.340614 -0.633 168 187 230
0.314089 -0.340614 -0.633 154 179 219
0.349497 -0.342229 -0.636 90 126 186
0.36218 -0.342767 -0.637 205 206 226
0.38038 -0.342767 -0.637 123 145 194
0.402266 -0.343843 -0.639 145 164 197
0.42174 -0.343843 -0.639 159 170 200
0.448129 -0.34169 -0.635 154 159 178
0.453951 -0.340614 -0.633 80 90 125
0.4075 -0.2825 -0.525 146 96 85
0.410552 -0.27981 -0.52 150 98 85
0.440433 -0.274967 -0.511 153 101 87
0.444327 -0.274967 -0.511 139 90 75
0.458503 -0.277657 -0.516 134 90 77
0.470602 -0.281962 -0.524 133 91 77
0.4734 -0.283038 -0.526 131 89 75
-0.0759581 -0.33912 -0.628 188 188 186
-0.0711733 -0.33912 -0.628 192 191 189
-0.0400724 -0.33912 -0.628 211 209 210
-0.0173724 -0.33966 -0.629 222 220 221
0.0214181 -0.28242 -0.523 203 166 148
0.0355267 -0.27594 -0.511 206 167 152
0.0374733 -0.27594 -0.511 204 165 150
0.0597267 -0.28458 -0.527 165 126 131
0.0823286 -0.3051 -0.565 119 102 120
0.0954448 -0.32022 -0.593 117 103 120
0.11895 -0.34236 -0.634 101 132 189
0.12194 -0.34398 -0.637 123 149 206
0.138927 -0.34398 -0.637 118 133 176
0.168994 -0.34344 -0.636 143 144 165
0.18146 -0.34182 -0.633 90 120 180
0.182377 -0.34128 -0.632 87 117 177
0.208861 -0.34128 -0.632 132 148 197
0.228483 -0.34182 -0.633 247 247 255
0.238129 -0.34182 -0.633 168 187 227
0.246569 -0.34182 -0.633 153 178 232
0.252198 -0.34128 -0.632 172 190 236
0.258217 -0.34128 -0.632 247 252 255
0.263449 -0.34182 -0.633 252 255 255
0.287563 -0.34182 -0.633 193 200 226
0.309266 -0.34182 -0.633 173 191 237
0.367669 -0.34344 -0.636 152 159 178
0.37674 -0.34398 -0.637 125 155 207
0.3913 -0.34398 -0.637 190 198 221
0.42108 -0.34452 -0.638 98 114 147
0.44226 -0.34398 -0.637 74 106 155
0.450548 -0.3429 -0.635 84 93 124
0.41035 -0.28134 -0.521 147 95 82
0.414893 -0.27972 -0.518 149 97 83
0.415077 -0.27918 -0.517 147 98 83
0.421319 -0.2781 -0.515 152 103 88
0.42148 -0.27756 -0.514 151 102 87
0.437513 -0.27594 -0.511 152 103 88
0.438487 -0.27594 -0.511 152 103 88
0.44238 -0.27594 -0.511 144 92 78
0.444327 -0.27594 -0.511 140 91 76
0.4453 -0.27594 -0.511 143 94 79
0.452906 -0.27702 -0.513 140 94 79
-0.0806143 -0.339774 -0.627 185 185 183
-0.0723695 -0.340316 -0.628 192 191 189
-0.056819 -0.340316 -0.628 202 201 199
-0.0472495 -0.340316 -0.628 207 206 204
-0.0113638 -0.340316 -0.628 227 225 226
-0.00777524 -0.340316 -0.628 225 230 233
0.02774 -0.276913 -0.511 208 169 154
0.0287133 -0.276913 -0.511 211 172 157
0.0315714 -0.276371 -0.51 207 170 154
0.0384467 -0.276913 -0.511 203 166 150
0.0540848 -0.282332 -0.521 172 134 131
0.0551829 -0.282874 -0.522 168 130 127
0.153005 -0.34411 -0.635 48 75 146
0.209732 -0.341942 -0.631 129 146 200
0.216944 -0.341942 -0.631 135 152 208
0.219348 -0.341942 -0.631 166 181 238
0.223307 -0.342484 -0.632 227 240 255
0.229326 -0.342484 -0.632 247 252 255
0.242568 -0.342484 -0.632 163 186 230
0.260625 -0.342484 -0.632 246 254 255
0.322019 -0.342484 -0.632 229 231 254
0.330969 -0.343026 -0.633 166 176 212
0.338737 -0.343568 -0.634 197 215 255
0.356205 -0.34411 -0.635 208 212 239
0.412573 -0.345735 -0.638 183 190 219
0.4452 -0.344651 -0.636 154 160 186
0.410914 -0.292629 -0.54 121 86 80
0.411137 -0.282874 -0.522 141 93 81
