ply
format ascii 1.0
comment Created by Open3D
element vertex 1294
property double x
property double y
property double z
property uchar red
property uchar green
property uchar blue
end_header
0.4092 -0.369048 -0.62 179 185 211
0.455991 -0.369643 -0.621 156 164 200
0.428066 -0.319643 -0.537 157 100 83
0.442386 -0.308929 -0.519 163 108 88
0.464723 -0.31131 -0.523 153 106 86
0.470394 -0.313095 -0.526 155 107 87
0.478911 -0.316071 -0.531 152 104 84
0.486484 -0.319048 -0.536 148 105 86
0.0786029 -0.269311 -0.451 194 154 146
0.0812438 -0.263937 -0.442 197 154 145
0.0848733 -0.262146 -0.439 202 160 148
0.0888514 -0.261549 -0.438 204 161 152
0.108129 -0.259757 -0.435 173 132 110
0.139659 -0.271103 -0.454 106 78 77
0.141143 -0.272297 -0.456 102 77 80
0.14564 -0.27588 -0.462 94 73 78
0.152963 -0.281254 -0.471 95 74 79
0.229695 -0.370229 -0.62 239 242 255
0.237962 -0.370229 -0.62 226 232 248
0.252133 -0.370229 -0.62 167 177 213
0.274571 -0.370229 -0.62 205 213 249
0.302914 -0.370229 -0.62 181 186 215
0.32299 -0.370229 -0.62 206 211 230
0.343067 -0.370229 -0.62 108 127 170
0.348971 -0.370229 -0.62 184 190 214
0.363729 -0.370826 -0.621 192 198 224
0.373792 -0.371423 -0.622 128 150 191
0.39621 -0.370229 -0.62 182 184 209
0.404476 -0.370229 -0.62 125 129 154
0.406838 -0.370229 -0.62 175 179 206
0.418648 -0.370229 -0.62 147 153 177
0.450077 -0.370826 -0.621 117 117 153
0.461162 -0.370229 -0.62 174 173 191
0.440786 -0.334997 -0.561 129 96 87
0.427923 -0.318277 -0.533 161 108 90
0.427329 -0.317083 -0.531 161 108 90
0.430678 -0.312903 -0.524 163 108 88
0.437144 -0.311111 -0.521 160 105 85
0.440267 -0.310514 -0.52 163 111 90
0.44548 -0.30932 -0.518 154 102 81
0.454249 -0.309917 -0.519 151 100 79
0.459969 -0.311111 -0.521 149 101 81
0.461846 -0.311709 -0.522 149 102 82
0.463727 -0.312306 -0.523 150 103 83
0.0804019 -0.264779 -0.442 198 155 146
0.0880171 -0.262383 -0.438 204 160 151
0.0903133 -0.261784 -0.437 201 157 148
0.131251 -0.267175 -0.446 119 90 86
0.14476 -0.27676 -0.462 93 74 78
0.229695 -0.37141 -0.62 239 242 255
0.232862 -0.37081 -0.619 244 242 255
0.243473 -0.37081 -0.619 171 185 224
0.258801 -0.37081 -0.619 236 239 255
0.319448 -0.37141 -0.62 210 212 233
0.32181 -0.37141 -0.62 208 210 231
0.337797 -0.37081 -0.619 193 197 226
0.34723 -0.37081 -0.619 190 194 221
0.348409 -0.37081 -0.619 190 194 221
0.354876 -0.37141 -0.62 175 185 212
0.357238 -0.37141 -0.62 101 107 141
0.37674 -0.372009 -0.621 126 147 194
0.392667 -0.37141 -0.62 186 187 215
0.402114 -0.37141 -0.62 186 188 209
0.432819 -0.37141 -0.62 117 136 178
0.436362 -0.37141 -0.62 60 94 157
0.442267 -0.37141 -0.62 128 148 198
0.443448 -0.37141 -0.62 134 146 186
0.44581 -0.37141 -0.62 160 172 212
0.459239 -0.37081 -0.619 171 169 190
0.463955 -0.37081 -0.619 170 171 189
0.436607 -0.331273 -0.553 131 98 89
0.428314 -0.315099 -0.526 161 106 86
0.430678 -0.313901 -0.524 164 109 89
0.484669 -0.319891 -0.534 151 106 87
0.496059 -0.324684 -0.542 142 101 83
0.499843 -0.326481 -0.545 143 101 85
0.0788962 -0.266222 -0.443 197 153 144
0.08022 -0.26502 -0.441 198 154 145
0.1015 -0.261414 -0.435 181 140 122
0.11695 -0.262616 -0.437 151 109 97
0.1239 -0.26502 -0.441 137 99 88
0.128971 -0.266823 -0.444 124 89 87
0.1353 -0.27103 -0.451 112 83 79
0.142071 -0.275837 -0.459 99 77 79
0.149633 -0.281847 -0.469 89 70 76
0.297229 -0.371389 -0.618 220 221 249
0.32247 -0.37199 -0.619 208 210 233
0.327186 -0.37199 -0.619 159 163 190
0.336074 -0.371389 -0.618 203 205 230
0.343692 -0.37199 -0.619 180 191 223
0.348409 -0.37199 -0.619 193 197 224
0.355483 -0.37199 -0.619 156 159 192
0.370229 -0.37259 -0.62 114 130 164
0.414435 -0.37199 -0.619 180 181 201
0.429763 -0.37199 -0.619 122 137 170
0.430942 -0.37199 -0.619 124 147 191
0.4333 -0.37199 -0.619 67 96 152
0.449807 -0.37199 -0.619 79 86 130
0.450986 -0.37199 -0.619 114 118 147
0.460418 -0.37199 -0.619 177 176 194
0.461597 -0.37199 -0.619 168 167 185
0.429856 -0.314298 -0.523 164 109 89
0.435159 -0.313096 -0.521 163 107 90
0.436151 -0.313096 -0.521 163 107 90
0.439276 -0.312495 -0.52 168 113 93
0.44659 -0.310692 -0.517 158 103 82
0.460961 -0.313096 -0.521 152 104 82
0.479019 -0.318505 -0.53 152 105 85
0.0778762 -0.266463 -0.442 198 153 147
0.0878162 -0.263449 -0.437 195 151 142
0.0957 -0.262243 -0.435 193 149 136
0.10044 -0.26164 -0.434 175 132 116
0.109786 -0.262243 -0.435 168 125 106
0.248966 -0.372566 -0.618 167 181 216
0.250143 -0.372566 -0.618 166 178 216
0.258383 -0.372566 -0.618 234 239 255
0.274863 -0.372566 -0.618 189 198 231
0.301449 -0.371963 -0.617 197 201 230
0.305469 -0.372566 -0.618 152 165 200
0.311354 -0.372566 -0.618 163 178 217
0.336074 -0.372566 -0.618 201 203 226
0.374952 -0.373771 -0.62 96 124 172
0.383219 -0.373771 -0.62 186 191 221
0.392033 -0.373169 -0.619 188 186 207
0.393212 -0.373169 -0.619 187 185 206
0.394391 -0.373169 -0.619 186 192 206
0.39964 -0.372566 -0.618 186 189 208
0.401994 -0.372566 -0.618 180 181 202
0.413766 -0.372566 -0.618 180 181 199
0.428584 -0.373169 -0.619 122 144 185
0.4333 -0.373169 -0.619 62 93 157
0.454966 -0.372566 -0.618 141 141 143
0.466737 -0.372566 -0.618 108 112 147
0.436333 -0.331571 -0.55 145 102 86
0.42968 -0.315897 -0.524 166 111 91
0.431023 -0.314691 -0.522 169 114 94
0.434167 -0.314089 -0.521 163 107 90
0.437295 -0.313486 -0.52 168 112 95
0.443507 -0.31228 -0.518 166 114 93
0.451513 -0.311677 -0.517 155 103 81
0.464829 -0.314691 -0.522 158 107 86
0.4743 -0.317706 -0.527 153 105 85
0.0758619 -0.269119 -0.445 198 155 148
0.0770343 -0.267305 -0.442 198 153 147
0.07854 -0.2667 -0.441 197 153 144
0.0792 -0.266095 -0.44 195 151 142
0.0940429 -0.263071 -0.435 193 151 137
0.0965286 -0.263071 -0.435 193 149 136
0.111699 -0.263676 -0.436 165 122 103
0.12615 -0.26791 -0.443 126 92 83
0.231309 -0.373743 -0.618 246 240 254
0.257965 -0.373138 -0.617 234 239 255
0.267367 -0.373138 -0.617 196 200 227
0.274418 -0.373138 -0.617 189 194 226
0.28617 -0.373138 -0.617 212 218 250
0.293222 -0.373138 -0.617 197 196 227
0.301449 -0.373138 -0.617 195 200 229
0.313709 -0.373743 -0.618 155 169 206
0.318417 -0.373743 -0.618 205 209 234
0.33372 -0.373743 -0.618 203 205 220
0.334897 -0.373743 -0.618 207 209 232
0.337881 -0.373138 -0.617 197 205 224
0.349023 -0.373743 -0.618 195 202 221
0.377885 -0.374348 -0.619 141 163 213
0.401344 -0.373138 -0.617 170 172 195
0.411921 -0.373138 -0.617 182 183 201
0.413096 -0.373138 -0.617 180 183 200
0.447903 -0.373743 -0.618 95 112 158
0.463206 -0.373743 -0.618 132 133 154
0.473843 -0.371929 -0.615 131 121 130
0.43579 -0.33141 -0.548 150 102 80
0.428314 -0.318105 -0.526 168 115 97
0.448559 -0.312662 -0.517 161 107 83
0.460076 -0.314476 -0.52 158 106 85
0.0761924 -0.268147 -0.442 199 154 148
0.0869838 -0.265113 -0.437 203 156 148
0.0973571 -0.2639 -0.435 190 146 133
0.107053 -0.263293 -0.434 169 128 108
0.129552 -0.270573 -0.446 117 87 79
0.133286 -0.273 -0.45 110 80 78
0.137367 -0.276033 -0.455 106 78 75
0.146327 -0.283313 -0.467 96 74 76
0.266191 -0.374313 -0.617 218 222 249
0.277944 -0.374313 -0.617 205 207 232
0.309675 -0.374313 -0.617 160 175 214
0.316727 -0.374313 -0.617 179 192 226
0.332005 -0.374313 -0.617 209 211 223
0.348458 -0.374313 -0.617 195 200 219
0.369631 -0.375527 -0.619 138 161 203
0.392577 -0.37492 -0.618 184 184 196
0.403694 -0.374313 -0.617 137 140 171
0.40957 -0.374313 -0.617 178 181 196
0.415447 -0.374313 -0.617 182 188 204
0.417797 -0.374313 -0.617 127 124 135
0.439663 -0.37492 -0.618 61 92 159
0.463631 -0.374313 -0.617 133 136 169
0.0867848 -0.265337 -0.436 203 156 146
0.0915571 -0.264729 -0.435 195 151 140
0.0996133 -0.26412 -0.434 181 138 121
0.111699 -0.265337 -0.436 157 114 97
0.236427 -0.37488 -0.616 217 223 249
0.264587 -0.37488 -0.616 220 226 252
0.273973 -0.37488 -0.616 210 213 244
0.29744 -0.37488 -0.616 223 222 253
0.320252 -0.375489 -0.617 190 199 232
0.356685 -0.375489 -0.617 183 188 217
0.359617 -0.376097 -0.618 121 131 166
0.374313 -0.375489 -0.617 96 130 202
0.400693 -0.37488 -0.616 143 148 177
0.418972 -0.375489 -0.617 137 130 137
0.4319 -0.375489 -0.617 34 63 129
0.43425 -0.375489 -0.617 19 56 124
0.4488 -0.37488 -0.616 153 163 190
0.449973 -0.37488 -0.616 159 169 196
0.45584 -0.37488 -0.616 107 107 109
0.45936 -0.37488 -0.616 165 164 172
0.460533 -0.37488 -0.616 159 158 174
0.471093 -0.37488 -0.616 155 162 181
0.445853 -0.342017 -0.562 143 102 96
0.43274 -0.32802 -0.539 156 104 90
0.486703 -0.324977 -0.534 146 103 86
0.493423 -0.327411 -0.538 145 102 86
0.0745086 -0.26983 -0.442 195 151 142
0.0915571 -0.265557 -0.435 195 151 140
0.11336 -0.266168 -0.436 156 114 98
0.127853 -0.272272 -0.446 116 85 82
0.145749 -0.285703 -0.468 87 65 67
0.270453 -0.376053 -0.616 224 224 248
0.27632 -0.376053 -0.616 190 194 223
0.278667 -0.376053 -0.616 217 221 248
0.333813 -0.376053 -0.616 201 205 216
0.346108 -0.376664 -0.617 194 203 220
0.350809 -0.376664 -0.617 192 200 211
0.367262 -0.376664 -0.617 107 128 175
0.379014 -0.376664 -0.617 65 93 156
0.381365 -0.376664 -0.617 53 75 135
0.405387 -0.376053 -0.616 144 155 183
0.415947 -0.376053 -0.616 122 111 115
0.442933 -0.376053 -0.616 43 74 131
0.474637 -0.374222 -0.613 172 165 172
0.462661 -0.357739 -0.586 127 96 93
0.437878 -0.334541 -0.548 152 105 89
0.42975 -0.322942 -0.529 163 112 95
0.432017 -0.318669 -0.522 172 115 95
0.486703 -0.325994 -0.534 146 103 86
0.0731543 -0.271897 -0.444 196 151 145
0.07434 -0.27006 -0.441 200 156 147
0.0818019 -0.266998 -0.436 201 154 146
0.0923857 -0.266386 -0.435 191 147 136
0.108957 -0.266386 -0.435 164 122 106
0.114452 -0.26761 -0.437 154 112 98
0.12928 -0.274347 -0.448 114 83 80
0.143043 -0.284757 -0.465 93 73 74
0.278214 -0.376614 -0.615 224 226 249
0.300471 -0.376614 -0.615 183 184 212
0.316871 -0.376614 -0.615 192 205 240
0.322729 -0.376614 -0.615 157 170 214
0.33968 -0.377227 -0.616 148 156 177
0.347893 -0.377227 -0.616 189 197 208
0.351413 -0.377227 -0.616 196 202 216
0.365493 -0.377227 -0.616 66 95 161
0.370187 -0.377227 -0.616 55 88 157
0.377227 -0.377227 -0.616 47 80 149
0.380747 -0.377227 -0.616 42 72 136
0.386613 -0.377227 -0.616 176 184 205
0.39248 -0.377227 -0.616 134 127 134
0.401214 -0.376614 -0.615 125 135 160
0.445729 -0.376614 -0.615 73 94 139
0.464471 -0.376614 -0.615 173 172 190
0.470329 -0.376614 -0.615 170 171 176
0.437443 -0.317826 -0.519 172 116 91
0.44376 -0.315989 -0.516 173 117 92
0.103747 -0.2666 -0.434 168 125 106
0.115549 -0.269057 -0.438 146 107 92
0.2255 -0.377786 -0.615 164 169 201
0.277043 -0.377786 -0.615 222 224 247
0.281729 -0.377786 -0.615 220 225 244
0.297644 -0.377171 -0.614 212 218 252
0.333271 -0.377786 -0.615 161 160 166
0.335614 -0.377786 -0.615 184 191 210
0.349067 -0.3784 -0.616 194 200 212
0.358453 -0.3784 -0.616 171 174 193
0.3608 -0.3784 -0.616 104 113 144
0.36784 -0.3784 -0.616 100 131 198
0.401731 -0.377171 -0.614 138 144 166
0.424643 -0.377786 -0.615 60 82 129
0.449682 -0.377171 -0.614 161 165 190
0.45436 -0.377171 -0.614 177 176 190
0.45553 -0.377171 -0.614 161 160 174
0.465643 -0.377786 -0.615 172 169 188
0.431374 -0.326186 -0.531 167 116 99
0.430132 -0.323729 -0.527 168 115 97
0.43956 -0.3182 -0.518 175 119 94
0.441666 -0.317586 -0.517 173 117 92
0.44265 -0.317586 -0.517 173 117 92
0.444743 -0.316971 -0.516 172 116 93
0.465029 -0.319429 -0.52 161 110 89
0.481138 -0.324957 -0.529 153 106 88
0.0834629 -0.268659 -0.436 199 155 144
0.0973571 -0.268043 -0.435 183 138 119
0.116649 -0.270508 -0.439 143 103 91
0.117752 -0.271124 -0.44 141 101 89
0.125024 -0.274205 -0.445 120 87 80
0.151911 -0.295155 -0.479 96 77 83
0.278931 -0.378341 -0.614 224 225 245
0.303491 -0.378341 -0.614 124 147 197
0.324543 -0.378341 -0.614 201 207 233
0.33273 -0.378341 -0.614 142 143 147
0.393014 -0.378957 -0.615 122 117 123
0.40407 -0.378341 -0.614 160 166 190
0.412257 -0.378341 -0.614 131 131 141
0.414596 -0.378341 -0.614 171 165 169
0.419274 -0.378341 -0.614 158 165 181
0.421613 -0.378341 -0.614 87 102 135
0.435648 -0.378341 -0.614 52 91 158
0.448512 -0.378341 -0.614 112 126 165
0.459038 -0.378341 -0.614 175 175 187
0.468394 -0.378341 -0.614 173 169 183
0.430949 -0.325349 -0.528 166 113 95
0.4366 -0.319187 -0.518 173 117 94
0.440681 -0.31857 -0.517 177 119 95
0.44265 -0.31857 -0.517 178 120 96
0.442777 -0.317954 -0.516 177 119 95
0.443881 -0.317338 -0.515 177 119 95
0.447691 -0.317954 -0.516 172 116 91
0.55855 -0.365401 -0.593 200 195 201
0.11886 -0.27258 -0.441 140 100 90
0.1197 -0.27258 -0.441 137 99 90
0.130714 -0.278143 -0.45 111 81 79
0.146095 -0.291741 -0.472 92 72 74
0.220814 -0.380129 -0.615 234 236 251
0.268406 -0.37951 -0.614 202 205 214
0.273807 -0.378892 -0.613 202 207 226
0.287818 -0.378892 -0.613 216 222 238
0.309339 -0.37951 -0.614 84 117 186
0.310509 -0.37951 -0.614 114 143 209
0.33273 -0.37951 -0.614 142 143 147
0.3485 -0.380129 -0.615 184 190 204
0.377786 -0.380129 -0.615 48 86 159
0.383643 -0.380129 -0.615 171 194 236
0.387157 -0.380129 -0.615 195 193 206
0.390036 -0.37951 -0.614 194 191 200
0.396407 -0.378892 -0.613 181 181 191
0.39991 -0.378892 -0.613 155 158 177
0.402245 -0.378892 -0.613 170 173 192
0.40407 -0.37951 -0.614 180 183 202
0.40641 -0.37951 -0.614 179 182 199
0.419759 -0.378892 -0.613 104 120 156
0.43097 -0.37951 -0.614 75 102 157
0.444279 -0.378892 -0.613 170 178 214
0.452452 -0.378892 -0.613 168 171 190
0.457869 -0.37951 -0.614 173 176 185
0.459038 -0.37951 -0.614 175 178 187
0.472302 -0.378892 -0.613 176 172 187
0.441794 -0.318937 -0.516 179 121 97
0.451623 -0.318937 -0.516 171 115 90
0.0728333 -0.27094 -0.437 202 158 145
0.0753305 -0.27094 -0.437 199 155 146
0.080141 -0.27032 -0.436 201 154 144
0.0849286 -0.2697 -0.435 196 149 139
0.0907286 -0.2697 -0.435 197 151 138
0.0923857 -0.2697 -0.435 192 145 135
0.0957 -0.2697 -0.435 190 144 131
0.105643 -0.2697 -0.435 167 125 109
0.121087 -0.27466 -0.443 129 92 83
0.127573 -0.27776 -0.448 115 86 82
0.329852 -0.38006 -0.613 201 203 216
0.33569 -0.38006 -0.613 157 157 167
0.339747 -0.38068 -0.614 141 146 175
0.346764 -0.38068 -0.614 164 170 192
0.364307 -0.38068 -0.614 62 95 172
0.371324 -0.38068 -0.614 43 84 150
0.37951 -0.38068 -0.614 56 91 145
0.385358 -0.38068 -0.614 186 193 222
0.412753 -0.38006 -0.613 160 154 164
0.42443 -0.38006 -0.613 170 185 214
0.4291 -0.38006 -0.613 98 119 172
0.438441 -0.38006 -0.613 131 148 191
0.439609 -0.38006 -0.613 147 164 207
0.440776 -0.38006 -0.613 162 168 204
0.446614 -0.38006 -0.613 120 129 160
0.473863 -0.37944 -0.612 158 158 170
0.456256 -0.35402 -0.571 134 99 95
0.445586 -0.3441 -0.555 138 101 93
0.437437 -0.33542 -0.541 145 105 97
0.443881 -0.3193 -0.515 180 120 96
0.46899 -0.3224 -0.52 158 110 88
0.471877 -0.32302 -0.521 156 109 89
0.474685 -0.32426 -0.523 154 109 90
0.49742 -0.33418 -0.539 147 106 88
0.0686933 -0.278613 -0.448 197 154 147
0.072001 -0.271772 -0.437 200 156 145
0.0816143 -0.270529 -0.435 202 156 143
0.0832714 -0.270529 -0.435 198 152 139
0.0874143 -0.270529 -0.435 192 149 132
0.0890714 -0.270529 -0.435 193 150 134
0.0990143 -0.270529 -0.435 177 131 118
0.127003 -0.279235 -0.449 112 84 80
0.218929 -0.381228 -0.613 242 240 255
0.260537 -0.380606 -0.612 227 232 254
0.267531 -0.380606 -0.612 209 208 224
0.270304 -0.381228 -0.613 180 180 192
0.295509 -0.380606 -0.612 138 148 175
0.301337 -0.380606 -0.612 80 110 170
0.31416 -0.380606 -0.612 72 103 170
0.315326 -0.380606 -0.612 79 107 172
0.316491 -0.380606 -0.612 84 112 177
0.319344 -0.381228 -0.613 145 167 217
0.332811 -0.380606 -0.612 141 141 151
0.341529 -0.381228 -0.613 170 174 199
0.353205 -0.381228 -0.613 169 166 177
0.366049 -0.381228 -0.613 84 115 180
0.378892 -0.381228 -0.613 111 138 183
0.38006 -0.381228 -0.613 105 132 177
0.389401 -0.381228 -0.613 190 188 202
0.392904 -0.381228 -0.613 183 183 191
0.402754 -0.380606 -0.612 189 188 202
0.408083 -0.381228 -0.613 187 187 197
0.410418 -0.381228 -0.613 175 178 187
0.44472 -0.380606 -0.612 171 172 202
0.450117 -0.381228 -0.613 74 91 111
0.464129 -0.381228 -0.613 167 165 186
0.472697 -0.380606 -0.612 168 165 184
0.477744 -0.379984 -0.611 77 82 102
0.466329 -0.363814 -0.585 128 97 102
0.431676 -0.325878 -0.524 170 115 95
0.432017 -0.324634 -0.522 173 115 95
0.439829 -0.320903 -0.516 179 121 99
0.444862 -0.320281 -0.515 185 125 101
0.447805 -0.320281 -0.515 178 122 99
0.460469 -0.320903 -0.516 162 111 90
0.468089 -0.322769 -0.519 162 112 89
0.471877 -0.324012 -0.521 157 110 90
0.4785 -0.3265 -0.525 154 109 88
0.481327 -0.327744 -0.527 154 109 88
0.0693 -0.2751 -0.441 197 154 145
0.0704971 -0.273229 -0.438 201 157 146
0.0726667 -0.271981 -0.436 202 158 147
0.0751581 -0.271981 -0.436 204 158 145
0.0824429 -0.271357 -0.435 202 156 141
0.0890714 -0.271357 -0.435 193 150 133
0.0965286 -0.271357 -0.435 184 138 123
0.134783 -0.285705 -0.458 96 76 77
0.13772 -0.2882 -0.462 92 72 73
0.32232 -0.381771 -0.612 201 208 224
0.347367 -0.382395 -0.613 196 199 216
0.361378 -0.382395 -0.613 113 136 178
0.363713 -0.382395 -0.613 123 154 201
0.382937 -0.381771 -0.612 120 135 176
0.385269 -0.381771 -0.612 179 183 212
0.391097 -0.381771 -0.612 187 190 199
0.405086 -0.381771 -0.612 188 187 201
0.413246 -0.381771 -0.612 154 152 166
0.417909 -0.381771 -0.612 89 98 127
0.424903 -0.381771 -0.612 164 176 200
0.462206 -0.381771 -0.612 175 177 198
0.468034 -0.381771 -0.612 169 169 195
0.4692 -0.381771 -0.612 172 171 185
0.474252 -0.381148 -0.611 162 162 186
0.432182 -0.325005 -0.521 172 118 92
0.437727 -0.32251 -0.517 175 119 96
0.443881 -0.321262 -0.515 183 127 104
0.454671 -0.321262 -0.515 170 118 96
0.455652 -0.321262 -0.515 167 117 94
0.468173 -0.323133 -0.518 158 111 91
0.470066 -0.323757 -0.519 156 109 89
0.4795 -0.3275 -0.525 151 109 87
0.512692 -0.343719 -0.551 147 108 91
0.06846 -0.27594 -0.441 198 154 145
0.0711686 -0.273437 -0.437 201 157 146
0.0882429 -0.272186 -0.435 192 149 130
0.1015 -0.272186 -0.435 177 131 115
0.108377 -0.272811 -0.436 163 121 107
0.113046 -0.274063 -0.438 141 103 90
0.133618 -0.285951 -0.457 97 76 75
0.217406 -0.382937 -0.612 240 242 255
0.277569 -0.382311 -0.611 194 199 219
0.288043 -0.382311 -0.611 220 222 237
0.289207 -0.382311 -0.611 222 224 239
0.29037 -0.382311 -0.611 201 200 214
0.318302 -0.382311 -0.611 163 184 237
0.347966 -0.382937 -0.612 203 202 218
0.356126 -0.382937 -0.612 157 161 190
0.372446 -0.382937 -0.612 97 134 178
0.377109 -0.382937 -0.612 165 184 224
0.396277 -0.382311 -0.611 187 188 208
0.441223 -0.382937 -0.612 159 172 206
0.451714 -0.382937 -0.612 91 95 120
0.456377 -0.382937 -0.612 172 174 197
0.468034 -0.382937 -0.612 161 163 188
0.435846 -0.334131 -0.534 153 109 98
0.115238 -0.276152 -0.44 139 101 90
0.138614 -0.291843 -0.465 92 72 73
0.14552 -0.298747 -0.476 95 75 77
0.293381 -0.382848 -0.61 155 158 175
0.31481 -0.383475 -0.611 126 151 208
0.33864 -0.384103 -0.612 199 201 216
0.343303 -0.384103 -0.612 202 203 221
0.350297 -0.384103 -0.612 198 200 215
0.35496 -0.384103 -0.612 173 170 191
0.358457 -0.384103 -0.612 118 129 159
0.365451 -0.384103 -0.612 131 159 209
0.374777 -0.384103 -0.612 159 178 218
0.389294 -0.383475 -0.611 185 188 205
0.403762 -0.382848 -0.61 188 190 203
0.457959 -0.383475 -0.611 134 139 171
0.471925 -0.383475 -0.611 115 128 160
0.474638 -0.382848 -0.61 90 98 137
0.4758 -0.382848 -0.61 143 151 190
0.446331 -0.346446 -0.552 128 101 94
0.441123 -0.340797 -0.543 140 110 102
0.435757 -0.324479 -0.517 176 121 100
0.441919 -0.323224 -0.515 184 130 106
0.461538 -0.323224 -0.515 164 114 89
0.479585 -0.328872 -0.524 152 110 88
0.0658629 -0.284545 -0.452 188 148 136
0.0806 -0.273213 -0.434 198 153 134
0.0822533 -0.273213 -0.434 193 150 131
0.0998429 -0.273843 -0.435 174 128 113
0.131589 -0.287063 -0.456 104 80 80
0.327076 -0.38401 -0.61 209 208 226
0.34507 -0.384639 -0.611 203 202 218
0.393305 -0.38401 -0.61 189 192 211
0.395629 -0.38401 -0.61 189 189 213
0.406086 -0.38401 -0.61 187 186 202
0.46145 -0.384639 -0.611 157 169 207
0.473476 -0.38401 -0.61 65 83 133
0.478872 -0.38275 -0.608 167 166 174
0.460324 -0.360088 -0.572 131 100 97
0.434477 -0.326723 -0.519 177 122 101
0.437727 -0.325464 -0.517 175 123 99
0.444862 -0.324205 -0.515 187 133 109
0.444977 -0.323575 -0.514 188 134 110
0.445956 -0.323575 -0.514 189 135 111
0.446935 -0.323575 -0.514 185 131 107
0.451929 -0.322946 -0.513 174 120 94
0.455747 -0.323575 -0.514 174 120 94
0.458684 -0.323575 -0.514 169 117 93
0.459663 -0.323575 -0.514 168 116 92
0.472043 -0.326723 -0.519 161 113 91
0.475847 -0.327982 -0.521 155 108 88
0.0806 -0.27404 -0.434 198 152 136
0.09052 -0.27404 -0.434 186 143 124
0.10044 -0.27404 -0.434 176 130 115
0.117446 -0.279091 -0.442 135 97 86
0.121907 -0.281617 -0.446 117 84 77
0.1413 -0.297403 -0.471 94 72 74
0.29522 -0.38454 -0.609 180 187 216
0.30218 -0.38454 -0.609 102 132 186
0.336371 -0.385171 -0.61 198 197 211
0.363095 -0.385171 -0.61 145 155 182
0.387495 -0.385171 -0.61 124 137 169
0.40774 -0.38454 -0.609 171 173 198
0.413057 -0.385171 -0.61 91 95 124
0.415381 -0.385171 -0.61 129 133 158
0.417705 -0.385171 -0.61 151 157 171
0.433971 -0.385171 -0.61 113 137 183
0.45721 -0.385171 -0.61 83 99 150
0.4758 -0.385171 -0.61 116 129 171
0.478124 -0.385171 -0.61 147 153 167
0.442157 -0.342866 -0.543 136 106 95
0.43561 -0.334657 -0.53 157 110 92
0.444977 -0.324554 -0.514 185 134 107
0.446935 -0.324554 -0.514 183 132 105
0.45183 -0.324554 -0.514 175 124 97
0.456814 -0.323923 -0.513 172 121 92
0.460642 -0.324554 -0.514 167 115 91
0.483419 -0.332131 -0.526 154 109 90
0.496693 -0.338446 -0.536 152 107 86
0.0685143 -0.276133 -0.436 200 157 141
0.0863867 -0.274867 -0.434 193 147 131
0.0888667 -0.274867 -0.434 192 146 131
0.1073 -0.2755 -0.435 152 108 95
0.108377 -0.276133 -0.436 149 107 95
0.32306 -0.3857 -0.609 180 185 217
0.33118 -0.3857 -0.609 187 191 202
0.336371 -0.386333 -0.61 198 197 211
0.339857 -0.386333 -0.61 201 204 221
0.37178 -0.3857 -0.609 104 127 171
0.3741 -0.3857 -0.609 134 150 186
0.41238 -0.3857 -0.609 141 146 178
0.41586 -0.3857 -0.609 156 158 181
0.4205 -0.3857 -0.609 186 187 205
0.449076 -0.386333 -0.61 173 179 193
0.478872 -0.385067 -0.608 174 174 182
0.479241 -0.384433 -0.607 173 173 181
0.443019 -0.325533 -0.514 186 134 110
0.495857 -0.3382 -0.534 151 106 87
0.065641 -0.27887 -0.439 201 157 144
0.0806 -0.275693 -0.434 195 149 134
0.0814267 -0.275693 -0.434 196 150 135
0.09796 -0.275693 -0.434 178 132 119
0.123307 -0.284587 -0.448 117 86 83
0.290103 -0.386225 -0.608 151 157 181
0.29821 -0.386225 -0.608 179 200 243
0.313265 -0.386225 -0.608 195 203 224
0.33234 -0.38686 -0.609 154 150 164
0.33466 -0.38686 -0.609 204 203 219
0.35786 -0.38686 -0.609 167 168 186
0.408229 -0.386225 -0.608 118 130 168
0.442105 -0.387495 -0.61 156 163 191
0.443267 -0.387495 -0.61 177 184 212
0.4514 -0.387495 -0.61 164 171 189
0.458371 -0.387495 -0.61 51 78 133
0.463019 -0.387495 -0.61 88 112 172
0.46806 -0.38686 -0.609 63 84 147
0.446229 -0.34811 -0.548 138 108 100
0.444008 -0.34557 -0.544 139 109 101
0.434324 -0.330324 -0.52 170 118 96
0.435757 -0.328418 -0.517 176 124 102
0.0630057 -0.282891 -0.444 197 153 140
0.0822533 -0.27652 -0.434 201 155 140
0.09548 -0.27652 -0.434 184 136 122
0.116868 -0.282254 -0.443 133 95 86
0.12613 -0.287989 -0.452 95 70 65
0.1287 -0.2899 -0.455 93 73 72
0.300526 -0.387383 -0.608 127 151 199
0.324846 -0.387383 -0.608 187 194 223
0.34394 -0.38802 -0.609 197 198 216
0.34685 -0.387383 -0.608 197 201 226
0.356114 -0.387383 -0.608 177 176 190
0.37117 -0.387383 -0.608 99 129 179
0.385067 -0.387383 -0.608 135 141 165
0.403596 -0.387383 -0.608 142 156 193
0.412861 -0.387383 -0.608 171 181 206
0.470766 -0.387383 -0.608 67 96 154
0.473082 -0.387383 -0.608 122 140 176
0.449486 -0.351703 -0.552 135 104 99
0.44116 -0.342783 -0.538 136 108 97
0.4355 -0.3345 -0.525 169 119 96
0.435466 -0.330677 -0.519 167 117 94
0.460723 -0.326854 -0.513 166 118 98
0.4845 -0.3345 -0.525 148 105 86
0.490207 -0.337049 -0.529 150 107 88
0.0946533 -0.277347 -0.434 183 137 122
0.134781 -0.296518 -0.464 96 75 72
0.1434 -0.305465 -0.478 88 68 70
0.311593 -0.387902 -0.607 171 186 229
0.328936 -0.387902 -0.607 163 156 163
0.330092 -0.387902 -0.607 189 182 189
0.349748 -0.387902 -0.607 135 146 178
0.372871 -0.387902 -0.607 121 143 180
0.377496 -0.387902 -0.607 188 195 211
0.414019 -0.388541 -0.608 185 183 197
0.44413 -0.388541 -0.608 164 167 186
0.45878 -0.38918 -0.609 40 70 124
0.477714 -0.388541 -0.608 167 168 189
0.478085 -0.387902 -0.607 169 166 183
0.448122 -0.327192 -0.512 180 128 106
0.45885 -0.327192 -0.512 169 121 98
0.463654 -0.327831 -0.513 151 106 85
0.464631 -0.327831 -0.513 156 111 90
0.0705171 -0.277532 -0.433 203 159 146
0.0896933 -0.278173 -0.434 187 141 126
0.093 -0.278173 -0.434 180 134 119
0.0987867 -0.278173 -0.434 175 132 116
0.104814 -0.278814 -0.435 159 117 103
0.296074 -0.388417 -0.606 161 168 184
0.326624 -0.389058 -0.607 170 177 203
0.353216 -0.389058 -0.607 195 196 214
0.36709 -0.389058 -0.607 153 171 219
0.368247 -0.389058 -0.607 146 164 212
0.406401 -0.389058 -0.607 67 92 146
0.407557 -0.389058 -0.607 64 89 143
0.413338 -0.389058 -0.607 186 188 203
0.416807 -0.389058 -0.607 187 189 202
0.417963 -0.389058 -0.607 189 188 206
0.420275 -0.389058 -0.607 129 137 148
0.421431 -0.389058 -0.607 123 131 142
0.44413 -0.389699 -0.608 181 182 186
0.435314 -0.333295 -0.52 168 120 97
0.44802 -0.328809 -0.513 179 127 105
0.448122 -0.328168 -0.512 180 128 106
0.46275 -0.328168 -0.512 156 109 89
0.466516 -0.32945 -0.514 158 113 92
0.473178 -0.331372 -0.517 154 111 92
0.496959 -0.341628 -0.533 148 110 91
0.0650429 -0.279643 -0.435 199 156 140
0.0665467 -0.279 -0.434 197 154 138
0.0886619 -0.278357 -0.433 191 143 129
0.0921733 -0.279 -0.434 184 138 123
0.0996133 -0.279 -0.434 174 131 115
0.138903 -0.303429 -0.472 89 64 68
0.145518 -0.309857 -0.482 95 75 77
0.31108 -0.389571 -0.606 154 176 217
0.320314 -0.389571 -0.606 194 205 227
0.341091 -0.389571 -0.606 156 171 204
0.344554 -0.389571 -0.606 109 128 171
0.376874 -0.389571 -0.606 191 195 206
0.39137 -0.390214 -0.607 64 94 154
0.39996 -0.389571 -0.606 95 126 180
0.41565 -0.390214 -0.607 185 189 201
0.431126 -0.389571 -0.606 72 102 162
0.438774 -0.390214 -0.607 89 117 167
0.444555 -0.390214 -0.607 186 183 204
0.481474 -0.388286 -0.604 165 168 187
0.443829 -0.347143 -0.54 136 109 100
0.439957 -0.331071 -0.515 170 119 100
0.444111 -0.329786 -0.513 177 125 103
0.485573 -0.336857 -0.524 152 111 93
0.0607619 -0.283695 -0.44 192 155 136
0.0721667 -0.279182 -0.433 196 153 137
0.0837133 -0.279182 -0.433 189 143 127
0.0870124 -0.279182 -0.433 191 145 130
0.091961 -0.279182 -0.433 182 136 120
0.116286 -0.286274 -0.444 129 91 80
0.13156 -0.29788 -0.462 98 76 79
0.139491 -0.305617 -0.474 89 67 69
0.301348 -0.390081 -0.605 155 186 230
0.3025 -0.390081 -0.605 153 184 228
0.319786 -0.390081 -0.605 199 210 228
0.328394 -0.390726 -0.606 145 159 204
0.357251 -0.390726 -0.606 192 197 217
0.368186 -0.390081 -0.605 117 138 191
0.404577 -0.390726 -0.606 65 96 161
0.412657 -0.390726 -0.606 183 183 195
0.45114 -0.329473 -0.511 177 127 104
0.481801 -0.335921 -0.521 152 109 93
0.486571 -0.337855 -0.524 150 109 91
0.497117 -0.342369 -0.531 145 108 89
0.06118 -0.282593 -0.437 195 152 135
0.103157 -0.2813 -0.435 164 122 110
0.119893 -0.289707 -0.448 114 85 77
0.131845 -0.299407 -0.463 97 75 78
0.14008 -0.307813 -0.476 91 69 71
0.332462 -0.391233 -0.605 164 185 228
0.360714 -0.39188 -0.606 110 124 153
0.363023 -0.39188 -0.606 100 119 161
0.364177 -0.39188 -0.606 108 128 178
0.368186 -0.391233 -0.605 109 132 186
0.380862 -0.391233 -0.605 186 189 198
0.398148 -0.391233 -0.605 48 82 145
0.416586 -0.391233 -0.605 186 185 203
0.438481 -0.391233 -0.605 107 137 191
0.439633 -0.391233 -0.605 107 137 191
0.441514 -0.39188 -0.606 168 172 197
0.44844 -0.39188 -0.606 176 176 200
0.4719 -0.391233 -0.605 70 92 152
0.47651 -0.391233 -0.605 66 79 121
0.45182 -0.356313 -0.551 136 109 102
0.438976 -0.333033 -0.515 170 119 98
0.444221 -0.331093 -0.512 177 125 103
0.45406 -0.330447 -0.511 177 127 100
0.460873 -0.330447 -0.511 171 121 98
0.482793 -0.336913 -0.521 153 112 94
0.5029 -0.345967 -0.535 147 108 93
0.507687 -0.348553 -0.539 145 106 91
0.0640667 -0.28148 -0.434 198 155 138
0.0828886 -0.280831 -0.433 193 147 131
0.0946533 -0.28148 -0.434 178 135 119
0.0963067 -0.28148 -0.434 174 131 115
0.105055 -0.282777 -0.436 154 114 104
0.106716 -0.282777 -0.436 144 106 95
0.130397 -0.298991 -0.461 93 73 75
0.140374 -0.309369 -0.477 87 67 68
0.149474 -0.319097 -0.492 95 92 103
0.296248 -0.391737 -0.604 128 146 182
0.304301 -0.391737 -0.604 151 174 208
0.381383 -0.391737 -0.604 190 192 204
0.386624 -0.392386 -0.605 175 178 197
0.395843 -0.392386 -0.605 34 67 134
0.415897 -0.391737 -0.604 187 186 204
0.420499 -0.391737 -0.604 119 138 180
0.430853 -0.391737 -0.604 60 98 169
0.44844 -0.393034 -0.606 150 155 184
0.449594 -0.393034 -0.606 134 139 168
0.451903 -0.393034 -0.606 118 132 167
0.463446 -0.393034 -0.606 17 54 125
0.464986 -0.392386 -0.605 9 54 121
0.481474 -0.391737 -0.604 144 148 157
0.440477 -0.344391 -0.531 151 109 97
0.439957 -0.334014 -0.515 169 119 96
0.44822 -0.33142 -0.511 178 128 103
0.072 -0.281006 -0.432 197 151 135
0.09548 -0.282307 -0.434 172 130 114
0.102329 -0.282957 -0.435 154 114 102
0.104225 -0.283608 -0.436 161 118 109
0.12382 -0.294666 -0.453 101 80 77
0.129238 -0.299219 -0.46 94 74 76
0.13416 -0.304423 -0.468 94 72 75
0.329611 -0.392888 -0.604 68 102 166
0.331912 -0.392888 -0.604 97 127 187
0.333063 -0.392888 -0.604 94 124 184
0.343997 -0.392237 -0.603 102 126 174
0.359524 -0.392888 -0.604 109 125 158
0.382533 -0.392888 -0.604 187 186 200
0.391737 -0.392888 -0.604 65 98 165
0.392888 -0.392888 -0.604 41 74 141
0.394038 -0.392888 -0.604 36 69 138
0.395189 -0.392888 -0.604 31 64 133
0.406214 -0.393538 -0.605 131 162 227
0.417048 -0.392888 -0.604 186 183 202
0.426251 -0.392888 -0.604 72 107 171
0.433154 -0.392888 -0.604 68 105 175
0.434305 -0.392888 -0.604 73 108 164
0.445395 -0.393538 -0.605 174 171 192
0.451157 -0.393538 -0.605 64 88 134
0.4719 -0.393538 -0.605 45 73 138
0.478023 -0.392888 -0.604 118 123 143
0.480324 -0.392888 -0.604 163 166 181
0.441061 -0.334345 -0.514 167 121 98
0.448314 -0.331743 -0.51 177 127 102
0.469577 -0.333044 -0.512 156 113 94
0.47337 -0.334345 -0.514 158 113 94
0.479087 -0.336296 -0.517 153 111 89
0.548575 -0.372072 -0.572 137 119 117
0.0771152 -0.282481 -0.433 196 150 135
0.0787648 -0.282481 -0.433 196 150 135
0.09796 -0.283133 -0.434 175 133 121
0.1015 -0.283786 -0.435 159 117 105
0.102329 -0.283786 -0.435 155 113 101
0.109959 -0.286395 -0.439 136 99 90
0.113236 -0.288352 -0.442 129 94 88
0.117923 -0.291614 -0.447 111 86 79
0.121555 -0.294224 -0.451 104 81 75
0.354334 -0.393386 -0.603 194 195 213
0.355483 -0.393386 -0.603 185 193 214
0.391089 -0.393386 -0.603 78 113 179
0.39798 -0.393386 -0.603 20 62 138
0.406693 -0.394038 -0.604 135 153 201
0.410145 -0.394038 -0.604 133 149 183
0.416357 -0.393386 -0.603 156 154 175
0.431289 -0.393386 -0.603 44 82 157
0.456919 -0.39469 -0.605 30 63 130
0.443134 -0.334671 -0.513 168 121 95
0.444111 -0.334671 -0.513 167 119 96
0.446273 -0.333367 -0.511 174 126 103
0.447247 -0.333367 -0.511 175 127 104
0.0728229 -0.282651 -0.432 192 149 133
0.0752914 -0.282651 -0.432 196 150 135
0.07776 -0.282651 -0.432 196 150 135
0.091961 -0.283306 -0.433 182 136 120
0.32164 -0.39388 -0.602 201 204 221
0.32852 -0.39388 -0.602 53 87 158
0.3354 -0.39388 -0.602 43 79 155
0.337693 -0.39388 -0.602 40 76 152
0.34916 -0.39388 -0.602 193 195 216
0.35948 -0.39388 -0.602 95 123 170
0.382413 -0.39388 -0.602 169 174 203
0.385346 -0.394534 -0.603 154 163 196
0.39798 -0.394534 -0.603 20 63 141
0.420253 -0.39388 -0.602 65 91 140
0.451562 -0.395189 -0.604 76 103 158
0.480677 -0.394534 -0.603 165 172 180
0.475839 -0.381449 -0.583 120 102 100
0.448314 -0.333686 -0.51 180 130 107
0.456161 -0.333031 -0.509 175 123 99
0.4658 -0.333686 -0.51 167 117 94
0.501163 -0.347426 -0.531 153 112 94
0.0557333 -0.288724 -0.44 193 154 139
0.0570181 -0.286755 -0.437 195 152 136
0.0669076 -0.282818 -0.431 196 150 134
0.072 -0.283474 -0.432 193 147 131
0.0802286 -0.283474 -0.432 195 149 133
0.0878371 -0.28413 -0.433 187 141 125
0.0911362 -0.28413 -0.433 182 136 121
0.113749 -0.291349 -0.444 120 91 85
0.117071 -0.293317 -0.447 114 86 82
0.123229 -0.29791 -0.454 101 80 79
0.12464 -0.299223 -0.456 98 77 76
0.126059 -0.300535 -0.458 99 75 75
0.143652 -0.318252 -0.485 90 79 85
0.368653 -0.395027 -0.602 92 126 190
0.38356 -0.395027 -0.602 93 108 139
0.388147 -0.395027 -0.602 69 101 152
0.39044 -0.395027 -0.602 42 77 141
0.420253 -0.395027 -0.602 65 83 129
0.429427 -0.395027 -0.602 18 60 136
0.438136 -0.341875 -0.521 161 116 97
0.447343 -0.334657 -0.51 178 130 108
0.448314 -0.334657 -0.51 179 131 109
0.554738 -0.37731 -0.575 150 126 124
0.0660867 -0.283639 -0.431 198 152 136
0.0718333 -0.283639 -0.431 194 148 132
0.0751171 -0.283639 -0.431 198 153 132
0.078401 -0.283639 -0.431 195 150 129
0.0802286 -0.284297 -0.432 192 147 126
0.0859886 -0.284297 -0.432 183 138 119
0.0884571 -0.284297 -0.432 181 135 119
0.0944352 -0.284955 -0.433 175 132 116
0.111552 -0.290878 -0.442 124 93 88
0.130643 -0.306014 -0.465 92 70 72
0.307369 -0.395515 -0.601 115 146 193
0.329119 -0.395515 -0.601 59 93 167
0.332553 -0.395515 -0.601 41 75 149
0.337132 -0.395515 -0.601 38 80 154
0.34858 -0.395515 -0.601 163 178 211
0.360028 -0.395515 -0.601 87 117 171
0.371475 -0.395515 -0.601 75 110 168
0.37491 -0.395515 -0.601 115 142 189
0.385212 -0.395515 -0.601 52 86 149
0.409933 -0.396173 -0.602 82 114 155
0.434437 -0.395515 -0.601 62 103 169
0.440893 -0.396173 -0.602 169 175 201
0.461533 -0.396173 -0.602 18 57 126
0.469191 -0.396831 -0.603 112 129 173
0.474934 -0.396831 -0.603 173 170 187
0.481826 -0.396831 -0.603 164 173 180
0.43942 -0.341551 -0.519 167 120 100
0.463006 -0.334312 -0.508 166 118 96
0.470657 -0.335629 -0.51 161 114 94
0.05418 -0.29106 -0.441 200 161 144
0.0574533 -0.28644 -0.434 199 156 139
0.0818743 -0.28512 -0.432 184 137 119
0.0826971 -0.28512 -0.432 189 144 125
0.0843429 -0.28512 -0.432 191 146 127
0.0925714 -0.28512 -0.432 177 131 115
0.0936105 -0.28578 -0.433 176 130 114
0.0960848 -0.28578 -0.433 172 129 112
0.128317 -0.30558 -0.463 94 72 74
0.409252 -0.39666 -0.601 136 156 183
0.460767 -0.39666 -0.601 15 54 123
0.471853 -0.39732 -0.602 143 147 172
0.476083 -0.39798 -0.603 171 170 184
0.442676 -0.3498 -0.53 149 112 103
0.441061 -0.33924 -0.514 170 123 103
0.445196 -0.33792 -0.512 167 116 95
0.449374 -0.33594 -0.509 178 127 106
0.451313 -0.33594 -0.509 173 122 101
0.053219 -0.291238 -0.44 196 155 137
0.0642952 -0.284619 -0.43 202 157 136
0.0659333 -0.284619 -0.43 198 153 132
0.0718333 -0.285281 -0.431 196 151 132
0.0936105 -0.286605 -0.433 177 132 113
0.108533 -0.291238 -0.44 133 96 90
0.12546 -0.303814 -0.459 97 76 75
0.308 -0.397143 -0.6 111 142 197
0.311429 -0.397143 -0.6 175 189 226
0.358286 -0.397143 -0.6 70 99 155
0.373143 -0.397143 -0.6 92 119 162
0.377714 -0.397143 -0.6 185 186 204
0.390936 -0.397805 -0.601 28 62 125
0.418857 -0.397143 -0.6 125 138 172
0.438286 -0.397143 -0.6 149 173 209
0.449319 -0.397805 -0.601 160 157 174
0.459622 -0.397805 -0.601 32 69 137
0.461911 -0.397805 -0.601 30 68 133
0.463056 -0.397805 -0.601 23 61 126
0.475293 -0.398467 -0.602 171 173 185
0.484 -0.397143 -0.6 123 129 163
0.439696 -0.342205 -0.517 168 120 98
0.452283 -0.33691 -0.509 175 124 103
0.460103 -0.336248 -0.508 172 122 99
0.4745 -0.338233 -0.511 159 111 88
0.061019 -0.285438 -0.43 201 157 132
0.076759 -0.286102 -0.431 192 145 125
0.0810514 -0.286766 -0.432 190 143 125
0.08928 -0.286766 -0.432 180 133 113
0.0936105 -0.28743 -0.433 175 130 111
0.114517 -0.296723 -0.447 114 86 85
0.35883 -0.397622 -0.599 56 85 143
0.37138 -0.397622 -0.599 93 129 189
0.381143 -0.398286 -0.6 164 167 182
0.402384 -0.39895 -0.601 85 126 192
0.403529 -0.39895 -0.601 85 126 192
0.408571 -0.398286 -0.6 163 165 178
0.42 -0.398286 -0.6 62 102 161
0.434132 -0.397622 -0.599 59 97 159
0.450464 -0.39895 -0.601 129 127 138
0.471853 -0.399613 -0.602 102 112 147
0.484334 -0.397622 -0.599 105 113 136
0.46818 -0.37638 -0.567 133 106 97
0.445089 -0.340534 -0.513 159 108 89
0.450344 -0.337879 -0.509 174 122 101
0.453252 -0.337879 -0.509 169 117 96
0.479289 -0.340534 -0.513 156 110 87
0.078401 -0.286923 -0.431 192 146 123
0.0851657 -0.287589 -0.432 181 136 113
0.100903 -0.290251 -0.436 148 106 92
0.102799 -0.290917 -0.437 147 106 100
0.304064 -0.398763 -0.599 67 110 179
0.309769 -0.398763 -0.599 95 123 173
0.35883 -0.398763 -0.599 71 101 163
0.363393 -0.398763 -0.599 36 83 153
0.372521 -0.398763 -0.599 150 170 207
0.379367 -0.398763 -0.599 184 188 200
0.388494 -0.398763 -0.599 75 106 161
0.394857 -0.399429 -0.6 26 63 141
0.396481 -0.398763 -0.599 35 69 143
0.402857 -0.399429 -0.6 72 117 185
0.405143 -0.399429 -0.6 132 164 211
0.426146 -0.398763 -0.599 44 83 152
0.43185 -0.398763 -0.599 73 113 174
0.438696 -0.398763 -0.599 177 176 192
0.442857 -0.399429 -0.6 172 178 190
0.444 -0.399429 -0.6 172 178 190
0.446286 -0.399429 -0.6 173 174 179
0.455429 -0.399429 -0.6 40 72 129
0.458857 -0.399429 -0.6 71 102 157
0.472309 -0.380789 -0.572 132 105 98
0.44181 -0.348169 -0.523 159 110 95
0.4429 -0.342843 -0.515 167 116 97
0.47933 -0.340846 -0.512 162 115 95
0.501403 -0.350831 -0.527 156 111 92
0.0733048 -0.287076 -0.43 193 149 122
0.105778 -0.293085 -0.439 137 100 94
0.131431 -0.314449 -0.471 91 75 78
0.31091 -0.399904 -0.599 103 126 167
0.313191 -0.399904 -0.599 153 167 194
0.365065 -0.399236 -0.598 63 106 175
0.390776 -0.399904 -0.599 26 63 141
0.404468 -0.399904 -0.599 116 147 201
0.410172 -0.399904 -0.599 178 182 193
0.414736 -0.399904 -0.599 179 182 197
0.418159 -0.399904 -0.599 130 139 156
0.447824 -0.399904 -0.599 143 143 167
0.450106 -0.399904 -0.599 77 86 119
0.450193 -0.359847 -0.539 140 107 100
0.445089 -0.342489 -0.513 151 102 85
0.460219 -0.337815 -0.506 169 118 99
0.46982 -0.338483 -0.507 165 117 97
0.515968 -0.359179 -0.538 144 106 85
0.520836 -0.36185 -0.542 148 110 89
0.0504743 -0.293251 -0.438 198 157 135
0.0531971 -0.289904 -0.433 199 157 132
0.0708476 -0.287895 -0.43 199 153 127
0.0741238 -0.287895 -0.43 192 148 121
0.0859886 -0.289234 -0.432 182 136 113
0.0944352 -0.289904 -0.433 166 123 107
0.0963067 -0.290573 -0.434 158 116 104
0.102799 -0.292582 -0.437 144 103 97
0.106857 -0.29459 -0.44 132 95 89
0.133452 -0.318024 -0.475 84 68 71
0.302417 -0.400375 -0.598 48 87 162
0.31153 -0.400375 -0.598 147 169 210
0.312669 -0.400375 -0.598 184 193 222
0.4186 -0.400375 -0.598 92 125 170
0.423156 -0.400375 -0.598 72 111 168
0.424295 -0.400375 -0.598 79 118 175
0.425434 -0.400375 -0.598 71 109 174
0.43113 -0.400375 -0.598 63 102 159
0.439103 -0.400375 -0.598 179 177 190
0.453529 -0.401045 -0.599 77 95 141
0.461515 -0.401045 -0.599 133 149 183
0.478286 -0.401714 -0.6 164 169 191
0.444186 -0.352839 -0.527 157 111 98
0.441533 -0.346813 -0.518 160 114 98
0.445956 -0.344135 -0.514 156 107 92
0.468893 -0.338779 -0.506 163 115 93
0.472682 -0.340118 -0.508 161 114 94
0.47365 -0.340118 -0.508 158 111 91
0.487006 -0.345474 -0.516 155 112 93
0.48988 -0.346813 -0.518 156 113 96
0.0489171 -0.294757 -0.439 196 156 131
0.0516667 -0.2914 -0.434 197 155 133
0.0523724 -0.290729 -0.433 196 154 130
0.0615505 -0.287371 -0.428 201 155 129
0.0649629 -0.288043 -0.429 197 151 125
0.0757619 -0.288714 -0.43 193 149 122
0.078401 -0.289386 -0.431 186 142 115
0.0800429 -0.289386 -0.431 186 142 117
0.0808638 -0.289386 -0.431 187 141 117
0.0909257 -0.290057 -0.432 171 124 108
0.104942 -0.294757 -0.439 137 98 93
0.11392 -0.3008 -0.448 113 83 81
0.12425 -0.309529 -0.461 96 76 77
0.135489 -0.321614 -0.479 89 67 70
0.351946 -0.400843 -0.597 183 188 210
0.364454 -0.400843 -0.597 70 113 181
0.374689 -0.400843 -0.597 180 187 206
0.383786 -0.400843 -0.597 103 116 132
0.388334 -0.400843 -0.597 56 75 131
0.391263 -0.401514 -0.598 40 70 130
0.39468 -0.401514 -0.598 85 120 176
0.401514 -0.401514 -0.598 45 84 139
0.40721 -0.401514 -0.598 162 165 184
0.414489 -0.400843 -0.597 175 179 188
0.4179 -0.400843 -0.597 123 144 175
0.428134 -0.400843 -0.597 109 137 187
0.436094 -0.400843 -0.597 155 172 200
0.449354 -0.401514 -0.598 71 86 117
0.458467 -0.401514 -0.598 82 97 136
0.470643 -0.402186 -0.599 96 102 138
0.476 -0.402857 -0.6 159 164 193
0.47977 -0.402186 -0.599 165 165 189
0.484334 -0.402186 -0.599 147 153 169
0.484665 -0.401514 -0.598 117 134 164
0.484991 -0.400843 -0.597 94 111 141
0.449193 -0.3431 -0.511 169 118 101
0.449286 -0.342429 -0.51 169 120 103
0.472717 -0.340414 -0.507 161 114 94
0.485118 -0.345114 -0.514 153 108 89
0.506329 -0.355186 -0.529 156 107 90
0.0500133 -0.292227 -0.434 197 156 134
0.05992 -0.288187 -0.428 198 154 129
0.0708476 -0.289533 -0.43 195 149 125
0.0800429 -0.290207 -0.431 186 140 116
0.0963067 -0.292227 -0.434 150 107 100
0.132548 -0.319833 -0.475 86 70 73
0.380374 -0.40198 -0.597 183 187 199
0.381511 -0.40198 -0.597 180 184 196
0.382649 -0.40198 -0.597 129 142 159
0.438369 -0.40198 -0.597 175 178 187
0.439506 -0.40198 -0.597 175 177 192
0.45505 -0.402653 -0.598 140 149 178
0.475207 -0.403327 -0.599 151 158 186
0.480109 -0.402653 -0.598 161 162 182
0.470589 -0.381107 -0.566 132 100 101
0.451313 -0.342727 -0.509 165 114 97
0.46128 -0.33936 -0.504 160 111 94
0.467967 -0.340033 -0.505 160 112 92
0.468929 -0.340033 -0.505 160 112 92
0.481313 -0.344073 -0.511 151 105 89
0.508295 -0.356867 -0.53 152 110 96
0.56546 -0.388513 -0.577 214 205 200
0.0521305 -0.291028 -0.431 197 154 135
0.0558438 -0.289002 -0.428 198 156 132
0.0615505 -0.289002 -0.428 201 156 133
0.0641457 -0.289677 -0.429 197 152 129
0.0792219 -0.291028 -0.431 186 140 117
0.0808638 -0.291028 -0.431 182 135 115
0.0936105 -0.292378 -0.433 165 119 104
0.107343 -0.298455 -0.442 130 92 89
0.11804 -0.306558 -0.454 101 80 77
0.354762 -0.402442 -0.596 132 139 158
0.360438 -0.402442 -0.596 82 114 173
0.383143 -0.402442 -0.596 90 103 122
0.405391 -0.403117 -0.597 109 124 157
0.426282 -0.402442 -0.596 120 144 192
0.453151 -0.403117 -0.597 129 136 162
0.469857 -0.403792 -0.598 121 128 157
0.453086 -0.364629 -0.54 146 111 92
0.445347 -0.355175 -0.526 151 108 92
0.449286 -0.344371 -0.51 167 118 103
0.45333 -0.343021 -0.508 169 118 101
0.454297 -0.343021 -0.508 170 119 102
0.46416 -0.34032 -0.504 162 115 95
0.04836 -0.29388 -0.434 197 156 136
0.0542133 -0.289817 -0.428 191 149 127
0.0741238 -0.291171 -0.43 192 146 123
0.0757619 -0.291171 -0.43 192 146 123
0.0833267 -0.291849 -0.431 179 130 113
0.08928 -0.292526 -0.432 176 127 112
0.0936105 -0.293203 -0.433 163 117 104
0.106501 -0.299297 -0.442 130 92 91
0.126757 -0.316226 -0.467 90 70 71
0.380872 -0.403577 -0.596 156 160 171
0.39109 -0.403577 -0.596 151 167 201
0.428967 -0.4029 -0.595 89 111 161
0.434633 -0.4029 -0.595 158 171 205
0.466898 -0.378523 -0.559 133 105 94
0.462103 -0.373783 -0.552 138 102 88
0.447043 -0.347374 -0.513 161 114 96
0.449097 -0.346697 -0.512 169 120 105
0.457328 -0.342634 -0.506 169 120 103
0.0461971 -0.296744 -0.437 199 157 135
0.0469219 -0.296065 -0.436 202 160 138
0.0496676 -0.29267 -0.431 195 154 134
0.0614067 -0.289953 -0.427 200 155 134
0.078219 -0.29199 -0.43 180 133 113
0.0851657 -0.293349 -0.432 177 128 113
0.0911362 -0.294028 -0.433 167 119 105
0.0992419 -0.296065 -0.436 147 104 98
0.333767 -0.404033 -0.595 86 115 173
0.3893 -0.404033 -0.595 126 138 162
0.402442 -0.404712 -0.596 105 120 153
0.4131 -0.404033 -0.595 172 178 192
0.4301 -0.404033 -0.595 82 104 153
0.452392 -0.404712 -0.596 162 168 192
0.454663 -0.404712 -0.596 160 167 193
0.458069 -0.404712 -0.596 109 112 129
0.466015 -0.404712 -0.596 155 164 181
0.478503 -0.404712 -0.596 156 164 185
0.483044 -0.404712 -0.596 139 144 173
0.470239 -0.382304 -0.563 131 102 96
0.446935 -0.34903 -0.514 160 113 97
0.4632 -0.34224 -0.504 164 117 97
0.480399 -0.345635 -0.509 156 113 96
0.518133 -0.36397 -0.536 147 110 91
0.0441 -0.3003 -0.441 193 156 137
0.0450419 -0.300981 -0.442 197 154 135
0.0503714 -0.29281 -0.43 193 151 129
0.06222 -0.290767 -0.427 199 154 133
0.0674143 -0.292129 -0.429 194 148 125
0.0716667 -0.29281 -0.43 193 148 125
0.078219 -0.29281 -0.43 181 133 113
0.0816848 -0.29349 -0.431 180 131 114
0.0884571 -0.294171 -0.432 169 122 104
0.110013 -0.303705 -0.446 116 85 82
0.113571 -0.306429 -0.45 109 83 82
0.117433 -0.309833 -0.455 105 81 81
0.120214 -0.312557 -0.459 99 78 77
0.305433 -0.405167 -0.595 86 125 182
0.381857 -0.404486 -0.594 73 92 122
0.388167 -0.405167 -0.595 136 147 167
0.438429 -0.404486 -0.594 173 174 195
0.442567 -0.405167 -0.595 77 91 126
0.448233 -0.405167 -0.595 163 169 193
0.46715 -0.405848 -0.596 160 170 182
0.468286 -0.405848 -0.596 159 168 185
0.476232 -0.405848 -0.596 75 90 123
0.48626 -0.403805 -0.593 76 97 140
0.458319 -0.371119 -0.545 142 104 101
0.446075 -0.354776 -0.521 162 113 99
0.447691 -0.351371 -0.516 163 116 100
0.451229 -0.347286 -0.51 166 117 100
0.466113 -0.342519 -0.503 166 118 98
0.476604 -0.344562 -0.506 158 113 94
0.0565267 -0.29158 -0.427 202 160 138
0.0682314 -0.292946 -0.429 196 149 129
0.0868114 -0.294994 -0.432 169 120 105
0.10458 -0.30114 -0.441 127 92 88
0.11908 -0.312749 -0.458 97 76 75
0.129833 -0.324357 -0.475 85 68 78
0.4097 -0.4063 -0.595 135 146 174
0.421457 -0.405617 -0.594 75 98 142
0.462967 -0.4063 -0.595 164 172 183
0.44659 -0.353037 -0.517 164 117 101
0.446824 -0.351671 -0.515 164 117 101
0.457386 -0.344843 -0.505 169 121 98
0.458348 -0.344843 -0.505 169 121 98
0.46032 -0.34416 -0.504 174 127 101
0.0792219 -0.295132 -0.431 182 134 114
0.0859886 -0.295817 -0.432 169 120 105
0.11934 -0.314306 -0.459 97 76 75
0.136543 -0.332794 -0.486 86 68 68
0.1921 -0.407433 -0.595 205 221 246
0.373308 -0.406064 -0.593 181 183 198
0.374437 -0.406064 -0.593 180 182 197
0.384603 -0.406064 -0.593 159 167 186
0.385732 -0.406064 -0.593 167 175 194
0.388646 -0.406749 -0.594 170 179 196
0.424136 -0.406064 -0.593 88 110 160
0.433172 -0.406064 -0.593 163 171 190
0.46332 -0.406749 -0.594 163 170 180
0.482233 -0.407433 -0.595 141 156 179
0.465888 -0.379358 -0.554 149 110 103
0.453813 -0.367032 -0.536 149 109 97
0.4485 -0.3595 -0.525 147 115 94
0.452283 -0.348544 -0.509 169 123 99
0.456364 -0.34649 -0.506 168 120 98
0.04862 -0.29458 -0.429 198 156 134
0.05978 -0.293207 -0.427 192 147 124
0.0682314 -0.29458 -0.429 194 147 127
0.0690486 -0.29458 -0.429 189 142 122
0.0698657 -0.29458 -0.429 190 143 123
0.0816848 -0.295953 -0.431 178 129 112
0.0859886 -0.29664 -0.432 167 118 103
0.0894867 -0.297327 -0.433 167 119 105
0.10374 -0.30282 -0.441 130 93 87
0.110507 -0.307627 -0.448 111 82 78
0.1196 -0.315867 -0.46 96 76 75
0.122408 -0.318613 -0.464 96 75 80
0.350717 -0.407193 -0.593 193 189 206
0.389121 -0.407193 -0.593 167 174 193
0.39138 -0.407193 -0.593 130 135 155
0.409452 -0.407193 -0.593 89 108 140
0.428654 -0.407193 -0.593 90 110 160
0.43882 -0.407193 -0.593 60 80 117
0.43995 -0.407193 -0.593 65 85 122
0.467846 -0.40788 -0.594 160 167 185
0.473503 -0.40788 -0.594 141 152 158
0.478846 -0.392773 -0.572 139 101 98
0.450057 -0.36256 -0.528 148 111 92
0.447329 -0.35638 -0.519 160 117 98
0.447574 -0.355007 -0.517 164 119 98
0.45648 -0.34608 -0.504 166 118 95
0.0531486 -0.293331 -0.426 194 152 130
0.0672571 -0.294709 -0.428 191 144 124
0.0690486 -0.295397 -0.429 187 140 120
0.0859886 -0.297463 -0.432 167 118 103
0.106983 -0.305726 -0.444 118 87 82
0.109409 -0.307791 -0.447 113 84 80
0.113215 -0.311234 -0.452 105 80 76
0.370423 -0.407634 -0.592 177 180 199
0.374933 -0.407634 -0.592 111 128 154
0.404934 -0.408323 -0.593 149 155 177
0.4144 -0.407634 -0.592 161 168 184
0.430187 -0.407634 -0.592 139 153 188
0.439208 -0.407634 -0.592 91 110 143
0.482871 -0.408323 -0.593 102 119 163
0.452283 -0.350483 -0.509 168 122 98
0.482374 -0.349106 -0.507 154 113 93
0.05396 -0.294143 -0.426 196 151 128
0.0572057 -0.294143 -0.426 200 155 132
0.05964 -0.294143 -0.426 192 147 124
0.0682314 -0.296214 -0.429 188 141 121
0.0715 -0.296214 -0.429 192 144 124
0.078401 -0.297595 -0.431 185 137 115
0.0843429 -0.298286 -0.432 169 120 105
0.0913467 -0.299667 -0.434 160 112 100
0.09592 -0.301048 -0.436 141 101 93
0.0988629 -0.302429 -0.438 136 99 93
0.387337 -0.408762 -0.592 167 175 188
0.388465 -0.408762 -0.592 171 177 189
0.411017 -0.408762 -0.592 75 94 126
0.416655 -0.408762 -0.592 138 157 189
0.424549 -0.408762 -0.592 80 111 166
0.440335 -0.408762 -0.592 137 152 173
0.444846 -0.408762 -0.592 161 167 183
0.476094 -0.409452 -0.593 126 137 165
0.46228 -0.377 -0.546 144 107 101
0.458229 -0.372857 -0.54 144 107 98
0.44844 -0.357667 -0.518 163 118 97
