ply
format ascii 1.0
comment Created by Open3D
element vertex 1297
property double x
property double y
property double z
property uchar red
property uchar green
property uchar blue
end_header
0.461456 -0.376864 -0.499 172 127 106
0.468974 -0.369311 -0.489 170 123 103
0.483817 -0.368556 -0.488 168 120 97
0.484747 -0.368556 -0.488 168 120 97
0.5049 -0.373843 -0.495 151 109 84
0.512782 -0.376864 -0.499 151 107 80
1.02938 -0.42671 -0.565 108 109 103
0.0059 -0.3127 -0.413 193 152 120
0.0225286 -0.314214 -0.415 188 143 110
0.0281971 -0.315729 -0.417 178 132 99
0.0306533 -0.316486 -0.418 180 134 101
0.0514048 -0.321786 -0.425 149 101 87
0.0557133 -0.3233 -0.427 133 95 86
0.06034 -0.326329 -0.431 126 86 84
0.0787781 -0.346014 -0.457 88 69 65
0.11836 -0.407343 -0.538 212 215 230
0.462503 -0.433086 -0.572 124 124 134
0.492148 -0.432329 -0.571 103 101 122
0.490327 -0.4187 -0.553 118 103 96
0.479967 -0.4081 -0.539 126 106 95
0.463393 -0.3763 -0.497 172 127 106
0.4942 -0.371 -0.49 160 114 90
1.02978 -0.4293 -0.567 105 106 101
-0.00357429 -0.316523 -0.417 190 151 118
-0.00197619 -0.315005 -0.415 188 149 116
0.00668667 -0.313487 -0.413 193 152 120
0.0161267 -0.313487 -0.413 192 149 115
0.0208971 -0.314246 -0.414 187 142 109
0.0225286 -0.315005 -0.415 186 141 108
0.0363133 -0.318041 -0.419 176 129 99
0.0421 -0.319559 -0.421 168 119 102
0.048861 -0.321836 -0.424 152 106 93
0.0624133 -0.329427 -0.434 123 85 82
0.0653419 -0.331704 -0.437 116 81 79
0.0853133 -0.355993 -0.469 87 68 64
0.106789 -0.388632 -0.512 192 190 201
0.44973 -0.433416 -0.571 107 116 133
0.458431 -0.433416 -0.571 121 121 121
0.475833 -0.433416 -0.571 25 48 92
0.477756 -0.434175 -0.572 23 46 90
0.482359 -0.433416 -0.571 19 42 84
0.465281 -0.372692 -0.491 166 119 99
0.0169133 -0.314273 -0.413 191 148 114
0.023319 -0.315795 -0.415 186 141 108
0.0322457 -0.318078 -0.418 178 131 103
0.0496686 -0.322644 -0.424 149 103 90
0.056659 -0.325688 -0.428 130 89 83
0.0674667 -0.334819 -0.44 107 78 74
0.0765314 -0.345472 -0.454 93 72 71
0.0789505 -0.348516 -0.458 91 71 64
0.08424 -0.356126 -0.468 88 67 66
0.0943467 -0.371345 -0.488 89 71 71
0.462782 -0.434504 -0.571 138 135 144
0.47257 -0.434504 -0.571 62 89 132
0.484771 -0.433743 -0.57 77 99 136
0.464481 -0.39189 -0.515 152 115 97
0.463654 -0.390369 -0.513 156 119 101
0.462351 -0.381237 -0.501 167 125 103
0.465281 -0.373628 -0.491 167 120 100
0.524719 -0.384281 -0.505 148 106 82
0.987806 -0.429177 -0.564 106 106 104
0.992786 -0.429938 -0.565 103 103 101
0.00824 -0.314297 -0.412 195 157 121
0.00980952 -0.314297 -0.412 193 152 120
0.011379 -0.314297 -0.412 193 153 118
0.0185314 -0.315823 -0.414 186 143 109
0.0338381 -0.318874 -0.418 174 129 100
0.0429019 -0.321163 -0.421 162 115 97
0.0454152 -0.321926 -0.422 155 109 94
0.0625571 -0.331843 -0.435 119 85 76
0.06762 -0.33642 -0.441 105 76 70
0.0686152 -0.337183 -0.442 104 75 69
0.0791229 -0.350151 -0.459 90 71 67
0.08424 -0.357017 -0.468 88 67 66
0.0856771 -0.359306 -0.471 88 67 66
0.0993248 -0.380666 -0.499 93 79 79
0.455457 -0.434829 -0.57 143 144 149
0.476086 -0.434829 -0.57 36 60 98
0.480429 -0.434829 -0.57 35 68 113
0.469704 -0.398974 -0.523 141 112 96
0.463333 -0.381429 -0.5 166 123 104
0.463377 -0.379903 -0.498 172 127 106
0.47726 -0.371511 -0.487 166 120 96
0.501755 -0.374563 -0.491 162 116 92
0.518571 -0.381429 -0.5 150 108 84
0.521602 -0.382954 -0.502 147 105 81
0.988481 -0.431014 -0.565 106 110 109
1.0009 -0.434066 -0.569 114 108 110
-0.0084 -0.3212 -0.42 187 154 123
0.0177429 -0.316611 -0.414 187 144 112
0.0224743 -0.316611 -0.414 185 142 108
0.06062 -0.331142 -0.433 122 85 76
0.0755 -0.346437 -0.453 90 69 68
0.0873095 -0.363262 -0.475 91 67 67
0.09454 -0.373969 -0.489 90 71 73
0.102037 -0.384675 -0.503 97 83 82
0.107414 -0.393852 -0.515 178 180 201
0.458714 -0.435914 -0.57 107 108 113
0.4632 -0.38544 -0.504 166 125 103
0.466229 -0.376263 -0.492 169 124 103
0.47726 -0.372439 -0.487 167 121 97
0.488465 -0.373204 -0.488 159 113 89
0.494971 -0.373204 -0.488 158 110 87
0.500733 -0.374733 -0.49 160 114 88
0.503626 -0.375498 -0.491 160 116 91
0.916914 -0.434385 -0.568 198 200 186
0.917996 -0.434385 -0.568 196 199 188
0.989629 -0.435914 -0.57 109 109 99
1.00483 -0.435914 -0.57 108 106 107
1.01448 -0.438209 -0.573 106 106 106
0.00118 -0.316633 -0.413 192 153 122
0.0105943 -0.315867 -0.412 194 153 121
0.0289914 -0.3197 -0.417 175 132 100
0.0438076 -0.323533 -0.422 153 106 88
0.0471343 -0.3243 -0.423 148 101 91
0.0596571 -0.3312 -0.432 124 87 78
0.0768686 -0.3496 -0.456 89 69 70
0.122048 -0.421667 -0.55 97 117 154
0.124214 -0.4255 -0.555 88 119 165
0.449239 -0.436233 -0.569 143 146 153
0.45249 -0.436233 -0.569 142 145 152
0.460077 -0.436233 -0.569 99 102 117
0.465496 -0.436233 -0.569 99 114 135
0.464026 -0.3887 -0.507 163 120 103
0.483753 -0.373367 -0.487 164 118 94
0.511408 -0.378733 -0.494 154 112 88
0.523514 -0.384867 -0.502 145 105 80
0.590357 -0.422433 -0.551 196 193 188
1.00114 -0.4416 -0.576 112 108 105
0.023319 -0.318957 -0.415 181 138 106
0.0463286 -0.325106 -0.423 149 103 87
0.0471343 -0.325106 -0.423 146 100 87
0.0657905 -0.338171 -0.44 108 79 73
0.06678 -0.33894 -0.441 107 78 72
0.0710943 -0.343551 -0.447 95 69 68
0.086041 -0.363534 -0.473 91 67 67
0.445988 -0.437317 -0.569 147 150 157
0.453574 -0.437317 -0.569 145 147 159
0.46658 -0.437317 -0.569 126 137 155
0.46727 -0.397351 -0.517 144 113 95
0.483753 -0.374294 -0.487 165 119 95
0.488391 -0.374294 -0.487 163 117 93
0.581852 -0.418871 -0.545 197 184 175
0.898592 -0.435011 -0.566 183 185 172
-0.0108514 -0.325141 -0.422 192 153 124
-0.00592857 -0.319748 -0.415 195 150 119
0.00353143 -0.317436 -0.412 191 150 118
0.00824 -0.317436 -0.412 193 152 122
0.023319 -0.319748 -0.415 182 139 107
0.0281971 -0.321289 -0.417 177 132 101
0.0314495 -0.322059 -0.418 175 130 101
0.0346343 -0.322059 -0.418 171 126 95
0.0542133 -0.329764 -0.428 132 94 83
0.0578771 -0.332075 -0.431 127 90 81
0.0821048 -0.359042 -0.466 87 67 66
0.461432 -0.43763 -0.568 66 78 100
0.46311 -0.389861 -0.506 164 119 98
0.46416 -0.38832 -0.504 169 121 98
0.464197 -0.38755 -0.503 167 120 100
0.46436 -0.380615 -0.494 171 125 102
0.480909 -0.374451 -0.486 165 119 95
0.481834 -0.374451 -0.486 166 120 96
0.494885 -0.375222 -0.487 163 115 92
0.49869 -0.375992 -0.488 160 114 91
0.499619 -0.375992 -0.488 161 115 92
0.501478 -0.375992 -0.488 161 115 91
-0.00750952 -0.320538 -0.415 193 154 123
-0.00591429 -0.319766 -0.414 193 154 123
0.00431619 -0.318221 -0.412 192 151 121
0.00508857 -0.317449 -0.411 190 149 119
0.00822 -0.317449 -0.411 193 152 120
0.0137333 -0.318221 -0.412 191 148 116
0.02006 -0.318993 -0.413 186 142 113
0.023319 -0.320538 -0.415 180 137 103
0.0322457 -0.322855 -0.418 171 124 96
0.0330419 -0.322855 -0.418 173 126 98
0.0679267 -0.342165 -0.443 99 73 72
0.09454 -0.377694 -0.489 91 72 74
0.0962524 -0.380784 -0.493 92 73 75
0.446286 -0.438712 -0.568 152 155 164
0.459269 -0.438712 -0.568 63 78 101
0.4735 -0.4055 -0.525 139 106 89
0.464286 -0.38619 -0.5 168 123 100
0.472622 -0.37615 -0.487 171 125 101
0.476332 -0.37615 -0.487 172 126 102
0.481834 -0.375377 -0.486 165 119 93
0.495812 -0.37615 -0.487 161 115 91
0.49674 -0.37615 -0.487 159 113 89
0.507267 -0.378467 -0.49 157 113 86
0.51423 -0.381556 -0.494 153 109 82
0.880377 -0.435623 -0.564 180 182 171
0.00117429 -0.318231 -0.411 188 147 117
0.00587143 -0.318231 -0.411 194 153 123
0.00743714 -0.318231 -0.411 191 150 120
0.0314495 -0.323651 -0.418 167 122 93
0.0371114 -0.324426 -0.419 165 119 93
0.08514 -0.366237 -0.473 89 69 70
0.0865867 -0.36856 -0.476 88 68 69
0.0997229 -0.387917 -0.501 91 80 84
0.45414 -0.43902 -0.567 147 150 159
0.45522 -0.43902 -0.567 149 152 161
0.46512 -0.39024 -0.504 165 120 99
0.465274 -0.385594 -0.498 169 124 103
0.48276 -0.376303 -0.486 165 119 93
0.49572 -0.376303 -0.486 161 115 89
0.517157 -0.383271 -0.495 148 107 77
-0.00749143 -0.321343 -0.414 191 150 118
0.00352286 -0.319014 -0.411 194 151 119
0.00665429 -0.319014 -0.411 197 154 122
0.0137333 -0.31979 -0.412 192 148 119
0.0314495 -0.324448 -0.418 164 118 92
0.033919 -0.325224 -0.419 166 122 93
0.0629886 -0.339971 -0.438 114 80 78
0.0704 -0.347733 -0.448 90 72 68
0.0749667 -0.353167 -0.455 89 69 70
0.0824571 -0.363257 -0.468 89 68 65
0.0997229 -0.388871 -0.501 90 79 83
0.490216 -0.424576 -0.547 119 100 93
0.465214 -0.388871 -0.501 167 122 103
0.474477 -0.378005 -0.487 171 126 103
0.476332 -0.378005 -0.487 172 127 104
0.477206 -0.377229 -0.486 173 128 105
0.513086 -0.381886 -0.492 155 109 83
0.5181 -0.384214 -0.495 147 106 76
-0.0142333 -0.332247 -0.427 187 148 117
-0.00988095 -0.32291 -0.415 191 152 121
-0.00353143 -0.320575 -0.412 192 151 119
-0.00274 -0.319797 -0.411 193 152 120
0.00900286 -0.319797 -0.411 192 148 119
0.0169133 -0.321353 -0.413 185 140 109
0.023319 -0.32291 -0.415 181 136 105
0.0281295 -0.323688 -0.416 172 127 98
0.033919 -0.326022 -0.419 163 119 90
0.0463286 -0.329134 -0.423 139 97 81
0.0497857 -0.33069 -0.425 142 99 83
0.0799848 -0.361036 -0.464 87 67 69
0.082281 -0.36337 -0.467 88 68 70
0.109083 -0.406944 -0.523 205 211 233
0.453339 -0.440402 -0.566 148 156 167
0.477057 -0.440402 -0.566 103 116 148
0.464197 -0.391382 -0.503 164 119 98
0.465155 -0.391382 -0.503 164 119 98
0.465295 -0.385935 -0.496 170 124 101
0.466237 -0.383601 -0.493 171 125 102
0.467166 -0.382823 -0.492 168 122 98
0.469 -0.381267 -0.49 170 125 102
0.472663 -0.37971 -0.488 171 125 101
0.491005 -0.377376 -0.485 163 117 93
0.4947 -0.377376 -0.485 162 115 87
0.848352 -0.43729 -0.562 150 151 143
-0.00510095 -0.32136 -0.412 190 149 117
0.00508857 -0.32058 -0.411 196 153 119
0.0192733 -0.32214 -0.413 184 139 106
0.0216857 -0.32292 -0.414 181 136 105
0.0241095 -0.3237 -0.415 178 135 103
0.0330419 -0.32604 -0.418 163 119 92
0.05246 -0.33306 -0.427 131 93 80
0.0562352 -0.33618 -0.431 124 90 80
0.082281 -0.36426 -0.467 88 68 70
0.0953133 -0.38454 -0.493 85 69 69
0.101883 -0.39546 -0.507 143 143 155
0.105452 -0.4017 -0.515 214 219 239
0.466243 -0.3861 -0.495 173 129 104
0.469 -0.3822 -0.49 171 125 101
0.471733 -0.38064 -0.488 173 127 103
0.49368 -0.37752 -0.484 162 115 89
0.499319 -0.3783 -0.485 162 116 90
0.5022 -0.37908 -0.486 159 115 88
0.841929 -0.43836 -0.562 138 138 130
0.84407 -0.43836 -0.562 133 133 125
0.87102 -0.44226 -0.567 119 120 112
-0.00274 -0.321363 -0.411 195 155 120
0.00274 -0.321363 -0.411 189 149 114
0.00430571 -0.321363 -0.411 190 147 113
0.00822 -0.321363 -0.411 187 144 112
0.0121343 -0.321363 -0.411 189 146 114
0.0153029 -0.322145 -0.412 183 140 106
0.0160876 -0.322145 -0.412 182 139 105
0.0256905 -0.32449 -0.415 175 131 102
0.0364 -0.3284 -0.42 163 119 92
0.0396943 -0.329182 -0.421 154 109 88
0.0516467 -0.333873 -0.427 132 92 80
0.0525829 -0.334655 -0.428 130 92 81
0.0552857 -0.336219 -0.43 126 89 80
0.0571886 -0.337783 -0.432 121 87 78
0.0922981 -0.380788 -0.487 85 70 73
0.0955067 -0.386261 -0.494 88 72 72
0.0985714 -0.390952 -0.5 89 80 83
0.105452 -0.402681 -0.515 212 213 231
0.45873 -0.442558 -0.566 146 153 169
0.463042 -0.442558 -0.566 152 150 161
0.466529 -0.441776 -0.565 135 139 151
0.467687 -0.399553 -0.511 152 111 91
0.466209 -0.39017 -0.499 169 127 103
0.467166 -0.384697 -0.492 167 123 98
0.478995 -0.379224 -0.485 172 124 101
0.85611 -0.441776 -0.565 115 116 108
0.860414 -0.441776 -0.565 122 123 115
0.0144829 -0.322146 -0.411 184 139 106
0.0224743 -0.324497 -0.414 177 133 104
0.0249 -0.325281 -0.415 176 132 103
0.0413962 -0.330768 -0.422 149 106 89
0.0489762 -0.333119 -0.425 140 98 84
0.0554143 -0.337822 -0.431 123 89 79
0.0675371 -0.349579 -0.446 91 72 68
0.462224 -0.442852 -0.565 156 155 161
0.472952 -0.407581 -0.52 141 104 86
0.467743 -0.399743 -0.51 152 114 95
0.466223 -0.390337 -0.498 164 124 99
0.466233 -0.389553 -0.497 162 120 96
0.469906 -0.383283 -0.489 170 126 101
0.496446 -0.379364 -0.484 161 115 89
0.501167 -0.380148 -0.485 161 115 89
0.50209 -0.380148 -0.485 160 114 88
0.810133 -0.438933 -0.56 152 151 146
0.819733 -0.438933 -0.56 137 137 129
0.830814 -0.439717 -0.561 125 125 117
0.85439 -0.443636 -0.566 121 122 116
0.86346 -0.44442 -0.567 116 117 111
0.0216857 -0.325286 -0.414 174 133 103
0.0363133 -0.329214 -0.419 158 113 90
0.084061 -0.370857 -0.472 88 68 69
0.477206 -0.381857 -0.486 172 126 100
0.478995 -0.381071 -0.485 176 129 103
0.816923 -0.440786 -0.561 123 123 115
0.866506 -0.447071 -0.569 117 118 112
0.892322 -0.454143 -0.578 119 118 113
-0.0174867 -0.336313 -0.427 183 148 118
-0.0165562 -0.33395 -0.424 186 150 116
-0.000390476 -0.322924 -0.41 191 151 115
0.00273333 -0.322924 -0.41 187 144 112
0.00898095 -0.322924 -0.41 187 142 111
0.0097619 -0.322924 -0.41 187 142 111
0.0113514 -0.323711 -0.411 191 146 115
0.0184867 -0.325287 -0.413 181 136 107
0.0192733 -0.325287 -0.413 180 135 106
0.0355152 -0.330012 -0.419 157 112 91
0.0635638 -0.348128 -0.442 97 77 70
0.0645514 -0.348915 -0.443 96 77 71
0.0958933 -0.390659 -0.496 89 73 74
0.104269 -0.404836 -0.514 221 223 236
0.451737 -0.444217 -0.564 59 78 118
0.456034 -0.444217 -0.564 147 155 166
0.464629 -0.444217 -0.564 151 158 168
0.47659 -0.412712 -0.524 135 102 87
0.467186 -0.389871 -0.495 167 123 98
0.46904 -0.387509 -0.492 170 124 98
0.477206 -0.382783 -0.486 173 127 101
0.483614 -0.381995 -0.485 170 123 93
0.483539 -0.381208 -0.484 170 123 95
0.495524 -0.381208 -0.484 162 116 90
0.503821 -0.381208 -0.484 159 115 90
0.810886 -0.442642 -0.562 116 115 110
0.829886 -0.444217 -0.564 111 110 105
0.833109 -0.444217 -0.564 119 118 113
0.836738 -0.445005 -0.565 121 120 115
0.878054 -0.451306 -0.573 123 124 118
-0.0130114 -0.326863 -0.414 187 151 117
-0.00822 -0.324494 -0.411 191 153 117
0.00429524 -0.323705 -0.41 188 145 111
0.0281295 -0.328442 -0.416 163 118 97
0.0347171 -0.33081 -0.419 162 115 95
0.0431057 -0.333969 -0.423 144 101 84
0.0473571 -0.335548 -0.425 141 99 83
0.0481667 -0.335548 -0.425 141 99 83
0.0635638 -0.34897 -0.442 100 79 74
0.0742629 -0.360023 -0.456 91 71 70
0.084239 -0.373445 -0.473 89 69 70
0.0960867 -0.392393 -0.497 90 76 75
0.097619 -0.394762 -0.5 92 78 77
0.101116 -0.401078 -0.508 216 206 214
0.45737 -0.444502 -0.563 120 119 117
0.464629 -0.445291 -0.564 158 165 173
0.466113 -0.39713 -0.503 164 118 95
0.509606 -0.383709 -0.486 155 114 84
0.8084 -0.445291 -0.564 103 102 98
0.814846 -0.445291 -0.564 115 114 109
0.829205 -0.446081 -0.565 120 119 114
0.833907 -0.44687 -0.566 115 115 107
-0.00195238 -0.324486 -0.41 192 152 117
0.0273371 -0.329234 -0.416 163 116 96
0.033919 -0.331609 -0.419 161 116 97
0.0356 -0.3324 -0.42 160 113 97
0.0423 -0.334774 -0.423 144 101 85
0.0465476 -0.336357 -0.425 139 100 83
0.0490914 -0.337149 -0.426 135 96 81
0.0720486 -0.358517 -0.453 92 72 71
0.0732333 -0.3601 -0.455 92 72 71
0.460588 -0.445574 -0.563 163 162 160
0.468094 -0.445574 -0.563 60 83 114
0.489086 -0.427371 -0.54 113 94 80
0.471411 -0.406794 -0.514 151 108 91
0.467143 -0.395714 -0.5 167 122 99
0.468103 -0.389383 -0.492 168 121 95
0.469022 -0.388591 -0.491 170 124 100
0.469933 -0.3878 -0.49 169 122 96
0.475354 -0.384634 -0.486 179 129 102
0.48898 -0.38226 -0.483 169 122 92
0.497149 -0.381469 -0.482 165 118 90
0.498985 -0.381469 -0.482 163 117 91
0.50094 -0.38226 -0.483 161 115 89
0.827438 -0.447949 -0.566 121 121 113
0.841181 -0.449531 -0.568 119 118 113
0.853642 -0.452697 -0.572 117 116 111
0.867806 -0.452697 -0.572 111 112 106
0.00585714 -0.325267 -0.41 191 148 114
0.0066381 -0.325267 -0.41 189 146 112
0.0423 -0.33558 -0.423 145 101 88
0.0518886 -0.34034 -0.429 128 92 80
0.0586829 -0.346687 -0.437 112 85 76
0.0676886 -0.35462 -0.447 97 76 73
0.0964733 -0.395873 -0.499 84 75 80
0.10329 -0.407773 -0.514 220 222 234
0.459515 -0.446647 -0.563 160 162 174
0.47628 -0.38556 -0.486 174 127 99
0.479983 -0.38556 -0.486 175 125 98
0.4945 -0.38318 -0.483 162 115 87
0.497149 -0.382387 -0.482 166 119 91
0.5037 -0.38318 -0.483 160 115 86
0.861 -0.455373 -0.574 85 86 81
0.871933 -0.455373 -0.574 101 102 96
0.87412 -0.455373 -0.574 99 100 94
-0.018 -0.334 -0.42 184 143 111
-0.0162438 -0.330819 -0.416 191 150 118
-0.0129486 -0.327638 -0.412 187 147 112
-0.00194762 -0.325252 -0.409 192 149 115
0.00429524 -0.326048 -0.41 188 145 111
0.0097619 -0.326048 -0.41 188 144 109
0.0380905 -0.334795 -0.421 150 104 88
0.0501371 -0.340362 -0.428 130 92 81
0.0528286 -0.341952 -0.43 122 90 79
0.05472 -0.343543 -0.432 115 87 76
0.0575857 -0.345929 -0.435 113 86 75
0.06258 -0.3507 -0.441 102 80 69
0.06784 -0.356267 -0.448 97 76 73
0.08604 -0.380124 -0.478 88 68 69
0.105486 -0.413524 -0.52 223 225 237
0.453347 -0.446924 -0.562 150 165 184
0.468124 -0.392848 -0.494 168 124 99
0.469933 -0.389667 -0.49 171 125 99
0.470837 -0.388871 -0.489 169 123 97
0.471733 -0.388076 -0.488 173 127 101
0.477148 -0.38569 -0.485 174 124 97
0.481695 -0.384895 -0.484 178 128 101
0.494394 -0.383305 -0.482 163 116 88
0.50462 -0.3841 -0.483 164 117 91
0.585713 -0.428633 -0.539 189 183 171
0.8246 -0.453286 -0.57 119 118 114
0.855134 -0.455671 -0.573 112 115 108
0.00272667 -0.326031 -0.409 191 148 113
0.00429524 -0.326829 -0.41 188 145 111
0.0314495 -0.333206 -0.418 159 112 94
0.471774 -0.447197 -0.561 61 88 131
0.471528 -0.408137 -0.512 142 104 83
0.467159 -0.397774 -0.499 161 119 97
0.470837 -0.389803 -0.489 171 125 101
0.472622 -0.388209 -0.487 176 129 103
0.499782 -0.383426 -0.481 162 116 90
0.505411 -0.384223 -0.482 161 114 88
0.828222 -0.455169 -0.571 118 123 116
0.827857 -0.454371 -0.57 120 123 112
0.842361 -0.455169 -0.571 116 115 110
0.857024 -0.458357 -0.575 108 109 103
0.859214 -0.458357 -0.575 118 119 113
0.861405 -0.458357 -0.575 110 112 107
-0.0206429 -0.339595 -0.425 190 147 115
-0.0105429 -0.32761 -0.41 190 150 115
-0.00818 -0.32681 -0.409 191 148 113
0.000389524 -0.32681 -0.409 194 151 116
0.00116857 -0.32681 -0.409 192 152 116
0.00272667 -0.32681 -0.409 192 149 114
0.0184867 -0.330007 -0.413 175 130 99
0.0509524 -0.341992 -0.428 129 91 80
0.0658381 -0.356375 -0.446 100 76 72
0.0783857 -0.371557 -0.465 86 66 65
0.0808467 -0.374753 -0.469 84 66 66
0.10231 -0.41071 -0.514 225 222 231
0.48224 -0.421897 -0.528 125 93 80
0.472449 -0.409911 -0.513 145 104 84
0.468115 -0.39393 -0.493 168 122 99
0.475354 -0.388337 -0.486 171 124 98
0.51516 -0.388337 -0.486 151 111 85
0.846015 -0.457055 -0.572 102 103 97
-0.0145181 -0.329992 -0.412 188 148 113
-0.0121048 -0.32839 -0.41 189 149 114
0.0289914 -0.333997 -0.417 160 113 95
0.0597876 -0.351618 -0.439 109 82 75
0.0836905 -0.380452 -0.475 86 66 67
0.0849514 -0.382054 -0.477 85 67 67
0.10251 -0.41249 -0.515 223 220 227
0.461089 -0.449334 -0.561 162 165 170
0.463226 -0.449334 -0.561 152 156 167
0.477831 -0.417296 -0.521 132 103 85
0.469933 -0.392467 -0.49 171 125 102
0.48438 -0.38686 -0.483 169 123 97
0.486131 -0.386059 -0.482 167 121 95
0.831833 -0.460548 -0.575 105 106 110
-0.01946 -0.334791 -0.417 188 148 113
-0.0169133 -0.33158 -0.413 185 149 113
-0.0105171 -0.328369 -0.409 189 149 113
0.00272667 -0.328369 -0.409 191 148 114
0.0249 -0.333186 -0.415 168 120 97
0.0306533 -0.335594 -0.418 160 114 91
0.0483933 -0.34282 -0.427 129 91 80
0.0520095 -0.345229 -0.43 121 84 75
0.0568876 -0.350046 -0.436 116 86 78
0.0588171 -0.351651 -0.438 109 80 74
0.0972467 -0.403837 -0.503 134 128 132
0.4656 -0.4496 -0.56 65 95 145
0.473426 -0.411866 -0.513 141 104 85
0.469957 -0.394203 -0.491 169 123 100
0.496914 -0.385371 -0.48 168 122 96
0.505143 -0.385371 -0.48 156 112 83
0.510002 -0.386977 -0.482 152 111 83
0.876491 -0.463249 -0.577 99 102 93
0.882413 -0.464051 -0.578 26 29 18
-0.00582857 -0.328343 -0.408 189 147 107
-0.00272 -0.328343 -0.408 192 149 114
-0.00116857 -0.329148 -0.409 191 148 114
0.00898095 -0.329952 -0.41 184 141 107
0.0232629 -0.333171 -0.414 168 120 97
0.0289914 -0.335586 -0.417 160 114 90
0.033121 -0.337195 -0.419 156 110 87
0.0348 -0.338 -0.42 155 109 86
0.0380905 -0.338805 -0.421 149 104 81
0.0649886 -0.358924 -0.446 97 76 73
0.0671362 -0.361338 -0.449 94 73 70
0.0726848 -0.367776 -0.457 89 68 67
0.467963 -0.449862 -0.559 38 70 127
0.471157 -0.449862 -0.559 21 58 111
0.46989 -0.406405 -0.505 148 109 92
0.468127 -0.399967 -0.497 161 119 97
0.477206 -0.391114 -0.486 169 121 98
0.478995 -0.39031 -0.485 174 126 103
0.486955 -0.38709 -0.481 171 124 98
0.526071 -0.395138 -0.491 141 104 78
0.869202 -0.465152 -0.578 88 90 85
0.872505 -0.465152 -0.578 97 99 94
-0.0230714 -0.342833 -0.425 189 146 111
-0.0128543 -0.329927 -0.409 187 148 109
0.00272667 -0.329927 -0.409 192 148 113
0.0168724 -0.332347 -0.412 176 131 100
0.0184419 -0.332347 -0.412 174 127 99
0.0397886 -0.340413 -0.422 145 100 79
0.0423 -0.34122 -0.423 142 99 80
0.0609 -0.35574 -0.441 104 79 74
0.0630057 -0.35816 -0.444 103 78 74
0.0962886 -0.405753 -0.503 148 135 145
0.471714 -0.409787 -0.508 146 107 90
0.46813 -0.400107 -0.496 164 122 97
0.468129 -0.3993 -0.495 164 122 97
0.482617 -0.390427 -0.484 169 123 97
0.48438 -0.38962 -0.483 169 122 96
0.484295 -0.388813 -0.482 168 121 95
0.494054 -0.386393 -0.479 168 123 94
0.494967 -0.386393 -0.479 168 121 93
0.854126 -0.46464 -0.576 25 27 22
0.8685 -0.46706 -0.579 107 112 106
0.882152 -0.467867 -0.58 101 104 97
-0.0229629 -0.342026 -0.423 189 146 112
-0.00272 -0.329897 -0.408 196 152 115
-0.000388571 -0.329897 -0.408 191 147 112
0.0240514 -0.334749 -0.414 166 119 93
0.0511905 -0.347686 -0.43 123 87 75
0.0521305 -0.348494 -0.431 119 85 75
0.0672857 -0.363857 -0.45 96 72 72
0.0764495 -0.375177 -0.464 88 68 69
0.465 -0.451183 -0.558 51 83 124
0.466063 -0.451183 -0.558 36 73 118
0.46906 -0.403477 -0.499 156 111 88
0.469054 -0.398626 -0.493 162 120 95
0.482617 -0.391349 -0.484 170 124 98
0.498486 -0.386497 -0.478 164 119 90
0.500307 -0.386497 -0.478 164 118 92
0.503038 -0.386497 -0.478 160 116 89
0.5907 -0.434203 -0.537 180 173 163
0.868895 -0.468971 -0.58 97 102 96
0.872607 -0.46978 -0.581 91 96 90
0.87814 -0.46978 -0.581 123 125 120
-0.0192733 -0.334727 -0.413 186 146 111
0.0145181 -0.333916 -0.412 175 130 99
0.0184419 -0.333916 -0.412 172 125 99
0.0485067 -0.346884 -0.428 128 90 79
0.0570181 -0.354178 -0.437 110 81 75
0.0631476 -0.360662 -0.445 100 76 72
0.0802943 -0.381734 -0.471 87 68 70
0.452246 -0.452246 -0.558 54 80 131
0.454371 -0.452246 -0.558 74 95 138
0.469251 -0.452246 -0.558 43 74 120
0.475328 -0.416585 -0.514 136 103 88
0.478131 -0.393891 -0.486 168 122 96
0.483539 -0.39227 -0.484 172 125 99
0.484461 -0.39227 -0.484 169 122 96
0.495754 -0.387408 -0.478 166 119 93
0.498486 -0.387408 -0.478 166 120 94
0.503949 -0.387408 -0.478 155 111 84
0.506828 -0.388218 -0.479 152 111 83
0.50774 -0.388218 -0.479 152 111 83
0.52164 -0.393891 -0.486 147 110 81
-0.00814 -0.330639 -0.407 185 142 107
-0.00505143 -0.331451 -0.408 187 143 108
0.0208971 -0.336326 -0.414 170 123 97
0.044119 -0.345262 -0.425 136 94 78
0.0494371 -0.348511 -0.429 128 90 79
0.0674352 -0.366384 -0.451 92 71 70
0.0707886 -0.370446 -0.456 88 68 69
0.0778333 -0.379382 -0.467 85 69 70
0.456497 -0.453309 -0.558 149 164 185
0.471593 -0.452496 -0.557 30 66 116
0.475837 -0.452496 -0.557 57 95 144
0.477959 -0.452496 -0.557 74 105 149
0.47902 -0.452496 -0.557 64 92 140
0.480737 -0.424063 -0.522 125 96 82
0.470837 -0.397254 -0.489 164 120 95
0.47628 -0.394817 -0.486 168 122 98
0.486039 -0.390755 -0.481 171 124 98
0.486955 -0.390755 -0.481 172 125 99
0.491202 -0.388318 -0.478 172 125 99
0.492112 -0.388318 -0.478 173 126 100
0.49926 -0.387506 -0.477 166 121 92
0.529812 -0.398879 -0.491 146 109 82
0.842031 -0.470369 -0.579 109 115 113
0.845349 -0.467931 -0.576 112 117 113
-0.0120162 -0.331414 -0.407 186 143 109
-0.00891524 -0.331414 -0.407 187 144 110
0.0201086 -0.337114 -0.414 167 120 94
0.0936219 -0.406329 -0.499 92 84 95
0.0970543 -0.412843 -0.507 214 214 226
0.451435 -0.453557 -0.557 114 135 162
0.465228 -0.453557 -0.557 80 113 156
0.470532 -0.453557 -0.557 36 74 123
0.481142 -0.453557 -0.557 74 96 120
0.482203 -0.453557 -0.557 117 139 163
0.479886 -0.423429 -0.52 124 96 82
0.47001 -0.406329 -0.499 154 113 91
0.472622 -0.396557 -0.487 165 121 96
0.478995 -0.394929 -0.485 167 121 97
0.483539 -0.394114 -0.484 170 124 98
0.487771 -0.390857 -0.48 164 117 91
-0.0225286 -0.338719 -0.415 187 147 112
-0.0216857 -0.337903 -0.414 188 148 113
-0.0167495 -0.333822 -0.409 189 146 112
-0.0120162 -0.33219 -0.407 185 145 110
-0.00503905 -0.33219 -0.407 186 146 110
-0.00194286 -0.333006 -0.408 189 147 109
0.00194762 -0.333822 -0.409 189 145 110
0.00428476 -0.333822 -0.409 188 142 106
0.0315248 -0.341984 -0.419 154 108 84
0.0522514 -0.352594 -0.432 116 82 73
0.0611762 -0.361572 -0.443 101 76 72
0.455679 -0.454618 -0.557 164 171 181
0.480278 -0.453802 -0.556 76 96 120
0.481337 -0.453802 -0.556 114 134 158
0.484514 -0.453802 -0.556 146 153 163
0.491928 -0.453802 -0.556 134 141 151
0.492987 -0.453802 -0.556 134 136 149
0.470017 -0.406463 -0.498 150 114 90
0.485213 -0.393404 -0.482 169 123 97
0.495493 -0.388507 -0.476 170 123 95
0.500027 -0.388507 -0.476 163 118 87
0.527505 -0.398301 -0.488 149 108 78
-0.0191333 -0.335419 -0.41 190 147 113
0.00428476 -0.334601 -0.409 187 144 109
0.0192733 -0.337873 -0.413 168 123 94
0.0216857 -0.338691 -0.414 168 120 97
0.0224743 -0.338691 -0.414 170 122 99
0.0257524 -0.340328 -0.416 161 113 90
0.0476914 -0.350145 -0.428 130 91 76
0.0581152 -0.359144 -0.439 108 81 74
0.0632895 -0.36487 -0.446 98 74 72
0.08766 -0.398412 -0.487 83 68 65
0.0938095 -0.409048 -0.5 105 101 124
0.447448 -0.454861 -0.556 154 175 194
0.454618 -0.455679 -0.557 170 176 188
0.46735 -0.455679 -0.557 76 105 149
0.485342 -0.431136 -0.527 117 91 78
0.473503 -0.397594 -0.486 164 123 95
0.480843 -0.396776 -0.485 167 121 97
0.48346 -0.39514 -0.483 173 127 101
0.493809 -0.390231 -0.477 174 129 100
0.495493 -0.389413 -0.476 172 125 97
0.497307 -0.389413 -0.476 169 123 90
0.50169 -0.388595 -0.475 161 118 86
-0.0207457 -0.33702 -0.411 189 149 114
-0.0191333 -0.3362 -0.41 187 147 112
0.0105429 -0.3362 -0.41 177 132 101
0.0298571 -0.34276 -0.418 155 108 88
0.0415924 -0.34768 -0.424 139 95 82
0.0468762 -0.35096 -0.428 132 90 78
0.0523724 -0.35506 -0.433 117 83 74
0.05332 -0.35588 -0.434 116 82 73
0.0623 -0.3649 -0.445 96 72 68
0.470532 -0.45674 -0.557 65 93 140
0.475837 -0.45674 -0.557 70 100 138
0.500074 -0.45756 -0.558 110 109 114
0.503263 -0.45756 -0.558 102 103 105
0.504483 -0.45674 -0.557 108 103 109
0.472577 -0.39852 -0.486 167 123 98
0.479919 -0.3977 -0.485 166 120 96
0.532467 -0.4018 -0.49 141 106 86
-0.0215286 -0.337803 -0.411 186 146 111
-0.01276 -0.333693 -0.406 188 145 111
0.00272 -0.335337 -0.408 180 135 104
0.0281971 -0.342734 -0.417 157 109 87
0.0373771 -0.346844 -0.422 140 97 81
0.0450343 -0.350131 -0.426 129 89 77
0.0476914 -0.351775 -0.428 129 89 77
0.0783333 -0.386295 -0.47 85 66 68
0.0797343 -0.388761 -0.473 85 66 68
0.0809762 -0.390405 -0.475 85 67 67
0.0865543 -0.399446 -0.486 79 63 64
0.464167 -0.457801 -0.557 97 110 126
0.465228 -0.457801 -0.557 95 112 140
0.483069 -0.458623 -0.558 112 119 125
0.484131 -0.458623 -0.558 126 127 129
0.504165 -0.459445 -0.559 110 104 106
0.469993 -0.405199 -0.493 161 116 93
0.4753 -0.398624 -0.485 171 125 102
0.485943 -0.394514 -0.48 170 124 98
0.490291 -0.39287 -0.478 168 121 95
0.49368 -0.391227 -0.476 172 125 99
0.500634 -0.389583 -0.474 165 120 91
0.504405 -0.390405 -0.475 160 115 86
0.50531 -0.390405 -0.475 157 113 84
-0.01276 -0.334467 -0.406 190 147 112
-0.00812 -0.334467 -0.406 186 143 108
0.00116286 -0.33529 -0.407 184 139 108
0.0160876 -0.33941 -0.412 170 123 95
0.0225286 -0.341881 -0.415 163 115 92
0.0257524 -0.342705 -0.416 158 110 87
0.038181 -0.347648 -0.422 138 94 81
0.0407848 -0.349295 -0.424 135 93 79
0.0542714 -0.358357 -0.435 110 81 73
0.0667238 -0.372362 -0.452 93 72 69
0.0799029 -0.390486 -0.474 85 67 67
0.08802 -0.402843 -0.489 84 68 69
0.0928571 -0.411905 -0.5 128 128 152
0.446643 -0.457214 -0.555 112 128 144
0.453802 -0.458038 -0.556 158 160 157
0.454861 -0.458038 -0.556 153 155 152
0.469251 -0.459686 -0.558 133 134 139
0.477754 -0.459686 -0.558 138 137 143
0.478817 -0.459686 -0.558 137 136 142
0.497776 -0.46051 -0.559 117 116 114
0.479143 -0.425086 -0.516 131 99 88
0.486857 -0.395429 -0.48 173 126 100
0.491867 -0.392133 -0.476 173 126 98
0.507119 -0.39131 -0.475 164 119 90
0.513797 -0.392957 -0.477 162 115 87
0.52394 -0.3979 -0.483 145 105 80
-0.0198657 -0.337717 -0.409 180 137 103
0.0153029 -0.340194 -0.412 170 123 95
0.0274029 -0.344323 -0.417 153 107 84
0.0373771 -0.348451 -0.422 138 95 78
0.0416905 -0.350929 -0.425 134 95 80
0.0442229 -0.351754 -0.426 130 92 79
0.04514 -0.35258 -0.427 128 90 77
0.05332 -0.35836 -0.434 110 80 70
0.0593543 -0.364966 -0.442 101 77 65
0.06244 -0.368269 -0.446 97 75 62
0.0825705 -0.395517 -0.479 85 65 64
0.449566 -0.459097 -0.556 142 148 146
0.451684 -0.459097 -0.556 149 153 154
0.460984 -0.459923 -0.557 155 156 158
0.473503 -0.460749 -0.558 148 149 151
0.483934 -0.461574 -0.559 134 135 140
0.508106 -0.463226 -0.561 99 90 83
0.508267 -0.4624 -0.56 96 87 80
0.505843 -0.458271 -0.555 89 78 74
0.480071 -0.426894 -0.517 126 96 86
0.471914 -0.411206 -0.498 152 111 89
0.471913 -0.41038 -0.497 154 113 91
0.470947 -0.407903 -0.494 155 113 91
0.473452 -0.400471 -0.485 166 122 97
0.48665 -0.394691 -0.478 175 128 102
0.501537 -0.391389 -0.474 165 120 91
0.509833 -0.392214 -0.475 160 115 86
0.51272 -0.39304 -0.476 161 116 87
0.519771 -0.396343 -0.48 147 107 82
0.523773 -0.397994 -0.482 142 107 85
0.526869 -0.399646 -0.484 139 104 82
0.529971 -0.401297 -0.486 136 104 83
-0.000387619 -0.336841 -0.407 186 141 108
0.0153029 -0.340979 -0.412 174 124 97
0.0274029 -0.345117 -0.417 153 107 84
0.0390771 -0.350083 -0.423 135 93 77
0.0524933 -0.359187 -0.434 113 81 70
0.0614524 -0.36829 -0.445 98 75 61
0.0690514 -0.377394 -0.456 94 71 63
0.0932286 -0.415465 -0.502 203 210 226
0.423678 -0.458501 -0.554 157 161 160
0.442414 -0.459329 -0.555 167 162 159
0.4848 -0.463467 -0.56 133 132 137
0.51354 -0.46926 -0.567 87 77 75
0.481 -0.428707 -0.518 124 94 83
0.476486 -0.422086 -0.51 134 100 88
0.471911 -0.412982 -0.499 147 108 91
0.470914 -0.407189 -0.492 154 113 91
0.477086 -0.400568 -0.484 166 120 96
0.481695 -0.400568 -0.484 174 127 101
0.48254 -0.39974 -0.483 173 126 100
0.488357 -0.394774 -0.477 174 127 99
0.503182 -0.391464 -0.473 161 116 87
0.506051 -0.392291 -0.474 162 117 88
0.515614 -0.394774 -0.477 149 108 80
0.519601 -0.39643 -0.479 147 106 84
-0.0158533 -0.336787 -0.406 188 143 110
-0.0142714 -0.335957 -0.405 191 146 113
-0.0111857 -0.335957 -0.405 191 146 113
-0.00964286 -0.335957 -0.405 189 145 110
0.00272 -0.338446 -0.408 182 138 103
0.0137 -0.340934 -0.411 173 124 94
0.0225286 -0.344252 -0.415 156 109 83
0.0281971 -0.345911 -0.417 154 108 85
0.0442229 -0.353377 -0.426 130 93 77
0.0487333 -0.356695 -0.43 118 84 72
0.0524933 -0.360013 -0.434 114 82 69
0.0564429 -0.364161 -0.439 107 79 67
0.05838 -0.36582 -0.441 101 78 64
0.422329 -0.460386 -0.555 175 171 170
0.4329 -0.460386 -0.555 171 171 179
0.446643 -0.460386 -0.555 159 162 167
0.45674 -0.462045 -0.557 156 155 150
0.458862 -0.462045 -0.557 152 153 145
0.490813 -0.466192 -0.562 124 122 125
0.50706 -0.47034 -0.567 89 85 84
0.5139 -0.473658 -0.571 80 74 76
0.4719 -0.410614 -0.495 151 110 88
0.491738 -0.394024 -0.475 172 127 98
0.493411 -0.393194 -0.474 169 124 95
-0.00961905 -0.335897 -0.404 187 143 108
0.000387619 -0.338391 -0.407 184 138 104
0.0168724 -0.342549 -0.412 168 118 91
0.0208971 -0.344211 -0.414 163 113 86
0.0442229 -0.354189 -0.426 130 93 77
0.0524933 -0.36084 -0.434 112 80 69
0.07038 -0.381626 -0.459 90 70 63
0.0843543 -0.402411 -0.484 82 64 64
0.0872667 -0.4074 -0.49 82 70 70
0.0936 -0.41904 -0.504 214 219 223
0.411327 -0.45978 -0.553 182 183 188
0.418402 -0.460611 -0.554 178 182 183
0.426557 -0.461443 -0.555 179 179 177
0.437129 -0.461443 -0.555 168 168 170
0.477968 -0.467263 -0.562 131 129 134
0.478354 -0.425691 -0.512 133 97 81
0.471769 -0.406569 -0.489 158 116 94
0.48665 -0.397423 -0.478 174 127 99
0.523429 -0.399086 -0.48 142 105 86
0.550487 -0.41322 -0.497 140 102 79
-0.0229819 -0.340833 -0.409 186 143 109
-0.021319 -0.339167 -0.407 185 142 107
-0.00193333 -0.338333 -0.406 185 141 106
0.0364867 -0.350833 -0.421 134 93 73
0.0373771 -0.351667 -0.422 137 96 76
0.0407848 -0.353333 -0.424 131 94 76
0.046061 -0.356667 -0.428 125 89 75
0.0648581 -0.375833 -0.451 91 72 66
0.0791667 -0.395833 -0.475 84 65 61
0.105274 -0.445 -0.534 98 129 176
0.38394 -0.460833 -0.553 151 158 166
0.388153 -0.460833 -0.553 171 169 170
0.42309 -0.463333 -0.556 180 179 185
0.455434 -0.465 -0.558 146 144 147
0.456497 -0.465 -0.558 145 143 146
0.465833 -0.465833 -0.559 132 130 133
0.470933 -0.466667 -0.56 124 122 125
0.483526 -0.471667 -0.566 107 105 110
0.485682 -0.471667 -0.566 106 104 109
0.471605 -0.404167 -0.485 160 115 92
0.4807 -0.4025 -0.483 174 128 104
0.481541 -0.401667 -0.482 170 124 100
0.50032 -0.393333 -0.472 168 121 93
0.516347 -0.396667 -0.476 144 107 81
0.02006 -0.344953 -0.413 163 116 90
0.0266086 -0.348294 -0.417 153 105 82
0.0407848 -0.354141 -0.424 130 93 75
0.0638571 -0.375857 -0.45 93 73 66
0.0671667 -0.380033 -0.455 89 72 64
0.0754867 -0.391727 -0.469 86 69 62
0.0779324 -0.395068 -0.473 83 66 59
0.38394 -0.461887 -0.553 181 182 186
0.386047 -0.461887 -0.553 179 180 184
0.388153 -0.461887 -0.553 182 180 185
0.399408 -0.462722 -0.554 183 182 188
0.402573 -0.462722 -0.554 184 184 192
0.414181 -0.462722 -0.554 185 187 182
0.441093 -0.464392 -0.556 156 155 161
0.44427 -0.464392 -0.556 151 146 150
0.48137 -0.472745 -0.566 94 89 93
0.493729 -0.446852 -0.535 96 83 67
0.484714 -0.435994 -0.522 114 88 71
0.47794 -0.40342 -0.483 170 122 99
0.485029 -0.400914 -0.48 170 124 98
0.499421 -0.394232 -0.472 171 124 96
0.507512 -0.394232 -0.472 162 120 95
0.50931 -0.394232 -0.472 157 115 91
0.553327 -0.415113 -0.497 135 105 81
-0.0237029 -0.341554 -0.408 185 142 107
-0.0150057 -0.338206 -0.404 192 148 113
-0.0118981 -0.337369 -0.403 192 148 113
0.04514 -0.35746 -0.427 123 87 73
0.0526143 -0.364157 -0.435 106 78 66
0.0617286 -0.374203 -0.447 94 74 65
0.0650019 -0.378389 -0.452 91 74 66
0.0767057 -0.394294 -0.471 82 67 60
0.0943429 -0.425269 -0.508 219 220 224
0.370247 -0.46294 -0.553 175 180 173
0.382887 -0.46294 -0.553 176 180 181
0.38569 -0.463777 -0.554 180 183 188
0.394843 -0.464614 -0.555 183 183 183
0.417043 -0.464614 -0.555 170 166 167
0.424911 -0.466289 -0.557 155 158 167
0.427033 -0.466289 -0.557 162 161 156
0.451183 -0.467126 -0.558 115 114 119
0.475138 -0.472986 -0.565 73 71 76
0.472529 -0.406014 -0.485 163 117 94
0.487333 -0.39848 -0.476 171 124 96
0.48824 -0.39848 -0.476 172 125 97
0.489024 -0.397643 -0.475 170 123 95
0.50032 -0.395131 -0.472 170 124 98
0.519067 -0.39848 -0.476 149 108 86
0.536451 -0.406851 -0.486 141 105 83
0.553158 -0.415223 -0.496 133 101 78
-0.0308 -0.3524 -0.42 187 144 110
-0.0181286 -0.339814 -0.405 189 147 109
-0.0165448 -0.338975 -0.404 188 146 108
-0.0027 -0.339814 -0.405 183 139 102
0.0152657 -0.344849 -0.411 166 119 91
0.0160486 -0.344849 -0.411 167 120 92
0.0225286 -0.348205 -0.415 162 112 87
0.0274029 -0.349883 -0.417 154 108 85
0.0434114 -0.357434 -0.426 127 91 77
0.0469857 -0.359951 -0.429 117 85 72
0.0497829 -0.362469 -0.432 113 83 72
0.0661543 -0.380928 -0.454 90 73 65
0.0720305 -0.389318 -0.464 85 70 63
0.0756476 -0.394352 -0.47 82 67 60
0.3496 -0.463154 -0.552 180 181 185
0.36814 -0.463993 -0.553 184 184 186
0.440554 -0.468189 -0.558 117 112 116
0.442948 -0.46735 -0.557 110 105 109
0.474062 -0.474062 -0.565 62 60 63
0.484778 -0.437144 -0.521 107 88 74
0.478787 -0.404421 -0.482 170 124 100
0.479705 -0.404421 -0.482 170 124 98
0.479626 -0.403582 -0.481 172 126 100
0.489024 -0.398548 -0.475 173 126 98
0.515983 -0.397709 -0.474 153 111 87
0.53941 -0.408616 -0.487 141 105 81
0.5446 -0.411133 -0.49 137 99 76
-0.0268771 -0.34395 -0.409 179 139 104
0.0105171 -0.34395 -0.409 175 126 96
0.0112962 -0.34395 -0.409 173 124 94
0.0144476 -0.34479 -0.41 168 118 91
0.0152657 -0.345631 -0.411 166 119 91
0.0435133 -0.359087 -0.427 126 90 76
0.0527352 -0.366655 -0.436 108 80 69
0.0596229 -0.373383 -0.444 97 75 64
0.0810829 -0.404498 -0.481 80 66 63
0.0914981 -0.422999 -0.503 218 216 219
0.344343 -0.464206 -0.552 177 178 182
0.353393 -0.465047 -0.553 180 181 183
0.3555 -0.465047 -0.553 181 181 183
0.384271 -0.466729 -0.555 175 175 177
0.404753 -0.46841 -0.557 158 156 159
0.417794 -0.46757 -0.556 130 130 132
0.418853 -0.46757 -0.556 129 127 130
0.434955 -0.470092 -0.559 97 95 98
0.442409 -0.470092 -0.559 84 79 83
0.456814 -0.471774 -0.561 66 64 69
0.519855 -0.477661 -0.568 32 30 35
0.490207 -0.444864 -0.529 100 83 73
0.483906 -0.436454 -0.519 113 87 74
0.480266 -0.431409 -0.513 123 92 74
0.479367 -0.429727 -0.511 128 97 79
0.475694 -0.422999 -0.503 139 101 80
0.472853 -0.417112 -0.496 148 107 87
0.472763 -0.412908 -0.491 156 114 92
0.477869 -0.405339 -0.482 167 119 96
0.49926 -0.396089 -0.471 169 124 95
0.500157 -0.396089 -0.471 170 125 96
0.504467 -0.395248 -0.47 166 121 92
-0.0295 -0.3481 -0.413 182 141 109
-0.0196229 -0.340514 -0.404 189 146 111
-0.0118981 -0.339671 -0.403 186 144 106
-0.00192857 -0.341357 -0.405 181 135 101
0.00193333 -0.3422 -0.406 179 133 99
0.00581429 -0.343043 -0.407 172 123 93
0.00658952 -0.343043 -0.407 171 122 92
0.0299286 -0.353157 -0.419 144 102 80
0.0315248 -0.353157 -0.419 143 100 81
0.0348829 -0.354843 -0.421 140 97 78
0.0365733 -0.355686 -0.422 138 97 77
0.0382714 -0.356529 -0.423 135 97 78
0.0480257 -0.363271 -0.431 113 83 72
0.04896 -0.364114 -0.432 112 84 72
0.0517857 -0.366643 -0.435 109 81 70
0.0686314 -0.386871 -0.459 87 70 63
0.0721857 -0.391929 -0.465 84 69 64
0.0733857 -0.393614 -0.467 83 68 63
0.340137 -0.465257 -0.552 179 177 178
0.358253 -0.466943 -0.554 179 180 182
0.370916 -0.466943 -0.554 174 173 178
0.386023 -0.468629 -0.556 163 163 165
0.3899 -0.469471 -0.557 160 159 164
0.400166 -0.470314 -0.558 144 143 148
0.401229 -0.470314 -0.558 142 141 146
0.410794 -0.470314 -0.558 124 123 128
0.4304 -0.472 -0.56 78 76 81
0.437867 -0.472 -0.56 65 63 68
0.444267 -0.472 -0.56 62 60 65
0.463805 -0.474529 -0.563 56 55 60
0.466777 -0.475371 -0.564 56 57 59
0.541167 -0.5015 -0.595 13 10 19
0.481371 -0.404571 -0.48 169 122 96
0.485631 -0.402043 -0.477 168 122 96
0.489668 -0.398671 -0.473 174 125 95
0.490569 -0.398671 -0.473 169 120 90
0.49147 -0.398671 -0.473 171 122 92
0.49999 -0.396143 -0.47 167 120 92
0.538119 -0.408786 -0.485 140 102 79
-0.0149686 -0.340439 -0.403 190 148 110
0.00270667 -0.342973 -0.406 179 133 100
0.00581429 -0.343818 -0.407 168 121 91
0.00893714 -0.344663 -0.408 173 124 94
0.029061 -0.35311 -0.418 147 102 81
0.0426 -0.359869 -0.426 128 91 75
0.0470952 -0.363248 -0.43 116 84 71
0.0773571 -0.401262 -0.475 82 67 64
0.0785914 -0.402951 -0.477 81 66 63
0.381412 -0.470532 -0.557 152 151 156
0.389537 -0.471377 -0.558 138 137 142
0.395914 -0.471377 -0.558 126 125 130
0.412267 -0.473067 -0.56 89 88 93
0.443991 -0.473911 -0.561 58 56 61
0.452276 -0.474756 -0.562 58 57 63
0.507314 -0.466309 -0.552 68 67 72
0.4761 -0.40802 -0.483 169 123 97
0.47871 -0.40633 -0.481 168 121 95
0.49999 -0.397038 -0.47 170 123 95
0.5025 -0.396193 -0.469 165 118 90
0.527621 -0.403796 -0.478 144 107 81
0.532765 -0.40633 -0.481 144 103 73
-0.0259705 -0.344593 -0.407 176 134 96
-0.022701 -0.342053 -0.404 183 141 103
-0.00882762 -0.341207 -0.403 188 144 109
0.00503905 -0.344593 -0.407 170 123 93
0.00893714 -0.34544 -0.408 174 125 95
0.068781 -0.389467 -0.46 86 67 63
0.072341 -0.394547 -0.466 86 68 64
0.0749114 -0.39878 -0.471 87 69 67
0.08142 -0.40894 -0.483 84 66 64
0.334433 -0.468207 -0.553 176 175 181
0.34348 -0.469053 -0.554 167 166 171
0.349386 -0.4699 -0.555 164 162 163
0.37572 -0.47244 -0.558 136 135 140
0.403751 -0.476673 -0.563 81 80 85
0.413739 -0.475827 -0.562 66 65 70
0.423689 -0.47498 -0.561 60 59 65
0.427655 -0.475827 -0.562 59 58 64
0.435923 -0.476673 -0.563 59 58 64
0.46412 -0.479213 -0.566 55 56 60
0.51483 -0.504613 -0.596 19 18 26
0.477586 -0.427567 -0.505 134 99 80
0.476661 -0.425027 -0.502 137 102 82
0.476032 -0.408093 -0.482 165 119 93
0.477793 -0.407247 -0.481 168 121 95
0.480457 -0.4064 -0.48 169 122 94
0.483008 -0.404707 -0.478 170 123 95
0.486427 -0.403013 -0.476 170 123 95
0.488119 -0.402167 -0.475 177 128 98
0.495671 -0.39878 -0.471 169 119 92
0.4982 -0.397933 -0.47 170 120 93
0.535709 -0.408093 -0.482 145 106 77
0.54089 -0.410633 -0.485 140 104 78
-0.0336743 -0.361491 -0.426 183 140 105
-0.0156971 -0.341126 -0.402 190 148 110
-0.00729238 -0.341974 -0.403 185 141 106
0.00503905 -0.345369 -0.407 170 123 93
0.00581429 -0.345369 -0.407 173 124 94
0.00658952 -0.345369 -0.407 173 124 94
0.0208971 -0.351309 -0.414 158 112 88
0.0216857 -0.351309 -0.414 158 110 87
0.0225286 -0.352157 -0.415 157 109 86
0.02496 -0.353006 -0.416 152 106 83
0.033279 -0.357249 -0.421 140 99 79
0.0435133 -0.36234 -0.427 123 89 77
0.0444305 -0.363189 -0.428 120 86 74
0.0664457 -0.386949 -0.456 88 69 65
0.332928 -0.470109 -0.554 164 163 168
0.337149 -0.470109 -0.554 158 158 166
0.3441 -0.470957 -0.555 158 158 160
0.390883 -0.477746 -0.563 77 76 82
0.402669 -0.480291 -0.566 64 63 69
0.40554 -0.48114 -0.567 61 60 66
0.4324 -0.478594 -0.564 57 58 63
0.48943 -0.446349 -0.526 91 74 64
0.478511 -0.430226 -0.507 129 96 77
0.500713 -0.39798 -0.469 165 115 90
0.504994 -0.397131 -0.468 163 116 86
-0.0320143 -0.352948 -0.415 184 141 107
-0.0195257 -0.341891 -0.402 188 144 107
-0.00346286 -0.343592 -0.404 184 138 105
0.00503905 -0.346144 -0.407 173 124 94
0.0225286 -0.352948 -0.415 154 108 85
0.0391695 -0.360602 -0.424 129 94 74
0.0444305 -0.364004 -0.428 121 88 71
0.0480257 -0.366555 -0.431 116 84 69
0.0568286 -0.37591 -0.442 98 75 69
0.285476 -0.467762 -0.55 168 169 174
0.290714 -0.467762 -0.55 175 172 179
0.30119 -0.467762 -0.55 178 178 180
0.304887 -0.468612 -0.551 175 176 171
0.318633 -0.470313 -0.553 169 168 182
0.326596 -0.471164 -0.554 161 159 160
0.327651 -0.471164 -0.554 159 157 158
0.337307 -0.472865 -0.556 152 150 151
0.365333 -0.476267 -0.56 104 103 108
0.3664 -0.476267 -0.56 102 101 106
0.384057 -0.479669 -0.564 66 63 70
0.402635 -0.483921 -0.569 57 56 62
0.412385 -0.486472 -0.572 57 56 62
0.418922 -0.486472 -0.572 58 57 65
0.428543 -0.48137 -0.566 55 55 65
0.44226 -0.48222 -0.567 53 53 61
0.445204 -0.48307 -0.568 54 54 62
0.466314 -0.484771 -0.57 14 13 19
0.475713 -0.424388 -0.499 140 99 79
0.474743 -0.421836 -0.496 149 108 86
0.47426 -0.41078 -0.483 163 115 92
0.478629 -0.408229 -0.48 167 120 94
0.516306 -0.400574 -0.471 155 110 81
-0.0300667 -0.349476 -0.41 181 137 102
0.00348 -0.346067 -0.406 175 126 96
0.0192733 -0.352033 -0.413 160 114 90
0.0418867 -0.363967 -0.427 124 91 74
0.0519048 -0.371638 -0.436 106 79 70
0.0548952 -0.375048 -0.44 101 76 69
0.0621429 -0.383571 -0.45 90 71 65
0.0726514 -0.398914 -0.468 87 66 63
0.0778457 -0.407438 -0.478 82 67 62
0.265571 -0.46881 -0.55 169 177 180
0.269762 -0.46881 -0.55 169 168 173
0.306491 -0.470514 -0.552 165 165 167
0.308594 -0.470514 -0.552 161 165 166
0.341709 -0.475629 -0.558 127 127 129
0.357004 -0.479038 -0.562 98 98 100
0.375716 -0.482448 -0.566 62 61 66
0.422929 -0.488414 -0.573 54 54 64
0.426143 -0.485857 -0.57 52 51 59
0.493071 -0.452614 -0.531 97 79 69
0.481313 -0.435567 -0.511 123 94 78
0.475713 -0.425338 -0.499 138 100 79
0.47518 -0.4117 -0.483 160 114 88
0.481281 -0.40829 -0.479 172 125 99
0.483008 -0.407438 -0.478 171 121 94
0.483814 -0.406586 -0.477 173 123 98
0.491186 -0.401471 -0.471 169 122 92
0.509451 -0.398914 -0.468 159 114 83
-0.0337571 -0.356237 -0.417 184 141 107
0.00658952 -0.347694 -0.407 172 125 97
0.0258143 -0.356237 -0.417 151 106 85
0.0274686 -0.357091 -0.418 147 102 81
0.0308 -0.3588 -0.42 143 101 79
0.0529771 -0.374177 -0.438 106 79 70
0.0548952 -0.375886 -0.44 101 76 69
0.267667 -0.469857 -0.55 171 172 174
0.283896 -0.470711 -0.551 173 173 175
0.285995 -0.470711 -0.551 170 170 172
0.291243 -0.470711 -0.551 169 167 170
0.307543 -0.471566 -0.552 158 156 159
0.314989 -0.473274 -0.554 154 152 155
0.316614 -0.474129 -0.555 151 149 150
0.355051 -0.481817 -0.564 85 82 89
0.374456 -0.486089 -0.569 66 63 70
0.400889 -0.494631 -0.579 63 62 68
0.445849 -0.489506 -0.573 10 9 15
0.492222 -0.451917 -0.529 103 84 77
0.488631 -0.446791 -0.523 110 88 75
0.480423 -0.433977 -0.508 130 97 78
0.47518 -0.41262 -0.483 160 116 87
0.475114 -0.411766 -0.482 164 118 92
0.475045 -0.410911 -0.481 165 119 93
0.476877 -0.410911 -0.481 163 117 91
0.4768 -0.410057 -0.48 164 119 90
0.478629 -0.410057 -0.48 169 122 94
0.480276 -0.408349 -0.478 172 122 95
0.506584 -0.398951 -0.467 161 115 82
0.510343 -0.399806 -0.468 157 112 79
0.525914 -0.404931 -0.474 153 110 78
-0.0164219 -0.343332 -0.401 185 141 104
-0.0126029 -0.343332 -0.401 184 140 103
0.00658952 -0.34847 -0.407 170 123 95
0.0299286 -0.358744 -0.419 144 101 82
0.0501286 -0.372443 -0.435 109 81 70
0.0569571 -0.379292 -0.443 98 75 69
0.0580619 -0.381005 -0.445 97 74 68
0.06016 -0.383573 -0.448 92 71 66
0.062281 -0.386142 -0.451 91 72 68
0.065721 -0.391279 -0.457 87 69 67
0.0741714 -0.404122 -0.472 87 65 67
0.0822629 -0.417821 -0.488 85 73 77
0.0851562 -0.422958 -0.494 88 76 86
0.258238 -0.470905 -0.55 171 172 177
0.261381 -0.470905 -0.55 174 173 178
0.279698 -0.471761 -0.551 167 167 169
0.286514 -0.472617 -0.552 160 160 162
0.312386 -0.475186 -0.555 133 132 137
0.341086 -0.482891 -0.564 81 79 84
0.348148 -0.483748 -0.565 70 69 75
0.356488 -0.486316 -0.568 66 65 71
0.363171 -0.488029 -0.57 63 60 67
0.389187 -0.494878 -0.578 64 63 71
0.395633 -0.497447 -0.581 63 62 70
0.407968 -0.501728 -0.586 61 60 68
0.476664 -0.427239 -0.499 136 100 78
0.474689 -0.422102 -0.493 150 110 85
0.47518 -0.41354 -0.483 161 117 88
0.480276 -0.409259 -0.478 173 123 96
0.4828 -0.407547 -0.476 170 123 95
0.494619 -0.40241 -0.47 169 123 90
0.503026 -0.399841 -0.467 165 119 83
0.517895 -0.40241 -0.47 157 112 79
0.519894 -0.403266 -0.471 157 112 79
-0.0225886 -0.344954 -0.402 187 143 106
-0.0126029 -0.344096 -0.401 183 141 103
-0.00957143 -0.344954 -0.402 185 141 104
-0.00192381 -0.34667 -0.404 179 133 100
0.000385714 -0.347529 -0.405 174 127 97
0.0168724 -0.353535 -0.412 162 115 89
0.0274686 -0.358684 -0.418 147 102 81
0.0324 -0.3604 -0.42 140 97 78
0.0645667 -0.390433 -0.455 86 68 66
0.0869686 -0.42819 -0.499 130 125 145
0.234763 -0.471094 -0.549 174 173 179
0.236238 -0.471952 -0.55 173 174 179
0.241037 -0.471094 -0.549 174 173 178
0.272846 -0.473669 -0.552 158 159 161
0.30024 -0.477101 -0.556 137 136 141
0.302358 -0.477101 -0.556 134 133 138
0.305535 -0.477101 -0.556 124 123 129
0.306594 -0.477101 -0.556 122 121 127
0.345193 -0.488256 -0.569 65 63 68
0.350757 -0.489972 -0.571 63 62 68
0.365897 -0.494263 -0.576 63 62 70
0.47762 -0.429906 -0.501 132 99 80
0.47471 -0.423899 -0.494 143 107 85
0.475961 -0.412744 -0.481 163 119 90
0.479271 -0.409311 -0.477 174 124 97
0.490289 -0.404163 -0.471 170 124 91
0.5148 -0.401589 -0.468 159 114 81
-0.029 -0.34916 -0.406 189 142 100
-0.0225886 -0.34572 -0.402 189 146 104
-0.0194771 -0.34486 -0.401 190 148 106
-0.00957143 -0.34572 -0.402 183 139 102
-0.00115429 -0.34744 -0.404 178 131 101
0.0120752 -0.35174 -0.409 170 121 91
0.0136667 -0.3526 -0.41 167 120 94
0.034081 -0.36206 -0.421 136 95 77
0.0463838 -0.37066 -0.431 115 85 75
0.069379 -0.39904 -0.464 81 67 67
0.0719133 -0.40334 -0.469 83 67 70
0.0731171 -0.40506 -0.471 83 67 68
0.22326 -0.47214 -0.549 176 175 181
0.229952 -0.473 -0.55 171 172 174
0.231626 -0.47214 -0.549 173 172 177
0.255559 -0.47386 -0.551 163 164 166
0.272846 -0.47472 -0.552 152 151 156
0.275447 -0.47558 -0.553 151 150 155
0.326124 -0.48676 -0.566 68 67 73
0.364019 -0.4988 -0.58 61 60 68
0.458497 -0.53148 -0.618 14 14 24
0.49323 -0.45494 -0.529 102 82 71
0.491434 -0.45236 -0.526 102 82 71
0.475688 -0.42656 -0.496 140 105 83
0.477714 -0.4128 -0.48 166 121 92
0.4845 -0.4085 -0.475 170 125 94
0.485286 -0.40764 -0.474 169 122 92
0.489391 -0.40506 -0.471 168 122 89
0.509252 -0.40162 -0.467 160 115 82
0.528409 -0.40678 -0.473 142 106 80
-0.0341371 -0.355105 -0.412 184 145 106
-0.0305467 -0.349933 -0.406 182 143 104
-0.015619 -0.344762 -0.4 187 145 105
-0.00957143 -0.346486 -0.402 180 136 99
-0.00269333 -0.34821 -0.404 182 133 101
0.0184867 -0.355967 -0.413 160 113 87
0.0316 -0.362 -0.42 136 98 79
0.04836 -0.374067 -0.434 106 76 68
0.0521429 -0.377514 -0.438 102 77 72
0.053219 -0.379238 -0.44 101 77 73
0.0551448 -0.380962 -0.442 98 74 72
0.0593067 -0.386133 -0.448 91 71 70
0.0811667 -0.419748 -0.487 78 69 74
0.0904724 -0.437848 -0.508 209 218 227
0.220123 -0.473186 -0.549 170 171 176
