ply
format ascii 1.0
comment Created by Open3D
element vertex 1289
property double x
property double y
property double z
property uchar red
property uchar green
property uchar blue
end_header
0.249714 -0.401714 -0.6 219 225 249
0.250857 -0.401714 -0.6 219 225 249
0.286286 -0.401714 -0.6 203 213 238
0.287429 -0.401714 -0.6 207 214 242
0.320571 -0.401714 -0.6 90 102 128
0.333143 -0.401714 -0.6 38 76 147
0.348 -0.401714 -0.6 134 144 179
0.349143 -0.401714 -0.6 151 163 189
0.365675 -0.401045 -0.599 52 105 175
0.391429 -0.401714 -0.6 23 59 143
0.397143 -0.401714 -0.6 28 68 140
0.405818 -0.402384 -0.601 122 156 220
0.436 -0.401714 -0.6 74 101 148
0.450857 -0.401714 -0.6 98 104 126
0.469925 -0.402384 -0.601 57 75 113
0.473823 -0.37895 -0.566 132 102 100
0.4543 -0.360873 -0.539 144 106 103
0.455574 -0.33677 -0.503 169 120 103
0.456581 -0.336101 -0.502 164 115 98
0.499695 -0.348152 -0.52 150 107 88
0.0192476 -0.288714 -0.43 198 158 133
0.0277971 -0.284014 -0.423 194 152 127
0.0504762 -0.284686 -0.424 189 143 119
0.0580171 -0.286029 -0.426 177 128 111
0.0708476 -0.288714 -0.43 158 112 97
0.296077 -0.402186 -0.599 65 109 172
0.31091 -0.402186 -0.599 88 117 159
0.322319 -0.402186 -0.599 128 144 178
0.413143 -0.402857 -0.6 174 188 201
0.416571 -0.402857 -0.6 180 184 196
0.447429 -0.402857 -0.6 176 177 195
0.450857 -0.402857 -0.6 72 84 110
0.454286 -0.402857 -0.6 58 79 126
0.462286 -0.402857 -0.6 98 117 159
0.471545 -0.377343 -0.562 131 105 106
0.44376 -0.346457 -0.516 159 113 98
0.4453 -0.3431 -0.511 169 122 106
0.446371 -0.342429 -0.51 163 116 100
0.488127 -0.3431 -0.511 161 114 96
0.0522143 -0.286167 -0.425 185 139 116
0.0665971 -0.28886 -0.429 165 118 102
0.0862952 -0.297613 -0.442 114 85 79
0.0904743 -0.300307 -0.446 103 80 74
0.0917333 -0.301653 -0.448 101 78 72
0.0981429 -0.308387 -0.458 94 72 75
0.0994476 -0.309733 -0.46 94 72 75
0.231043 -0.403327 -0.599 139 163 209
0.256144 -0.403327 -0.599 158 167 196
0.270976 -0.403327 -0.599 66 98 175
0.273258 -0.403327 -0.599 74 102 176
0.319503 -0.402653 -0.598 168 178 205
0.356548 -0.403327 -0.599 149 157 176
0.367343 -0.402653 -0.598 64 107 175
0.37076 -0.402653 -0.598 58 103 162
0.377085 -0.403327 -0.599 183 190 209
0.397143 -0.404 -0.6 55 93 155
0.439837 -0.403327 -0.599 173 180 198
0.445542 -0.403327 -0.599 175 176 194
0.484 -0.404 -0.6 163 169 191
0.487757 -0.403327 -0.599 78 101 145
0.489221 -0.402653 -0.598 110 129 171
0.446273 -0.344073 -0.511 166 120 104
0.467143 -0.336667 -0.5 160 113 95
0.0222095 -0.286301 -0.424 198 156 131
0.0269914 -0.285626 -0.423 198 156 131
0.0302143 -0.285626 -0.423 196 152 127
0.0455229 -0.285626 -0.423 188 142 118
0.0546429 -0.286976 -0.425 181 133 113
0.280775 -0.403792 -0.598 106 138 189
0.32292 -0.403792 -0.598 184 194 219
0.327476 -0.403792 -0.598 64 89 146
0.355407 -0.404468 -0.599 179 187 206
0.360509 -0.403792 -0.598 77 121 186
0.366204 -0.403792 -0.598 74 117 185
0.38279 -0.404468 -0.599 185 193 206
0.385071 -0.404468 -0.599 144 149 169
0.388494 -0.404468 -0.599 66 89 130
0.410172 -0.404468 -0.599 184 191 209
0.417018 -0.404468 -0.599 174 182 195
0.425434 -0.403792 -0.598 103 134 189
0.43113 -0.403792 -0.598 88 119 173
0.440242 -0.403792 -0.598 178 182 191
0.462656 -0.404468 -0.599 142 155 189
0.445351 -0.350449 -0.519 158 113 92
0.47094 -0.338294 -0.501 160 113 95
0.0221571 -0.286431 -0.423 199 157 132
0.0349657 -0.285754 -0.422 198 154 129
0.038181 -0.285754 -0.422 193 147 123
0.0455229 -0.286431 -0.423 187 141 118
0.06222 -0.28914 -0.427 170 121 106
0.0885762 -0.301329 -0.445 105 80 76
0.10296 -0.316903 -0.468 95 71 69
0.104517 -0.318934 -0.471 95 74 71
0.240909 -0.404931 -0.598 108 141 195
0.246604 -0.404931 -0.598 147 166 208
0.33431 -0.404931 -0.598 44 83 152
0.35937 -0.404931 -0.598 88 129 191
0.364454 -0.404254 -0.597 75 113 176
0.367866 -0.404254 -0.597 80 121 187
0.38279 -0.405609 -0.599 182 188 204
0.399904 -0.405609 -0.599 80 113 164
0.406286 -0.406286 -0.6 71 91 124
0.44252 -0.404931 -0.598 175 177 192
0.480911 -0.405609 -0.599 165 167 182
0.447435 -0.344666 -0.509 158 112 96
0.4536 -0.34128 -0.504 164 115 100
0.0229086 -0.286558 -0.422 201 157 132
0.0316752 -0.285879 -0.421 198 157 129
0.038181 -0.286558 -0.422 192 146 122
0.0422 -0.286558 -0.422 191 145 122
0.0589667 -0.289953 -0.427 171 124 104
0.259837 -0.405391 -0.597 144 161 204
0.262111 -0.405391 -0.597 123 140 183
0.289403 -0.405391 -0.597 163 171 190
0.29054 -0.405391 -0.597 160 169 198
0.313808 -0.40607 -0.598 197 203 227
0.347397 -0.405391 -0.597 145 142 149
0.358769 -0.405391 -0.597 75 111 169
0.390124 -0.40607 -0.598 79 109 137
0.40721 -0.40607 -0.598 138 153 184
0.408349 -0.40607 -0.598 159 174 205
0.415183 -0.40607 -0.598 178 181 198
0.4186 -0.40607 -0.598 165 173 194
0.434957 -0.405391 -0.597 153 169 202
0.447076 -0.40607 -0.598 159 164 193
0.481248 -0.40607 -0.598 168 169 189
0.491814 -0.405391 -0.597 111 130 173
0.476214 -0.383662 -0.565 132 104 101
0.447068 -0.353784 -0.521 154 108 92
0.446824 -0.34971 -0.515 160 114 99
0.44954 -0.344277 -0.507 167 120 104
0.458534 -0.340203 -0.501 169 122 104
0.0237124 -0.287362 -0.422 197 155 131
0.0292695 -0.286681 -0.421 201 157 132
0.038181 -0.287362 -0.422 190 144 121
0.0701914 -0.29349 -0.431 150 104 91
0.233683 -0.406529 -0.597 105 131 182
0.238231 -0.406529 -0.597 89 125 187
0.245054 -0.406529 -0.597 154 181 228
0.256426 -0.406529 -0.597 195 201 225
0.257563 -0.406529 -0.597 194 205 233
0.283242 -0.405848 -0.596 210 212 233
0.336026 -0.406529 -0.597 41 80 145
0.379237 -0.406529 -0.597 175 184 199
0.382649 -0.406529 -0.597 155 165 177
0.39402 -0.406529 -0.597 90 108 146
0.401514 -0.40721 -0.598 123 139 165
0.414044 -0.40721 -0.598 179 182 199
0.42586 -0.406529 -0.597 130 148 198
0.446824 -0.35069 -0.515 160 114 101
0.45264 -0.3432 -0.504 165 118 102
0.4536 -0.3432 -0.504 164 117 101
0.454616 -0.342519 -0.503 168 121 105
0.478569 -0.342519 -0.503 155 109 93
0.0158971 -0.292263 -0.428 200 158 134
0.0405924 -0.288166 -0.422 191 145 122
0.0562619 -0.290214 -0.425 177 130 110
0.0572057 -0.290897 -0.426 177 130 110
0.0588286 -0.290897 -0.426 172 125 105
0.0692095 -0.293629 -0.43 151 107 96
0.0701914 -0.294311 -0.431 150 106 95
0.0710124 -0.294311 -0.431 149 105 96
0.0846114 -0.301823 -0.442 109 85 85
0.0938267 -0.310017 -0.454 95 74 73
0.235562 -0.406983 -0.596 93 128 186
0.315029 -0.406983 -0.596 191 203 219
0.317299 -0.406983 -0.596 185 201 217
0.318434 -0.406983 -0.596 195 203 224
0.326967 -0.4063 -0.595 80 109 153
0.329787 -0.406983 -0.596 78 106 146
0.346815 -0.406983 -0.596 166 163 170
0.364979 -0.406983 -0.596 114 147 192
0.383786 -0.407666 -0.597 122 130 151
0.395157 -0.407666 -0.597 118 133 162
0.402653 -0.408349 -0.598 102 116 143
0.408803 -0.407666 -0.597 172 183 201
0.433093 -0.406983 -0.596 124 140 174
0.43877 -0.406983 -0.596 172 172 196
0.44104 -0.406983 -0.596 168 175 194
0.442175 -0.406983 -0.596 158 165 184
0.445191 -0.407666 -0.597 98 109 141
0.447466 -0.407666 -0.597 86 100 135
0.461474 -0.406983 -0.596 163 171 192
0.479306 -0.407666 -0.597 156 162 186
0.480443 -0.407666 -0.597 158 164 188
0.455171 -0.364646 -0.534 138 105 100
0.447043 -0.350306 -0.513 163 117 104
0.452576 -0.344843 -0.505 170 123 105
0.454669 -0.342794 -0.502 166 119 101
0.456626 -0.342111 -0.501 172 125 107
0.478569 -0.343477 -0.503 155 109 93
0.0356848 -0.288285 -0.421 195 151 126
0.0422 -0.28897 -0.422 190 144 120
0.0438076 -0.28897 -0.422 189 143 119
0.0455229 -0.289654 -0.423 188 142 119
0.052899 -0.290339 -0.424 182 134 111
0.0623657 -0.293078 -0.428 169 120 103
0.0701914 -0.295132 -0.431 150 103 93
0.0825524 -0.301295 -0.44 113 85 81
0.0916914 -0.309512 -0.452 96 75 72
0.231021 -0.408118 -0.596 120 150 204
0.240103 -0.408118 -0.596 113 151 213
0.243509 -0.408118 -0.596 129 153 197
0.2975 -0.407433 -0.595 98 138 190
0.3077 -0.407433 -0.595 108 142 190
0.336598 -0.408118 -0.596 119 147 197
0.376331 -0.408118 -0.596 177 182 202
0.385413 -0.408118 -0.596 109 127 163
0.386549 -0.408118 -0.596 114 135 162
0.39563 -0.408118 -0.596 151 162 194
0.399706 -0.408803 -0.597 154 158 185
0.408118 -0.408118 -0.596 124 136 162
0.410389 -0.408118 -0.596 167 172 192
0.4199 -0.407433 -0.595 99 119 156
0.422167 -0.407433 -0.595 91 109 155
0.435767 -0.407433 -0.595 170 175 197
0.455798 -0.408118 -0.596 165 175 187
0.489033 -0.407433 -0.595 81 99 145
0.491606 -0.406749 -0.594 84 106 156
0.44978 -0.35813 -0.523 148 106 94
0.448317 -0.355391 -0.519 156 112 99
0.446824 -0.352652 -0.515 160 117 101
0.449374 -0.348544 -0.509 167 119 99
0.452576 -0.345805 -0.505 169 122 106
0.454669 -0.34375 -0.502 170 123 105
0.462407 -0.341696 -0.499 168 121 103
0.0127248 -0.295953 -0.431 196 154 130
0.0244 -0.2884 -0.42 192 148 123
0.0292 -0.2884 -0.42 199 155 130
0.0308 -0.2884 -0.42 198 153 130
0.072 -0.29664 -0.432 146 102 93
0.0748133 -0.298013 -0.434 132 99 92
0.161771 -0.409253 -0.596 141 159 195
0.2567 -0.408567 -0.595 195 209 235
0.264633 -0.408567 -0.595 94 121 176
0.303789 -0.40788 -0.594 93 136 191
0.313367 -0.408567 -0.595 191 204 223
0.325286 -0.40788 -0.594 103 133 185
0.354167 -0.408567 -0.595 189 193 204
0.3553 -0.408567 -0.595 163 176 193
0.367767 -0.408567 -0.595 97 119 160
0.3859 -0.408567 -0.595 139 155 181
0.3893 -0.408567 -0.595 155 165 190
0.397901 -0.409253 -0.596 161 168 197
0.417633 -0.408567 -0.595 163 167 192
0.432367 -0.408567 -0.595 120 139 172
0.452767 -0.408567 -0.595 166 170 182
0.447691 -0.35432 -0.516 159 115 102
0.0212505 -0.289889 -0.421 200 156 129
0.0292 -0.2892 -0.42 197 153 126
0.0538333 -0.292643 -0.425 179 131 109
0.0563943 -0.293331 -0.426 173 125 105
0.0605933 -0.29402 -0.427 170 123 105
0.0693705 -0.296774 -0.431 149 102 92
0.07884 -0.301594 -0.438 120 87 82
0.0851857 -0.306414 -0.445 110 81 75
0.228367 -0.4097 -0.595 134 153 185
0.252874 -0.409011 -0.594 209 218 235
0.308314 -0.409011 -0.594 186 201 220
0.3383 -0.4097 -0.595 136 157 188
0.350767 -0.4097 -0.595 193 188 208
0.351309 -0.409011 -0.594 196 191 211
0.354703 -0.409011 -0.594 167 178 198
0.358097 -0.409011 -0.594 98 118 155
0.359229 -0.409011 -0.594 102 131 173
0.373937 -0.409011 -0.594 179 184 206
0.3927 -0.4097 -0.595 126 133 152
0.401767 -0.4097 -0.595 172 174 197
0.429377 -0.409011 -0.594 78 101 145
0.451633 -0.4097 -0.595 166 170 181
0.4777 -0.4097 -0.595 77 91 118
0.471164 -0.381469 -0.554 133 99 97
0.4515 -0.3615 -0.525 146 108 95
0.455625 -0.345663 -0.502 170 123 105
0.459524 -0.344286 -0.5 162 115 95
0.46148 -0.342909 -0.498 171 122 105
0.488169 -0.349106 -0.507 153 110 91
0.565295 -0.391109 -0.568 160 138 125
0.00894 -0.308643 -0.447 191 151 126
0.0204486 -0.29069 -0.421 200 156 127
0.0471343 -0.292071 -0.423 184 138 112
0.0495514 -0.292071 -0.423 179 133 109
0.0711771 -0.298286 -0.432 143 99 88
0.0899695 -0.312095 -0.452 96 74 76
0.0996067 -0.323833 -0.469 94 74 75
0.240833 -0.410833 -0.595 130 162 211
0.324738 -0.409452 -0.593 142 164 201
0.358624 -0.409452 -0.593 89 121 162
0.410143 -0.410143 -0.594 68 82 127
0.421457 -0.410143 -0.594 80 99 141
0.435034 -0.410143 -0.594 170 177 196
0.43956 -0.410143 -0.594 70 86 120
0.442954 -0.410143 -0.594 94 113 153
0.459926 -0.410143 -0.594 156 162 176
0.4709 -0.410833 -0.595 158 166 177
0.478833 -0.410833 -0.595 76 90 119
0.479967 -0.410833 -0.595 100 115 148
0.489343 -0.410143 -0.594 55 84 140
0.490778 -0.409452 -0.593 59 85 142
0.45322 -0.363881 -0.527 146 108 95
0.450171 -0.359048 -0.52 152 113 98
0.46148 -0.343857 -0.498 168 119 102
0.462429 -0.343857 -0.498 171 122 105
0.463377 -0.343857 -0.498 173 124 107
0.0088 -0.304648 -0.44 190 150 124
0.0164781 -0.292185 -0.422 201 157 132
0.0204 -0.2908 -0.42 200 156 129
0.0259381 -0.290108 -0.419 196 152 125
0.0283324 -0.290108 -0.419 201 156 127
0.0324 -0.2908 -0.42 198 152 126
0.0589667 -0.295647 -0.427 168 121 103
0.0703543 -0.299109 -0.432 142 100 86
0.0759886 -0.301878 -0.436 131 93 84
0.0914333 -0.315033 -0.455 93 73 75
0.230246 -0.411274 -0.594 141 172 216
0.256269 -0.411274 -0.594 123 142 182
0.276169 -0.410582 -0.593 88 121 174
0.299889 -0.410582 -0.593 143 175 222
0.306666 -0.410582 -0.593 154 177 218
0.308925 -0.410582 -0.593 189 202 219
0.34281 -0.410582 -0.593 102 120 156
0.409011 -0.411274 -0.594 78 93 136
0.421877 -0.410582 -0.593 68 100 151
0.435034 -0.411274 -0.594 161 168 194
0.445217 -0.411274 -0.594 159 171 195
0.446349 -0.411274 -0.594 165 171 185
0.456531 -0.411274 -0.594 162 168 182
0.461057 -0.411274 -0.594 124 128 139
0.470109 -0.411274 -0.594 162 170 181
0.482554 -0.411274 -0.594 118 130 170
0.473071 -0.384271 -0.555 131 106 99
0.449286 -0.353114 -0.51 163 120 103
0.455671 -0.346883 -0.501 171 124 106
0.45758 -0.346883 -0.501 169 122 102
0.457619 -0.34619 -0.5 167 119 99
0.460506 -0.345498 -0.499 168 119 102
0.46812 -0.344806 -0.498 168 120 100
0.470017 -0.344806 -0.498 167 120 100
0.479529 -0.346883 -0.501 159 114 93
0.017241 -0.292294 -0.421 200 156 129
0.0180429 -0.292294 -0.421 199 155 128
0.0196 -0.2916 -0.42 199 155 128
0.0243419 -0.290906 -0.419 196 152 125
0.0429019 -0.292294 -0.421 191 145 121
0.0563943 -0.295766 -0.426 170 123 103
0.0759886 -0.302709 -0.436 126 91 87
0.0780057 -0.304097 -0.438 120 87 82
0.0792 -0.305486 -0.44 115 84 81
0.24793 -0.411711 -0.593 214 224 236
0.266003 -0.411711 -0.593 136 152 188
0.298255 -0.411017 -0.592 144 177 222
0.306149 -0.411017 -0.592 163 183 218
0.307276 -0.411017 -0.592 189 200 218
0.312914 -0.411017 -0.592 194 203 218
0.335467 -0.411017 -0.592 183 190 208
0.350126 -0.411017 -0.592 185 186 214
0.353509 -0.411017 -0.592 178 184 206
0.354636 -0.411017 -0.592 155 161 183
0.394769 -0.411711 -0.593 168 174 188
0.435431 -0.411711 -0.593 159 168 199
0.447856 -0.411711 -0.593 171 171 181
0.450115 -0.411711 -0.593 135 135 143
0.453504 -0.411711 -0.593 168 171 178
0.454633 -0.411711 -0.593 165 169 181
0.455763 -0.411711 -0.593 159 163 175
0.475766 -0.412406 -0.594 156 159 176
0.477333 -0.3888 -0.56 131 104 97
0.449657 -0.358251 -0.516 157 115 99
0.449974 -0.356169 -0.513 164 121 104
0.455625 -0.348531 -0.502 172 125 107
0.455671 -0.347837 -0.501 171 124 106
0.570626 -0.395049 -0.569 184 164 155
0.017241 -0.293096 -0.421 199 155 128
0.0348 -0.2924 -0.42 189 145 116
0.0572057 -0.296577 -0.426 168 120 100
0.0761629 -0.304235 -0.437 120 88 89
0.08022 -0.30702 -0.441 111 83 80
0.0847171 -0.311197 -0.447 104 78 77
0.156439 -0.412841 -0.593 234 237 254
0.259916 -0.412145 -0.592 148 170 217
0.270065 -0.412145 -0.592 157 171 197
0.303893 -0.412145 -0.592 114 139 180
0.316297 -0.412145 -0.592 94 108 147
0.330956 -0.412145 -0.592 131 137 153
0.34787 -0.412145 -0.592 132 145 187
0.369295 -0.412145 -0.592 165 182 200
0.381699 -0.412145 -0.592 169 176 192
0.404251 -0.412145 -0.592 166 173 183
0.420038 -0.412145 -0.592 82 105 147
0.43995 -0.412841 -0.593 113 126 158
0.450115 -0.412841 -0.593 130 130 138
0.491078 -0.412145 -0.592 18 50 101
0.493626 -0.411449 -0.591 29 56 109
0.450072 -0.35645 -0.512 161 118 102
0.452509 -0.352272 -0.506 170 123 105
0.4872 -0.35088 -0.504 153 110 91
0.0148705 -0.294596 -0.422 197 155 130
0.016439 -0.293898 -0.421 199 157 132
0.0438076 -0.294596 -0.422 189 143 119
0.04794 -0.295294 -0.423 180 132 109
0.0520914 -0.295992 -0.424 176 128 106
0.0781838 -0.306464 -0.439 115 84 79
0.0804019 -0.308558 -0.442 112 84 80
0.15531 -0.41397 -0.593 231 238 254
0.233981 -0.413272 -0.592 150 176 213
0.240747 -0.413272 -0.592 149 172 213
0.243002 -0.413272 -0.592 204 217 251
0.249768 -0.413272 -0.592 212 224 238
0.26781 -0.413272 -0.592 189 202 221
0.293249 -0.412574 -0.591 104 131 174
0.298877 -0.412574 -0.591 131 165 213
0.330956 -0.413272 -0.592 160 166 182
0.333211 -0.413272 -0.592 186 195 212
0.355163 -0.412574 -0.591 134 152 188
0.360791 -0.412574 -0.591 85 115 175
0.364169 -0.412574 -0.591 70 105 159
0.368671 -0.412574 -0.591 161 178 198
0.414826 -0.412574 -0.591 146 160 197
0.415951 -0.412574 -0.591 119 138 181
0.460632 -0.413272 -0.592 142 146 158
0.483185 -0.413272 -0.592 31 57 114
0.486568 -0.413272 -0.592 18 48 100
0.452576 -0.352538 -0.505 170 123 103
0.45264 -0.35184 -0.504 170 123 103
0.461456 -0.34835 -0.499 172 124 104
0.475709 -0.347651 -0.498 167 120 100
0.00779905 -0.3017 -0.431 195 152 120
0.0140667 -0.2954 -0.422 200 158 133
0.0298571 -0.2926 -0.418 193 152 120
0.0364 -0.294 -0.42 190 147 115
0.0396 -0.294 -0.42 189 144 115
0.0607352 -0.2996 -0.428 162 115 95
0.0677286 -0.3017 -0.431 145 102 93
0.0733286 -0.3045 -0.435 133 92 88
0.227957 -0.4137 -0.591 136 158 195
0.254974 -0.4137 -0.591 136 141 171
0.258351 -0.4137 -0.591 171 182 214
0.259477 -0.4137 -0.591 174 185 217
0.265106 -0.4137 -0.591 161 175 202
0.296124 -0.413 -0.59 120 148 196
0.298371 -0.413 -0.59 110 145 199
0.316352 -0.413 -0.59 137 150 192
0.343906 -0.4137 -0.591 138 152 189
0.39006 -0.4137 -0.591 172 176 187
0.393437 -0.4137 -0.591 168 174 186
0.43734 -0.4137 -0.591 145 156 178
0.44259 -0.4144 -0.592 159 165 181
0.466609 -0.4137 -0.591 155 159 170
0.467734 -0.4137 -0.591 152 156 167
0.473363 -0.4137 -0.591 141 147 163
0.477547 -0.4144 -0.592 99 107 143
0.456667 -0.35 -0.5 167 120 102
0.458605 -0.3493 -0.499 167 120 102
0.465274 -0.3486 -0.498 165 117 97
0.470967 -0.3479 -0.497 174 126 106
0.47286 -0.3479 -0.497 167 119 97
0.0315248 -0.294098 -0.419 193 152 120
0.0404 -0.2948 -0.42 189 144 115
0.0705171 -0.303925 -0.433 138 95 88
0.0838657 -0.313751 -0.447 99 77 79
0.155048 -0.415528 -0.592 232 236 247
0.217826 -0.414826 -0.591 189 186 197
0.226831 -0.414826 -0.591 175 187 209
0.254974 -0.414826 -0.591 168 179 209
0.277019 -0.414124 -0.59 159 163 188
0.283762 -0.414124 -0.59 190 202 224
0.317476 -0.414124 -0.59 186 194 215
0.324219 -0.414124 -0.59 185 191 205
0.326467 -0.414124 -0.59 184 191 207
0.378162 -0.414124 -0.59 174 176 197
0.39794 -0.414826 -0.591 164 167 182
0.409629 -0.414124 -0.59 160 166 180
0.419743 -0.414124 -0.59 21 52 107
0.424238 -0.414124 -0.59 14 48 109
0.431711 -0.414826 -0.591 38 69 124
0.448597 -0.414826 -0.591 149 153 162
0.450849 -0.414826 -0.591 106 111 131
0.46098 -0.414826 -0.591 116 122 144
0.464357 -0.414826 -0.591 110 109 117
0.466609 -0.414826 -0.591 140 139 147
0.481243 -0.414826 -0.591 22 58 108
0.489123 -0.414826 -0.591 17 42 106
0.494199 -0.413422 -0.589 45 73 123
0.46956 -0.38324 -0.546 139 102 94
0.480466 -0.35025 -0.499 158 116 94
0.504694 -0.360077 -0.513 143 108 89
0.00694571 -0.301934 -0.429 191 152 123
0.0132 -0.2956 -0.42 197 158 129
0.0306533 -0.294192 -0.418 195 152 120
0.0446114 -0.297008 -0.422 177 130 104
0.0538333 -0.299119 -0.425 171 122 105
0.0633286 -0.301934 -0.429 151 105 90
0.0641457 -0.301934 -0.429 146 102 89
0.0669076 -0.303342 -0.431 146 102 91
0.0890286 -0.320937 -0.456 92 70 72
0.0960333 -0.330087 -0.469 89 69 68
0.287769 -0.414544 -0.589 192 199 225
0.30399 -0.415248 -0.59 157 171 198
0.320304 -0.414544 -0.589 183 195 209
0.325913 -0.414544 -0.589 192 198 210
0.327035 -0.414544 -0.589 192 198 210
0.332086 -0.415248 -0.59 179 182 191
0.3422 -0.415248 -0.59 184 191 199
0.349473 -0.414544 -0.589 127 141 180
0.378643 -0.414544 -0.589 175 178 197
0.392771 -0.415248 -0.59 152 157 176
0.408505 -0.415248 -0.59 169 172 187
0.471438 -0.415248 -0.59 159 161 173
0.482676 -0.415248 -0.59 57 89 136
0.491667 -0.415248 -0.59 39 69 121
0.494199 -0.414544 -0.589 60 86 135
0.48546 -0.39906 -0.567 124 100 98
0.462429 -0.350497 -0.498 167 119 99
0.472853 -0.34909 -0.496 168 123 100
0.481416 -0.351201 -0.499 158 117 95
0.508624 -0.362462 -0.515 143 106 87
0.0147648 -0.295694 -0.419 197 158 129
0.0234314 -0.294283 -0.417 199 155 126
0.0547714 -0.300634 -0.426 171 122 105
0.257914 -0.416371 -0.59 207 214 232
0.265781 -0.416371 -0.59 189 192 209
0.277671 -0.415666 -0.589 144 163 195
0.279915 -0.415666 -0.589 92 115 156
0.314694 -0.415666 -0.589 183 191 212
0.319182 -0.415666 -0.589 186 195 210
0.325913 -0.415666 -0.589 192 196 205
0.327035 -0.415666 -0.589 192 196 205
0.330401 -0.415666 -0.589 139 140 145
0.331523 -0.415666 -0.589 184 187 194
0.355083 -0.415666 -0.589 110 133 183
0.38136 -0.41496 -0.588 166 171 175
0.395471 -0.415666 -0.589 130 136 158
0.40669 -0.415666 -0.589 156 159 168
0.41048 -0.41496 -0.588 98 107 136
0.447838 -0.416371 -0.59 159 158 172
0.465593 -0.38038 -0.539 144 107 98
0.462291 -0.376851 -0.534 146 109 100
0.453472 -0.357091 -0.506 167 121 105
0.0218429 -0.295077 -0.417 193 154 123
0.0226371 -0.295077 -0.417 196 155 125
0.0234314 -0.295077 -0.417 197 156 126
0.0404 -0.2972 -0.42 186 140 114
0.0547714 -0.301446 -0.426 171 123 103
0.0981667 -0.336119 -0.475 91 71 72
0.155648 -0.417495 -0.59 207 209 221
0.204748 -0.416788 -0.589 211 219 242
0.210357 -0.416788 -0.589 215 220 242
0.21821 -0.416788 -0.589 218 220 245
0.225324 -0.417495 -0.59 187 201 227
0.226448 -0.417495 -0.59 169 183 209
0.264209 -0.416788 -0.589 198 199 217
0.27384 -0.41608 -0.588 202 208 222
0.28168 -0.41608 -0.588 100 118 156
0.34664 -0.41608 -0.588 151 163 189
0.353961 -0.416788 -0.589 92 122 176
0.356205 -0.416788 -0.589 47 78 133
0.36456 -0.41608 -0.588 69 101 162
0.38136 -0.41608 -0.588 140 144 147
0.389862 -0.416788 -0.589 114 125 147
0.395471 -0.416788 -0.589 110 118 139
0.425763 -0.416788 -0.589 44 75 129
0.438104 -0.416788 -0.589 157 162 182
0.445957 -0.416788 -0.589 157 159 172
0.450445 -0.416788 -0.589 154 152 163
0.47491 -0.389898 -0.551 141 104 96
0.458239 -0.372915 -0.527 149 111 100
0.4536 -0.35664 -0.504 163 117 101
0.459583 -0.352394 -0.498 172 125 105
0.460531 -0.352394 -0.498 169 122 102
0.0108 -0.298 -0.42 194 158 126
0.0139667 -0.29729 -0.419 196 157 126
0.0210486 -0.295871 -0.417 197 158 125
0.0314495 -0.296581 -0.418 191 145 119
0.0330419 -0.296581 -0.418 192 148 121
0.0555829 -0.302257 -0.426 172 124 104
0.0833857 -0.318576 -0.449 94 74 73
0.0898095 -0.326381 -0.46 90 70 71
0.156506 -0.41791 -0.589 217 216 224
0.261965 -0.41791 -0.589 209 212 227
0.26824 -0.4172 -0.588 199 205 219
0.27608 -0.4172 -0.588 196 204 217
0.34664 -0.4172 -0.588 171 182 202
0.34888 -0.4172 -0.588 113 135 174
0.366176 -0.41649 -0.587 35 73 136
0.376239 -0.41649 -0.587 163 166 175
0.38696 -0.4172 -0.588 129 138 155
0.38808 -0.4172 -0.588 114 126 150
0.39368 -0.4172 -0.588 127 139 163
0.42616 -0.4172 -0.588 67 99 150
0.42952 -0.4172 -0.588 52 83 137
0.442591 -0.41791 -0.589 157 159 171
0.44296 -0.4172 -0.588 160 162 174
0.445957 -0.41791 -0.589 158 161 176
0.44968 -0.4172 -0.588 162 160 171
0.4508 -0.4172 -0.588 158 160 173
0.4564 -0.4172 -0.588 147 153 175
0.46088 -0.4172 -0.588 159 159 171
0.4732 -0.4172 -0.588 85 91 115
0.475127 -0.41791 -0.589 46 59 91
0.47737 -0.41791 -0.589 109 122 154
0.485224 -0.41791 -0.589 64 89 130
0.493639 -0.41649 -0.587 102 117 148
0.452998 -0.363276 -0.512 160 117 98
0.460531 -0.353343 -0.498 170 123 103
0.467185 -0.351924 -0.496 170 124 101
0.483297 -0.353343 -0.498 156 113 94
0.485218 -0.354052 -0.499 154 116 97
0.491004 -0.356181 -0.502 147 110 91
0.504657 -0.361857 -0.51 149 111 90
0.0162829 -0.296666 -0.417 194 156 119
0.0202543 -0.296666 -0.417 196 158 122
0.0258143 -0.296666 -0.417 193 154 121
0.0347171 -0.298089 -0.419 187 143 114
0.0487457 -0.300934 -0.423 173 125 102
0.2044 -0.41832 -0.588 219 224 243
0.2156 -0.41832 -0.588 121 137 173
0.21896 -0.41832 -0.588 202 210 246
0.2212 -0.41832 -0.588 218 220 245
0.2492 -0.41832 -0.588 177 189 213
0.257477 -0.419031 -0.589 205 215 225
0.26264 -0.41832 -0.588 205 208 223
0.292382 -0.417609 -0.587 67 93 142
0.34888 -0.41832 -0.588 106 128 167
0.360586 -0.417609 -0.587 28 60 119
0.361704 -0.417609 -0.587 39 71 130
0.365058 -0.417609 -0.587 43 77 140
0.378475 -0.417609 -0.587 160 161 165
0.38742 -0.417609 -0.587 121 132 154
0.418727 -0.417609 -0.587 46 78 129
0.420963 -0.417609 -0.587 49 82 135
0.42952 -0.41832 -0.588 80 108 155
0.470159 -0.417609 -0.587 96 103 129
0.45281 -0.365674 -0.514 158 116 100
0.453789 -0.365674 -0.514 158 116 100
0.45406 -0.36354 -0.511 160 115 96
0.457654 -0.355003 -0.499 163 118 97
0.475671 -0.352157 -0.495 165 120 97
0.0154886 -0.29746 -0.417 194 155 122
0.0306533 -0.298173 -0.418 190 149 119
0.0347171 -0.298887 -0.419 188 144 115
0.0363133 -0.298887 -0.419 185 141 114
0.0522143 -0.303167 -0.425 166 120 96
0.0530238 -0.303167 -0.425 165 119 95
0.0678857 -0.30816 -0.432 135 95 87
0.074839 -0.313153 -0.439 116 83 76
0.0758476 -0.313867 -0.44 107 83 81
0.0961543 -0.33812 -0.474 87 68 64
0.154 -0.41944 -0.588 223 228 247
0.273374 -0.418727 -0.587 202 206 218
0.290768 -0.418013 -0.586 94 121 176
0.29909 -0.418727 -0.587 43 78 144
0.336531 -0.418013 -0.586 173 175 190
0.347169 -0.418727 -0.587 138 150 162
0.35835 -0.418727 -0.587 32 68 130
0.378947 -0.418013 -0.586 131 130 136
0.381179 -0.418013 -0.586 164 167 172
0.388538 -0.418727 -0.587 110 118 139
0.397483 -0.418727 -0.587 164 164 174
0.404619 -0.418013 -0.586 100 103 110
0.4102 -0.418013 -0.586 59 77 117
0.411316 -0.418013 -0.586 104 122 162
0.425435 -0.418727 -0.587 70 102 151
0.44184 -0.41944 -0.588 159 161 176
0.455624 -0.418727 -0.587 155 158 175
0.46345 -0.418727 -0.587 162 162 174
0.473513 -0.418727 -0.587 62 74 100
0.48328 -0.41944 -0.588 108 131 165
0.453883 -0.36594 -0.513 161 118 101
0.457654 -0.355953 -0.499 165 120 99
0.457686 -0.35524 -0.498 167 122 101
0.465295 -0.353813 -0.496 158 112 89
0.570083 -0.40018 -0.561 162 149 133
0.00205238 -0.308268 -0.431 189 153 121
0.00364286 -0.303976 -0.425 190 154 122
0.0202543 -0.298254 -0.417 200 161 128
0.0258143 -0.298254 -0.417 191 150 120
0.0314495 -0.29897 -0.418 189 148 120
0.0496686 -0.303261 -0.424 172 124 102
0.0504762 -0.303261 -0.424 171 123 100
0.0530238 -0.303976 -0.425 165 119 95
0.05734 -0.305407 -0.427 160 113 97
0.0651143 -0.307552 -0.43 142 98 89
0.0660867 -0.308268 -0.431 140 97 88
0.0918686 -0.333301 -0.466 92 71 70
0.098081 -0.342599 -0.479 91 72 66
0.14616 -0.42056 -0.588 201 206 235
0.202934 -0.419845 -0.587 218 224 238
0.211879 -0.419845 -0.587 208 215 233
0.245422 -0.419845 -0.587 157 171 206
0.259957 -0.419845 -0.587 211 215 226
0.27561 -0.419845 -0.587 203 208 227
0.290768 -0.41913 -0.586 75 104 164
0.309743 -0.41913 -0.586 174 181 207
0.333183 -0.41913 -0.586 124 131 150
0.335415 -0.41913 -0.586 174 176 191
0.349405 -0.419845 -0.587 47 70 104
0.350523 -0.419845 -0.587 28 59 116
0.358855 -0.41913 -0.586 34 65 129
0.371614 -0.418414 -0.585 156 167 197
0.382295 -0.41913 -0.586 160 164 176
0.391225 -0.41913 -0.586 145 158 175
0.394129 -0.419845 -0.587 166 164 175
0.412843 -0.418414 -0.585 135 150 183
0.459312 -0.41913 -0.586 156 155 171
0.479104 -0.419845 -0.587 149 148 164
0.462447 -0.355473 -0.497 168 120 98
0.466243 -0.354043 -0.495 158 110 88
0.468124 -0.353328 -0.494 169 121 99
0.470006 -0.353328 -0.494 170 122 100
0.470947 -0.353328 -0.494 171 126 105
0.48902 -0.356904 -0.499 150 109 91
0.517507 -0.370493 -0.518 146 109 90
0.03058 -0.299049 -0.417 188 147 119
0.0446114 -0.302634 -0.422 181 133 110
0.0454152 -0.302634 -0.422 176 128 106
0.0678857 -0.309806 -0.432 130 93 85
0.202589 -0.420246 -0.586 221 225 236
0.22268 -0.420246 -0.586 209 215 237
0.24612 -0.420246 -0.586 201 207 229
0.257721 -0.420963 -0.587 210 215 234
0.259514 -0.420246 -0.586 204 211 229
0.274025 -0.420246 -0.586 200 209 218
0.285814 -0.419529 -0.585 62 91 149
0.295843 -0.419529 -0.585 37 74 144
0.311443 -0.419529 -0.585 183 182 200
0.329271 -0.419529 -0.585 129 145 170
0.341529 -0.419529 -0.585 181 184 189
0.376071 -0.419529 -0.585 122 121 129
0.392341 -0.420246 -0.586 161 167 181
0.396806 -0.420246 -0.586 157 163 175
0.416186 -0.419529 -0.585 118 143 173
0.418414 -0.419529 -0.585 51 82 128
0.426943 -0.420246 -0.586 114 133 175
0.449267 -0.420246 -0.586 160 157 178
0.461871 -0.419529 -0.585 159 157 179
0.463777 -0.420246 -0.586 154 152 174
0.491682 -0.420246 -0.586 89 105 139
0.492798 -0.420246 -0.586 92 104 130
0.493071 -0.419529 -0.585 109 121 147
0.455554 -0.370046 -0.516 160 118 102
0.455574 -0.360723 -0.503 167 122 103
0.457654 -0.357854 -0.499 172 125 105
0.463393 -0.35642 -0.497 167 121 98
0.0107229 -0.299843 -0.417 193 152 120
0.0115171 -0.299843 -0.417 196 155 123
0.0209981 -0.299124 -0.416 199 158 128
0.0379095 -0.301281 -0.419 183 137 111
0.0421 -0.302719 -0.421 179 131 108
0.0437038 -0.302719 -0.421 181 133 111
0.052899 -0.304876 -0.424 165 117 95
0.0660867 -0.30991 -0.431 134 94 86
0.0830819 -0.32501 -0.452 95 71 69
0.0855543 -0.327886 -0.456 92 71 68
0.100027 -0.348019 -0.484 91 73 71
0.211518 -0.421362 -0.586 216 221 240
0.247236 -0.421362 -0.586 206 211 230
0.259514 -0.421362 -0.586 197 202 221
0.265095 -0.421362 -0.586 184 182 196
0.276257 -0.421362 -0.586 200 204 213
0.280243 -0.420643 -0.585 156 156 164
0.311443 -0.420643 -0.585 191 192 210
0.317585 -0.419924 -0.584 171 177 191
0.340414 -0.420643 -0.585 178 181 188
0.343757 -0.420643 -0.585 156 160 169
0.358243 -0.420643 -0.585 55 90 144
0.384986 -0.420643 -0.585 168 172 183
0.397243 -0.420643 -0.585 162 168 180
0.401013 -0.419924 -0.584 162 162 172
0.409912 -0.419924 -0.584 147 157 182
0.425827 -0.421362 -0.586 103 122 162
0.444802 -0.421362 -0.586 157 158 178
0.4563 -0.420643 -0.585 149 152 169
0.459643 -0.420643 -0.585 160 158 179
0.470786 -0.420643 -0.585 137 140 157
0.481636 -0.421362 -0.586 82 99 129
0.483869 -0.421362 -0.586 89 105 138
0.491957 -0.420643 -0.585 82 93 121
0.457984 -0.374624 -0.521 155 116 99
0.457214 -0.373186 -0.519 157 118 101
0.455191 -0.365995 -0.509 162 119 102
0.455265 -0.365276 -0.508 162 119 102
0.460553 -0.357367 -0.497 170 124 101
0.00834 -0.300637 -0.417 195 154 122
0.00992857 -0.300637 -0.417 197 156 124
0.0115171 -0.300637 -0.417 197 156 124
0.0170362 -0.299916 -0.416 195 154 122
0.0266086 -0.300637 -0.417 185 141 114
0.0330419 -0.301358 -0.418 184 140 115
0.046219 -0.304242 -0.422 174 126 104
0.05978 -0.307847 -0.427 152 104 92
0.072001 -0.315056 -0.437 113 82 79
0.0986952 -0.347499 -0.482 88 67 66
0.212271 -0.421757 -0.585 215 218 233
0.224529 -0.421757 -0.585 170 188 228
0.231214 -0.421757 -0.585 112 142 206
0.251271 -0.421757 -0.585 206 211 230
0.284213 -0.421036 -0.584 64 90 147
0.304236 -0.421036 -0.584 37 71 132
0.306461 -0.421036 -0.584 134 158 206
0.316472 -0.421036 -0.584 181 187 201
0.326484 -0.421036 -0.584 110 121 141
0.3393 -0.421757 -0.585 182 180 201
0.359357 -0.421757 -0.585 72 104 155
0.364305 -0.421036 -0.584 133 153 188
0.367642 -0.421036 -0.584 131 142 174
0.369867 -0.421036 -0.584 49 58 91
0.372091 -0.421036 -0.584 103 113 138
0.386552 -0.421036 -0.584 165 169 181
0.395451 -0.421036 -0.584 157 163 175
0.396564 -0.421036 -0.584 159 165 177
0.397676 -0.421036 -0.584 163 163 173
0.426214 -0.421757 -0.585 96 114 152
0.449614 -0.421757 -0.585 154 155 175
0.4563 -0.421757 -0.585 135 140 162
0.467756 -0.421036 -0.584 99 106 124
0.470786 -0.421757 -0.585 145 148 165
0.484157 -0.421757 -0.585 92 111 144
0.488614 -0.421757 -0.585 88 106 142
0.491957 -0.421757 -0.585 69 83 112
0.495828 -0.420315 -0.583 136 138 150
0.45552 -0.36336 -0.504 166 121 102
0.455574 -0.362639 -0.503 168 123 104
0.458605 -0.359755 -0.499 171 124 104
0.485135 -0.357592 -0.496 158 113 90
0.00121143 -0.306491 -0.424 193 153 127
0.00990476 -0.300709 -0.416 199 158 128
0.0202057 -0.300709 -0.416 199 156 122
0.0330419 -0.302154 -0.418 186 142 115
0.0354305 -0.302154 -0.418 183 139 114
0.0495514 -0.305769 -0.423 166 117 100
0.0680429 -0.312997 -0.433 123 88 84
0.082221 -0.326731 -0.452 95 71 71
0.0846857 -0.329623 -0.456 92 71 70
0.14703 -0.424317 -0.587 219 227 246
0.235269 -0.422149 -0.584 106 128 185
0.254179 -0.422149 -0.584 203 209 225
0.26419 -0.422149 -0.584 162 168 192
0.266415 -0.422149 -0.584 171 178 197
0.270865 -0.422149 -0.584 194 200 212
0.307573 -0.422149 -0.584 123 136 170
0.313135 -0.422149 -0.584 186 189 206
0.314248 -0.422149 -0.584 178 182 194
0.319262 -0.421426 -0.583 184 183 197
0.40699 -0.421426 -0.583 112 123 145
0.416587 -0.422149 -0.584 94 111 137
0.433272 -0.422149 -0.584 152 153 171
0.437722 -0.422149 -0.584 82 89 107
0.439947 -0.422149 -0.584 80 88 107
0.495828 -0.421426 -0.583 140 142 154
0.479108 -0.398294 -0.551 143 108 104
0.462254 -0.380946 -0.527 147 111 95
0.456581 -0.362874 -0.502 170 125 104
0.00120571 -0.30585 -0.422 193 153 127
0.00913429 -0.302226 -0.417 201 157 128
0.0138667 -0.301501 -0.416 185 142 110
0.0154514 -0.301501 -0.416 190 147 115
0.0437038 -0.305125 -0.421 179 131 109
0.0520914 -0.307299 -0.424 167 116 95
0.0546429 -0.308024 -0.425 166 118 98
0.0644448 -0.312372 -0.431 133 93 85
0.0733333 -0.318895 -0.44 108 78 76
0.0975743 -0.34861 -0.481 91 69 72
0.0993095 -0.35151 -0.485 97 75 78
0.213021 -0.423261 -0.584 214 216 229
0.22637 -0.423261 -0.584 83 107 167
0.237493 -0.423261 -0.584 86 115 175
0.256404 -0.423261 -0.584 166 172 188
0.260407 -0.422536 -0.583 147 153 169
0.289279 -0.422536 -0.583 110 145 199
0.29039 -0.422536 -0.583 92 127 181
0.29261 -0.422536 -0.583 58 93 157
0.303715 -0.422536 -0.583 137 164 207
0.304826 -0.422536 -0.583 91 112 155
0.305936 -0.422536 -0.583 50 71 114
0.312599 -0.422536 -0.583 184 187 204
0.328146 -0.422536 -0.583 178 181 198
0.348731 -0.423261 -0.584 115 126 144
0.390332 -0.422536 -0.583 155 161 173
0.409617 -0.421811 -0.582 161 158 175
0.418094 -0.422536 -0.583 87 109 146
0.45552 -0.423261 -0.584 115 124 155
0.471093 -0.423261 -0.584 152 151 165
0.473318 -0.423261 -0.584 135 135 145
0.457422 -0.374702 -0.517 157 119 100
0.4554 -0.36673 -0.506 164 122 100
0.457654 -0.361656 -0.499 171 126 103
0.4653 -0.358757 -0.495 173 127 104
0.472789 -0.356583 -0.492 170 126 101
0.4756 -0.356583 -0.492 162 118 93
0.00990476 -0.302293 -0.416 199 158 128
0.0106971 -0.302293 -0.416 200 159 129
0.0193667 -0.301567 -0.415 196 152 123
0.0257524 -0.302293 -0.416 191 147 120
0.0371114 -0.304473 -0.419 180 136 111
0.0520914 -0.308107 -0.424 167 116 95
0.0537067 -0.308107 -0.424 164 116 96
0.0838171 -0.33136 -0.456 91 69 71
0.0919571 -0.34226 -0.471 88 67 72
0.205234 -0.424373 -0.584 214 216 231
0.207459 -0.424373 -0.584 220 219 235
0.233755 -0.423647 -0.583 96 120 180
0.278174 -0.423647 -0.583 190 195 214
0.294326 -0.42292 -0.582 56 100 165
0.309846 -0.42292 -0.582 159 172 207
0.312063 -0.42292 -0.582 180 185 205
0.315389 -0.42292 -0.582 175 176 180
0.348134 -0.423647 -0.583 127 135 154
0.369709 -0.42292 -0.582 92 100 119
0.422536 -0.423647 -0.583 90 116 151
0.446621 -0.424373 -0.584 133 139 161
0.45107 -0.424373 -0.584 112 124 148
0.45585 -0.423647 -0.583 136 144 165
0.464734 -0.423647 -0.583 111 117 139
0.473618 -0.423647 -0.583 106 107 112
0.47806 -0.423647 -0.583 93 100 118
0.489165 -0.423647 -0.583 59 79 116
0.45752 -0.37496 -0.516 157 120 101
0.459607 -0.361153 -0.497 170 124 101
0.573411 -0.40548 -0.558 173 162 160
-0.00288 -0.314743 -0.432 194 157 128
0.0114619 -0.302357 -0.415 199 158 128
0.0169952 -0.302357 -0.415 197 154 122
0.0257524 -0.303086 -0.416 190 146 119
0.0265448 -0.303086 -0.416 191 147 120
0.0446114 -0.307457 -0.422 172 127 106
0.0572057 -0.310371 -0.426 153 105 95
0.0625114 -0.312557 -0.429 140 95 90
0.0745086 -0.322029 -0.442 105 75 75
0.084001 -0.332957 -0.457 92 70 72
0.087939 -0.338057 -0.464 88 66 68
0.166016 -0.424757 -0.583 99 125 184
0.201551 -0.424757 -0.583 166 169 186
0.217098 -0.424757 -0.583 181 185 197
0.22043 -0.424757 -0.583 105 129 175
0.24597 -0.424757 -0.583 202 209 227
0.252633 -0.424757 -0.583 202 208 224
0.293217 -0.424029 -0.582 67 116 175
0.307629 -0.424029 -0.582 61 80 123
0.310954 -0.424029 -0.582 170 176 198
0.316497 -0.424029 -0.582 178 181 188
0.334809 -0.424757 -0.583 177 179 192
0.335343 -0.424029 -0.582 177 179 192
0.344803 -0.424757 -0.583 122 137 170
0.354797 -0.424757 -0.583 107 125 165
0.381903 -0.424029 -0.582 161 163 175
0.38412 -0.424029 -0.582 151 156 175
0.398953 -0.4233 -0.581 135 142 160
0.4067 -0.4233 -0.581 154 156 169
0.411127 -0.4233 -0.581 143 152 161
0.459182 -0.424757 -0.583 106 118 142
0.47724 -0.424029 -0.582 111 117 133
0.496837 -0.421843 -0.579 129 126 133
0.461619 -0.381771 -0.524 151 116 96
0.459969 -0.379586 -0.521 147 115 92
0.457874 -0.373029 -0.512 163 122 102
0.460531 -0.362829 -0.498 168 123 100
0.0004 -0.3068 -0.42 193 154 125
0.00752762 -0.303878 -0.416 195 154 124
0.031299 -0.303878 -0.416 184 138 114
0.0396 -0.3068 -0.42 182 136 112
0.0520914 -0.309722 -0.424 159 110 95
0.0572057 -0.311183 -0.426 151 104 94
0.230029 -0.425137 -0.582 80 113 166
0.232246 -0.425137 -0.582 102 131 187
0.237789 -0.425137 -0.582 96 126 178
0.247081 -0.425868 -0.583 203 208 228
0.277697 -0.425137 -0.582 150 157 185
0.304887 -0.424407 -0.581 133 148 179
0.348646 -0.425137 -0.582 166 174 187
0.361949 -0.425137 -0.582 120 131 159
0.37636 -0.425137 -0.582 157 165 184
0.377469 -0.425137 -0.582 159 161 182
0.418486 -0.425137 -0.582 80 115 137
0.427354 -0.425137 -0.582 120 129 138
0.428463 -0.425137 -0.582 91 100 109
0.435114 -0.425137 -0.582 150 147 164
0.443635 -0.425868 -0.583 41 56 87
0.475023 -0.425137 -0.582 148 155 163
0.487217 -0.425137 -0.582 87 103 137
0.496837 -0.422946 -0.579 136 134 139
0.456364 -0.369621 -0.506 165 122 103
0.456532 -0.36743 -0.503 171 126 107
0.45749 -0.36743 -0.503 170 125 106
0.45758 -0.365969 -0.501 170 124 101
0.46904 -0.359394 -0.492 171 126 103
0.482201 -0.360125 -0.493 160 115 92
0.48412 -0.360855 -0.494 157 112 89
0.50448 -0.36816 -0.504 151 110 92
-0.00200952 -0.309065 -0.422 195 155 129
0.0083 -0.303938 -0.415 195 156 123
0.00988095 -0.303938 -0.415 196 157 124
0.0305067 -0.30467 -0.416 180 134 108
0.0362267 -0.306135 -0.418 179 135 108
0.05992 -0.313459 -0.428 142 96 83
0.0883181 -0.34129 -0.466 89 68 65
0.0927381 -0.347881 -0.475 90 70 69
0.097261 -0.354472 -0.484 93 73 74
0.155754 -0.426246 -0.582 126 146 173
0.2134 -0.426246 -0.582 213 216 235
0.247766 -0.426246 -0.582 205 209 221
0.262833 -0.425513 -0.581 195 201 215
0.26726 -0.425513 -0.581 199 202 219
0.35026 -0.425513 -0.581 122 130 149
0.358007 -0.425513 -0.581 111 134 168
0.362433 -0.425513 -0.581 124 150 187
0.37018 -0.425513 -0.581 163 161 175
0.372393 -0.425513 -0.581 147 155 176
0.375713 -0.425513 -0.581 132 142 169
0.381247 -0.425513 -0.581 160 158 180
0.404895 -0.424781 -0.58 156 156 166
0.42662 -0.425513 -0.581 121 136 157
0.447309 -0.426246 -0.582 99 115 148
0.449526 -0.426246 -0.582 102 116 145
0.46314 -0.425513 -0.581 116 123 151
0.470589 -0.426246 -0.582 143 148 151
0.472806 -0.426246 -0.582 147 152 155
0.476131 -0.426246 -0.582 147 150 165
0.47724 -0.426246 -0.582 119 122 137
0.482783 -0.426246 -0.582 83 107 145
0.49708 -0.423316 -0.578 131 133 130
0.465298 -0.361064 -0.493 172 125 105
0.476504 -0.359599 -0.491 161 116 93
0.493687 -0.363993 -0.497 153 111 89
0.500523 -0.366923 -0.501 151 110 90
0.00119429 -0.306931 -0.418 190 151 122
0.00356571 -0.305463 -0.416 193 152 122
0.0083 -0.304729 -0.415 192 153 122
0.0265448 -0.305463 -0.416 181 138 106
0.0396 -0.3084 -0.42 182 136 113
0.0503571 -0.310603 -0.423 162 113 98
0.0554524 -0.312071 -0.425 151 108 92
0.0608771 -0.315009 -0.429 135 97 88
0.142696 -0.428089 -0.583 223 223 235
0.20086 -0.42662 -0.581 192 198 214
0.203073 -0.42662 -0.581 203 206 221
0.209713 -0.42662 -0.581 215 222 232
0.216353 -0.42662 -0.581 126 134 157
0.222993 -0.42662 -0.581 140 160 197
0.226313 -0.42662 -0.581 92 124 181
0.239593 -0.42662 -0.581 125 145 182
0.26394 -0.42662 -0.581 199 205 219
0.269473 -0.42662 -0.581 198 201 218
0.301048 -0.425886 -0.58 177 185 196
0.329233 -0.42662 -0.581 180 177 194
0.331447 -0.42662 -0.581 175 181 197
0.341924 -0.425886 -0.58 164 171 190
0.350762 -0.425886 -0.58 94 108 135
0.3596 -0.425886 -0.58 83 107 145
0.371287 -0.42662 -0.581 165 163 176
0.374607 -0.42662 -0.581 97 109 133
0.400889 -0.425151 -0.579 152 156 168
0.431047 -0.42662 -0.581 89 92 101
0.440657 -0.427354 -0.582 113 119 133
0.465353 -0.42662 -0.581 147 156 165
0.474207 -0.42662 -0.581 143 145 157
0.467786 -0.389906 -0.531 148 112 96
0.461516 -0.364206 -0.496 170 125 104
0.475569 -0.360534 -0.491 151 106 83
0.476504 -0.360534 -0.491 152 107 84
0.00277333 -0.306255 -0.416 190 149 119
0.0083 -0.305519 -0.415 189 150 119
0.0138 -0.304783 -0.414 195 154 122
0.01932 -0.304783 -0.414 191 148 116
0.0495514 -0.311409 -0.423 162 113 96
0.0520914 -0.312145 -0.424 153 107 91
0.0538333 -0.312881 -0.425 153 110 93
0.0796381 -0.332758 -0.452 93 70 64
0.0859857 -0.340856 -0.463 88 67 62
0.16102 -0.427727 -0.581 119 141 198
0.16766 -0.427727 -0.581 114 141 196
0.17098 -0.427727 -0.581 114 141 196
0.173193 -0.427727 -0.581 102 128 185
0.228133 -0.42699 -0.58 106 137 192
0.229238 -0.42699 -0.58 108 139 194
0.281162 -0.42699 -0.58 188 194 216
0.285581 -0.42699 -0.58 156 169 186
0.318724 -0.42699 -0.58 179 186 194
0.328667 -0.42699 -0.58 174 172 193
0.329771 -0.42699 -0.58 175 173 194
0.3364 -0.42699 -0.58 126 137 155
0.347448 -0.42699 -0.58 171 174 191
0.354076 -0.42699 -0.58 114 134 169
0.35739 -0.42699 -0.58 105 129 167
0.362914 -0.42699 -0.58 161 164 179
0.373962 -0.42699 -0.58 127 138 158
0.391638 -0.42699 -0.58 100 116 149
0.392743 -0.42699 -0.58 100 116 149
0.412629 -0.42699 -0.58 76 104 144
0.418152 -0.42699 -0.58 79 104 145
0.43141 -0.42699 -0.58 107 108 112
0.44322 -0.427727 -0.581 51 74 105
0.451295 -0.42699 -0.58 39 56 102
0.495979 -0.425518 -0.578 116 119 124
0.4581 -0.374721 -0.509 160 122 103
0.460506 -0.367359 -0.499 165 122 103
0.465298 -0.362942 -0.493 168 121 101
0.476504 -0.36147 -0.491 153 108 85
0.487884 -0.363678 -0.494 161 116 93
0.4917 -0.364414 -0.495 156 114 90
0.503386 -0.368831 -0.501 150 110 84
-0.00360857 -0.310738 -0.421 196 157 128
0.0337571 -0.307786 -0.417 179 133 109
0.0572057 -0.314429 -0.426 139 101 82
0.0637714 -0.318857 -0.432 123 89 80
0.06572 -0.320333 -0.434 123 88 82
0.070819 -0.324762 -0.44 107 79 75
0.0729895 -0.326976 -0.443 101 78 72
0.074 -0.327714 -0.444 99 76 70
0.0798143 -0.334357 -0.453 91 70 65
0.0920267 -0.351333 -0.476 88 69 65
0.101562 -0.366095 -0.496 92 78 77
0.1296 -0.413333 -0.56 186 190 215
0.1411 -0.428833 -0.581 218 221 236
0.231448 -0.428095 -0.58 130 161 208
0.269649 -0.427357 -0.579 198 200 213
0.273429 -0.428095 -0.58 153 163 190
0.281162 -0.428095 -0.58 195 198 217
0.282267 -0.428095 -0.58 189 198 215
0.306043 -0.427357 -0.579 178 183 202
0.308249 -0.427357 -0.579 140 147 165
0.319829 -0.428095 -0.58 172 176 188
0.333614 -0.427357 -0.579 151 159 182
0.345746 -0.427357 -0.579 171 176 195
0.352363 -0.427357 -0.579 90 110 147
0.356774 -0.427357 -0.579 97 122 163
0.360083 -0.427357 -0.579 68 98 136
0.3667 -0.427357 -0.579 102 103 107
0.370009 -0.427357 -0.579 162 163 168
0.372214 -0.427357 -0.579 168 167 181
0.407903 -0.426619 -0.578 148 155 165
0.421843 -0.427357 -0.579 56 87 131
0.433619 -0.428095 -0.58 124 132 135
0.441352 -0.428095 -0.58 56 70 97
0.455714 -0.428095 -0.58 135 146 164
0.47781 -0.428095 -0.58 75 87 109
0.491323 -0.427357 -0.579 126 136 148
0.458571 -0.369048 -0.5 166 125 103
0.459555 -0.36831 -0.499 167 125 103
0.460506 -0.36831 -0.499 165 122 103
0.464359 -0.363881 -0.493 169 124 103
0.469022 -0.362405 -0.491 170 123 103
0.478374 -0.362405 -0.491 159 117 93
0.489766 -0.364619 -0.494 159 117 93
-0.00441048 -0.31154 -0.421 197 158 129
0.0145886 -0.30636 -0.414 192 151 119
0.0201086 -0.30636 -0.414 188 148 113
0.0208971 -0.30636 -0.414 190 146 117
0.0241095 -0.3071 -0.415 186 142 115
0.0495514 -0.31302 -0.423 156 111 88
0.0512838 -0.31376 -0.424 155 110 89
0.0520914 -0.31376 -0.424 150 107 88
0.0688286 -0.32412 -0.438 113 80 75
0.185048 -0.4292 -0.58 216 219 234
0.208248 -0.4292 -0.58 217 218 236
0.248694 -0.42846 -0.579 170 173 188
0.249797 -0.42846 -0.579 160 163 178
0.311019 -0.42772 -0.578 106 118 140
0.332511 -0.42846 -0.579 107 120 152
0.365597 -0.42846 -0.579 167 170 179
0.36937 -0.42772 -0.578 167 171 172
0.432871 -0.42846 -0.579 94 102 105
0.481718 -0.40552 -0.548 134 105 99
0.460469 -0.38184 -0.516 152 115 96
0.459555 -0.36926 -0.499 166 124 102
0.484971 -0.36408 -0.492 162 117 94
0.49842 -0.36778 -0.497 151 111 85
0.00197619 -0.30789 -0.415 194 155 126
0.0051381 -0.30789 -0.415 190 149 119
0.00670286 -0.307149 -0.414 193 152 122
0.0225286 -0.30789 -0.415 188 143 114
0.0329629 -0.309374 -0.417 175 129 105
0.0487457 -0.313826 -0.423 158 113 90
0.0667 -0.322729 -0.435 121 83 80
0.0731543 -0.329406 -0.444 97 76 73
0.0812114 -0.338309 -0.456 89 68 63
0.139752 -0.430305 -0.58 222 225 240
0.145276 -0.430305 -0.58 224 227 246
0.205683 -0.429563 -0.579 215 217 232
0.223329 -0.429563 -0.579 168 185 213
0.224431 -0.429563 -0.579 130 147 175
0.233254 -0.429563 -0.579 166 186 221
0.27799 -0.428821 -0.578 183 189 211
0.298909 -0.428821 -0.578 156 174 214
0.336341 -0.428821 -0.578 164 170 184
0.344048 -0.428821 -0.578 171 178 186
0.344551 -0.428079 -0.577 171 172 190
0.371571 -0.428821 -0.578 166 168 181
0.372672 -0.428821 -0.578 159 165 179
0.377076 -0.428821 -0.578 57 87 121
0.385884 -0.428821 -0.578 28 60 107
0.394009 -0.428079 -0.577 72 91 121
0.408296 -0.428079 -0.577 154 157 166
0.410494 -0.428079 -0.577 73 100 130
0.421114 -0.428821 -0.578 64 92 132
0.422215 -0.428821 -0.578 71 97 134
0.441694 -0.429563 -0.579 121 133 149
0.495979 -0.428821 -0.578 110 110 122
0.458348 -0.374662 -0.505 165 124 104
0.460553 -0.368727 -0.497 167 125 103
0.46342 -0.365759 -0.493 175 130 109
0.483986 -0.364275 -0.491 161 116 93
0.489713 -0.365759 -0.493 153 111 87
-0.00118571 -0.308681 -0.415 191 152 123
0.00826 -0.307193 -0.413 193 152 120
0.0185314 -0.307937 -0.414 190 149 117
0.0257524 -0.309425 -0.416 185 139 113
0.0281295 -0.309425 -0.416 179 133 107
0.069981 -0.327276 -0.44 106 78 74
0.202374 -0.430666 -0.579 215 217 232
0.207889 -0.430666 -0.579 215 217 232
0.255971 -0.429922 -0.578 193 195 208
0.292896 -0.429178 -0.577 110 138 178
0.298391 -0.429178 -0.577 148 165 208
0.30059 -0.429178 -0.577 183 187 199
0.334139 -0.429922 -0.578 62 83 130
0.338543 -0.429922 -0.578 181 173 194
0.339644 -0.429922 -0.578 180 172 193
0.363865 -0.429922 -0.578 163 169 183
0.367631 -0.429178 -0.577 152 155 160
0.36983 -0.429178 -0.577 157 163 175
0.376424 -0.429178 -0.577 81 108 138
0.377523 -0.429178 -0.577 102 129 159
0.379721 -0.429178 -0.577 141 155 181
0.395108 -0.429178 -0.577 94 113 143
0.420386 -0.429178 -0.577 73 98 139
0.431023 -0.429922 -0.578 141 144 161
0.452723 -0.430666 -0.579 117 131 144
0.453826 -0.430666 -0.579 129 143 156
0.48497 -0.429922 -0.578 58 79 122
0.488272 -0.429922 -0.578 92 107 138
0.492923 -0.429178 -0.577 129 131 146
0.49622 -0.429178 -0.577 75 78 97
0.477626 -0.402401 -0.541 141 110 105
0.465611 -0.389756 -0.524 145 113 100
0.463048 -0.386781 -0.52 149 112 94
0.4615 -0.369673 -0.497 165 123 99
0.461529 -0.368186 -0.495 171 129 105
0.462471 -0.368186 -0.495 168 126 104
0.4746 -0.364467 -0.49 163 118 95
0.48118 -0.36521 -0.491 160 115 92
0.510186 -0.374136 -0.503 152 111 83
-0.000394286 -0.308726 -0.414 189 150 119
0.0177 -0.30798 -0.413 194 151 119
0.0241095 -0.309471 -0.415 184 137 111
0.0346343 -0.311709 -0.418 177 130 102
0.0437038 -0.313946 -0.421 164 117 97
0.046219 -0.314691 -0.422 159 112 92
0.0495514 -0.315437 -0.423 157 110 90
0.0512838 -0.316183 -0.424 153 106 88
0.0883686 -0.351231 -0.471 92 68 66
0.0913114 -0.355706 -0.477 89 69 68
0.16129 -0.431023 -0.578 131 155 189
0.165693 -0.431023 -0.578 132 147 186
0.167895 -0.431023 -0.578 193 209 243
0.175602 -0.431023 -0.578 170 182 204
0.217438 -0.431023 -0.578 214 213 227
0.222943 -0.431023 -0.578 152 171 203
0.224044 -0.431023 -0.578 151 170 202
0.263222 -0.430277 -0.577 192 198 214
0.268717 -0.430277 -0.577 173 181 204
0.272014 -0.430277 -0.577 185 193 214
0.278609 -0.430277 -0.577 195 198 213
0.280807 -0.430277 -0.577 196 199 214
0.296193 -0.430277 -0.577 89 123 169
0.309382 -0.430277 -0.577 156 154 165
0.312679 -0.430277 -0.577 55 85 135
0.330264 -0.430277 -0.577 96 115 148
0.343954 -0.429531 -0.576 174 176 191
0.350047 -0.430277 -0.577 77 96 139
0.365433 -0.430277 -0.577 161 165 174
0.379063 -0.429531 -0.576 149 157 178
0.425881 -0.430277 -0.577 146 150 159
0.429178 -0.430277 -0.577 142 147 166
0.43797 -0.430277 -0.577 133 141 154
0.440931 -0.431023 -0.578 133 140 156
0.464051 -0.431023 -0.578 87 91 103
0.468455 -0.431023 -0.578 106 111 140
0.479465 -0.431023 -0.578 62 89 119
0.492069 -0.429531 -0.576 130 131 149
0.476002 -0.401194 -0.538 138 111 102
0.461456 -0.372111 -0.499 171 126 103
0.476467 -0.3654 -0.49 161 115 91
0.497357 -0.369129 -0.495 154 112 87
0.505178 -0.372111 -0.499 155 111 84
0.0105943 -0.308019 -0.412 197 156 124
0.046219 -0.315495 -0.422 157 112 91
0.04794 -0.316243 -0.423 155 109 93
0.0487457 -0.316243 -0.423 154 108 92
0.05734 -0.319233 -0.427 135 97 84
