ply
format ascii 1.0
comment Created by Open3D
element vertex 1286
property double x
property double y
property double z
property uchar red
property uchar green
property uchar blue
end_header
0.0637714 -0.297463 -0.432 143 96 88
0.0696629 -0.301594 -0.438 120 87 78
0.0760324 -0.307103 -0.446 106 77 73
0.0905457 -0.325694 -0.473 94 73 72
0.386383 -0.409011 -0.594 168 176 197
0.390909 -0.409011 -0.594 149 157 176
0.401091 -0.409011 -0.594 172 174 197
0.4573 -0.4097 -0.595 163 170 186
0.459926 -0.409011 -0.594 154 158 170
0.489343 -0.409011 -0.594 57 86 144
0.452113 -0.35186 -0.511 166 119 103
0.455714 -0.344286 -0.5 170 125 104
0.4615 -0.34222 -0.497 168 121 101
0.467185 -0.341531 -0.496 161 115 92
0.470957 -0.340843 -0.495 168 122 99
0.4719 -0.340843 -0.495 171 124 104
0.479487 -0.34222 -0.497 158 115 96
0.930998 -0.393863 -0.572 207 210 193
0.983295 -0.393863 -0.572 204 207 190
0.987653 -0.393863 -0.572 205 207 193
1.00182 -0.393863 -0.572 205 207 193
1.00291 -0.393863 -0.572 202 206 191
1.01964 -0.393174 -0.571 203 205 191
1.02073 -0.393174 -0.571 203 205 191
0.0179143 -0.288619 -0.418 200 156 127
0.0187105 -0.288619 -0.418 199 155 126
0.0242838 -0.288619 -0.418 193 149 120
0.0750143 -0.307262 -0.445 103 78 73
0.459151 -0.409452 -0.593 153 153 161
0.464451 -0.410143 -0.594 162 164 176
0.467846 -0.410143 -0.594 159 163 175
0.48708 -0.410143 -0.594 36 63 116
0.489343 -0.410143 -0.594 40 69 129
0.48332 -0.388048 -0.562 127 102 98
0.476633 -0.381833 -0.553 128 103 99
0.459109 -0.364571 -0.528 141 108 101
0.451545 -0.349381 -0.506 168 123 102
0.453712 -0.346619 -0.502 171 126 105
0.458634 -0.343857 -0.498 170 125 104
0.462461 -0.342476 -0.496 172 125 107
0.470957 -0.341786 -0.495 167 120 100
0.913566 -0.394952 -0.572 207 210 193
0.917924 -0.394952 -0.572 207 210 193
1.00442 -0.394262 -0.571 203 207 190
1.01312 -0.394262 -0.571 203 205 191
1.02508 -0.394262 -0.571 203 205 191
1.03596 -0.394262 -0.571 203 205 191
1.04031 -0.394262 -0.571 202 204 190
0.0123705 -0.290108 -0.419 199 158 128
0.0170771 -0.288723 -0.417 198 154 125
0.021099 -0.289415 -0.418 197 153 126
0.0324 -0.2908 -0.42 190 144 120
0.0389848 -0.292185 -0.422 177 131 107
0.0576086 -0.297031 -0.429 153 105 93
0.0602 -0.297724 -0.43 146 98 86
0.063919 -0.299801 -0.433 134 94 84
0.077399 -0.310879 -0.449 99 75 73
0.0838581 -0.319188 -0.461 90 69 66
0.0896448 -0.327496 -0.473 92 72 73
0.375567 -0.410582 -0.593 101 115 150
0.376696 -0.410582 -0.593 74 88 123
0.383473 -0.410582 -0.593 170 176 198
0.393639 -0.410582 -0.593 169 174 193
0.41623 -0.410582 -0.593 149 158 173
0.423007 -0.410582 -0.593 80 112 161
0.442954 -0.411274 -0.594 145 160 189
0.450115 -0.410582 -0.593 118 116 119
0.458022 -0.410582 -0.593 158 160 173
0.456114 -0.360038 -0.52 148 110 99
0.454571 -0.357269 -0.516 153 114 99
0.452437 -0.351037 -0.507 168 121 103
0.455714 -0.34619 -0.5 171 124 106
0.469071 -0.342729 -0.495 166 119 99
0.576045 -0.393965 -0.569 188 181 175
0.921757 -0.39535 -0.571 208 210 196
0.963087 -0.39535 -0.571 204 207 190
0.963571 -0.394657 -0.57 205 208 191
0.974429 -0.394657 -0.57 204 207 190
0.992452 -0.39535 -0.571 206 208 195
1.00374 -0.394657 -0.57 202 206 189
1.01351 -0.394657 -0.57 203 205 191
1.02437 -0.394657 -0.57 203 206 189
1.02763 -0.394657 -0.57 204 206 192
1.0374 -0.394657 -0.57 203 205 191
0.0131371 -0.290211 -0.418 200 156 129
0.0154886 -0.289517 -0.417 195 151 122
0.0299286 -0.290906 -0.419 192 146 120
0.0472457 -0.294377 -0.424 171 118 102
0.0515257 -0.295766 -0.426 167 116 99
0.0523371 -0.295766 -0.426 163 114 99
0.056659 -0.297154 -0.428 157 108 94
0.405379 -0.411017 -0.592 162 170 189
0.416655 -0.411017 -0.592 142 153 185
0.422293 -0.411017 -0.592 71 101 155
0.429784 -0.411711 -0.593 115 143 190
0.435431 -0.411711 -0.593 143 150 179
0.441079 -0.411711 -0.593 151 164 183
0.452374 -0.411711 -0.593 157 164 180
0.479483 -0.411711 -0.593 54 64 99
0.454717 -0.347837 -0.501 174 127 109
0.456704 -0.346449 -0.499 171 124 106
0.458634 -0.345754 -0.498 169 122 104
0.462461 -0.344366 -0.496 169 122 104
0.46624 -0.344366 -0.496 173 126 108
0.926108 -0.396437 -0.571 207 209 196
0.959229 -0.395743 -0.57 204 207 190
0.973343 -0.395743 -0.57 204 207 190
0.977686 -0.395743 -0.57 205 208 191
1.02111 -0.395743 -0.57 204 207 190
1.03523 -0.395743 -0.57 202 204 190
0.00200952 -0.293792 -0.422 196 155 127
0.0091781 -0.291704 -0.419 199 155 128
0.0178714 -0.290311 -0.417 199 155 126
0.0324 -0.2924 -0.42 193 147 123
0.0365733 -0.293792 -0.422 181 135 112
0.038181 -0.293792 -0.422 180 132 109
0.0440152 -0.295185 -0.424 168 115 99
0.0523371 -0.296577 -0.426 163 114 99
0.059381 -0.299362 -0.43 143 95 83
0.0691429 -0.306324 -0.44 114 87 80
0.392975 -0.412145 -0.592 169 175 189
0.4144 -0.412145 -0.592 154 165 197
0.43769 -0.412841 -0.593 83 103 136
0.448229 -0.412145 -0.592 118 116 121
0.46627 -0.412145 -0.592 161 163 175
0.486568 -0.412145 -0.592 20 49 107
0.488823 -0.412145 -0.592 14 43 103
0.458746 -0.364108 -0.523 149 111 100
0.453171 -0.355057 -0.51 163 117 101
0.481356 -0.34531 -0.496 156 115 93
0.486143 -0.346703 -0.498 154 113 93
0.500723 -0.352969 -0.507 146 103 87
0.914714 -0.396829 -0.57 206 208 194
0.920143 -0.396829 -0.57 206 208 194
0.955971 -0.396829 -0.57 204 207 190
0.958143 -0.396829 -0.57 205 208 191
0.961881 -0.396132 -0.569 206 208 194
1.03809 -0.395436 -0.568 203 205 191
0.0091781 -0.292502 -0.419 197 158 127
0.0234876 -0.291804 -0.418 192 148 119
0.0389848 -0.294596 -0.422 177 129 109
0.0456305 -0.295992 -0.424 169 117 103
0.06034 -0.300879 -0.431 138 94 83
0.0756886 -0.313445 -0.449 99 73 74
0.0793 -0.317633 -0.455 95 71 67
0.08316 -0.32252 -0.462 89 71 69
0.265554 -0.413272 -0.592 158 173 202
0.39794 -0.412574 -0.591 130 126 140
0.403569 -0.412574 -0.591 168 175 181
0.420454 -0.412574 -0.591 29 59 119
0.42158 -0.412574 -0.591 36 66 126
0.426083 -0.412574 -0.591 16 47 102
0.443718 -0.413272 -0.592 168 176 189
0.444846 -0.413272 -0.592 159 154 158
0.450484 -0.413272 -0.592 137 143 159
0.458377 -0.413272 -0.592 120 127 146
0.460632 -0.413272 -0.592 130 132 147
0.478674 -0.413272 -0.592 63 76 110
0.479802 -0.413272 -0.592 34 56 106
0.483185 -0.413272 -0.592 35 64 122
0.455652 -0.359519 -0.515 156 117 102
0.456704 -0.34835 -0.499 169 122 102
0.463406 -0.346255 -0.496 167 120 100
0.465295 -0.346255 -0.496 165 118 100
0.482301 -0.346255 -0.496 158 115 96
0.58344 -0.39931 -0.572 189 188 184
0.956462 -0.397216 -0.569 204 207 190
0.95863 -0.397216 -0.569 205 208 191
0.977501 -0.396518 -0.568 205 207 193
0.985725 -0.397216 -0.569 204 206 193
1.0009 -0.397216 -0.569 203 207 192
1.00632 -0.397216 -0.569 204 206 192
1.01174 -0.397216 -0.569 203 206 189
0.00995238 -0.2926 -0.418 199 160 127
0.0115448 -0.2926 -0.418 199 160 127
0.02502 -0.2919 -0.417 192 149 117
0.0576086 -0.3003 -0.429 144 100 89
0.0585619 -0.301 -0.43 142 98 87
0.06716 -0.3066 -0.438 111 82 74
0.0863905 -0.329 -0.47 92 73 69
0.395689 -0.4137 -0.591 176 175 189
0.424957 -0.4137 -0.591 18 49 104
0.427209 -0.4137 -0.591 15 51 103
0.442969 -0.4137 -0.591 159 169 179
0.463231 -0.4137 -0.591 115 113 126
0.481243 -0.4137 -0.591 33 62 118
0.487997 -0.4137 -0.591 20 50 102
0.488916 -0.3962 -0.566 125 101 97
0.462254 -0.3689 -0.527 151 108 102
0.454143 -0.357 -0.51 156 118 95
0.454669 -0.3514 -0.502 164 119 100
0.463406 -0.3472 -0.496 170 123 103
0.479443 -0.3465 -0.495 156 114 92
0.920696 -0.3983 -0.569 206 208 195
0.925031 -0.3983 -0.569 206 208 195
0.963436 -0.3976 -0.568 205 208 191
0.975337 -0.3976 -0.568 204 206 192
0.995893 -0.3976 -0.568 204 208 193
1.00022 -0.3976 -0.568 202 206 191
1.00347 -0.3976 -0.568 201 205 190
1.01537 -0.3976 -0.568 204 207 190
1.03484 -0.3976 -0.568 203 205 191
-0.00121143 -0.297608 -0.424 194 155 126
0.0324 -0.2948 -0.42 187 142 111
0.0332 -0.2948 -0.42 184 139 108
0.0532733 -0.299713 -0.427 152 105 89
0.08228 -0.32428 -0.462 91 72 68
0.0851314 -0.328491 -0.468 90 72 70
0.260603 -0.414826 -0.591 191 198 226
0.268483 -0.414826 -0.591 194 206 228
0.372543 -0.414124 -0.59 99 113 148
0.391648 -0.414124 -0.59 148 148 172
0.393895 -0.414124 -0.59 165 166 184
0.428733 -0.414124 -0.59 21 56 110
0.441843 -0.414826 -0.591 163 162 167
0.46098 -0.414826 -0.591 127 130 149
0.47674 -0.414826 -0.591 95 108 143
0.477866 -0.414826 -0.591 65 78 113
0.494199 -0.413422 -0.589 53 86 129
0.496443 -0.413422 -0.589 80 106 141
0.4697 -0.378327 -0.539 147 110 104
0.455114 -0.357971 -0.51 158 115 96
0.458571 -0.350952 -0.5 169 122 102
0.460531 -0.349549 -0.498 167 122 101
0.463414 -0.347443 -0.495 173 126 106
0.48997 -0.35025 -0.499 154 113 91
0.959109 -0.398682 -0.568 205 208 191
0.95958 -0.39798 -0.567 205 208 191
0.990484 -0.398682 -0.568 204 207 190
0.99954 -0.39798 -0.567 204 206 192
1.0287 -0.39798 -0.567 203 205 191
1.03194 -0.39798 -0.567 202 204 190
-0.000400952 -0.296304 -0.421 195 156 127
0.0115171 -0.293489 -0.417 198 157 127
0.0123114 -0.293489 -0.417 197 156 126
0.0234314 -0.293489 -0.417 192 149 117
0.0365733 -0.297008 -0.422 177 128 111
0.0489762 -0.299119 -0.425 161 112 95
0.0515257 -0.299823 -0.426 156 107 92
0.059519 -0.303342 -0.431 139 95 86
0.08388 -0.327975 -0.466 89 71 69
0.383781 -0.415248 -0.59 124 127 136
0.419031 -0.414544 -0.589 25 56 111
0.443343 -0.415248 -0.59 125 124 132
0.450086 -0.415248 -0.59 135 139 151
0.48298 -0.414544 -0.589 85 109 157
0.455924 -0.36035 -0.512 160 118 94
0.455334 -0.356831 -0.507 165 120 101
0.909341 -0.399764 -0.568 207 209 195
0.952617 -0.399764 -0.568 204 207 190
0.95634 -0.39906 -0.567 205 208 191
0.98766 -0.39906 -0.567 205 208 191
0.99738 -0.39906 -0.567 204 206 192
0.99846 -0.39906 -0.567 204 206 192
1.00818 -0.39906 -0.567 203 205 191
0.0282648 -0.294989 -0.418 188 143 114
0.0307267 -0.295694 -0.419 180 133 105
0.0348829 -0.297106 -0.421 179 130 113
0.0398829 -0.298517 -0.423 177 126 105
0.0406886 -0.298517 -0.423 175 124 103
0.0558438 -0.302046 -0.428 148 101 93
0.0624133 -0.30628 -0.434 132 92 84
0.0643619 -0.307691 -0.436 123 86 78
0.128243 -0.404374 -0.573 125 149 195
0.139026 -0.417077 -0.591 142 165 207
0.140151 -0.417077 -0.591 139 162 204
0.376399 -0.415666 -0.589 171 175 187
0.384252 -0.415666 -0.589 112 115 130
0.456829 -0.416371 -0.59 110 117 135
0.476249 -0.415666 -0.589 59 74 105
0.47737 -0.415666 -0.589 115 136 167
0.481858 -0.415666 -0.589 97 116 156
0.458407 -0.364854 -0.517 159 117 101
0.50064 -0.35568 -0.504 151 110 88
0.95418 -0.40014 -0.567 205 208 191
0.95742 -0.40014 -0.567 206 209 192
0.975137 -0.399434 -0.566 205 207 193
0.98658 -0.40014 -0.567 205 208 191
0.997777 -0.399434 -0.566 204 206 192
1.0071 -0.40014 -0.567 203 205 191
1.03228 -0.399434 -0.566 203 206 189
1.03153 -0.398729 -0.565 203 206 189
0.00834 -0.295077 -0.417 196 157 124
0.0114895 -0.29437 -0.416 195 156 123
0.0146238 -0.293662 -0.415 197 157 122
0.0242257 -0.295077 -0.417 189 146 114
0.02502 -0.295077 -0.417 188 145 113
0.0274686 -0.295785 -0.418 188 142 116
0.0348829 -0.297908 -0.421 180 132 112
0.0373771 -0.298615 -0.422 175 127 107
0.0751667 -0.319136 -0.451 92 72 71
0.1379 -0.418203 -0.591 179 197 233
0.4844 -0.41608 -0.588 54 76 123
0.456086 -0.360886 -0.51 161 118 101
0.458534 -0.354517 -0.501 168 123 104
0.463406 -0.350979 -0.496 170 123 103
0.466242 -0.349564 -0.494 147 101 78
0.468103 -0.348149 -0.492 168 120 98
0.486043 -0.350271 -0.495 158 113 92
0.506517 -0.358763 -0.507 147 109 86
0.91206 -0.40122 -0.567 206 208 194
0.91854 -0.40122 -0.567 206 208 194
0.958966 -0.400512 -0.566 205 207 193
0.971262 -0.399805 -0.565 204 206 192
0.979449 -0.400512 -0.566 205 208 191
1.01934 -0.400512 -0.566 203 205 191
0.00673524 -0.295162 -0.416 198 158 123
0.0154143 -0.294452 -0.415 196 156 121
0.0209981 -0.295162 -0.416 193 150 118
0.0242257 -0.295871 -0.417 189 146 114
0.0266724 -0.296581 -0.418 185 141 112
0.0299286 -0.29729 -0.419 186 141 112
0.08052 -0.3278 -0.462 92 72 71
0.37128 -0.4172 -0.588 132 148 182
0.37688 -0.4172 -0.588 165 167 179
0.43176 -0.4172 -0.588 104 123 156
0.4452 -0.4172 -0.588 160 159 175
0.44744 -0.4172 -0.588 158 160 173
0.45416 -0.4172 -0.588 145 147 160
0.46536 -0.4172 -0.588 155 157 169
0.464137 -0.374629 -0.528 147 110 101
0.46018 -0.368243 -0.519 155 116 101
0.456161 -0.361148 -0.509 162 119 102
0.466242 -0.350505 -0.494 159 113 90
0.467183 -0.350505 -0.494 152 104 82
0.478411 -0.349086 -0.492 158 113 92
0.486043 -0.351214 -0.495 162 117 96
0.977719 -0.400881 -0.565 203 205 191
0.986996 -0.40159 -0.566 203 205 191
0.989152 -0.40159 -0.566 203 205 191
1.00462 -0.400881 -0.565 204 206 192
0.0122819 -0.295954 -0.416 195 156 125
0.0154143 -0.295243 -0.415 193 154 123
0.0266724 -0.297377 -0.418 184 140 113
0.0373771 -0.300223 -0.422 175 129 105
0.0473571 -0.302357 -0.425 162 113 98
0.0645095 -0.310894 -0.437 115 82 75
0.0721067 -0.31872 -0.448 93 75 71
0.0744724 -0.321566 -0.452 92 74 72
0.29176 -0.41832 -0.588 87 115 163
0.386302 -0.417609 -0.587 128 139 157
0.427671 -0.417609 -0.587 97 122 162
0.454506 -0.417609 -0.587 155 154 168
0.46088 -0.41832 -0.588 155 157 172
0.4732 -0.41832 -0.588 61 68 96
0.488 -0.3984 -0.56 132 103 97
0.465895 -0.377057 -0.53 147 110 101
0.45749 -0.357849 -0.503 167 122 103
0.468115 -0.350734 -0.493 165 119 96
0.469022 -0.349311 -0.491 169 121 99
0.471828 -0.349311 -0.491 172 126 103
0.912608 -0.402669 -0.566 206 208 194
0.914764 -0.402669 -0.566 207 209 195
0.97384 -0.401246 -0.564 204 206 192
0.9831 -0.401957 -0.565 204 206 192
0.99171 -0.401957 -0.565 204 206 192
0.993862 -0.401957 -0.565 204 206 192
1.0057 -0.401957 -0.565 204 207 190
1.01216 -0.401957 -0.565 203 206 189
-0.00199048 -0.298173 -0.418 197 158 129
0.0043581 -0.296747 -0.416 196 155 125
0.00515048 -0.296747 -0.416 196 155 125
0.0217905 -0.296747 -0.416 190 149 119
0.0242257 -0.29746 -0.417 188 147 117
0.0291305 -0.298887 -0.419 185 141 116
0.0356848 -0.300313 -0.421 179 133 109
0.0431057 -0.30174 -0.423 168 120 100
0.06678 -0.31458 -0.441 105 80 73
0.22344 -0.41944 -0.588 203 211 234
0.454506 -0.418727 -0.587 156 155 171
0.473513 -0.418727 -0.587 97 105 126
0.479104 -0.418727 -0.587 128 136 149
0.484985 -0.418013 -0.586 70 92 131
0.490614 -0.401607 -0.563 134 107 100
0.4572 -0.362373 -0.508 164 118 102
0.485061 -0.352387 -0.494 160 115 92
0.496624 -0.355953 -0.499 152 110 88
0.569271 -0.3959 -0.555 158 136 122
0.917452 -0.403033 -0.565 207 210 193
0.963729 -0.403033 -0.565 204 207 190
0.968469 -0.40232 -0.564 203 205 191
0.972766 -0.40232 -0.564 204 206 192
1.0007 -0.40232 -0.564 203 205 191
0.0043581 -0.297539 -0.416 194 153 125
0.0083 -0.296824 -0.415 198 157 125
0.0225829 -0.297539 -0.416 190 146 117
0.02502 -0.298254 -0.417 187 143 114
0.034 -0.3004 -0.42 179 133 109
0.0448229 -0.303261 -0.424 167 119 99
0.0473571 -0.303976 -0.425 157 109 95
0.0657905 -0.314705 -0.44 106 81 76
0.0679267 -0.31685 -0.443 101 80 75
0.0736114 -0.323288 -0.452 93 75 73
0.380063 -0.41913 -0.586 161 161 173
0.385644 -0.41913 -0.586 159 166 182
0.469358 -0.41913 -0.586 72 78 100
0.47159 -0.41913 -0.586 98 105 124
0.474939 -0.41913 -0.586 146 150 159
0.476055 -0.41913 -0.586 149 153 162
0.487217 -0.41913 -0.586 83 107 143
0.488333 -0.41913 -0.586 86 104 140
0.466237 -0.352612 -0.493 171 125 102
0.467176 -0.352612 -0.493 173 127 104
0.50544 -0.36048 -0.504 152 111 89
0.914224 -0.40411 -0.565 207 210 193
0.963097 -0.403394 -0.564 204 207 190
0.968896 -0.402679 -0.563 203 206 189
0.982434 -0.403394 -0.564 204 206 192
0.989954 -0.403394 -0.564 204 206 192
1.00929 -0.403394 -0.564 204 207 190
1.01251 -0.403394 -0.564 204 207 190
-0.00772667 -0.30622 -0.427 193 154 125
0.00277333 -0.298331 -0.416 203 162 134
0.0405924 -0.302634 -0.422 167 119 99
0.0542133 -0.306937 -0.428 143 99 90
0.0648048 -0.314826 -0.439 112 83 77
0.0761667 -0.327734 -0.457 91 71 70
0.218588 -0.420963 -0.587 133 146 181
0.43364 -0.420246 -0.586 108 109 127
0.451843 -0.419529 -0.585 121 123 138
0.461456 -0.357854 -0.499 172 127 106
0.46436 -0.354269 -0.494 171 124 104
0.492693 -0.355703 -0.496 147 104 85
0.517327 -0.36646 -0.511 147 106 86
0.914754 -0.404469 -0.564 206 209 190
0.917977 -0.404469 -0.564 207 210 193
0.919051 -0.404469 -0.564 207 210 193
0.924423 -0.404469 -0.564 206 209 192
0.964607 -0.403751 -0.563 204 207 190
1.01608 -0.403751 -0.563 202 204 190
1.02788 -0.403751 -0.563 202 204 190
-0.00848 -0.304876 -0.424 189 154 124
-0.00357429 -0.299843 -0.417 193 152 124
0.00985714 -0.297686 -0.414 200 159 129
0.0153771 -0.297686 -0.414 189 145 116
0.0194133 -0.299124 -0.416 190 146 117
0.0274686 -0.300562 -0.418 183 139 112
0.0474686 -0.306314 -0.426 157 111 96
0.0864 -0.345143 -0.48 92 72 71
0.106103 -0.379657 -0.528 209 215 239
0.3861 -0.420643 -0.585 162 168 180
0.388329 -0.420643 -0.585 154 160 172
0.428443 -0.420643 -0.585 132 149 177
0.476444 -0.389724 -0.542 142 108 98
0.460469 -0.371029 -0.516 153 114 99
0.460476 -0.359524 -0.5 171 126 105
0.462447 -0.357367 -0.497 169 124 103
0.464357 -0.355929 -0.495 166 119 99
0.465301 -0.35521 -0.494 173 126 106
0.466242 -0.35521 -0.494 173 126 106
0.47931 -0.353052 -0.491 164 119 96
0.490757 -0.355929 -0.495 147 102 81
0.517327 -0.367433 -0.511 147 106 86
0.987514 -0.404105 -0.562 203 205 191
0.997851 -0.404824 -0.563 203 207 192
1.00214 -0.404824 -0.563 202 206 191
1.01823 -0.404824 -0.563 203 205 191
1.02359 -0.404824 -0.563 204 206 193
1.0268 -0.404824 -0.563 203 205 192
-0.00357429 -0.300637 -0.417 193 152 122
0.00355714 -0.299195 -0.415 183 140 108
0.00906857 -0.298474 -0.414 198 157 129
0.0348829 -0.303521 -0.421 175 127 107
0.038181 -0.304242 -0.422 170 122 102
0.0533981 -0.308568 -0.428 142 95 87
0.0682333 -0.320824 -0.445 95 76 72
0.45552 -0.421036 -0.584 135 142 170
0.467756 -0.421036 -0.584 135 138 153
0.486667 -0.421036 -0.584 93 113 150
0.459746 -0.369849 -0.513 156 119 103
0.45907 -0.366965 -0.509 157 118 101
0.458348 -0.364081 -0.505 161 120 102
0.464357 -0.356871 -0.495 165 120 99
0.469933 -0.353267 -0.49 171 124 104
0.484034 -0.354709 -0.492 159 117 95
0.4917 -0.356871 -0.495 153 108 87
0.498474 -0.359034 -0.498 151 110 92
0.930291 -0.405896 -0.563 205 208 191
0.945304 -0.405896 -0.563 205 208 191
0.948521 -0.405896 -0.563 204 207 190
0.962462 -0.405896 -0.563 206 208 194
0.967175 -0.405175 -0.562 204 207 190
0.974669 -0.405175 -0.562 204 207 190
1.01856 -0.405175 -0.562 203 205 191
0.00355714 -0.299986 -0.415 182 139 105
0.00670286 -0.299263 -0.414 194 149 118
0.0169543 -0.299263 -0.414 188 144 117
0.0209981 -0.300709 -0.416 189 145 116
0.0299286 -0.302877 -0.419 183 136 110
0.0571886 -0.312274 -0.432 128 89 82
0.0589705 -0.312997 -0.433 122 89 82
0.0742629 -0.329623 -0.456 91 73 71
0.0808467 -0.33902 -0.469 87 69 69
0.0822629 -0.341189 -0.472 89 71 71
0.08694 -0.34914 -0.483 95 75 76
0.211157 -0.422871 -0.585 217 221 233
0.428823 -0.422149 -0.584 149 150 170
0.45107 -0.422149 -0.584 93 101 122
0.45585 -0.421426 -0.583 144 150 164
0.482217 -0.422149 -0.584 69 93 131
0.488569 -0.402631 -0.557 131 108 100
0.468039 -0.382391 -0.529 149 111 98
0.459255 -0.365766 -0.506 161 120 100
0.462461 -0.358537 -0.496 166 123 104
0.465301 -0.357091 -0.494 170 125 104
0.465298 -0.356369 -0.493 172 127 106
0.4718 -0.3542 -0.49 169 124 103
0.503333 -0.361429 -0.5 150 109 91
0.52632 -0.372994 -0.516 144 106 83
0.950048 -0.406246 -0.562 205 207 193
0.964386 -0.405523 -0.561 204 206 192
0.97895 -0.406246 -0.562 205 207 193
1.00571 -0.406246 -0.562 202 206 191
1.00892 -0.406246 -0.562 202 206 191
1.01214 -0.406246 -0.562 202 204 190
-0.0109543 -0.308749 -0.426 196 155 125
-0.00276667 -0.300776 -0.415 194 153 121
0.0348829 -0.305125 -0.421 173 125 103
0.066239 -0.32107 -0.443 100 75 71
0.0873 -0.35151 -0.485 93 75 75
0.136733 -0.42471 -0.586 221 230 245
0.444396 -0.423261 -0.584 114 120 144
0.445509 -0.423261 -0.584 129 135 157
0.465298 -0.357308 -0.493 172 127 106
0.469933 -0.355133 -0.49 170 125 104
0.474563 -0.354409 -0.489 164 119 98
0.483986 -0.355858 -0.491 156 114 90
0.497417 -0.359482 -0.496 151 110 88
0.513229 -0.36673 -0.506 149 108 88
0.978277 -0.406591 -0.561 205 207 194
1.0114 -0.406591 -0.561 202 204 190
-0.00276667 -0.301567 -0.415 195 154 122
0.00354857 -0.30084 -0.414 197 152 123
0.00512571 -0.30084 -0.414 196 151 122
0.0153771 -0.30084 -0.414 194 148 122
0.0274686 -0.303747 -0.418 180 135 106
0.0414943 -0.30738 -0.423 166 117 100
0.0535229 -0.31174 -0.429 135 92 85
0.0620124 -0.317553 -0.437 111 80 77
0.0757905 -0.334267 -0.46 89 70 72
0.335919 -0.423647 -0.583 177 176 192
0.426978 -0.423647 -0.583 118 138 175
0.459182 -0.423647 -0.583 101 116 139
0.469176 -0.423647 -0.583 148 149 154
0.4617 -0.37278 -0.513 156 117 100
0.460103 -0.369147 -0.508 161 123 104
0.460443 -0.36406 -0.501 167 125 103
0.4774 -0.356067 -0.49 154 109 86
0.5112 -0.36624 -0.504 150 109 87
0.965454 -0.40766 -0.561 205 207 193
0.9872 -0.406933 -0.56 204 206 193
-0.00276667 -0.302357 -0.415 196 155 123
-0.00197143 -0.301629 -0.414 198 157 125
0.00276 -0.301629 -0.414 199 155 126
0.0059 -0.3009 -0.413 196 151 122
0.0209476 -0.302357 -0.415 186 141 110
0.0299286 -0.305271 -0.419 181 136 107
0.034 -0.306 -0.42 176 125 104
0.0802943 -0.343157 -0.471 91 68 74
0.135154 -0.425486 -0.584 222 228 250
0.419594 -0.424029 -0.582 87 111 149
0.439549 -0.424029 -0.582 105 115 140
0.449526 -0.424029 -0.582 82 99 127
0.462829 -0.424029 -0.582 78 97 130
0.465046 -0.424029 -0.582 138 151 168
0.46948 -0.424029 -0.582 106 107 109
0.468087 -0.357729 -0.491 174 127 107
0.482067 -0.357 -0.49 164 118 94
0.497357 -0.360643 -0.495 156 112 85
0.991467 -0.408 -0.56 203 207 192
1.0032 -0.408 -0.56 201 205 190
1.00993 -0.407271 -0.559 202 205 188
1.01099 -0.407271 -0.559 202 205 188
1.016 -0.408 -0.56 203 206 189
-0.0116552 -0.308261 -0.422 196 157 126
0.00196667 -0.301687 -0.413 200 156 127
0.00275333 -0.301687 -0.413 198 154 125
0.00354 -0.301687 -0.413 199 154 125
0.011379 -0.300956 -0.412 192 149 117
0.0145886 -0.302417 -0.414 194 151 119
0.0315248 -0.30607 -0.419 179 133 107
0.0509524 -0.312644 -0.428 139 97 85
0.06118 -0.319218 -0.437 112 81 78
0.0665381 -0.325062 -0.445 95 74 71
0.0676886 -0.326523 -0.447 94 73 70
0.132043 -0.427329 -0.585 227 233 247
0.208214 -0.425868 -0.583 210 214 225
0.212656 -0.425868 -0.583 209 212 229
0.213767 -0.425868 -0.583 205 207 222
0.334234 -0.425137 -0.582 174 177 186
0.424407 -0.424407 -0.581 60 87 130
0.441766 -0.425137 -0.582 43 57 92
0.447309 -0.425137 -0.582 113 130 160
0.454287 -0.424407 -0.581 113 133 158
0.481953 -0.424407 -0.581 88 113 144
0.485273 -0.424407 -0.581 92 111 143
0.47348 -0.390074 -0.534 152 112 104
0.460219 -0.369621 -0.506 164 123 105
0.460271 -0.36889 -0.505 166 121 102
0.461397 -0.365969 -0.501 167 124 107
0.461456 -0.364508 -0.499 168 126 104
0.462461 -0.362316 -0.496 167 124 105
0.468087 -0.358664 -0.491 173 128 107
0.469 -0.357933 -0.49 172 127 104
0.470867 -0.357933 -0.49 168 124 99
0.504166 -0.363777 -0.498 150 110 85
0.9648 -0.409067 -0.56 204 206 192
0.992891 -0.408336 -0.559 203 207 192
1.00673 -0.408336 -0.559 203 207 190
-0.00671905 -0.303938 -0.415 192 151 119
0.000393333 -0.302473 -0.413 200 157 125
0.00354 -0.302473 -0.413 197 154 122
0.00745524 -0.301741 -0.412 195 152 120
0.0241676 -0.30467 -0.416 178 133 104
0.0299286 -0.306868 -0.419 180 134 108
0.0414943 -0.309797 -0.423 161 112 97
0.132702 -0.426978 -0.583 215 221 235
0.235571 -0.426246 -0.582 117 140 192
0.246657 -0.426246 -0.582 205 207 220
0.4233 -0.425513 -0.581 60 85 125
0.437687 -0.425513 -0.581 144 147 162
0.44322 -0.425513 -0.581 55 69 106
0.454287 -0.425513 -0.581 118 135 163
0.4731 -0.425513 -0.581 145 148 157
0.477527 -0.425513 -0.581 65 79 105
0.466019 -0.380838 -0.52 151 112 97
0.461429 -0.36619 -0.5 167 125 103
0.487727 -0.359599 -0.491 157 115 91
0.982243 -0.409401 -0.559 204 206 193
0.986502 -0.409401 -0.559 204 206 192
0.989696 -0.409401 -0.559 204 206 192
0.999279 -0.409401 -0.559 201 205 188
1.00034 -0.409401 -0.559 202 206 189
1.0046 -0.409401 -0.559 202 206 189
-0.0124 -0.3084 -0.42 195 156 123
0.0121638 -0.302526 -0.412 193 150 116
0.0201571 -0.304729 -0.415 180 137 103
0.0274686 -0.306931 -0.418 179 133 107
0.034 -0.3084 -0.42 174 126 106
0.038181 -0.309869 -0.422 166 117 100
0.0545933 -0.316477 -0.431 122 87 81
0.0574533 -0.31868 -0.434 118 84 82
0.30046 -0.42662 -0.581 167 181 207
0.328127 -0.42662 -0.581 162 173 191
0.430305 -0.425886 -0.58 106 108 120
0.435473 -0.42662 -0.581 144 145 150
0.44322 -0.42662 -0.581 69 82 114
0.455714 -0.425886 -0.58 113 128 151
0.46275 -0.375954 -0.512 154 115 100
0.478289 -0.359066 -0.489 159 114 91
0.946041 -0.410466 -0.559 205 207 193
0.976234 -0.409731 -0.558 204 206 192
0.990051 -0.409731 -0.558 203 205 191
0.995366 -0.409731 -0.558 203 205 191
1.00599 -0.409731 -0.558 203 206 189
1.01769 -0.409731 -0.558 202 205 188
0.00588571 -0.30331 -0.412 195 155 120
0.00902476 -0.30331 -0.412 191 148 116
0.0105943 -0.30331 -0.412 190 147 113
0.01534 -0.304047 -0.413 187 144 112
0.0177429 -0.304783 -0.414 181 138 106
0.0584143 -0.320243 -0.435 113 81 82
0.0905886 -0.366623 -0.498 95 78 84
0.387219 -0.42699 -0.58 58 84 121
0.424781 -0.42699 -0.58 69 96 139
0.425886 -0.42699 -0.58 133 136 151
0.43141 -0.42699 -0.58 139 142 147
0.433619 -0.42699 -0.58 140 143 148
0.441352 -0.42699 -0.58 62 74 100
0.453505 -0.42699 -0.58 121 133 157
0.474495 -0.42699 -0.58 140 142 163
0.476705 -0.42699 -0.58 95 107 133
0.481397 -0.426254 -0.579 91 111 148
0.461183 -0.372512 -0.506 159 121 100
0.461233 -0.371776 -0.505 160 122 101
0.461397 -0.368831 -0.501 164 123 101
0.463406 -0.36515 -0.496 165 123 101
0.46436 -0.363678 -0.494 173 128 107
0.467176 -0.362942 -0.493 169 124 103
0.50403 -0.36515 -0.496 145 107 84
0.914098 -0.41153 -0.559 205 207 193
0.96348 -0.410794 -0.558 206 208 195
0.964543 -0.410794 -0.558 205 207 194
0.976234 -0.410794 -0.558 204 206 193
0.977297 -0.410794 -0.558 204 206 193
0.9858 -0.410794 -0.558 203 205 192
1.00918 -0.410794 -0.558 203 206 189
1.01025 -0.410794 -0.558 203 206 189
1.01556 -0.410794 -0.558 202 205 188
1.01875 -0.410794 -0.558 202 205 188
-0.0106714 -0.30631 -0.415 192 153 120
0.000392381 -0.304095 -0.412 191 151 116
0.00665429 -0.303357 -0.411 194 151 119
0.0145533 -0.304833 -0.413 188 145 113
0.038181 -0.311476 -0.422 161 114 94
0.0659857 -0.329929 -0.447 97 73 73
0.07436 -0.341 -0.462 87 68 70
0.129149 -0.429571 -0.582 193 200 218
0.296629 -0.428095 -0.58 108 134 171
0.393169 -0.427357 -0.579 81 104 135
0.431769 -0.427357 -0.579 115 120 126
0.439489 -0.427357 -0.579 82 90 111
0.447209 -0.427357 -0.579 119 127 146
0.448311 -0.427357 -0.579 86 104 128
0.469266 -0.427357 -0.579 144 147 164
0.471471 -0.427357 -0.579 142 143 163
0.475883 -0.427357 -0.579 103 113 140
0.47207 -0.390452 -0.529 144 110 98
0.4695 -0.3875 -0.525 146 110 96
0.461233 -0.372738 -0.505 161 123 102
0.461362 -0.370524 -0.502 165 123 99
0.462447 -0.366833 -0.497 167 125 103
0.468067 -0.361667 -0.49 175 130 109
0.469933 -0.361667 -0.49 175 130 109
0.960291 -0.411857 -0.558 203 205 191
0.98085 -0.411119 -0.557 205 207 194
-0.00353143 -0.30488 -0.412 190 152 116
0.00117714 -0.30488 -0.412 192 151 119
0.00822 -0.30414 -0.411 194 153 121
0.02502 -0.30858 -0.417 177 133 108
0.0266086 -0.30858 -0.417 177 133 106
0.0364867 -0.31154 -0.421 161 114 94
0.0638514 -0.32856 -0.444 103 75 74
0.0682943 -0.33374 -0.451 96 72 70
0.219295 -0.4292 -0.58 197 209 231
0.458237 -0.42846 -0.579 133 140 159
0.473677 -0.42846 -0.579 141 146 165
0.483869 -0.42772 -0.578 72 94 133
0.468 -0.3848 -0.52 139 105 93
0.463406 -0.36704 -0.496 169 127 105
0.463414 -0.3663 -0.495 166 124 102
0.473631 -0.36186 -0.489 166 121 98
0.484809 -0.36186 -0.489 159 114 91
0.495209 -0.36334 -0.491 153 112 90
0.497154 -0.36408 -0.492 152 111 89
0.961753 -0.41218 -0.557 204 206 193
0.964936 -0.41218 -0.557 205 207 194
0.976607 -0.41218 -0.557 203 205 191
0.978729 -0.41218 -0.557 204 206 192
0.981911 -0.41218 -0.557 205 207 193
0.993582 -0.41218 -0.557 203 205 191
-0.00511333 -0.306407 -0.413 194 153 121
0.00430571 -0.304923 -0.411 191 153 117
0.00508857 -0.304923 -0.411 191 153 117
0.00900286 -0.304923 -0.411 194 151 117
0.0137333 -0.305665 -0.412 185 142 110
0.0145533 -0.306407 -0.413 185 141 112
0.0364867 -0.312342 -0.421 159 112 94
0.0390771 -0.313826 -0.423 160 113 97
0.0398829 -0.313826 -0.423 156 109 93
0.0449286 -0.31531 -0.425 147 101 88
0.0596514 -0.324954 -0.438 107 79 75
0.0696133 -0.336825 -0.454 89 69 68
0.0707886 -0.338309 -0.456 88 68 67
0.0913162 -0.372436 -0.502 94 81 91
0.428821 -0.428821 -0.578 142 144 157
0.429922 -0.428821 -0.578 142 144 157
0.454143 -0.428821 -0.578 146 147 167
0.479465 -0.428821 -0.578 69 87 125
0.4921 -0.411757 -0.555 119 106 98
0.46435 -0.367985 -0.496 167 125 103
0.468087 -0.364275 -0.491 172 127 106
0.937351 -0.413241 -0.557 204 207 190
0.947961 -0.413241 -0.557 204 206 192
0.963875 -0.413241 -0.557 205 207 194
0.00352286 -0.305706 -0.411 193 153 118
0.00430571 -0.305706 -0.411 193 153 118
0.0129486 -0.30645 -0.412 182 138 109
0.0137333 -0.30645 -0.412 182 138 109
0.0209476 -0.308681 -0.415 175 130 99
0.0282648 -0.310912 -0.418 172 126 100
0.038181 -0.313888 -0.422 153 110 91
0.0406886 -0.314631 -0.423 150 107 91
0.0493219 -0.31835 -0.428 132 94 81
0.06188 -0.328764 -0.442 104 77 70
0.0639952 -0.330995 -0.445 101 76 72
0.0651343 -0.332483 -0.447 101 76 72
0.207889 -0.430666 -0.579 210 211 231
0.371571 -0.429922 -0.578 162 165 184
0.465152 -0.429922 -0.578 47 57 82
0.472292 -0.391988 -0.527 136 109 98
0.465537 -0.382318 -0.514 148 115 98
0.475451 -0.362979 -0.488 165 123 101
0.963204 -0.413558 -0.556 204 206 193
0.96744 -0.413558 -0.556 205 207 194
0.971676 -0.413558 -0.556 204 206 192
0.982267 -0.413558 -0.556 204 206 193
-0.00431619 -0.307234 -0.412 191 153 117
0.0129486 -0.307234 -0.412 182 138 109
0.02502 -0.310963 -0.417 175 130 101
0.0258143 -0.310963 -0.417 174 129 100
0.0987419 -0.388517 -0.521 135 148 190
0.451159 -0.430277 -0.577 147 146 160
0.477536 -0.430277 -0.577 95 111 134
0.489874 -0.429531 -0.576 123 134 156
0.494263 -0.429531 -0.576 46 50 77
0.489762 -0.410143 -0.55 127 107 100
0.48367 -0.404177 -0.542 126 106 99
0.474085 -0.394483 -0.529 134 111 103
0.469892 -0.388517 -0.521 142 114 103
0.463973 -0.378823 -0.508 162 117 94
0.463157 -0.376586 -0.505 166 120 97
0.463414 -0.369129 -0.495 168 126 102
0.471733 -0.363909 -0.488 165 123 101
0.495133 -0.3654 -0.49 155 113 91
0.500903 -0.366891 -0.492 150 109 87
0.505762 -0.368383 -0.494 152 111 89
0.527906 -0.379569 -0.509 144 106 85
0.575652 -0.407906 -0.547 167 145 132
0.589359 -0.415363 -0.557 195 194 189
0.9452 -0.414617 -0.556 203 205 191
0.947318 -0.414617 -0.556 203 205 191
0.950495 -0.414617 -0.556 204 206 193
0.95685 -0.414617 -0.556 204 206 193
-0.017241 -0.314748 -0.421 191 157 122
-0.0105943 -0.308019 -0.412 189 153 117
0.00587143 -0.307271 -0.411 193 150 116
0.0105686 -0.307271 -0.411 189 146 112
0.0201571 -0.310262 -0.415 178 133 100
0.034081 -0.314748 -0.421 160 115 94
0.0357695 -0.315495 -0.422 161 116 95
0.0432076 -0.31699 -0.424 144 100 87
0.064139 -0.333438 -0.446 98 74 70
0.0765429 -0.351381 -0.47 89 68 67
0.332462 -0.431376 -0.577 50 79 113
0.42624 -0.430629 -0.576 141 147 161
0.445664 -0.431376 -0.577 142 145 160
0.448961 -0.431376 -0.577 130 134 146
0.472041 -0.431376 -0.577 131 143 165
0.496457 -0.430629 -0.576 91 95 122
0.463274 -0.375305 -0.502 165 125 100
0.475451 -0.364838 -0.488 167 122 99
0.49226 -0.365586 -0.489 160 115 92
0.506703 -0.369324 -0.494 152 110 88
0.523757 -0.377548 -0.505 145 107 84
-0.0154514 -0.311802 -0.416 191 155 121
-0.0146238 -0.311052 -0.415 191 155 121
-0.00900286 -0.308054 -0.411 192 154 118
-0.00588571 -0.308804 -0.412 193 155 119
-0.00431619 -0.308804 -0.412 189 151 115
0.00585714 -0.307305 -0.41 191 148 116
0.01534 -0.309553 -0.413 185 142 108
0.0373771 -0.316299 -0.422 154 109 90
0.0559286 -0.326043 -0.435 114 84 76
0.0689 -0.341033 -0.455 89 68 65
0.0714095 -0.344781 -0.46 88 67 64
0.0767057 -0.353026 -0.471 89 68 67
0.0780971 -0.355274 -0.474 90 69 68
0.09054 -0.37701 -0.503 94 86 99
0.37248 -0.431726 -0.576 132 139 157
0.39552 -0.431726 -0.576 150 159 176
0.491214 -0.430976 -0.575 92 107 140
0.470885 -0.390502 -0.521 147 114 97
0.46916 -0.388253 -0.518 148 115 98
0.463393 -0.372513 -0.497 171 129 105
0.484681 -0.365018 -0.487 165 121 96
0.494123 -0.366517 -0.489 159 115 88
0.502777 -0.368766 -0.492 153 111 87
0.507644 -0.370265 -0.494 150 108 84
-0.00352286 -0.308837 -0.411 190 150 115
0.00743714 -0.308837 -0.411 193 150 118
0.0161267 -0.31034 -0.413 183 138 107
0.0258143 -0.313346 -0.417 171 127 100
0.0415924 -0.318606 -0.424 145 101 88
0.0432076 -0.318606 -0.424 144 100 91
0.0511905 -0.323114 -0.43 128 91 83
0.0857486 -0.369703 -0.492 89 74 67
0.0924076 -0.381726 -0.508 159 151 164
0.34176 -0.432823 -0.576 163 166 173
0.342857 -0.432823 -0.576 120 123 130
0.450377 -0.432823 -0.576 136 140 149
0.463833 -0.432071 -0.575 118 125 141
0.470126 -0.432823 -0.576 103 120 150
0.468087 -0.368951 -0.491 169 124 103
0.483753 -0.365946 -0.487 164 120 95
0.487464 -0.365946 -0.487 164 118 94
0.498867 -0.3682 -0.49 155 110 87
0.508585 -0.371206 -0.494 152 112 87
0.511589 -0.372709 -0.496 152 112 87
-0.0170362 -0.313387 -0.416 193 153 118
-0.0162048 -0.312633 -0.415 195 155 120
-0.0105686 -0.30962 -0.411 196 153 118
0.0121638 -0.310373 -0.412 180 137 105
0.0169543 -0.31188 -0.414 179 134 105
0.0356848 -0.317153 -0.421 152 106 90
0.0373771 -0.317907 -0.422 150 104 89
0.0424 -0.319413 -0.424 144 100 91
0.0513095 -0.324687 -0.431 125 91 82
0.0560571 -0.328453 -0.436 109 79 77
0.0570181 -0.329207 -0.437 107 78 74
0.224366 -0.43392 -0.576 150 169 202
0.229851 -0.43392 -0.576 113 136 178
0.463833 -0.433167 -0.575 130 134 146
0.465295 -0.373653 -0.496 174 129 108
0.467151 -0.369887 -0.491 171 126 105
0.480043 -0.366873 -0.487 166 119 99
0.493112 -0.367627 -0.488 161 116 85
0.500733 -0.369133 -0.49 154 109 86
0.5115 -0.3729 -0.495 146 106 81
0.0185762 -0.313424 -0.415 180 135 106
0.0217905 -0.314179 -0.416 171 126 97
0.0442229 -0.321731 -0.426 141 96 90
0.0467667 -0.322487 -0.427 132 89 80
0.0531971 -0.327018 -0.433 116 83 78
0.0551 -0.328529 -0.435 109 80 76
0.465214 -0.378374 -0.501 167 122 101
0.465238 -0.377619 -0.5 168 123 102
0.466237 -0.372332 -0.493 170 123 103
0.468087 -0.370822 -0.491 171 126 103
0.478188 -0.367801 -0.487 165 119 96
0.479115 -0.367801 -0.487 170 124 101
0.487464 -0.367801 -0.487 165 119 95
0.491174 -0.367801 -0.487 161 114 88
0.5026 -0.370067 -0.49 156 112 87
-0.0137333 -0.311943 -0.412 195 156 123
-0.0097619 -0.310429 -0.41 192 151 119
-0.000390476 -0.310429 -0.41 191 151 116
0.00743714 -0.311186 -0.411 189 146 114
0.00980952 -0.311943 -0.412 185 142 108
0.0137667 -0.3127 -0.413 183 140 106
0.0308 -0.318 -0.42 160 115 92
0.0316 -0.318 -0.42 158 113 90
0.0332 -0.318 -0.42 155 110 89
0.06244 -0.337686 -0.446 93 69 69
0.0965714 -0.393714 -0.52 232 231 247
0.37556 -0.4346 -0.574 154 158 159
0.376653 -0.4346 -0.574 158 162 165
0.489506 -0.433843 -0.573 28 50 91
0.467151 -0.371757 -0.491 171 124 104
0.482826 -0.368729 -0.487 169 121 98
0.485609 -0.368729 -0.487 168 120 98
0.49683 -0.369486 -0.488 157 113 88
0.49776 -0.369486 -0.488 156 112 87
0.503533 -0.371 -0.49 158 114 89
-0.0144829 -0.311969 -0.411 193 154 123
-0.0137 -0.311969 -0.411 192 153 122
-0.00898095 -0.31121 -0.41 192 151 119
-0.00741905 -0.31121 -0.41 193 153 118
-0.00117143 -0.31121 -0.41 197 154 120
0.00195238 -0.31121 -0.41 192 149 117
0.00507619 -0.31121 -0.41 188 145 113
0.0169543 -0.314246 -0.414 181 137 108
0.0185762 -0.315005 -0.415 178 134 107
0.0399771 -0.321836 -0.424 144 100 89
0.0803333 -0.365861 -0.482 91 73 71
0.0864457 -0.376488 -0.496 87 74 81
0.456467 -0.435693 -0.574 99 105 121
0.46986 -0.434934 -0.573 28 50 87
0.46854 -0.389391 -0.513 154 113 93
0.466169 -0.380283 -0.501 168 123 102
0.466233 -0.377247 -0.497 174 129 108
0.46624 -0.376488 -0.496 172 127 106
0.467166 -0.373451 -0.492 171 124 104
0.477206 -0.368897 -0.486 168 120 98
0.507367 -0.372692 -0.491 154 112 88
0.514329 -0.375729 -0.495 152 110 86
-0.0121048 -0.31199 -0.41 193 152 120
-0.0066381 -0.31199 -0.41 192 152 117
0.00822 -0.312751 -0.411 191 146 115
0.011379 -0.313512 -0.412 183 138 107
0.0283324 -0.318839 -0.419 163 118 95
0.0332 -0.3196 -0.42 152 107 86
0.0425 -0.323405 -0.425 141 97 86
0.0450343 -0.324166 -0.426 137 94 85
0.0931352 -0.389608 -0.512 224 226 239
0.455671 -0.436026 -0.573 125 130 149
0.472309 -0.435265 -0.572 24 50 87
0.494099 -0.435265 -0.572 117 123 121
0.495189 -0.435265 -0.572 129 135 133
0.466043 -0.384281 -0.505 164 119 100
0.466169 -0.381237 -0.501 168 126 104
0.467183 -0.37591 -0.494 172 126 103
0.47355 -0.370584 -0.487 172 124 102
0.485537 -0.369823 -0.486 166 120 96
0.495812 -0.370584 -0.487 158 113 92
0.500549 -0.371345 -0.488 158 112 88
-0.00585714 -0.312771 -0.41 192 152 116
0.00116857 -0.312009 -0.409 188 145 111
0.034081 -0.321163 -0.421 149 103 90
0.0542714 -0.331843 -0.435 112 82 72
0.09162 -0.388294 -0.509 212 211 225
0.382968 -0.436354 -0.572 115 123 144
0.391684 -0.436354 -0.572 153 157 160
0.466923 -0.386769 -0.507 155 115 103
0.483614 -0.369986 -0.485 168 122 98
0.501478 -0.372274 -0.488 159 113 89
-0.0209476 -0.317376 -0.415 189 149 123
-0.00194762 -0.312788 -0.409 195 152 118
-0.00116857 -0.312788 -0.409 196 153 119
0.011379 -0.315082 -0.412 182 137 106
0.034081 -0.321965 -0.421 149 103 90
0.0373771 -0.32273 -0.422 145 99 86
0.0390771 -0.323494 -0.423 140 96 85
0.0594886 -0.33879 -0.443 96 72 68
0.0902943 -0.387734 -0.507 176 170 180
0.457055 -0.437444 -0.572 136 135 141
0.487797 -0.436679 -0.571 87 103 128
0.489972 -0.436679 -0.571 60 73 92
0.475592 -0.400735 -0.524 136 106 95
0.467844 -0.388499 -0.508 151 113 100
0.470804 -0.373204 -0.488 172 126 102
0.471733 -0.373204 -0.488 170 124 100
0.491091 -0.371674 -0.486 164 118 94
0.504267 -0.373204 -0.488 159 114 91
0.52124 -0.380851 -0.498 147 105 81
-0.0176143 -0.3151 -0.411 193 153 117
0.0225829 -0.318933 -0.416 164 117 97
0.0316 -0.322 -0.42 153 108 89
0.0407848 -0.325067 -0.424 141 97 86
0.0434114 -0.3266 -0.426 135 93 81
0.04514 -0.327367 -0.427 132 89 80
0.0764524 -0.364167 -0.475 89 71 69
0.467099 -0.384867 -0.502 166 121 100
0.469 -0.375667 -0.49 172 126 102
0.469906 -0.3749 -0.489 172 126 102
0.47628 -0.3726 -0.486 169 123 99
0.478071 -0.371833 -0.485 170 124 100
0.504267 -0.374133 -0.488 160 114 91
1.01499 -0.436233 -0.569 104 106 105
-0.0236562 -0.323569 -0.421 188 149 116
-0.0217905 -0.319726 -0.416 189 152 123
0.000389524 -0.314346 -0.409 188 145 111
0.0169133 -0.31742 -0.413 175 130 101
0.02502 -0.320494 -0.417 160 113 93
0.0266724 -0.321263 -0.418 159 112 92
0.033279 -0.323569 -0.421 147 101 85
0.0357695 -0.324337 -0.422 145 101 88
0.0652895 -0.348931 -0.454 89 69 68
0.0726514 -0.359691 -0.468 87 69 67
0.443514 -0.438086 -0.57 140 140 150
0.466045 -0.438854 -0.571 58 71 88
0.489114 -0.438086 -0.57 117 125 136
0.468811 -0.390434 -0.508 159 117 95
0.467171 -0.382749 -0.498 165 123 101
0.468127 -0.38198 -0.497 166 124 100
0.46904 -0.378137 -0.492 171 125 102
0.483614 -0.372757 -0.485 165 117 94
0.490081 -0.372757 -0.485 167 119 96
0.492943 -0.373526 -0.486 163 115 93
0.503233 -0.374294 -0.487 159 113 89
0.938482 -0.435011 -0.566 191 194 177
-0.0235438 -0.32283 -0.419 187 151 117
-0.0167905 -0.315895 -0.41 191 153 117
-0.00349714 -0.314354 -0.408 184 139 106
0.0292 -0.3236 -0.42 153 107 92
0.034081 -0.32437 -0.421 147 101 88
0.0416905 -0.327452 -0.425 140 96 85
0.0516667 -0.334387 -0.434 113 83 73
0.245258 -0.439942 -0.571 195 199 211
0.4598 -0.439171 -0.57 127 130 137
0.461971 -0.439171 -0.57 99 105 117
0.487172 -0.438401 -0.569 120 127 135
0.490424 -0.438401 -0.569 68 75 91
0.46812 -0.383697 -0.498 170 125 102
0.476224 -0.373681 -0.485 173 127 103
0.478071 -0.373681 -0.485 172 124 101
0.4947 -0.373681 -0.485 161 113 90
0.525138 -0.384468 -0.499 146 106 81
0.593476 -0.423762 -0.55 191 188 181
0.986371 -0.439171 -0.57 110 110 110
1.01297 -0.442253 -0.574 106 108 107
1.0176 -0.443794 -0.576 105 107 106
-0.02544 -0.32749 -0.424 185 148 119
-0.0243419 -0.323628 -0.419 186 150 118
0.00350571 -0.315904 -0.409 186 141 110
0.0137333 -0.318221 -0.412 176 131 102
0.01534 -0.318993 -0.413 173 127 101
0.0316752 -0.325172 -0.421 150 104 89
0.033279 -0.325172 -0.421 143 97 82
0.0416905 -0.328262 -0.425 138 94 83
0.0434114 -0.329034 -0.426 135 93 81
0.0665914 -0.352978 -0.457 89 70 66
0.0729619 -0.363019 -0.47 86 70 70
0.0944086 -0.400866 -0.519 220 227 243
0.445988 -0.439485 -0.569 143 146 151
0.447071 -0.439485 -0.569 147 147 155
0.470607 -0.394687 -0.511 151 115 99
0.467967 -0.390052 -0.505 164 119 98
0.468129 -0.382329 -0.495 169 123 100
0.469022 -0.379239 -0.491 172 127 104
0.469874 -0.376922 -0.488 170 124 101
0.480773 -0.373832 -0.484 175 127 104
0.536454 -0.391597 -0.507 145 108 82
0.91746 -0.43794 -0.567 183 185 171
0.91854 -0.43794 -0.567 183 185 171
0.958934 -0.447209 -0.579 155 155 143
0.994387 -0.443347 -0.574 106 106 106
-0.023319 -0.321329 -0.415 188 152 120
-0.0183076 -0.316683 -0.409 189 150 117
-0.0136 -0.315909 -0.408 193 152 120
-0.00660571 -0.315909 -0.408 191 148 113
-0.00427429 -0.315909 -0.408 187 144 110
0.0217905 -0.322103 -0.416 163 116 98
0.0226371 -0.322877 -0.417 161 114 96
0.0267362 -0.324426 -0.419 158 112 96
0.0283324 -0.324426 -0.419 153 107 91
0.0527352 -0.337589 -0.436 110 80 70
0.0758657 -0.369334 -0.477 89 69 68
0.0800743 -0.376303 -0.486 88 74 73
0.454658 -0.440569 -0.569 150 149 154
0.458993 -0.440569 -0.569 123 125 138
0.463329 -0.440569 -0.569 54 64 89
0.474415 -0.439794 -0.568 66 83 113
0.476579 -0.439794 -0.568 56 76 109
0.471528 -0.396434 -0.512 149 113 97
0.469069 -0.385594 -0.498 170 124 101
0.469071 -0.383271 -0.495 172 127 104
0.469906 -0.378626 -0.489 170 126 101
0.471733 -0.377851 -0.488 170 126 101
0.483539 -0.374754 -0.484 171 123 100
0.487227 -0.374754 -0.484 169 123 97
0.597704 -0.426631 -0.551 197 199 188
-0.0198657 -0.317462 -0.409 188 149 116
-0.0174857 -0.316686 -0.408 190 151 118
-0.0151543 -0.316686 -0.408 191 152 121
-0.00736476 -0.31591 -0.407 190 151 112
-0.00272 -0.316686 -0.408 189 146 112
0.00978571 -0.319014 -0.411 181 136 105
0.0105943 -0.31979 -0.412 178 133 102
0.0202057 -0.322895 -0.416 158 110 88
0.0480257 -0.334538 -0.431 119 87 74
0.0517857 -0.337643 -0.435 111 81 71
0.057801 -0.343852 -0.443 99 76 70
0.0589095 -0.345405 -0.445 98 75 69
0.0818333 -0.38111 -0.491 88 74 73
0.09252 -0.398962 -0.514 198 201 216
0.456023 -0.440876 -0.568 145 143 156
0.477661 -0.440876 -0.568 71 91 126
0.472622 -0.378005 -0.487 175 129 106
0.595571 -0.426905 -0.55 197 197 187
-0.0269276 -0.328356 -0.422 185 149 117
-0.00348857 -0.316685 -0.407 186 146 111
0.000389524 -0.318241 -0.409 186 143 109
0.00116857 -0.318241 -0.409 184 141 107
0.0137667 -0.321353 -0.413 172 126 100
0.0161657 -0.322131 -0.414 167 121 97
0.0528562 -0.340028 -0.437 108 80 69
0.0548952 -0.342362 -0.44 103 76 67
0.0883629 -0.394494 -0.507 149 152 171
0.446286 -0.441958 -0.568 156 154 165
0.4887 -0.44118 -0.567 134 139 142
0.470657 -0.396829 -0.51 152 110 94
0.47355 -0.378932 -0.487 174 126 103
0.522814 -0.385157 -0.495 150 109 87
-0.0257524 -0.32448 -0.416 187 148 115
-0.0167086 -0.31824 -0.408 190 150 115
0.011379 -0.32136 -0.412 174 130 101
0.0137667 -0.32214 -0.413 169 125 98
0.0226371 -0.32526 -0.417 159 112 92
0.062419 -0.35256 -0.452 91 70 67
0.44118 -0.44226 -0.567 159 161 173
0.44766 -0.44226 -0.567 154 154 164
0.471673 -0.39702 -0.509 154 112 96
0.469074 -0.38688 -0.496 168 122 98
0.478071 -0.3783 -0.485 171 125 101
0.479919 -0.3783 -0.485 175 127 104
0.48907 -0.37752 -0.484 164 117 91
0.49174 -0.37674 -0.483 165 118 92
0.501055 -0.37752 -0.484 162 116 92
0.8829 -0.44226 -0.567 177 174 169
-0.0239352 -0.322145 -0.412 188 149 118
-0.00503905 -0.318235 -0.407 188 149 108
0.000389524 -0.319799 -0.409 184 141 107
0.0129486 -0.322145 -0.412 169 125 96
0.0177429 -0.323709 -0.414 161 115 92
0.0193667 -0.32449 -0.415 158 112 89
0.0234314 -0.326054 -0.417 157 110 92
0.0341619 -0.329964 -0.422 140 98 84
0.0428 -0.334655 -0.428 128 90 77
0.0500133 -0.339347 -0.434 110 83 74
0.0591743 -0.349511 -0.447 95 74 69
0.0625571 -0.354203 -0.453 90 71 67
0.0637 -0.355767 -0.455 88 69 65
0.0832743 -0.386261 -0.494 89 76 85
0.0898571 -0.398771 -0.51 158 164 188
0.225577 -0.444122 -0.568 134 162 212
0.227741 -0.444122 -0.568 136 164 204
0.44658 -0.44334 -0.567 147 150 159
0.45522 -0.44334 -0.567 151 155 164
0.485682 -0.442558 -0.566 130 136 150
0.475148 -0.404245 -0.517 146 110 98
0.475354 -0.380006 -0.486 172 126 102
0.486305 -0.378442 -0.484 170 123 97
0.509606 -0.380006 -0.486 157 113 88
0.863803 -0.440212 -0.563 166 168 157
-0.0298257 -0.336254 -0.429 189 150 121
-0.0143419 -0.31901 -0.407 188 150 114
0.0258762 -0.327632 -0.418 153 108 89
0.0333581 -0.330768 -0.422 147 101 86
0.0367467 -0.332335 -0.424 139 97 83
0.0649924 -0.358985 -0.458 82 68 68
0.06732 -0.36212 -0.462 85 67 63
0.0867076 -0.394256 -0.503 126 122 145
0.0900333 -0.400527 -0.511 177 183 207
0.149844 -0.445204 -0.568 199 207 220
0.15309 -0.445204 -0.568 167 179 201
0.451183 -0.443636 -0.566 141 140 154
0.46062 -0.44442 -0.567 132 140 151
0.46494 -0.44442 -0.567 147 147 157
0.481415 -0.412284 -0.526 136 104 91
0.471751 -0.397391 -0.507 152 111 91
0.469986 -0.392689 -0.501 164 119 96
0.47001 -0.391121 -0.499 167 121 97
0.472622 -0.381715 -0.487 168 124 97
0.481767 -0.380148 -0.485 174 129 100
0.489804 -0.377796 -0.482 170 123 97
0.864263 -0.442069 -0.564 134 135 127
-0.01276 -0.319 -0.406 188 147 115
-0.00966667 -0.319 -0.406 190 150 115
0.00822 -0.322929 -0.411 174 131 99
0.01534 -0.3245 -0.413 166 120 97
0.0226371 -0.327643 -0.417 157 111 88
0.0325543 -0.331571 -0.422 147 101 86
0.0437171 -0.337071 -0.429 124 88 76
0.0593067 -0.352 -0.448 93 74 68
0.0615581 -0.355143 -0.452 88 70 66
0.0885371 -0.399143 -0.508 172 178 202
0.2079 -0.4455 -0.567 145 158 177
0.21762 -0.4455 -0.567 108 136 186
0.453339 -0.444714 -0.566 131 139 162
0.468432 -0.444714 -0.566 112 127 150
0.483748 -0.443929 -0.565 102 109 128
0.477905 -0.408571 -0.52 142 107 88
0.469986 -0.393643 -0.501 160 118 94
0.47 -0.392857 -0.5 162 120 96
0.471733 -0.383429 -0.488 170 124 98
0.47628 -0.381857 -0.486 175 128 102
0.481695 -0.380286 -0.484 174 127 99
0.489804 -0.378714 -0.482 170 123 95
0.49164 -0.378714 -0.482 167 120 92
0.498985 -0.378714 -0.482 164 119 90
0.501739 -0.378714 -0.482 161 115 89
0.502657 -0.378714 -0.482 162 116 90
0.507509 -0.380286 -0.484 160 115 86
0.593271 -0.428214 -0.545 191 187 176
0.855033 -0.443929 -0.565 128 127 122
0.860859 -0.444714 -0.566 123 122 117
0.863015 -0.444714 -0.566 122 121 116
-0.00271333 -0.320561 -0.407 180 140 105
0.00351429 -0.322924 -0.41 176 133 99
0.011379 -0.324499 -0.412 170 125 96
0.0161657 -0.326074 -0.414 164 118 94
0.0226914 -0.329225 -0.418 157 109 87
0.0367467 -0.33395 -0.424 138 96 80
0.475271 -0.405624 -0.515 146 109 91
0.477206 -0.382783 -0.486 175 128 102
0.509352 -0.381208 -0.484 156 115 83
0.515292 -0.38357 -0.487 153 110 78
0.597532 -0.430828 -0.547 195 192 187
0.847074 -0.444217 -0.564 123 124 118
0.856547 -0.445792 -0.566 117 116 111
-0.025381 -0.323705 -0.41 192 153 122
-0.01508 -0.320547 -0.406 188 150 113
-0.00966667 -0.320547 -0.406 188 150 114
-0.00812 -0.320547 -0.406 189 149 114
0.00272667 -0.322915 -0.409 176 136 101
0.00350571 -0.322915 -0.409 176 133 101
0.00900286 -0.324494 -0.411 173 128 99
0.0145533 -0.326073 -0.413 163 117 93
0.02514 -0.33081 -0.419 153 107 84
0.0325543 -0.333179 -0.422 141 98 81
0.04026 -0.337127 -0.427 125 89 75
0.0493 -0.343443 -0.435 108 81 74
0.0595714 -0.355286 -0.45 91 72 68
0.0690857 -0.369497 -0.468 83 68 63
0.0873971 -0.400289 -0.507 192 192 216
0.229095 -0.44687 -0.566 71 102 157
0.233408 -0.44687 -0.566 107 139 188
0.451462 -0.446081 -0.565 87 97 132
0.468926 -0.445291 -0.564 64 87 118
0.472149 -0.445291 -0.564 90 113 145
0.473223 -0.445291 -0.564 100 123 155
0.479669 -0.445291 -0.564 83 103 130
0.487189 -0.445291 -0.564 145 149 158
0.469977 -0.388446 -0.492 166 125 97
0.471769 -0.386077 -0.489 168 124 97
0.48622 -0.38134 -0.483 174 127 99
0.512252 -0.382919 -0.485 155 113 88
0.579263 -0.421606 -0.534 145 122 104
0.823334 -0.442923 -0.561 136 135 130
0.836993 -0.444502 -0.563 123 124 118
0.842119 -0.446081 -0.565 115 116 110
0.851156 -0.44687 -0.566 121 121 113
0.873902 -0.450818 -0.571 120 119 114
-0.0237029 -0.322903 -0.408 189 150 119
-0.0204933 -0.32132 -0.406 187 148 115
