ply
format ascii 1.0
comment Created by Open3D
element vertex 1268
property double x
property double y
property double z
property uchar red
property uchar green
property uchar blue
end_header
-0.341566 -0.435265 -0.572 229 232 223
-0.321954 -0.435265 -0.572 232 233 225
-0.306146 -0.436026 -0.573 229 232 223
-0.291448 -0.435265 -0.572 231 232 224
-0.28709 -0.435265 -0.572 232 233 225
-0.280552 -0.435265 -0.572 231 232 224
-0.27122 -0.436026 -0.573 231 233 222
-0.267946 -0.436026 -0.573 233 235 224
-0.260941 -0.435265 -0.572 232 234 223
-0.215181 -0.435265 -0.572 233 234 226
-0.03414 -0.432982 -0.569 187 153 118
-0.0213733 -0.348516 -0.458 192 155 126
0.0197571 -0.350799 -0.461 171 125 101
0.0233705 -0.352321 -0.463 165 120 97
0.0289095 -0.355365 -0.467 157 111 95
0.457446 -0.43983 -0.578 152 153 148
0.46295 -0.43983 -0.578 55 71 96
0.477263 -0.43983 -0.578 44 77 120
0.499517 -0.43907 -0.577 146 147 149
0.503913 -0.43907 -0.577 146 149 154
0.510508 -0.43907 -0.577 94 98 107
0.486129 -0.390369 -0.513 150 114 102
0.483326 -0.386564 -0.508 152 118 106
0.482387 -0.385042 -0.506 154 120 110
0.481695 -0.368301 -0.484 175 130 109
0.5037 -0.36754 -0.483 161 115 89
0.54192 -0.38352 -0.504 145 108 81
0.5954 -0.41548 -0.546 183 174 159
0.611674 -0.424611 -0.558 196 194 182
-0.314866 -0.435591 -0.571 231 232 226
-0.294716 -0.436354 -0.572 230 233 224
-0.266389 -0.436354 -0.572 232 234 223
-0.03408 -0.433303 -0.568 186 152 117
-0.0316914 -0.430251 -0.564 191 156 124
-0.0133448 -0.344811 -0.452 197 158 125
0.00477714 -0.347863 -0.456 189 145 110
0.0100105 -0.348626 -0.457 184 138 104
0.010881 -0.348626 -0.457 184 138 104
0.0126495 -0.349389 -0.458 183 137 104
0.0798619 -0.412706 -0.541 100 82 80
0.43907 -0.440169 -0.577 151 155 158
0.448961 -0.440169 -0.577 145 152 160
0.465152 -0.440931 -0.578 35 55 80
0.495121 -0.440169 -0.577 144 154 163
0.498651 -0.439406 -0.576 142 142 144
0.48334 -0.386769 -0.507 151 117 105
0.480466 -0.380666 -0.499 160 121 104
0.48254 -0.36846 -0.483 170 125 102
0.494394 -0.367697 -0.482 173 127 103
0.499903 -0.367697 -0.482 168 122 96
-0.329005 -0.436679 -0.571 231 232 226
-0.320304 -0.436679 -0.571 231 232 226
-0.317041 -0.436679 -0.571 230 231 225
-0.30834 -0.436679 -0.571 229 232 223
-0.300727 -0.436679 -0.571 230 233 224
-0.297464 -0.436679 -0.571 230 233 224
-0.296376 -0.436679 -0.571 230 233 224
-0.28115 -0.436679 -0.571 230 233 222
-0.275711 -0.436679 -0.571 231 233 222
-0.268568 -0.437444 -0.572 231 233 222
-0.255047 -0.436679 -0.571 231 233 222
-0.253959 -0.436679 -0.571 231 233 222
-0.251784 -0.436679 -0.571 230 232 221
-0.240908 -0.436679 -0.571 232 233 225
-0.227856 -0.436679 -0.571 233 234 226
-0.222418 -0.436679 -0.571 232 234 223
-0.19849 -0.436679 -0.571 234 235 229
-0.0194571 -0.347202 -0.454 196 160 128
-0.00647143 -0.346437 -0.453 194 154 118
-0.0021619 -0.347202 -0.454 192 149 114
0.00303333 -0.347967 -0.455 188 144 109
0.0408552 -0.368615 -0.482 125 97 85
0.0495 -0.378557 -0.495 103 83 76
0.0632714 -0.393852 -0.515 105 84 81
0.0645019 -0.395382 -0.517 104 83 80
0.07854 -0.412207 -0.539 96 81 78
0.0892257 -0.429031 -0.561 96 102 136
0.457753 -0.441268 -0.577 146 155 162
0.458852 -0.441268 -0.577 146 155 162
0.470942 -0.441268 -0.577 91 112 143
0.481097 -0.440503 -0.576 40 71 125
0.483291 -0.440503 -0.576 83 110 155
0.48768 -0.440503 -0.576 66 87 118
0.488777 -0.440503 -0.576 58 74 107
0.480476 -0.382381 -0.5 158 120 101
0.4853 -0.36938 -0.483 176 131 108
0.48705 -0.368615 -0.482 173 129 104
0.488886 -0.368615 -0.482 172 126 102
1.02111 -0.435914 -0.57 163 166 159
-0.342543 -0.437 -0.57 228 231 222
-0.331686 -0.437 -0.57 231 232 226
-0.318657 -0.437 -0.57 230 231 225
-0.290938 -0.437767 -0.571 231 234 227
-0.287675 -0.437767 -0.571 231 234 225
-0.243743 -0.437 -0.57 232 234 223
-0.242657 -0.437 -0.57 232 233 227
-0.23982 -0.437767 -0.571 232 233 227
-0.207914 -0.437 -0.57 232 233 225
-0.172086 -0.437 -0.57 235 236 230
-0.0231181 -0.351133 -0.458 189 150 121
-0.0221 -0.348833 -0.455 191 150 120
-0.0141743 -0.345767 -0.451 197 158 125
-0.00645714 -0.346533 -0.452 193 153 118
-0.00129714 -0.348067 -0.454 190 147 113
0.0346867 -0.362633 -0.473 132 100 87
0.0541324 -0.385633 -0.503 105 87 83
0.445989 -0.4416 -0.576 134 138 150
0.448183 -0.4416 -0.576 151 155 167
0.501798 -0.410933 -0.536 133 108 103
0.49726 -0.405567 -0.529 138 111 104
0.488886 -0.369533 -0.482 172 126 100
0.49164 -0.369533 -0.482 175 129 103
0.495312 -0.369533 -0.482 175 128 100
1.0139 -0.436233 -0.569 148 149 141
1.02399 -0.437767 -0.571 130 132 127
-0.303457 -0.438086 -0.57 230 233 224
-0.296943 -0.438086 -0.57 231 232 224
-0.282237 -0.438854 -0.571 230 233 224
-0.249171 -0.438086 -0.57 232 234 223
-0.247 -0.438086 -0.57 232 234 223
-0.242657 -0.438086 -0.57 231 232 224
-0.207914 -0.438086 -0.57 231 232 224
-0.0242 -0.35508 -0.462 187 152 120
-0.0202324 -0.347394 -0.452 194 156 120
-0.0167514 -0.346626 -0.451 197 158 125
-0.00559619 -0.347394 -0.452 195 152 118
0.0462 -0.3766 -0.49 112 88 78
0.048459 -0.379674 -0.494 108 85 77
0.0597429 -0.391971 -0.51 105 84 79
0.0717724 -0.405037 -0.527 101 83 81
0.0814905 -0.418871 -0.545 94 84 83
0.473417 -0.442697 -0.576 60 88 136
0.474514 -0.442697 -0.576 37 65 115
0.475611 -0.442697 -0.576 37 65 115
0.478903 -0.442697 -0.576 18 50 101
0.486833 -0.441929 -0.575 24 57 98
0.50253 -0.369683 -0.481 169 122 92
1.02361 -0.439623 -0.572 114 116 113
-0.302371 -0.439171 -0.57 230 233 224
-0.285 -0.439171 -0.57 230 233 224
-0.2546 -0.439171 -0.57 231 232 224
-0.225286 -0.439171 -0.57 233 235 224
-0.211885 -0.438401 -0.569 232 234 223
-0.168532 -0.438401 -0.569 234 235 229
-0.165281 -0.438401 -0.569 236 237 229
-0.0349762 -0.435319 -0.565 188 153 123
-0.0229667 -0.350567 -0.455 186 150 118
-0.00302 -0.349026 -0.453 192 147 116
0.0692352 -0.402959 -0.523 104 84 83
0.0895438 -0.433778 -0.563 103 116 158
0.457262 -0.443024 -0.575 153 152 158
0.480262 -0.443024 -0.575 32 60 110
0.494733 -0.442253 -0.574 150 154 157
0.499107 -0.442253 -0.574 149 154 158
0.505667 -0.442253 -0.574 113 121 134
0.512227 -0.442253 -0.574 139 139 151
0.501881 -0.412205 -0.535 131 106 99
0.49914 -0.409123 -0.531 133 108 101
0.4955 -0.4045 -0.525 138 111 102
0.481416 -0.384468 -0.499 165 122 103
0.519789 -0.374451 -0.486 155 114 84
0.979665 -0.43763 -0.568 152 153 145
1.00509 -0.440712 -0.572 113 115 112
1.0055 -0.439942 -0.571 125 128 121
-0.343505 -0.438712 -0.568 228 231 224
-0.339774 -0.439485 -0.569 230 231 225
-0.33869 -0.439485 -0.569 229 230 224
-0.331104 -0.439485 -0.569 231 232 226
-0.296422 -0.439485 -0.569 232 233 225
-0.267629 -0.440257 -0.57 232 233 225
-0.262824 -0.439485 -0.569 231 232 224
-0.251986 -0.439485 -0.569 231 232 224
-0.229226 -0.439485 -0.569 233 235 224
-0.203939 -0.438712 -0.568 233 234 226
-0.162827 -0.438712 -0.568 235 236 228
-0.0360524 -0.436395 -0.565 186 151 121
-0.0238333 -0.351433 -0.455 187 151 119
-0.0167143 -0.347571 -0.45 196 157 124
0.00563333 -0.351433 -0.455 185 138 108
0.0152667 -0.35375 -0.458 176 129 101
0.0179619 -0.355295 -0.46 165 119 95
0.0261286 -0.359157 -0.465 163 115 93
0.0705 -0.4055 -0.525 103 84 80
0.0772257 -0.414769 -0.537 94 85 80
0.0831343 -0.424037 -0.549 95 85 84
0.08464 -0.426354 -0.552 119 123 148
0.460548 -0.444119 -0.575 155 156 161
0.472867 -0.443347 -0.574 28 53 107
0.475053 -0.443347 -0.574 19 44 98
0.479427 -0.443347 -0.574 22 50 100
0.4838 -0.443347 -0.574 29 62 103
0.514609 -0.442574 -0.573 142 145 150
0.508251 -0.420175 -0.544 128 108 101
0.498268 -0.40859 -0.529 134 110 100
0.494609 -0.403955 -0.523 138 111 100
0.490904 -0.399321 -0.517 141 113 101
0.481416 -0.385418 -0.499 163 122 102
0.490722 -0.372288 -0.482 177 130 102
0.503314 -0.370743 -0.48 165 120 91
0.511838 -0.372288 -0.482 159 115 88
0.933717 -0.442574 -0.573 198 200 186
0.932633 -0.44103 -0.571 197 199 185
0.941716 -0.437168 -0.566 188 190 176
0.983114 -0.440257 -0.57 125 126 121
0.987014 -0.44103 -0.571 119 120 115
-0.327276 -0.439794 -0.568 230 231 225
-0.320785 -0.439794 -0.568 230 231 225
-0.264991 -0.440569 -0.569 231 232 224
-0.263908 -0.440569 -0.569 231 232 224
-0.259116 -0.439794 -0.568 231 232 224
-0.176891 -0.439794 -0.568 234 235 229
-0.03336 -0.430503 -0.556 189 152 123
-0.0248086 -0.353849 -0.457 188 152 120
-0.0073181 -0.349977 -0.452 196 153 119
0.00302667 -0.351526 -0.454 189 144 111
0.0065 -0.3523 -0.455 184 138 105
0.0152667 -0.354623 -0.458 177 130 102
0.02796 -0.360817 -0.466 158 111 91
0.0398543 -0.372431 -0.481 122 94 82
0.0506467 -0.38482 -0.497 109 85 75
0.0597429 -0.394886 -0.51 107 84 78
0.0881571 -0.434374 -0.561 100 118 156
0.47396 -0.44444 -0.574 18 43 97
0.489506 -0.443666 -0.573 101 109 130
0.494963 -0.443666 -0.573 153 158 164
0.491853 -0.40108 -0.518 139 111 99
0.480151 -0.378626 -0.489 166 125 103
0.48346 -0.37398 -0.483 177 131 105
0.501614 -0.372431 -0.481 171 126 97
0.50986 -0.372431 -0.481 158 117 89
0.941865 -0.447537 -0.578 193 195 181
0.964867 -0.44444 -0.574 155 155 143
-0.31914 -0.4401 -0.567 232 233 227
-0.287751 -0.441652 -0.569 230 233 226
-0.279672 -0.440876 -0.568 229 232 223
-0.275345 -0.440876 -0.568 230 231 223
-0.268853 -0.440876 -0.568 229 230 222
-0.252625 -0.440876 -0.568 230 231 223
-0.223413 -0.440876 -0.568 231 232 224
-0.222331 -0.440876 -0.568 231 232 224
-0.214758 -0.440876 -0.568 232 233 225
-0.20142 -0.4401 -0.567 233 234 226
-0.197448 -0.440876 -0.568 232 233 227
-0.0132857 -0.349286 -0.45 196 155 123
0.0197571 -0.357824 -0.461 170 119 98
0.0632714 -0.399738 -0.515 103 82 77
0.0705 -0.4075 -0.525 102 82 81
0.0786857 -0.419143 -0.54 100 81 77
0.0849467 -0.43001 -0.554 126 143 171
0.51589 -0.443981 -0.572 143 144 148
0.480099 -0.378781 -0.488 173 128 105
0.483377 -0.374124 -0.482 178 134 107
0.49062 -0.373348 -0.481 175 128 102
0.506057 -0.372571 -0.48 161 117 88
0.526723 -0.379557 -0.489 150 110 84
0.89967 -0.439324 -0.566 198 200 186
0.969131 -0.443981 -0.572 119 119 109
-0.30131 -0.441958 -0.568 231 232 226
-0.26082 -0.44118 -0.567 231 232 224
-0.2457 -0.44118 -0.567 231 232 224
-0.241806 -0.441958 -0.568 233 235 224
-0.21654 -0.44118 -0.567 233 234 226
-0.21222 -0.44118 -0.567 233 234 226
-0.19818 -0.44118 -0.567 233 234 228
-0.19278 -0.44118 -0.567 232 233 228
-0.17118 -0.44118 -0.567 234 235 229
-0.0245914 -0.352477 -0.453 195 156 123
-0.0149667 -0.349365 -0.449 197 157 122
0.0065 -0.354033 -0.455 184 139 106
0.0152667 -0.356368 -0.458 177 127 100
0.031781 -0.365705 -0.47 141 101 89
0.051801 -0.38827 -0.499 109 86 80
0.0529629 -0.389826 -0.501 109 86 80
0.0656133 -0.403053 -0.518 102 83 79
0.0705 -0.4085 -0.525 101 83 81
0.46986 -0.445849 -0.573 70 101 145
0.486231 -0.445849 -0.573 111 129 151
0.506571 -0.420171 -0.54 129 105 93
-0.323968 -0.44148 -0.566 229 230 224
-0.317499 -0.44148 -0.566 230 231 225
-0.29862 -0.44226 -0.567 231 232 226
-0.29322 -0.44226 -0.567 230 231 225
-0.2889 -0.44226 -0.567 230 231 223
-0.273297 -0.44148 -0.566 229 232 223
-0.24138 -0.44226 -0.567 232 234 223
-0.23166 -0.44226 -0.567 231 232 224
-0.22194 -0.44226 -0.567 231 232 226
-0.198909 -0.44148 -0.566 233 234 228
-0.163331 -0.44148 -0.566 235 236 228
-0.0244829 -0.35178 -0.451 195 156 123
-0.0132562 -0.35022 -0.449 197 157 121
-0.00386571 -0.35178 -0.451 191 146 115
0.0187971 -0.35802 -0.459 172 121 100
0.0462943 -0.38298 -0.491 115 88 79
0.0668571 -0.4056 -0.52 103 84 80
0.45458 -0.44694 -0.573 156 161 164
0.464682 -0.44616 -0.572 63 82 115
0.476667 -0.44616 -0.572 48 86 135
0.5139 -0.44538 -0.571 145 148 157
0.484317 -0.39234 -0.503 150 117 100
0.481297 -0.38532 -0.494 161 123 100
0.500571 -0.3744 -0.48 168 121 91
0.500441 -0.37362 -0.479 170 123 93
0.546463 -0.39156 -0.502 139 108 77
-0.334749 -0.442558 -0.566 229 230 222
-0.33367 -0.442558 -0.566 229 230 222
-0.302406 -0.442558 -0.566 229 230 224
-0.30025 -0.442558 -0.566 229 230 224
-0.264672 -0.442558 -0.566 229 232 223
-0.247423 -0.442558 -0.566 231 232 224
-0.23706 -0.44334 -0.567 231 232 224
-0.23058 -0.44334 -0.567 231 233 222
-0.2295 -0.44334 -0.567 231 233 222
-0.225861 -0.442558 -0.566 231 233 222
-0.216158 -0.442558 -0.566 231 232 224
-0.203221 -0.442558 -0.566 232 233 227
-0.194596 -0.442558 -0.566 233 234 226
-0.188128 -0.442558 -0.566 232 233 227
-0.184893 -0.442558 -0.566 233 234 226
-0.00129143 -0.353421 -0.452 189 144 111
0.0398543 -0.376096 -0.481 122 94 82
0.0620486 -0.401117 -0.513 104 83 78
0.0643771 -0.403463 -0.516 103 82 77
0.0693676 -0.409718 -0.524 104 85 81
0.0835886 -0.431611 -0.552 132 133 151
0.464682 -0.44725 -0.572 99 116 144
0.499761 -0.446468 -0.571 157 160 169
0.486131 -0.376878 -0.482 167 121 95
0.500441 -0.374532 -0.479 166 119 89
0.503038 -0.37375 -0.478 169 122 92
0.504859 -0.37375 -0.478 168 122 89
0.50668 -0.37375 -0.478 168 122 89
0.515357 -0.376096 -0.481 163 118 85
-0.343373 -0.443636 -0.566 228 229 221
-0.30025 -0.443636 -0.566 230 231 225
-0.299171 -0.443636 -0.566 229 230 222
-0.293262 -0.442852 -0.565 231 232 224
-0.28839 -0.443636 -0.566 230 231 223
-0.280844 -0.443636 -0.566 230 231 223
-0.266829 -0.443636 -0.566 229 232 223
-0.24311 -0.443636 -0.566 230 231 223
-0.236642 -0.443636 -0.566 231 232 224
-0.228017 -0.443636 -0.566 230 232 221
-0.225861 -0.443636 -0.566 230 232 221
-0.0200533 -0.351147 -0.448 194 153 121
-0.0183467 -0.351147 -0.448 194 153 121
-0.0157867 -0.351147 -0.448 196 155 123
-0.00812476 -0.35193 -0.449 192 149 114
-0.00386571 -0.353498 -0.451 190 147 113
0.00475619 -0.35585 -0.454 184 138 105
0.00736667 -0.356633 -0.455 182 136 103
0.0215133 -0.361336 -0.461 167 120 100
0.0260724 -0.363688 -0.464 158 113 92
0.0430457 -0.380931 -0.486 117 89 78
0.0733286 -0.416203 -0.531 100 82 80
0.076061 -0.420122 -0.536 92 80 80
0.44973 -0.447555 -0.571 166 166 174
0.455169 -0.447555 -0.571 158 161 168
0.493257 -0.376229 -0.48 178 132 106
0.502128 -0.374661 -0.478 171 124 94
-0.304024 -0.443929 -0.565 230 231 225
-0.301871 -0.443929 -0.565 231 232 226
-0.266357 -0.443929 -0.565 228 231 220
-0.205014 -0.443929 -0.565 233 234 228
-0.199633 -0.443929 -0.565 232 233 225
-0.1921 -0.443929 -0.565 232 234 223
0.0170114 -0.359857 -0.458 169 125 98
0.0608333 -0.4015 -0.511 105 84 79
0.0776571 -0.424286 -0.54 92 82 83
0.492371 -0.447857 -0.57 70 86 111
0.510324 -0.427429 -0.544 126 106 99
0.505803 -0.421929 -0.537 130 107 99
0.488155 -0.399929 -0.509 149 116 99
0.48705 -0.378714 -0.482 170 124 100
0.501217 -0.375571 -0.478 171 124 94
0.535577 -0.386571 -0.492 140 106 81
0.86625 -0.444714 -0.566 184 186 173
-0.29649 -0.445005 -0.565 230 231 223
-0.25192 -0.444217 -0.564 229 230 222
-0.230843 -0.445005 -0.565 230 232 221
-0.197131 -0.444217 -0.564 232 233 225
-0.0399286 -0.440279 -0.559 187 152 124
-0.0166029 -0.352066 -0.447 194 155 116
-0.0149 -0.352066 -0.447 194 154 118
-0.0123733 -0.352853 -0.448 191 151 115
0.0387762 -0.37727 -0.479 122 94 83
0.0440619 -0.38357 -0.487 114 87 78
0.0506467 -0.391447 -0.497 109 86 78
0.0540248 -0.395385 -0.502 107 87 80
0.058541 -0.40011 -0.508 106 87 81
0.456543 -0.448943 -0.57 143 150 169
0.457629 -0.448943 -0.57 112 119 138
0.46387 -0.44973 -0.571 137 146 155
0.48269 -0.381995 -0.485 172 128 103
0.486131 -0.379632 -0.482 172 125 99
0.502894 -0.375694 -0.477 168 123 94
0.847074 -0.444217 -0.564 183 185 174
-0.33083 -0.444502 -0.563 228 229 223
-0.320106 -0.444502 -0.563 227 230 223
-0.317451 -0.445291 -0.564 227 230 223
-0.285223 -0.445291 -0.564 230 231 223
-0.284149 -0.445291 -0.564 230 231 223
-0.282 -0.445291 -0.564 229 230 222
-0.271257 -0.445291 -0.564 229 232 221
-0.263737 -0.445291 -0.564 228 231 220
-0.230434 -0.445291 -0.564 230 231 223
-0.229767 -0.446081 -0.565 230 231 223
-0.206433 -0.444502 -0.563 231 232 224
-0.201429 -0.445291 -0.564 233 234 226
-0.19176 -0.445291 -0.564 232 234 223
-0.186389 -0.445291 -0.564 231 233 222
-0.169972 -0.444502 -0.563 233 234 228
-0.00810667 -0.353707 -0.448 186 143 111
0.0223914 -0.36397 -0.461 162 118 93
0.0451743 -0.386077 -0.489 113 89 79
0.0462 -0.386867 -0.49 113 89 79
0.0668571 -0.410552 -0.52 102 82 81
0.0734667 -0.420027 -0.532 99 81 81
0.508849 -0.449239 -0.569 124 131 147
0.51042 -0.428711 -0.543 129 105 95
0.488164 -0.401078 -0.508 148 114 102
0.48624 -0.39792 -0.504 154 117 101
0.482617 -0.38213 -0.484 172 128 103
0.493257 -0.378971 -0.48 173 128 99
0.49926 -0.376603 -0.477 172 122 97
0.503803 -0.376603 -0.477 166 119 91
0.521937 -0.38055 -0.482 153 111 86
0.855469 -0.44687 -0.566 153 155 144
-0.312599 -0.445574 -0.563 229 230 224
-0.294369 -0.445574 -0.563 230 231 225
-0.258366 -0.446366 -0.564 229 232 221
-0.257291 -0.446366 -0.564 229 230 222
-0.25469 -0.445574 -0.563 230 231 223
-0.249771 -0.446366 -0.564 231 232 224
-0.234731 -0.446366 -0.564 232 234 223
-0.211795 -0.445574 -0.563 232 234 223
-0.153887 -0.445574 -0.563 235 236 230
-0.151742 -0.445574 -0.563 234 235 229
-0.147452 -0.445574 -0.563 235 236 230
-0.00725333 -0.35456 -0.448 185 140 109
-0.00555905 -0.355351 -0.449 188 143 112
-0.003 -0.356143 -0.45 189 144 111
0.0251343 -0.366431 -0.463 154 113 93
0.0260724 -0.367223 -0.464 153 112 92
0.0270143 -0.368014 -0.465 150 112 93
0.03672 -0.37672 -0.476 124 94 86
0.0550905 -0.398089 -0.503 110 87 79
0.449239 -0.450323 -0.569 168 168 176
0.464143 -0.451114 -0.57 149 153 156
0.5112 -0.449531 -0.568 110 124 133
0.50728 -0.37672 -0.476 169 122 92
0.522855 -0.381469 -0.482 151 110 82
0.817691 -0.445574 -0.563 193 193 181
0.819835 -0.445574 -0.563 192 192 180
0.826663 -0.446366 -0.564 188 188 176
0.828811 -0.446366 -0.564 187 189 176
0.829886 -0.446366 -0.564 186 188 175
0.850918 -0.449531 -0.568 145 145 135
-0.332974 -0.446647 -0.563 227 228 220
-0.327612 -0.446647 -0.563 226 229 222
-0.293296 -0.446647 -0.563 231 232 226
-0.287934 -0.446647 -0.563 230 231 225
-0.283645 -0.446647 -0.563 230 231 223
-0.194637 -0.446647 -0.563 231 233 222
-0.176093 -0.445853 -0.562 234 235 229
-0.162177 -0.445853 -0.562 235 236 228
-0.151472 -0.445853 -0.562 235 236 230
-0.0288419 -0.358587 -0.452 189 153 119
-0.0277952 -0.356207 -0.449 192 156 122
0.0197143 -0.364933 -0.46 162 120 96
0.0337143 -0.374453 -0.472 131 99 88
0.04186 -0.38318 -0.483 116 90 77
0.0473257 -0.39032 -0.492 112 88 78
0.0596257 -0.403807 -0.509 105 84 79
0.490644 -0.450613 -0.568 149 149 161
0.502545 -0.450613 -0.568 144 151 167
0.504066 -0.422847 -0.533 136 106 96
0.48276 -0.38556 -0.486 167 125 100
0.487871 -0.381593 -0.481 173 130 98
0.50456 -0.377627 -0.476 167 120 90
0.513797 -0.37842 -0.477 166 116 89
0.804822 -0.446647 -0.563 192 194 183
0.805894 -0.446647 -0.563 190 192 181
0.821291 -0.44744 -0.564 180 180 170
-0.339876 -0.446924 -0.562 227 228 222
-0.337735 -0.446924 -0.562 227 228 222
-0.336665 -0.446924 -0.562 228 229 223
-0.310973 -0.446924 -0.562 227 230 221
-0.309903 -0.446924 -0.562 227 230 221
-0.288493 -0.446924 -0.562 230 231 225
-0.283645 -0.447719 -0.563 229 230 222
-0.278283 -0.447719 -0.563 230 231 223
-0.261731 -0.446924 -0.562 231 233 222
-0.226809 -0.447719 -0.563 230 232 221
-0.203926 -0.446924 -0.562 232 234 223
-0.201785 -0.446924 -0.562 231 233 222
-0.19215 -0.446924 -0.562 231 233 222
-0.170741 -0.446924 -0.562 233 234 226
-0.143979 -0.446924 -0.562 236 237 231
-0.0224619 -0.353881 -0.445 193 155 119
-0.0148667 -0.354676 -0.446 190 150 114
-0.00299333 -0.357062 -0.449 188 143 112
0.00472476 -0.358652 -0.451 183 138 105
0.00559619 -0.359448 -0.452 182 137 104
0.00994476 -0.361038 -0.454 179 132 102
0.0377057 -0.379329 -0.477 123 94 86
0.048361 -0.392052 -0.493 111 88 80
0.0820886 -0.436586 -0.549 110 112 127
0.454941 -0.451695 -0.568 56 75 105
0.496687 -0.414319 -0.521 142 111 93
0.485218 -0.396824 -0.499 161 120 98
0.48419 -0.394438 -0.496 162 125 99
0.484157 -0.393643 -0.495 161 124 98
0.494054 -0.380919 -0.479 172 127 98
0.517606 -0.380124 -0.478 157 116 88
0.806251 -0.448514 -0.564 178 179 171
0.807326 -0.448514 -0.564 176 177 169
0.817735 -0.450105 -0.566 167 167 159
0.849974 -0.454081 -0.571 128 128 118
0.8565 -0.454081 -0.571 118 120 109
0.886571 -0.461238 -0.58 116 117 109
-0.330242 -0.447994 -0.562 227 228 222
-0.327517 -0.447197 -0.561 226 227 221
-0.32489 -0.447994 -0.562 227 230 221
-0.313626 -0.447197 -0.561 229 230 222
-0.237532 -0.448791 -0.563 230 231 223
-0.204996 -0.447994 -0.562 231 232 224
-0.199644 -0.447994 -0.562 230 231 223
-0.171811 -0.447994 -0.562 232 233 225
-0.158683 -0.447197 -0.561 233 234 226
-0.154409 -0.447197 -0.561 232 235 228
-0.152271 -0.447197 -0.561 234 237 228
-0.0295714 -0.358714 -0.45 190 152 116
-0.0250048 -0.354729 -0.445 197 159 123
-0.0232571 -0.353931 -0.444 193 155 119
-0.00554667 -0.35712 -0.448 188 143 110
0.00128571 -0.358714 -0.45 188 143 112
0.00214286 -0.358714 -0.45 186 141 110
0.00908 -0.361903 -0.454 178 131 101
0.0134629 -0.363497 -0.456 174 127 99
0.0666 -0.41292 -0.518 101 81 80
0.0854067 -0.444009 -0.557 111 130 162
0.451695 -0.452777 -0.568 164 167 184
0.48006 -0.45198 -0.567 89 107 131
0.495769 -0.413717 -0.519 140 111 95
0.488686 -0.382629 -0.48 177 134 102
0.4896 -0.382629 -0.48 177 134 102
0.49223 -0.381831 -0.479 170 127 95
0.494054 -0.381831 -0.479 173 128 99
0.604374 -0.431254 -0.541 196 193 176
0.797315 -0.448791 -0.563 173 171 159
0.813423 -0.451183 -0.566 149 150 142
0.8181 -0.45198 -0.567 143 144 136
0.861683 -0.456763 -0.573 113 113 105
-0.338203 -0.448266 -0.561 227 228 222
-0.315763 -0.448266 -0.561 228 229 221
-0.312557 -0.448266 -0.561 228 229 221
-0.3088 -0.447467 -0.56 228 229 221
-0.3056 -0.447467 -0.56 228 229 223
-0.298128 -0.449065 -0.562 229 230 224
-0.285843 -0.448266 -0.561 229 230 224
-0.270883 -0.448266 -0.561 230 232 221
-0.233899 -0.449065 -0.562 229 231 220
-0.2057 -0.448266 -0.561 231 232 224
-0.177917 -0.448266 -0.561 232 234 223
-0.166163 -0.448266 -0.561 233 234 226
-0.151203 -0.448266 -0.561 234 237 230
-0.14586 -0.448266 -0.561 234 235 227
-0.136243 -0.448266 -0.561 235 236 230
-0.0207667 -0.355576 -0.445 192 154 117
-0.0182238 -0.355576 -0.445 192 154 117
-0.0131381 -0.355576 -0.445 191 149 111
0.00819714 -0.361969 -0.453 179 132 102
0.0152333 -0.365165 -0.457 171 125 99
0.0161038 -0.365165 -0.457 171 125 99
0.0269562 -0.370758 -0.464 147 108 91
0.029799 -0.373155 -0.467 134 98 84
0.0472295 -0.392332 -0.491 109 86 78
0.0549809 -0.401122 -0.502 108 88 81
0.48114 -0.45306 -0.567 101 113 135
0.48438 -0.38594 -0.483 169 130 99
0.490514 -0.383543 -0.48 172 129 97
0.49223 -0.382744 -0.479 171 128 96
0.498351 -0.381146 -0.477 172 127 98
0.521426 -0.382744 -0.479 149 114 84
0.599906 -0.429089 -0.537 180 173 154
0.870583 -0.460251 -0.576 120 119 114
-0.328 -0.448533 -0.56 227 228 222
-0.320037 -0.449334 -0.561 227 230 221
-0.265067 -0.448533 -0.56 228 229 221
-0.232829 -0.450135 -0.562 230 231 223
-0.231758 -0.450135 -0.562 230 231 223
-0.201426 -0.449334 -0.561 232 233 225
-0.197151 -0.449334 -0.561 231 232 224
-0.195014 -0.449334 -0.561 230 231 223
-0.182191 -0.449334 -0.561 232 233 225
-0.165867 -0.448533 -0.56 233 234 226
-0.0325714 -0.365234 -0.456 188 152 116
-0.0232048 -0.354822 -0.443 191 153 116
-0.000427619 -0.359628 -0.449 190 147 113
0.0439714 -0.389263 -0.486 112 87 80
0.0461057 -0.391666 -0.489 109 86 78
0.0605952 -0.407685 -0.509 103 82 77
0.479213 -0.453339 -0.566 78 95 121
0.485682 -0.453339 -0.566 164 167 172
0.505081 -0.426908 -0.533 126 103 95
0.4958 -0.414893 -0.518 143 111 96
0.516347 -0.381253 -0.476 156 117 86
0.527446 -0.386059 -0.482 145 114 86
0.52946 -0.38686 -0.483 143 112 84
0.532576 -0.388462 -0.485 144 110 85
0.542137 -0.394069 -0.492 145 109 85
0.80514 -0.45414 -0.567 108 109 104
0.814483 -0.455742 -0.569 120 121 115
0.837299 -0.458145 -0.572 121 121 113
0.858514 -0.461349 -0.576 122 122 114
-0.335467 -0.4496 -0.56 227 228 222
-0.317333 -0.4496 -0.56 227 230 223
-0.274667 -0.4496 -0.56 229 230 222
-0.2608 -0.4496 -0.56 230 231 223
-0.2224 -0.4496 -0.56 231 233 222
-0.22066 -0.450403 -0.561 230 231 223
-0.166933 -0.4496 -0.56 233 234 226
-0.165867 -0.4496 -0.56 233 234 226
-0.1488 -0.4496 -0.56 233 236 227
-0.136 -0.4496 -0.56 234 235 229
-0.0322857 -0.362891 -0.452 189 153 117
-0.0114429 -0.357271 -0.445 190 147 112
-0.0089 -0.357271 -0.445 188 145 110
0.00472476 -0.362089 -0.451 182 135 105
0.0161038 -0.366906 -0.457 170 124 100
0.0178838 -0.367709 -0.458 168 122 98
0.03454 -0.378146 -0.471 127 97 87
0.0355876 -0.379751 -0.473 123 96 87
0.0593914 -0.407049 -0.507 106 85 80
0.452261 -0.454417 -0.566 99 121 158
0.506826 -0.431134 -0.537 123 100 92
0.5005 -0.4215 -0.525 133 107 92
0.49393 -0.412669 -0.514 146 113 96
0.497443 -0.382963 -0.477 174 129 100
0.504246 -0.380554 -0.474 171 126 93
0.511643 -0.381357 -0.475 170 121 91
0.515262 -0.381357 -0.475 158 119 88
0.522158 -0.383766 -0.478 151 116 88
0.531478 -0.388583 -0.484 145 111 86
0.810486 -0.457629 -0.57 99 100 95
0.826404 -0.459234 -0.572 120 120 112
0.847167 -0.461643 -0.575 121 121 113
-0.2896 -0.450667 -0.56 228 229 223
-0.277867 -0.450667 -0.56 229 231 220
-0.273111 -0.449862 -0.559 229 230 222
-0.256533 -0.450667 -0.56 228 229 221
-0.2544 -0.450667 -0.56 230 232 221
-0.233067 -0.450667 -0.56 229 230 222
-0.2256 -0.450667 -0.56 230 232 221
-0.223467 -0.450667 -0.56 230 232 221
-0.203902 -0.449862 -0.559 230 231 223
-0.197867 -0.450667 -0.56 230 231 223
-0.185067 -0.450667 -0.56 231 232 224
-0.182933 -0.450667 -0.56 232 233 227
-0.1808 -0.450667 -0.56 231 232 224
-0.164506 -0.449862 -0.559 233 234 226
-0.152793 -0.449862 -0.559 234 237 228
-0.0459029 -0.445838 -0.554 187 148 119
-0.0189857 -0.35651 -0.443 192 152 116
-0.0148 -0.357314 -0.444 193 150 115
0.02508 -0.3718 -0.462 151 106 87
0.0460114 -0.392724 -0.488 110 87 81
0.483748 -0.45469 -0.565 128 135 143
0.5005 -0.4225 -0.525 131 108 94
0.48705 -0.387895 -0.482 170 126 99
0.490514 -0.386286 -0.48 174 130 103
0.497307 -0.383067 -0.476 175 130 101
0.825666 -0.461129 -0.573 123 124 116
0.82894 -0.461129 -0.573 119 120 112
0.85451 -0.464348 -0.577 115 115 107
0.872505 -0.465152 -0.578 110 111 106
-0.329544 -0.450927 -0.559 227 228 222
-0.32209 -0.450927 -0.559 227 230 223
-0.314637 -0.450927 -0.559 228 231 224
-0.298666 -0.450927 -0.559 229 230 224
-0.284824 -0.450927 -0.559 229 230 222
-0.272047 -0.450927 -0.559 229 231 220
-0.248622 -0.450927 -0.559 229 230 222
-0.243733 -0.451733 -0.56 229 230 222
-0.197513 -0.450927 -0.559 230 231 223
-0.174089 -0.450927 -0.559 233 234 226
-0.16557 -0.450927 -0.559 233 234 226
-0.140016 -0.450927 -0.559 234 235 227
-0.0131086 -0.35816 -0.444 190 147 112
0.0492 -0.39688 -0.492 106 85 80
0.0692352 -0.421887 -0.523 96 82 79
0.0840429 -0.4477 -0.555 120 131 161
0.455767 -0.455767 -0.565 134 142 144
0.466529 -0.455767 -0.565 70 96 133
0.49009 -0.407367 -0.505 153 118 96
0.484747 -0.393653 -0.488 161 126 98
0.490405 -0.386393 -0.479 174 128 104
0.503182 -0.381553 -0.473 170 123 95
0.51039 -0.381553 -0.473 165 121 92
0.876629 -0.467867 -0.58 102 103 98
-0.32364 -0.451183 -0.558 227 228 222
-0.321026 -0.451991 -0.559 226 229 222
-0.296006 -0.451183 -0.558 228 229 223
-0.277937 -0.451183 -0.558 229 230 224
-0.269917 -0.451991 -0.559 230 231 223
-0.25668 -0.451183 -0.558 229 230 222
-0.256075 -0.451991 -0.559 229 230 222
-0.215614 -0.451991 -0.559 230 231 223
-0.171651 -0.451183 -0.558 232 233 225
-0.166337 -0.451183 -0.558 233 234 226
-0.0089 -0.359814 -0.445 188 145 111
-0.00127714 -0.361431 -0.447 184 139 106
0.00385714 -0.363857 -0.45 180 135 102
0.00644286 -0.364666 -0.451 175 130 99
0.0169371 -0.368709 -0.456 163 118 95
0.020501 -0.370326 -0.458 157 112 93
0.0346133 -0.381646 -0.472 119 95 85
0.482891 -0.456034 -0.564 147 150 155
0.489337 -0.456034 -0.564 161 165 176
0.504133 -0.43016 -0.532 126 103 95
0.486131 -0.389731 -0.482 171 130 102
0.493809 -0.385689 -0.477 179 134 105
0.507687 -0.382454 -0.473 171 124 94
0.827452 -0.464929 -0.575 121 122 116
0.844618 -0.466546 -0.577 121 122 116
0.846816 -0.466546 -0.577 118 117 112
0.87814 -0.46978 -0.581 98 97 92
-0.283251 -0.452246 -0.558 228 229 223
-0.267309 -0.452246 -0.558 229 230 222
-0.265183 -0.452246 -0.558 228 229 221
-0.232234 -0.452246 -0.558 230 231 223
-0.231171 -0.452246 -0.558 230 231 223
-0.178029 -0.452246 -0.558 233 234 228
-0.150394 -0.452246 -0.558 233 234 226
-0.148269 -0.452246 -0.558 234 235 227
-0.142954 -0.452246 -0.558 233 234 226
-0.02652 -0.35823 -0.442 193 155 119
-0.0239943 -0.35823 -0.442 192 152 116
-0.0172981 -0.359041 -0.443 191 148 113
0.02596 -0.37444 -0.462 149 106 89
0.02784 -0.376061 -0.464 148 106 90
0.0335714 -0.380924 -0.47 120 96 86
0.0448971 -0.393891 -0.486 109 86 80
0.0749 -0.433605 -0.535 95 81 78
0.451737 -0.457109 -0.564 157 164 170
0.459257 -0.457109 -0.564 174 174 176
0.483966 -0.457109 -0.564 161 168 178
0.491202 -0.387408 -0.478 174 130 101
0.527812 -0.388218 -0.479 153 114 83
0.828467 -0.468455 -0.578 117 114 109
0.837669 -0.466834 -0.576 121 120 115
-0.337913 -0.452496 -0.557 226 227 221
-0.335791 -0.452496 -0.557 226 227 221
-0.327304 -0.452496 -0.557 228 229 223
-0.319389 -0.453309 -0.558 227 228 222
-0.29017 -0.452496 -0.557 229 230 224
-0.262586 -0.452496 -0.557 230 232 221
-0.248177 -0.453309 -0.558 228 230 219
-0.23436 -0.453309 -0.558 230 231 225
-0.221606 -0.453309 -0.558 230 231 223
-0.218417 -0.453309 -0.558 229 231 220
-0.203537 -0.453309 -0.558 230 231 225
-0.195034 -0.453309 -0.558 231 232 226
-0.17771 -0.452496 -0.557 232 233 227
-0.175588 -0.452496 -0.557 231 232 226
-0.168161 -0.452496 -0.557 233 234 226
-0.0512714 -0.450871 -0.555 182 146 112
-0.0327067 -0.362322 -0.446 188 153 121
-0.0273619 -0.359072 -0.442 195 155 120
-0.0046619 -0.36151 -0.445 191 146 113
0.00644286 -0.366384 -0.451 178 133 104
0.02508 -0.37532 -0.462 150 107 90
0.0268981 -0.376132 -0.463 147 106 88
0.0326067 -0.381007 -0.469 126 96 85
0.0492 -0.399691 -0.492 108 88 81
0.050239 -0.400504 -0.493 108 87 82
0.0535943 -0.404566 -0.498 108 87 84
0.0570067 -0.408628 -0.503 105 84 81
0.0749 -0.434624 -0.535 94 81 75
0.493967 -0.415127 -0.511 142 113 99
0.486986 -0.402129 -0.495 161 123 100
0.493023 -0.388318 -0.478 177 133 104
0.615815 -0.44031 -0.542 194 194 184
0.86154 -0.471993 -0.581 102 101 96
-0.308712 -0.452743 -0.556 227 228 222
-0.305535 -0.452743 -0.556 229 230 222
-0.285927 -0.453557 -0.557 229 230 224
-0.277439 -0.453557 -0.557 228 229 223
-0.257281 -0.453557 -0.557 229 231 220
-0.242863 -0.454371 -0.558 229 231 220
-0.239674 -0.454371 -0.558 229 231 220
-0.238611 -0.454371 -0.558 229 231 220
-0.216965 -0.453557 -0.557 229 230 222
-0.210977 -0.454371 -0.558 230 231 223
-0.198929 -0.453557 -0.557 231 232 226
-0.190441 -0.453557 -0.557 232 233 227
-0.171344 -0.453557 -0.557 232 233 225
-0.0544429 -0.451929 -0.555 182 157 127
-0.0488914 -0.449486 -0.552 185 142 108
-0.00212381 -0.363171 -0.446 184 141 107
0.0107857 -0.368871 -0.453 167 121 95
0.0306886 -0.380271 -0.467 132 98 86
0.0396057 -0.389229 -0.478 112 89 83
0.050239 -0.401443 -0.493 108 87 82
0.485537 -0.395743 -0.486 167 127 102
0.503017 -0.384343 -0.472 172 128 93
0.514705 -0.384343 -0.472 166 121 88
0.831333 -0.472286 -0.58 83 87 88
0.833209 -0.471471 -0.579 119 121 118
0.839476 -0.470657 -0.578 107 108 103
0.852324 -0.472286 -0.58 97 98 92
0.855638 -0.472286 -0.58 106 105 100
0.872607 -0.4731 -0.581 114 115 110
-0.328365 -0.454618 -0.557 227 228 222
-0.250465 -0.453802 -0.556 229 230 222
-0.203172 -0.454618 -0.557 231 232 226
-0.180892 -0.454618 -0.557 232 233 225
-0.163623 -0.453802 -0.556 232 233 225
-0.151973 -0.453802 -0.556 232 233 225
-0.0316429 -0.361572 -0.443 199 153 120
-0.02562 -0.35994 -0.441 186 148 112
-0.0147333 -0.360756 -0.442 188 148 112
-0.00634286 -0.362389 -0.444 189 149 114
-0.00296667 -0.363205 -0.445 185 142 107
0.000425714 -0.364837 -0.447 177 134 100
0.0306886 -0.381161 -0.467 130 98 85
0.0396057 -0.390139 -0.478 109 89 82
0.046941 -0.398301 -0.488 107 87 80
0.0736048 -0.43503 -0.533 94 79 76
0.500545 -0.427684 -0.524 127 102 95
0.501543 -0.427684 -0.524 127 102 95
0.4853 -0.39422 -0.483 170 128 104
0.492773 -0.388507 -0.476 177 132 101
0.508231 -0.384426 -0.471 172 124 88
0.53055 -0.390955 -0.479 150 111 82
0.861914 -0.475023 -0.582 108 107 102
0.871891 -0.475023 -0.582 127 128 123
0.878543 -0.475023 -0.582 83 84 79
-0.336248 -0.454861 -0.556 226 227 221
-0.332011 -0.454861 -0.556 226 227 221
-0.306043 -0.454043 -0.555 227 228 222
-0.291768 -0.454861 -0.556 227 228 222
-0.278 -0.454861 -0.556 227 228 222
-0.261055 -0.454861 -0.556 229 230 224
-0.236697 -0.454861 -0.556 228 229 221
-0.221209 -0.455679 -0.557 230 231 223
-0.191158 -0.454861 -0.556 231 232 226
-0.160446 -0.454861 -0.556 233 234 226
-0.146678 -0.454861 -0.556 234 235 229
-0.0264 -0.359962 -0.44 189 149 114
-0.0255619 -0.359962 -0.44 188 148 113
0.00902 -0.368961 -0.451 172 127 98
0.0222943 -0.375506 -0.459 155 110 91
0.0346133 -0.386141 -0.472 119 92 83
0.0459171 -0.398412 -0.487 107 86 81
0.500623 -0.427046 -0.522 128 103 98
0.486791 -0.401685 -0.491 165 124 102
0.490174 -0.390231 -0.477 177 132 103
0.494452 -0.388595 -0.475 172 126 93
0.50032 -0.386141 -0.472 173 128 95
0.502118 -0.386141 -0.472 172 127 94
0.504815 -0.386141 -0.472 164 120 85
0.506437 -0.385323 -0.471 172 123 90
0.8549 -0.475313 -0.581 97 98 92
-0.291243 -0.4551 -0.555 227 228 222
-0.244729 -0.4551 -0.555 229 230 222
-0.24411 -0.45592 -0.556 228 229 221
-0.217634 -0.45592 -0.556 229 230 224
-0.179509 -0.45592 -0.556 231 232 226
-0.17739 -0.45592 -0.556 231 232 226
-0.149586 -0.4551 -0.555 232 233 227
-0.105186 -0.4551 -0.555 234 235 229
-0.0305905 -0.3608 -0.44 192 151 119
-0.0280762 -0.3608 -0.44 192 152 117
0.00470381 -0.36818 -0.449 176 131 100
0.00987905 -0.36982 -0.451 169 123 99
0.0125114 -0.37146 -0.453 167 121 97
0.0693676 -0.42968 -0.524 97 75 77
0.0707686 -0.43214 -0.527 100 78 80
0.498705 -0.4264 -0.52 132 105 98
0.493972 -0.41738 -0.509 141 109 98
0.486857 -0.3936 -0.48 177 132 103
0.491867 -0.39032 -0.476 175 128 98
0.522102 -0.38786 -0.473 160 115 82
0.542931 -0.39852 -0.486 136 105 77
0.836517 -0.47478 -0.579 122 124 121
0.8549 -0.47642 -0.581 79 80 74
-0.327186 -0.456157 -0.555 227 228 222
-0.306043 -0.456157 -0.555 226 227 221
-0.297586 -0.456157 -0.555 227 228 220
-0.295471 -0.456157 -0.555 227 228 220
-0.251071 -0.456157 -0.555 227 228 220
-0.143243 -0.456157 -0.555 233 234 228
-0.0213714 -0.361638 -0.44 191 151 116
-0.00380571 -0.364926 -0.444 186 141 110
0.0142686 -0.373145 -0.454 164 118 95
0.0169 -0.373967 -0.455 161 116 95
0.0365657 -0.389583 -0.474 112 92 85
0.0386143 -0.392049 -0.477 106 87 83
0.488953 -0.408487 -0.497 158 117 95
0.486305 -0.397802 -0.484 170 124 98
0.490053 -0.391227 -0.476 176 131 102
0.494314 -0.389583 -0.474 175 130 99
0.495217 -0.389583 -0.474 176 129 99
0.498677 -0.388761 -0.473 175 128 98
0.837526 -0.478349 -0.582 111 115 114
0.840929 -0.475883 -0.579 106 108 103
0.866357 -0.480814 -0.585 114 115 109
-0.29916 -0.45639 -0.554 228 229 223
-0.285442 -0.45639 -0.554 227 230 221
-0.284387 -0.45639 -0.554 227 230 221
-0.244288 -0.45639 -0.554 228 229 223
-0.242614 -0.457214 -0.555 229 230 222
-0.238386 -0.457214 -0.555 229 230 222
-0.211957 -0.457214 -0.555 230 231 223
-0.205614 -0.457214 -0.555 230 231 225
-0.204557 -0.457214 -0.555 230 231 223
-0.187305 -0.45639 -0.554 231 232 226
-0.149316 -0.45639 -0.554 232 233 227
-0.147206 -0.45639 -0.554 233 234 228
-0.0360238 -0.366595 -0.445 189 149 114
-0.0340971 -0.364124 -0.442 192 153 120
-0.01722 -0.3633 -0.441 186 146 111
-0.0096819 -0.364124 -0.442 185 142 108
-0.00717238 -0.364948 -0.443 188 143 112
0.00127429 -0.367419 -0.446 181 138 106
0.00555905 -0.36989 -0.449 175 131 102
0.0133743 -0.373186 -0.453 165 119 96
0.0169 -0.374833 -0.455 160 115 96
0.0326067 -0.386367 -0.469 124 96 85
0.0335714 -0.38719 -0.47 118 95 87
0.0365657 -0.390486 -0.474 112 92 85
0.0426914 -0.397076 -0.482 111 90 85
0.0557143 -0.411905 -0.5 105 86 80
0.514469 -0.448152 -0.544 122 97 92
0.488989 -0.410257 -0.498 153 115 94
0.490053 -0.392133 -0.476 176 131 102
0.498522 -0.388838 -0.472 172 125 95
0.514314 -0.38719 -0.47 166 121 92
0.883123 -0.486871 -0.591 109 108 104
-0.33338 -0.45662 -0.553 225 226 220
-0.326596 -0.457446 -0.554 226 227 221
-0.300215 -0.457446 -0.554 228 229 223
-0.293884 -0.457446 -0.554 227 228 222
-0.265392 -0.457446 -0.554 228 229 223
-0.259061 -0.457446 -0.554 229 230 224
-0.23268 -0.457446 -0.554 228 229 221
-0.216851 -0.457446 -0.554 229 230 222
-0.205244 -0.457446 -0.554 229 230 224
-0.195747 -0.457446 -0.554 230 231 223
-0.192581 -0.457446 -0.554 231 232 226
-0.171476 -0.457446 -0.554 231 232 224
-0.170421 -0.457446 -0.554 232 233 227
-0.15958 -0.45662 -0.553 232 233 227
-0.137709 -0.457446 -0.554 232 233 227
-0.128211 -0.457446 -0.554 232 233 227
-0.0322667 -0.363314 -0.44 195 157 121
-0.0238314 -0.362489 -0.439 192 149 115
-0.0155048 -0.363314 -0.44 188 145 111
-0.00632857 -0.365791 -0.443 187 142 111
0.0133743 -0.374049 -0.453 165 119 96
0.0213733 -0.378177 -0.458 150 107 91
0.0615648 -0.420289 -0.509 102 84 82
0.488953 -0.41038 -0.497 154 113 93
0.487835 -0.407077 -0.493 161 119 97
0.487727 -0.405426 -0.491 167 125 101
0.486857 -0.396343 -0.48 176 130 104
0.489381 -0.394691 -0.478 175 129 103
0.492643 -0.392214 -0.475 178 131 101
0.493548 -0.392214 -0.475 176 129 99
0.496724 -0.389737 -0.472 176 129 99
0.517 -0.388086 -0.47 158 113 84
-0.318633 -0.457673 -0.553 226 227 219
-0.300727 -0.457673 -0.553 227 228 222
-0.29862 -0.457673 -0.553 228 229 223
-0.28914 -0.457673 -0.553 227 228 222
-0.288087 -0.457673 -0.553 227 228 222
-0.280713 -0.457673 -0.553 226 229 222
-0.273834 -0.458501 -0.554 228 231 224
-0.253327 -0.457673 -0.553 228 229 221
-0.236901 -0.458501 -0.554 226 227 219
-0.233313 -0.457673 -0.553 228 229 221
-0.23226 -0.457673 -0.553 229 230 222
-0.226349 -0.458501 -0.554 229 230 222
-0.214741 -0.458501 -0.554 230 231 223
-0.204189 -0.458501 -0.554 229 230 224
-0.203133 -0.458501 -0.554 229 230 224
-0.194691 -0.458501 -0.554 231 232 226
-0.182029 -0.458501 -0.554 231 232 224
-0.179918 -0.458501 -0.554 231 232 224
-0.161687 -0.457673 -0.553 231 232 224
-0.0188143 -0.363325 -0.439 193 149 112
-0.01218 -0.36498 -0.441 190 145 114
-0.00884 -0.365808 -0.442 188 143 112
-0.00296 -0.367463 -0.444 176 132 103
0.00985714 -0.372429 -0.45 169 123 100
0.0491 -0.406361 -0.491 109 88 83
0.0695 -0.4345 -0.525 96 76 75
0.495647 -0.462639 -0.559 117 136 166
0.487727 -0.406361 -0.491 167 122 99
0.505362 -0.388981 -0.47 171 125 92
0.510343 -0.387326 -0.468 164 119 88
0.54551 -0.401395 -0.485 140 108 85
-0.324953 -0.458727 -0.553 222 227 220
-0.3081 -0.458727 -0.553 227 228 220
-0.274393 -0.458727 -0.553 227 230 223
-0.24174 -0.458727 -0.553 227 228 220
-0.224887 -0.458727 -0.553 228 230 219
-0.17222 -0.458727 -0.553 232 233 225
-0.161687 -0.458727 -0.553 232 233 225
-0.0526162 -0.45375 -0.547 185 144 114
-0.0254457 -0.363331 -0.438 194 152 114
0.0287857 -0.385729 -0.465 136 100 86
0.0326067 -0.389047 -0.469 123 95 84
0.0396057 -0.396512 -0.478 112 88 86
0.0591571 -0.41891 -0.505 102 85 78
0.0603571 -0.420569 -0.507 101 84 77
0.073881 -0.443795 -0.535 85 79 83
0.0799971 -0.455409 -0.549 47 68 115
0.457315 -0.463704 -0.559 169 175 187
0.498841 -0.463704 -0.559 36 68 119
0.50523 -0.463704 -0.559 33 70 115
0.48714 -0.40066 -0.483 170 126 101
0.487771 -0.398171 -0.48 170 124 98
0.498363 -0.390706 -0.471 175 129 96
0.532667 -0.394853 -0.476 148 108 82
-0.32016 -0.458949 -0.552 227 229 218
-0.307543 -0.458949 -0.552 226 227 221
-0.274949 -0.458949 -0.552 228 229 221
-0.265967 -0.45978 -0.553 227 228 222
-0.261753 -0.45978 -0.553 228 229 223
-0.25392 -0.458949 -0.552 229 230 224
-0.23858 -0.45978 -0.553 229 230 222
-0.201349 -0.458949 -0.552 229 230 222
-0.196447 -0.45978 -0.553 230 231 223
-0.174327 -0.45978 -0.553 231 232 224
-0.161394 -0.458949 -0.552 232 233 225
-0.151931 -0.458949 -0.552 232 233 227
-0.0560476 -0.457286 -0.55 182 146 110
-0.0312143 -0.363334 -0.437 195 150 117
-0.0295495 -0.363334 -0.437 195 152 117
-0.00379714 -0.368323 -0.443 172 128 103
0.0679781 -0.433174 -0.521 94 75 77
0.0783762 -0.453129 -0.545 62 83 130
0.455186 -0.464769 -0.559 182 195 211
0.504165 -0.464769 -0.559 51 81 117
0.487835 -0.409894 -0.493 156 115 95
0.486857 -0.399086 -0.48 169 122 96
0.498363 -0.391603 -0.471 178 131 101
0.526392 -0.392434 -0.472 157 112 83
0.530429 -0.394097 -0.474 149 108 78
0.533573 -0.39576 -0.476 143 108 80
-0.330075 -0.459167 -0.551 224 227 220
-0.322729 -0.459167 -0.551 226 229 222
-0.317481 -0.459167 -0.551 226 227 219
-0.313851 -0.46 -0.552 227 228 220
-0.311749 -0.46 -0.552 226 227 221
-0.23184 -0.46 -0.552 227 228 220
-0.22448 -0.46 -0.552 229 231 220
-0.216069 -0.46 -0.552 228 230 219
-0.214353 -0.460833 -0.553 228 230 219
-0.20976 -0.46 -0.552 228 230 219
-0.200297 -0.46 -0.552 230 232 221
-0.17296 -0.46 -0.552 231 232 226
-0.161394 -0.46 -0.552 231 232 224
-0.155086 -0.46 -0.552 231 232 224
-0.0163057 -0.365833 -0.439 187 144 109
-0.0146667 -0.366667 -0.44 188 145 110
-0.00715619 -0.368333 -0.442 186 141 110
0.0204562 -0.380833 -0.457 151 110 92
0.0250257 -0.384167 -0.461 141 106 84
0.03454 -0.3925 -0.471 115 90 85
0.053379 -0.413333 -0.496 104 84 83
0.0641276 -0.428333 -0.514 99 77 79
0.0770543 -0.4525 -0.543 91 109 145
0.490133 -0.466667 -0.56 178 189 195
0.519336 -0.464167 -0.557 142 142 144
0.508127 -0.444167 -0.533 120 98 87
0.488871 -0.4125 -0.495 152 111 91
0.486386 -0.404167 -0.485 172 126 102
0.489147 -0.396667 -0.476 175 129 103
0.492509 -0.395 -0.474 179 134 105
0.495073 -0.394167 -0.473 177 130 102
0.498522 -0.393333 -0.472 178 131 101
0.5025 -0.390833 -0.469 176 130 97
0.513909 -0.39 -0.468 167 122 89
0.541498 -0.399167 -0.479 140 106 79
0.55539 -0.406667 -0.488 137 105 80
0.55974 -0.409167 -0.491 136 104 81
-0.330075 -0.460216 -0.551 224 227 220
-0.329026 -0.460216 -0.551 224 227 220
-0.325877 -0.460216 -0.551 226 229 222
-0.282847 -0.460216 -0.551 228 229 221
-0.2755 -0.460216 -0.551 226 227 219
-0.262331 -0.461051 -0.552 228 229 223
-0.247611 -0.461051 -0.552 228 229 221
-0.20976 -0.461051 -0.552 229 230 222
-0.191886 -0.461051 -0.552 230 231 223
-0.190834 -0.461051 -0.552 230 231 223
-0.17296 -0.461051 -0.552 230 231 225
-0.168754 -0.461051 -0.552 232 233 227
-0.159003 -0.460216 -0.551 231 232 224
-0.145359 -0.460216 -0.551 232 233 225
-0.0581429 -0.459381 -0.55 186 151 123
-0.0303819 -0.364999 -0.437 192 152 117
-0.0287171 -0.364999 -0.437 192 152 117
-0.0154695 -0.36667 -0.439 186 143 108
-0.000422857 -0.370846 -0.444 177 131 105
0.00042381 -0.371681 -0.445 175 129 103
0.00212381 -0.372516 -0.446 176 130 106
0.0213733 -0.382539 -0.458 147 109 88
0.0545429 -0.415949 -0.498 103 83 82
0.446931 -0.466063 -0.558 185 201 217
0.453309 -0.466063 -0.558 197 207 219
0.471377 -0.466063 -0.558 65 108 161
0.475629 -0.466063 -0.558 94 126 164
0.49999 -0.392562 -0.47 180 134 101
0.504287 -0.391727 -0.469 174 127 97
0.506777 -0.390891 -0.468 170 123 93
0.507669 -0.390891 -0.468 170 123 93
0.512126 -0.390891 -0.468 168 121 91
0.5148 -0.390891 -0.468 167 120 90
0.51459 -0.390056 -0.467 166 119 89
0.524162 -0.392562 -0.47 157 116 86
0.538107 -0.397573 -0.476 142 106 82
-0.332619 -0.460429 -0.55 224 225 219
-0.322143 -0.460429 -0.55 225 228 221
-0.316431 -0.461266 -0.551 226 227 219
-0.313283 -0.461266 -0.551 226 227 219
-0.299095 -0.460429 -0.55 227 228 222
-0.237717 -0.461266 -0.551 229 230 222
-0.234569 -0.461266 -0.551 229 230 222
-0.18839 -0.461266 -0.551 231 232 224
-0.179993 -0.461266 -0.551 230 231 223
-0.14326 -0.461266 -0.551 232 233 225
-0.132765 -0.461266 -0.551 232 233 227
-0.0294819 -0.364994 -0.436 195 152 118
-0.0229429 -0.366669 -0.438 189 146 111
-0.02044 -0.366669 -0.438 189 146 111
-0.0146333 -0.367506 -0.439 185 142 107
-0.0129905 -0.368343 -0.44 186 143 108
0.0177667 -0.3809 -0.455 155 114 92
0.0222457 -0.383411 -0.458 143 106 87
0.0287857 -0.389271 -0.465 131 97 85
0.0416867 -0.402666 -0.481 110 86 84
0.0501371 -0.411874 -0.492 106 85 84
0.0770543 -0.454569 -0.543 124 133 164
0.456497 -0.467126 -0.558 197 204 214
0.492997 -0.424431 -0.507 136 106 95
0.489859 -0.415223 -0.496 152 113 98
0.488825 -0.413549 -0.494 151 112 97
0.488774 -0.412711 -0.493 154 113 93
0.489266 -0.399317 -0.477 174 131 99
0.501781 -0.393457 -0.47 175 129 96
0.51459 -0.390946 -0.467 166 119 89
0.533137 -0.396806 -0.474 144 108 82
0.535167 -0.397643 -0.475 143 107 81
0.564629 -0.411874 -0.492 109 90 73
-0.331571 -0.461476 -0.55 223 226 219
-0.286003 -0.460637 -0.549 228 229 223
-0.283381 -0.461476 -0.55 228 229 221
-0.273952 -0.461476 -0.55 228 229 221
-0.241915 -0.462315 -0.551 227 230 221
-0.23519 -0.461476 -0.55 228 231 220
-0.233095 -0.461476 -0.55 229 230 222
-0.207281 -0.462315 -0.551 230 231 223
-0.205182 -0.462315 -0.551 229 230 222
-0.195736 -0.462315 -0.551 231 232 224
-0.173696 -0.462315 -0.551 230 231 223
-0.172647 -0.462315 -0.551 230 232 221
-0.169498 -0.462315 -0.551 230 232 221
-0.165 -0.461476 -0.55 230 232 221
-0.155571 -0.461476 -0.55 230 232 221
-0.0579314 -0.459798 -0.548 187 148 117
-0.0391486 -0.370859 -0.442 188 147 115
-0.02616 -0.365825 -0.436 191 148 114
-0.0187714 -0.367503 -0.438 187 144 109
-0.0146333 -0.368342 -0.439 183 143 107
-0.00798 -0.37002 -0.441 184 141 109
-0.00463048 -0.370859 -0.442 179 134 103
0.0124562 -0.37841 -0.451 163 119 94
0.0250257 -0.386801 -0.461 138 102 86
0.0458229 -0.407777 -0.486 109 85 85
0.053379 -0.416168 -0.496 106 84 86
0.0545429 -0.417846 -0.498 107 86 85
0.0756 -0.453086 -0.54 139 148 179
0.460984 -0.46735 -0.557 112 144 167
0.462874 -0.468189 -0.558 106 138 161
0.488871 -0.470706 -0.561 169 170 172
0.495283 -0.470706 -0.561 170 171 173
0.519071 -0.469028 -0.559 132 127 123
0.490833 -0.398548 -0.475 175 130 99
0.491606 -0.397709 -0.474 181 134 104
0.506584 -0.391835 -0.467 174 127 97
0.508162 -0.390996 -0.466 172 125 95
0.519037 -0.391835 -0.467 161 116 87
0.541963 -0.400226 -0.477 142 108 83
0.545148 -0.401904 -0.479 143 109 84
0.5472 -0.402743 -0.48 140 105 77
-0.322603 -0.461683 -0.549 227 228 222
-0.312714 -0.462524 -0.55 227 228 222
-0.307476 -0.462524 -0.55 228 229 221
-0.293323 -0.461683 -0.549 225 226 220
-0.243571 -0.462524 -0.55 226 229 220
-0.181762 -0.462524 -0.55 230 232 221
-0.173381 -0.462524 -0.55 230 231 223
-0.162609 -0.461683 -0.549 231 232 224
-0.153197 -0.461683 -0.549 231 232 224
-0.0362914 -0.368337 -0.438 189 149 114
-0.0228905 -0.367496 -0.437 187 144 110
-0.012961 -0.369178 -0.439 185 145 109
-0.0121248 -0.369178 -0.439 188 145 111
-0.00378857 -0.371701 -0.442 177 132 103
0.0142057 -0.38011 -0.452 160 115 92
0.0231686 -0.385997 -0.459 141 101 89
0.0250257 -0.387679 -0.461 138 101 92
0.0326067 -0.394407 -0.469 120 93 84
0.040601 -0.402816 -0.479 110 86 82
0.0447124 -0.407021 -0.484 109 85 83
0.0522229 -0.41543 -0.494 106 85 84
0.0614438 -0.427204 -0.508 98 79 81
0.0756 -0.454114 -0.54 140 151 181
0.447191 -0.46841 -0.557 172 184 198
0.450374 -0.46841 -0.557 184 189 193
0.451435 -0.46841 -0.557 181 186 190
0.4784 -0.470933 -0.56 175 178 169
0.497236 -0.472615 -0.562 169 171 170
0.514957 -0.475138 -0.565 142 140 141
0.496877 -0.431409 -0.513 131 103 92
0.49098 -0.421317 -0.501 142 109 94
0.48872 -0.413749 -0.492 154 116 97
0.48731 -0.407862 -0.485 168 124 97
0.486755 -0.402816 -0.479 169 128 98
0.494172 -0.39777 -0.473 175 128 98
0.508162 -0.391884 -0.466 173 126 96
-0.292277 -0.462729 -0.549 225 226 220
-0.268226 -0.462729 -0.549 228 229 221
-0.258814 -0.462729 -0.549 227 228 222
-0.251494 -0.462729 -0.549 228 229 223
-0.228905 -0.463571 -0.55 228 229 221
-0.221571 -0.463571 -0.55 228 230 219
-0.200254 -0.462729 -0.549 229 230 222
-0.192238 -0.463571 -0.55 230 232 221
-0.185952 -0.463571 -0.55 230 232 221
-0.173381 -0.463571 -0.55 231 232 224
-0.149014 -0.462729 -0.549 230 231 223
-0.05772 -0.4602 -0.546 193 150 116
-0.0389714 -0.370857 -0.44 188 149 116
-0.0319 -0.366643 -0.435 196 153 119
-0.027821 -0.367486 -0.436 190 150 114
-0.0171029 -0.369171 -0.438 188 145 110
0.00983524 -0.378443 -0.449 166 122 97
0.0177667 -0.3835 -0.455 154 113 93
0.0287857 -0.391929 -0.465 128 93 87
0.0355124 -0.397829 -0.472 111 88 82
0.0375476 -0.400357 -0.475 107 86 81
0.0458229 -0.409629 -0.486 107 86 83
0.0511781 -0.415529 -0.493 106 85 82
0.44507 -0.469471 -0.557 143 151 164
0.455434 -0.470314 -0.558 180 179 177
0.460749 -0.470314 -0.558 183 184 189
0.494025 -0.473686 -0.562 167 167 167
0.52358 -0.469471 -0.557 73 69 70
0.488357 -0.402043 -0.477 175 134 104
0.48824 -0.4012 -0.476 178 134 105
0.4982 -0.396143 -0.47 174 128 95
0.506584 -0.393614 -0.467 170 123 93
