ply
format ascii 1.0
comment Created by Open3D
element vertex 1291
property double x
property double y
property double z
property uchar red
property uchar green
property uchar blue
end_header
0.4872 -0.30672 -0.504 154 112 90
0.0331333 -0.299133 -0.49 210 172 153
0.036641 -0.297302 -0.487 207 169 150
0.0393429 -0.296691 -0.486 200 162 141
0.0485 -0.296081 -0.485 195 154 134
0.0571657 -0.297912 -0.488 177 135 119
0.0735857 -0.30829 -0.505 141 102 95
0.0782 -0.311343 -0.51 128 93 89
0.0807714 -0.313785 -0.514 125 94 91
0.0845229 -0.316837 -0.519 121 92 94
0.0871667 -0.319279 -0.523 116 90 91
0.202109 -0.382158 -0.626 207 207 231
0.206878 -0.382158 -0.626 198 207 222
0.222379 -0.382158 -0.626 193 200 216
0.293197 -0.382769 -0.627 174 175 193
0.36482 -0.38399 -0.629 173 178 200
0.367216 -0.38399 -0.629 130 132 155
0.446547 -0.382158 -0.626 117 115 126
0.451316 -0.382158 -0.626 68 77 108
0.462048 -0.382158 -0.626 168 175 194
0.472457 -0.380937 -0.624 165 168 187
0.483154 -0.380937 -0.624 75 82 101
0.515966 -0.363844 -0.596 116 97 91
0.482391 -0.305849 -0.501 166 120 96
0.483346 -0.305849 -0.501 162 116 92
0.491061 -0.308901 -0.506 152 110 88
0.0384171 -0.297617 -0.486 210 172 151
0.0392619 -0.297005 -0.485 202 164 143
0.0420333 -0.297005 -0.485 199 161 142
0.0521952 -0.297005 -0.485 183 140 121
0.05508 -0.297617 -0.486 181 139 123
0.0582143 -0.299454 -0.489 175 133 117
0.0846857 -0.318438 -0.52 121 92 94
0.0913619 -0.324562 -0.53 110 88 91
0.151543 -0.382126 -0.624 229 228 246
0.152731 -0.382126 -0.624 218 215 232
0.15392 -0.382126 -0.624 213 210 227
0.191071 -0.382738 -0.625 164 175 203
0.193452 -0.382738 -0.625 113 128 159
0.228341 -0.38335 -0.626 175 182 210
0.252189 -0.38335 -0.626 183 196 230
0.266497 -0.38335 -0.626 135 145 180
0.276477 -0.383963 -0.627 66 98 149
0.335531 -0.384575 -0.628 121 133 171
0.336728 -0.384575 -0.628 151 163 201
0.339774 -0.383963 -0.627 64 86 136
0.346297 -0.384575 -0.628 141 157 190
0.349886 -0.384575 -0.628 100 115 154
0.369025 -0.384575 -0.628 89 103 130
0.389934 -0.383963 -0.627 94 99 121
0.393517 -0.383963 -0.627 165 169 196
0.398851 -0.38335 -0.626 162 168 192
0.417403 -0.383963 -0.627 71 80 109
0.421507 -0.38335 -0.626 129 133 162
0.422699 -0.38335 -0.626 143 147 176
0.435815 -0.38335 -0.626 90 118 168
0.450595 -0.382738 -0.625 55 64 95
0.474834 -0.382126 -0.624 169 172 187
0.512869 -0.382126 -0.624 138 146 169
0.518563 -0.366816 -0.599 115 97 93
0.4847 -0.339871 -0.555 132 100 103
0.457328 -0.309865 -0.506 173 127 111
0.492025 -0.309865 -0.506 155 110 91
0.498833 -0.312927 -0.511 152 109 90
0.607881 -0.37049 -0.605 200 198 199
0.0312667 -0.301 -0.49 203 167 145
0.0456343 -0.297314 -0.484 197 156 136
0.0503476 -0.297929 -0.485 186 143 126
0.1691 -0.3827 -0.623 215 221 237
0.190766 -0.383314 -0.624 190 198 221
0.2125 -0.383929 -0.625 174 177 208
0.281254 -0.385157 -0.627 119 129 165
0.289152 -0.384543 -0.626 165 177 219
0.366632 -0.385771 -0.628 145 150 170
0.426276 -0.384543 -0.626 145 146 166
0.441071 -0.383929 -0.625 115 137 178
0.443931 -0.383314 -0.624 164 166 187
0.448686 -0.383314 -0.624 79 88 117
0.47526 -0.3827 -0.623 166 170 181
0.48238 -0.3827 -0.623 140 145 165
0.48594 -0.3827 -0.623 60 69 100
0.495433 -0.3827 -0.623 57 83 142
0.500983 -0.383314 -0.624 51 82 139
0.51798 -0.3827 -0.623 191 194 203
0.524257 -0.382086 -0.622 171 172 192
0.478554 -0.305914 -0.498 167 117 94
0.0401029 -0.298236 -0.484 197 156 136
0.056121 -0.300085 -0.487 175 132 115
0.0668743 -0.306863 -0.498 151 108 102
0.0785067 -0.31549 -0.512 123 93 93
0.0861705 -0.322268 -0.523 116 91 97
0.102143 -0.338905 -0.55 103 83 92
0.216914 -0.384503 -0.624 193 195 218
0.226423 -0.384503 -0.624 194 196 221
0.23869 -0.385119 -0.625 102 116 151
0.252571 -0.384503 -0.624 189 194 214
0.301076 -0.385735 -0.626 111 115 140
0.307038 -0.385735 -0.626 91 111 161
0.335655 -0.385735 -0.626 162 169 198
0.36366 -0.386351 -0.627 169 173 198
0.397659 -0.385735 -0.626 168 173 195
0.414881 -0.385119 -0.625 162 166 191
0.4375 -0.385119 -0.625 57 89 146
0.466953 -0.383887 -0.623 123 131 154
0.4717 -0.383887 -0.623 159 166 184
0.502814 -0.355542 -0.577 124 104 103
0.477323 -0.334591 -0.543 141 108 99
0.472329 -0.329662 -0.535 150 113 105
0.459 -0.314257 -0.51 166 120 105
0.458168 -0.313025 -0.508 170 124 109
0.457537 -0.309328 -0.502 175 127 105
0.0302095 -0.30163 -0.488 204 166 143
0.0364905 -0.299776 -0.485 206 166 141
0.0502438 -0.299158 -0.484 189 146 129
0.0691857 -0.309666 -0.501 143 102 98
0.103753 -0.341807 -0.553 103 82 91
0.180676 -0.384455 -0.622 160 175 204
0.18423 -0.384455 -0.622 190 199 232
0.189273 -0.385073 -0.623 213 210 231
0.222857 -0.385691 -0.624 161 166 195
0.249006 -0.385691 -0.624 104 129 183
0.260473 -0.385073 -0.623 188 190 213
0.288229 -0.385691 -0.624 154 167 202
0.310119 -0.38631 -0.625 98 117 157
0.3125 -0.38631 -0.625 76 103 148
0.332078 -0.386928 -0.626 160 166 190
0.386928 -0.386928 -0.626 81 88 116
0.391697 -0.386928 -0.626 166 171 193
0.395274 -0.386928 -0.626 170 172 193
0.408274 -0.385691 -0.624 170 172 193
0.416071 -0.38631 -0.625 149 153 178
0.42016 -0.385691 -0.624 86 91 121
0.439177 -0.385691 -0.624 103 128 182
0.442743 -0.385691 -0.624 127 145 193
0.4539 -0.385073 -0.623 171 171 183
0.486345 -0.384455 -0.622 114 123 156
0.48753 -0.384455 -0.622 50 68 116
0.491084 -0.384455 -0.622 45 70 127
0.493453 -0.384455 -0.622 63 87 149
0.508487 -0.385073 -0.623 65 90 146
0.477476 -0.335008 -0.542 145 112 105
0.46661 -0.323882 -0.524 154 119 100
0.45744 -0.31152 -0.504 174 129 110
0.471909 -0.306575 -0.496 169 121 99
0.473807 -0.307193 -0.497 167 119 97
0.484286 -0.309048 -0.5 157 111 88
0.04554 -0.29946 -0.483 196 155 135
0.0511657 -0.30008 -0.484 186 143 126
0.0726238 -0.3131 -0.505 134 101 96
0.1072 -0.3472 -0.56 105 84 91
0.176837 -0.38502 -0.621 184 193 224
0.183046 -0.38564 -0.622 159 168 197
0.198448 -0.38564 -0.622 135 142 170
0.22962 -0.38626 -0.623 197 198 216
0.247817 -0.38688 -0.624 98 121 173
0.25098 -0.38626 -0.623 181 194 226
0.256913 -0.38626 -0.623 186 193 211
0.269967 -0.38626 -0.623 170 182 208
0.288953 -0.38626 -0.623 170 175 204
0.29014 -0.38626 -0.623 167 172 201
0.309623 -0.38688 -0.624 105 123 163
0.330886 -0.38812 -0.626 159 162 193
0.336848 -0.38812 -0.626 164 170 194
0.33804 -0.38812 -0.626 155 161 185
0.354733 -0.38812 -0.626 93 103 130
0.370234 -0.38812 -0.626 94 113 153
0.3875 -0.3875 -0.625 88 95 124
0.397577 -0.38688 -0.624 172 174 195
0.43966 -0.38626 -0.623 73 104 161
0.474497 -0.38564 -0.622 144 143 149
0.48438 -0.38502 -0.621 143 154 184
0.498192 -0.38564 -0.622 31 55 119
0.503913 -0.35774 -0.577 128 102 101
0.483476 -0.341 -0.55 140 110 100
0.458571 -0.31 -0.5 177 132 109
0.479487 -0.30814 -0.497 155 110 87
0.491024 -0.31186 -0.503 150 112 91
0.039181 -0.301002 -0.484 200 159 137
0.04646 -0.30038 -0.483 194 153 133
0.0502438 -0.301002 -0.484 188 147 129
0.0851743 -0.325256 -0.523 112 86 89
0.0949667 -0.335207 -0.539 106 83 89
0.114452 -0.357595 -0.575 105 85 96
0.127429 -0.373143 -0.6 205 209 238
0.1449 -0.386203 -0.621 160 161 179
0.15318 -0.386203 -0.621 209 214 234
0.168557 -0.386203 -0.621 196 209 228
0.194893 -0.386825 -0.622 202 204 227
0.214193 -0.387447 -0.623 174 187 221
0.218589 -0.386825 -0.622 67 91 129
0.226882 -0.386825 -0.622 197 199 224
0.22962 -0.387447 -0.623 200 202 217
0.281833 -0.387447 -0.623 158 165 193
0.28612 -0.386825 -0.622 122 132 167
0.289674 -0.386825 -0.622 152 159 188
0.317433 -0.387447 -0.623 171 176 198
0.332738 -0.38869 -0.625 169 174 194
0.339881 -0.38869 -0.625 88 94 118
0.35831 -0.389312 -0.626 85 98 130
0.361888 -0.389312 -0.626 168 169 199
0.376786 -0.38869 -0.625 128 143 182
0.402227 -0.386825 -0.622 164 171 190
0.415927 -0.387447 -0.623 167 168 186
0.423047 -0.387447 -0.623 94 104 131
0.453171 -0.386825 -0.622 121 116 120
0.465019 -0.386825 -0.622 100 112 138
0.501747 -0.386825 -0.622 40 64 124
0.502123 -0.386203 -0.621 54 78 138
0.503306 -0.386203 -0.621 73 104 161
0.52021 -0.385581 -0.62 190 190 198
0.481881 -0.340182 -0.547 143 111 100
0.478509 -0.337072 -0.542 145 113 102
0.469281 -0.327744 -0.527 154 120 108
0.467608 -0.325878 -0.524 155 119 103
0.460873 -0.317793 -0.511 164 127 109
0.458493 -0.312196 -0.502 171 129 107
0.472853 -0.308465 -0.496 170 124 100
0.474743 -0.308465 -0.496 165 123 101
0.482349 -0.309709 -0.498 154 112 90
0.0266 -0.305667 -0.49 200 162 141
0.03818 -0.3013 -0.483 200 162 139
0.0560057 -0.303171 -0.486 171 127 114
0.0612581 -0.30629 -0.491 158 118 110
0.116552 -0.36181 -0.58 211 202 221
0.126286 -0.374286 -0.6 192 196 225
0.157657 -0.386762 -0.62 221 223 246
0.187483 -0.387386 -0.621 212 209 230
0.19458 -0.387386 -0.621 205 210 229
0.21385 -0.38801 -0.622 170 183 217
0.230436 -0.38801 -0.622 199 197 219
0.266734 -0.387386 -0.621 178 182 209
0.270718 -0.38801 -0.622 155 167 189
0.277087 -0.388633 -0.623 163 177 212
0.284477 -0.387386 -0.621 176 177 205
0.314554 -0.38801 -0.622 149 160 192
0.331017 -0.389257 -0.624 172 179 198
0.347657 -0.389257 -0.624 171 171 197
0.352411 -0.389257 -0.624 163 165 190
0.38688 -0.389257 -0.624 115 121 147
0.402227 -0.38801 -0.622 153 160 179
0.419487 -0.388633 -0.623 106 113 132
0.436585 -0.38801 -0.622 60 89 159
0.450077 -0.387386 -0.621 165 164 172
0.453626 -0.387386 -0.621 108 103 109
0.454809 -0.387386 -0.621 124 122 125
0.469003 -0.387386 -0.621 133 140 156
0.473734 -0.387386 -0.621 111 106 110
0.477283 -0.387386 -0.621 177 171 175
0.506854 -0.387386 -0.621 107 128 171
0.51937 -0.386138 -0.619 195 191 206
0.496463 -0.353076 -0.566 135 105 97
0.4615 -0.310033 -0.497 175 130 109
0.471909 -0.30941 -0.496 170 124 101
0.472853 -0.30941 -0.496 170 124 101
0.483297 -0.310657 -0.498 154 112 90
0.0345 -0.30222 -0.483 201 163 140
0.0635143 -0.309103 -0.494 149 112 104
0.0680952 -0.312857 -0.5 135 100 94
0.139943 -0.387943 -0.62 221 225 250
0.169193 -0.387317 -0.619 155 167 191
0.204043 -0.388569 -0.621 156 166 193
0.212665 -0.389194 -0.622 168 183 214
0.222969 -0.388569 -0.621 193 197 224
0.228883 -0.388569 -0.621 202 200 222
0.243077 -0.388569 -0.621 123 145 194
0.257271 -0.388569 -0.621 177 182 204
0.271466 -0.388569 -0.621 144 155 175
0.276642 -0.389194 -0.622 165 176 208
0.29394 -0.388569 -0.621 169 174 206
0.309815 -0.389194 -0.622 108 126 174
0.389194 -0.389194 -0.622 157 151 161
0.405129 -0.388569 -0.621 154 159 178
0.422368 -0.389194 -0.622 87 96 125
0.435883 -0.388569 -0.621 39 73 136
0.45954 -0.388569 -0.621 144 145 163
0.473734 -0.388569 -0.621 121 117 118
0.490686 -0.387943 -0.62 97 123 174
0.515833 -0.387317 -0.619 161 161 173
0.484689 -0.343517 -0.549 146 114 103
0.466915 -0.325997 -0.521 159 121 108
0.45936 -0.31536 -0.504 167 125 109
0.02898 -0.30314 -0.483 205 167 146
0.0316743 -0.302512 -0.482 205 167 146
0.04002 -0.30314 -0.483 198 157 135
0.0445276 -0.302512 -0.482 192 151 131
0.0776829 -0.321969 -0.513 114 93 90
0.0855 -0.3295 -0.525 105 86 90
0.0998657 -0.344563 -0.549 105 86 92
0.101463 -0.346446 -0.552 102 83 89
0.188058 -0.388496 -0.619 208 207 225
0.196629 -0.389124 -0.62 181 186 206
0.218237 -0.389751 -0.621 130 143 185
0.228883 -0.389751 -0.621 202 200 224
0.234797 -0.389751 -0.621 107 127 162
0.249771 -0.389124 -0.62 186 195 224
0.267486 -0.389124 -0.62 183 185 208
0.298671 -0.389751 -0.621 140 148 171
0.329956 -0.390379 -0.622 169 173 185
0.33588 -0.390379 -0.622 172 178 202
0.349473 -0.391007 -0.623 167 174 193
0.3649 -0.391007 -0.623 115 123 159
0.37202 -0.391007 -0.623 60 91 146
0.424054 -0.389751 -0.621 42 62 115
0.433517 -0.389751 -0.621 16 53 123
0.439905 -0.389124 -0.62 37 66 132
0.459981 -0.389124 -0.62 165 164 178
0.481238 -0.389124 -0.62 154 155 175
0.487536 -0.388496 -0.619 138 156 194
0.497771 -0.389124 -0.62 66 100 163
0.509581 -0.389124 -0.62 111 122 150
0.511943 -0.389124 -0.62 116 127 155
0.519633 -0.373433 -0.595 110 90 89
0.0580952 -0.307208 -0.488 163 120 111
0.126286 -0.377714 -0.6 223 230 255
0.139717 -0.389675 -0.619 206 213 242
0.165389 -0.389046 -0.618 216 218 239
0.179514 -0.389046 -0.618 133 149 185
0.19364 -0.389046 -0.618 198 205 224
0.202533 -0.390305 -0.62 171 178 206
0.269848 -0.390305 -0.62 179 184 203
0.281657 -0.390305 -0.62 173 180 199
0.285919 -0.389675 -0.619 168 174 196
0.344173 -0.391564 -0.622 167 172 191
0.345358 -0.391564 -0.622 168 173 192
0.355407 -0.392193 -0.623 159 164 186
0.356593 -0.392193 -0.623 157 162 184
0.398571 -0.390305 -0.62 114 125 153
0.411562 -0.390305 -0.62 124 122 125
0.449352 -0.390305 -0.62 164 166 178
0.513823 -0.389046 -0.618 140 148 167
0.471289 -0.331759 -0.527 157 117 107
0.460531 -0.313503 -0.498 173 131 107
0.46434 -0.312873 -0.497 177 132 113
0.024481 -0.306243 -0.485 205 167 146
0.0316086 -0.303717 -0.481 205 164 144
0.0352733 -0.303717 -0.481 199 158 138
0.0408552 -0.304349 -0.482 192 155 129
0.0417733 -0.304349 -0.482 190 153 127
0.0445276 -0.304349 -0.482 186 148 125
0.0520876 -0.305611 -0.484 172 131 111
0.0613829 -0.310663 -0.492 151 112 105
0.0779857 -0.325186 -0.515 113 92 91
0.0929133 -0.34034 -0.539 105 84 91
0.103443 -0.351706 -0.557 98 81 89
0.115647 -0.36686 -0.581 235 220 227
0.145142 -0.389591 -0.617 183 192 223
0.155971 -0.390223 -0.618 217 218 239
0.159503 -0.390223 -0.618 222 220 241
0.170997 -0.389591 -0.617 132 150 186
0.22343 -0.390854 -0.619 133 140 169
0.232057 -0.391486 -0.62 181 185 214
0.237962 -0.391486 -0.62 120 140 175
0.250952 -0.391486 -0.62 186 194 217
0.257622 -0.390854 -0.619 104 112 148
0.263517 -0.390854 -0.619 150 152 164
0.316414 -0.392117 -0.621 160 173 207
0.334157 -0.392117 -0.621 168 170 191
0.350097 -0.392749 -0.622 167 172 191
0.364314 -0.392749 -0.622 56 81 137
0.366684 -0.392749 -0.622 76 108 165
0.393848 -0.391486 -0.62 126 125 133
0.404476 -0.391486 -0.62 131 136 156
0.406838 -0.391486 -0.62 150 149 163
0.409719 -0.390854 -0.619 124 122 127
0.450986 -0.390854 -0.619 169 169 181
0.496166 -0.390223 -0.618 68 98 152
0.521547 -0.38896 -0.616 192 190 204
0.460271 -0.318871 -0.505 170 129 109
0.48804 -0.314451 -0.498 154 113 93
0.0297762 -0.304633 -0.481 207 166 146
0.0371057 -0.304633 -0.481 201 160 140
0.0624467 -0.312233 -0.493 148 109 104
0.0779857 -0.326167 -0.515 112 91 90
0.0873238 -0.335667 -0.53 104 83 92
0.0958476 -0.344533 -0.544 105 84 89
0.174523 -0.390767 -0.617 175 189 226
0.178049 -0.390767 -0.617 142 155 187
0.195994 -0.3914 -0.618 167 171 196
0.206923 -0.392033 -0.619 143 151 187
0.239936 -0.392033 -0.619 112 133 176
0.249369 -0.392033 -0.619 180 190 217
0.251727 -0.392033 -0.619 171 181 208
0.267054 -0.392033 -0.619 183 186 203
0.301247 -0.392033 -0.619 82 104 145
0.315905 -0.392667 -0.62 132 150 190
0.32181 -0.392667 -0.62 155 161 193
0.328895 -0.392667 -0.62 116 119 124
0.337162 -0.392667 -0.62 99 103 130
0.340705 -0.392667 -0.62 146 153 181
0.350717 -0.3933 -0.621 168 174 190
0.367277 -0.3933 -0.621 48 80 141
0.386762 -0.392667 -0.62 169 168 182
0.387943 -0.392667 -0.62 170 170 180
0.401466 -0.392033 -0.619 142 147 176
0.416793 -0.392033 -0.619 172 174 186
0.444371 -0.3914 -0.618 95 108 142
0.460851 -0.3914 -0.618 170 173 182
0.48204 -0.3914 -0.618 85 100 139
0.489487 -0.390767 -0.617 118 130 156
0.514167 -0.390767 -0.617 94 99 118
0.5192 -0.390133 -0.616 187 186 200
0.48678 -0.3477 -0.549 144 111 106
0.469704 -0.331233 -0.523 159 120 105
0.463726 -0.324267 -0.512 164 125 108
0.470947 -0.312867 -0.494 175 130 109
0.473786 -0.3135 -0.495 172 125 105
0.48997 -0.316033 -0.499 154 112 90
0.496772 -0.318567 -0.503 149 107 85
0.0444352 -0.30555 -0.481 187 146 124
0.0582143 -0.310631 -0.489 156 113 104
0.0603229 -0.311902 -0.491 151 111 103
0.07056 -0.32016 -0.504 131 97 95
0.0888333 -0.338582 -0.533 104 81 89
0.17424 -0.391307 -0.616 172 186 223
0.197171 -0.392577 -0.618 183 184 205
0.219537 -0.392577 -0.618 197 195 216
0.225423 -0.392577 -0.618 138 152 189
0.2266 -0.392577 -0.618 158 172 209
0.236017 -0.392577 -0.618 136 158 197
0.28617 -0.391942 -0.617 169 180 198
0.290166 -0.392577 -0.618 123 133 158
0.30076 -0.392577 -0.618 71 93 143
0.32247 -0.393212 -0.619 166 173 201
0.33426 -0.393212 -0.619 136 138 153
0.377314 -0.393848 -0.62 41 70 128
0.378495 -0.393848 -0.62 73 102 160
0.384959 -0.393212 -0.619 178 175 192
0.387317 -0.393212 -0.619 169 168 182
0.40788 -0.392577 -0.618 151 150 155
0.414943 -0.392577 -0.618 168 166 177
0.445549 -0.392577 -0.618 101 114 149
0.466737 -0.392577 -0.618 172 172 184
0.500064 -0.391942 -0.617 81 103 152
0.516853 -0.391307 -0.616 181 183 204
0.507429 -0.365897 -0.576 129 105 101
0.460365 -0.319525 -0.503 167 126 106
0.49872 -0.32016 -0.504 148 107 89
0.0932581 -0.344694 -0.541 103 83 92
0.109114 -0.363171 -0.57 108 87 92
0.115647 -0.37018 -0.581 230 227 246
0.1672 -0.39248 -0.616 170 186 212
0.188626 -0.393117 -0.617 202 201 217
0.198028 -0.393117 -0.617 145 146 166
0.216006 -0.393754 -0.618 194 203 218
0.272068 -0.393117 -0.617 146 154 175
0.282187 -0.39248 -0.616 172 179 198
0.296748 -0.393117 -0.617 84 88 125
0.307823 -0.393754 -0.618 74 103 169
0.384337 -0.393754 -0.618 177 174 195
0.392577 -0.393754 -0.618 109 114 118
0.39964 -0.393754 -0.618 161 159 181
0.412589 -0.393754 -0.618 173 174 178
0.439413 -0.39248 -0.616 158 177 210
0.462456 -0.393117 -0.617 165 164 178
0.476559 -0.393117 -0.617 80 83 102
0.51216 -0.39248 -0.616 155 162 178
0.468089 -0.330677 -0.519 160 123 105
0.46435 -0.316023 -0.496 177 135 113
0.02874 -0.306104 -0.479 206 165 143
0.05508 -0.310577 -0.486 162 120 106
0.0582143 -0.312494 -0.489 157 115 103
0.0603229 -0.313772 -0.491 150 110 100
0.0718038 -0.323358 -0.506 126 98 97
0.0979524 -0.351476 -0.55 101 81 83
0.115846 -0.371926 -0.582 231 230 248
0.119483 -0.376399 -0.589 229 224 247
0.13904 -0.393653 -0.616 207 211 236
0.144671 -0.393014 -0.615 207 214 240
0.155467 -0.393653 -0.616 147 152 182
0.15664 -0.393653 -0.616 137 142 172
0.183329 -0.393014 -0.615 198 202 227
0.189493 -0.393653 -0.616 154 160 194
0.27632 -0.393653 -0.616 164 171 189
0.281013 -0.393653 -0.616 173 179 193
0.293222 -0.394292 -0.617 77 83 119
0.320771 -0.394931 -0.618 156 163 182
0.33372 -0.394931 -0.618 108 110 122
0.376706 -0.39557 -0.619 81 102 147
0.379629 -0.394931 -0.618 89 105 141
0.385514 -0.394931 -0.618 177 173 198
0.414271 -0.394292 -0.617 154 155 173
0.42768 -0.393653 -0.616 81 101 160
0.428853 -0.393653 -0.616 95 123 173
0.449529 -0.394292 -0.617 108 109 139
0.503947 -0.393653 -0.616 156 164 187
0.46899 -0.332305 -0.52 159 122 106
0.480356 -0.31569 -0.494 161 119 97
0.4851 -0.316329 -0.495 157 114 95
0.075581 -0.328168 -0.512 117 91 92
0.165757 -0.394186 -0.615 200 202 225
0.1681 -0.394186 -0.615 171 181 208
0.172786 -0.394186 -0.615 132 147 188
0.1763 -0.394186 -0.615 133 146 180
0.213306 -0.395468 -0.617 190 196 212
0.214481 -0.395468 -0.617 190 196 212
0.225867 -0.394827 -0.616 50 68 114
0.25872 -0.394827 -0.616 180 185 205
0.270453 -0.394827 -0.616 113 115 140
0.29744 -0.394827 -0.616 52 75 142
0.301449 -0.395468 -0.617 32 63 127
0.309675 -0.395468 -0.617 34 65 129
0.327304 -0.395468 -0.617 170 169 183
0.353731 -0.396109 -0.618 136 137 142
0.364326 -0.396109 -0.618 74 100 161
0.396643 -0.395468 -0.617 168 174 186
0.400169 -0.395468 -0.617 174 171 182
0.42416 -0.394827 -0.616 126 141 174
0.428157 -0.394186 -0.615 88 119 174
0.45232 -0.394827 -0.616 161 159 180
0.499614 -0.394186 -0.615 89 107 153
0.505471 -0.394186 -0.615 138 138 146
0.481126 -0.344832 -0.538 152 116 102
0.47767 -0.341628 -0.533 153 117 103
0.465287 -0.318553 -0.497 177 135 113
0.46624 -0.317912 -0.496 178 133 112
0.0471838 -0.309214 -0.481 181 139 117
0.0582143 -0.314357 -0.489 150 112 99
0.0648467 -0.3195 -0.497 139 102 96
0.104557 -0.361929 -0.563 103 83 84
0.1353 -0.395357 -0.615 192 193 213
0.136471 -0.395357 -0.615 193 192 210
0.151453 -0.394714 -0.614 214 212 234
0.169271 -0.395357 -0.615 155 168 203
0.187709 -0.394714 -0.614 101 107 139
0.247757 -0.395357 -0.615 54 88 152
0.251271 -0.395357 -0.615 156 169 203
0.268843 -0.395357 -0.615 113 112 126
0.270014 -0.395357 -0.615 117 118 139
0.299787 -0.396 -0.616 25 56 121
0.316727 -0.396643 -0.617 127 147 198
0.321428 -0.396643 -0.617 164 169 188
0.323778 -0.396643 -0.617 170 174 186
0.326129 -0.396643 -0.617 172 174 189
0.361386 -0.396643 -0.617 122 143 190
0.377839 -0.396643 -0.617 100 116 150
0.390133 -0.396 -0.616 151 150 158
0.40304 -0.396 -0.616 174 177 194
0.409414 -0.395357 -0.615 120 122 135
0.45936 -0.396 -0.616 167 168 188
0.465227 -0.396 -0.616 155 158 177
0.467573 -0.396 -0.616 164 167 186
0.489071 -0.395357 -0.615 85 106 149
0.5125 -0.395357 -0.615 177 183 199
0.512836 -0.394714 -0.614 172 178 194
0.515175 -0.394714 -0.614 134 141 167
0.470947 -0.317571 -0.494 177 132 111
0.0180514 -0.313354 -0.486 198 160 139
0.0453514 -0.31013 -0.481 184 142 118
0.10638 -0.36558 -0.567 106 86 88
0.133692 -0.395239 -0.613 220 221 239
0.176013 -0.395884 -0.614 127 139 179
0.180691 -0.395884 -0.614 180 185 217
0.18537 -0.395884 -0.614 161 170 203
0.257129 -0.396529 -0.615 184 189 211
0.262986 -0.396529 -0.615 163 167 178
0.289457 -0.395884 -0.614 114 110 125
0.294614 -0.396529 -0.615 37 67 119
0.309173 -0.397173 -0.616 67 98 162
0.330293 -0.397173 -0.616 173 175 190
0.34672 -0.397173 -0.616 178 176 197
0.35376 -0.397173 -0.616 114 120 146
0.379573 -0.397173 -0.616 87 102 133
0.387157 -0.396529 -0.615 164 167 176
0.3895 -0.396529 -0.615 128 125 134
0.398871 -0.396529 -0.615 175 174 188
0.447343 -0.395884 -0.614 104 108 133
0.4551 -0.396529 -0.615 150 152 177
0.511667 -0.395884 -0.614 177 181 192
0.515504 -0.395239 -0.613 104 112 151
0.470014 -0.319157 -0.495 177 132 111
0.475628 -0.317868 -0.493 173 128 105
0.01794 -0.31234 -0.483 202 161 141
0.0241276 -0.309107 -0.478 204 167 140
0.0250381 -0.309107 -0.478 205 165 140
0.0295905 -0.309107 -0.478 203 163 137
0.0378638 -0.309753 -0.479 196 155 127
0.0616324 -0.319453 -0.494 141 106 100
0.073199 -0.329153 -0.509 117 92 88
0.0838181 -0.340793 -0.527 106 86 85
0.0895 -0.34726 -0.537 102 84 84
0.114737 -0.37636 -0.582 227 225 246
0.140698 -0.396407 -0.613 219 215 230
0.143033 -0.396407 -0.613 219 216 237
0.166657 -0.397053 -0.614 176 185 216
0.170166 -0.397053 -0.614 116 129 163
0.173674 -0.397053 -0.614 113 126 171
0.177183 -0.397053 -0.614 160 173 218
0.236829 -0.397053 -0.614 46 78 153
0.244616 -0.396407 -0.613 56 89 158
0.245784 -0.396407 -0.613 52 90 163
0.252032 -0.397053 -0.614 170 180 207
0.254371 -0.397053 -0.614 183 185 198
0.264897 -0.397053 -0.614 157 159 174
0.270745 -0.397053 -0.614 132 134 149
0.295305 -0.397053 -0.614 76 102 153
0.306329 -0.3977 -0.615 33 65 126
0.308671 -0.3977 -0.615 94 121 176
0.335614 -0.3977 -0.615 167 171 180
0.412257 -0.397053 -0.614 75 80 109
0.442665 -0.397053 -0.614 176 175 189
0.466814 -0.3977 -0.615 137 146 177
0.472671 -0.3977 -0.615 69 80 125
0.494124 -0.397053 -0.614 117 139 180
0.522405 -0.383473 -0.593 118 99 103
0.496886 -0.36084 -0.558 141 113 110
0.466586 -0.33174 -0.513 159 120 103
0.463239 -0.325273 -0.503 168 127 107
0.469071 -0.3201 -0.495 177 132 111
0.477506 -0.318807 -0.493 171 126 105
0.480286 -0.31816 -0.492 158 116 94
0.509485 -0.329153 -0.509 144 104 79
0.519462 -0.334327 -0.517 147 106 84
0.596792 -0.377653 -0.584 200 193 187
0.0213962 -0.310017 -0.478 210 170 135
0.0223067 -0.310017 -0.478 211 171 136
0.0249857 -0.309369 -0.477 206 166 140
0.0562362 -0.316503 -0.488 148 108 96
0.0696 -0.32688 -0.504 123 92 90
0.0757286 -0.332717 -0.513 113 89 85
0.0925686 -0.352174 -0.543 104 82 85
0.0955086 -0.355417 -0.548 100 81 87
0.104557 -0.365146 -0.563 103 84 88
0.107839 -0.369037 -0.569 97 80 88
0.11136 -0.373577 -0.576 124 116 131
0.269575 -0.398223 -0.614 109 111 126
0.271914 -0.398223 -0.614 132 134 149
0.276142 -0.397574 -0.613 165 170 189
0.291321 -0.397574 -0.613 87 98 130
0.319865 -0.398223 -0.614 149 158 187
0.321034 -0.398223 -0.614 159 164 186
0.328051 -0.398223 -0.614 171 175 186
0.329221 -0.398223 -0.614 165 169 180
0.343814 -0.398871 -0.615 170 172 185
0.409918 -0.398223 -0.614 85 90 119
0.447782 -0.397574 -0.613 169 172 191
0.519641 -0.396277 -0.611 67 90 140
0.47281 -0.319746 -0.493 172 127 104
0.0240771 -0.310277 -0.477 205 165 139
0.0295286 -0.310277 -0.477 203 163 137
0.0368743 -0.310928 -0.478 196 156 130
0.0452571 -0.312229 -0.48 178 138 113
0.07098 -0.329791 -0.507 120 92 89
0.0898333 -0.350607 -0.539 100 84 85
0.20842 -0.398742 -0.613 161 164 181
0.223599 -0.398742 -0.613 170 182 206
0.234108 -0.398742 -0.613 36 70 133
0.286183 -0.398091 -0.612 139 145 169
0.290846 -0.398091 -0.612 128 139 169
0.30817 -0.399392 -0.614 134 153 196
0.37951 -0.399392 -0.614 167 169 192
0.406915 -0.398742 -0.613 118 125 153
0.439609 -0.398742 -0.613 173 178 198
0.445447 -0.398742 -0.613 167 166 180
0.457123 -0.398742 -0.613 116 135 178
0.480475 -0.398742 -0.613 116 118 130
0.483978 -0.398742 -0.613 158 158 170
0.490183 -0.398091 -0.612 98 116 162
0.499509 -0.398091 -0.612 80 96 145
0.50184 -0.398091 -0.612 94 109 148
0.512331 -0.398091 -0.612 177 179 194
0.484073 -0.350607 -0.539 151 115 101
0.46416 -0.32784 -0.504 167 126 108
0.470947 -0.321335 -0.494 178 133 110
0.0240267 -0.310533 -0.476 204 164 138
0.0276533 -0.310533 -0.476 201 162 133
0.0377848 -0.311838 -0.478 194 150 123
0.0471838 -0.313795 -0.481 177 135 113
0.0595086 -0.320971 -0.492 138 105 98
0.0898333 -0.351633 -0.539 105 85 87
0.178937 -0.399257 -0.612 85 110 166
0.1833 -0.398605 -0.611 80 98 146
0.220096 -0.39991 -0.613 192 195 214
0.227102 -0.39991 -0.613 83 94 126
0.238389 -0.399257 -0.612 62 99 169
0.269863 -0.399257 -0.612 123 126 133
0.283851 -0.399257 -0.612 171 173 194
0.286183 -0.399257 -0.612 122 128 154
0.292011 -0.399257 -0.612 161 172 200
0.30183 -0.39991 -0.613 90 121 175
0.328685 -0.39991 -0.613 123 123 133
0.3876 -0.399257 -0.612 154 161 187
0.435394 -0.399257 -0.612 102 120 158
0.43656 -0.399257 -0.612 121 139 177
0.474637 -0.39991 -0.613 167 170 185
0.476972 -0.39991 -0.613 175 174 182
0.498343 -0.399257 -0.612 84 102 152
0.506839 -0.398605 -0.611 170 182 196
0.51033 -0.398605 -0.611 175 180 199
0.468474 -0.335324 -0.514 162 123 106
0.470947 -0.322276 -0.494 179 134 111
0.493638 -0.323581 -0.496 157 116 94
0.0249333 -0.31144 -0.476 204 165 136
0.0377057 -0.312094 -0.477 194 150 125
0.0386952 -0.312749 -0.478 193 149 124
0.0639 -0.32518 -0.497 134 101 94
0.130714 -0.399114 -0.61 219 221 236
0.163515 -0.399769 -0.611 105 124 157
0.170498 -0.399769 -0.611 70 94 154
0.1833 -0.399769 -0.611 97 115 163
0.192926 -0.400423 -0.612 189 195 211
0.202251 -0.400423 -0.612 170 173 190
0.206914 -0.400423 -0.612 128 126 139
0.231394 -0.400423 -0.612 127 154 199
0.248473 -0.399769 -0.611 101 115 152
0.267531 -0.400423 -0.612 179 182 187
0.269422 -0.399769 -0.611 149 153 154
0.275241 -0.399769 -0.611 175 182 200
0.28106 -0.399769 -0.611 176 179 194
0.32232 -0.400423 -0.612 159 163 190
0.331646 -0.400423 -0.612 165 164 182
0.352037 -0.401077 -0.613 143 156 172
0.405086 -0.400423 -0.612 76 93 136
0.410914 -0.400423 -0.612 155 164 193
0.414411 -0.400423 -0.612 173 175 190
0.43656 -0.400423 -0.612 106 125 165
0.479308 -0.401077 -0.613 171 173 186
0.511494 -0.399769 -0.611 166 172 196
0.51794 -0.39846 -0.609 104 124 175
0.474594 -0.342846 -0.524 159 119 107
0.46718 -0.32518 -0.497 175 133 109
0.468129 -0.323871 -0.495 173 131 107
0.469071 -0.323871 -0.495 176 132 107
0.470006 -0.323217 -0.494 177 133 108
0.01768 -0.312347 -0.476 205 165 139
0.0194933 -0.312347 -0.476 207 167 141
0.0276533 -0.312347 -0.476 202 163 134
0.0321867 -0.312347 -0.476 201 160 132
0.0414267 -0.313659 -0.478 182 137 114
0.0424257 -0.314315 -0.479 181 136 113
0.0521952 -0.318252 -0.485 155 117 96
0.173705 -0.400276 -0.61 65 91 152
0.203085 -0.400932 -0.611 168 171 188
0.20774 -0.400932 -0.611 137 135 148
0.227897 -0.401589 -0.612 161 180 212
0.230229 -0.401589 -0.612 147 166 198
0.246146 -0.400932 -0.611 182 196 225
0.254292 -0.400932 -0.611 165 171 195
0.259371 -0.401589 -0.612 188 191 206
0.262439 -0.400932 -0.611 186 187 205
0.293862 -0.400932 -0.611 125 140 159
0.299681 -0.400932 -0.611 92 118 169
0.325817 -0.401589 -0.612 148 149 167
0.328776 -0.400932 -0.611 169 167 191
0.356126 -0.401589 -0.612 125 129 140
0.375329 -0.400932 -0.611 169 170 190
0.389294 -0.400932 -0.611 98 120 159
0.391622 -0.400932 -0.611 135 146 191
0.394594 -0.401589 -0.612 146 166 203
0.406251 -0.401589 -0.612 80 98 148
0.423514 -0.400276 -0.61 97 118 163
0.465703 -0.401589 -0.612 36 66 128
0.475029 -0.401589 -0.612 169 173 185
0.49171 -0.400932 -0.611 67 89 147
0.518248 -0.398964 -0.608 70 95 151
0.477439 -0.32219 -0.491 166 124 102
0.480245 -0.32219 -0.491 163 121 97
0.482115 -0.32219 -0.491 163 121 97
0.024881 -0.312595 -0.475 203 161 136
0.0266905 -0.312595 -0.475 202 160 135
0.0275952 -0.312595 -0.475 201 159 134
0.0451629 -0.315228 -0.479 179 138 116
0.0698762 -0.332996 -0.506 114 92 94
0.0844543 -0.349449 -0.531 105 86 88
0.106755 -0.374456 -0.569 93 82 99
0.170219 -0.401438 -0.61 70 97 152
0.199267 -0.401438 -0.61 194 197 212
0.200429 -0.401438 -0.61 193 196 211
0.215887 -0.402096 -0.611 191 196 215
0.218214 -0.402096 -0.611 187 192 212
0.23218 -0.402096 -0.611 122 145 186
0.261275 -0.402096 -0.611 185 188 205
0.26593 -0.402096 -0.611 153 153 161
0.289895 -0.401438 -0.61 111 118 134
0.349131 -0.402754 -0.612 158 164 188
0.35496 -0.402754 -0.612 165 163 184
0.36312 -0.402754 -0.612 106 125 168
0.376492 -0.402096 -0.611 174 175 195
0.411895 -0.401438 -0.61 178 180 193
0.42119 -0.401438 -0.61 90 109 151
0.444429 -0.401438 -0.61 171 172 190
0.449076 -0.401438 -0.61 163 174 192
0.453304 -0.402096 -0.611 102 121 153
0.481235 -0.402096 -0.611 169 171 184
0.46619 -0.329048 -0.5 168 130 109
0.466209 -0.32839 -0.499 172 131 111
0.489713 -0.324441 -0.493 151 113 92
0.0194114 -0.31284 -0.474 208 166 141
0.0285 -0.3135 -0.475 200 158 133
0.0491181 -0.31812 -0.482 166 128 107
0.105114 -0.37356 -0.566 102 83 89
0.108597 -0.37818 -0.573 114 105 124
0.112327 -0.38346 -0.581 157 160 195
0.13398 -0.40194 -0.609 187 190 207
0.157438 -0.4026 -0.61 199 204 223
0.173705 -0.4026 -0.61 70 99 157
0.174867 -0.4026 -0.61 71 95 157
0.19662 -0.40194 -0.609 193 195 216
0.20822 -0.40194 -0.609 179 179 191
0.216695 -0.4026 -0.61 190 195 214
0.229852 -0.40326 -0.611 172 179 205
0.239933 -0.4026 -0.61 92 120 167
0.255038 -0.4026 -0.61 157 168 198
0.257362 -0.4026 -0.61 184 193 208
0.328776 -0.40326 -0.611 147 151 178
0.332886 -0.4026 -0.61 108 118 154
0.389819 -0.4026 -0.61 63 90 137
0.397952 -0.4026 -0.61 106 131 187
0.454886 -0.4026 -0.61 67 90 140
0.463019 -0.4026 -0.61 29 59 119
0.473476 -0.4026 -0.61 166 167 187
0.49938 -0.40194 -0.609 59 90 147
0.5017 -0.40194 -0.609 77 106 148
0.517367 -0.38346 -0.581 122 104 102
0.486127 -0.35574 -0.539 146 113 104
0.46866 -0.33726 -0.511 161 124 105
0.474663 -0.32472 -0.492 172 130 105
0.496472 -0.32736 -0.496 155 117 96
0.0167029 -0.313743 -0.474 208 166 141
0.0293429 -0.313743 -0.474 200 159 131
0.0652381 -0.330952 -0.5 128 95 88
0.0700143 -0.335586 -0.507 116 92 92
0.0725133 -0.338233 -0.511 108 88 89
0.0872914 -0.354781 -0.536 102 83 85
0.0927391 -0.360076 -0.544 101 82 84
0.130286 -0.402438 -0.608 215 216 236
0.153448 -0.402438 -0.608 210 211 231
0.15602 -0.4031 -0.609 202 209 228
0.19082 -0.4031 -0.609 190 196 212
0.19198 -0.4031 -0.609 193 196 213
0.25346 -0.4031 -0.609 99 115 151
0.324752 -0.403762 -0.61 103 112 145
0.33521 -0.403762 -0.61 155 164 203
0.366018 -0.404424 -0.611 114 137 179
0.367182 -0.404424 -0.611 97 119 166
0.403762 -0.403762 -0.61 77 104 157
0.407248 -0.403762 -0.61 171 177 189
0.43558 -0.4031 -0.609 94 113 156
0.45182 -0.4031 -0.609 145 154 185
0.471152 -0.403762 -0.61 137 151 178
0.508983 -0.402438 -0.608 98 112 139
0.522314 -0.401114 -0.606 54 81 136
0.519148 -0.38589 -0.583 123 107 107
0.468714 -0.337571 -0.51 161 125 103
0.467005 -0.334262 -0.505 165 127 106
0.487727 -0.324995 -0.491 159 117 92
0.511301 -0.334924 -0.506 149 109 84
0.0105857 -0.388329 -0.585 202 165 139
0.0106019 -0.321284 -0.484 204 164 139
0.0114048 -0.317965 -0.479 205 165 140
0.0176057 -0.314646 -0.474 208 166 141
0.0229743 -0.313982 -0.473 201 160 132
0.0376267 -0.315973 -0.476 189 145 120
0.0585714 -0.326594 -0.492 135 103 92
0.0675457 -0.333896 -0.503 121 92 86
0.162712 -0.403596 -0.608 152 160 179
0.168503 -0.403596 -0.608 113 142 198
0.177768 -0.403596 -0.608 168 184 220
0.18038 -0.40426 -0.609 186 198 220
0.190507 -0.403596 -0.608 190 194 219
0.203246 -0.403596 -0.608 168 170 183
0.20672 -0.403596 -0.608 194 196 209
0.22562 -0.40426 -0.609 137 138 156
0.237989 -0.403596 -0.608 94 121 166
0.280838 -0.403596 -0.608 92 106 135
0.302842 -0.403596 -0.608 94 117 167
0.32886 -0.40426 -0.609 139 157 195
0.34046 -0.40426 -0.609 57 88 142
0.352638 -0.404924 -0.61 171 172 192
0.45066 -0.40426 -0.609 147 156 195
0.45878 -0.40426 -0.609 19 54 120
0.47154 -0.40426 -0.609 91 110 150
0.500876 -0.403596 -0.608 58 89 135
0.516543 -0.402269 -0.606 73 95 145
0.474854 -0.345845 -0.521 157 120 104
0.470014 -0.328586 -0.495 173 131 107
0.470957 -0.328586 -0.495 172 130 106
0.482946 -0.324603 -0.489 164 120 93
0.4858 -0.325267 -0.49 165 119 93
0.02838 -0.314883 -0.473 198 156 131
0.0422486 -0.317546 -0.477 180 138 116
0.0532286 -0.323537 -0.486 151 109 93
0.0861095 -0.356157 -0.535 101 85 86
0.107318 -0.380789 -0.572 104 100 127
0.1414 -0.403423 -0.606 211 213 228
0.163601 -0.404089 -0.607 183 190 208
0.164757 -0.404089 -0.607 139 157 195
0.187881 -0.404089 -0.607 147 156 195
0.194818 -0.404089 -0.607 191 197 211
0.205224 -0.404089 -0.607 192 194 209
0.220617 -0.404754 -0.608 159 173 202
0.246095 -0.404754 -0.608 187 192 214
0.27389 -0.404754 -0.608 157 164 183
0.287313 -0.404089 -0.607 173 174 195
0.314423 -0.404754 -0.608 163 168 187
0.34046 -0.40542 -0.609 43 74 128
0.36598 -0.40542 -0.609 85 108 158
0.390857 -0.404754 -0.608 31 63 124
0.420968 -0.404754 -0.608 82 106 154
0.426758 -0.404754 -0.608 48 79 146
0.430232 -0.404754 -0.608 79 108 166
0.463817 -0.404754 -0.608 26 61 129
0.48778 -0.40542 -0.609 42 72 124
0.501209 -0.404089 -0.607 120 138 176
0.511926 -0.403423 -0.606 152 167 190
0.507244 -0.376794 -0.566 131 110 107
0.4775 -0.3495 -0.525 153 117 105
0.47402 -0.345506 -0.519 159 122 106
0.472263 -0.343509 -0.516 158 121 102
0.467071 -0.334854 -0.503 166 128 107
0.500313 -0.33086 -0.497 156 114 90
0.0113095 -0.317119 -0.475 207 167 141
0.0441581 -0.319122 -0.478 171 128 109
0.0653686 -0.334477 -0.501 123 94 88
0.107318 -0.381878 -0.572 150 142 165
0.147414 -0.405245 -0.607 215 213 227
0.176319 -0.405245 -0.607 151 174 228
0.177475 -0.405245 -0.607 172 178 214
0.181242 -0.405912 -0.608 188 195 213
0.189037 -0.405245 -0.607 138 141 182
0.222933 -0.405912 -0.608 192 195 210
0.226408 -0.405912 -0.608 188 187 201
0.227566 -0.405912 -0.608 159 163 188
0.234129 -0.405245 -0.607 127 155 195
0.301188 -0.405245 -0.607 117 138 181
0.310437 -0.405245 -0.607 165 172 191
0.320843 -0.405245 -0.607 105 114 143
0.324311 -0.405245 -0.607 44 71 118
0.326624 -0.405245 -0.607 65 90 144
0.331794 -0.405912 -0.608 47 74 127
0.341059 -0.405912 -0.608 41 71 123
0.361905 -0.405912 -0.608 79 100 147
0.383909 -0.405912 -0.608 166 169 188
0.386225 -0.405912 -0.608 136 152 186
0.390857 -0.405912 -0.608 33 64 129
0.392015 -0.405912 -0.608 31 64 133
0.420275 -0.405245 -0.607 78 105 158
0.4256 -0.405912 -0.608 54 87 154
0.43139 -0.405912 -0.608 64 94 156
0.451078 -0.405912 -0.608 61 81 132
0.476929 -0.405245 -0.607 157 159 180
0.508463 -0.404577 -0.606 161 167 179
0.51829 -0.403242 -0.604 57 79 137
0.468 -0.33648 -0.504 164 126 107
0.0238752 -0.316685 -0.473 204 163 135
0.0320514 -0.317354 -0.474 194 153 125
0.05542 -0.327397 -0.489 143 107 95
0.0831286 -0.354178 -0.529 104 85 89
0.13332 -0.405731 -0.606 217 216 232
0.134474 -0.405731 -0.606 217 218 238
0.13771 -0.405062 -0.605 212 214 229
0.142554 -0.405731 -0.606 213 213 223
0.170257 -0.405731 -0.606 109 138 180
0.171411 -0.405731 -0.606 122 153 199
0.183256 -0.406401 -0.607 182 187 206
0.227191 -0.406401 -0.607 164 179 208
0.257983 -0.405731 -0.606 135 144 175
0.2626 -0.405731 -0.606 169 176 204
0.339901 -0.40707 -0.608 54 80 129
0.343375 -0.40707 -0.608 131 147 183
0.34685 -0.40707 -0.608 169 171 194
0.349166 -0.40707 -0.608 167 174 193
0.38559 -0.406401 -0.607 147 162 195
0.413811 -0.405731 -0.606 130 140 152
0.426056 -0.406401 -0.607 43 77 141
0.48271 -0.406401 -0.607 120 134 183
0.511387 -0.404392 -0.604 164 168 180
0.482853 -0.356187 -0.532 150 117 108
0.470607 -0.342127 -0.511 166 122 97
0.470019 -0.332084 -0.496 172 134 113
0.470947 -0.330745 -0.494 168 127 107
0.477357 -0.327397 -0.489 170 128 104
0.487603 -0.327397 -0.489 159 117 93
0.0112619 -0.317586 -0.473 205 168 141
0.129857 -0.406886 -0.606 216 218 233
0.146929 -0.406214 -0.605 213 212 226
0.247594 -0.406886 -0.606 186 191 210
0.283377 -0.406886 -0.606 176 183 202
0.297229 -0.406886 -0.606 97 115 161
0.309926 -0.406886 -0.606 159 165 187
0.32724 -0.406886 -0.606 33 64 119
0.329549 -0.406886 -0.606 43 69 126
0.349748 -0.407557 -0.607 168 173 195
0.371103 -0.406886 -0.606 146 159 191
0.418429 -0.406886 -0.606 65 97 136
0.446131 -0.406886 -0.606 105 114 155
0.451903 -0.406886 -0.606 59 84 140
0.4646 -0.406886 -0.606 42 79 132
0.474616 -0.407557 -0.607 158 165 184
0.512837 -0.404871 -0.603 105 120 159
0.522043 -0.392786 -0.585 123 105 101
0.51958 -0.3901 -0.581 124 106 102
0.492576 -0.365929 -0.545 141 112 108
0.473246 -0.346457 -0.516 157 120 101
0.470607 -0.3431 -0.511 163 122 100
0.480099 -0.327657 -0.488 169 124 103
0.490467 -0.329 -0.49 160 118 94
0.492403 -0.329671 -0.491 160 118 94
0.00610762 -0.392553 -0.583 200 163 136
0.00948 -0.31916 -0.474 205 165 139
0.0356629 -0.31916 -0.474 185 145 119
0.0632067 -0.335993 -0.499 126 97 93
0.0769095 -0.350807 -0.521 102 83 85
0.0793486 -0.352827 -0.524 103 84 86
0.0932505 -0.368313 -0.547 102 83 87
0.131948 -0.407367 -0.605 216 217 235
0.141167 -0.407367 -0.605 179 176 187
0.146686 -0.406693 -0.604 208 210 223
0.152438 -0.406693 -0.604 118 129 157
0.1573 -0.407367 -0.605 204 205 226
0.160757 -0.407367 -0.605 192 191 209
0.16191 -0.407367 -0.605 156 164 185
0.169976 -0.407367 -0.605 126 150 188
0.184957 -0.407367 -0.605 182 186 211
0.208005 -0.407367 -0.605 151 163 189
0.227595 -0.407367 -0.605 123 140 168
0.245286 -0.40804 -0.606 186 191 211
0.289824 -0.407367 -0.605 110 129 159
0.292129 -0.407367 -0.605 98 122 160
0.301348 -0.407367 -0.605 97 121 169
0.308262 -0.407367 -0.605 117 135 181
0.312871 -0.407367 -0.605 172 171 185
0.358406 -0.40804 -0.606 83 104 159
0.35956 -0.40804 -0.606 79 106 159
0.367033 -0.407367 -0.605 78 108 158
0.378557 -0.407367 -0.605 125 131 153
0.3838 -0.40804 -0.606 86 110 154
0.388417 -0.40804 -0.606 50 78 143
0.398806 -0.40804 -0.606 34 66 125
0.410349 -0.40804 -0.606 95 103 124
0.427663 -0.40804 -0.606 27 64 132
0.449594 -0.40804 -0.606 134 147 181
0.456919 -0.407367 -0.605 23 56 123
0.483069 -0.40804 -0.606 101 108 134
0.4961 -0.407367 -0.605 72 107 161
0.51054 -0.40602 -0.603 131 133 146
0.52116 -0.405347 -0.602 100 123 165
0.494384 -0.368313 -0.547 138 113 109
0.475924 -0.350133 -0.52 157 120 104
0.47331 -0.346767 -0.515 159 121 102
0.46896 -0.33936 -0.504 166 129 110
0.468988 -0.338687 -0.503 166 129 110
0.477357 -0.32926 -0.489 173 128 107
0.493338 -0.330607 -0.491 161 119 95
0.497226 -0.331953 -0.493 161 119 95
0.603752 -0.390533 -0.58 196 191 188
0.00946 -0.319388 -0.473 205 166 137
0.135181 -0.407844 -0.604 205 204 222
0.151037 -0.407169 -0.603 123 134 164
0.190404 -0.407844 -0.604 116 126 161
0.208005 -0.408519 -0.605 134 148 187
0.227219 -0.407844 -0.604 109 128 158
0.241424 -0.408519 -0.605 125 148 192
0.262167 -0.408519 -0.605 102 129 182
0.265624 -0.408519 -0.605 89 115 164
0.320408 -0.407844 -0.604 157 170 202
0.354943 -0.409194 -0.606 107 126 158
0.363576 -0.408519 -0.605 49 85 143
0.366427 -0.407844 -0.604 66 99 152
0.37563 -0.407844 -0.604 124 123 139
0.408519 -0.408519 -0.605 80 99 142
0.414747 -0.407844 -0.604 119 130 152
0.435455 -0.407844 -0.604 137 159 196
0.44581 -0.407844 -0.604 159 163 172
0.459224 -0.408519 -0.605 24 55 120
0.470748 -0.408519 -0.605 164 167 186
0.473052 -0.408519 -0.605 163 169 191
0.479967 -0.408519 -0.605 166 168 183
0.4961 -0.408519 -0.605 72 107 161
0.499882 -0.407844 -0.604 120 147 190
0.517102 -0.389612 -0.577 125 107 105
0.487391 -0.362603 -0.537 142 112 104
0.46992 -0.34032 -0.504 165 128 109
0.46906 -0.336944 -0.499 170 129 111
0.47375 -0.332892 -0.493 170 127 108
0.474633 -0.331542 -0.491 170 127 108
0.480099 -0.329516 -0.488 168 123 104
0.48097 -0.328841 -0.487 168 124 99
0.482826 -0.328841 -0.487 164 119 96
0.0246714 -0.318934 -0.471 197 157 131
0.0544886 -0.331123 -0.489 138 101 93
0.0918714 -0.369043 -0.545 101 82 86
0.0995552 -0.378523 -0.559 102 82 83
0.125977 -0.408994 -0.604 212 219 237
0.180348 -0.409671 -0.605 192 195 214
0.193534 -0.408317 -0.603 129 141 179
0.194683 -0.408317 -0.603 149 160 190
0.199277 -0.408317 -0.603 152 171 204
0.212263 -0.408994 -0.604 148 166 216
0.221467 -0.408994 -0.604 188 192 204
0.222617 -0.408994 -0.604 190 194 206
0.22837 -0.408994 -0.604 95 119 165
0.242175 -0.408994 -0.604 152 163 195
0.25483 -0.408994 -0.604 116 124 137
0.270937 -0.408994 -0.604 57 83 144
0.320408 -0.408994 -0.604 150 165 198
0.330762 -0.408994 -0.604 24 53 113
0.345138 -0.409671 -0.605 105 118 152
0.352052 -0.409671 -0.605 123 134 154
0.365276 -0.408994 -0.604 43 78 134
0.44811 -0.408994 -0.604 160 163 178
0.451157 -0.409671 -0.605 107 120 154
0.455013 -0.408994 -0.604 26 59 126
0.493795 -0.409671 -0.605 54 86 143
0.501667 -0.40764 -0.602 164 163 169
0.518894 -0.392066 -0.579 126 108 104
0.47337 -0.348051 -0.514 159 124 105
0.487464 -0.329769 -0.487 162 120 95
0.0328152 -0.32051 -0.472 192 152 126
0.0566971 -0.334091 -0.492 131 98 93
0.0669848 -0.343598 -0.506 110 88 91
0.0808067 -0.357858 -0.527 102 82 84
0.0876171 -0.365328 -0.538 102 82 84
0.144146 -0.409466 -0.603 204 205 223
0.151037 -0.409466 -0.603 188 194 218
0.1812 -0.410145 -0.604 192 197 216
0.192386 -0.409466 -0.603 86 101 140
0.200426 -0.409466 -0.603 76 98 139
0.202723 -0.409466 -0.603 147 168 223
0.207317 -0.409466 -0.603 76 101 157
0.218803 -0.409466 -0.603 184 190 212
0.226843 -0.409466 -0.603 98 120 159
0.227991 -0.409466 -0.603 97 124 169
0.243326 -0.410145 -0.604 166 176 211
0.270937 -0.410145 -0.604 43 73 135
0.291163 -0.409466 -0.603 85 116 163
0.312354 -0.410145 -0.604 167 171 198
0.316956 -0.410145 -0.604 134 141 159
0.329066 -0.409466 -0.603 25 56 113
0.339966 -0.410145 -0.604 64 89 143
0.343986 -0.410824 -0.605 54 80 131
0.349748 -0.410824 -0.605 150 154 179
0.356662 -0.410824 -0.605 57 83 140
0.366969 -0.409466 -0.603 48 81 134
0.389436 -0.410145 -0.604 26 57 121
0.424397 -0.409466 -0.603 29 74 141
0.430853 -0.410145 -0.604 62 98 158
0.44581 -0.410145 -0.604 141 141 149
0.451562 -0.410145 -0.604 54 79 135
0.45426 -0.409466 -0.603 31 62 127
0.458465 -0.410145 -0.604 53 87 150
0.486076 -0.410145 -0.604 66 98 149
0.51979 -0.393848 -0.58 123 108 105
0.515507 -0.389773 -0.574 125 110 107
0.476426 -0.332054 -0.489 171 128 109
0.485537 -0.330017 -0.486 165 120 97
0.500043 -0.33477 -0.493 154 112 87
0.608113 -0.394527 -0.581 194 194 192
0.00166857 -0.397676 -0.584 193 161 136
0.0094 -0.320048 -0.47 204 164 138
0.02826 -0.320729 -0.471 198 158 133
0.0471838 -0.327538 -0.481 160 116 105
0.078201 -0.356138 -0.523 102 80 83
0.0965543 -0.377248 -0.554 96 86 87
0.1407 -0.410614 -0.603 197 198 219
0.142997 -0.410614 -0.603 181 185 212
0.165693 -0.409933 -0.602 150 164 199
0.178603 -0.410614 -0.603 194 197 214
0.223027 -0.409933 -0.602 177 185 204
0.246369 -0.410614 -0.603 185 192 202
0.253987 -0.409933 -0.602 178 187 194
0.270489 -0.410614 -0.603 46 77 141
0.272786 -0.410614 -0.603 100 124 184
0.303797 -0.410614 -0.603 80 110 164
0.332511 -0.410614 -0.603 18 50 109
0.337665 -0.411295 -0.604 38 63 120
0.36636 -0.409933 -0.602 50 89 146
0.41406 -0.410614 -0.603 168 177 186
0.420951 -0.410614 -0.603 61 95 158
0.4623 -0.410614 -0.603 45 72 119
0.467267 -0.409933 -0.602 112 124 150
0.471489 -0.410614 -0.603 158 168 180
0.479173 -0.411295 -0.604 159 164 184
0.481474 -0.411295 -0.604 146 151 171
0.488377 -0.411295 -0.604 95 126 173
0.509991 -0.409252 -0.601 77 86 117
0.511429 -0.408571 -0.6 78 98 131
0.470014 -0.337071 -0.495 169 128 108
0.489319 -0.331624 -0.487 161 119 95
0.490247 -0.331624 -0.487 160 118 94
0.492183 -0.332305 -0.488 162 120 96
0.499029 -0.335029 -0.492 155 113 88
0.0228286 -0.320943 -0.47 200 160 134
0.0534476 -0.333234 -0.488 139 104 98
0.0707048 -0.349623 -0.512 108 84 82
0.1634 -0.41108 -0.602 137 157 194
0.166563 -0.410397 -0.601 153 167 204
0.169133 -0.41108 -0.602 144 160 193
0.17028 -0.41108 -0.602 144 160 193
0.17716 -0.41108 -0.602 159 172 207
0.2494 -0.41108 -0.602 183 192 209
0.27348 -0.41108 -0.602 140 166 225
0.282184 -0.410397 -0.601 179 180 208
0.31476 -0.41108 -0.602 90 96 118
0.315907 -0.41108 -0.602 68 74 96
0.317053 -0.41108 -0.602 63 77 104
0.319347 -0.41108 -0.602 62 84 121
0.327373 -0.41108 -0.602 22 51 111
0.337106 -0.411763 -0.603 37 63 120
0.372093 -0.41108 -0.602 151 162 180
0.419107 -0.41108 -0.602 82 117 173
0.437453 -0.41108 -0.602 168 167 183
0.443187 -0.41108 -0.602 174 174 186
0.504268 -0.410397 -0.601 157 160 165
0.511429 -0.409714 -0.6 111 128 156
0.486703 -0.364646 -0.534 142 114 103
0.494123 -0.333917 -0.489 168 123 102
0.00671429 -0.321838 -0.47 200 163 137
0.02826 -0.322523 -0.471 196 154 130
0.13451 -0.411542 -0.601 155 163 186
0.155115 -0.411542 -0.601 199 202 221
0.15626 -0.411542 -0.601 200 198 219
0.164273 -0.411542 -0.601 146 168 209
0.18259 -0.411542 -0.601 188 194 210
0.229525 -0.411542 -0.601 95 120 161
0.233347 -0.412227 -0.602 66 96 156
0.23908 -0.412227 -0.602 88 115 168
0.27004 -0.412227 -0.602 54 82 147
0.280571 -0.410857 -0.6 171 176 205
0.282857 -0.410857 -0.6 172 176 203
0.317671 -0.411542 -0.601 75 84 115
0.337693 -0.412227 -0.602 70 100 154
0.344573 -0.412227 -0.602 130 142 168
0.362317 -0.411542 -0.601 53 87 151
0.369186 -0.411542 -0.601 121 145 181
0.37491 -0.411542 -0.601 165 167 180
0.420253 -0.412227 -0.602 70 106 154
0.432867 -0.412227 -0.602 120 139 171
0.459622 -0.411542 -0.601 100 118 166
0.468413 -0.412227 -0.602 125 138 157
0.48642 -0.412911 -0.603 87 114 159
0.50086 -0.378673 -0.553 126 105 102
0.471814 -0.345805 -0.505 169 128 110
0.4746 -0.335533 -0.49 172 129 112
0.480909 -0.332794 -0.486 170 125 104
0.487389 -0.332794 -0.486 167 122 101
0.0129257 -0.32136 -0.468 208 168 142
0.0503476 -0.333033 -0.485 145 106 99
0.0535571 -0.33578 -0.489 136 102 100
0.0683514 -0.349513 -0.509 110 85 88
0.135654 -0.412687 -0.601 164 170 204
0.139089 -0.412687 -0.601 173 179 215
0.150536 -0.412687 -0.601 201 202 220
0.222286 -0.412 -0.6 172 186 212
0.228 -0.412 -0.6 99 125 182
0.27417 -0.412687 -0.601 79 110 156
0.27646 -0.412687 -0.601 79 105 154
0.288571 -0.412 -0.6 72 96 140
0.308 -0.412 -0.6 104 120 153
0.318286 -0.412 -0.6 106 124 160
0.337132 -0.412687 -0.601 80 114 175
0.34858 -0.412687 -0.601 109 110 115
0.39388 -0.413373 -0.602 37 70 124
0.412687 -0.412687 -0.601 168 174 186
0.414976 -0.412687 -0.601 139 151 165
0.437871 -0.412687 -0.601 169 169 181
0.44245 -0.412687 -0.601 158 166 179
0.455043 -0.412687 -0.601 96 117 162
0.460767 -0.412687 -0.601 70 85 114
0.461143 -0.412 -0.6 90 105 134
0.48332 -0.413373 -0.602 104 117 152
0.487907 -0.413373 -0.602 108 127 170
0.477117 -0.355007 -0.517 163 121 105
0.472749 -0.347453 -0.506 169 128 110
0.470952 -0.343333 -0.5 171 128 109
0.470957 -0.3399 -0.495 170 127 108
0.473698 -0.337153 -0.491 175 132 113
0.474633 -0.337153 -0.491 173 130 113
0.47726 -0.334407 -0.487 172 127 106
0.479983 -0.33372 -0.486 167 122 101
0.48731 -0.333033 -0.485 167 122 103
0.00668571 -0.322251 -0.468 203 166 140
0.04216 -0.32776 -0.476 162 119 102
0.0733648 -0.355991 -0.517 103 81 83
0.0894657 -0.373894 -0.543 103 82 87
0.130857 -0.413143 -0.6 155 169 206
0.156 -0.413143 -0.6 193 194 212
0.174286 -0.413143 -0.6 107 126 168
0.178857 -0.413143 -0.6 184 188 217
0.183429 -0.413143 -0.6 184 191 210
0.194857 -0.413143 -0.6 41 75 136
0.225714 -0.413143 -0.6 92 121 177
0.229143 -0.413143 -0.6 95 122 175
0.238286 -0.413143 -0.6 94 124 178
0.252 -0.413143 -0.6 113 122 161
0.266157 -0.413831 -0.601 36 69 138
0.297714 -0.413143 -0.6 31 71 133
0.301143 -0.413143 -0.6 40 78 143
0.312571 -0.413143 -0.6 157 168 188
0.332553 -0.413831 -0.601 26 58 119
0.375429 -0.413143 -0.6 161 169 180
0.390936 -0.413831 -0.601 83 116 170
