ply
format ascii 1.0
comment Created by Open3D
element vertex 1292
property double x
property double y
property double z
property uchar red
property uchar green
property uchar blue
end_header
0.0290762 -0.273152 -0.43 198 157 135
0.0338324 -0.271882 -0.428 197 152 129
0.03538 -0.271247 -0.427 197 155 133
0.0394467 -0.271247 -0.427 197 152 131
0.0693705 -0.273788 -0.431 169 123 107
0.102742 -0.294115 -0.463 93 72 77
0.23838 -0.38686 -0.609 114 134 184
0.25114 -0.38686 -0.609 129 147 187
0.25346 -0.38686 -0.609 194 210 243
0.2755 -0.38686 -0.609 209 212 227
0.27782 -0.38686 -0.609 224 229 248
0.28014 -0.38686 -0.609 219 224 243
0.28246 -0.38686 -0.609 224 227 246
0.32359 -0.387495 -0.61 190 197 223
0.332886 -0.387495 -0.61 164 162 175
0.368905 -0.387495 -0.61 102 139 191
0.386333 -0.387495 -0.61 71 84 116
0.399114 -0.387495 -0.61 117 121 146
0.440943 -0.387495 -0.61 175 180 202
0.454886 -0.387495 -0.61 78 87 126
0.476962 -0.387495 -0.61 170 171 191
0.4843 -0.38686 -0.609 118 117 131
0.48546 -0.38686 -0.609 174 173 187
0.437629 -0.323971 -0.51 168 120 97
0.443834 -0.32143 -0.506 172 120 98
0.447767 -0.320795 -0.505 178 126 104
0.472749 -0.32143 -0.506 152 111 91
0.4794 -0.323971 -0.51 148 110 91
0.02598 -0.275883 -0.433 200 159 139
0.0290762 -0.273971 -0.43 197 156 134
0.03146 -0.273334 -0.429 191 150 130
0.0427 -0.27206 -0.427 198 153 132
0.0542133 -0.272697 -0.428 187 142 119
0.0618381 -0.273971 -0.43 180 133 113
0.07564 -0.27652 -0.434 156 110 97
0.0783 -0.277157 -0.435 148 104 93
0.0913238 -0.284166 -0.446 116 83 78
0.0925867 -0.28544 -0.448 107 79 78
0.0938571 -0.286714 -0.45 104 76 75
0.17661 -0.387383 -0.608 111 138 183
0.185874 -0.387383 -0.608 127 150 194
0.18819 -0.387383 -0.608 158 181 225
0.21402 -0.38802 -0.609 210 213 230
0.237989 -0.387383 -0.608 114 134 184
0.241463 -0.387383 -0.608 141 165 225
0.259992 -0.387383 -0.608 228 233 255
0.270415 -0.387383 -0.608 226 229 248
0.27389 -0.387383 -0.608 205 207 222
0.277364 -0.387383 -0.608 222 225 242
0.3045 -0.38802 -0.609 136 171 229
0.30682 -0.38802 -0.609 120 152 211
0.32654 -0.38802 -0.609 208 210 233
0.3277 -0.38802 -0.609 206 203 224
0.337533 -0.388657 -0.61 192 191 207
0.339857 -0.388657 -0.61 200 203 220
0.352638 -0.388657 -0.61 81 95 130
0.386333 -0.388657 -0.61 105 114 143
0.41702 -0.38802 -0.609 153 156 171
0.43442 -0.38802 -0.609 123 145 192
0.43906 -0.38802 -0.609 123 144 187
0.444429 -0.388657 -0.61 169 167 180
0.48082 -0.38802 -0.609 173 170 179
0.492303 -0.386109 -0.606 85 106 151
0.438286 -0.331314 -0.52 149 112 106
0.437995 -0.328129 -0.515 159 111 99
0.451742 -0.320483 -0.503 177 123 97
0.46992 -0.32112 -0.504 154 113 93
0.026681 -0.27543 -0.431 199 158 136
0.0298257 -0.274151 -0.429 196 155 133
0.0313867 -0.273512 -0.428 194 153 133
0.0345667 -0.272873 -0.427 202 157 138
0.0386333 -0.272873 -0.427 198 153 132
0.0509524 -0.273512 -0.428 191 147 122
0.0517676 -0.273512 -0.428 192 148 123
0.0576086 -0.274151 -0.429 182 137 114
0.0584257 -0.274151 -0.429 184 139 116
0.0644448 -0.27543 -0.431 177 130 110
0.0695314 -0.276069 -0.432 169 123 107
0.07564 -0.277347 -0.434 153 109 96
0.0793105 -0.278625 -0.436 141 103 92
0.108119 -0.303548 -0.475 96 77 81
0.200599 -0.387902 -0.607 235 238 255
0.235672 -0.388541 -0.608 178 193 226
0.3103 -0.38918 -0.609 127 154 201
0.31842 -0.38918 -0.609 173 182 213
0.3335 -0.38918 -0.609 205 203 217
0.3683 -0.38918 -0.609 129 161 202
0.37294 -0.38918 -0.609 139 154 193
0.374644 -0.388541 -0.608 152 167 206
0.3799 -0.38918 -0.609 193 195 220
0.39614 -0.38918 -0.609 173 182 213
0.41122 -0.38918 -0.609 128 147 189
0.456048 -0.389819 -0.61 60 82 132
0.460695 -0.389819 -0.61 48 69 136
0.484663 -0.388541 -0.608 164 167 174
0.486979 -0.388541 -0.608 132 134 147
0.488137 -0.388541 -0.608 88 115 160
0.44075 -0.324636 -0.508 169 121 98
0.442686 -0.324636 -0.508 166 118 95
0.44278 -0.323997 -0.507 169 119 96
0.443746 -0.323997 -0.507 173 123 100
0.444881 -0.322719 -0.505 165 115 92
0.458493 -0.320802 -0.502 170 120 95
0.478488 -0.324636 -0.508 151 110 90
0.0236143 -0.278814 -0.435 198 158 133
0.0250971 -0.276891 -0.432 197 157 132
0.0290086 -0.274969 -0.429 201 159 137
0.0443267 -0.273687 -0.427 190 144 121
0.0492067 -0.273687 -0.427 192 146 123
0.0542133 -0.274328 -0.428 186 142 117
0.0576086 -0.274969 -0.429 180 136 111
0.0636238 -0.27625 -0.431 177 132 113
0.0695314 -0.276891 -0.432 168 125 108
0.083201 -0.281378 -0.439 126 93 88
0.0854533 -0.283301 -0.442 120 89 86
0.195974 -0.389058 -0.607 242 244 255
0.205224 -0.389058 -0.607 237 239 252
0.218301 -0.389699 -0.608 245 241 255
0.23104 -0.389699 -0.608 213 217 242
0.272283 -0.389058 -0.607 207 204 215
0.275751 -0.389058 -0.607 224 227 244
0.293094 -0.389058 -0.607 181 186 208
0.319055 -0.389699 -0.608 178 182 217
0.321371 -0.389699 -0.608 106 121 160
0.327162 -0.389699 -0.608 208 206 228
0.331794 -0.389699 -0.608 200 204 231
0.33411 -0.389699 -0.608 206 198 219
0.3451 -0.39034 -0.609 180 185 207
0.366537 -0.389699 -0.608 144 172 219
0.39962 -0.39034 -0.609 89 113 161
0.400122 -0.389699 -0.608 139 163 211
0.410545 -0.389699 -0.608 117 145 195
0.454886 -0.390981 -0.61 118 135 155
0.483866 -0.389058 -0.607 178 180 195
0.486178 -0.389058 -0.607 152 155 172
0.480019 -0.371752 -0.58 134 108 107
0.438711 -0.331372 -0.517 160 113 93
0.45945 -0.321758 -0.502 169 122 96
0.466143 -0.321758 -0.502 153 110 91
0.469946 -0.322399 -0.503 152 111 91
0.0227857 -0.279643 -0.435 196 154 130
0.0377314 -0.273857 -0.426 196 149 129
0.0626571 -0.276429 -0.43 178 131 113
0.0703543 -0.277714 -0.432 166 123 106
0.0815286 -0.282214 -0.439 133 98 92
0.0833905 -0.282857 -0.44 124 91 86
0.0864905 -0.284786 -0.443 119 88 85
0.104073 -0.3015 -0.469 95 73 75
0.167345 -0.390857 -0.608 152 165 199
0.168503 -0.390857 -0.608 152 165 199
0.193343 -0.389571 -0.606 238 237 251
0.19796 -0.389571 -0.606 238 240 253
0.200269 -0.389571 -0.606 239 241 254
0.203731 -0.389571 -0.606 240 242 255
0.208349 -0.389571 -0.606 234 236 248
0.229504 -0.390214 -0.607 227 232 254
0.235285 -0.390214 -0.607 197 208 236
0.251057 -0.389571 -0.606 205 211 237
0.298875 -0.390214 -0.607 116 135 178
0.326624 -0.390214 -0.607 193 195 220
0.341059 -0.390857 -0.608 187 195 216
0.354372 -0.390214 -0.607 197 195 216
0.361905 -0.390857 -0.608 152 165 184
0.365379 -0.390857 -0.608 128 152 196
0.382121 -0.390214 -0.607 180 187 197
0.386225 -0.390857 -0.608 183 184 202
0.39549 -0.390857 -0.608 151 168 212
0.403596 -0.390857 -0.608 109 132 184
0.438339 -0.390857 -0.608 90 121 168
0.448762 -0.390857 -0.608 183 182 198
0.45878 -0.3915 -0.609 50 75 131
0.47346 -0.390214 -0.607 167 178 210
0.4425 -0.3375 -0.525 144 111 106
0.448868 -0.323357 -0.503 178 127 106
0.493827 -0.333 -0.518 148 109 92
0.0516467 -0.275313 -0.427 189 142 122
0.0558438 -0.275958 -0.428 188 142 119
0.061019 -0.277248 -0.43 179 132 114
0.0695314 -0.278537 -0.432 168 122 106
0.07564 -0.279827 -0.434 145 105 93
0.0766429 -0.280471 -0.435 144 104 92
0.07848 -0.281116 -0.436 138 100 89
0.0794924 -0.281761 -0.437 137 100 91
0.0815286 -0.28305 -0.439 132 97 91
0.165913 -0.39137 -0.607 154 159 189
0.214473 -0.39137 -0.607 240 242 254
0.245286 -0.390726 -0.606 175 188 222
0.249903 -0.390726 -0.606 224 228 253
0.252211 -0.390726 -0.606 205 211 235
0.256829 -0.390726 -0.606 140 151 181
0.291457 -0.390726 -0.606 203 209 235
0.308125 -0.39137 -0.607 123 144 191
0.310437 -0.39137 -0.607 129 150 197
0.323155 -0.39137 -0.607 151 164 198
0.345123 -0.39137 -0.607 126 148 185
0.348591 -0.39137 -0.607 164 177 211
0.36709 -0.39137 -0.607 155 176 221
0.371103 -0.390726 -0.606 92 120 168
0.386746 -0.39137 -0.607 137 147 172
0.412182 -0.39137 -0.607 184 187 204
0.43993 -0.39137 -0.607 94 115 160
0.48884 -0.390726 -0.606 72 105 158
0.450784 -0.324315 -0.503 178 127 106
0.458534 -0.323026 -0.501 168 121 95
0.479477 -0.326894 -0.507 149 111 92
0.0265571 -0.27742 -0.429 193 151 127
0.0584257 -0.27742 -0.429 180 133 113
0.072 -0.27936 -0.432 153 110 94
0.0758143 -0.2813 -0.435 144 104 92
0.0823648 -0.283887 -0.439 126 93 86
0.0866857 -0.28712 -0.444 113 84 80
0.0877286 -0.287767 -0.445 112 83 79
0.10185 -0.301993 -0.467 97 69 68
0.164757 -0.392527 -0.607 164 167 198
0.184957 -0.391233 -0.605 210 228 255
0.18611 -0.391233 -0.605 210 223 255
0.199938 -0.391233 -0.605 237 240 255
0.203395 -0.391233 -0.605 237 240 255
0.211462 -0.391233 -0.605 235 237 250
0.212614 -0.391233 -0.605 233 235 248
0.226817 -0.39188 -0.606 203 206 237
0.241424 -0.391233 -0.605 161 184 228
0.244881 -0.391233 -0.605 171 182 212
0.252948 -0.391233 -0.605 211 216 238
0.285214 -0.391233 -0.605 120 134 163
0.313389 -0.39188 -0.606 199 208 237
0.326086 -0.39188 -0.606 111 120 159
0.329549 -0.39188 -0.606 162 171 202
0.33532 -0.39188 -0.606 113 128 169
0.354943 -0.39188 -0.606 194 196 219
0.369949 -0.39188 -0.606 100 128 175
0.420737 -0.39188 -0.606 151 151 161
0.463054 -0.392527 -0.607 24 57 128
0.486881 -0.391233 -0.605 73 94 141
0.445762 -0.327213 -0.506 175 124 103
0.4518 -0.324627 -0.502 176 126 103
0.454669 -0.324627 -0.502 178 128 105
0.490013 -0.332387 -0.514 147 108 91
0.0400714 -0.275643 -0.425 195 149 126
0.0532733 -0.27694 -0.427 185 138 118
0.0626571 -0.278886 -0.43 173 126 108
0.0660867 -0.279534 -0.431 168 122 106
0.0815286 -0.284723 -0.439 128 94 85
0.16191 -0.392386 -0.605 174 185 207
0.164486 -0.393034 -0.606 196 201 231
0.235662 -0.392386 -0.605 156 169 204
0.243729 -0.392386 -0.605 153 169 205
0.2541 -0.392386 -0.605 205 211 237
0.263319 -0.392386 -0.605 211 213 234
0.27068 -0.393034 -0.606 200 199 215
0.293766 -0.393034 -0.606 211 213 236
0.334166 -0.393034 -0.606 144 162 198
0.368186 -0.392386 -0.605 102 132 182
0.371643 -0.392386 -0.605 84 117 170
0.376874 -0.393034 -0.606 192 193 211
0.39188 -0.393034 -0.606 62 91 147
0.415433 -0.392386 -0.605 190 184 198
0.421195 -0.392386 -0.605 112 130 166
0.425805 -0.392386 -0.605 87 117 179
0.438051 -0.393034 -0.606 82 104 161
0.444977 -0.393034 -0.606 183 181 202
0.446131 -0.393034 -0.606 178 180 201
0.451492 -0.393683 -0.607 159 164 184
0.461137 -0.393034 -0.606 24 59 123
0.462291 -0.393034 -0.606 20 53 120
0.478814 -0.392386 -0.605 92 98 114
0.490338 -0.392386 -0.605 37 61 121
0.486386 -0.379414 -0.585 122 102 104
0.456442 -0.352823 -0.544 139 104 100
0.441407 -0.33142 -0.511 170 122 102
0.443557 -0.330123 -0.509 170 122 100
0.443746 -0.328826 -0.507 172 124 102
0.469031 -0.324934 -0.501 161 116 95
0.47188 -0.325583 -0.502 157 115 93
0.477586 -0.327529 -0.505 153 110 91
0.0194267 -0.282307 -0.434 193 152 130
0.0224714 -0.279054 -0.429 199 157 132
0.0232886 -0.279054 -0.429 199 157 132
0.0272467 -0.277753 -0.427 200 156 129
0.0279943 -0.277103 -0.426 200 156 129
0.0303571 -0.276452 -0.425 201 158 126
0.0368333 -0.276452 -0.425 196 152 125
0.0516467 -0.277753 -0.427 181 135 112
0.0644448 -0.280355 -0.431 170 125 106
0.209962 -0.392888 -0.604 238 240 255
0.213413 -0.392888 -0.604 234 233 247
0.235272 -0.392888 -0.604 159 172 206
0.295586 -0.393538 -0.605 157 169 185
0.3025 -0.393538 -0.605 151 174 215
0.303652 -0.393538 -0.605 152 173 218
0.305957 -0.393538 -0.605 157 178 223
0.384954 -0.394189 -0.606 189 192 209
0.40804 -0.394189 -0.606 155 171 204
0.425805 -0.393538 -0.605 88 120 181
0.459983 -0.394189 -0.606 23 58 126
0.471526 -0.394189 -0.606 63 92 148
0.47651 -0.393538 -0.605 61 75 112
0.479967 -0.393538 -0.605 144 150 162
0.486076 -0.392888 -0.604 62 80 126
0.493311 -0.392237 -0.603 21 57 119
0.441533 -0.336947 -0.518 156 114 100
0.440811 -0.335646 -0.516 157 115 101
0.441295 -0.333044 -0.512 166 119 99
0.443653 -0.330442 -0.508 172 124 104
0.455671 -0.325889 -0.501 170 119 98
0.459524 -0.325238 -0.5 166 118 95
0.460476 -0.325238 -0.5 165 117 94
0.0532733 -0.278567 -0.427 182 136 113
0.0542133 -0.279219 -0.428 184 138 115
0.0713419 -0.282481 -0.433 152 110 94
0.0849943 -0.289657 -0.444 114 84 82
0.0957343 -0.299443 -0.459 96 75 74
0.162792 -0.394038 -0.604 204 216 238
0.166519 -0.39469 -0.605 216 218 239
0.269787 -0.394038 -0.604 188 194 218
0.297398 -0.394038 -0.604 148 153 195
0.311204 -0.394038 -0.604 155 167 207
0.316956 -0.394038 -0.604 200 205 224
0.332462 -0.39469 -0.605 114 145 199
0.346869 -0.394038 -0.604 180 191 209
0.354357 -0.39469 -0.605 190 191 212
0.380232 -0.394038 -0.604 191 192 212
0.39864 -0.394038 -0.604 30 66 140
0.413129 -0.39469 -0.605 177 182 211
0.451157 -0.39469 -0.605 73 92 135
0.454614 -0.39469 -0.605 54 83 139
0.46729 -0.39469 -0.605 26 56 129
0.474205 -0.39469 -0.605 47 71 133
0.449413 -0.347067 -0.532 149 112 106
0.442386 -0.338586 -0.519 156 114 102
0.443557 -0.332062 -0.509 170 123 105
0.443746 -0.330757 -0.507 170 123 103
0.445843 -0.329452 -0.505 157 106 87
0.461456 -0.325538 -0.499 165 119 96
0.0239933 -0.27938 -0.427 198 157 127
0.0335162 -0.277417 -0.424 200 157 125
0.0466571 -0.278726 -0.426 188 144 115
0.0490914 -0.278726 -0.426 189 145 116
0.0532733 -0.27938 -0.427 184 138 114
0.061019 -0.281343 -0.43 173 125 102
0.0819 -0.28854 -0.441 122 89 80
0.0851857 -0.291157 -0.445 111 83 80
0.0885171 -0.293774 -0.449 107 81 80
0.0933714 -0.298354 -0.456 96 77 73
0.163943 -0.395189 -0.604 234 240 252
0.20502 -0.394534 -0.603 193 197 209
0.207317 -0.394534 -0.603 193 197 209
0.230289 -0.394534 -0.603 221 224 239
0.231437 -0.394534 -0.603 205 208 223
0.232586 -0.394534 -0.603 169 184 207
0.234883 -0.394534 -0.603 162 177 206
0.254409 -0.394534 -0.603 219 220 240
0.265624 -0.395843 -0.605 192 198 222
0.283123 -0.394534 -0.603 194 207 242
0.312354 -0.395189 -0.604 170 185 228
0.319257 -0.395189 -0.604 193 200 210
0.348019 -0.395189 -0.604 188 197 212
0.367577 -0.395189 -0.604 84 115 169
0.395843 -0.395843 -0.605 28 64 138
0.418198 -0.395189 -0.604 125 131 153
0.434734 -0.394534 -0.603 57 97 159
0.44811 -0.395189 -0.604 69 79 115
0.45231 -0.395843 -0.605 51 76 140
0.475357 -0.395843 -0.605 96 109 141
0.492493 -0.39388 -0.602 33 72 139
0.473803 -0.327797 -0.501 161 116 97
0.491991 -0.335649 -0.513 156 110 94
0.02002 -0.281506 -0.429 199 159 133
0.0376429 -0.278881 -0.425 194 151 119
0.08106 -0.28938 -0.441 122 89 80
0.218803 -0.395683 -0.603 202 209 238
0.238329 -0.395683 -0.603 188 203 232
0.24522 -0.395683 -0.603 167 183 217
0.248253 -0.395027 -0.602 222 224 249
0.2613 -0.395683 -0.603 139 154 187
0.278529 -0.395683 -0.603 105 127 177
0.279213 -0.395027 -0.602 109 130 175
0.310689 -0.395683 -0.603 137 151 200
0.314134 -0.395683 -0.603 201 207 231
0.322174 -0.395683 -0.603 204 207 226
0.335957 -0.395683 -0.603 46 87 153
0.3819 -0.395683 -0.603 180 184 213
0.402091 -0.396339 -0.604 37 73 151
0.404392 -0.396339 -0.604 59 97 160
0.441626 -0.395683 -0.603 119 121 144
0.455013 -0.396339 -0.604 50 80 140
0.475722 -0.396339 -0.604 141 147 171
0.491347 -0.395027 -0.602 58 88 142
0.493965 -0.39437 -0.601 39 74 132
0.447767 -0.331376 -0.505 162 111 92
0.44976 -0.33072 -0.504 171 120 101
0.454717 -0.328751 -0.501 162 111 92
0.463357 -0.327439 -0.499 166 117 100
0.466209 -0.327439 -0.499 162 117 98
0.481433 -0.331376 -0.505 155 112 93
0.0223143 -0.280349 -0.426 198 157 129
0.0286705 -0.279032 -0.424 202 158 129
0.0723333 -0.285613 -0.434 140 100 90
0.0741571 -0.286271 -0.435 139 99 89
0.0759886 -0.28693 -0.436 137 97 87
0.227613 -0.396173 -0.602 226 231 253
0.247107 -0.396173 -0.602 208 219 247
0.248253 -0.396173 -0.602 223 227 252
0.25326 -0.396831 -0.603 220 223 242
0.262449 -0.396831 -0.603 127 146 188
0.265185 -0.39749 -0.604 162 183 226
0.271637 -0.396831 -0.603 137 154 198
0.275083 -0.396831 -0.603 135 155 205
0.352037 -0.396831 -0.603 194 199 219
0.361226 -0.396831 -0.603 106 135 191
0.401426 -0.396831 -0.603 25 62 140
0.413373 -0.396173 -0.602 139 153 188
0.429427 -0.396173 -0.602 24 64 134
0.441626 -0.396831 -0.603 156 158 179
0.447369 -0.396831 -0.603 133 140 159
0.455013 -0.39749 -0.604 91 114 155
0.463449 -0.396831 -0.603 25 54 120
0.475722 -0.39749 -0.604 168 173 192
0.489053 -0.396173 -0.602 58 91 144
0.494286 -0.394857 -0.6 51 82 137
0.450591 -0.349449 -0.531 146 109 103
0.444527 -0.33497 -0.509 170 121 104
0.444621 -0.334312 -0.508 169 120 103
0.44976 -0.33168 -0.504 170 119 100
0.454762 -0.329048 -0.5 167 116 99
0.479527 -0.331022 -0.503 153 110 91
0.0262476 -0.27984 -0.424 198 157 129
0.0351314 -0.27984 -0.424 195 151 122
0.0542133 -0.28248 -0.428 184 138 114
0.0602 -0.2838 -0.43 172 124 101
0.0652657 -0.28446 -0.431 159 113 97
0.101357 -0.31218 -0.473 93 74 76
0.158813 -0.39732 -0.602 227 232 254
0.161107 -0.39732 -0.602 236 239 254
0.23067 -0.39666 -0.601 171 177 201
0.232959 -0.39666 -0.601 160 174 203
0.243667 -0.39732 -0.602 146 165 197
0.25284 -0.39732 -0.602 218 223 243
0.253987 -0.39732 -0.602 219 224 244
0.291342 -0.39666 -0.601 196 203 222
0.31476 -0.39732 -0.602 200 201 219
0.315907 -0.39732 -0.602 204 205 223
0.3526 -0.39732 -0.602 192 196 221
0.353747 -0.39732 -0.602 192 196 221
0.360627 -0.39732 -0.602 95 121 180
0.372093 -0.39732 -0.602 85 114 172
0.420253 -0.39732 -0.602 84 105 136
0.4386 -0.39732 -0.602 132 154 195
0.450067 -0.39732 -0.602 161 164 181
0.469191 -0.39798 -0.603 117 133 167
0.445589 -0.33528 -0.508 173 124 107
0.459555 -0.32934 -0.499 160 111 96
0.463357 -0.32934 -0.499 164 117 101
0.47001 -0.32934 -0.499 161 116 97
0.472857 -0.33 -0.5 162 117 98
0.0206914 -0.281971 -0.426 197 157 131
0.0351314 -0.280648 -0.424 192 148 121
0.0367467 -0.280648 -0.424 191 147 120
0.044119 -0.28131 -0.425 182 136 112
0.061019 -0.284619 -0.43 169 121 99
0.0845276 -0.29521 -0.446 108 80 77
0.208919 -0.397805 -0.601 202 217 250
0.22838 -0.397805 -0.601 223 225 248
0.258573 -0.398467 -0.602 165 167 188
0.27646 -0.397805 -0.601 110 140 192
0.283329 -0.397805 -0.601 209 211 226
0.287908 -0.397805 -0.601 203 209 231
0.305587 -0.398467 -0.602 105 140 198
0.311948 -0.397805 -0.601 188 201 218
0.32683 -0.397805 -0.601 142 163 206
0.329119 -0.397805 -0.601 60 94 166
0.344001 -0.397805 -0.601 144 169 209
0.35604 -0.398467 -0.602 146 157 185
0.388647 -0.397805 -0.601 44 80 138
0.424134 -0.397805 -0.601 59 102 170
0.451213 -0.398467 -0.602 164 162 183
0.473786 -0.399129 -0.603 168 170 183
0.474934 -0.399129 -0.603 171 173 186
0.482173 -0.398467 -0.602 171 173 186
0.487096 -0.397805 -0.601 67 99 150
0.446643 -0.335586 -0.507 166 119 103
0.448729 -0.334262 -0.505 164 115 100
0.452756 -0.332276 -0.502 162 113 96
0.469069 -0.329629 -0.498 158 113 92
0.0182571 -0.282783 -0.426 200 158 134
0.0375543 -0.281455 -0.424 188 144 117
0.0457381 -0.282119 -0.425 186 140 116
0.05246 -0.283447 -0.427 179 133 109
0.0558438 -0.28411 -0.428 160 114 91
0.0792 -0.292076 -0.44 120 87 80
0.100456 -0.313982 -0.473 93 73 72
0.233714 -0.398286 -0.6 161 174 209
0.247841 -0.39895 -0.601 215 221 243
0.259289 -0.39895 -0.601 190 199 228
0.260867 -0.399613 -0.602 160 169 198
0.275315 -0.39895 -0.601 85 116 181
0.310803 -0.39895 -0.601 134 155 208
0.316 -0.398286 -0.6 203 203 237
0.319429 -0.398286 -0.6 174 178 203
0.326286 -0.398286 -0.6 113 139 190
0.332 -0.398286 -0.6 34 78 153
0.368041 -0.39895 -0.601 35 78 146
0.37033 -0.39895 -0.601 44 87 155
0.372 -0.398286 -0.6 55 95 156
0.39666 -0.39895 -0.601 24 61 132
0.409252 -0.39895 -0.601 171 179 192
0.411542 -0.39895 -0.601 129 134 140
0.416121 -0.39895 -0.601 179 185 207
0.428713 -0.39895 -0.601 28 75 145
0.44474 -0.39895 -0.601 176 180 189
0.460767 -0.39895 -0.601 37 77 146
0.477587 -0.399613 -0.602 170 172 195
0.493462 -0.397622 -0.599 97 119 166
0.447788 -0.347172 -0.523 153 111 97
0.44548 -0.343853 -0.518 156 113 94
0.449826 -0.333896 -0.503 170 123 105
0.452809 -0.332569 -0.501 162 115 97
0.457686 -0.330577 -0.498 162 115 99
0.460531 -0.330577 -0.498 165 116 99
0.469069 -0.330577 -0.498 157 112 91
0.472862 -0.331241 -0.499 159 117 95
0.476667 -0.331905 -0.5 161 116 95
0.491064 -0.337879 -0.509 153 106 90
0.0128429 -0.289586 -0.435 191 154 128
0.0262476 -0.282263 -0.424 193 151 126
0.0326314 -0.281597 -0.423 197 155 130
0.0334371 -0.281597 -0.423 199 155 130
0.0367467 -0.282263 -0.424 188 144 117
0.0391695 -0.282263 -0.424 190 146 119
0.0836781 -0.296909 -0.446 105 80 76
0.0948048 -0.308226 -0.463 95 70 74
0.0963067 -0.310223 -0.466 92 71 70
0.168571 -0.399429 -0.6 180 197 227
0.22 -0.399429 -0.6 229 230 250
0.223429 -0.399429 -0.6 227 231 255
0.246286 -0.399429 -0.6 182 197 226
0.247429 -0.399429 -0.6 212 220 243
0.263868 -0.400094 -0.601 135 154 194
0.265012 -0.400094 -0.601 95 124 180
0.267302 -0.400094 -0.601 82 113 180
0.289714 -0.399429 -0.6 202 210 233
0.293143 -0.399429 -0.6 113 131 171
0.306857 -0.399429 -0.6 115 146 210
0.361714 -0.399429 -0.6 41 82 148
0.381143 -0.399429 -0.6 155 163 176
0.383429 -0.399429 -0.6 155 161 173
0.388 -0.399429 -0.6 116 139 171
0.402857 -0.399429 -0.6 90 133 201
0.436 -0.399429 -0.6 101 123 162
0.437143 -0.399429 -0.6 101 123 162
0.455429 -0.399429 -0.6 34 68 129
0.457714 -0.399429 -0.6 27 56 122
0.465346 -0.400094 -0.601 43 72 128
0.46649 -0.400094 -0.601 46 75 131
0.489714 -0.399429 -0.6 105 129 175
0.473812 -0.332191 -0.499 158 116 94
0.493 -0.339514 -0.51 147 105 89
0.0135143 -0.287076 -0.43 197 157 132
0.0214019 -0.28307 -0.424 196 154 129
0.0229629 -0.282403 -0.423 196 154 129
0.0269914 -0.282403 -0.423 199 157 132
0.0277971 -0.282403 -0.423 199 157 132
0.03666 -0.282403 -0.423 188 144 117
0.0516467 -0.285073 -0.427 178 130 108
0.0576086 -0.286409 -0.429 173 119 107
0.0628029 -0.287744 -0.431 165 114 97
0.0652657 -0.287744 -0.431 155 109 94
0.0805838 -0.295755 -0.443 113 83 75
0.0873867 -0.301764 -0.452 104 79 75
0.09372 -0.30844 -0.462 92 71 68
0.232184 -0.399904 -0.599 153 175 216
0.249714 -0.400571 -0.6 221 224 243
0.296571 -0.400571 -0.6 102 133 197
0.301143 -0.400571 -0.6 63 101 166
0.309143 -0.400571 -0.6 97 123 180
0.312571 -0.400571 -0.6 134 154 187
0.369714 -0.400571 -0.6 56 104 176
0.37138 -0.399904 -0.599 84 124 194
0.415877 -0.399904 -0.599 177 183 199
0.435273 -0.399904 -0.599 106 126 161
0.476793 -0.401239 -0.601 172 175 190
0.45381 -0.33381 -0.5 163 116 96
0.459583 -0.332474 -0.498 168 119 102
0.462429 -0.332474 -0.498 168 121 103
0.0119867 -0.290573 -0.434 197 156 134
0.0142667 -0.286556 -0.428 199 159 134
0.0166343 -0.285217 -0.426 200 158 133
0.0342429 -0.283209 -0.423 194 150 125
0.0351314 -0.283878 -0.424 192 148 123
0.0407848 -0.283878 -0.424 190 146 119
0.044119 -0.284548 -0.425 189 143 117
0.0532733 -0.285887 -0.427 173 124 107
0.0654171 -0.289234 -0.432 155 109 96
0.257285 -0.401045 -0.599 207 213 239
0.258857 -0.401714 -0.6 211 217 249
0.280104 -0.401045 -0.599 168 174 210
0.308628 -0.401045 -0.599 79 108 164
0.320037 -0.401045 -0.599 106 115 158
0.329165 -0.401045 -0.599 34 75 155
0.342856 -0.401045 -0.599 138 167 225
0.351984 -0.401045 -0.599 171 178 196
0.361111 -0.401045 -0.599 59 106 178
0.375944 -0.401045 -0.599 186 191 211
0.38215 -0.400375 -0.598 133 147 150
0.396481 -0.401045 -0.599 33 67 141
0.398763 -0.401045 -0.599 35 70 138
0.43185 -0.401045 -0.599 67 107 168
0.444401 -0.401045 -0.599 171 178 186
0.447435 -0.340788 -0.509 169 119 96
0.447609 -0.339449 -0.507 166 118 95
0.45072 -0.33744 -0.504 173 124 107
0.466233 -0.332753 -0.497 164 117 97
0.483354 -0.336101 -0.502 152 109 90
0.0142333 -0.2867 -0.427 196 156 131
0.0449286 -0.285357 -0.425 187 141 115
0.0584257 -0.288043 -0.429 169 117 103
0.07068 -0.2914 -0.434 142 99 90
0.0736657 -0.293414 -0.437 131 93 84
0.0852857 -0.302143 -0.45 101 82 78
0.221545 -0.401514 -0.598 230 230 254
0.223823 -0.401514 -0.598 224 226 251
0.25158 -0.402186 -0.599 220 220 244
0.252721 -0.402186 -0.599 216 216 240
0.295583 -0.401514 -0.598 59 97 162
0.301278 -0.401514 -0.598 43 91 163
0.305834 -0.401514 -0.598 60 96 174
0.31039 -0.401514 -0.598 126 141 180
0.316614 -0.402186 -0.599 191 196 218
0.320037 -0.402186 -0.599 149 161 187
0.321781 -0.401514 -0.598 142 163 194
0.342856 -0.402186 -0.599 170 193 234
0.354266 -0.402186 -0.599 184 190 202
0.367343 -0.401514 -0.598 63 101 174
0.369621 -0.401514 -0.598 66 104 177
0.379872 -0.401514 -0.598 183 187 199
0.381011 -0.401514 -0.598 187 189 204
0.385568 -0.401514 -0.598 118 129 161
0.409488 -0.401514 -0.598 178 188 200
0.410627 -0.401514 -0.598 178 188 200
0.420441 -0.402186 -0.599 75 101 136
0.425434 -0.401514 -0.598 77 110 163
0.465714 -0.402857 -0.6 86 104 142
0.468 -0.402857 -0.6 60 78 116
0.47107 -0.403529 -0.601 77 95 131
0.488082 -0.401514 -0.598 102 125 166
0.49036 -0.401514 -0.598 114 133 175
0.479443 -0.379357 -0.565 127 102 98
0.449306 -0.348471 -0.519 149 110 95
0.448559 -0.347129 -0.517 149 110 95
0.454762 -0.335714 -0.5 165 117 97
0.460531 -0.334371 -0.498 169 121 101
0.465287 -0.3337 -0.497 166 120 97
0.496887 -0.3431 -0.511 151 110 92
0.01342 -0.287513 -0.427 195 154 132
0.0326314 -0.28482 -0.423 187 143 116
0.0383619 -0.285493 -0.424 191 145 119
0.0654171 -0.29088 -0.432 155 107 93
0.0690267 -0.292227 -0.434 144 102 90
0.0777 -0.29694 -0.441 117 87 79
0.0932419 -0.312427 -0.464 93 73 74
0.0947343 -0.314447 -0.467 90 70 71
0.156619 -0.402653 -0.598 235 237 255
0.244326 -0.402653 -0.598 133 155 194
0.248882 -0.402653 -0.598 214 220 244
0.256855 -0.402653 -0.598 137 150 182
0.29054 -0.40198 -0.597 105 126 169
0.305834 -0.402653 -0.598 69 105 179
0.321243 -0.40198 -0.597 177 193 219
0.32238 -0.40198 -0.597 157 173 199
0.345701 -0.402653 -0.598 186 193 211
0.34684 -0.402653 -0.598 189 196 214
0.35937 -0.402653 -0.598 77 115 188
0.363317 -0.40198 -0.597 62 103 165
0.37014 -0.40198 -0.597 64 102 173
0.372414 -0.40198 -0.597 160 180 217
0.428134 -0.40198 -0.597 116 142 191
0.430409 -0.40198 -0.597 81 111 165
0.440242 -0.402653 -0.598 175 179 188
0.485475 -0.403327 -0.599 115 131 164
0.493261 -0.401307 -0.596 81 102 145
0.44976 -0.33936 -0.504 171 124 104
0.458634 -0.33532 -0.498 172 124 104
0.47286 -0.334647 -0.497 163 117 94
0.481429 -0.336667 -0.5 154 111 92
0.494942 -0.342727 -0.509 151 110 90
0.0133886 -0.287651 -0.426 195 155 130
0.0367467 -0.286301 -0.424 187 141 115
0.0433095 -0.286976 -0.425 186 140 114
0.0682 -0.293053 -0.434 141 99 87
0.074839 -0.29643 -0.439 126 89 80
0.0778762 -0.298455 -0.442 114 84 76
0.0883533 -0.308584 -0.457 93 75 73
0.09514 -0.316687 -0.469 91 71 73
0.216626 -0.403117 -0.597 187 200 232
0.235213 -0.403792 -0.598 116 143 198
0.26255 -0.403792 -0.598 95 117 167
0.289403 -0.403117 -0.597 175 189 218
0.299637 -0.403117 -0.597 51 91 163
0.305323 -0.403117 -0.597 80 119 186
0.328066 -0.403117 -0.597 43 82 151
0.353674 -0.403792 -0.598 181 188 198
0.363317 -0.403117 -0.597 69 109 170
0.374689 -0.403117 -0.597 176 185 200
0.38606 -0.403117 -0.597 72 92 129
0.40994 -0.403117 -0.597 177 187 197
0.44252 -0.403792 -0.598 175 174 190
0.444798 -0.403792 -0.598 173 174 192
0.458467 -0.403792 -0.598 103 119 153
0.486943 -0.403792 -0.598 79 100 143
0.448786 -0.347748 -0.515 156 117 102
0.452809 -0.338294 -0.501 171 124 104
0.455753 -0.336944 -0.499 167 119 99
0.457686 -0.336269 -0.498 166 118 98
0.4757 -0.335593 -0.497 157 114 95
0.49009 -0.340995 -0.505 151 110 90
0.50862 -0.350449 -0.519 149 111 92
0.0302143 -0.286431 -0.423 194 150 125
0.0334371 -0.286431 -0.423 191 147 122
0.0342429 -0.286431 -0.423 192 148 123
0.0425 -0.287786 -0.425 185 139 113
0.0576086 -0.290494 -0.429 161 112 95
0.0871 -0.3081 -0.455 94 76 74
0.0953429 -0.318257 -0.47 92 72 74
0.15522 -0.404254 -0.597 234 237 254
0.201843 -0.404254 -0.597 101 125 185
0.26666 -0.404254 -0.597 76 103 170
0.315557 -0.404254 -0.597 198 203 222
0.318969 -0.404254 -0.597 197 200 219
0.327516 -0.403577 -0.596 47 83 143
0.376331 -0.403577 -0.596 178 187 204
0.429688 -0.403577 -0.596 91 113 162
0.450493 -0.404931 -0.598 118 129 157
0.453151 -0.404254 -0.597 118 130 154
0.4577 -0.404254 -0.597 113 125 151
0.486129 -0.404254 -0.597 76 98 139
0.487266 -0.404254 -0.597 80 102 143
0.487585 -0.403577 -0.596 85 106 149
0.471566 -0.373783 -0.552 135 104 99
0.451772 -0.354146 -0.523 146 109 100
0.449097 -0.346697 -0.512 164 117 99
0.448574 -0.343311 -0.507 166 119 101
0.45381 -0.338571 -0.5 171 124 104
0.470014 -0.335186 -0.495 167 120 100
0.472853 -0.335863 -0.496 156 113 94
0.481416 -0.337894 -0.499 154 113 93
0.00790762 -0.296744 -0.437 199 157 132
0.0204486 -0.285879 -0.421 198 154 129
0.0301429 -0.286558 -0.422 191 149 124
0.0619819 -0.29267 -0.431 158 109 94
0.0645943 -0.293349 -0.432 153 107 94
0.0655686 -0.294028 -0.433 150 104 91
0.0663933 -0.294028 -0.433 144 100 89
0.233291 -0.404712 -0.596 105 136 191
0.23482 -0.405391 -0.597 99 131 188
0.237832 -0.404712 -0.596 94 129 187
0.246914 -0.404712 -0.596 172 188 221
0.260974 -0.405391 -0.597 133 155 202
0.272346 -0.405391 -0.597 71 100 168
0.296865 -0.404712 -0.596 75 119 190
0.317299 -0.404712 -0.596 193 204 226
0.31957 -0.404712 -0.596 189 194 213
0.333192 -0.404712 -0.596 74 109 175
0.340004 -0.404712 -0.596 78 106 156
0.383143 -0.404712 -0.596 94 109 138
0.384278 -0.404712 -0.596 63 83 118
0.392225 -0.404712 -0.596 108 127 157
0.403577 -0.404712 -0.596 60 76 110
0.408118 -0.404712 -0.596 173 181 192
0.421741 -0.404712 -0.596 98 121 163
0.422876 -0.404712 -0.596 110 133 175
0.425147 -0.404712 -0.596 127 151 195
0.43877 -0.404712 -0.596 168 169 189
0.442917 -0.405391 -0.597 166 171 191
0.487585 -0.404712 -0.596 79 101 142
0.492126 -0.404712 -0.596 77 103 152
0.493567 -0.404033 -0.595 67 88 133
0.45924 -0.362611 -0.534 141 108 99
0.450529 -0.351068 -0.517 153 114 99
0.449097 -0.347672 -0.512 164 117 99
0.453852 -0.338845 -0.499 171 124 104
0.482367 -0.338845 -0.499 152 114 93
0.560466 -0.380946 -0.561 150 129 110
0.00939714 -0.292129 -0.429 199 160 131
0.0117657 -0.290086 -0.426 197 158 129
0.0466571 -0.290086 -0.426 181 136 107
0.0628029 -0.29349 -0.431 152 104 90
0.0784048 -0.303024 -0.445 111 82 78
0.0841286 -0.308471 -0.453 100 76 72
0.0963571 -0.323452 -0.475 96 75 82
0.15269 -0.405848 -0.596 233 238 255
0.234427 -0.405848 -0.596 86 121 179
0.242373 -0.405848 -0.596 111 147 199
0.25259 -0.405848 -0.596 206 210 235
0.2839 -0.405167 -0.595 208 213 232
0.316164 -0.405848 -0.596 188 201 218
0.3247 -0.405167 -0.595 71 98 153
0.3281 -0.405167 -0.595 65 96 143
0.341139 -0.405848 -0.596 63 92 148
0.364979 -0.405848 -0.596 105 135 185
0.384278 -0.405848 -0.596 70 89 122
0.387684 -0.405848 -0.596 112 131 161
0.400171 -0.405848 -0.596 113 125 147
0.417633 -0.405167 -0.595 149 157 178
0.464523 -0.406529 -0.597 163 171 192
0.46566 -0.406529 -0.597 160 168 189
0.469071 -0.406529 -0.597 165 167 190
0.47362 -0.406529 -0.597 65 80 113
0.454364 -0.358181 -0.526 146 110 98
0.453891 -0.339114 -0.498 171 124 104
0.456767 -0.338433 -0.497 171 124 104
0.462461 -0.337752 -0.496 167 119 99
0.470014 -0.337071 -0.495 167 120 100
0.488135 -0.341838 -0.502 148 110 89
0.0157114 -0.288849 -0.423 197 156 126
0.0204486 -0.287483 -0.421 197 156 128
0.0342429 -0.288849 -0.423 191 147 118
0.0358543 -0.288849 -0.423 190 144 118
0.0449286 -0.290214 -0.425 182 135 109
0.056659 -0.292263 -0.428 162 110 96
0.061019 -0.293629 -0.43 161 110 93
0.0655686 -0.295677 -0.433 148 102 89
0.150671 -0.407666 -0.597 210 217 245
0.228367 -0.4063 -0.595 129 153 197
0.265078 -0.406983 -0.596 85 113 176
0.3247 -0.4063 -0.595 78 103 159
0.342833 -0.4063 -0.595 115 139 185
0.346233 -0.4063 -0.595 187 187 197
0.350767 -0.4063 -0.595 186 189 196
0.3553 -0.4063 -0.595 121 143 180
0.3587 -0.4063 -0.595 113 134 179
0.3927 -0.4063 -0.595 130 141 171
0.400633 -0.4063 -0.595 123 139 165
0.433903 -0.405617 -0.594 164 175 195
0.435034 -0.405617 -0.594 164 175 195
0.441433 -0.4063 -0.595 115 125 152
0.479638 -0.406983 -0.596 157 165 188
0.479967 -0.4063 -0.595 162 166 191
0.452897 -0.356451 -0.522 145 106 91
0.453891 -0.356451 -0.522 145 106 91
0.449974 -0.350306 -0.513 158 115 96
0.45484 -0.340063 -0.498 173 127 104
0.466243 -0.338014 -0.495 166 120 97
0.468129 -0.338014 -0.495 167 121 97
0.489091 -0.342794 -0.502 148 110 89
0.501753 -0.34894 -0.511 148 112 90
0.515537 -0.356451 -0.522 150 107 88
0.574807 -0.389911 -0.571 194 185 180
0.579929 -0.392643 -0.575 188 188 186
0.0109029 -0.290339 -0.424 199 160 131
0.02526 -0.288285 -0.421 198 154 127
0.0268638 -0.288285 -0.421 195 151 124
0.0382714 -0.289654 -0.423 190 144 118
0.0449286 -0.291024 -0.425 181 134 108
0.0499029 -0.291709 -0.426 173 127 103
0.0516467 -0.292393 -0.427 171 123 101
0.0542133 -0.293078 -0.428 172 121 104
0.059381 -0.294448 -0.43 160 107 93
0.0703362 -0.299241 -0.437 129 92 84
0.078581 -0.305404 -0.446 112 83 77
0.0857419 -0.312936 -0.457 100 75 71
0.150419 -0.408118 -0.596 174 183 216
0.1989 -0.407433 -0.595 104 130 189
0.245367 -0.407433 -0.595 209 219 246
0.275967 -0.407433 -0.595 169 182 226
0.291343 -0.406749 -0.594 95 136 190
0.30492 -0.406749 -0.594 92 121 179
0.32076 -0.406749 -0.594 81 102 145
0.32868 -0.406749 -0.594 108 127 160
0.349633 -0.407433 -0.595 186 188 201
0.3519 -0.407433 -0.595 184 187 196
0.363233 -0.407433 -0.595 118 146 193
0.364367 -0.407433 -0.595 109 136 181
0.375069 -0.406749 -0.594 177 183 205
0.451257 -0.408118 -0.596 164 169 188
0.479967 -0.407433 -0.595 154 160 182
0.482233 -0.407433 -0.595 137 148 178
0.454761 -0.35813 -0.523 142 105 96
0.450652 -0.345805 -0.505 168 121 101
0.45168 -0.34512 -0.504 168 121 101
0.45484 -0.341011 -0.498 174 128 105
0.491024 -0.344435 -0.503 147 109 86
0.49979 -0.348544 -0.509 150 112 89
0.0109029 -0.291147 -0.424 200 158 133
0.0276657 -0.289087 -0.421 194 150 123
0.0350486 -0.29046 -0.423 190 146 117
0.04828 -0.29252 -0.426 176 128 106
0.0584257 -0.29458 -0.429 159 107 93
0.0703362 -0.300073 -0.437 128 91 85
0.0915667 -0.322047 -0.469 92 71 70
0.242691 -0.40788 -0.594 149 169 206
0.246086 -0.40788 -0.594 214 220 246
0.27324 -0.40788 -0.594 81 111 171
0.356966 -0.40788 -0.594 94 119 159
0.36036 -0.40788 -0.594 117 149 200
0.369919 -0.407193 -0.593 179 187 210
0.376696 -0.407193 -0.593 158 166 185
0.378955 -0.407193 -0.593 98 110 134
0.393833 -0.408567 -0.595 128 135 153
0.411274 -0.40788 -0.594 164 175 197
0.426395 -0.407193 -0.593 71 98 145
0.436561 -0.407193 -0.593 155 167 183
0.442954 -0.40788 -0.594 78 99 142
0.445217 -0.40788 -0.594 145 158 190
0.454269 -0.40788 -0.594 161 167 181
0.473167 -0.408567 -0.595 111 123 145
0.490474 -0.40788 -0.594 71 101 155
0.467152 -0.372173 -0.542 133 106 99
0.466242 -0.339213 -0.494 167 121 98
0.469065 -0.339213 -0.494 167 121 98
0.479467 -0.340587 -0.496 155 113 89
0.487143 -0.343333 -0.5 150 109 87
1.00333 -0.392087 -0.571 204 206 192
1.00442 -0.392087 -0.571 204 206 192
0.016439 -0.289889 -0.421 197 154 122
0.0228 -0.2892 -0.42 197 153 126
0.0693448 -0.300217 -0.436 129 90 83
0.0724952 -0.302971 -0.44 122 87 83
0.0735 -0.30366 -0.441 121 86 82
0.075521 -0.305037 -0.443 118 83 79
0.0890143 -0.320186 -0.465 94 70 70
0.0964571 -0.330514 -0.48 94 74 76
0.14652 -0.409011 -0.594 127 147 198
0.200829 -0.409011 -0.594 118 140 197
0.23364 -0.409011 -0.594 93 135 185
0.322479 -0.408323 -0.593 110 140 190
0.337731 -0.409011 -0.594 139 154 183
0.36653 -0.408323 -0.593 111 133 182
0.381214 -0.408323 -0.593 175 184 213
0.4151 -0.408323 -0.593 163 171 192
0.424136 -0.408323 -0.593 99 127 175
0.428654 -0.408323 -0.593 82 101 143
0.441823 -0.409011 -0.594 81 99 139
0.449743 -0.409011 -0.594 169 173 182
0.48708 -0.409011 -0.594 47 74 129
0.490474 -0.409011 -0.594 65 96 151
0.451394 -0.349794 -0.508 166 123 104
0.451545 -0.348417 -0.506 167 122 101
0.456767 -0.34222 -0.497 173 126 106
0.927195 -0.393174 -0.571 207 209 196
0.92937 -0.393174 -0.571 207 209 196
0.930458 -0.393174 -0.571 206 208 195
0.012459 -0.291381 -0.422 197 157 122
0.0398829 -0.292071 -0.423 185 139 115
0.0508333 -0.294833 -0.427 172 121 104
0.059381 -0.296905 -0.43 155 109 94
0.0852429 -0.316929 -0.459 94 69 72
0.147651 -0.410143 -0.594 161 181 218
0.22421 -0.409452 -0.593 184 191 207
0.264873 -0.409452 -0.593 121 143 184
0.325868 -0.409452 -0.593 167 182 213
0.326997 -0.409452 -0.593 172 187 218
0.349588 -0.409452 -0.593 188 186 210
0.352976 -0.409452 -0.593 182 183 201
0.358624 -0.409452 -0.593 91 122 168
0.397697 -0.410143 -0.594 171 177 199
0.408323 -0.409452 -0.593 71 90 123
0.411711 -0.409452 -0.593 118 133 166
0.412841 -0.409452 -0.593 154 165 193
0.418489 -0.409452 -0.593 124 139 178
0.43357 -0.408762 -0.592 167 173 195
0.445597 -0.409452 -0.593 164 168 177
0.450874 -0.410143 -0.594 102 105 112
0.459151 -0.409452 -0.593 152 153 157
0.464451 -0.410143 -0.594 159 166 174
0.465929 -0.409452 -0.593 159 167 178
0.469317 -0.409452 -0.593 160 166 180
0.492206 -0.408762 -0.592 28 54 111
0.460706 -0.366643 -0.531 143 109 100
0.451614 -0.34869 -0.505 167 122 101
0.45168 -0.348 -0.504 166 121 100
0.45582 -0.343167 -0.497 173 126 106
0.461529 -0.341786 -0.495 171 125 102
0.466242 -0.341095 -0.494 159 113 90
0.00848 -0.29357 -0.424 199 158 126
0.0100476 -0.292185 -0.422 198 157 125
0.0164 -0.2908 -0.42 198 155 121
0.0308733 -0.291492 -0.421 189 142 114
0.0474686 -0.294954 -0.426 171 119 98
0.0558438 -0.296339 -0.428 165 118 102
0.061161 -0.298416 -0.431 147 100 90
0.0746771 -0.306725 -0.443 112 83 79
0.0881286 -0.321957 -0.465 93 71 74
0.268262 -0.410582 -0.593 154 169 202
0.27232 -0.40989 -0.592 102 130 177
0.29149 -0.40989 -0.592 107 129 168
0.299383 -0.40989 -0.592 152 180 219
0.308404 -0.40989 -0.592 191 200 217
0.31517 -0.40989 -0.592 190 197 215
0.318552 -0.40989 -0.592 105 124 157
0.32419 -0.40989 -0.592 166 178 204
0.329829 -0.40989 -0.592 123 133 158
0.333211 -0.40989 -0.592 187 189 210
0.365912 -0.40989 -0.592 99 124 164
0.378316 -0.40989 -0.592 91 109 149
0.39138 -0.410582 -0.593 162 169 185
0.397028 -0.410582 -0.593 170 177 196
0.398157 -0.410582 -0.593 167 175 186
0.404251 -0.40989 -0.592 162 170 191
0.405379 -0.40989 -0.592 140 155 178
0.415528 -0.40989 -0.592 152 162 189
0.43357 -0.40989 -0.592 159 168 197
0.442209 -0.410582 -0.593 155 164 193
0.472706 -0.410582 -0.593 154 159 178
0.493333 -0.40989 -0.592 39 69 121
0.480081 -0.385656 -0.557 131 104 95
0.456629 -0.362808 -0.524 149 109 99
0.451394 -0.35173 -0.508 163 121 99
0.452437 -0.351037 -0.507 167 122 99
0.46436 -0.342036 -0.494 162 116 93
0.469054 -0.341344 -0.493 169 123 100
0.48422 -0.344113 -0.497 151 113 90
0.508603 -0.355191 -0.513 147 111 89
0.00528667 -0.29646 -0.427 196 155 123
0.0108257 -0.292294 -0.421 198 157 127
0.026 -0.2916 -0.42 191 147 118
0.0324771 -0.292294 -0.421 190 144 118
0.0341619 -0.292989 -0.422 190 144 120
0.0349657 -0.292989 -0.422 192 146 120
0.044119 -0.295071 -0.425 180 132 109
0.212556 -0.411017 -0.592 156 168 206
0.228343 -0.411017 -0.592 125 159 204
0.231726 -0.411017 -0.592 140 172 221
0.236236 -0.411017 -0.592 139 171 212
0.240747 -0.411017 -0.592 147 179 218
0.24864 -0.411017 -0.592 215 220 239
0.255406 -0.411017 -0.592 140 151 183
0.344488 -0.411017 -0.592 74 89 130
0.34787 -0.411017 -0.592 164 179 210
0.368168 -0.411017 -0.592 158 170 186
0.373806 -0.411017 -0.592 95 110 131
0.394103 -0.411017 -0.592 168 174 188
0.420454 -0.410323 -0.591 56 83 136
0.424957 -0.410323 -0.591 48 75 130
0.435089 -0.410323 -0.591 84 104 141
0.44259 -0.411017 -0.592 163 166 181
0.452739 -0.411017 -0.592 163 163 175
0.464799 -0.411711 -0.593 162 164 176
0.488823 -0.411017 -0.592 18 48 102
0.491374 -0.410323 -0.591 18 51 105
0.465044 -0.372137 -0.536 141 108 99
0.461717 -0.368666 -0.531 142 109 100
0.466242 -0.342977 -0.494 165 119 96
0.468124 -0.342977 -0.494 165 119 96
0.477533 -0.342977 -0.494 157 115 91
0.485167 -0.34506 -0.497 152 111 89
0.501689 -0.352003 -0.507 146 109 90
0.979222 -0.395049 -0.569 204 207 190
0.985725 -0.395049 -0.569 204 207 190
0.992228 -0.395049 -0.569 204 207 190
0.993311 -0.395049 -0.569 204 207 190
1.01607 -0.395049 -0.569 205 207 193
0.00288 -0.300754 -0.432 181 141 115
0.0156 -0.2924 -0.42 200 159 129
0.03 -0.2924 -0.42 188 144 117
0.0474686 -0.296577 -0.426 174 118 101
0.06034 -0.300058 -0.431 148 102 89
0.0819 -0.316767 -0.455 95 74 73
0.0872429 -0.323729 -0.465 90 71 73
0.0931286 -0.332083 -0.477 91 75 78
0.096339 -0.336956 -0.484 96 77 81
0.148282 -0.412145 -0.592 221 233 255
0.290997 -0.411449 -0.591 121 139 175
0.2955 -0.411449 -0.591 131 164 205
0.318014 -0.411449 -0.591 185 192 220
0.324769 -0.411449 -0.591 187 194 213
0.3349 -0.411449 -0.591 182 190 211
0.339403 -0.411449 -0.591 183 190 209
0.351786 -0.411449 -0.591 179 186 215
0.370923 -0.411449 -0.591 142 148 174
0.379929 -0.411449 -0.591 169 174 193
0.399066 -0.411449 -0.591 163 166 171
0.411449 -0.411449 -0.591 66 82 116
0.447471 -0.411449 -0.591 111 114 119
0.481243 -0.411449 -0.591 31 60 116
0.487838 -0.394044 -0.566 126 101 94
0.457627 -0.364804 -0.524 146 108 97
0.486113 -0.346007 -0.497 150 109 87
0.48804 -0.346703 -0.498 150 109 87
0.492889 -0.348791 -0.501 151 113 92
0.97101 -0.395436 -0.568 205 207 193
0.00206667 -0.302973 -0.434 191 151 125
0.00446286 -0.297389 -0.426 193 154 125
0.0124 -0.2932 -0.42 196 155 125
0.0203029 -0.291804 -0.418 197 153 126
0.0432076 -0.295992 -0.424 181 135 111
0.0466571 -0.297389 -0.426 170 122 99
0.0542133 -0.298785 -0.428 167 115 101
0.07182 -0.30786 -0.441 111 83 79
0.144899 -0.413272 -0.592 194 211 241
0.230209 -0.412574 -0.591 175 198 242
0.243717 -0.412574 -0.591 218 216 237
0.323643 -0.412574 -0.591 184 192 211
0.336581 -0.411876 -0.59 183 190 206
0.349534 -0.412574 -0.591 151 164 196
0.360791 -0.412574 -0.591 70 109 168
0.406257 -0.411876 -0.59 156 165 182
0.432105 -0.411876 -0.59 38 68 118
0.435476 -0.411876 -0.59 112 133 176
0.441843 -0.412574 -0.591 166 166 178
0.442969 -0.412574 -0.591 166 166 178
0.473363 -0.412574 -0.591 136 142 156
0.479305 -0.411876 -0.59 34 59 116
0.495038 -0.411876 -0.59 30 59 115
0.461857 -0.36999 -0.53 147 109 100
0.453252 -0.35533 -0.509 162 120 98
0.453658 -0.351142 -0.503 166 121 100
0.45484 -0.347651 -0.498 166 121 98
0.45582 -0.346953 -0.497 167 122 99
0.465298 -0.344161 -0.493 166 120 97
0.476567 -0.344161 -0.493 162 117 96
0.488989 -0.347651 -0.498 153 112 90
0.517507 -0.361613 -0.518 145 108 89
0.960191 -0.396518 -0.568 206 209 192
0.962354 -0.396518 -0.568 205 208 191
0.97254 -0.39582 -0.567 204 206 192
0.989402 -0.396518 -0.568 204 207 190
0.0179143 -0.2926 -0.418 202 158 131
0.0235438 -0.2933 -0.419 197 154 122
0.0308 -0.294 -0.42 191 147 120
0.038181 -0.2954 -0.422 183 137 114
0.06034 -0.3017 -0.431 149 101 87
0.0798143 -0.3171 -0.453 97 76 75
0.0836762 -0.322 -0.46 92 71 70
0.0861714 -0.3248 -0.464 91 71 72
0.0956143 -0.3395 -0.485 96 77 79
0.146027 -0.4144 -0.592 186 200 235
0.221203 -0.4137 -0.591 225 217 238
0.326467 -0.413 -0.59 184 191 209
0.382657 -0.413 -0.59 172 180 193
0.384905 -0.413 -0.59 129 134 140
0.388276 -0.413 -0.59 171 176 182
0.417495 -0.413 -0.59 60 86 143
0.426486 -0.413 -0.59 14 46 105
0.444467 -0.413 -0.59 103 103 103
0.464695 -0.413 -0.59 117 120 127
0.468067 -0.413 -0.59 156 154 159
0.453712 -0.3514 -0.502 166 121 100
0.454803 -0.3493 -0.499 170 125 104
0.45582 -0.3479 -0.497 171 124 104
0.458682 -0.3472 -0.496 168 121 101
0.462478 -0.3458 -0.494 170 124 101
0.467176 -0.3451 -0.493 170 124 100
0.956945 -0.3976 -0.568 206 208 194
1.00494 -0.3969 -0.567 204 206 192
1.00602 -0.3969 -0.567 203 205 191
1.03194 -0.3969 -0.567 203 205 192
0.00123143 -0.302521 -0.431 194 154 128
0.00523714 -0.296906 -0.423 196 157 128
0.0650429 -0.305329 -0.435 134 96 85
0.344986 -0.413422 -0.589 130 141 171
0.348351 -0.413422 -0.589 93 107 144
0.37079 -0.413422 -0.589 87 101 136
0.379286 -0.414124 -0.59 173 176 191
0.383781 -0.414124 -0.59 151 155 167
0.38874 -0.413422 -0.589 132 143 161
0.410056 -0.413422 -0.589 148 159 191
0.415666 -0.413422 -0.589 34 65 120
0.44559 -0.414124 -0.59 148 147 153
0.45381 -0.413422 -0.589 90 101 131
0.454932 -0.413422 -0.589 81 92 122
0.484102 -0.413422 -0.589 37 68 115
0.495321 -0.413422 -0.589 79 103 139
0.458863 -0.366394 -0.522 150 110 98
0.458682 -0.348145 -0.496 167 122 101
0.460596 -0.346741 -0.494 171 125 102
0.465298 -0.346039 -0.493 170 124 100
0.468115 -0.346039 -0.493 172 126 102
0.969747 -0.397278 -0.566 204 206 192
0.974059 -0.397278 -0.566 205 208 191
1.00494 -0.39798 -0.567 204 206 193
1.01682 -0.39798 -0.567 202 204 191
1.01898 -0.39798 -0.567 202 204 191
-0.00126571 -0.311788 -0.443 188 151 124
0.000410476 -0.303342 -0.431 193 154 125
0.00122286 -0.30123 -0.428 193 154 125
0.00283333 -0.299119 -0.425 195 156 127
0.033279 -0.296304 -0.421 186 142 117
0.0490914 -0.299823 -0.426 171 120 99
0.0613029 -0.304046 -0.432 136 97 82
0.0660229 -0.306861 -0.436 128 92 80
0.07098 -0.31038 -0.441 108 80 77
0.08404 -0.32516 -0.462 93 71 73
0.0898343 -0.333606 -0.474 91 71 72
0.217457 -0.415248 -0.59 206 208 223
0.221952 -0.415248 -0.59 219 221 242
0.358449 -0.414544 -0.589 56 92 154
0.39928 -0.41384 -0.588 102 103 107
0.40712 -0.41384 -0.588 154 156 171
0.41272 -0.41384 -0.588 43 67 115
0.436982 -0.414544 -0.589 142 159 189
0.472883 -0.414544 -0.589 138 144 170
0.481858 -0.414544 -0.589 76 100 144
0.459623 -0.368796 -0.524 149 111 100
0.455789 -0.350497 -0.498 166 119 99
0.463419 -0.347682 -0.494 167 121 98
0.46436 -0.347682 -0.494 172 126 103
0.473698 -0.34557 -0.491 166 120 97
0.960044 -0.398356 -0.566 205 207 193
0.979449 -0.398356 -0.566 205 208 191
1.00209 -0.398356 -0.566 204 206 193
1.00317 -0.398356 -0.566 204 206 193
1.00425 -0.398356 -0.566 204 206 193
1.01826 -0.398356 -0.566 202 204 191
0.0235438 -0.295694 -0.419 195 154 122
0.0292 -0.2964 -0.42 190 146 119
0.0308 -0.2964 -0.42 188 144 117
0.0365733 -0.297811 -0.422 181 135 109
0.0406886 -0.298517 -0.423 178 130 108
0.0465476 -0.299929 -0.425 171 120 101
0.06324 -0.30628 -0.434 135 97 86
0.0679943 -0.309103 -0.438 120 87 80
0.0691429 -0.310514 -0.44 116 85 82
0.0844038 -0.327451 -0.464 91 71 72
0.212601 -0.415666 -0.589 174 189 220
0.249624 -0.415666 -0.589 109 120 150
0.355083 -0.415666 -0.589 65 97 148
0.36232 -0.41496 -0.588 35 71 131
0.36456 -0.41496 -0.588 74 111 166
0.378643 -0.415666 -0.589 172 176 188
0.40264 -0.41496 -0.588 136 143 149
0.434 -0.41496 -0.588 72 98 147
0.44408 -0.41496 -0.588 159 157 171
0.45752 -0.41496 -0.588 146 152 168
0.485224 -0.415666 -0.589 42 69 114
0.460738 -0.369089 -0.523 149 109 99
0.454369 -0.357797 -0.507 165 120 101
0.471851 -0.347211 -0.492 169 123 100
0.473698 -0.346506 -0.491 167 120 100
0.485061 -0.348623 -0.494 161 116 95
0.9622 -0.399434 -0.566 205 207 193
0.999933 -0.399434 -0.566 203 205 191
1.03153 -0.398729 -0.565 203 205 192
0.012341 -0.295785 -0.418 198 158 123
0.0356848 -0.297908 -0.421 181 134 108
0.0465476 -0.300738 -0.425 170 119 98
0.0490914 -0.301446 -0.426 171 120 101
0.06324 -0.307107 -0.434 133 95 84
0.0651924 -0.308522 -0.436 130 93 85
0.0661743 -0.30923 -0.437 128 91 83
0.35336 -0.41608 -0.588 66 98 157
0.414254 -0.415372 -0.587 40 69 125
0.420963 -0.415372 -0.587 27 59 116
0.432144 -0.415372 -0.587 67 89 136
0.44296 -0.41608 -0.588 158 156 169
0.4452 -0.41608 -0.588 162 159 176
0.45227 -0.415372 -0.587 132 138 154
0.45752 -0.41608 -0.588 158 162 174
0.45976 -0.41608 -0.588 155 159 171
0.493639 -0.415372 -0.587 113 125 149
0.495875 -0.415372 -0.587 113 121 142
0.455924 -0.362301 -0.512 163 115 101
0.455753 -0.353102 -0.499 167 122 103
0.46904 -0.348149 -0.492 170 124 101
0.469957 -0.347441 -0.491 170 124 101
0.471851 -0.348149 -0.492 171 125 102
0.479349 -0.348149 -0.492 162 117 96
0.930935 -0.400512 -0.566 205 208 191
0.958348 -0.399805 -0.565 204 206 192
0.967394 -0.399097 -0.564 204 207 190
0.972766 -0.399097 -0.564 205 208 191
1.00355 -0.399805 -0.565 203 205 192
1.02292 -0.399805 -0.565 203 205 192
1.024 -0.399805 -0.565 203 205 192
0.0147295 -0.296581 -0.418 194 153 121
0.0179143 -0.296581 -0.418 194 153 121
0.0195067 -0.296581 -0.418 193 152 120
0.0203029 -0.296581 -0.418 192 151 119
0.0227457 -0.29729 -0.419 191 150 120
0.0235438 -0.29729 -0.419 190 149 119
0.0465476 -0.301548 -0.425 170 120 97
0.0508333 -0.302967 -0.427 162 113 98
0.21224 -0.4172 -0.588 153 163 188
0.22904 -0.4172 -0.588 126 154 194
0.24584 -0.4172 -0.588 122 132 157
0.24808 -0.4172 -0.588 132 144 182
0.344932 -0.41649 -0.587 173 173 183
0.367294 -0.41649 -0.587 36 68 129
0.388538 -0.41649 -0.587 75 93 117
0.433262 -0.41649 -0.587 61 79 119
0.436616 -0.41649 -0.587 114 123 140
0.442207 -0.41649 -0.587 157 155 169
0.443325 -0.41649 -0.587 162 161 177
0.446679 -0.41649 -0.587 160 159 175
0.46345 -0.41649 -0.587 156 158 170
0.456667 -0.354762 -0.5 167 122 103
0.459627 -0.351924 -0.496 171 124 106
0.955119 -0.400881 -0.565 204 206 192
0.9588 -0.400171 -0.564 204 206 192
0.959874 -0.400171 -0.564 204 206 192
0.983509 -0.400171 -0.564 204 207 190
0.989557 -0.400881 -0.565 204 207 190
0.994938 -0.400881 -0.565 204 206 192
