ply
format ascii 1.0
comment Created by Open3D
element vertex 1296
property double x
property double y
property double z
property uchar red
property uchar green
property uchar blue
end_header
0.260535 -0.386928 -0.626 186 189 208
0.278421 -0.386928 -0.626 147 165 215
0.329693 -0.386928 -0.626 110 119 148
0.334463 -0.386928 -0.626 161 167 191
0.350523 -0.387546 -0.627 137 149 187
0.36424 -0.388164 -0.628 169 174 194
0.395274 -0.386928 -0.626 170 170 194
0.418452 -0.38631 -0.625 62 75 107
0.421349 -0.385691 -0.624 79 81 106
0.433727 -0.385073 -0.623 52 87 143
0.4361 -0.385073 -0.623 56 90 136
0.44512 -0.385691 -0.624 84 92 128
0.448686 -0.385691 -0.624 97 104 130
0.484753 -0.385073 -0.623 99 112 147
0.48594 -0.385073 -0.623 99 112 147
0.522908 -0.382601 -0.619 155 158 173
0.45648 -0.31152 -0.504 175 127 105
0.47 -0.309048 -0.5 174 124 101
0.0310114 -0.30132 -0.486 210 169 147
0.0420333 -0.3007 -0.485 197 156 134
0.0525181 -0.30256 -0.488 178 139 122
0.0585714 -0.30504 -0.492 167 124 115
0.0618819 -0.30752 -0.496 156 115 109
0.0640286 -0.30876 -0.498 148 110 107
0.0807238 -0.3224 -0.52 115 91 91
0.100411 -0.34224 -0.552 104 84 85
0.123793 -0.37138 -0.599 188 193 222
0.156047 -0.38626 -0.623 217 222 241
0.160793 -0.38626 -0.623 137 141 168
0.171473 -0.38626 -0.623 166 175 204
0.186011 -0.38688 -0.624 208 214 236
0.1875 -0.3875 -0.625 209 215 237
0.224046 -0.38688 -0.624 192 198 232
0.2375 -0.3875 -0.625 98 116 152
0.242262 -0.3875 -0.625 129 152 194
0.257738 -0.3875 -0.625 189 190 210
0.260119 -0.3875 -0.625 191 193 208
0.267262 -0.3875 -0.625 93 109 145
0.270833 -0.3875 -0.625 162 173 205
0.275595 -0.3875 -0.625 48 79 136
0.277976 -0.3875 -0.625 153 171 219
0.307738 -0.3875 -0.625 102 123 170
0.351717 -0.38874 -0.627 166 172 204
0.384543 -0.38812 -0.626 110 116 138
0.385735 -0.38812 -0.626 111 117 139
0.38869 -0.3875 -0.625 103 109 133
0.465767 -0.38626 -0.623 94 106 132
0.472887 -0.38626 -0.623 163 162 178
0.492269 -0.38564 -0.622 51 77 134
0.495026 -0.38502 -0.621 33 55 113
0.499757 -0.38502 -0.621 48 75 128
0.46018 -0.32178 -0.519 158 116 102
0.458595 -0.3193 -0.515 166 120 107
0.457791 -0.31806 -0.513 167 121 98
0.461429 -0.31 -0.5 182 132 109
0.467159 -0.30938 -0.499 176 126 103
0.0346429 -0.301624 -0.485 203 162 140
0.0437905 -0.301002 -0.484 195 155 129
0.0534476 -0.30349 -0.488 177 131 118
0.0544886 -0.304111 -0.489 173 127 114
0.0606914 -0.307221 -0.494 153 113 105
0.0758762 -0.319659 -0.514 121 95 94
0.100411 -0.343291 -0.552 99 82 88
0.102014 -0.345157 -0.555 100 83 89
0.110393 -0.355108 -0.571 103 92 98
0.14062 -0.387447 -0.623 229 232 251
0.18334 -0.387447 -0.623 161 177 200
0.209447 -0.387447 -0.623 112 121 150
0.222857 -0.388069 -0.624 166 174 210
0.231177 -0.388069 -0.624 195 200 220
0.2704 -0.388069 -0.624 169 180 210
0.308434 -0.388069 -0.624 111 130 173
0.312 -0.388069 -0.624 81 103 150
0.316071 -0.38869 -0.625 166 168 193
0.336848 -0.389312 -0.626 157 163 189
0.341617 -0.389312 -0.626 123 139 165
0.353541 -0.389312 -0.626 157 158 186
0.362466 -0.389934 -0.627 169 175 197
0.392823 -0.388069 -0.624 171 172 190
0.414217 -0.388069 -0.624 163 169 191
0.419487 -0.387447 -0.623 82 84 105
0.42186 -0.387447 -0.623 82 88 112
0.447248 -0.386825 -0.622 146 155 172
0.498574 -0.386203 -0.621 34 60 109
0.507219 -0.385581 -0.62 104 117 161
0.509648 -0.366924 -0.59 124 100 98
0.464383 -0.327122 -0.526 154 115 100
0.46273 -0.325256 -0.523 155 111 98
0.463333 -0.310952 -0.5 186 134 113
0.0255619 -0.304419 -0.488 203 162 142
0.0401029 -0.301924 -0.484 196 155 133
0.0428686 -0.301924 -0.484 195 155 130
0.0543771 -0.304419 -0.488 174 128 115
0.06864 -0.3144 -0.504 133 99 98
0.105442 -0.350581 -0.562 95 78 88
0.160535 -0.38801 -0.622 202 207 227
0.162905 -0.38801 -0.622 219 221 246
0.18334 -0.388633 -0.623 144 163 205
0.1869 -0.388633 -0.623 204 209 231
0.19552 -0.389257 -0.624 206 207 228
0.197897 -0.389257 -0.624 160 162 185
0.278273 -0.388633 -0.623 164 175 207
0.288953 -0.388633 -0.623 164 169 198
0.309127 -0.388633 -0.623 97 121 159
0.327451 -0.389257 -0.624 155 165 190
0.374405 -0.389881 -0.625 128 142 191
0.398766 -0.389257 -0.624 170 178 191
0.41474 -0.388633 -0.623 166 171 190
0.428291 -0.38801 -0.622 101 123 183
0.429476 -0.38801 -0.622 64 86 146
0.504857 -0.386762 -0.62 77 100 144
0.506038 -0.386762 -0.62 63 86 130
0.509581 -0.386762 -0.62 167 174 200
0.47613 -0.339352 -0.544 149 112 103
0.467786 -0.331243 -0.531 152 114 103
0.4563 -0.316271 -0.507 172 125 105
0.456424 -0.315024 -0.505 177 129 109
0.458534 -0.312529 -0.501 180 130 105
0.462381 -0.311905 -0.5 184 134 111
0.5933 -0.371167 -0.595 202 202 200
0.0327276 -0.302846 -0.484 203 162 140
0.0373371 -0.302846 -0.484 201 159 137
0.0948114 -0.340389 -0.544 110 85 91
0.09918 -0.344769 -0.551 103 81 84
0.104 -0.3504 -0.56 98 78 87
0.10727 -0.354154 -0.566 103 83 85
0.146083 -0.388569 -0.621 187 187 211
0.155546 -0.388569 -0.621 190 191 211
0.159094 -0.388569 -0.621 220 223 242
0.19758 -0.38982 -0.623 181 183 206
0.198767 -0.38982 -0.623 109 120 150
0.2047 -0.38982 -0.623 157 163 195
0.21148 -0.389194 -0.622 115 133 195
0.217404 -0.389194 -0.622 76 97 144
0.226882 -0.389194 -0.622 192 198 220
0.269967 -0.38982 -0.623 174 180 206
0.292044 -0.389194 -0.622 167 172 204
0.29726 -0.38982 -0.623 174 178 205
0.357166 -0.390446 -0.624 64 73 112
0.37856 -0.390446 -0.624 164 175 207
0.388633 -0.38982 -0.623 170 171 189
0.399313 -0.38982 -0.623 160 167 186
0.522063 -0.386691 -0.618 185 190 196
0.465258 -0.312231 -0.499 166 118 96
0.0318057 -0.303768 -0.484 206 165 143
0.105817 -0.353977 -0.564 98 78 87
0.17802 -0.389751 -0.621 168 185 215
0.199632 -0.390379 -0.622 89 100 130
0.232806 -0.390379 -0.622 189 196 214
0.23399 -0.390379 -0.622 119 139 172
0.251762 -0.390379 -0.622 192 194 215
0.296783 -0.390379 -0.622 173 174 202
0.301522 -0.390379 -0.622 110 121 153
0.306261 -0.390379 -0.622 114 136 175
0.331673 -0.391007 -0.623 176 175 193
0.335233 -0.391007 -0.623 166 171 191
0.338793 -0.391007 -0.623 151 159 178
0.35066 -0.391007 -0.623 166 174 193
0.356593 -0.391007 -0.623 58 68 103
0.381513 -0.391007 -0.623 47 58 90
0.3827 -0.391007 -0.623 47 58 90
0.424054 -0.389751 -0.621 35 54 112
0.441086 -0.389124 -0.62 31 57 114
0.470186 -0.389751 -0.621 152 155 170
0.472971 -0.389124 -0.62 130 125 129
0.477695 -0.389124 -0.62 169 169 177
0.485962 -0.389124 -0.62 78 92 137
0.487143 -0.389124 -0.62 91 105 150
0.505222 -0.388496 -0.619 150 170 207
0.515 -0.387869 -0.618 160 159 173
0.523569 -0.387241 -0.617 188 192 204
0.460476 -0.31381 -0.5 184 136 114
0.467171 -0.312554 -0.498 163 115 95
0.478565 -0.313182 -0.499 161 116 97
0.0236543 -0.306578 -0.487 207 166 144
0.0253524 -0.30469 -0.484 207 166 144
0.04002 -0.30406 -0.483 194 152 127
0.0456343 -0.30469 -0.484 189 147 122
0.0620067 -0.312873 -0.497 145 108 100
0.0773038 -0.325464 -0.517 116 90 89
0.14939 -0.390305 -0.62 204 210 234
0.155295 -0.390305 -0.62 162 166 195
0.192214 -0.390934 -0.621 197 208 228
0.199311 -0.390934 -0.621 94 103 134
0.209957 -0.390934 -0.621 82 105 157
0.228883 -0.390934 -0.621 196 197 215
0.267917 -0.390934 -0.621 183 184 212
0.2691 -0.390934 -0.621 182 183 211
0.287562 -0.390305 -0.62 72 86 123
0.331141 -0.391564 -0.622 174 174 184
0.33642 -0.392193 -0.623 169 176 195
0.35422 -0.392193 -0.623 155 161 183
0.355407 -0.392193 -0.623 136 142 174
0.362527 -0.392193 -0.623 120 128 151
0.373207 -0.392193 -0.623 107 132 188
0.380327 -0.392193 -0.623 53 72 115
0.389194 -0.391564 -0.622 118 115 124
0.390379 -0.391564 -0.622 146 143 152
0.402763 -0.390934 -0.621 129 139 166
0.413409 -0.390934 -0.621 116 114 117
0.431638 -0.390305 -0.62 23 53 117
0.434 -0.390305 -0.62 26 55 121
0.437543 -0.390305 -0.62 25 55 115
0.456438 -0.390305 -0.62 149 148 156
0.462343 -0.390305 -0.62 160 163 180
0.467067 -0.390305 -0.62 166 169 186
0.502864 -0.389675 -0.619 133 155 202
0.504043 -0.389675 -0.619 142 158 192
0.521218 -0.388416 -0.617 186 188 203
0.468924 -0.333648 -0.53 158 121 105
0.457386 -0.31791 -0.505 170 129 109
0.457537 -0.316021 -0.502 178 133 112
0.50372 -0.323575 -0.514 150 109 91
0.02268 -0.306874 -0.486 202 166 144
0.0597505 -0.311926 -0.494 150 112 101
0.0813448 -0.330869 -0.524 108 88 87
0.0983086 -0.348549 -0.552 105 86 90
0.159761 -0.390854 -0.619 217 220 239
0.168014 -0.390854 -0.619 181 193 219
0.176552 -0.391486 -0.62 155 172 202
0.182457 -0.391486 -0.62 152 161 192
0.195763 -0.392117 -0.621 194 196 219
0.205226 -0.392117 -0.621 183 194 226
0.208438 -0.391486 -0.62 90 109 151
0.248991 -0.392117 -0.621 169 180 208
0.259219 -0.391486 -0.62 106 112 146
0.266305 -0.391486 -0.62 186 188 203
0.267486 -0.391486 -0.62 185 189 214
0.305076 -0.392749 -0.622 84 111 154
0.309815 -0.392749 -0.622 113 134 179
0.311 -0.392749 -0.622 127 148 193
0.334157 -0.392117 -0.621 166 174 195
0.348912 -0.392749 -0.622 166 171 190
0.366087 -0.39338 -0.623 102 121 163
0.36846 -0.39338 -0.623 58 83 137
0.37202 -0.39338 -0.623 59 88 146
0.408677 -0.392117 -0.621 167 166 182
0.411562 -0.391486 -0.62 123 117 117
0.412743 -0.391486 -0.62 109 103 103
0.422689 -0.390854 -0.619 47 69 127
0.440374 -0.390854 -0.619 35 60 114
0.442732 -0.390854 -0.619 112 129 172
0.478104 -0.390854 -0.619 166 168 183
0.491457 -0.390223 -0.618 76 101 155
0.496166 -0.390223 -0.618 65 96 151
0.513823 -0.390223 -0.618 146 148 169
0.0252476 -0.305267 -0.482 208 167 145
0.04186 -0.3059 -0.483 192 148 123
0.0896667 -0.340733 -0.538 108 83 86
0.0955086 -0.347067 -0.548 104 81 87
0.162119 -0.392033 -0.619 214 216 239
0.166835 -0.392033 -0.619 207 212 231
0.176268 -0.392033 -0.619 161 180 212
0.187181 -0.392667 -0.62 200 206 222
0.2108 -0.392667 -0.62 154 171 214
0.24859 -0.392667 -0.62 172 184 210
0.268667 -0.392667 -0.62 184 189 211
0.291814 -0.392033 -0.619 67 82 121
0.297489 -0.3933 -0.621 163 164 184
0.329426 -0.3933 -0.621 164 163 169
0.363729 -0.3933 -0.621 63 86 138
0.373792 -0.393933 -0.622 68 99 156
0.383837 -0.3933 -0.621 165 167 190
0.386762 -0.392667 -0.62 172 164 179
0.393848 -0.392667 -0.62 117 120 129
0.468671 -0.392033 -0.619 171 171 183
0.46985 -0.392033 -0.619 162 161 169
0.472209 -0.392033 -0.619 168 167 173
0.486357 -0.392033 -0.619 160 171 201
0.511816 -0.390767 -0.617 94 99 119
0.498673 -0.361633 -0.571 132 104 101
0.462351 -0.3173 -0.501 180 133 113
1.06656 -0.377467 -0.596 204 206 192
1.06883 -0.377467 -0.596 203 205 191
0.0465562 -0.307455 -0.484 183 143 118
0.113824 -0.370344 -0.583 246 235 241
0.131786 -0.390671 -0.615 167 170 203
0.141846 -0.392577 -0.618 144 155 187
0.183342 -0.393212 -0.619 189 196 225
0.201352 -0.393848 -0.62 183 188 210
0.208102 -0.393212 -0.619 70 82 120
0.218713 -0.393212 -0.619 192 193 221
0.22343 -0.393212 -0.619 105 119 148
0.231683 -0.393212 -0.619 184 190 212
0.299371 -0.393848 -0.62 112 118 144
0.301733 -0.393848 -0.62 86 104 150
0.306457 -0.393848 -0.62 56 88 139
0.308819 -0.393848 -0.62 109 132 184
0.339524 -0.393848 -0.62 150 157 183
0.352514 -0.393848 -0.62 169 176 194
0.366686 -0.393848 -0.62 47 77 139
0.385581 -0.393848 -0.62 168 161 177
0.453344 -0.393212 -0.619 168 167 173
0.50594 -0.391942 -0.617 168 179 199
0.489446 -0.354463 -0.558 142 111 106
0.480119 -0.346205 -0.545 150 112 99
0.464931 -0.330959 -0.521 158 119 102
0.466223 -0.316349 -0.498 167 122 101
0.49686 -0.322066 -0.507 149 108 90
0.0306924 -0.306466 -0.481 205 165 140
0.0543771 -0.310926 -0.488 163 121 109
0.0620067 -0.31666 -0.497 143 106 97
0.0632067 -0.317934 -0.499 143 106 97
0.065499 -0.319846 -0.502 140 103 97
0.0714 -0.324943 -0.51 121 96 92
0.0988429 -0.353614 -0.555 103 81 83
0.146554 -0.393754 -0.618 207 215 236
0.158326 -0.393754 -0.618 213 214 235
0.174806 -0.393754 -0.618 166 186 223
0.184521 -0.394391 -0.619 200 201 219
0.188058 -0.394391 -0.619 196 202 218
0.220714 -0.393754 -0.618 142 154 192
0.240726 -0.393754 -0.618 103 120 172
0.258383 -0.393754 -0.618 170 179 218
0.28382 -0.393117 -0.617 179 177 198
0.29771 -0.394391 -0.619 105 110 132
0.303605 -0.394391 -0.619 61 93 152
0.314216 -0.394391 -0.619 110 131 174
0.337797 -0.394391 -0.619 113 120 146
0.340155 -0.394391 -0.619 133 139 161
0.344871 -0.394391 -0.619 167 172 192
0.373771 -0.395029 -0.62 31 62 117
0.395029 -0.395029 -0.62 144 145 165
0.4326 -0.393754 -0.618 54 89 147
0.477331 -0.393754 -0.618 86 92 114
0.480085 -0.393117 -0.617 98 108 143
0.485961 -0.393117 -0.617 173 180 196
0.5016 -0.39248 -0.616 113 133 166
0.46333 -0.329403 -0.517 163 121 107
0.459489 -0.319209 -0.501 175 130 111
0.466223 -0.317297 -0.498 170 125 102
0.470966 -0.317297 -0.498 174 128 105
0.477593 -0.31666 -0.497 163 118 99
0.0224467 -0.307382 -0.481 202 166 142
0.0325248 -0.307382 -0.481 200 158 134
0.04646 -0.30866 -0.483 183 143 118
0.0576343 -0.314411 -0.492 153 113 103
0.0586905 -0.31505 -0.493 151 111 101
0.0727971 -0.327831 -0.513 119 94 90
0.0751886 -0.329749 -0.516 116 92 88
0.1053 -0.36234 -0.567 94 80 80
0.155719 -0.394292 -0.617 197 199 222
0.156894 -0.394292 -0.617 212 214 237
0.184223 -0.394931 -0.618 195 206 224
0.186577 -0.394931 -0.618 197 203 219
0.190109 -0.394931 -0.618 198 200 223
0.192463 -0.394931 -0.618 131 127 160
0.205744 -0.39557 -0.619 193 200 218
0.244257 -0.394931 -0.618 145 168 218
0.250143 -0.394931 -0.618 175 182 211
0.252497 -0.394931 -0.618 80 96 145
0.263841 -0.394292 -0.617 129 133 136
0.265016 -0.394292 -0.617 164 168 171
0.29771 -0.39557 -0.619 88 93 115
0.307142 -0.39557 -0.619 48 82 145
0.308321 -0.39557 -0.619 77 105 170
0.366094 -0.39557 -0.619 35 61 118
0.387317 -0.39557 -0.619 170 168 179
0.393212 -0.39557 -0.619 112 111 116
0.39675 -0.39557 -0.619 161 168 178
0.401994 -0.394931 -0.618 175 173 195
0.452611 -0.394931 -0.618 131 129 140
0.49104 -0.393653 -0.616 77 100 142
0.459407 -0.321441 -0.503 171 130 110
0.467171 -0.318246 -0.498 173 128 109
0.018899 -0.310221 -0.484 203 161 137
0.0250905 -0.307016 -0.479 202 160 138
0.02874 -0.307016 -0.479 206 164 140
0.0389381 -0.308298 -0.481 197 155 130
0.0598714 -0.317271 -0.495 145 107 96
0.0960314 -0.353165 -0.551 103 81 84
0.10062 -0.358292 -0.559 103 83 85
0.115526 -0.375598 -0.586 232 228 243
0.14256 -0.394827 -0.616 129 137 156
0.161595 -0.395468 -0.617 209 213 240
0.1672 -0.394827 -0.616 174 186 212
0.179224 -0.395468 -0.617 143 153 180
0.190109 -0.396109 -0.618 171 175 202
0.199526 -0.396109 -0.618 129 133 142
0.200703 -0.396109 -0.618 175 179 188
0.206589 -0.396109 -0.618 180 185 207
0.216006 -0.396109 -0.618 188 195 213
0.229759 -0.395468 -0.617 192 199 227
0.241511 -0.395468 -0.617 79 104 160
0.250913 -0.395468 -0.617 94 106 146
0.261067 -0.394827 -0.616 186 190 199
0.28688 -0.394827 -0.616 165 176 196
0.336074 -0.396109 -0.618 110 112 133
0.337251 -0.396109 -0.618 117 121 146
0.364326 -0.396109 -0.618 37 68 125
0.411921 -0.395468 -0.617 164 165 185
0.446003 -0.395468 -0.617 74 84 119
0.448353 -0.395468 -0.617 81 91 126
0.489071 -0.394186 -0.615 79 100 143
0.514006 -0.393545 -0.614 112 123 153
0.520174 -0.392904 -0.613 159 164 194
0.494904 -0.360856 -0.563 136 109 102
0.466817 -0.334577 -0.522 159 120 105
0.470967 -0.318553 -0.497 174 129 108
0.0214857 -0.308571 -0.48 206 168 147
0.0260029 -0.307929 -0.479 199 158 136
0.0361143 -0.308571 -0.48 196 156 130
0.0577514 -0.316929 -0.493 149 111 98
0.0805 -0.3375 -0.525 113 85 82
0.148427 -0.396 -0.616 215 217 238
0.18128 -0.396 -0.616 179 187 210
0.20743 -0.396643 -0.617 183 186 205
0.225058 -0.396643 -0.617 52 75 119
0.254439 -0.396643 -0.617 176 182 216
0.304291 -0.397286 -0.618 25 59 123
0.320252 -0.396643 -0.617 158 161 180
0.353159 -0.396643 -0.617 136 135 143
0.362561 -0.396643 -0.617 96 121 175
0.376097 -0.397286 -0.618 127 146 189
0.378451 -0.397286 -0.618 73 88 129
0.395468 -0.396643 -0.617 170 172 185
0.398993 -0.396643 -0.617 175 175 185
0.402519 -0.396643 -0.617 171 173 188
0.40656 -0.396 -0.616 170 170 182
0.411253 -0.396 -0.616 150 152 165
0.437067 -0.396 -0.616 123 145 184
0.43824 -0.396 -0.616 151 163 189
0.439413 -0.396 -0.616 164 176 202
0.44176 -0.396 -0.616 167 174 193
0.442933 -0.396 -0.616 145 150 182
0.444107 -0.396 -0.616 108 113 145
0.45232 -0.396 -0.616 166 167 185
0.478133 -0.396 -0.616 141 147 169
0.482827 -0.396 -0.616 169 166 183
0.501957 -0.395357 -0.615 117 139 176
0.506643 -0.395357 -0.615 164 167 174
0.46718 -0.3195 -0.497 173 131 109
0.47002 -0.3195 -0.497 175 130 109
0.479487 -0.3195 -0.497 162 117 96
0.0223067 -0.308196 -0.478 209 168 148
0.0277695 -0.308196 -0.478 203 163 138
0.07548 -0.333987 -0.518 120 90 82
0.0876171 -0.346882 -0.538 105 83 85
0.0993771 -0.359777 -0.558 101 80 85
0.198028 -0.397818 -0.617 195 198 213
0.20978 -0.397818 -0.617 191 194 213
0.218827 -0.397173 -0.616 187 196 213
0.27632 -0.397173 -0.616 163 169 191
0.284071 -0.396529 -0.615 176 179 196
0.30096 -0.397173 -0.616 29 59 119
0.31085 -0.397818 -0.617 22 55 122
0.415947 -0.397173 -0.616 75 80 120
0.418293 -0.397173 -0.616 149 154 184
0.419467 -0.397173 -0.616 169 174 193
0.425333 -0.397173 -0.616 83 98 137
0.42768 -0.397173 -0.616 73 97 145
0.443386 -0.396529 -0.615 157 154 181
0.450414 -0.396529 -0.615 129 137 160
0.458614 -0.396529 -0.615 169 170 190
0.46992 -0.397173 -0.616 153 154 175
0.472267 -0.397173 -0.616 160 161 192
0.483214 -0.396529 -0.615 170 169 183
0.486619 -0.354619 -0.55 154 112 100
0.467811 -0.336566 -0.522 158 119 102
0.464481 -0.332052 -0.515 162 121 103
0.471909 -0.319802 -0.496 171 127 102
0.480433 -0.320447 -0.497 161 116 95
0.0178286 -0.3104 -0.48 202 164 141
0.0204857 -0.309107 -0.478 209 168 148
0.0352 -0.3104 -0.48 196 154 129
0.0656295 -0.325273 -0.503 132 99 90
0.0780514 -0.33756 -0.522 115 86 82
0.138814 -0.3977 -0.615 219 220 240
0.142329 -0.3977 -0.615 193 192 210
0.1599 -0.3977 -0.615 175 182 211
0.178643 -0.3977 -0.615 171 185 214
0.20944 -0.398347 -0.616 194 196 217
0.215307 -0.398347 -0.616 188 195 211
0.240729 -0.3977 -0.615 47 83 159
0.245414 -0.3977 -0.615 63 94 151
0.273529 -0.3977 -0.615 137 141 168
0.281729 -0.3977 -0.615 176 177 195
0.37136 -0.398347 -0.616 124 151 198
0.384814 -0.3977 -0.615 152 157 177
0.396 -0.398347 -0.616 170 172 185
0.408243 -0.3977 -0.615 166 169 186
0.415271 -0.3977 -0.615 115 120 152
0.440326 -0.397053 -0.614 173 175 190
0.4715 -0.3977 -0.615 116 124 161
0.478529 -0.3977 -0.615 149 151 163
0.494124 -0.397053 -0.614 127 147 184
0.485007 -0.353727 -0.547 152 113 96
0.471289 -0.340793 -0.527 158 119 102
0.4662 -0.334973 -0.518 160 119 101
0.464558 -0.332387 -0.514 161 120 100
0.01518 -0.31326 -0.483 203 164 135
0.0169143 -0.311314 -0.48 204 165 136
0.0277695 -0.310017 -0.478 205 163 138
0.02868 -0.310017 -0.478 204 162 138
0.0445276 -0.312611 -0.482 177 135 111
0.0704286 -0.330771 -0.51 121 90 87
0.0742057 -0.334663 -0.516 117 89 85
0.104404 -0.368389 -0.568 105 86 88
0.105486 -0.368389 -0.568 105 86 88
0.170166 -0.398223 -0.614 115 129 166
0.182157 -0.398871 -0.615 196 201 233
0.189186 -0.398871 -0.615 134 143 174
0.234871 -0.398871 -0.615 84 114 174
0.240337 -0.398223 -0.614 46 82 160
0.289457 -0.398223 -0.614 122 121 137
0.306329 -0.398871 -0.615 34 65 129
0.3403 -0.398871 -0.615 173 172 186
0.353186 -0.398871 -0.615 92 101 130
0.354357 -0.398871 -0.615 78 87 116
0.3649 -0.398871 -0.615 84 114 168
0.377786 -0.398871 -0.615 140 154 183
0.382471 -0.398871 -0.615 77 87 122
0.384814 -0.398871 -0.615 125 131 155
0.396529 -0.398871 -0.615 158 159 177
0.40641 -0.398223 -0.614 169 171 186
0.421613 -0.398223 -0.614 142 148 164
0.448512 -0.398223 -0.614 146 152 168
0.450851 -0.398223 -0.614 102 111 142
0.488276 -0.398223 -0.614 81 99 145
0.506163 -0.397574 -0.613 171 176 196
0.462351 -0.324934 -0.501 175 130 107
0.468127 -0.32234 -0.497 181 135 112
0.469074 -0.321691 -0.496 175 129 106
0.476632 -0.321691 -0.496 163 118 99
0.503646 -0.329474 -0.508 148 106 90
0.0416 -0.312229 -0.48 186 142 115
0.0556467 -0.319384 -0.491 146 108 99
0.0598714 -0.321986 -0.495 140 103 95
0.0742057 -0.335646 -0.516 113 89 85
0.0795 -0.3415 -0.525 107 86 83
0.0808067 -0.342801 -0.527 106 85 82
0.0849314 -0.347354 -0.534 109 84 87
0.154962 -0.399392 -0.614 197 205 226
0.163149 -0.399392 -0.614 206 214 251
0.171335 -0.399392 -0.614 108 123 162
0.179814 -0.400043 -0.615 141 160 200
0.180986 -0.400043 -0.615 168 180 218
0.219286 -0.399392 -0.614 195 201 215
0.230981 -0.399392 -0.614 69 99 151
0.23215 -0.399392 -0.614 66 97 154
0.23332 -0.399392 -0.614 59 90 147
0.237998 -0.399392 -0.614 37 67 137
0.260963 -0.398742 -0.613 186 189 208
0.275423 -0.399392 -0.614 155 162 181
0.283148 -0.398742 -0.613 180 183 200
0.299983 -0.399392 -0.614 58 85 140
0.3157 -0.400043 -0.615 74 90 124
0.335069 -0.399392 -0.614 167 166 182
0.339747 -0.399392 -0.614 168 170 183
0.351442 -0.399392 -0.614 88 93 123
0.352611 -0.399392 -0.614 73 80 109
0.386528 -0.399392 -0.614 105 108 125
0.407579 -0.399392 -0.614 158 160 183
0.426765 -0.398742 -0.613 114 138 182
0.443111 -0.398742 -0.613 121 121 129
0.445447 -0.398742 -0.613 149 149 157
0.459038 -0.399392 -0.614 149 161 199
0.471903 -0.399392 -0.614 78 96 144
0.46306 -0.329791 -0.507 165 123 101
0.462195 -0.32849 -0.505 168 126 104
0.462281 -0.32719 -0.503 171 129 105
0.466223 -0.323937 -0.498 177 130 110
0.470964 -0.322636 -0.496 175 128 108
0.476632 -0.322636 -0.496 166 121 100
0.48997 -0.324588 -0.499 157 115 91
0.596504 -0.38183 -0.587 194 194 194
0.0351267 -0.31249 -0.479 198 154 129
0.0599924 -0.323581 -0.496 139 105 96
0.0743495 -0.337281 -0.517 111 90 89
0.0935914 -0.358157 -0.549 100 78 90
0.0951543 -0.360114 -0.552 99 77 89
0.13486 -0.39991 -0.613 223 225 240
0.157045 -0.39991 -0.613 169 178 207
0.172224 -0.39991 -0.613 102 116 153
0.191217 -0.400562 -0.614 193 198 217
0.200573 -0.400562 -0.614 175 179 188
0.219286 -0.400562 -0.614 192 196 208
0.228642 -0.400562 -0.614 71 103 154
0.243449 -0.39991 -0.613 62 98 156
0.255125 -0.39991 -0.613 188 193 212
0.301152 -0.400562 -0.614 87 116 174
0.303491 -0.400562 -0.614 54 88 149
0.309339 -0.400562 -0.614 133 155 196
0.349702 -0.39991 -0.613 71 79 115
0.390569 -0.39991 -0.613 168 165 192
0.4291 -0.39991 -0.613 115 142 189
0.433063 -0.399257 -0.612 87 105 153
0.460626 -0.39991 -0.613 72 93 138
0.465296 -0.39991 -0.613 108 130 180
0.481643 -0.39991 -0.613 124 127 134
0.508003 -0.398605 -0.611 171 179 200
0.51562 -0.3973 -0.609 109 126 156
0.5191 -0.3973 -0.609 62 83 136
0.52142 -0.3973 -0.609 60 81 134
0.4698 -0.340543 -0.522 159 118 100
0.464701 -0.334019 -0.512 163 122 100
0.478522 -0.323581 -0.496 168 123 102
0.496741 -0.327495 -0.502 152 115 88
0.0267467 -0.31144 -0.476 203 161 136
0.0350533 -0.312749 -0.478 198 154 129
0.036039 -0.313403 -0.479 195 151 124
0.102412 -0.368363 -0.563 100 84 85
0.145131 -0.400423 -0.612 215 217 230
0.149794 -0.400423 -0.612 217 215 236
0.15096 -0.400423 -0.612 217 215 236
0.16405 -0.401077 -0.613 164 174 210
0.168721 -0.401077 -0.613 125 139 176
0.202912 -0.401731 -0.614 151 154 169
0.223599 -0.401077 -0.613 182 189 208
0.244217 -0.400423 -0.612 102 138 200
0.253543 -0.400423 -0.612 186 190 217
0.255874 -0.400423 -0.612 185 186 206
0.272639 -0.401077 -0.613 178 185 195
0.27336 -0.400423 -0.612 179 186 196
0.280354 -0.400423 -0.612 184 183 199
0.28968 -0.400423 -0.612 106 112 138
0.293177 -0.400423 -0.612 151 161 196
0.317009 -0.401077 -0.613 66 82 115
0.362546 -0.401077 -0.613 83 100 144
0.376557 -0.401077 -0.613 172 173 193
0.380606 -0.400423 -0.612 136 144 167
0.384103 -0.400423 -0.612 88 98 123
0.414411 -0.400423 -0.612 133 136 145
0.419074 -0.400423 -0.612 170 179 188
0.422571 -0.400423 -0.612 92 104 144
0.431191 -0.399769 -0.611 109 128 171
0.456377 -0.400423 -0.612 93 117 165
0.483189 -0.400423 -0.612 136 138 150
0.49171 -0.399769 -0.611 74 98 144
0.508333 -0.399114 -0.61 168 173 193
0.51709 -0.397806 -0.608 81 102 147
0.463274 -0.328451 -0.502 171 131 106
0.46812 -0.325834 -0.498 179 134 111
0.4785 -0.323871 -0.495 165 120 99
0.490886 -0.325834 -0.498 156 117 88
0.0194933 -0.312347 -0.476 208 168 142
0.02856 -0.312347 -0.476 198 156 131
0.0463638 -0.316284 -0.482 173 131 109
0.0879429 -0.354343 -0.54 104 84 86
0.0977857 -0.364186 -0.555 103 84 88
0.13019 -0.402245 -0.613 221 219 240
0.133474 -0.401589 -0.612 218 219 237
0.144894 -0.400932 -0.611 207 209 224
0.163783 -0.401589 -0.612 112 124 162
0.182434 -0.401589 -0.612 65 91 148
0.1836 -0.401589 -0.612 75 93 141
0.231394 -0.401589 -0.612 109 136 189
0.241886 -0.401589 -0.612 82 116 177
0.266366 -0.401589 -0.612 183 186 193
0.287349 -0.401589 -0.612 106 112 138
0.321793 -0.400932 -0.611 158 165 181
0.324121 -0.400932 -0.611 167 170 175
0.326449 -0.400932 -0.611 142 141 149
0.328776 -0.400932 -0.611 146 142 157
0.331104 -0.400932 -0.611 174 166 189
0.335143 -0.401589 -0.612 170 169 185
0.33864 -0.401589 -0.612 174 176 189
0.339806 -0.401589 -0.612 170 172 185
0.393429 -0.401589 -0.612 160 172 198
0.420717 -0.400932 -0.611 104 123 165
0.450976 -0.400932 -0.611 81 96 129
0.45214 -0.400932 -0.611 59 81 122
0.462206 -0.401589 -0.612 57 82 136
0.476194 -0.401589 -0.612 171 172 190
0.489017 -0.401589 -0.612 89 109 146
0.51709 -0.398964 -0.608 101 119 165
0.517395 -0.398308 -0.607 70 93 147
0.493157 -0.364186 -0.555 142 113 97
0.464829 -0.334657 -0.51 167 126 104
0.46426 -0.328751 -0.501 174 132 108
0.0123429 -0.315886 -0.48 205 165 140
0.0513771 -0.319834 -0.486 158 117 99
0.0577514 -0.324441 -0.493 138 104 95
0.0611829 -0.327731 -0.498 135 102 95
0.0645429 -0.330364 -0.502 123 98 94
0.06576 -0.33168 -0.504 121 96 92
0.0865924 -0.354055 -0.538 103 84 86
0.157696 -0.402096 -0.611 205 211 233
0.163515 -0.402096 -0.611 101 113 153
0.211577 -0.402754 -0.612 189 195 211
0.217406 -0.402754 -0.612 191 194 211
0.250801 -0.402096 -0.611 118 132 167
0.269863 -0.402754 -0.612 186 191 195
0.350297 -0.402754 -0.612 148 160 184
0.352629 -0.402754 -0.612 166 167 187
0.367783 -0.402754 -0.612 92 115 157
0.371837 -0.402096 -0.611 160 167 186
0.376492 -0.402096 -0.611 165 171 187
0.404424 -0.402096 -0.611 66 87 130
0.407915 -0.402096 -0.611 152 160 173
0.416062 -0.402096 -0.611 153 158 164
0.424676 -0.401438 -0.61 108 133 174
0.428162 -0.401438 -0.61 93 120 167
0.429324 -0.401438 -0.61 101 126 167
0.431648 -0.401438 -0.61 90 119 161
0.457959 -0.402096 -0.611 43 72 128
0.50518 -0.40078 -0.609 165 172 188
0.513615 -0.400122 -0.608 137 152 193
0.515931 -0.400122 -0.608 113 131 177
0.516239 -0.399464 -0.607 91 109 155
0.469073 -0.327073 -0.497 178 133 110
0.0212619 -0.3135 -0.475 207 165 140
0.0230714 -0.3135 -0.475 200 158 133
0.0454457 -0.31812 -0.482 170 129 109
0.0732229 -0.34056 -0.516 110 89 88
0.0825867 -0.35112 -0.532 105 85 86
0.0934209 -0.36168 -0.548 98 79 81
0.124495 -0.40128 -0.608 218 219 237
0.170498 -0.40326 -0.611 66 92 149
0.174274 -0.40392 -0.612 58 90 151
0.210068 -0.40326 -0.611 195 199 208
0.221706 -0.40326 -0.611 147 153 177
0.224033 -0.40326 -0.611 94 104 129
0.235671 -0.40326 -0.611 85 121 181
0.28106 -0.40326 -0.611 176 183 202
0.294543 -0.4026 -0.61 88 109 154
0.33925 -0.40326 -0.611 142 147 167
0.36312 -0.40392 -0.612 105 124 164
0.400276 -0.4026 -0.61 89 111 160
0.401438 -0.4026 -0.61 66 88 137
0.427 -0.4026 -0.61 80 108 156
0.438619 -0.4026 -0.61 159 161 176
0.449076 -0.4026 -0.61 163 170 198
0.456795 -0.40326 -0.611 26 58 117
0.462614 -0.40326 -0.611 32 64 125
0.477744 -0.40326 -0.611 170 171 189
0.484727 -0.40326 -0.611 114 122 143
0.517395 -0.40062 -0.607 61 82 129
0.470885 -0.34386 -0.521 157 118 101
0.470019 -0.32736 -0.496 178 133 110
0.500566 -0.33132 -0.502 147 111 89
1.05112 -0.38808 -0.588 203 205 191
1.06008 -0.38808 -0.588 203 205 191
0.0613057 -0.33029 -0.499 130 99 94
0.0635867 -0.332276 -0.502 124 95 91
0.0721 -0.340881 -0.515 113 89 85
0.091 -0.3614 -0.546 102 82 83
0.111986 -0.387214 -0.585 118 125 169
0.149305 -0.403762 -0.61 206 205 223
0.202752 -0.403762 -0.61 185 187 202
0.216695 -0.403762 -0.61 191 193 208
0.235286 -0.403762 -0.61 99 136 191
0.291057 -0.403762 -0.61 131 134 149
0.340414 -0.404424 -0.611 117 129 169
0.353216 -0.404424 -0.611 171 170 186
0.356708 -0.404424 -0.611 142 141 157
0.38222 -0.4031 -0.609 142 144 156
0.403762 -0.403762 -0.61 54 80 131
0.407248 -0.403762 -0.61 178 182 193
0.41122 -0.4031 -0.609 177 178 183
0.41934 -0.4031 -0.609 95 114 156
0.43326 -0.4031 -0.609 83 105 152
0.483933 -0.403762 -0.61 124 131 157
0.506667 -0.402438 -0.608 145 152 170
0.510458 -0.401776 -0.607 59 81 128
0.471789 -0.345514 -0.522 158 119 102
0.469074 -0.328305 -0.496 178 133 110
0.478474 -0.326981 -0.494 163 118 95
0.482201 -0.326319 -0.493 163 121 99
0.486943 -0.326981 -0.494 157 112 89
0.496624 -0.33029 -0.499 152 115 97
0.0185086 -0.314646 -0.474 205 163 138
0.02212 -0.314646 -0.474 207 163 138
0.0386952 -0.317301 -0.478 185 141 116
0.0396057 -0.317301 -0.478 186 142 117
0.0648 -0.33456 -0.504 121 96 92
0.0896305 -0.361112 -0.544 103 83 84
0.15022 -0.40426 -0.609 210 209 227
0.162086 -0.404924 -0.61 120 130 157
0.178352 -0.404924 -0.61 131 154 204
0.21402 -0.40426 -0.609 189 192 207
0.223667 -0.404924 -0.61 146 155 184
0.25039 -0.404924 -0.61 90 105 136
0.2562 -0.404924 -0.61 182 183 204
0.2581 -0.40426 -0.609 186 187 207
0.264333 -0.404924 -0.61 150 152 165
0.278276 -0.404924 -0.61 182 188 204
0.29406 -0.40426 -0.609 83 103 153
0.33002 -0.40426 -0.609 147 161 187
0.375802 -0.403596 -0.608 136 137 142
0.40774 -0.40426 -0.609 175 178 187
0.41238 -0.40426 -0.609 174 172 183
0.42398 -0.40426 -0.609 75 106 153
0.434865 -0.403596 -0.608 105 121 157
0.44413 -0.403596 -0.608 170 168 190
0.46226 -0.40426 -0.609 28 58 120
0.466505 -0.404924 -0.61 93 123 183
0.473476 -0.404924 -0.61 144 148 173
0.47502 -0.40426 -0.609 157 162 184
0.48314 -0.40426 -0.609 122 133 161
0.49474 -0.40426 -0.609 31 71 132
0.519148 -0.401605 -0.605 49 72 126
0.498667 -0.371733 -0.56 148 115 106
0.4779 -0.352483 -0.531 155 116 101
0.468405 -0.341862 -0.515 160 121 104
0.988955 -0.389656 -0.587 205 207 193
1.00125 -0.389656 -0.587 205 208 191
0.0212171 -0.315549 -0.474 204 162 137
0.0312143 -0.316214 -0.475 196 155 127
0.0396057 -0.318211 -0.478 186 140 116
0.0547114 -0.326866 -0.491 141 108 101
0.0773524 -0.348834 -0.524 105 85 84
0.12818 -0.40542 -0.609 216 219 236
0.138392 -0.404754 -0.608 183 184 204
0.155764 -0.404754 -0.608 203 208 227
0.16646 -0.40542 -0.609 90 105 146
0.17342 -0.40542 -0.609 77 107 167
0.17719 -0.406086 -0.61 131 157 208
0.18038 -0.40542 -0.609 165 178 213
0.22214 -0.40542 -0.609 140 147 175
0.25462 -0.40542 -0.609 112 127 170
0.27666 -0.40542 -0.609 178 181 200
0.28246 -0.40542 -0.609 112 119 148
0.30334 -0.40542 -0.609 97 121 165
0.3103 -0.40542 -0.609 163 177 204
0.31494 -0.40542 -0.609 169 175 197
0.33118 -0.40542 -0.609 98 119 150
0.388541 -0.404754 -0.608 41 67 116
0.39382 -0.40542 -0.609 47 79 130
0.415177 -0.404754 -0.608 176 174 187
0.48778 -0.40542 -0.609 46 75 133
0.505833 -0.404089 -0.607 167 174 192
0.501338 -0.374797 -0.563 144 111 106
0.466771 -0.339514 -0.51 167 126 108
0.469074 -0.330194 -0.496 174 129 106
0.4719 -0.329529 -0.495 180 134 111
0.472843 -0.329529 -0.495 178 133 110
1.05424 -0.390109 -0.586 204 206 193
0.0454457 -0.321792 -0.482 164 122 106
0.12818 -0.40658 -0.609 218 220 235
0.137234 -0.405912 -0.608 207 206 224
0.15808 -0.405912 -0.608 130 141 173
0.17226 -0.40658 -0.609 88 120 177
0.17574 -0.40658 -0.609 102 129 176
0.1827 -0.40658 -0.609 160 174 209
0.20672 -0.405912 -0.608 191 194 209
0.25114 -0.40658 -0.609 128 140 178
0.26622 -0.40658 -0.609 132 137 156
0.2697 -0.40658 -0.609 152 154 175
0.316218 -0.405245 -0.607 172 175 192
0.317374 -0.405245 -0.607 171 174 191
0.321999 -0.405245 -0.607 62 80 126
0.324846 -0.405912 -0.608 69 92 144
0.349166 -0.405912 -0.608 168 170 191
0.35786 -0.40658 -0.609 82 96 125
0.35902 -0.40658 -0.609 70 92 129
0.3625 -0.40658 -0.609 86 108 147
0.36482 -0.40658 -0.609 88 112 158
0.367695 -0.405912 -0.608 80 98 146
0.37117 -0.405912 -0.608 123 141 179
0.377496 -0.405245 -0.607 164 168 180
0.390857 -0.405912 -0.608 30 59 117
0.422588 -0.405245 -0.607 80 113 167
0.433434 -0.404577 -0.606 70 92 139
0.445711 -0.405245 -0.607 118 128 153
0.48003 -0.405912 -0.608 82 99 127
0.48546 -0.40658 -0.609 56 82 131
0.49126 -0.40658 -0.609 19 63 124
0.510771 -0.404577 -0.606 151 155 167
0.4719 -0.330471 -0.495 181 134 114
0.482115 -0.327801 -0.491 157 115 91
0.493638 -0.331139 -0.496 161 121 96
0.0386143 -0.319363 -0.477 181 137 112
0.0425143 -0.321371 -0.48 175 133 109
0.0474781 -0.32405 -0.484 158 119 104
0.0614286 -0.334762 -0.5 125 96 90
0.0775 -0.3515 -0.525 104 84 86
0.0969029 -0.372255 -0.556 96 77 79
0.108631 -0.387654 -0.579 152 160 196
0.110492 -0.390332 -0.583 138 146 182
0.137009 -0.406401 -0.607 212 211 227
0.145341 -0.40707 -0.608 168 168 170
0.151131 -0.40707 -0.608 205 208 223
0.156922 -0.40707 -0.608 131 141 166
0.180084 -0.40707 -0.608 185 190 210
0.219459 -0.40707 -0.608 142 152 179
0.248411 -0.40707 -0.608 187 190 207
0.266941 -0.40707 -0.608 143 149 171
0.28847 -0.406401 -0.607 178 180 201
0.296563 -0.406401 -0.607 131 153 190
0.317374 -0.406401 -0.607 162 161 175
0.344533 -0.40707 -0.608 154 163 180
0.35843 -0.40707 -0.608 78 102 140
0.371715 -0.406401 -0.607 152 159 177
0.416807 -0.406401 -0.607 152 157 176
0.435743 -0.405731 -0.606 107 124 150
0.443823 -0.405731 -0.606 93 105 129
0.493928 -0.40707 -0.608 23 61 123
0.509929 -0.405062 -0.605 155 165 175
0.511081 -0.405062 -0.605 159 166 184
0.471133 -0.346813 -0.518 159 120 103
0.47471 -0.330745 -0.494 172 130 106
0.475628 -0.330075 -0.493 171 129 105
0.484921 -0.328736 -0.491 159 118 96
0.9789 -0.391671 -0.585 206 208 194
0.985586 -0.391671 -0.585 205 207 193
0.990043 -0.391671 -0.585 206 208 194
1.04687 -0.391671 -0.585 203 205 192
0.0130638 -0.317586 -0.473 207 167 141
0.0139352 -0.316914 -0.472 206 166 140
0.0211276 -0.316914 -0.472 203 162 134
0.0581029 -0.333029 -0.496 132 99 92
0.0662819 -0.341086 -0.508 116 91 87
0.0673819 -0.341757 -0.509 113 89 87
0.0827419 -0.357871 -0.533 105 85 87
0.0867533 -0.3619 -0.539 104 85 89
0.121174 -0.404871 -0.603 210 216 238
0.131228 -0.407557 -0.607 218 217 231
0.132384 -0.407557 -0.607 219 218 232
0.149727 -0.407557 -0.607 209 206 225
0.16707 -0.407557 -0.607 119 144 198
0.177475 -0.407557 -0.607 157 173 207
0.190193 -0.407557 -0.607 162 171 202
0.227191 -0.407557 -0.607 160 167 193
0.228348 -0.407557 -0.607 134 141 167
0.25494 -0.407557 -0.607 124 131 160
0.266502 -0.407557 -0.607 145 155 180
0.271573 -0.408229 -0.608 165 176 208
0.31275 -0.407557 -0.607 166 177 197
0.349748 -0.407557 -0.607 167 175 186
0.372257 -0.406886 -0.606 154 163 192
0.420737 -0.406886 -0.606 68 96 144
0.474616 -0.407557 -0.607 156 159 174
0.476929 -0.407557 -0.607 162 168 180
0.485821 -0.408229 -0.608 56 87 144
0.470964 -0.333029 -0.496 174 132 108
1.03396 -0.392114 -0.584 204 206 192
0.0157 -0.31714 -0.471 206 164 139
0.0193295 -0.317813 -0.472 205 164 136
0.0265781 -0.318487 -0.473 198 158 132
0.0570429 -0.3333 -0.495 134 100 91
0.122526 -0.406693 -0.604 211 212 230
0.126603 -0.408713 -0.607 217 218 236
0.128915 -0.408713 -0.607 215 216 234
0.14279 -0.408713 -0.607 206 208 220
0.1818 -0.40804 -0.606 191 193 216
0.182954 -0.40804 -0.606 186 188 211
0.18988 -0.40804 -0.606 138 151 186
0.19135 -0.408713 -0.607 190 192 217
0.199443 -0.408713 -0.607 170 168 182
0.237206 -0.40804 -0.606 125 148 189
0.23836 -0.40804 -0.606 109 136 179
0.256829 -0.40804 -0.606 114 120 152
0.273439 -0.408713 -0.607 125 141 177
0.27876 -0.40804 -0.606 157 163 189
0.293766 -0.40804 -0.606 93 111 149
0.313389 -0.40804 -0.606 171 178 194
0.314543 -0.40804 -0.606 173 175 187
0.321469 -0.40804 -0.606 109 127 163
0.326086 -0.40804 -0.606 39 66 121
0.33703 -0.408713 -0.607 43 69 130
0.383167 -0.407367 -0.605 139 154 187
0.384319 -0.407367 -0.605 134 149 182
0.390726 -0.40804 -0.606 33 65 124
0.394189 -0.40804 -0.606 28 56 121
0.414966 -0.40804 -0.606 90 101 121
0.418429 -0.40804 -0.606 64 92 140
0.435024 -0.407367 -0.605 81 100 130
0.438481 -0.407367 -0.605 117 122 141
0.454211 -0.40804 -0.606 32 57 113
0.48849 -0.408713 -0.607 47 84 137
0.494271 -0.408713 -0.607 35 75 127
0.498405 -0.407367 -0.605 57 88 145
0.486 -0.3636 -0.54 152 114 101
0.491591 -0.331953 -0.493 159 115 90
0.982789 -0.393227 -0.584 204 208 193
0.98835 -0.393227 -0.584 206 208 194
0.990575 -0.393227 -0.584 206 208 194
1.03552 -0.392553 -0.583 204 206 192
0.0386143 -0.322089 -0.477 180 136 111
0.0485 -0.32749 -0.485 151 109 95
0.05822 -0.335593 -0.497 129 98 93
0.0651857 -0.342346 -0.507 114 90 88
0.0911667 -0.369355 -0.547 102 86 87
0.14948 -0.409194 -0.606 201 197 214
0.167949 -0.409194 -0.606 134 153 196
0.210657 -0.409194 -0.606 176 186 213
0.231052 -0.408519 -0.605 122 141 174
0.241823 -0.409194 -0.606 140 162 201
0.255674 -0.409194 -0.606 115 127 153
0.256829 -0.409194 -0.606 96 108 146
0.263754 -0.409194 -0.606 161 179 219
0.323777 -0.409194 -0.606 88 112 158
0.342246 -0.409194 -0.606 150 168 206
0.371643 -0.408519 -0.605 140 155 188
0.380232 -0.407844 -0.604 102 117 148
0.383167 -0.408519 -0.605 99 122 164
0.430414 -0.408519 -0.605 30 71 133
0.437756 -0.407844 -0.604 165 171 187
0.445395 -0.408519 -0.605 136 145 174
0.47268 -0.409194 -0.606 171 173 186
0.490803 -0.40987 -0.607 56 91 147
0.493115 -0.40987 -0.607 31 71 130
0.498731 -0.407844 -0.604 100 111 141
0.503649 -0.407169 -0.603 162 162 164
0.508243 -0.407169 -0.603 165 163 164
0.49649 -0.374082 -0.554 140 109 104
0.467143 -0.337619 -0.5 169 128 106
0.476567 -0.332892 -0.493 171 125 101
0.506303 -0.33897 -0.502 146 106 80
0.00677143 -0.320966 -0.474 198 165 134
0.0434286 -0.325029 -0.48 162 121 101
0.0676467 -0.34602 -0.511 108 86 88
0.0713952 -0.350083 -0.517 108 86 88
0.0869143 -0.365657 -0.54 101 85 86
0.0911667 -0.370397 -0.547 102 86 87
0.100268 -0.381231 -0.563 102 87 94
0.142554 -0.410349 -0.606 202 201 209
0.182652 -0.409671 -0.605 196 194 215
0.197633 -0.409671 -0.605 128 125 146
0.203395 -0.409671 -0.605 157 168 200
0.218376 -0.409671 -0.605 190 191 211
0.248749 -0.410349 -0.606 188 191 208
0.286367 -0.409671 -0.605 182 183 201
0.305451 -0.408994 -0.604 92 113 160
0.310567 -0.409671 -0.605 173 175 196
0.350326 -0.410349 -0.606 167 169 192
0.35551 -0.409671 -0.605 70 88 124
0.361271 -0.409671 -0.605 43 76 143
0.369338 -0.409671 -0.605 80 111 158
0.380232 -0.408994 -0.604 57 79 120
0.383684 -0.408994 -0.604 52 79 132
0.400452 -0.409671 -0.605 38 70 127
0.401605 -0.409671 -0.605 46 76 130
0.408519 -0.409671 -0.605 70 95 136
0.415433 -0.409671 -0.605 113 125 147
0.425805 -0.409671 -0.605 20 65 130
0.428552 -0.408994 -0.604 58 96 159
0.448852 -0.409671 -0.605 153 164 184
0.453462 -0.409671 -0.605 28 57 113
0.454614 -0.409671 -0.605 30 61 126
0.456919 -0.409671 -0.605 30 61 125
0.458071 -0.409671 -0.605 24 55 119
0.463833 -0.409671 -0.605 47 80 134
0.516573 -0.40764 -0.602 88 116 163
0.46793 -0.342634 -0.506 169 128 108
0.470957 -0.335186 -0.495 174 129 106
1.0415 -0.394097 -0.582 203 206 189
1.04372 -0.394097 -0.582 202 205 188
0.012981 -0.319152 -0.47 207 166 138
0.0165619 -0.319152 -0.47 204 163 135
0.0366429 -0.322548 -0.475 178 137 109
0.0653143 -0.344956 -0.508 113 89 89
0.0737905 -0.353105 -0.52 104 84 85
0.0855676 -0.365328 -0.538 103 84 86
0.0911667 -0.371439 -0.547 101 85 86
0.0956714 -0.376871 -0.555 103 85 85
0.10206 -0.38502 -0.567 99 90 109
0.121174 -0.409466 -0.603 133 149 174
0.135405 -0.410824 -0.605 196 196 206
0.148081 -0.410824 -0.605 197 198 216
0.15269 -0.410824 -0.605 147 154 182
0.173433 -0.410824 -0.605 110 138 178
0.198786 -0.410824 -0.605 182 179 210
0.220316 -0.410145 -0.604 193 194 214
0.252948 -0.410824 -0.605 172 178 192
0.269081 -0.410824 -0.605 88 112 176
0.2783 -0.410824 -0.605 180 185 205
0.281757 -0.410824 -0.605 184 186 201
0.289345 -0.410145 -0.604 110 123 157
0.292796 -0.410145 -0.604 99 121 171
0.312871 -0.410824 -0.605 169 170 191
0.323243 -0.410824 -0.605 116 145 189
0.332462 -0.410824 -0.605 26 56 118
0.337071 -0.410824 -0.605 71 99 162
0.356662 -0.410824 -0.605 57 85 135
0.37333 -0.410145 -0.604 96 103 131
0.37386 -0.409466 -0.603 130 137 165
0.377306 -0.409466 -0.603 81 96 119
0.387135 -0.410145 -0.604 33 60 127
0.40391 -0.410824 -0.605 120 134 171
0.420499 -0.410145 -0.604 61 100 159
0.426251 -0.410145 -0.604 31 77 139
0.44581 -0.410145 -0.604 168 167 173
0.450005 -0.410824 -0.605 119 139 172
0.45231 -0.410824 -0.605 51 82 137
0.479967 -0.410824 -0.605 138 146 165
0.51428 -0.408787 -0.602 66 97 141
0.51686 -0.408108 -0.601 136 155 188
0.47375 -0.33477 -0.493 172 126 103
0.477439 -0.333412 -0.491 173 127 103
0.478333 -0.332733 -0.49 173 127 103
1.03485 -0.395206 -0.582 204 206 192
1.04483 -0.395206 -0.582 204 207 190
0.0032 -0.326857 -0.48 200 163 134
0.0338571 -0.322771 -0.474 187 145 120
0.0395229 -0.324814 -0.477 176 131 108
0.0516943 -0.332986 -0.489 141 104 95
0.0701381 -0.35069 -0.515 106 84 86
0.0804086 -0.361586 -0.531 103 83 84
0.0843857 -0.365671 -0.537 103 84 86
0.107714 -0.394952 -0.58 217 212 234
0.13288 -0.411295 -0.604 208 210 225
0.145776 -0.411976 -0.605 205 204 220
0.148081 -0.411976 -0.605 170 177 196
0.153589 -0.411295 -0.604 199 203 228
0.154739 -0.411295 -0.604 205 205 217
0.15589 -0.411295 -0.604 202 202 214
0.163943 -0.411295 -0.604 124 139 172
0.209962 -0.411295 -0.604 62 95 146
0.218803 -0.410614 -0.603 188 189 207
0.223397 -0.410614 -0.603 188 196 219
0.238724 -0.411295 -0.604 96 120 164
0.239874 -0.411295 -0.604 100 123 164
0.295757 -0.410614 -0.603 70 97 150
0.336514 -0.411295 -0.604 42 72 134
0.345718 -0.411295 -0.604 81 103 142
0.348019 -0.411295 -0.604 143 157 192
0.3509 -0.411976 -0.605 113 119 141
0.377827 -0.409933 -0.602 87 98 118
0.384197 -0.410614 -0.603 72 99 146
0.39469 -0.411976 -0.605 25 61 123
0.431289 -0.410614 -0.603 62 96 157
0.461151 -0.410614 -0.603 31 59 122
0.4623 -0.410614 -0.603 39 68 112
0.487227 -0.411295 -0.604 71 99 149
0.4941 -0.373843 -0.549 144 110 101
0.470494 -0.349329 -0.513 161 124 108
0.468 -0.3432 -0.504 172 131 113
0.47281 -0.33571 -0.493 172 125 105
0.47922 -0.332986 -0.489 169 123 100
0.596297 -0.392229 -0.576 193 192 188
1.02709 -0.396314 -0.582 202 206 192
0.00672857 -0.321626 -0.471 200 161 130
0.0129533 -0.32026 -0.469 209 168 140
0.0183524 -0.320943 -0.47 205 164 134
0.123676 -0.412446 -0.604 142 154 178
0.138632 -0.412446 -0.604 190 190 200
0.146686 -0.412446 -0.604 183 185 200
0.163671 -0.411763 -0.603 128 147 180
0.171711 -0.411763 -0.603 137 159 196
0.179751 -0.411763 -0.603 191 196 216
0.207661 -0.412446 -0.604 70 103 146
0.214209 -0.411763 -0.603 182 185 204
0.224546 -0.411763 -0.603 146 157 179
0.245627 -0.412446 -0.604 180 186 208
0.269787 -0.412446 -0.604 49 77 142
0.306094 -0.411763 -0.603 67 98 155
0.30954 -0.411763 -0.603 157 169 195
0.335957 -0.411763 -0.603 33 63 127
0.340551 -0.411763 -0.603 47 74 129
0.348591 -0.411763 -0.603 143 151 170
0.359524 -0.412446 -0.604 29 64 128
0.366969 -0.411763 -0.603 42 77 131
0.387643 -0.411763 -0.603 35 61 122
0.415209 -0.411763 -0.603 150 165 188
0.416357 -0.411763 -0.603 102 117 140
0.4221 -0.411763 -0.603 51 89 152
0.434734 -0.411763 -0.603 152 168 194
0.453111 -0.411763 -0.603 42 73 127
0.493311 -0.411763 -0.603 81 110 152
0.501667 -0.41108 -0.602 161 160 168
0.477439 -0.335283 -0.491 172 127 106
0.489533 -0.3346 -0.49 164 117 97
1.03529 -0.39674 -0.581 205 207 193
0.00848667 -0.321153 -0.469 207 166 138
0.0319838 -0.323892 -0.473 187 145 121
0.0518 -0.335533 -0.49 140 103 95
0.0653143 -0.347859 -0.508 116 88 87
0.116948 -0.410172 -0.599 218 217 233
0.158813 -0.412227 -0.602 177 193 219
0.21306 -0.412911 -0.603 200 198 219
0.233734 -0.412911 -0.603 80 102 149
0.23718 -0.412911 -0.603 108 135 182
0.32508 -0.412227 -0.602 30 59 117
0.348591 -0.412911 -0.603 163 170 186
0.358929 -0.412911 -0.603 41 75 138
0.361226 -0.412911 -0.603 26 61 127
0.36292 -0.412227 -0.602 52 86 150
0.364067 -0.412227 -0.602 47 81 144
0.37262 -0.411542 -0.601 162 170 191
0.396339 -0.413596 -0.604 27 60 127
0.39798 -0.412911 -0.603 45 77 136
0.429427 -0.412227 -0.602 76 112 172
0.460387 -0.412227 -0.602 69 93 131
0.46268 -0.412227 -0.602 56 79 121
0.467267 -0.412227 -0.602 100 117 145
0.473 -0.412227 -0.602 160 168 181
0.490678 -0.413596 -0.604 101 127 162
0.516281 -0.410172 -0.599 152 153 173
0.46896 -0.34512 -0.504 170 128 112
0.472829 -0.338272 -0.494 170 127 108
0.478333 -0.335533 -0.49 168 123 102
0.481083 -0.334849 -0.489 164 119 98
1.0324 -0.397162 -0.58 203 205 191
0.00759333 -0.322047 -0.469 205 165 139
0.0319162 -0.324107 -0.472 185 143 119
0.07294 -0.357753 -0.521 106 80 83
0.0832076 -0.368053 -0.536 107 84 90
0.119827 -0.413373 -0.602 212 214 235
0.147591 -0.41406 -0.603 185 191 213
0.161107 -0.413373 -0.602 118 138 175
0.1806 -0.413373 -0.602 187 192 212
0.186333 -0.413373 -0.602 185 187 200
0.2322 -0.413373 -0.602 77 110 161
0.247517 -0.41406 -0.603 187 189 204
0.274627 -0.413373 -0.602 153 164 194
0.289533 -0.413373 -0.602 85 103 143
0.341133 -0.413373 -0.602 111 130 163
0.37491 -0.412687 -0.601 169 172 191
0.419555 -0.412687 -0.601 69 105 165
0.443187 -0.413373 -0.602 169 172 187
0.451213 -0.413373 -0.602 65 89 127
0.458477 -0.412687 -0.601 120 141 170
0.478733 -0.413373 -0.602 162 166 177
0.481027 -0.413373 -0.602 123 140 168
0.517697 -0.410627 -0.598 103 111 124
0.487274 -0.369427 -0.538 151 117 107
0.46992 -0.34608 -0.504 170 128 112
0.476504 -0.337153 -0.491 172 127 108
0.478333 -0.336467 -0.49 171 126 105
1.03461 -0.398267 -0.58 204 207 190
1.03571 -0.398267 -0.58 204 207 190
0.0228286 -0.323629 -0.47 198 157 127
0.024619 -0.323629 -0.47 197 156 126
0.0255143 -0.323629 -0.47 192 151 121
0.0365657 -0.326383 -0.474 177 135 111
0.0679114 -0.353237 -0.513 111 83 82
0.0704105 -0.355991 -0.517 110 81 83
0.104595 -0.395929 -0.575 187 185 207
0.12462 -0.415209 -0.603 145 154 183
0.125769 -0.415209 -0.603 123 132 161
0.136106 -0.415209 -0.603 169 177 200
0.142997 -0.415209 -0.603 129 143 178
0.166563 -0.413831 -0.601 148 166 206
0.179453 -0.41452 -0.602 184 191 219
0.193213 -0.41452 -0.602 82 101 141
0.20812 -0.41452 -0.602 114 141 188
0.223801 -0.413831 -0.601 136 147 169
0.237933 -0.41452 -0.602 99 131 178
0.27417 -0.413831 -0.601 112 134 175
0.277605 -0.413831 -0.601 91 107 143
0.279894 -0.413831 -0.601 115 129 164
0.313092 -0.413831 -0.601 126 137 157
0.361172 -0.413831 -0.601 49 85 147
0.375429 -0.413143 -0.6 169 175 187
0.392733 -0.41452 -0.602 55 84 144
0.401907 -0.41452 -0.602 99 106 124
0.421845 -0.413831 -0.601 78 110 159
0.424134 -0.413831 -0.601 78 113 169
0.433292 -0.413831 -0.601 161 172 200
0.457332 -0.413831 -0.601 109 127 165
0.492493 -0.41452 -0.602 89 116 161
0.50259 -0.412454 -0.599 148 150 165
0.470017 -0.342909 -0.498 170 129 111
0.472829 -0.340154 -0.494 172 129 112
1.03503 -0.398683 -0.579 204 207 190
0.00668571 -0.323143 -0.468 207 166 138
0.0209933 -0.323833 -0.469 198 157 127
0.0404314 -0.329357 -0.477 163 120 101
0.0858857 -0.372857 -0.54 106 85 90
0.0916667 -0.379762 -0.55 102 83 89
0.0930514 -0.381143 -0.552 101 82 88
0.0977743 -0.387357 -0.561 98 81 87
0.129 -0.415667 -0.602 141 154 196
0.140467 -0.415667 -0.602 136 158 199
0.183734 -0.414976 -0.601 186 189 206
0.197471 -0.414976 -0.601 31 75 140
0.198616 -0.414976 -0.601 44 78 149
0.208919 -0.414976 -0.601 155 178 222
0.219222 -0.414976 -0.601 184 187 204
0.220367 -0.414976 -0.601 185 186 206
0.229525 -0.414976 -0.601 98 121 175
0.237538 -0.414976 -0.601 101 135 183
0.254286 -0.414286 -0.6 133 148 181
0.263868 -0.414976 -0.601 35 71 145
0.284 -0.414286 -0.6 100 106 128
0.296571 -0.414286 -0.6 35 73 138
0.308 -0.414286 -0.6 137 151 186
0.334286 -0.414286 -0.6 40 71 135
0.342856 -0.414976 -0.601 164 167 186
0.349725 -0.414976 -0.601 156 168 180
0.367429 -0.414286 -0.6 113 130 158
0.375944 -0.413595 -0.599 165 171 185
0.385714 -0.414286 -0.6 40 72 119
0.405143 -0.414286 -0.6 169 173 184
0.411542 -0.414976 -0.601 170 174 185
0.423429 -0.414286 -0.6 88 118 168
0.445885 -0.414976 -0.601 94 100 126
0.44703 -0.414976 -0.601 73 81 117
0.453898 -0.414976 -0.601 142 160 198
0.456571 -0.414286 -0.6 118 132 167
0.465714 -0.414286 -0.6 52 72 99
0.477938 -0.414976 -0.601 164 170 186
0.485951 -0.414976 -0.601 88 110 147
0.51531 -0.397024 -0.575 126 108 106
0.470952 -0.345238 -0.5 171 130 112
0.470966 -0.343857 -0.498 170 127 110
1.02841 -0.399786 -0.579 203 205 191
0.0191657 -0.324034 -0.468 198 157 129
0.0237238 -0.325419 -0.47 193 152 124
0.0584543 -0.345498 -0.499 125 92 87
0.104777 -0.398811 -0.576 176 176 202
0.119628 -0.416121 -0.601 215 212 229
0.126496 -0.416121 -0.601 115 130 171
0.172287 -0.416121 -0.601 108 127 167
