ply
format ascii 1.0
comment Created by Open3D
element vertex 1291
property double x
property double y
property double z
property uchar red
property uchar green
property uchar blue
end_header
0.107343 -0.240364 -0.442 128 93 89
0.10843 -0.240908 -0.443 126 91 87
0.129149 -0.253415 -0.466 97 75 78
0.274895 -0.348038 -0.64 243 250 255
0.300495 -0.348038 -0.64 228 238 255
0.305371 -0.348038 -0.64 236 245 254
0.309029 -0.348038 -0.64 225 224 240
0.318781 -0.348038 -0.64 138 166 216
0.343011 -0.349126 -0.642 116 131 172
0.350894 -0.34967 -0.643 155 178 228
0.42872 -0.350213 -0.644 120 130 166
0.434853 -0.350213 -0.644 173 182 213
0.415419 -0.288219 -0.53 124 81 72
0.415643 -0.287675 -0.529 124 81 72
0.422102 -0.286588 -0.527 138 90 78
0.428381 -0.282781 -0.52 150 103 87
0.433788 -0.28115 -0.517 147 98 83
0.450294 -0.282237 -0.519 132 89 73
0.07068 -0.23684 -0.434 201 161 151
0.100302 -0.238477 -0.437 138 101 92
0.129703 -0.255394 -0.468 103 82 77
0.256209 -0.348711 -0.639 158 178 229
0.282986 -0.348711 -0.639 148 164 216
0.287854 -0.348711 -0.639 172 193 236
0.309763 -0.348711 -0.639 230 230 242
0.326095 -0.349257 -0.64 146 166 203
0.330971 -0.349257 -0.64 220 223 255
0.352794 -0.350349 -0.642 100 121 164
0.354017 -0.350349 -0.642 153 174 217
0.397435 -0.350894 -0.643 194 196 221
0.40111 -0.350894 -0.643 165 171 203
0.404784 -0.350894 -0.643 139 149 184
0.420706 -0.350894 -0.643 182 187 219
0.431729 -0.350894 -0.643 86 94 131
0.44084 -0.350349 -0.642 126 141 164
0.415266 -0.296323 -0.543 112 75 69
0.41496 -0.29032 -0.532 117 78 71
0.418448 -0.289229 -0.53 124 81 74
0.4245 -0.2865 -0.525 140 94 81
0.425871 -0.285409 -0.523 144 96 82
0.430833 -0.282134 -0.517 149 100 85
0.440938 -0.281043 -0.515 148 99 85
0.453143 -0.283771 -0.52 132 88 75
0.465143 -0.288137 -0.528 131 89 77
0.0563143 -0.239857 -0.438 201 162 155
0.0578505 -0.23931 -0.437 205 167 158
0.0650429 -0.238214 -0.435 204 161 154
0.06572 -0.237667 -0.434 203 160 153
0.0792219 -0.236024 -0.431 194 152 138
0.108674 -0.243143 -0.444 125 90 86
0.24282 -0.349929 -0.639 250 251 253
0.245254 -0.349929 -0.639 238 240 252
0.276114 -0.350476 -0.64 226 235 252
0.280551 -0.349929 -0.639 157 170 212
0.323151 -0.349929 -0.639 165 186 231
0.327314 -0.350476 -0.64 175 197 234
0.348582 -0.351024 -0.641 181 196 235
0.383366 -0.351571 -0.642 137 165 215
0.385811 -0.351571 -0.642 105 132 187
0.390703 -0.351571 -0.642 161 174 206
0.410908 -0.352119 -0.643 183 186 217
0.428611 -0.351571 -0.642 134 138 173
0.438394 -0.351571 -0.642 114 121 149
0.449219 -0.350476 -0.64 71 99 162
0.416281 -0.292976 -0.535 112 75 67
0.429205 -0.28531 -0.521 151 100 83
0.454133 -0.284762 -0.52 134 87 77
0.0508867 -0.246736 -0.449 198 161 153
0.0520114 -0.243989 -0.444 198 161 153
0.0633857 -0.239043 -0.435 207 163 154
0.0965286 -0.239043 -0.435 145 107 98
0.102433 -0.241241 -0.439 135 96 89
0.255808 -0.350596 -0.638 177 194 237
0.264314 -0.350596 -0.638 218 237 255
0.270814 -0.351146 -0.639 246 254 255
0.305632 -0.350596 -0.638 232 241 255
0.308063 -0.350596 -0.638 231 240 255
0.339505 -0.351695 -0.64 195 204 235
0.341943 -0.351695 -0.64 120 132 170
0.368117 -0.352245 -0.641 156 166 202
0.382769 -0.352245 -0.641 116 146 198
0.386431 -0.352245 -0.641 91 118 173
0.393757 -0.352245 -0.641 186 192 224
0.399862 -0.352245 -0.641 92 103 135
0.440153 -0.352245 -0.641 149 158 191
0.440686 -0.351695 -0.64 130 147 191
0.444343 -0.351695 -0.64 88 113 169
0.453054 -0.339056 -0.617 111 97 96
0.417837 -0.295094 -0.537 108 74 65
0.419801 -0.292896 -0.533 115 76 69
0.432803 -0.284104 -0.517 152 101 84
0.436033 -0.283005 -0.515 158 107 86
0.438976 -0.283005 -0.515 157 106 85
0.441919 -0.283005 -0.515 157 106 85
0.4429 -0.283005 -0.515 156 105 84
0.45326 -0.285203 -0.519 140 92 82
0.469933 -0.291248 -0.53 140 96 85
0.484971 -0.296743 -0.54 144 98 85
0.05066 -0.246489 -0.447 198 161 152
0.0578505 -0.240974 -0.437 205 165 155
0.0728229 -0.238217 -0.432 197 155 141
0.0742962 -0.237666 -0.431 195 155 143
0.0927857 -0.238769 -0.433 150 110 100
0.0948714 -0.239871 -0.435 147 107 99
0.26796 -0.351811 -0.638 245 254 251
0.320215 -0.351811 -0.638 183 201 247
0.32802 -0.352363 -0.639 223 225 250
0.354797 -0.352363 -0.639 194 205 237
0.38399 -0.353466 -0.641 103 134 188
0.394362 -0.352914 -0.64 161 167 199
0.446083 -0.352363 -0.639 98 126 191
0.42671 -0.311557 -0.565 115 80 76
0.420122 -0.295566 -0.536 109 72 66
0.422053 -0.29336 -0.532 117 78 71
0.42592 -0.291154 -0.528 129 84 79
0.430197 -0.287294 -0.521 146 93 77
0.430362 -0.286743 -0.52 149 96 80
0.438976 -0.283986 -0.515 158 107 86
0.443881 -0.283986 -0.515 155 107 85
0.444862 -0.283986 -0.515 154 106 84
0.456991 -0.287294 -0.521 141 94 84
0.0680429 -0.239593 -0.433 202 158 147
0.0884571 -0.23904 -0.432 168 126 114
0.0986371 -0.241807 -0.437 133 96 90
0.0996971 -0.24236 -0.438 133 96 90
0.101597 -0.242913 -0.439 134 95 88
0.134501 -0.266707 -0.482 250 249 254
0.266327 -0.352473 -0.637 248 253 255
0.283313 -0.352473 -0.637 225 234 255
0.320927 -0.352473 -0.637 159 176 220
0.326291 -0.353027 -0.638 189 205 239
0.332368 -0.353027 -0.638 212 216 243
0.340874 -0.353027 -0.638 205 212 241
0.368186 -0.35358 -0.639 99 111 163
0.378514 -0.354133 -0.64 111 125 154
0.381548 -0.354687 -0.641 100 128 168
0.385829 -0.354133 -0.64 89 118 178
0.390705 -0.354133 -0.64 186 189 220
0.393143 -0.354133 -0.64 183 189 221
0.398019 -0.354133 -0.64 90 105 136
0.416955 -0.354687 -0.641 177 183 205
0.424281 -0.354687 -0.641 178 186 209
0.450753 -0.352473 -0.637 109 131 188
0.457805 -0.351367 -0.635 136 140 175
0.420948 -0.301567 -0.545 111 76 70
0.431511 -0.28718 -0.519 142 93 76
0.443881 -0.284967 -0.515 154 106 83
0.447691 -0.28552 -0.516 153 105 85
0.460738 -0.289393 -0.523 135 91 80
0.0500933 -0.245415 -0.442 201 163 154
0.0617286 -0.241529 -0.435 207 164 155
0.0726543 -0.239308 -0.431 199 157 145
0.0800429 -0.239308 -0.431 185 143 129
0.0978048 -0.242639 -0.437 133 96 90
0.102667 -0.244305 -0.44 131 94 88
0.121352 -0.25541 -0.46 96 75 72
0.259851 -0.353131 -0.636 185 201 234
0.305153 -0.353687 -0.637 230 237 253
0.313647 -0.353687 -0.637 161 170 203
0.334798 -0.354242 -0.638 170 175 204
0.336013 -0.354242 -0.638 131 136 168
0.371837 -0.354797 -0.639 160 165 207
0.38766 -0.354797 -0.639 155 177 237
0.393746 -0.354797 -0.639 152 161 194
0.394963 -0.354797 -0.639 100 113 145
0.418743 -0.355352 -0.64 179 183 208
0.423185 -0.297608 -0.536 111 76 72
0.441919 -0.285948 -0.515 156 108 86
0.4429 -0.285948 -0.515 155 107 85
0.446824 -0.285948 -0.515 154 106 86
0.4645 -0.2915 -0.525 141 97 84
0.4815 -0.297052 -0.535 140 97 80
0.0521429 -0.244029 -0.438 201 163 154
0.0553533 -0.243471 -0.437 200 162 153
0.0647438 -0.241243 -0.433 202 162 152
0.0911362 -0.241243 -0.433 152 109 100
0.0940429 -0.242357 -0.435 148 108 100
0.263071 -0.353786 -0.635 245 250 255
0.305153 -0.3549 -0.637 230 235 255
0.337229 -0.355457 -0.638 122 129 158
0.361533 -0.355457 -0.638 196 203 232
0.373686 -0.355457 -0.638 193 199 233
0.388877 -0.356014 -0.639 169 181 219
0.403483 -0.356014 -0.639 186 193 211
0.407134 -0.356014 -0.639 185 189 218
0.410786 -0.356014 -0.639 186 191 211
0.425391 -0.356014 -0.639 179 185 209
0.434448 -0.355457 -0.638 96 112 161
0.435663 -0.355457 -0.638 58 74 123
0.441047 -0.3549 -0.637 33 62 128
0.450046 -0.354343 -0.636 33 68 136
0.45368 -0.354343 -0.636 45 74 140
0.459014 -0.353786 -0.635 151 157 189
0.427127 -0.3081 -0.553 109 78 75
0.426727 -0.294729 -0.529 124 81 74
0.477787 -0.2964 -0.532 140 97 80
0.0477829 -0.248217 -0.444 199 162 154
0.0497533 -0.245422 -0.439 203 164 157
0.0521429 -0.244863 -0.438 203 165 156
0.063919 -0.242068 -0.433 206 163 156
0.0678857 -0.241509 -0.432 199 157 145
0.0701914 -0.24095 -0.431 197 157 145
0.0726543 -0.24095 -0.431 192 152 140
0.0800429 -0.24095 -0.431 184 142 126
0.130653 -0.267225 -0.478 250 241 244
0.229205 -0.354995 -0.635 199 210 240
0.232833 -0.354995 -0.635 182 188 222
0.307097 -0.355554 -0.636 230 235 254
0.319211 -0.355554 -0.636 156 175 218
0.324057 -0.355554 -0.636 179 195 231
0.35192 -0.355554 -0.636 206 211 230
0.374901 -0.356672 -0.638 164 172 211
0.389484 -0.356672 -0.638 144 165 222
0.408928 -0.356672 -0.638 181 185 210
0.415004 -0.356672 -0.638 161 166 196
0.443989 -0.355554 -0.636 26 57 124
0.438973 -0.320893 -0.574 109 75 74
0.426396 -0.306358 -0.548 109 78 75
0.424041 -0.302445 -0.541 109 76 71
0.426727 -0.295736 -0.529 129 85 74
0.4665 -0.2935 -0.525 145 99 83
0.04964 -0.245697 -0.438 203 165 156
0.0624133 -0.243453 -0.434 206 163 156
0.0654171 -0.242331 -0.432 200 157 148
0.0808638 -0.24177 -0.431 182 140 126
0.0859886 -0.242331 -0.432 172 128 115
0.0923857 -0.244014 -0.435 150 110 100
0.0932143 -0.244014 -0.435 146 106 96
0.121262 -0.259721 -0.463 98 74 74
0.233674 -0.355644 -0.634 197 198 226
0.238505 -0.355644 -0.634 250 249 254
0.252996 -0.355644 -0.634 205 215 250
0.257827 -0.355644 -0.634 185 195 231
0.26549 -0.356205 -0.635 248 253 255
0.275167 -0.356205 -0.635 240 246 255
0.278795 -0.356205 -0.635 243 248 251
0.280005 -0.356205 -0.635 241 246 249
0.283633 -0.356205 -0.635 235 238 255
0.284843 -0.356205 -0.635 215 218 237
0.2921 -0.356205 -0.635 237 244 255
0.302251 -0.356766 -0.636 156 162 198
0.305886 -0.356766 -0.636 216 223 252
0.30952 -0.356766 -0.636 219 226 254
0.357327 -0.357327 -0.637 205 211 235
0.36582 -0.357327 -0.637 198 201 220
0.375527 -0.357327 -0.637 134 148 193
0.385233 -0.357327 -0.637 77 108 165
0.413789 -0.357888 -0.638 132 138 172
0.419865 -0.357888 -0.638 149 153 178
0.433767 -0.357327 -0.637 103 121 169
0.448129 -0.356205 -0.635 59 93 157
0.456595 -0.356205 -0.635 119 138 194
0.460707 -0.355644 -0.634 174 179 199
0.431562 -0.31189 -0.556 111 80 77
0.425227 -0.30067 -0.536 113 78 72
0.4295 -0.2945 -0.525 135 89 74
0.441919 -0.28889 -0.515 159 110 93
0.457214 -0.291134 -0.519 142 94 80
0.479813 -0.298427 -0.532 144 98 83
0.490233 -0.302353 -0.539 146 102 89
0.0458571 -0.253286 -0.45 197 161 149
0.04964 -0.246531 -0.438 201 163 154
0.0591067 -0.24428 -0.434 202 159 150
0.063919 -0.243717 -0.433 203 160 151
0.0886619 -0.243717 -0.433 161 117 104
0.111247 -0.253849 -0.451 107 79 76
0.265072 -0.356851 -0.634 247 255 255
0.284394 -0.356851 -0.634 225 232 240
0.285602 -0.356851 -0.634 234 239 255
0.351367 -0.357414 -0.635 202 207 227
0.355554 -0.357977 -0.636 200 206 228
0.38038 -0.35854 -0.637 44 81 149
0.393109 -0.357977 -0.636 154 167 209
0.440871 -0.357414 -0.635 46 85 144
0.459499 -0.356851 -0.634 161 164 195
0.462391 -0.356289 -0.633 173 169 192
0.464129 -0.345031 -0.613 108 99 102
0.436219 -0.316326 -0.562 112 78 69
0.427429 -0.306194 -0.544 112 78 76
0.425452 -0.301129 -0.535 124 84 74
0.42968 -0.294937 -0.524 140 93 77
0.433011 -0.293811 -0.522 145 94 77
0.443881 -0.289871 -0.515 152 103 86
0.448786 -0.289871 -0.515 149 100 83
0.46284 -0.293811 -0.522 140 94 79
0.46661 -0.294937 -0.524 143 97 82
0.0479714 -0.247366 -0.438 197 159 150
0.0495267 -0.246801 -0.437 200 162 151
0.0614448 -0.244542 -0.433 200 157 150
0.0685495 -0.243412 -0.431 197 155 143
0.0733048 -0.242848 -0.43 193 151 135
0.0915571 -0.245671 -0.435 144 105 90
0.0934286 -0.246236 -0.436 144 105 90
0.0980286 -0.247366 -0.438 132 97 91
0.116463 -0.258661 -0.458 98 73 76
0.117591 -0.259226 -0.459 97 75 78
0.12064 -0.26205 -0.464 99 77 80
0.125683 -0.267132 -0.473 95 83 93
0.222454 -0.357494 -0.633 226 230 239
0.252597 -0.357494 -0.633 190 200 235
0.25742 -0.357494 -0.633 180 190 226
0.29647 -0.358059 -0.634 231 241 253
0.34169 -0.358624 -0.635 192 195 212
0.363462 -0.358624 -0.635 197 202 224
0.376149 -0.359189 -0.636 52 76 146
0.405223 -0.359189 -0.636 169 175 189
0.407646 -0.359189 -0.636 152 160 179
0.419207 -0.359753 -0.637 162 168 194
0.421633 -0.359753 -0.637 184 187 206
0.456363 -0.357494 -0.633 46 61 102
0.461186 -0.357494 -0.633 176 176 200
0.433957 -0.313443 -0.555 111 77 68
0.426727 -0.298759 -0.529 131 87 76
0.4295 -0.2965 -0.525 147 96 79
0.429856 -0.29537 -0.523 147 96 79
0.456333 -0.292547 -0.518 141 95 79
0.483761 -0.301018 -0.533 147 104 88
0.485686 -0.301583 -0.534 145 102 86
0.0486943 -0.247633 -0.437 199 161 150
0.06624 -0.2448 -0.432 198 156 142
0.0716667 -0.243667 -0.43 189 147 131
0.0953076 -0.247633 -0.437 136 99 90
0.106854 -0.2533 -0.447 111 82 76
0.259831 -0.3587 -0.633 217 226 255
0.281534 -0.3587 -0.633 240 245 251
0.309754 -0.359267 -0.634 186 194 230
0.339945 -0.359267 -0.634 184 187 202
0.348398 -0.359267 -0.634 169 175 201
0.361043 -0.359833 -0.635 198 203 223
0.408857 -0.3604 -0.636 163 168 187
0.422183 -0.3604 -0.636 183 186 203
0.429986 -0.359833 -0.635 147 157 193
0.464069 -0.358133 -0.632 168 167 185
0.466523 -0.343967 -0.607 109 84 80
0.445956 -0.291267 -0.514 148 97 76
0.4705 -0.2975 -0.525 144 97 79
0.0456762 -0.250171 -0.44 197 159 148
0.0471371 -0.249034 -0.438 196 155 149
0.0733048 -0.244486 -0.43 187 146 128
0.0774 -0.244486 -0.43 187 144 128
0.0993143 -0.250171 -0.44 115 84 79
0.109529 -0.256426 -0.451 106 78 75
0.232937 -0.359337 -0.632 231 239 250
0.248587 -0.359337 -0.632 183 194 222
0.258217 -0.359337 -0.632 217 227 252
0.263449 -0.359906 -0.633 237 243 255
0.267066 -0.359906 -0.633 187 191 229
0.288769 -0.359906 -0.633 236 242 255
0.29962 -0.359906 -0.633 230 237 253
0.303237 -0.359906 -0.633 194 199 228
0.30806 -0.359906 -0.633 172 181 220
0.350813 -0.360474 -0.634 162 169 197
0.36709 -0.361043 -0.635 169 166 185
0.377976 -0.361043 -0.635 80 114 185
0.421519 -0.361043 -0.635 179 180 198
0.440689 -0.359906 -0.633 58 94 152
0.45154 -0.359906 -0.633 161 174 208
0.46694 -0.358769 -0.631 171 168 187
0.43319 -0.312714 -0.55 115 84 79
0.433011 -0.296794 -0.522 151 100 83
0.441919 -0.292814 -0.515 153 101 80
0.443881 -0.292814 -0.515 154 102 80
0.0501286 -0.248157 -0.435 200 160 152
0.0556714 -0.247016 -0.433 203 161 149
0.06062 -0.247016 -0.433 198 154 143
0.0693705 -0.245875 -0.431 194 152 136
0.0792219 -0.245875 -0.431 176 133 116
0.08352 -0.246446 -0.432 167 121 106
0.0907286 -0.248157 -0.435 144 105 100
0.0936429 -0.249298 -0.437 134 97 91
0.09658 -0.250439 -0.439 129 96 89
0.0974162 -0.250439 -0.439 126 93 86
0.11248 -0.260137 -0.456 100 76 76
0.12053 -0.266412 -0.467 100 78 80
0.123881 -0.269835 -0.473 106 86 88
0.249395 -0.35997 -0.631 179 191 231
0.292664 -0.35997 -0.631 233 239 253
0.302758 -0.360541 -0.632 223 229 251
0.329763 -0.361111 -0.633 173 191 237
0.35026 -0.361111 -0.633 162 169 197
0.355083 -0.361111 -0.633 183 188 210
0.370135 -0.361682 -0.634 106 112 160
0.374966 -0.361682 -0.634 80 109 175
0.379796 -0.361682 -0.634 67 98 165
0.42327 -0.361682 -0.634 171 170 186
0.437071 -0.361111 -0.633 140 149 182
0.445511 -0.361111 -0.633 71 100 158
0.464536 -0.35997 -0.631 165 166 184
0.465738 -0.35997 -0.631 170 171 189
0.429429 -0.308057 -0.54 129 89 81
0.435314 -0.296648 -0.52 154 103 84
0.439696 -0.294936 -0.517 155 102 84
0.444862 -0.293795 -0.515 152 97 77
0.461169 -0.296077 -0.519 141 92 75
0.0447362 -0.251275 -0.439 199 159 151
0.057321 -0.247841 -0.433 202 160 148
0.0693705 -0.246696 -0.431 192 150 134
0.0716667 -0.246124 -0.43 189 147 133
0.100608 -0.252992 -0.442 117 86 81
0.240982 -0.361172 -0.631 232 238 255
0.260212 -0.361172 -0.631 212 221 250
0.266222 -0.361172 -0.631 225 231 255
0.27507 -0.361745 -0.632 241 245 255
0.295068 -0.361172 -0.631 234 239 255
0.30035 -0.361745 -0.632 225 230 250
0.302758 -0.361745 -0.632 222 227 247
0.336465 -0.361745 -0.632 210 213 232
0.349707 -0.361745 -0.632 176 182 208
0.3587 -0.362317 -0.633 201 206 228
0.370757 -0.362317 -0.633 128 148 198
0.377381 -0.36289 -0.634 120 148 213
0.382211 -0.36289 -0.634 93 122 180
0.384627 -0.36289 -0.634 128 154 211
0.405723 -0.362317 -0.633 167 166 182
0.406929 -0.362317 -0.633 192 191 207
0.431566 -0.361745 -0.632 159 172 207
0.444808 -0.361745 -0.632 84 109 165
0.447215 -0.361745 -0.632 118 137 180
0.449623 -0.361745 -0.632 144 153 184
0.465 -0.3606 -0.63 165 170 190
0.471897 -0.359455 -0.628 73 81 120
0.471924 -0.348008 -0.608 108 84 82
0.468413 -0.344573 -0.602 111 87 85
0.427533 -0.303362 -0.53 140 93 83
0.427931 -0.302217 -0.528 146 98 86
0.431023 -0.298783 -0.522 154 103 86
0.435466 -0.297066 -0.519 157 104 86
0.440681 -0.295921 -0.517 156 104 83
0.465923 -0.29821 -0.521 144 95 78
0.479223 -0.302217 -0.528 145 98 82
0.566609 -0.345718 -0.604 195 199 211
0.04836 -0.24924 -0.434 197 157 147
0.0490733 -0.248666 -0.433 198 158 148
0.0498981 -0.248666 -0.433 199 159 149
0.0588343 -0.248091 -0.432 198 154 141
0.0677286 -0.247517 -0.431 194 152 138
0.0749429 -0.246943 -0.43 185 140 119
0.0800429 -0.247517 -0.431 176 133 117
0.0845381 -0.248666 -0.433 161 115 100
0.0928105 -0.250963 -0.437 136 100 86
0.106477 -0.257854 -0.449 105 77 74
0.11547 -0.264746 -0.461 94 72 74
0.2238 -0.3618 -0.63 248 248 255
0.231 -0.3618 -0.63 249 252 255
0.2322 -0.3618 -0.63 251 251 253
0.2334 -0.3618 -0.63 249 249 251
0.2358 -0.3618 -0.63 232 234 246
0.2526 -0.3618 -0.63 168 185 239
0.2598 -0.3618 -0.63 183 195 233
0.2646 -0.3618 -0.63 232 237 255
0.2862 -0.3618 -0.63 215 216 234
0.291 -0.3618 -0.63 223 224 242
0.3102 -0.3618 -0.63 134 153 209
0.3114 -0.3618 -0.63 123 145 205
0.326317 -0.362374 -0.631 79 111 170
0.36656 -0.362949 -0.632 132 138 162
0.368968 -0.362949 -0.632 100 108 157
0.377991 -0.363523 -0.633 96 126 178
0.399063 -0.362949 -0.632 190 193 212
0.400267 -0.362949 -0.632 195 197 210
0.40147 -0.362949 -0.632 172 174 187
0.430362 -0.362949 -0.632 157 164 192
0.454921 -0.362374 -0.631 173 171 195
0.445005 -0.324471 -0.565 117 84 79
0.429089 -0.308391 -0.537 138 91 81
0.428125 -0.302649 -0.527 150 101 87
0.441919 -0.295757 -0.515 149 97 76
0.480229 -0.303223 -0.528 146 99 83
0.496393 -0.30954 -0.539 150 104 88
0.0675714 -0.247762 -0.43 190 148 134
0.0989238 -0.254676 -0.442 120 89 84
0.112973 -0.263895 -0.458 95 73 75
0.2406 -0.363 -0.63 172 178 212
0.2658 -0.363 -0.63 237 240 255
0.272231 -0.363576 -0.631 239 243 254
0.29627 -0.363576 -0.631 233 235 255
0.3126 -0.363 -0.63 108 130 188
0.359337 -0.364152 -0.632 202 204 227
0.365356 -0.364152 -0.632 144 153 186
0.389432 -0.364152 -0.632 185 190 220
0.39184 -0.364152 -0.632 130 141 173
0.452517 -0.363576 -0.631 177 178 206
0.4698 -0.363 -0.63 165 164 182
0.477117 -0.361271 -0.627 161 161 187
0.430687 -0.310567 -0.539 139 92 82
0.42931 -0.308838 -0.536 141 94 84
0.428133 -0.306533 -0.532 148 100 88
0.433333 -0.299619 -0.52 157 105 83
0.435466 -0.299043 -0.519 159 106 88
0.450748 -0.296738 -0.515 149 98 79
0.485991 -0.305957 -0.531 149 106 89
0.490771 -0.307686 -0.534 148 105 88
0.0428676 -0.252628 -0.437 199 159 149
0.0474238 -0.250315 -0.433 200 158 146
0.05472 -0.249737 -0.432 204 162 150
0.100217 -0.256674 -0.444 116 87 81
0.235426 -0.363622 -0.629 254 249 255
0.260586 -0.363622 -0.629 146 163 206
0.2802 -0.3642 -0.63 191 189 213
0.2958 -0.3642 -0.63 235 243 255
0.310906 -0.363622 -0.629 134 161 216
0.3282 -0.3642 -0.63 85 99 144
0.3318 -0.3642 -0.63 189 198 231
0.363576 -0.364778 -0.631 164 162 199
0.403239 -0.364778 -0.631 183 185 200
0.404441 -0.364778 -0.631 189 190 211
0.429681 -0.364778 -0.631 177 179 204
0.4398 -0.3642 -0.63 115 135 186
0.461866 -0.363622 -0.629 74 78 107
0.46546 -0.363622 -0.629 122 130 167
0.478311 -0.362466 -0.627 127 136 175
0.428938 -0.308125 -0.533 148 100 88
0.434477 -0.300031 -0.519 157 105 84
0.438711 -0.298875 -0.517 155 103 82
0.4429 -0.297719 -0.515 151 96 76
0.450851 -0.297141 -0.514 152 101 82
0.455652 -0.297719 -0.515 143 94 77
0.46701 -0.30061 -0.52 142 95 77
0.47841 -0.304078 -0.526 149 102 86
0.480323 -0.304656 -0.527 149 102 86
0.04074 -0.25578 -0.441 196 156 146
0.05472 -0.25056 -0.432 207 163 152
0.06034 -0.24998 -0.431 197 153 142
0.078401 -0.24998 -0.431 173 131 117
0.0837133 -0.25114 -0.433 156 112 101
0.0949076 -0.25462 -0.439 131 98 91
0.111471 -0.26622 -0.459 96 75 74
0.112346 -0.26622 -0.459 96 75 74
0.227039 -0.36482 -0.629 248 251 255
0.231463 -0.36424 -0.628 250 249 254
0.232659 -0.36424 -0.628 247 246 251
0.257779 -0.36424 -0.628 146 164 214
0.318094 -0.36482 -0.629 154 182 230
0.319292 -0.36482 -0.629 173 201 249
0.3306 -0.3654 -0.63 138 153 196
0.3354 -0.3654 -0.63 212 216 243
0.3474 -0.3654 -0.63 202 203 221
0.364778 -0.36598 -0.631 90 94 129
0.370788 -0.36598 -0.631 193 199 225
0.43431 -0.36482 -0.629 133 137 162
0.4518 -0.3654 -0.63 176 175 193
0.455875 -0.36482 -0.629 140 139 145
0.475486 -0.36424 -0.628 128 146 196
0.476682 -0.36424 -0.628 143 154 184
0.454671 -0.2987 -0.515 149 98 81
0.0427695 -0.25371 -0.436 196 154 142
0.0578771 -0.250801 -0.431 198 154 141
0.0618381 -0.250219 -0.43 198 156 142
0.0634762 -0.250219 -0.43 197 155 141
0.0667524 -0.250219 -0.43 191 149 133
0.0794057 -0.251383 -0.432 166 124 108
0.0802286 -0.251383 -0.432 167 125 109
0.0847333 -0.252547 -0.434 151 107 96
0.0874143 -0.253129 -0.435 144 104 94
0.232659 -0.365436 -0.628 244 245 250
0.26376 -0.365436 -0.628 218 224 250
0.282899 -0.365436 -0.628 196 198 213
0.284837 -0.364854 -0.627 239 241 255
0.3558 -0.3666 -0.63 205 206 234
0.3582 -0.3666 -0.63 198 199 217
0.3666 -0.3666 -0.63 142 142 170
0.3906 -0.3666 -0.63 197 192 214
0.4146 -0.3666 -0.63 173 178 200
0.42113 -0.366018 -0.629 87 97 132
0.429517 -0.366018 -0.629 182 180 201
0.443894 -0.366018 -0.629 88 111 161
0.467112 -0.365436 -0.628 94 107 151
0.474729 -0.364854 -0.627 122 142 193
0.482738 -0.36369 -0.625 106 117 163
0.438429 -0.320048 -0.55 131 100 98
0.434627 -0.301427 -0.518 162 107 87
0.437727 -0.300845 -0.517 163 108 88
0.439829 -0.300263 -0.516 160 103 84
0.450851 -0.299099 -0.514 157 106 87
0.454768 -0.299099 -0.514 144 97 79
0.460469 -0.300263 -0.516 142 97 78
0.0497829 -0.252206 -0.432 197 153 140
0.0578771 -0.251622 -0.431 199 153 138
0.06034 -0.251622 -0.431 195 153 137
0.0626571 -0.251038 -0.43 199 156 140
0.0642952 -0.251038 -0.43 193 150 134
0.0651143 -0.251038 -0.43 191 149 133
0.0876152 -0.254541 -0.436 142 102 94
0.09534 -0.25746 -0.441 124 93 90
0.1079 -0.265633 -0.455 100 73 80
0.109484 -0.267385 -0.458 99 72 77
0.250203 -0.366049 -0.627 147 165 213
0.268117 -0.366049 -0.627 243 248 254
0.28842 -0.366049 -0.627 236 239 254
0.324766 -0.366632 -0.628 218 219 237
0.336728 -0.366632 -0.628 207 213 235
0.337924 -0.366632 -0.628 213 215 230
0.33912 -0.366632 -0.628 213 215 230
0.343254 -0.367216 -0.629 194 196 208
0.349245 -0.367216 -0.629 199 203 228
0.36482 -0.367216 -0.629 171 172 202
0.3762 -0.3678 -0.63 134 155 200
0.410348 -0.367216 -0.629 109 130 177
0.42405 -0.366632 -0.628 178 181 200
0.475923 -0.366049 -0.627 151 165 194
0.433333 -0.303581 -0.52 167 112 92
0.43364 -0.302413 -0.518 165 110 90
0.435613 -0.302413 -0.518 166 111 91
0.443881 -0.300662 -0.515 163 106 86
0.445843 -0.300662 -0.515 163 106 86
0.446935 -0.300078 -0.514 166 111 91
0.45183 -0.300078 -0.514 155 104 85
0.45281 -0.300078 -0.514 151 103 83
0.458595 -0.300662 -0.515 145 98 80
0.498447 -0.314673 -0.539 144 101 84
0.0457743 -0.253614 -0.433 199 155 144
0.0529514 -0.252443 -0.431 202 158 145
0.0545933 -0.252443 -0.431 198 154 141
0.0586981 -0.252443 -0.431 198 152 137
0.0667524 -0.251857 -0.43 189 147 131
0.0675714 -0.251857 -0.43 183 141 125
0.081239 -0.253614 -0.433 161 119 105
0.08308 -0.2542 -0.434 150 110 98
0.092399 -0.257129 -0.439 130 93 87
0.107033 -0.2665 -0.455 99 72 79
0.119881 -0.278214 -0.475 95 87 100
0.248611 -0.366657 -0.626 149 167 215
0.255766 -0.366657 -0.626 192 207 248
0.275283 -0.367243 -0.627 238 244 255
0.310615 -0.366657 -0.626 154 172 210
0.37081 -0.368414 -0.629 195 200 219
0.410891 -0.367829 -0.628 132 155 209
0.415676 -0.367829 -0.628 119 133 170
0.422853 -0.367829 -0.628 178 181 200
0.447973 -0.367829 -0.628 130 157 212
0.465174 -0.367243 -0.627 120 137 180
0.483929 -0.366071 -0.625 96 107 139
0.428682 -0.306914 -0.524 164 112 90
0.434627 -0.3034 -0.518 165 110 90
0.445843 -0.301643 -0.515 163 106 86
0.04092 -0.255027 -0.434 202 158 145
0.0424752 -0.254439 -0.433 198 151 141
0.0480257 -0.253264 -0.431 196 152 141
0.059381 -0.252676 -0.43 198 152 137
0.0642952 -0.252676 -0.43 196 150 137
0.0955562 -0.259728 -0.442 122 91 88
0.102201 -0.263841 -0.449 105 79 78
0.234303 -0.36785 -0.626 236 240 252
0.280806 -0.36785 -0.626 225 227 239
0.309423 -0.36785 -0.626 166 182 218
0.321347 -0.36785 -0.626 194 208 235
0.323731 -0.36785 -0.626 214 220 246
0.344551 -0.368437 -0.627 130 138 175
0.349329 -0.368437 -0.627 198 201 220
0.423374 -0.368437 -0.627 178 183 202
0.429346 -0.368437 -0.627 144 146 158
0.435317 -0.368437 -0.627 81 109 157
0.46801 -0.36785 -0.626 159 167 203
0.481548 -0.367262 -0.625 141 149 172
0.477231 -0.354334 -0.603 120 92 89
0.430029 -0.306737 -0.522 168 111 92
0.434627 -0.304387 -0.518 168 113 93
0.434772 -0.303799 -0.517 168 113 93
0.450951 -0.301449 -0.513 166 111 91
0.454768 -0.302036 -0.514 155 104 85
0.469981 -0.305562 -0.52 150 103 87
0.0456686 -0.254674 -0.432 196 150 137
0.0569238 -0.253495 -0.43 200 154 139
0.059381 -0.253495 -0.43 198 150 136
0.0716667 -0.253495 -0.43 171 128 112
0.0742962 -0.254085 -0.431 173 130 113
0.119728 -0.281792 -0.478 100 88 92
0.220833 -0.368452 -0.625 208 207 223
0.258929 -0.368452 -0.625 246 252 255
0.279613 -0.369042 -0.626 193 195 208
0.284383 -0.369042 -0.626 233 238 255
0.323731 -0.369042 -0.626 211 218 244
0.328501 -0.369042 -0.626 214 215 235
0.345194 -0.369042 -0.626 97 111 158
0.358883 -0.369631 -0.627 144 163 196
0.3971 -0.369631 -0.627 106 128 177
0.416209 -0.369631 -0.627 80 94 139
0.429346 -0.369631 -0.627 168 170 182
0.4382 -0.369042 -0.626 106 132 183
0.458009 -0.369631 -0.627 179 176 195
0.472779 -0.369042 -0.626 77 90 135
0.434793 -0.317753 -0.539 146 98 86
0.43688 -0.304194 -0.516 175 118 98
0.439829 -0.304194 -0.516 166 109 89
0.443998 -0.303015 -0.514 170 112 92
0.0377867 -0.257863 -0.436 195 151 138
0.0577429 -0.254314 -0.43 198 152 137
0.0675714 -0.254314 -0.43 183 140 124
0.0734752 -0.254906 -0.431 171 128 111
0.09366 -0.26082 -0.441 117 86 83
0.26208 -0.369051 -0.624 201 204 237
0.282738 -0.369643 -0.625 233 235 255
0.327309 -0.370234 -0.626 218 217 235
0.329693 -0.370234 -0.626 211 212 240
0.3375 -0.369643 -0.625 181 185 212
0.391697 -0.370234 -0.626 189 181 194
0.435815 -0.370234 -0.626 93 114 169
0.450843 -0.370826 -0.627 176 179 196
0.454893 -0.370234 -0.626 176 174 198
0.456086 -0.370234 -0.626 169 166 187
0.468452 -0.369643 -0.625 166 167 188
0.472024 -0.369643 -0.625 91 100 141
0.486345 -0.367869 -0.622 110 113 132
0.430362 -0.307543 -0.52 171 114 94
0.435757 -0.305769 -0.517 169 112 93
0.444111 -0.303403 -0.513 174 117 98
0.44802 -0.303403 -0.513 170 115 95
0.451929 -0.303403 -0.513 160 109 90
0.4635 -0.304586 -0.515 152 103 88
0.0399086 -0.25632 -0.432 197 153 140
0.0602 -0.255133 -0.43 197 151 136
0.0692095 -0.255133 -0.43 177 134 118
0.076759 -0.255727 -0.431 166 123 107
0.08308 -0.257507 -0.434 145 105 95
0.0878162 -0.259287 -0.437 136 99 93
0.0888514 -0.25988 -0.438 132 95 89
0.0970524 -0.264033 -0.445 111 83 80
0.104433 -0.269967 -0.455 99 75 73
0.110918 -0.275307 -0.464 95 75 74
0.234743 -0.37024 -0.624 184 190 216
0.281097 -0.37024 -0.624 204 206 231
0.293452 -0.370833 -0.625 193 200 219
0.295833 -0.370833 -0.625 215 217 242
0.304167 -0.370833 -0.625 198 204 226
0.318452 -0.370833 -0.625 146 165 205
0.320833 -0.370833 -0.625 182 201 233
0.322024 -0.370833 -0.625 222 219 240
0.35831 -0.371427 -0.626 172 191 247
0.394643 -0.370833 -0.625 164 167 184
0.424405 -0.370833 -0.625 180 184 209
0.425595 -0.370833 -0.625 183 186 203
0.426786 -0.370833 -0.625 181 184 201
0.43869 -0.370833 -0.625 111 139 186
0.443452 -0.370833 -0.625 89 117 164
0.444643 -0.370833 -0.625 105 123 169
0.450124 -0.371427 -0.626 172 173 194
0.466071 -0.370833 -0.625 174 172 194
0.472457 -0.37024 -0.624 163 165 190
0.479589 -0.37024 -0.624 170 172 195
0.480777 -0.37024 -0.624 169 170 191
0.450403 -0.33286 -0.561 121 92 84
0.46916 -0.307347 -0.518 152 105 89
0.493823 -0.31684 -0.534 147 103 94
0.502357 -0.320993 -0.541 144 98 85
0.0495524 -0.255952 -0.43 198 152 139
0.0511905 -0.255952 -0.43 199 153 140
0.0520095 -0.255952 -0.43 199 153 138
0.0528286 -0.255952 -0.43 199 153 138
0.0561048 -0.255952 -0.43 197 149 135
0.0742962 -0.256548 -0.431 174 128 112
0.0822533 -0.258333 -0.434 149 109 99
0.0859543 -0.259524 -0.436 138 100 91
0.0909333 -0.261905 -0.44 123 89 87
0.09856 -0.266667 -0.448 106 80 81
0.107567 -0.274405 -0.461 95 74 71
0.113007 -0.279167 -0.469 95 74 79
0.23712 -0.371429 -0.624 235 238 253
0.269211 -0.371429 -0.624 238 244 255
0.275154 -0.371429 -0.624 210 214 225
0.280647 -0.370833 -0.623 188 192 221
0.297737 -0.371429 -0.624 233 231 255
0.312 -0.371429 -0.624 171 189 227
0.317943 -0.371429 -0.624 133 152 194
0.325074 -0.371429 -0.624 214 221 237
0.331017 -0.371429 -0.624 203 211 230
0.370833 -0.372024 -0.625 105 119 154
0.379167 -0.372024 -0.625 102 129 176
0.425595 -0.372024 -0.625 180 185 205
0.431548 -0.372024 -0.625 156 164 175
0.4368 -0.371429 -0.624 106 134 181
0.468891 -0.371429 -0.624 174 174 198
0.474073 -0.370833 -0.623 166 166 190
0.439957 -0.306548 -0.515 171 114 94
0.4825 -0.3125 -0.525 144 101 85
0.0331048 -0.262743 -0.44 197 159 138
0.0470952 -0.256771 -0.43 198 152 139
0.0667524 -0.256771 -0.43 182 139 122
0.0675714 -0.256771 -0.43 181 138 121
0.0701914 -0.257369 -0.431 172 131 113
0.0832714 -0.259757 -0.435 142 104 93
0.096421 -0.266326 -0.446 107 81 80
0.0974886 -0.266923 -0.447 106 80 79
0.276343 -0.372617 -0.624 228 233 253
0.301303 -0.372617 -0.624 230 232 255
0.313189 -0.372617 -0.624 166 185 228
0.380357 -0.373214 -0.625 101 122 167
0.385691 -0.372617 -0.624 192 190 212
0.401687 -0.37202 -0.623 185 185 209
0.407086 -0.372617 -0.624 86 104 154
0.422537 -0.372617 -0.624 76 81 113
0.435611 -0.372617 -0.624 98 118 169
0.440366 -0.372617 -0.624 103 131 181
0.459383 -0.372617 -0.624 174 175 193
0.43119 -0.311111 -0.521 174 117 100
0.440082 -0.306931 -0.514 173 116 96
0.44204 -0.306931 -0.514 171 114 94
0.446066 -0.306334 -0.513 172 117 96
0.502457 -0.322457 -0.54 144 98 82
0.0336343 -0.261185 -0.436 197 159 140
0.0693705 -0.25819 -0.431 175 132 113
0.0742962 -0.25819 -0.431 170 124 108
0.0787648 -0.259388 -0.433 157 115 101
0.0882181 -0.262982 -0.439 127 94 89
0.11373 -0.28275 -0.472 95 79 82
0.235553 -0.373207 -0.623 249 249 255
0.2403 -0.373207 -0.623 206 208 220
0.266407 -0.373207 -0.623 230 233 252
0.28375 -0.372608 -0.622 225 231 255
0.296073 -0.373207 -0.623 232 233 254
0.305076 -0.372608 -0.622 170 180 215
0.33351 -0.372608 -0.622 92 106 141
0.337607 -0.373207 -0.623 169 182 217
0.373806 -0.373806 -0.624 138 156 192
0.382126 -0.373806 -0.624 184 189 211
0.412367 -0.373207 -0.623 186 186 210
0.426103 -0.373806 -0.624 151 157 189
0.434913 -0.373207 -0.623 96 113 159
0.44512 -0.373806 -0.624 135 154 196
0.449874 -0.373806 -0.624 174 171 198
0.466953 -0.373207 -0.623 174 175 196
0.485563 -0.372009 -0.621 110 109 125
0.487143 -0.37141 -0.62 84 86 107
0.434409 -0.318094 -0.531 162 106 89
0.432182 -0.312104 -0.521 163 111 89
0.441061 -0.30791 -0.514 173 117 94
0.475924 -0.311505 -0.52 153 107 91
0.0343067 -0.260813 -0.434 197 154 138
0.0405429 -0.25841 -0.43 205 159 143
0.0718333 -0.25901 -0.431 167 126 106
0.0769371 -0.259611 -0.432 158 116 100
0.0934514 -0.266823 -0.444 113 84 80
0.0955714 -0.268025 -0.446 109 81 78
0.101833 -0.273433 -0.455 98 77 76
0.301522 -0.373792 -0.622 229 234 255
0.309815 -0.373792 -0.622 163 182 224
0.318109 -0.373792 -0.622 133 155 194
0.33588 -0.373792 -0.622 180 190 226
0.341804 -0.373792 -0.622 130 151 196
0.344173 -0.373792 -0.622 112 130 178
0.347728 -0.373792 -0.622 195 202 230
0.356593 -0.374393 -0.623 151 160 193
0.362527 -0.374393 -0.623 199 203 228
0.374393 -0.374393 -0.623 137 160 202
0.423047 -0.374393 -0.623 76 81 113
0.440139 -0.373792 -0.622 72 103 158
0.452713 -0.374393 -0.623 74 78 115
0.458647 -0.374393 -0.623 180 178 200
0.488324 -0.37259 -0.62 71 80 111
0.451991 -0.335932 -0.559 131 96 90
0.442748 -0.327519 -0.545 134 102 91
0.450072 -0.307688 -0.512 175 117 93
0.4617 -0.308289 -0.513 153 103 80
0.491133 -0.318505 -0.53 148 105 86
0.499666 -0.322711 -0.537 147 104 85
0.0326533 -0.26164 -0.434 195 152 136
0.043819 -0.259229 -0.43 201 155 139
0.0469857 -0.258626 -0.429 200 155 136
0.0584257 -0.258626 -0.429 192 149 130
0.06006 -0.258626 -0.429 191 148 129
0.0726543 -0.259831 -0.431 165 124 104
0.0947219 -0.268874 -0.446 109 81 80
0.218237 -0.374374 -0.621 228 233 255
0.275457 -0.374977 -0.622 213 223 250
0.27738 -0.374374 -0.621 146 155 198
0.282111 -0.374374 -0.621 198 207 246
0.297968 -0.374977 -0.622 226 232 255
0.324032 -0.374977 -0.622 212 213 241
0.32706 -0.374374 -0.621 200 202 225
0.337706 -0.374374 -0.621 204 210 232
0.34362 -0.374374 -0.621 131 145 184
0.383887 -0.37558 -0.623 190 196 220
0.38564 -0.374977 -0.622 180 181 202
0.391564 -0.374977 -0.622 125 126 154
0.405781 -0.374977 -0.622 175 180 200
0.411705 -0.374977 -0.622 185 188 207
0.434215 -0.374977 -0.622 114 132 178
0.45034 -0.37558 -0.623 126 132 166
0.442971 -0.327954 -0.544 139 102 83
0.434627 -0.31228 -0.518 175 121 97
0.435897 -0.311074 -0.516 174 120 96
0.459746 -0.309266 -0.513 158 108 85
0.0348905 -0.260652 -0.431 199 156 139
0.0535229 -0.259443 -0.429 194 149 130
0.110327 -0.283633 -0.469 98 77 76
0.224151 -0.375557 -0.621 189 195 229
0.230066 -0.375557 -0.621 245 244 252
0.232431 -0.375557 -0.621 248 247 253
0.23598 -0.375557 -0.621 244 247 255
0.272649 -0.375557 -0.621 190 196 228
0.286843 -0.375557 -0.621 194 200 232
0.304586 -0.375557 -0.621 160 169 202
0.31878 -0.375557 -0.621 187 206 239
0.319963 -0.375557 -0.621 216 217 248
0.338889 -0.375557 -0.621 204 209 239
0.342437 -0.375557 -0.621 113 126 161
0.347169 -0.375557 -0.621 202 204 229
0.348351 -0.375557 -0.621 204 205 233
0.379716 -0.376162 -0.622 150 165 206
0.382086 -0.376162 -0.622 180 184 213
0.387386 -0.375557 -0.621 101 109 130
0.389751 -0.375557 -0.621 99 101 139
0.390934 -0.375557 -0.621 158 162 187
0.398031 -0.375557 -0.621 191 196 216
0.411043 -0.375557 -0.621 188 191 210
0.420506 -0.375557 -0.621 165 169 198
0.429969 -0.375557 -0.621 143 157 196
0.438249 -0.375557 -0.621 50 84 158
0.44298 -0.375557 -0.621 102 130 177
0.460723 -0.375557 -0.621 176 175 191
0.464271 -0.375557 -0.621 163 164 184
0.466637 -0.375557 -0.621 154 159 181
0.47179 -0.374952 -0.62 139 149 176
0.481238 -0.374952 -0.62 118 108 109
0.43364 -0.313267 -0.518 174 120 94
0.446273 -0.309033 -0.511 175 119 94
0.460723 -0.310243 -0.513 159 109 86
0.47128 -0.312057 -0.516 156 110 87
0.473178 -0.312662 -0.517 156 110 87
0.0340695 -0.261473 -0.431 200 157 138
0.04862 -0.26026 -0.429 198 153 132
0.0535229 -0.26026 -0.429 192 147 128
0.0641457 -0.26026 -0.429 181 139 117
0.09988 -0.275427 -0.454 98 78 79
0.107846 -0.282707 -0.466 93 74 78
0.112643 -0.288167 -0.475 94 80 77
0.234797 -0.37674 -0.621 243 247 255
0.243867 -0.376133 -0.62 185 199 238
0.261581 -0.376133 -0.62 243 245 255
0.292286 -0.376133 -0.62 225 228 255
0.295829 -0.376133 -0.62 232 231 255
0.314724 -0.376133 -0.62 141 156 199
0.320629 -0.376133 -0.62 210 213 246
0.330076 -0.376133 -0.62 200 205 227
0.363729 -0.37674 -0.621 183 187 212
0.373191 -0.37674 -0.621 100 123 173
0.374374 -0.37674 -0.621 93 116 166
0.382654 -0.37674 -0.621 195 195 229
0.383837 -0.37674 -0.621 189 193 222
0.393848 -0.376133 -0.62 189 198 215
0.416286 -0.376133 -0.62 185 187 210
0.424054 -0.37674 -0.621 93 98 120
0.428095 -0.376133 -0.62 149 158 199
0.432819 -0.376133 -0.62 94 119 175
0.437066 -0.37674 -0.621 46 78 155
0.44298 -0.37674 -0.621 88 121 172
0.453626 -0.37674 -0.621 159 163 188
0.487536 -0.375527 -0.619 142 148 174
0.44564 -0.33124 -0.546 134 105 91
0.44822 -0.310007 -0.511 177 123 99
0.454949 -0.310613 -0.512 171 119 97
0.456899 -0.310613 -0.512 168 118 95
0.468474 -0.311827 -0.514 157 112 93
0.0469857 -0.261077 -0.429 200 155 134
0.0518886 -0.261077 -0.429 195 150 129
0.109667 -0.286029 -0.47 90 65 71
0.232057 -0.377314 -0.62 247 246 252
0.2356 -0.377314 -0.62 243 247 255
0.263517 -0.376706 -0.619 247 249 255
0.280476 -0.377314 -0.62 185 189 226
0.284019 -0.377314 -0.62 225 230 255
0.288743 -0.377314 -0.62 223 229 253
0.292286 -0.377314 -0.62 186 190 225
0.327714 -0.377314 -0.62 121 128 156
0.362546 -0.377923 -0.621 107 126 168
0.364911 -0.377923 -0.621 191 201 237
0.383219 -0.377314 -0.62 183 196 231
0.390854 -0.376706 -0.619 180 179 193
0.439905 -0.377314 -0.62 60 91 156
0.474567 -0.376706 -0.619 130 127 136
0.477057 -0.359057 -0.59 123 96 103
0.435669 -0.318891 -0.524 163 113 90
0.43688 -0.314023 -0.516 175 118 91
0.438124 -0.312806 -0.514 177 120 93
0.457874 -0.311589 -0.512 174 120 96
0.467495 -0.312806 -0.514 157 110 90
0.0348095 -0.262505 -0.43 200 158 136
0.0363629 -0.261894 -0.429 202 160 138
0.0429 -0.261894 -0.429 203 158 135
0.0625114 -0.261894 -0.429 181 139 115
0.0771152 -0.264336 -0.433 153 110 101
0.08468 -0.267389 -0.438 127 93 91
0.0857095 -0.267999 -0.439 124 90 88
0.08778 -0.26922 -0.441 124 90 88
0.0942933 -0.273493 -0.448 106 80 79
0.10854 -0.286313 -0.469 93 73 75
0.29653 -0.377885 -0.619 222 227 255
0.308321 -0.377885 -0.619 151 166 205
0.314216 -0.377885 -0.619 158 174 208
0.32129 -0.377885 -0.619 212 216 245
0.324828 -0.377885 -0.619 140 146 178
0.386138 -0.377885 -0.619 102 121 163
0.392033 -0.377885 -0.619 149 148 154
0.402645 -0.377885 -0.619 151 157 179
0.406182 -0.377885 -0.619 161 172 200
0.441553 -0.377885 -0.619 49 79 149
0.443448 -0.378495 -0.62 45 79 151
0.472623 -0.377274 -0.618 134 139 161
0.474977 -0.377274 -0.618 115 114 122
0.484394 -0.377274 -0.618 169 171 186
0.448316 -0.334541 -0.548 137 100 92
0.47331 -0.314395 -0.515 156 114 92
0.48943 -0.32111 -0.526 150 107 90
0.0307857 -0.263936 -0.431 198 155 136
0.0324276 -0.263936 -0.431 200 157 138
0.0957838 -0.276184 -0.451 103 79 79
0.109003 -0.288431 -0.471 94 74 76
0.263091 -0.378451 -0.618 199 202 217
0.2678 -0.378451 -0.618 235 236 254
0.274129 -0.379064 -0.619 228 233 255
0.280024 -0.379064 -0.619 214 214 242
0.288277 -0.379064 -0.619 227 232 252
0.310177 -0.378451 -0.618 155 176 219
0.323126 -0.378451 -0.618 125 134 173
0.331366 -0.378451 -0.618 188 190 202
0.332543 -0.378451 -0.618 214 216 228
0.390223 -0.378451 -0.618 159 161 176
0.411411 -0.378451 -0.618 183 186 205
0.413766 -0.378451 -0.618 187 186 202
0.433777 -0.378451 -0.618 30 63 130
0.436131 -0.378451 -0.618 21 56 120
0.452165 -0.379064 -0.619 167 173 199
0.479802 -0.36253 -0.592 130 98 101
0.435314 -0.318438 -0.52 170 115 95
0.435613 -0.317213 -0.518 173 118 97
0.43688 -0.315989 -0.516 171 115 92
0.460873 -0.312927 -0.511 166 116 93
0.49899 -0.326399 -0.533 148 112 90
0.0437171 -0.263529 -0.429 202 156 132
0.0608771 -0.263529 -0.429 185 140 117
0.0625114 -0.263529 -0.429 182 137 116
0.07794 -0.265986 -0.433 149 105 94
0.0807857 -0.267214 -0.435 134 97 91
0.0947143 -0.276429 -0.45 102 77 80
0.0970714 -0.278271 -0.453 102 77 80
0.225423 -0.379629 -0.618 184 190 214
0.227777 -0.379629 -0.618 244 250 255
0.277217 -0.379629 -0.618 181 188 207
0.278394 -0.379629 -0.618 181 188 207
0.281926 -0.379629 -0.618 232 233 253
0.29252 -0.379629 -0.618 158 164 196
0.294874 -0.379629 -0.618 146 154 190
0.297229 -0.379629 -0.618 196 204 241
0.301937 -0.379629 -0.618 203 207 234
0.310177 -0.379629 -0.618 130 153 203
0.311354 -0.379629 -0.618 129 152 202
0.35902 -0.380243 -0.619 173 180 208
0.361962 -0.380857 -0.62 72 82 117
0.37199 -0.380243 -0.619 78 108 172
0.373169 -0.380243 -0.619 73 103 167
0.374348 -0.380243 -0.619 70 103 170
0.400817 -0.379629 -0.618 145 152 178
0.406703 -0.379629 -0.618 146 159 193
0.435426 -0.379014 -0.617 28 62 125
0.446726 -0.379629 -0.618 47 78 135
0.454523 -0.380243 -0.619 183 182 200
0.460851 -0.379629 -0.618 175 176 181
0.468332 -0.379014 -0.617 159 159 183
0.471471 -0.355671 -0.579 136 97 92
0.451 -0.337857 -0.55 130 99 96
0.444033 -0.3311 -0.539 135 107 96
0.438163 -0.323729 -0.527 155 109 96
0.44238 -0.3139 -0.511 179 125 99
0.442486 -0.313286 -0.51 178 124 98
0.444429 -0.313286 -0.51 177 123 97
0.4522 -0.313286 -0.51 182 128 102
0.455114 -0.313286 -0.51 176 124 100
0.471471 -0.315129 -0.513 158 113 92
0.0387238 -0.26373 -0.428 202 156 130
0.0436152 -0.26373 -0.428 200 154 128
0.0468762 -0.26373 -0.428 194 150 125
0.0525829 -0.26373 -0.428 191 147 122
0.0533981 -0.26373 -0.428 192 148 123
0.0633286 -0.264346 -0.429 181 136 115
0.08694 -0.27174 -0.441 119 85 83
0.0881781 -0.272972 -0.443 116 82 80
0.0949248 -0.277902 -0.451 101 76 79
0.216831 -0.38019 -0.617 229 240 255
0.227409 -0.38019 -0.617 212 218 240
0.272068 -0.38019 -0.617 234 236 251
0.279119 -0.38019 -0.617 232 233 253
0.28147 -0.38019 -0.617 235 236 255
0.317902 -0.38019 -0.617 206 215 248
0.319077 -0.38019 -0.617 205 214 247
0.329654 -0.38019 -0.617 212 215 224
0.343692 -0.381422 -0.619 201 206 226
0.351946 -0.381422 -0.619 202 208 222
0.360199 -0.381422 -0.619 162 167 196
0.364324 -0.382038 -0.62 110 118 154
0.366686 -0.382038 -0.62 121 130 171
0.381983 -0.380806 -0.618 47 75 140
0.3914 -0.380806 -0.618 168 165 172
0.411921 -0.38019 -0.617 185 184 202
0.438951 -0.38019 -0.617 31 67 129
0.45732 -0.380806 -0.618 174 173 178
0.463631 -0.38019 -0.617 176 174 185
0.468332 -0.38019 -0.617 174 172 193
0.471858 -0.38019 -0.617 172 174 186
0.473033 -0.38019 -0.617 170 169 185
0.450404 -0.337672 -0.548 131 104 95
0.436305 -0.320419 -0.52 166 115 96
0.4522 -0.314257 -0.51 185 131 107
0.46574 -0.314873 -0.511 164 117 97
0.4905 -0.3235 -0.525 151 109 93
0.0307143 -0.265781 -0.43 200 158 133
0.0419848 -0.264545 -0.428 198 154 127
0.0558438 -0.264545 -0.428 185 140 117
0.06006 -0.265163 -0.429 185 140 121
0.0675714 -0.265781 -0.43 170 127 110
0.0840371 -0.271344 -0.439 130 95 91
0.0915286 -0.276289 -0.447 106 80 83
0.0938571 -0.278143 -0.45 101 76 79
0.228584 -0.381365 -0.617 193 200 228
0.243467 -0.380747 -0.616 191 201 236
0.254027 -0.380747 -0.616 236 242 254
0.25872 -0.380747 -0.616 181 190 219
0.266933 -0.380747 -0.616 188 190 205
0.270453 -0.380747 -0.616 241 245 255
0.277944 -0.381365 -0.617 228 231 250
0.289696 -0.381365 -0.617 223 230 249
0.290871 -0.381365 -0.617 227 235 255
0.30096 -0.380747 -0.616 182 186 211
0.302624 -0.381365 -0.617 162 170 193
0.327304 -0.381365 -0.617 206 213 229
0.34196 -0.381983 -0.618 161 165 190
0.345491 -0.381983 -0.618 201 205 230
0.347846 -0.381983 -0.618 197 202 222
0.364915 -0.382601 -0.619 63 79 131
0.386066 -0.381365 -0.617 176 180 205
0.402519 -0.381365 -0.617 129 142 174
0.411921 -0.381365 -0.617 185 184 202
0.426507 -0.380747 -0.616 108 134 185
0.486347 -0.380747 -0.616 69 83 122
0.439226 -0.317083 -0.513 176 121 101
0.447435 -0.31461 -0.509 181 129 105
0.460943 -0.315229 -0.51 170 119 98
0.464767 -0.315847 -0.511 165 119 96
0.480071 -0.319555 -0.517 154 111 95
0.0322771 -0.26598 -0.429 202 160 135
0.03538 -0.26474 -0.427 205 161 136
0.0379086 -0.26536 -0.428 205 161 136
0.0501371 -0.26536 -0.428 194 148 125
0.0574743 -0.26536 -0.428 189 143 119
0.0940657 -0.27962 -0.451 99 73 76
0.098799 -0.28334 -0.457 99 74 77
0.107664 -0.29326 -0.473 92 73 79
0.214133 -0.38192 -0.616 214 222 245
0.22 -0.38192 -0.616 239 242 249
0.259893 -0.38192 -0.616 159 168 199
0.309173 -0.38192 -0.616 96 125 193
0.326129 -0.38254 -0.617 203 213 240
0.356086 -0.38316 -0.618 200 205 224
0.364326 -0.38316 -0.618 49 70 133
0.394827 -0.38192 -0.616 124 119 126
0.42064 -0.38192 -0.616 185 183 205
0.4488 -0.38192 -0.616 101 111 147
0.461707 -0.38192 -0.616 183 179 194
0.47696 -0.38192 -0.616 121 115 127
0.484386 -0.3813 -0.615 71 85 122
0.439103 -0.31868 -0.514 174 122 100
0.452283 -0.31558 -0.509 187 135 111
0.454222 -0.31558 -0.509 179 125 99
0.460039 -0.31558 -0.509 170 120 97
0.464829 -0.3162 -0.51 164 117 97
0.46866 -0.31682 -0.511 160 115 96
0.0268048 -0.269285 -0.433 198 157 135
0.0411695 -0.266175 -0.428 199 153 129
0.0419848 -0.266175 -0.428 201 155 131
0.0550286 -0.266175 -0.428 192 146 122
0.0667524 -0.267419 -0.43 171 125 112
0.0811571 -0.271772 -0.437 135 95 93
0.0842286 -0.273638 -0.44 125 87 86
0.238386 -0.382471 -0.615 215 217 240
0.2583 -0.382471 -0.615 149 155 189
0.279386 -0.382471 -0.615 230 235 255
0.294614 -0.382471 -0.615 171 174 205
0.314529 -0.382471 -0.615 103 137 200
0.337333 -0.383093 -0.616 168 174 186
0.347283 -0.383715 -0.617 163 167 194
0.351984 -0.383715 -0.617 196 199 216
0.369612 -0.383715 -0.617 41 73 146
0.3977 -0.382471 -0.615 187 187 199
0.42064 -0.383093 -0.616 159 161 186
0.4387 -0.382471 -0.615 98 133 191
0.457013 -0.383093 -0.616 142 144 159
0.45936 -0.383093 -0.616 180 178 192
0.4715 -0.382471 -0.615 172 174 195
0.472671 -0.382471 -0.615 175 177 198
0.475014 -0.382471 -0.615 169 168 182
0.478133 -0.383093 -0.616 113 107 119
0.451666 -0.340182 -0.547 135 104 99
0.443151 -0.331475 -0.533 139 106 101
0.4454 -0.317171 -0.51 178 126 102
0.484894 -0.322769 -0.519 150 109 91
0.491562 -0.325878 -0.524 146 107 90
0.0230476 -0.274476 -0.44 198 157 137
0.0313867 -0.26699 -0.428 204 159 138
0.0410733 -0.266367 -0.427 199 153 130
0.0419848 -0.26699 -0.428 200 154 131
0.0550286 -0.26699 -0.428 191 145 121
0.0649629 -0.267614 -0.429 171 125 109
0.0842286 -0.274476 -0.44 125 87 86
0.1023 -0.290071 -0.465 95 71 71
0.214957 -0.383643 -0.615 249 249 255
0.270745 -0.383019 -0.614 219 218 234
0.298813 -0.383019 -0.614 118 131 165
0.335614 -0.383643 -0.615 148 155 165
0.376053 -0.384267 -0.616 84 124 194
0.384814 -0.383643 -0.615 182 188 220
0.396529 -0.383643 -0.615 155 154 162
0.435648 -0.383019 -0.614 86 121 177
0.440326 -0.383019 -0.614 137 161 205
0.476186 -0.383643 -0.615 165 166 186
0.438136 -0.325005 -0.521 146 113 98
0.456232 -0.316895 -0.508 177 125 101
0.460103 -0.316895 -0.508 170 120 97
0.46107 -0.316895 -0.508 169 121 99
0.468714 -0.318143 -0.51 160 113 93
0.477286 -0.320638 -0.514 152 111 91
0.479195 -0.321262 -0.515 150 109 89
0.501163 -0.331243 -0.531 148 111 93
0.0452457 -0.267806 -0.428 194 148 125
0.0540867 -0.26718 -0.427 190 144 121
0.0616943 -0.268431 -0.429 178 132 117
0.0764667 -0.27156 -0.434 144 104 94
0.0955562 -0.284074 -0.454 92 72 74
0.20876 -0.384189 -0.614 241 244 253
0.215777 -0.384189 -0.614 246 246 255
0.220455 -0.384189 -0.614 243 248 251
0.227472 -0.384189 -0.614 203 216 232
0.23449 -0.384189 -0.614 233 238 255
0.25788 -0.384189 -0.614 214 218 245
0.260219 -0.384189 -0.614 236 238 255
0.268406 -0.384189 -0.614 210 213 228
0.284779 -0.384189 -0.614 226 228 251
0.297644 -0.384189 -0.614 127 134 162
0.298813 -0.384189 -0.614 108 123 164
0.309339 -0.384189 -0.614 88 117 185
0.318043 -0.384814 -0.615 76 110 171
0.329757 -0.384814 -0.615 206 209 226
0.335069 -0.384189 -0.614 130 133 140
0.346157 -0.384814 -0.615 172 174 195
0.347329 -0.384814 -0.615 187 189 210
0.370757 -0.384814 -0.615 68 98 168
0.377786 -0.384814 -0.615 125 146 201
0.3977 -0.384814 -0.615 191 189 200
0.4223 -0.384814 -0.615 89 108 151
0.428157 -0.384814 -0.615 149 162 196
0.443834 -0.384189 -0.614 169 178 211
0.466055 -0.384189 -0.614 121 123 148
0.468394 -0.384189 -0.614 167 169 192
0.475411 -0.384189 -0.614 177 178 199
0.478529 -0.384814 -0.615 113 118 147
0.438846 -0.322869 -0.516 166 118 95
0.439226 -0.320991 -0.513 175 121 95
0.44238 -0.31974 -0.511 177 127 102
0.463006 -0.317863 -0.508 169 121 99
0.573233 -0.371049 -0.593 96 103 132
0.0243305 -0.271759 -0.433 195 157 134
0.0370067 -0.267993 -0.427 200 155 134
0.0467667 -0.267993 -0.427 192 146 123
0.0558438 -0.268621 -0.428 184 138 115
0.0582895 -0.268621 -0.428 185 139 116
0.0591048 -0.268621 -0.428 181 135 112
0.0683905 -0.269876 -0.43 165 123 109
0.101414 -0.291843 -0.465 93 72 71
0.20993 -0.385358 -0.614 243 246 255
0.214608 -0.385358 -0.614 244 246 255
0.251622 -0.38473 -0.613 160 177 223
0.25279 -0.38473 -0.613 157 170 212
0.253957 -0.38473 -0.613 154 167 209
0.25746 -0.38473 -0.613 229 234 255
0.266801 -0.38473 -0.613 233 235 248
0.276142 -0.38473 -0.613 176 175 193
0.310509 -0.385358 -0.614 72 101 171
0.350843 -0.385986 -0.615 199 202 211
0.353186 -0.385986 -0.615 200 203 212
0.355529 -0.385986 -0.615 138 135 146
0.361386 -0.385986 -0.615 105 113 159
0.402901 -0.385358 -0.614 192 192 204
0.45436 -0.385358 -0.614 97 99 122
0.463716 -0.385358 -0.614 170 171 192
0.484768 -0.385358 -0.614 170 171 191
0.43942 -0.325734 -0.519 153 116 100
0.448491 -0.31883 -0.508 180 128 104
0.491674 -0.327617 -0.522 147 108 93
0.4955 -0.3295 -0.525 144 107 91
0.0258 -0.270695 -0.43 196 155 133
0.028941 -0.269436 -0.428 196 155 133
0.04026 -0.268807 -0.427 197 152 131
0.0435133 -0.268807 -0.427 199 152 132
0.0616943 -0.270066 -0.429 177 132 113
