ply
format ascii 1.0
comment Created by Open3D
element vertex 1284
property double x
property double y
property double z
property uchar red
property uchar green
property uchar blue
end_header
0.451048 -0.301836 -0.512 166 114 93
0.459663 -0.303015 -0.514 149 102 86
1.08991 -0.354893 -0.602 202 204 191
0.0580114 -0.255497 -0.432 190 147 130
0.06034 -0.254906 -0.431 186 140 127
0.0721667 -0.256089 -0.433 164 120 109
0.0776495 -0.257863 -0.436 151 108 99
0.0881781 -0.262003 -0.443 125 90 88
0.0947143 -0.266143 -0.45 104 83 78
0.0957838 -0.266734 -0.451 103 79 77
0.0970714 -0.267917 -0.453 101 77 75
0.0981505 -0.268509 -0.454 98 72 71
0.222734 -0.370826 -0.627 244 247 255
0.286768 -0.370234 -0.626 235 241 255
0.315385 -0.370234 -0.626 164 180 216
0.340969 -0.370826 -0.627 203 204 225
0.358883 -0.370826 -0.627 190 199 238
0.361271 -0.370826 -0.627 193 194 215
0.367243 -0.370826 -0.627 165 167 180
0.385157 -0.370826 -0.627 192 199 215
0.402518 -0.371417 -0.628 121 141 168
0.432238 -0.370234 -0.626 104 109 138
0.449649 -0.370826 -0.627 128 132 144
0.456086 -0.370234 -0.626 181 179 200
0.485119 -0.369643 -0.625 121 125 152
0.436036 -0.318189 -0.538 143 100 84
0.4332 -0.31464 -0.532 156 105 88
0.431954 -0.312274 -0.528 162 109 93
0.4315 -0.3105 -0.525 164 111 95
0.432653 -0.30636 -0.518 171 112 96
0.43364 -0.30636 -0.518 172 113 97
0.441061 -0.303994 -0.514 169 114 93
0.446171 -0.302811 -0.512 173 116 97
0.448122 -0.302811 -0.512 174 118 101
0.466366 -0.305177 -0.516 149 102 86
0.49762 -0.317597 -0.537 149 102 96
0.502357 -0.319963 -0.541 147 103 94
1.09382 -0.355449 -0.601 203 205 194
0.034781 -0.261067 -0.44 200 157 141
0.0530743 -0.25632 -0.432 197 154 138
0.0571886 -0.25632 -0.432 191 148 132
0.0637714 -0.25632 -0.432 181 135 122
0.0883771 -0.26344 -0.444 118 87 84
0.105409 -0.277087 -0.467 96 76 78
0.221187 -0.371427 -0.626 232 232 242
0.256958 -0.371427 -0.626 236 243 255
0.272894 -0.37202 -0.627 241 245 254
0.28869 -0.370833 -0.625 230 235 255
0.323054 -0.37202 -0.627 217 221 248
0.33022 -0.37202 -0.627 207 215 238
0.343357 -0.37202 -0.627 141 147 179
0.356494 -0.37202 -0.627 80 95 136
0.362466 -0.37202 -0.627 205 205 229
0.375603 -0.37202 -0.627 135 162 209
0.41793 -0.371427 -0.626 53 76 117
0.440585 -0.371427 -0.626 103 129 180
0.445354 -0.371427 -0.626 135 150 189
0.476786 -0.370833 -0.625 164 172 193
0.485531 -0.37024 -0.624 85 81 108
0.43214 -0.312687 -0.527 164 108 93
0.437863 -0.30616 -0.516 174 117 98
0.44118 -0.30438 -0.513 169 112 93
0.445089 -0.30438 -0.513 174 117 100
0.446066 -0.30438 -0.513 174 118 101
0.447147 -0.303787 -0.512 169 117 96
0.448122 -0.303787 -0.512 171 119 98
0.452023 -0.303787 -0.512 167 112 92
0.459746 -0.30438 -0.513 149 98 81
0.564591 -0.35422 -0.597 212 206 206
1.09039 -0.356593 -0.601 203 205 192
0.0346229 -0.260714 -0.438 199 156 139
0.0449495 -0.257738 -0.433 200 157 140
0.0554143 -0.256548 -0.431 193 150 134
0.061161 -0.256548 -0.431 186 140 125
0.0619819 -0.256548 -0.431 183 137 122
0.07316 -0.258333 -0.434 161 114 104
0.0904743 -0.265476 -0.446 110 80 80
0.0938571 -0.267857 -0.45 99 79 78
0.190766 -0.371429 -0.624 216 226 251
0.195207 -0.370833 -0.623 158 167 196
0.2047 -0.370833 -0.623 245 250 253
0.209783 -0.371429 -0.624 249 252 255
0.219643 -0.372024 -0.625 231 234 241
0.227976 -0.372024 -0.625 244 249 255
0.23869 -0.372024 -0.625 226 231 253
0.288229 -0.371429 -0.624 232 238 254
0.293452 -0.372024 -0.625 183 187 214
0.323731 -0.372619 -0.626 218 222 247
0.339232 -0.372619 -0.626 188 198 225
0.353541 -0.372619 -0.626 96 113 156
0.366657 -0.372619 -0.626 202 204 225
0.394082 -0.372619 -0.626 178 184 218
0.407738 -0.372024 -0.625 124 147 189
0.41369 -0.372024 -0.625 133 143 179
0.440585 -0.372619 -0.626 114 140 189
0.460119 -0.372024 -0.625 169 171 194
0.472024 -0.372024 -0.625 154 158 187
0.432674 -0.311905 -0.524 165 113 92
0.432653 -0.308333 -0.518 173 117 100
0.447147 -0.304762 -0.512 172 117 97
0.452023 -0.304762 -0.512 167 112 92
0.454949 -0.304762 -0.512 167 112 92
0.459746 -0.305357 -0.513 148 95 77
0.475924 -0.309524 -0.52 152 106 91
0.49484 -0.317857 -0.534 151 105 92
0.0696924 -0.258563 -0.433 167 123 110
0.0759886 -0.260354 -0.436 153 111 99
0.19402 -0.37202 -0.623 227 231 242
0.222024 -0.373214 -0.625 245 248 255
0.251383 -0.372617 -0.624 195 205 241
0.268452 -0.373214 -0.625 245 250 255
0.272024 -0.373214 -0.625 245 249 255
0.279167 -0.373214 -0.625 154 155 186
0.289417 -0.372617 -0.624 230 236 255
0.29536 -0.372617 -0.624 226 231 253
0.316071 -0.373214 -0.625 138 157 199
0.3375 -0.373214 -0.625 147 159 197
0.344643 -0.373214 -0.625 80 107 162
0.357118 -0.373811 -0.626 170 186 220
0.366657 -0.373811 -0.626 198 203 223
0.370234 -0.373811 -0.626 112 123 151
0.3875 -0.373214 -0.625 143 141 154
0.393452 -0.373214 -0.625 166 171 203
0.395833 -0.373214 -0.625 116 129 171
0.404709 -0.372617 -0.624 73 96 148
0.407086 -0.372617 -0.624 130 148 186
0.41184 -0.372617 -0.624 175 179 208
0.424405 -0.373214 -0.625 177 185 206
0.444643 -0.373214 -0.625 138 152 191
0.483567 -0.37202 -0.623 141 141 169
0.433324 -0.314097 -0.526 165 110 89
0.455924 -0.305737 -0.512 169 112 93
0.462677 -0.306334 -0.513 154 103 84
0.466443 -0.307529 -0.515 151 103 83
0.470297 -0.308126 -0.516 153 106 88
0.497714 -0.320069 -0.536 147 101 85
0.0329543 -0.262383 -0.438 194 156 133
0.0352952 -0.261185 -0.436 198 155 138
0.0456686 -0.258789 -0.432 197 154 137
0.0537724 -0.25819 -0.431 193 147 131
0.0578771 -0.25819 -0.431 186 143 127
0.0715067 -0.259987 -0.434 162 118 105
0.0759886 -0.261185 -0.436 153 109 98
0.0796743 -0.262383 -0.438 138 99 92
0.20911 -0.372608 -0.622 246 251 255
0.21182 -0.373207 -0.623 247 252 255
0.225234 -0.373806 -0.624 245 250 253
0.226423 -0.373806 -0.624 242 247 250
0.231177 -0.373806 -0.624 168 172 199
0.263269 -0.373806 -0.624 230 231 249
0.269211 -0.373806 -0.624 239 244 255
0.292513 -0.373207 -0.623 225 232 255
0.306753 -0.373207 -0.623 145 160 193
0.32864 -0.373806 -0.624 214 219 239
0.380937 -0.373806 -0.624 177 196 236
0.382126 -0.373806 -0.624 198 201 220
0.397577 -0.373806 -0.624 165 175 202
0.398766 -0.373806 -0.624 178 188 215
0.415406 -0.373806 -0.624 174 179 201
0.424405 -0.374405 -0.625 170 179 208
0.440203 -0.307311 -0.513 173 118 97
0.449097 -0.306712 -0.512 173 118 97
0.4608 -0.306712 -0.512 156 105 84
0.0320467 -0.262616 -0.437 196 155 135
0.0408257 -0.260212 -0.433 198 155 138
0.0488467 -0.25901 -0.431 196 153 134
0.0537724 -0.25901 -0.431 193 148 129
0.0759886 -0.262015 -0.436 150 106 95
0.0817143 -0.264419 -0.44 132 95 89
0.193709 -0.373792 -0.622 239 239 249
0.21148 -0.373792 -0.622 246 251 255
0.21385 -0.373792 -0.622 211 214 223
0.215034 -0.373792 -0.622 187 189 201
0.221313 -0.374393 -0.623 247 252 255
0.2225 -0.374393 -0.623 244 247 252
0.231993 -0.374393 -0.623 232 235 252
0.239497 -0.374994 -0.624 207 211 236
0.241487 -0.374393 -0.623 186 195 226
0.251762 -0.373792 -0.622 181 191 227
0.271589 -0.374994 -0.624 201 207 229
0.293229 -0.373792 -0.622 227 234 252
0.29726 -0.374393 -0.623 233 236 253
0.30438 -0.374393 -0.623 175 184 213
0.309127 -0.374393 -0.623 171 189 227
0.3115 -0.374393 -0.623 162 183 226
0.321509 -0.374994 -0.624 220 218 239
0.344091 -0.374994 -0.624 99 124 188
0.399954 -0.374994 -0.624 186 194 215
0.438473 -0.374393 -0.623 95 125 179
0.43966 -0.374393 -0.623 79 109 163
0.442033 -0.374393 -0.623 137 161 199
0.445593 -0.374393 -0.623 178 178 202
0.478051 -0.373792 -0.622 173 178 197
0.442971 -0.326918 -0.544 130 99 96
0.43788 -0.320909 -0.534 153 105 91
0.440203 -0.308289 -0.513 176 120 97
0.449193 -0.307087 -0.511 173 117 94
0.0367867 -0.26164 -0.434 198 155 138
0.0416505 -0.261037 -0.433 200 155 136
0.0504886 -0.259831 -0.431 194 152 130
0.0554143 -0.259831 -0.431 189 147 125
0.0570562 -0.259831 -0.431 186 143 124
0.0741571 -0.262243 -0.435 153 110 101
0.0778276 -0.263449 -0.437 142 102 94
0.07884 -0.264051 -0.438 140 100 92
0.0923476 -0.271889 -0.451 102 78 78
0.171473 -0.37558 -0.623 237 239 254
0.19458 -0.374374 -0.621 234 243 250
0.204043 -0.374374 -0.621 246 250 255
0.217404 -0.374977 -0.622 236 238 250
0.2225 -0.37558 -0.623 243 246 253
0.230807 -0.37558 -0.623 231 234 253
0.246233 -0.37558 -0.623 205 214 253
0.256501 -0.374977 -0.622 240 247 255
0.27234 -0.37558 -0.623 199 206 234
0.296783 -0.374977 -0.622 235 238 255
0.316247 -0.37558 -0.623 146 167 212
0.31862 -0.37558 -0.623 171 185 224
0.323367 -0.37558 -0.623 219 221 246
0.335233 -0.37558 -0.623 174 184 220
0.3471 -0.37558 -0.623 200 205 227
0.35066 -0.37558 -0.623 189 194 226
0.35422 -0.37558 -0.623 170 177 206
0.373806 -0.376183 -0.624 140 162 201
0.38982 -0.37558 -0.623 109 110 141
0.415259 -0.374977 -0.622 185 183 204
0.42186 -0.37558 -0.623 68 75 117
0.423047 -0.37558 -0.623 95 102 144
0.424233 -0.37558 -0.623 127 135 158
0.433727 -0.37558 -0.623 103 130 177
0.455087 -0.37558 -0.623 158 163 193
0.485563 -0.374374 -0.621 138 139 157
0.433841 -0.315294 -0.523 162 107 87
0.45114 -0.30806 -0.511 173 119 93
0.457874 -0.308663 -0.512 167 112 91
0.4608 -0.308663 -0.512 158 108 85
0.0319 -0.263071 -0.435 198 156 134
0.0432 -0.261257 -0.432 201 156 137
0.0480257 -0.260652 -0.431 198 153 134
0.061161 -0.260652 -0.431 179 134 115
0.07884 -0.264886 -0.438 136 97 90
0.0860333 -0.269119 -0.445 117 87 85
0.0976952 -0.27819 -0.46 93 74 76
0.223328 -0.376162 -0.622 233 234 252
0.229251 -0.376162 -0.622 239 243 255
0.237545 -0.376162 -0.622 242 249 255
0.23873 -0.376162 -0.622 211 216 236
0.245838 -0.376162 -0.622 195 207 245
0.28375 -0.376162 -0.622 200 211 243
0.32218 -0.376767 -0.623 218 220 243
0.325217 -0.376162 -0.622 219 221 246
0.400397 -0.375557 -0.621 188 190 213
0.403946 -0.375557 -0.621 156 162 188
0.414591 -0.375557 -0.621 187 185 206
0.456273 -0.376767 -0.623 176 175 191
0.483197 -0.375557 -0.621 108 107 113
0.434477 -0.313871 -0.519 172 117 96
0.490286 -0.319314 -0.528 149 107 83
1.08768 -0.361043 -0.597 203 205 192
0.0342276 -0.262687 -0.433 201 156 135
0.0382629 -0.26208 -0.432 200 157 138
0.0423771 -0.26208 -0.432 200 155 136
0.0904286 -0.273 -0.45 101 80 87
0.0953171 -0.277247 -0.457 98 74 72
0.237545 -0.377347 -0.622 239 247 255
0.243469 -0.377347 -0.622 172 186 215
0.296306 -0.37674 -0.621 235 233 255
0.303403 -0.37674 -0.621 166 175 206
0.305769 -0.37674 -0.621 154 170 206
0.324694 -0.37674 -0.621 219 221 246
0.334695 -0.377347 -0.622 208 209 239
0.346543 -0.377347 -0.622 201 205 230
0.379716 -0.377347 -0.622 169 186 216
0.390379 -0.377347 -0.622 137 141 178
0.399214 -0.37674 -0.621 190 200 210
0.412226 -0.37674 -0.621 191 188 207
0.41814 -0.37674 -0.621 182 179 198
0.444163 -0.37674 -0.621 161 166 196
0.465454 -0.37674 -0.621 168 171 190
0.487143 -0.376133 -0.62 153 161 184
0.438454 -0.32214 -0.531 154 106 84
0.435613 -0.314253 -0.518 173 121 99
0.441407 -0.310007 -0.511 177 116 95
0.44238 -0.310007 -0.511 177 119 95
0.458927 -0.310007 -0.511 165 115 92
0.471411 -0.311827 -0.514 156 111 92
0.0463838 -0.262294 -0.431 192 147 128
0.0529514 -0.262294 -0.431 194 149 128
0.06034 -0.262294 -0.431 176 133 114
0.0751581 -0.265337 -0.436 147 102 96
0.0780057 -0.266554 -0.438 140 99 93
0.0800381 -0.267771 -0.44 132 94 91
0.0831152 -0.269597 -0.443 125 91 89
0.0851857 -0.270814 -0.445 115 85 83
0.167105 -0.377314 -0.62 240 246 255
0.169467 -0.377314 -0.62 245 245 255
0.195448 -0.377314 -0.62 244 247 254
0.19899 -0.377314 -0.62 239 241 254
0.209281 -0.376706 -0.619 208 212 237
0.21046 -0.376706 -0.619 211 215 240
0.228883 -0.377923 -0.621 243 249 245
0.234797 -0.377923 -0.621 249 248 255
0.254906 -0.377923 -0.621 236 241 255
0.280929 -0.377923 -0.621 201 214 249
0.300552 -0.377314 -0.62 232 232 255
0.311683 -0.377923 -0.621 175 193 229
0.322329 -0.377923 -0.621 215 221 247
0.323511 -0.377923 -0.621 209 215 241
0.324694 -0.377923 -0.621 212 218 244
0.357206 -0.378531 -0.622 133 139 173
0.365499 -0.378531 -0.622 200 204 233
0.367869 -0.378531 -0.622 124 129 149
0.396849 -0.377923 -0.621 183 195 211
0.402114 -0.377314 -0.62 187 190 209
0.411562 -0.377314 -0.62 186 187 207
0.436362 -0.377314 -0.62 42 75 146
0.464705 -0.377314 -0.62 144 152 171
0.467067 -0.377314 -0.62 108 117 146
0.488324 -0.377314 -0.62 126 139 174
0.475211 -0.314023 -0.516 156 111 92
0.0455629 -0.263115 -0.431 195 150 129
0.0696924 -0.264336 -0.433 156 114 102
0.0771714 -0.267389 -0.438 140 97 90
0.08642 -0.272883 -0.447 109 83 84
0.0895714 -0.274714 -0.45 104 80 80
0.188058 -0.377885 -0.619 208 214 248
0.22379 -0.378495 -0.62 169 175 209
0.270283 -0.379106 -0.621 209 216 242
0.27339 -0.378495 -0.62 221 232 254
0.275752 -0.378495 -0.62 172 183 213
0.286381 -0.378495 -0.62 210 215 244
0.287562 -0.378495 -0.62 216 222 255
0.288743 -0.378495 -0.62 204 210 244
0.312362 -0.378495 -0.62 163 179 215
0.318267 -0.378495 -0.62 208 217 250
0.355449 -0.379106 -0.621 197 201 228
0.369643 -0.379106 -0.621 170 179 210
0.389751 -0.379106 -0.621 146 147 168
0.3933 -0.379106 -0.621 188 195 213
0.402114 -0.378495 -0.62 182 187 209
0.465134 -0.377885 -0.619 125 135 162
0.47179 -0.378495 -0.62 135 142 170
0.481238 -0.378495 -0.62 175 170 166
0.484781 -0.378495 -0.62 168 164 178
0.491073 -0.377885 -0.619 51 70 129
0.491457 -0.377274 -0.618 31 58 113
0.492634 -0.377274 -0.618 38 65 120
0.440931 -0.325994 -0.534 142 103 96
0.463793 -0.311953 -0.511 161 113 91
0.08022 -0.27006 -0.441 125 90 88
0.170097 -0.378451 -0.618 243 243 253
0.191595 -0.379064 -0.619 241 243 255
0.204234 -0.378451 -0.618 147 159 185
0.221071 -0.379064 -0.619 164 173 212
0.251727 -0.379064 -0.619 181 193 235
0.255264 -0.379064 -0.619 241 248 255
0.261159 -0.379064 -0.619 238 240 252
0.271029 -0.379676 -0.62 229 234 254
0.274571 -0.379676 -0.62 213 218 247
0.292993 -0.379064 -0.619 190 193 226
0.302426 -0.379064 -0.619 190 194 219
0.317086 -0.379676 -0.62 188 195 224
0.318267 -0.379676 -0.62 209 216 245
0.333619 -0.379676 -0.62 211 212 230
0.459239 -0.379064 -0.619 175 169 179
0.486357 -0.379064 -0.619 163 168 190
0.484665 -0.366204 -0.598 125 101 99
0.439648 -0.324562 -0.53 148 106 94
0.435994 -0.319663 -0.522 157 111 96
0.441295 -0.313539 -0.512 182 126 103
0.498053 -0.325787 -0.532 149 112 94
0.0276933 -0.2666 -0.434 200 158 134
0.0325029 -0.265371 -0.432 202 160 136
0.0365324 -0.264757 -0.431 206 160 136
0.03744 -0.265371 -0.432 205 159 135
0.0555429 -0.265371 -0.432 186 141 118
0.0580114 -0.265371 -0.432 181 136 113
0.0588343 -0.265371 -0.432 180 135 112
0.0688676 -0.265986 -0.433 157 114 105
0.0889114 -0.277043 -0.451 103 81 84
0.164211 -0.379629 -0.618 242 247 253
0.165389 -0.379629 -0.618 242 242 252
0.194817 -0.379629 -0.618 242 246 249
0.256443 -0.380243 -0.619 243 248 254
0.258801 -0.380243 -0.619 242 245 252
0.28474 -0.380243 -0.619 232 237 255
0.287098 -0.380243 -0.619 229 231 252
0.288277 -0.380243 -0.619 228 230 251
0.290635 -0.380243 -0.619 175 178 209
0.300068 -0.380243 -0.619 228 229 255
0.304784 -0.380243 -0.619 165 172 201
0.3095 -0.380243 -0.619 163 181 217
0.339524 -0.380857 -0.62 208 211 230
0.377314 -0.380857 -0.62 145 159 204
0.385581 -0.380857 -0.62 86 95 136
0.417972 -0.380243 -0.619 130 121 122
0.425047 -0.380243 -0.619 62 83 126
0.426714 -0.379629 -0.618 43 77 141
0.427891 -0.379629 -0.618 49 83 155
0.4326 -0.379629 -0.618 29 68 133
0.438486 -0.379629 -0.618 35 70 138
0.479283 -0.380243 -0.619 178 176 181
0.487536 -0.380243 -0.619 137 146 185
0.49028 -0.379629 -0.618 74 92 142
0.456161 -0.312671 -0.509 174 119 98
0.460039 -0.312671 -0.509 171 120 99
0.464829 -0.313286 -0.51 160 115 96
0.042279 -0.265578 -0.431 197 151 128
0.0488467 -0.265578 -0.431 194 148 125
0.0537724 -0.265578 -0.431 189 144 121
0.0814276 -0.272972 -0.443 122 88 87
0.166296 -0.38019 -0.617 245 245 255
0.200378 -0.38019 -0.617 225 229 238
0.227777 -0.380806 -0.618 237 247 255
0.230504 -0.381422 -0.619 245 250 253
0.248966 -0.380806 -0.618 182 195 229
0.261914 -0.380806 -0.618 166 168 191
0.318932 -0.381422 -0.619 215 219 254
0.321949 -0.380806 -0.618 112 122 157
0.329544 -0.381422 -0.619 186 190 201
0.348971 -0.382038 -0.62 205 210 230
0.350152 -0.382038 -0.62 204 209 229
0.354304 -0.381422 -0.619 202 207 227
0.370229 -0.382038 -0.62 105 131 192
0.442017 -0.380806 -0.618 48 87 156
0.451434 -0.380806 -0.618 177 178 196
0.480863 -0.380806 -0.618 170 173 190
0.48204 -0.380806 -0.618 170 173 190
0.46084 -0.346299 -0.562 131 101 99
0.454513 -0.340753 -0.553 133 104 96
0.439167 -0.324732 -0.527 147 109 98
0.4385 -0.3235 -0.525 149 111 100
0.455191 -0.313641 -0.509 181 125 102
0.469577 -0.31549 -0.512 158 113 92
0.0224619 -0.275052 -0.445 195 153 129
0.0324276 -0.266399 -0.431 204 158 134
0.0563657 -0.267017 -0.432 182 137 114
0.0580114 -0.267017 -0.432 179 134 111
0.0773476 -0.271344 -0.439 131 93 90
0.0836781 -0.27567 -0.446 109 80 82
0.200378 -0.381365 -0.617 201 205 216
0.246611 -0.381983 -0.618 188 201 233
0.253674 -0.381983 -0.618 234 241 255
0.284995 -0.381365 -0.617 230 236 252
0.291343 -0.381983 -0.618 187 197 233
0.332543 -0.381983 -0.618 205 205 217
0.340155 -0.382601 -0.619 200 203 222
0.342513 -0.382601 -0.619 207 208 226
0.354304 -0.382601 -0.619 203 208 227
0.355483 -0.382601 -0.619 205 208 225
0.361378 -0.382601 -0.619 89 98 129
0.364915 -0.382601 -0.619 141 150 191
0.373169 -0.382601 -0.619 63 97 169
0.374348 -0.382601 -0.619 89 124 188
0.375527 -0.382601 -0.619 114 149 213
0.38378 -0.382601 -0.619 110 134 194
0.387317 -0.382601 -0.619 193 194 214
0.390854 -0.382601 -0.619 167 160 176
0.392033 -0.382601 -0.619 137 130 138
0.40788 -0.381983 -0.618 139 145 167
0.422498 -0.381365 -0.617 145 165 200
0.441302 -0.381365 -0.617 81 112 176
0.449529 -0.381365 -0.617 174 178 203
0.466737 -0.381983 -0.618 170 171 189
0.439335 -0.325118 -0.526 147 110 101
0.43837 -0.316465 -0.512 176 122 98
0.45907 -0.31461 -0.509 173 121 97
0.0229952 -0.27218 -0.439 195 155 130
0.02598 -0.26846 -0.433 201 159 134
0.0307857 -0.26722 -0.431 201 157 132
0.0621257 -0.26784 -0.432 172 126 111
0.0629486 -0.26784 -0.432 170 124 109
0.0716714 -0.2697 -0.435 145 102 95
0.0905667 -0.2821 -0.455 94 73 78
0.10582 -0.29822 -0.481 94 83 89
0.195677 -0.38254 -0.617 244 247 252
0.230131 -0.38316 -0.618 241 249 255
0.236017 -0.38316 -0.618 236 236 246
0.250913 -0.38254 -0.617 206 215 246
0.273243 -0.38254 -0.617 237 240 255
0.30096 -0.38192 -0.616 177 179 202
0.330189 -0.38316 -0.618 178 178 186
0.334897 -0.38316 -0.618 209 212 229
0.37492 -0.38316 -0.618 96 130 201
0.380806 -0.38316 -0.618 29 68 135
0.3914 -0.38316 -0.618 160 149 157
0.421323 -0.38254 -0.617 180 186 202
0.440587 -0.38192 -0.616 117 140 194
0.44176 -0.38192 -0.616 125 148 202
0.492213 -0.38192 -0.616 134 152 188
0.493387 -0.38192 -0.616 110 128 164
0.449397 -0.33666 -0.543 133 103 101
0.437863 -0.31992 -0.516 166 116 93
0.460039 -0.31558 -0.509 170 119 98
0.488691 -0.32364 -0.522 145 108 92
1.08378 -0.36766 -0.593 200 206 192
0.0755029 -0.272394 -0.438 137 94 87
0.182453 -0.383093 -0.616 183 200 230
0.187147 -0.383093 -0.616 232 238 255
0.193013 -0.383093 -0.616 240 243 255
0.210613 -0.383093 -0.616 192 203 225
0.211787 -0.383093 -0.616 160 171 193
0.21648 -0.383093 -0.616 245 245 255
0.239161 -0.383715 -0.617 208 215 244
0.31152 -0.383093 -0.616 155 184 240
0.33553 -0.383715 -0.617 210 209 223
0.344314 -0.384337 -0.618 190 195 215
0.349023 -0.384337 -0.618 206 209 228
0.352554 -0.384337 -0.618 203 209 225
0.369034 -0.384337 -0.618 77 111 183
0.377839 -0.383715 -0.617 47 87 156
0.390767 -0.383715 -0.617 190 180 188
0.391942 -0.383715 -0.617 163 153 161
0.395468 -0.383715 -0.617 137 133 148
0.412427 -0.383093 -0.616 134 127 135
0.43824 -0.383093 -0.616 81 116 172
0.440587 -0.383093 -0.616 138 154 203
0.442214 -0.382471 -0.615 167 178 224
0.444557 -0.382471 -0.615 149 160 206
0.467157 -0.383715 -0.617 182 179 196
0.47344 -0.383093 -0.616 174 173 181
0.48048 -0.383093 -0.616 153 158 177
0.486347 -0.383093 -0.616 112 124 166
0.445646 -0.333341 -0.536 137 106 103
0.439226 -0.319037 -0.513 173 123 100
0.44238 -0.317793 -0.511 174 124 101
0.455265 -0.315928 -0.508 175 123 99
0.461978 -0.31655 -0.509 169 122 102
0.486819 -0.32339 -0.52 148 109 92
0.50305 -0.331475 -0.533 147 111 95
0.0331714 -0.268238 -0.43 199 158 130
0.0389048 -0.268238 -0.43 196 152 125
0.0513095 -0.268862 -0.431 187 141 118
0.0521305 -0.268862 -0.431 184 139 116
0.0680429 -0.27011 -0.433 151 108 99
0.0777 -0.2751 -0.441 127 89 80
0.199729 -0.383643 -0.615 239 245 255
0.202071 -0.383643 -0.615 224 227 246
0.207093 -0.384267 -0.616 237 242 246
0.224693 -0.384267 -0.616 214 218 243
0.22704 -0.384267 -0.616 150 165 194
0.239161 -0.38489 -0.617 217 227 254
0.245813 -0.384267 -0.616 170 185 224
0.277493 -0.384267 -0.616 231 229 250
0.295093 -0.384267 -0.616 134 137 170
0.313357 -0.383643 -0.615 125 154 214
0.317387 -0.384267 -0.616 154 166 218
0.354334 -0.38489 -0.617 200 206 220
0.379014 -0.38489 -0.617 48 87 152
0.381365 -0.38489 -0.617 81 107 166
0.388416 -0.38489 -0.617 191 192 210
0.400693 -0.384267 -0.616 153 160 178
0.412427 -0.384267 -0.616 144 134 143
0.425333 -0.384267 -0.616 134 152 200
0.430027 -0.384267 -0.616 54 85 142
0.4387 -0.383643 -0.615 132 162 212
0.452757 -0.383643 -0.615 173 168 188
0.453929 -0.383643 -0.615 162 157 177
0.49104 -0.384267 -0.616 153 156 173
0.441174 -0.328748 -0.527 151 108 99
0.438711 -0.32251 -0.517 156 114 98
1.07744 -0.369295 -0.592 201 203 190
0.0212257 -0.273437 -0.437 198 158 133
0.0348095 -0.269057 -0.43 196 155 127
0.0413619 -0.269057 -0.43 196 152 125
0.0463838 -0.269683 -0.431 192 148 123
0.0563657 -0.270309 -0.432 177 135 113
0.06048 -0.270309 -0.432 171 128 111
0.0663933 -0.270934 -0.433 155 113 101
0.178352 -0.384189 -0.614 192 207 248
0.179522 -0.384189 -0.614 192 207 248
0.223157 -0.384814 -0.615 245 244 252
0.2255 -0.384814 -0.615 206 209 228
0.238773 -0.38544 -0.616 219 228 255
0.2747 -0.384814 -0.615 199 200 221
0.294614 -0.384814 -0.615 177 181 208
0.298129 -0.384814 -0.615 134 143 186
0.302814 -0.384814 -0.615 143 163 213
0.309843 -0.384814 -0.615 111 142 206
0.311014 -0.384814 -0.615 111 142 206
0.330293 -0.38544 -0.616 206 208 220
0.36432 -0.38544 -0.616 56 86 150
0.38896 -0.38544 -0.616 196 195 213
0.426507 -0.38544 -0.616 155 173 211
0.42768 -0.38544 -0.616 147 165 203
0.428853 -0.38544 -0.616 126 150 196
0.430027 -0.38544 -0.616 73 97 143
0.4551 -0.384814 -0.615 144 143 157
0.4797 -0.384814 -0.615 73 78 108
0.491414 -0.384814 -0.615 120 135 174
0.494124 -0.384189 -0.614 82 104 151
0.450427 -0.317863 -0.508 182 130 106
0.453403 -0.317237 -0.507 181 129 107
0.454369 -0.317237 -0.507 177 126 105
0.475429 -0.320366 -0.512 149 108 88
0.493558 -0.327874 -0.524 147 108 91
0.026619 -0.269876 -0.43 203 161 136
0.0290762 -0.269876 -0.43 206 162 135
0.0380857 -0.269876 -0.43 197 153 128
0.0472048 -0.270504 -0.431 190 146 121
0.0521305 -0.270504 -0.431 182 140 116
0.0529514 -0.270504 -0.431 181 139 115
0.0655686 -0.271759 -0.433 155 113 101
0.0690267 -0.272387 -0.434 146 106 98
0.0865257 -0.283684 -0.452 94 76 76
0.0890286 -0.286194 -0.456 94 75 77
0.192387 -0.385358 -0.614 222 230 241
0.216129 -0.385986 -0.615 241 244 253
0.2255 -0.385986 -0.615 231 231 243
0.269575 -0.385358 -0.614 194 196 208
0.270745 -0.385358 -0.614 213 215 227
0.278931 -0.385358 -0.614 215 220 242
0.28244 -0.385358 -0.614 228 231 248
0.305157 -0.385986 -0.615 87 116 176
0.313357 -0.385986 -0.615 99 130 195
0.354933 -0.386613 -0.616 141 138 149
0.373707 -0.386613 -0.616 58 97 162
0.423471 -0.385986 -0.615 174 186 224
0.435648 -0.385358 -0.614 72 108 170
0.462129 -0.385986 -0.615 177 180 199
0.464471 -0.385986 -0.615 163 166 185
0.478529 -0.385986 -0.615 79 85 111
0.4879 -0.385986 -0.615 172 173 191
0.494487 -0.38473 -0.613 91 119 158
0.439971 -0.327617 -0.522 152 109 100
0.442486 -0.320086 -0.51 174 124 101
0.453403 -0.318203 -0.507 178 126 104
1.08012 -0.370923 -0.591 204 206 193
0.0242181 -0.271325 -0.431 200 158 133
0.0347286 -0.270066 -0.429 199 155 128
0.0396314 -0.270066 -0.429 195 151 126
0.0437171 -0.270066 -0.429 195 149 125
0.0529514 -0.271325 -0.431 181 139 114
0.0647438 -0.272584 -0.433 157 115 101
0.0811295 -0.280768 -0.446 105 81 77
0.091761 -0.29021 -0.461 95 75 77
0.0945314 -0.293358 -0.466 94 74 76
0.187709 -0.386528 -0.614 239 246 255
0.223964 -0.386528 -0.614 244 243 251
0.25746 -0.385898 -0.613 236 237 255
0.271471 -0.385898 -0.613 197 199 214
0.274974 -0.385898 -0.613 174 176 197
0.279645 -0.385898 -0.613 202 207 229
0.295991 -0.385898 -0.613 127 142 183
0.318695 -0.386528 -0.614 147 164 208
0.330929 -0.387157 -0.615 207 211 222
0.355529 -0.387157 -0.615 170 166 180
0.366071 -0.387157 -0.615 108 134 191
0.380129 -0.387157 -0.615 139 162 204
0.383643 -0.387157 -0.615 118 138 175
0.393014 -0.387157 -0.615 196 193 210
0.398871 -0.387157 -0.615 191 190 206
0.413427 -0.386528 -0.614 164 162 176
0.447343 -0.386528 -0.614 167 169 194
0.457869 -0.386528 -0.614 173 172 190
0.459786 -0.387157 -0.615 179 180 198
0.473072 -0.386528 -0.614 157 159 180
0.485557 -0.387157 -0.615 171 174 191
0.488276 -0.386528 -0.614 171 174 191
0.492954 -0.386528 -0.614 81 103 150
0.482752 -0.368901 -0.586 122 103 109
0.46306 -0.319169 -0.507 166 118 96
1.07492 -0.371419 -0.59 202 204 191
0.0388143 -0.270883 -0.429 197 153 126
0.072001 -0.275934 -0.437 136 95 91
0.196744 -0.387066 -0.613 233 238 255
0.20375 -0.387066 -0.613 236 235 243
0.212269 -0.387697 -0.614 238 240 252
0.218929 -0.387066 -0.613 244 248 255
0.23449 -0.387697 -0.614 173 185 225
0.239168 -0.387697 -0.614 161 182 227
0.253957 -0.387066 -0.613 182 197 238
0.25746 -0.387066 -0.613 237 238 255
0.278477 -0.387066 -0.613 201 205 230
0.279645 -0.387066 -0.613 191 193 214
0.280812 -0.387066 -0.613 193 195 216
0.295991 -0.387066 -0.613 127 142 183
0.304165 -0.387066 -0.613 73 106 175
0.325712 -0.387697 -0.614 215 214 232
0.349103 -0.387697 -0.614 201 203 216
0.35495 -0.387697 -0.614 161 157 172
0.391206 -0.387697 -0.614 196 195 211
0.397053 -0.387697 -0.614 189 189 201
0.402245 -0.387066 -0.613 189 188 206
0.421613 -0.387697 -0.614 173 180 208
0.433309 -0.387697 -0.614 101 130 186
0.47892 -0.387697 -0.614 133 136 167
0.483598 -0.387697 -0.614 167 169 184
0.488276 -0.387697 -0.614 170 173 192
0.458949 -0.348549 -0.552 136 106 98
0.444023 -0.333394 -0.528 149 109 97
0.440082 -0.324554 -0.514 165 120 101
0.445496 -0.321397 -0.509 172 122 99
0.44954 -0.320134 -0.507 176 126 103
0.451471 -0.320134 -0.507 177 127 104
0.467844 -0.320766 -0.508 163 116 96
0.469734 -0.321397 -0.509 163 117 101
1.06706 -0.372543 -0.59 202 204 191
1.07268 -0.372543 -0.59 202 204 191
0.0202067 -0.274233 -0.433 199 154 131
0.0225762 -0.272967 -0.431 196 156 130
0.0306429 -0.2717 -0.429 200 156 129
0.03146 -0.2717 -0.429 199 155 128
0.0945314 -0.295133 -0.466 95 75 74
0.0960333 -0.297033 -0.469 95 75 74
0.196744 -0.388233 -0.613 244 246 255
0.197911 -0.388233 -0.613 243 241 252
0.206085 -0.388233 -0.613 207 207 219
0.217761 -0.388233 -0.613 243 245 255
0.22827 -0.388233 -0.613 210 217 245
0.236443 -0.388233 -0.613 160 177 221
0.258206 -0.3876 -0.612 229 230 251
0.274526 -0.3876 -0.612 175 176 196
0.29784 -0.3876 -0.612 109 130 183
0.315841 -0.388233 -0.613 85 115 167
0.33569 -0.388233 -0.613 146 149 156
0.353205 -0.388233 -0.613 158 160 175
0.361968 -0.388867 -0.614 187 199 225
0.363137 -0.388867 -0.614 175 187 213
0.367815 -0.388867 -0.614 93 125 172
0.378892 -0.388233 -0.613 187 201 230
0.381228 -0.388233 -0.613 105 124 157
0.383563 -0.388233 -0.613 90 109 149
0.412753 -0.388233 -0.613 165 166 186
0.4291 -0.388233 -0.613 79 106 153
0.430268 -0.388233 -0.613 89 116 163
0.439609 -0.388233 -0.613 133 150 194
0.441944 -0.388233 -0.613 178 184 216
0.44895 -0.388233 -0.613 136 141 161
0.444864 -0.335033 -0.529 152 110 98
0.444527 -0.322367 -0.509 172 122 99
0.448491 -0.321733 -0.508 174 124 101
0.0330171 -0.271882 -0.428 196 154 129
0.0412657 -0.272517 -0.429 195 151 126
0.0437171 -0.272517 -0.429 191 147 122
0.0503714 -0.273152 -0.43 184 139 116
0.0528286 -0.273152 -0.43 181 136 113
0.06572 -0.275693 -0.434 146 106 94
0.0772086 -0.28141 -0.443 111 85 84
0.158212 -0.389401 -0.613 240 240 250
0.188263 -0.388766 -0.612 213 226 255
0.194091 -0.388766 -0.612 226 232 254
0.196423 -0.388766 -0.612 248 247 255
0.201086 -0.388766 -0.612 243 243 253
0.202251 -0.388766 -0.612 244 246 255
0.215426 -0.389401 -0.613 230 233 248
0.234108 -0.389401 -0.613 136 150 197
0.251211 -0.388766 -0.612 124 149 203
0.299006 -0.388766 -0.612 143 165 212
0.328149 -0.388766 -0.612 210 212 227
0.35554 -0.389401 -0.613 124 130 152
0.421406 -0.388766 -0.612 189 188 206
0.425597 -0.389401 -0.613 140 147 175
0.434229 -0.388766 -0.612 91 117 166
0.461793 -0.389401 -0.613 161 170 209
0.466464 -0.389401 -0.613 130 144 183
0.483978 -0.389401 -0.613 160 161 166
0.489017 -0.388766 -0.612 125 136 166
0.490183 -0.388766 -0.612 101 112 142
0.45604 -0.34684 -0.546 141 108 103
0.449459 -0.322701 -0.508 172 122 99
0.461183 -0.32143 -0.506 173 125 103
0.466923 -0.322066 -0.507 167 120 100
0.469779 -0.322701 -0.508 161 119 97
0.49371 -0.330959 -0.521 145 110 91
1.06974 -0.374155 -0.589 203 205 192
0.0225238 -0.273971 -0.43 196 154 130
0.0240495 -0.272697 -0.428 197 155 131
0.028941 -0.272697 -0.428 199 154 131
0.0338324 -0.272697 -0.428 196 152 125
0.0479143 -0.273971 -0.43 185 141 116
0.0570562 -0.274609 -0.431 171 128 109
0.0703362 -0.278431 -0.437 137 98 91
0.0794305 -0.284166 -0.446 106 82 82
0.0874829 -0.291174 -0.457 94 75 77
0.201086 -0.389931 -0.612 241 241 249
0.227897 -0.389931 -0.612 219 224 243
0.251965 -0.389294 -0.611 154 171 214
0.255456 -0.389294 -0.611 229 232 255
0.267094 -0.389294 -0.611 226 227 248
0.28106 -0.389294 -0.611 220 223 242
0.288514 -0.389931 -0.612 226 227 247
0.336923 -0.389294 -0.611 205 205 217
0.342137 -0.389931 -0.612 206 203 220
0.347966 -0.389931 -0.612 201 201 213
0.353794 -0.389931 -0.612 107 122 143
0.357291 -0.389931 -0.612 137 150 182
0.427234 -0.389931 -0.612 93 111 151
0.43701 -0.389294 -0.611 101 119 165
0.44472 -0.389931 -0.612 178 180 201
0.445886 -0.389931 -0.612 180 180 192
0.455211 -0.389931 -0.612 93 105 145
0.482023 -0.389931 -0.612 171 173 172
0.489017 -0.389931 -0.612 121 131 166
0.468854 -0.323031 -0.507 159 117 93
0.490826 -0.330677 -0.519 145 108 90
1.0668 -0.37464 -0.588 203 205 192
0.0162314 -0.279264 -0.437 199 158 136
0.0288733 -0.272873 -0.427 200 156 131
0.0470952 -0.27479 -0.43 186 141 118
0.0586981 -0.27543 -0.431 166 125 105
0.0613029 -0.276069 -0.432 161 118 101
0.063919 -0.276708 -0.433 154 112 98
0.0828981 -0.28821 -0.451 103 77 76
0.184464 -0.390458 -0.611 145 163 209
0.20774 -0.390458 -0.611 188 190 205
0.240327 -0.390458 -0.611 108 135 188
0.253876 -0.389819 -0.61 204 213 242
0.264333 -0.389819 -0.61 234 232 253
0.273629 -0.389819 -0.61 183 187 199
0.27479 -0.389819 -0.61 195 199 211
0.302676 -0.389819 -0.61 129 155 214
0.313647 -0.390458 -0.611 185 206 249
0.340414 -0.390458 -0.611 208 207 225
0.341578 -0.390458 -0.611 204 203 221
0.342742 -0.390458 -0.611 204 203 221
0.368949 -0.391097 -0.612 111 143 190
0.381148 -0.390458 -0.611 196 195 213
0.397441 -0.390458 -0.611 161 166 186
0.459874 -0.391097 -0.612 128 140 188
0.475029 -0.391097 -0.612 95 116 169
0.484354 -0.391097 -0.612 128 131 138
0.486686 -0.391097 -0.612 167 163 177
0.442954 -0.333583 -0.522 153 110 104
0.450506 -0.323997 -0.507 172 124 101
0.452576 -0.322719 -0.505 175 124 103
0.457386 -0.322719 -0.505 173 125 103
0.02806 -0.273687 -0.427 198 154 127
0.0288733 -0.273687 -0.427 199 155 128
0.0305714 -0.274328 -0.428 197 153 126
0.0354629 -0.274328 -0.428 193 149 122
0.0586981 -0.27625 -0.431 164 123 103
0.06572 -0.278173 -0.434 145 105 95
0.0855543 -0.292274 -0.456 98 74 72
0.0880571 -0.294838 -0.46 94 73 72
0.281762 -0.390981 -0.61 222 221 239
0.288043 -0.391622 -0.611 208 210 233
0.291057 -0.390981 -0.61 156 160 187
0.332268 -0.391622 -0.611 146 145 150
0.335759 -0.391622 -0.611 202 201 219
0.350889 -0.391622 -0.611 103 118 151
0.39395 -0.391622 -0.611 172 177 199
0.396277 -0.391622 -0.611 181 185 210
0.407915 -0.391622 -0.611 139 153 188
0.413734 -0.391622 -0.611 177 182 202
0.427 -0.390981 -0.61 100 127 172
0.463371 -0.392263 -0.612 111 130 189
0.469597 -0.391622 -0.611 39 70 124
0.471925 -0.391622 -0.611 53 85 144
0.474252 -0.391622 -0.611 109 131 181
0.444221 -0.328168 -0.512 167 120 100
0.484174 -0.328809 -0.513 149 114 95
1.06387 -0.376239 -0.587 202 204 191
0.0296867 -0.2745 -0.427 194 148 122
0.0520095 -0.276429 -0.43 177 132 111
0.0528286 -0.276429 -0.43 175 130 109
0.0891267 -0.296357 -0.461 95 74 73
0.0931543 -0.300857 -0.468 96 75 74
0.0978762 -0.307286 -0.478 93 74 70
0.157438 -0.392143 -0.61 238 240 253
0.214371 -0.392143 -0.61 230 229 247
0.220181 -0.392143 -0.61 240 244 255
0.229476 -0.392143 -0.61 162 169 195
0.232962 -0.392143 -0.61 189 204 237
0.26158 -0.3915 -0.609 227 229 252
0.2813 -0.3915 -0.609 227 226 244
0.313133 -0.392143 -0.61 183 196 230
0.314295 -0.392143 -0.61 201 202 223
0.354962 -0.392143 -0.61 183 189 205
0.37239 -0.392143 -0.61 119 143 191
0.392143 -0.392143 -0.61 144 158 195
0.395629 -0.392143 -0.61 177 188 220
0.404924 -0.392143 -0.61 140 156 192
0.427 -0.392143 -0.61 101 125 171
0.446752 -0.392143 -0.61 186 185 193
0.463778 -0.392786 -0.611 67 91 151
0.473089 -0.392786 -0.611 102 122 172
0.483933 -0.392143 -0.61 167 170 185
0.488581 -0.392143 -0.61 99 110 140
0.4429 -0.331071 -0.515 162 117 96
0.446273 -0.3285 -0.511 173 125 105
0.466043 -0.324643 -0.505 161 119 95
1.05604 -0.377357 -0.587 202 204 191
1.06275 -0.377357 -0.587 202 204 191
0.0192029 -0.276603 -0.429 202 158 133
0.0288733 -0.275313 -0.427 194 148 122
0.0305 -0.275313 -0.427 193 147 121
0.0503714 -0.277248 -0.43 179 134 113
0.0520095 -0.277248 -0.43 176 131 112
0.0528286 -0.277248 -0.43 175 130 109
0.0859295 -0.295301 -0.458 97 75 77
0.0950505 -0.304972 -0.473 97 77 78
0.155114 -0.393305 -0.61 234 237 252
0.1595 -0.39266 -0.609 238 238 250
0.17458 -0.39266 -0.609 123 139 190
0.1885 -0.39266 -0.609 198 213 254
0.20706 -0.39266 -0.609 218 219 237
0.20822 -0.39266 -0.609 209 211 226
0.216695 -0.393305 -0.61 241 240 255
0.22794 -0.39266 -0.609 173 175 198
0.24882 -0.39266 -0.609 220 229 255
0.259992 -0.392015 -0.608 222 227 249
0.264625 -0.392015 -0.608 225 226 247
0.28362 -0.39266 -0.609 221 219 240
0.2987 -0.39266 -0.609 138 157 197
0.3161 -0.39266 -0.609 204 208 233
0.34046 -0.39266 -0.609 197 198 218
0.34742 -0.39266 -0.609 171 183 207
0.34974 -0.39266 -0.609 104 117 151
0.39679 -0.393305 -0.61 168 185 228
0.4205 -0.39266 -0.609 158 160 173
0.456048 -0.393305 -0.61 59 85 134
0.457959 -0.39395 -0.611 56 82 131
0.4758 -0.393305 -0.61 172 178 192
0.4901 -0.39266 -0.609 90 108 156
0.464832 -0.357198 -0.554 139 103 103
0.451948 -0.344948 -0.535 141 107 98
0.446371 -0.328829 -0.51 172 125 105
0.450427 -0.327539 -0.508 173 125 105
0.450506 -0.326894 -0.507 171 123 103
0.452509 -0.32625 -0.506 170 124 101
0.45648 -0.32496 -0.504 170 124 101
0.468929 -0.325605 -0.505 161 116 93
1.04308 -0.37783 -0.586 202 206 192
1.05201 -0.37783 -0.586 201 205 191
0.0129019 -0.282593 -0.437 197 155 131
0.0354629 -0.276773 -0.428 197 151 125
0.0461686 -0.27742 -0.429 186 140 116
0.0570562 -0.278713 -0.431 167 122 103
0.0630943 -0.280007 -0.433 145 105 93
0.0882486 -0.298113 -0.461 96 75 74
0.0907857 -0.3007 -0.465 95 74 73
0.0952514 -0.30652 -0.474 97 77 78
0.156276 -0.394467 -0.61 236 238 253
0.174293 -0.393173 -0.608 123 140 192
0.187032 -0.393173 -0.608 145 160 201
0.1885 -0.39382 -0.609 187 202 243
0.19198 -0.39382 -0.609 234 240 254
0.22678 -0.39382 -0.609 171 175 200
0.244937 -0.393173 -0.608 177 200 241
0.277364 -0.393173 -0.608 221 224 241
0.28594 -0.39382 -0.609 154 159 188
0.2871 -0.39382 -0.609 121 135 170
0.30682 -0.39382 -0.609 115 143 193
0.314423 -0.393173 -0.608 205 207 230
0.341059 -0.393173 -0.608 185 186 207
0.350324 -0.393173 -0.608 185 193 229
0.35206 -0.39382 -0.609 190 194 223
0.3799 -0.39382 -0.609 186 194 207
0.40774 -0.39382 -0.609 55 86 141
0.4147 -0.39382 -0.609 182 185 194
0.41818 -0.39382 -0.609 185 183 196
0.466505 -0.394467 -0.61 33 63 127
0.47386 -0.39382 -0.609 165 171 187
0.47966 -0.39382 -0.609 171 173 194
0.445196 -0.331093 -0.512 169 122 102
0.458449 -0.325273 -0.503 171 125 101
0.459407 -0.325273 -0.503 169 123 99
1.05089 -0.378947 -0.586 202 206 192
1.05801 -0.3783 -0.585 203 205 192
0.0387238 -0.277589 -0.428 188 142 116
0.0420829 -0.278237 -0.429 186 142 115
0.0437171 -0.278237 -0.429 185 141 116
0.0536476 -0.278886 -0.43 174 129 110
0.070819 -0.285371 -0.44 123 90 85
0.15254 -0.39498 -0.609 245 247 255
0.203246 -0.394331 -0.608 237 239 254
0.204404 -0.394331 -0.608 237 239 254
0.244937 -0.394331 -0.608 164 187 228
0.260721 -0.393683 -0.607 221 226 248
0.314423 -0.394331 -0.608 201 206 228
0.36134 -0.39498 -0.609 135 149 178
0.374644 -0.394331 -0.608 154 169 208
0.39549 -0.394331 -0.608 122 148 205
0.411703 -0.394331 -0.608 185 193 204
0.46922 -0.39498 -0.609 65 96 160
0.48778 -0.39498 -0.609 99 114 153
0.490453 -0.394331 -0.608 71 107 169
0.493115 -0.393683 -0.607 37 74 145
0.448201 -0.341797 -0.527 148 111 102
0.44621 -0.337257 -0.52 155 118 102
0.444743 -0.334663 -0.516 162 117 96
0.447343 -0.330771 -0.51 168 121 101
0.447435 -0.330123 -0.509 171 124 104
0.448405 -0.330123 -0.509 174 128 105
0.494813 -0.33596 -0.518 148 109 92
1.06136 -0.379414 -0.585 202 204 191
0.0206914 -0.277103 -0.426 201 158 126
0.0313133 -0.277753 -0.427 199 152 124
0.0570562 -0.280355 -0.431 162 119 100
0.06048 -0.281006 -0.432 147 107 95
0.158976 -0.394839 -0.607 237 241 253
0.180944 -0.394839 -0.607 165 193 241
0.23066 -0.394839 -0.607 192 195 210
0.231816 -0.394839 -0.607 202 207 227
0.24569 -0.394839 -0.607 180 191 223
0.27968 -0.39549 -0.608 215 216 237
0.28847 -0.394839 -0.607 204 212 235
0.289626 -0.394839 -0.607 208 216 239
0.301188 -0.394839 -0.607 152 176 222
0.315062 -0.394839 -0.607 207 212 232
0.32778 -0.394839 -0.607 155 163 199
0.359589 -0.39549 -0.608 164 170 192
0.363063 -0.39549 -0.608 109 128 170
0.365379 -0.39549 -0.608 138 161 205
0.392015 -0.39549 -0.608 54 86 147
0.409387 -0.39549 -0.608 154 167 201
0.430232 -0.39549 -0.608 55 91 151
0.43139 -0.39549 -0.608 57 93 153
0.44992 -0.39549 -0.608 180 183 200
0.45762 -0.39614 -0.609 95 116 173
0.46342 -0.39614 -0.609 19 53 124
0.46806 -0.39614 -0.609 36 74 145
0.44634 -0.337597 -0.519 156 117 100
0.447343 -0.331743 -0.51 172 125 105
0.458449 -0.32719 -0.503 171 123 101
0.47184 -0.32784 -0.504 160 113 93
0.4747 -0.32849 -0.505 158 113 94
0.484257 -0.331743 -0.51 154 111 92
1.03796 -0.380529 -0.585 203 207 193
1.04241 -0.380529 -0.585 203 207 193
0.01988 -0.277914 -0.426 199 158 128
0.0231257 -0.277914 -0.426 200 157 125
0.0247486 -0.277914 -0.426 198 155 123
0.0379086 -0.279219 -0.428 189 145 116
0.0387238 -0.279219 -0.428 188 144 117
0.0825848 -0.296181 -0.454 100 75 71
0.0917619 -0.306619 -0.47 95 75 76
0.195974 -0.395995 -0.607 241 238 255
0.202911 -0.395995 -0.607 234 236 249
0.222567 -0.395995 -0.607 150 156 188
0.241066 -0.395995 -0.607 166 185 227
0.266063 -0.395343 -0.606 183 184 202
0.272989 -0.395343 -0.606 200 202 225
0.326624 -0.395995 -0.607 102 116 161
0.330092 -0.395995 -0.607 151 167 218
0.341654 -0.395995 -0.607 120 139 195
0.371715 -0.395995 -0.607 97 123 172
0.372871 -0.395995 -0.607 97 123 172
0.381491 -0.395343 -0.606 194 193 207
0.387902 -0.395995 -0.607 117 130 165
0.417963 -0.395995 -0.607 187 189 204
0.441087 -0.395995 -0.607 156 176 211
0.463817 -0.396648 -0.608 22 61 128
0.485022 -0.395995 -0.607 89 104 143
0.48849 -0.395995 -0.607 57 84 137
0.491959 -0.395995 -0.607 26 67 133
0.49692 -0.395343 -0.606 33 67 131
0.448644 -0.341848 -0.524 153 116 98
0.447926 -0.340543 -0.522 158 117 99
0.446066 -0.334671 -0.513 170 123 105
0.462318 -0.327495 -0.502 169 119 96
0.46423 -0.327495 -0.502 170 118 94
1.05509 -0.38099 -0.584 203 205 192
0.0247486 -0.278726 -0.426 198 155 123
0.0379086 -0.280034 -0.428 188 144 117
0.0403543 -0.280034 -0.428 187 143 118
0.0570562 -0.281997 -0.431 158 115 99
0.080499 -0.295737 -0.452 102 77 73
0.166794 -0.396497 -0.606 208 215 241
0.1818 -0.396497 -0.606 207 218 248
0.196806 -0.396497 -0.606 235 236 255
0.216429 -0.396497 -0.606 234 229 249
0.267217 -0.396497 -0.606 210 212 233
0.276451 -0.396497 -0.606 201 201 225
0.282223 -0.396497 -0.606 143 153 189
0.28684 -0.396497 -0.606 210 216 240
0.300691 -0.396497 -0.606 163 182 222
0.309281 -0.397151 -0.607 125 149 193
0.316851 -0.396497 -0.606 201 209 230
0.328394 -0.396497 -0.606 104 124 183
0.332405 -0.397151 -0.607 155 181 230
0.356685 -0.397151 -0.607 194 199 221
0.365331 -0.396497 -0.606 116 139 189
0.378029 -0.396497 -0.606 153 160 170
0.405245 -0.397151 -0.607 102 128 185
0.411026 -0.397151 -0.607 184 187 202
0.419583 -0.396497 -0.606 174 176 197
0.423046 -0.396497 -0.606 86 113 168
0.497252 -0.395843 -0.605 36 71 137
0.498405 -0.395843 -0.605 41 76 142
0.461433 -0.356586 -0.545 144 109 103
0.449354 -0.344154 -0.526 150 111 104
0.447788 -0.342191 -0.523 149 115 106
0.483326 -0.332377 -0.508 157 112 91
0.0554143 -0.282818 -0.431 165 119 104
0.0578771 -0.282818 -0.431 154 110 97
0.071141 -0.290036 -0.442 117 86 81
0.0806771 -0.297254 -0.453 100 76 72
0.0881286 -0.305129 -0.465 95 74 71
0.09106 -0.309066 -0.471 95 74 73
0.148326 -0.397651 -0.606 242 241 255
0.212614 -0.396995 -0.605 231 232 250
0.221046 -0.397651 -0.606 154 168 197
0.235662 -0.396995 -0.605 162 177 210
0.246033 -0.396995 -0.605 198 209 239
0.247186 -0.396995 -0.605 216 224 247
0.250643 -0.396995 -0.605 223 225 248
0.289149 -0.397651 -0.606 216 212 235
0.294433 -0.396995 -0.605 163 174 204
0.345138 -0.396995 -0.605 128 146 186
0.352634 -0.397651 -0.606 197 202 221
0.369338 -0.396995 -0.605 97 128 182
0.409194 -0.397651 -0.606 167 171 198
0.439206 -0.397651 -0.606 112 139 192
0.441938 -0.396995 -0.605 134 137 156
0.461898 -0.398308 -0.607 17 55 130
0.483069 -0.397651 -0.606 152 154 177
0.486531 -0.397651 -0.606 92 114 161
0.48884 -0.397651 -0.606 54 84 144
0.498405 -0.396995 -0.605 48 87 152
0.452437 -0.332689 -0.507 156 105 84
0.46426 -0.328751 -0.501 163 115 95
0.03538 -0.281007 -0.427 191 145 119
0.0436152 -0.281665 -0.428 183 135 112
0.0469857 -0.282323 -0.429 176 128 106
0.0562352 -0.283639 -0.431 159 113 98
0.0681495 -0.288904 -0.439 124 91 86
0.0927381 -0.312595 -0.475 97 77 76
0.146929 -0.398148 -0.605 212 212 222
0.175738 -0.398148 -0.605 173 188 229
0.189567 -0.398148 -0.605 182 192 217
0.222986 -0.398148 -0.605 230 236 255
0.236814 -0.398148 -0.605 183 198 229
0.255252 -0.398148 -0.605 227 223 246
0.257557 -0.398148 -0.605 200 204 229
0.266776 -0.398148 -0.605 205 211 243
0.269081 -0.398148 -0.605 202 211 244
0.27369 -0.398148 -0.605 195 209 244
0.281757 -0.398148 -0.605 174 191 235
0.289824 -0.398148 -0.605 208 210 231
0.290976 -0.398148 -0.605 210 212 233
0.300195 -0.398148 -0.605 155 170 209
0.310567 -0.398148 -0.605 138 162 208
0.312871 -0.398148 -0.605 185 200 231
0.343986 -0.398148 -0.605 114 146 203
0.34629 -0.398148 -0.605 185 200 239
0.385471 -0.398148 -0.605 181 185 210
0.390081 -0.398148 -0.605 125 155 209
0.408519 -0.398148 -0.605 144 160 193
0.421195 -0.398148 -0.605 75 105 159
0.44309 -0.398148 -0.605 115 123 134
0.466523 -0.399464 -0.607 23 56 125
0.473834 -0.398806 -0.606 93 110 154
0.484223 -0.398806 -0.606 149 156 182
0.46332 -0.35932 -0.546 139 109 99
0.453472 -0.332996 -0.506 171 120 99
0.48334 -0.333654 -0.507 157 110 92
0.4891 -0.336287 -0.511 152 109 93
0.0118486 -0.28314 -0.429 196 160 128
0.0182143 -0.2805 -0.425 198 160 124
0.03538 -0.28182 -0.427 190 144 118
0.0469857 -0.28314 -0.429 175 127 105
0.04862 -0.28314 -0.429 176 128 106
0.0510714 -0.28314 -0.429 169 122 102
0.0734838 -0.29436 -0.446 104 79 75
0.197307 -0.39864 -0.604 232 233 253
0.208811 -0.39864 -0.604 225 225 249
0.211112 -0.39864 -0.604 221 221 245
0.218015 -0.39864 -0.604 194 200 224
0.231821 -0.39864 -0.604 183 190 218
0.249078 -0.39864 -0.604 220 225 247
0.305957 -0.3993 -0.605 134 163 207
0.310567 -0.3993 -0.605 125 147 196
0.312354 -0.39864 -0.604 173 193 228
0.342267 -0.39864 -0.604 110 141 196
0.35551 -0.3993 -0.605 188 194 210
0.37448 -0.39864 -0.604 164 181 227
0.379082 -0.39864 -0.604 193 200 216
0.389436 -0.39864 -0.604 120 150 202
0.393538 -0.3993 -0.605 33 70 140
0.40391 -0.3993 -0.605 75 112 165
0.436606 -0.39864 -0.604 41 80 139
0.488033 -0.3993 -0.605 56 90 151
0.489186 -0.3993 -0.605 54 88 149
0.49528 -0.39864 -0.604 35 76 140
0.491386 -0.38478 -0.583 125 107 105
0.453626 -0.35046 -0.531 146 108 105
0.45064 -0.34584 -0.524 149 111 102
0.44822 -0.33726 -0.511 170 121 104
0.449374 -0.33594 -0.509 173 124 107
0.451471 -0.33462 -0.507 158 111 91
0.456581 -0.33132 -0.502 163 115 95
0.0386333 -0.282633 -0.427 188 140 117
0.04026 -0.282633 -0.427 183 135 112
0.0615867 -0.287267 -0.434 139 99 91
0.0635314 -0.28859 -0.436 136 98 89
0.0765438 -0.297195 -0.449 104 80 78
0.198457 -0.39979 -0.604 212 213 234
0.23067 -0.39979 -0.604 189 198 227
0.232971 -0.39979 -0.604 154 167 201
0.25368 -0.39979 -0.604 226 224 245
0.25483 -0.39979 -0.604 228 226 247
0.255981 -0.39979 -0.604 213 218 238
0.268636 -0.39979 -0.604 169 190 235
0.287717 -0.399129 -0.603 212 213 233
0.296906 -0.399129 -0.603 142 165 207
0.310053 -0.39979 -0.604 123 146 196
0.312354 -0.39979 -0.604 169 193 231
0.319877 -0.399129 -0.603 204 207 222
0.323323 -0.399129 -0.603 191 197 219
0.328461 -0.39979 -0.604 72 101 157
0.337665 -0.39979 -0.604 40 82 156
0.338815 -0.39979 -0.604 38 80 154
0.346869 -0.39979 -0.604 196 192 207
0.365276 -0.39979 -0.604 64 103 170
0.371563 -0.399129 -0.603 80 109 165
0.440057 -0.39979 -0.604 127 138 160
0.441208 -0.39979 -0.604 153 164 186
0.460376 -0.400452 -0.605 22 60 131
0.470748 -0.400452 -0.605 156 171 190
0.473052 -0.400452 -0.605 112 114 126
0.479967 -0.400452 -0.605 167 173 185
0.481119 -0.400452 -0.605 169 170 188
0.482271 -0.400452 -0.605 170 171 189
0.461138 -0.35809 -0.541 140 105 103
0.453472 -0.334924 -0.506 173 122 103
0.456532 -0.332938 -0.503 165 116 99
0.460443 -0.331614 -0.501 165 116 99
0.46426 -0.331614 -0.501 161 114 96
0.0238248 -0.281455 -0.424 194 153 121
0.027119 -0.282119 -0.425 191 147 118
0.03538 -0.283447 -0.427 190 144 120
0.0370067 -0.283447 -0.427 185 139 115
0.0410733 -0.283447 -0.427 178 130 108
0.0444305 -0.28411 -0.428 175 127 105
0.046061 -0.28411 -0.428 174 126 106
0.04862 -0.284774 -0.429 174 126 106
0.0714629 -0.294731 -0.444 111 83 80
0.0909286 -0.31531 -0.475 92 76 77
0.0939095 -0.319292 -0.481 95 79 80
0.148987 -0.400941 -0.604 238 236 249
0.186643 -0.400277 -0.603 235 236 255
0.200426 -0.400277 -0.603 188 192 219
0.201574 -0.400277 -0.603 197 203 229
0.203871 -0.400277 -0.603 207 214 243
0.234883 -0.400277 -0.603 182 195 230
0.236031 -0.400277 -0.603 171 184 219
0.303797 -0.400277 -0.603 97 133 185
0.312986 -0.400277 -0.603 200 204 231
0.315283 -0.400277 -0.603 199 201 216
0.353186 -0.400277 -0.603 187 192 221
0.356631 -0.400277 -0.603 150 164 193
0.364671 -0.400277 -0.603 55 98 166
0.372093 -0.399613 -0.602 84 115 172
0.391737 -0.400941 -0.604 31 70 137
0.3993 -0.401605 -0.605 17 65 137
0.4228 -0.400941 -0.604 52 93 147
0.425101 -0.400941 -0.604 46 89 157
0.427402 -0.400941 -0.604 27 72 140
0.435883 -0.400277 -0.603 80 117 172
0.442774 -0.400277 -0.603 175 187 203
0.491014 -0.400277 -0.603 74 106 163
0.463695 -0.361112 -0.544 137 105 106
0.459606 -0.35713 -0.538 139 107 108
0.453074 -0.350491 -0.528 147 112 106
0.448997 -0.340534 -0.513 163 116 98
0.450344 -0.337879 -0.509 171 118 100
0.468095 -0.331905 -0.5 157 110 92
0.484314 -0.335888 -0.506 161 115 92
0.00460952 -0.292914 -0.44 191 154 125
0.0295476 -0.282929 -0.425 190 146 121
0.0344857 -0.283594 -0.426 190 144 120
0.03782 -0.28426 -0.427 184 138 112
0.0617286 -0.289586 -0.435 136 98 89
0.0625571 -0.289586 -0.435 132 94 85
0.0896448 -0.314883 -0.473 93 75 75
0.14874 -0.401426 -0.603 235 235 247
0.255557 -0.401426 -0.603 223 224 242
0.273934 -0.401426 -0.603 91 117 178
0.286093 -0.40076 -0.602 211 214 229
0.3182 -0.40076 -0.602 196 203 221
0.333107 -0.40076 -0.602 31 73 149
0.336547 -0.40076 -0.602 34 77 155
0.341133 -0.40076 -0.602 126 155 213
0.402574 -0.401426 -0.603 55 93 158
0.424397 -0.401426 -0.603 61 104 172
0.443923 -0.401426 -0.603 178 186 199
0.44622 -0.401426 -0.603 118 125 131
0.488717 -0.401426 -0.603 66 101 159
0.492163 -0.401426 -0.603 94 125 179
0.457537 -0.334189 -0.502 167 118 101
0.461397 -0.333523 -0.501 165 116 99
0.463333 -0.332857 -0.5 164 115 100
