ply
format ascii 1.0
comment Created by Open3D
element vertex 1302
property double x
property double y
property double z
property uchar red
property uchar green
property uchar blue
end_header
0.414627 -0.221754 -0.514 152 104 94
0.424417 -0.221754 -0.514 151 103 91
0.431129 -0.222186 -0.515 151 103 91
0.478043 -0.235129 -0.545 126 89 80
0.486286 -0.238149 -0.552 125 91 81
-0.162997 -0.277767 -0.641 147 146 152
-0.146031 -0.273433 -0.631 223 223 225
-0.121633 -0.269967 -0.623 71 69 80
-0.114957 -0.268233 -0.619 68 66 77
-0.108533 -0.266933 -0.616 73 72 80
-0.0978143 -0.2665 -0.615 74 74 82
-0.0675514 -0.2769 -0.639 72 70 81
-0.0630752 -0.278633 -0.643 71 70 78
0.0592619 -0.205833 -0.475 192 143 128
0.0685971 -0.2067 -0.477 164 116 104
0.0755857 -0.208433 -0.481 143 96 88
0.0947619 -0.216667 -0.5 107 77 69
0.342269 -0.2314 -0.534 133 88 91
0.345403 -0.2301 -0.531 134 87 95
0.38776 -0.227067 -0.524 144 98 98
0.388269 -0.2262 -0.522 144 98 98
0.399657 -0.225333 -0.52 152 103 96
0.403831 -0.2249 -0.519 146 98 88
0.411326 -0.2236 -0.516 153 103 94
0.420501 -0.222733 -0.514 153 103 92
0.42148 -0.222733 -0.514 154 104 93
0.428186 -0.223167 -0.515 152 102 91
0.437727 -0.224033 -0.517 144 100 89
0.469853 -0.233133 -0.538 127 89 78
-0.12341 -0.269848 -0.62 68 66 77
-0.120657 -0.268977 -0.618 67 66 74
-0.118111 -0.268542 -0.617 67 65 76
-0.0979733 -0.268107 -0.616 75 76 81
-0.0698762 -0.277682 -0.638 72 70 83
-0.0664381 -0.278552 -0.64 72 70 83
-0.0642 -0.279423 -0.642 74 72 85
0.0493095 -0.206738 -0.475 200 164 164
0.0610714 -0.206738 -0.475 183 134 120
0.0746695 -0.20935 -0.481 148 101 93
0.0831924 -0.212396 -0.488 124 86 77
0.0866857 -0.214137 -0.492 121 84 75
0.0976333 -0.219795 -0.505 105 74 69
0.100543 -0.221971 -0.51 102 71 68
0.108293 -0.228065 -0.524 100 74 85
0.340488 -0.233288 -0.536 137 90 96
0.361932 -0.231982 -0.533 81 59 61
0.386143 -0.230676 -0.53 133 93 94
0.385965 -0.22937 -0.527 129 91 88
0.388269 -0.227194 -0.522 145 99 99
0.395695 -0.226324 -0.52 153 102 99
0.40108 -0.225453 -0.518 151 103 93
0.406214 -0.225018 -0.517 145 96 89
0.413471 -0.224148 -0.515 154 104 95
0.416585 -0.223712 -0.514 156 106 97
0.448784 -0.22763 -0.523 121 81 71
0.44978 -0.22763 -0.523 121 81 71
0.451638 -0.228065 -0.524 119 79 69
0.462587 -0.231547 -0.532 125 89 77
0.472629 -0.235029 -0.54 127 93 81
-0.119681 -0.267969 -0.613 63 62 70
-0.1098 -0.266657 -0.61 68 67 73
-0.0938857 -0.271029 -0.62 73 74 79
-0.0875 -0.273214 -0.625 74 75 80
-0.0841971 -0.274089 -0.627 74 73 79
-0.0808714 -0.274963 -0.629 72 71 77
-0.0665419 -0.280209 -0.641 70 68 81
0.045979 -0.208954 -0.478 202 172 164
0.0601667 -0.207643 -0.475 182 132 121
0.0685971 -0.208517 -0.477 164 116 104
0.0707095 -0.209391 -0.479 152 106 93
0.0982133 -0.222069 -0.508 104 74 72
0.1075 -0.2295 -0.525 97 73 73
0.347781 -0.231686 -0.53 136 89 95
0.354848 -0.231686 -0.53 126 86 87
0.355857 -0.231686 -0.53 126 86 87
0.356867 -0.231686 -0.53 114 87 94
0.38628 -0.228189 -0.522 146 100 100
0.407394 -0.225566 -0.516 155 105 98
0.422459 -0.224691 -0.514 155 107 97
-0.153729 -0.277917 -0.633 110 111 115
-0.145367 -0.273527 -0.623 99 98 103
-0.143949 -0.273088 -0.622 100 99 104
-0.1189 -0.26738 -0.609 62 61 69
-0.0765629 -0.277917 -0.633 71 70 78
-0.0731762 -0.278795 -0.635 71 70 78
-0.07208 -0.279234 -0.636 71 69 80
-0.0676571 -0.28099 -0.64 72 70 83
0.0484048 -0.208548 -0.475 199 169 161
0.0583571 -0.208548 -0.475 190 141 127
0.077901 -0.212499 -0.484 129 88 82
0.0859229 -0.21645 -0.493 121 84 78
0.08964 -0.218646 -0.498 116 82 80
0.0907705 -0.219085 -0.499 114 80 78
0.0947476 -0.221719 -0.505 108 78 78
0.341123 -0.235769 -0.537 135 88 94
0.342269 -0.234451 -0.534 131 82 88
0.383837 -0.233134 -0.531 141 100 104
0.384291 -0.229183 -0.522 139 95 96
0.40108 -0.227427 -0.518 152 103 98
0.402067 -0.227427 -0.518 151 102 97
0.424417 -0.22567 -0.514 155 105 96
0.431129 -0.22611 -0.515 148 100 90
-0.152523 -0.279123 -0.633 105 106 110
-0.142075 -0.27295 -0.619 95 95 103
-0.112357 -0.266776 -0.605 64 63 69
-0.106314 -0.268981 -0.61 71 70 75
-0.102333 -0.270745 -0.614 74 73 78
-0.0765629 -0.279123 -0.633 72 71 77
-0.0631733 -0.283973 -0.644 72 70 83
0.0483029 -0.209011 -0.474 198 168 160
0.0492057 -0.209011 -0.474 198 165 156
0.0510114 -0.209011 -0.474 200 160 152
0.05372 -0.209011 -0.474 195 152 143
0.0658714 -0.210334 -0.477 170 122 112
0.342269 -0.235469 -0.534 134 83 90
0.345403 -0.234146 -0.531 131 82 88
0.356193 -0.233264 -0.529 140 101 104
0.363609 -0.234146 -0.531 130 94 98
0.40108 -0.228413 -0.518 151 104 98
0.428186 -0.22709 -0.515 153 103 92
0.441533 -0.228413 -0.518 128 88 80
-0.151317 -0.280329 -0.633 105 106 111
-0.135584 -0.270586 -0.611 70 71 76
-0.121917 -0.266157 -0.601 70 70 78
-0.120571 -0.265714 -0.6 72 72 80
-0.114093 -0.2666 -0.602 54 53 58
-0.08764 -0.277229 -0.626 74 75 80
-0.0755952 -0.281214 -0.635 73 72 80
-0.0654229 -0.284314 -0.642 72 70 81
0.0717714 -0.212571 -0.48 147 103 94
0.0748248 -0.213457 -0.482 133 93 85
0.0804038 -0.216114 -0.488 121 88 79
0.104301 -0.232057 -0.524 100 75 78
0.107717 -0.235157 -0.531 93 76 86
0.343497 -0.240914 -0.544 137 92 97
0.378176 -0.236043 -0.533 133 97 99
0.379221 -0.232943 -0.526 139 99 100
0.410529 -0.228071 -0.515 152 103 96
0.44892 -0.231171 -0.522 127 89 80
-0.136524 -0.271305 -0.61 68 68 76
-0.130579 -0.268636 -0.604 63 63 71
-0.11903 -0.265968 -0.598 63 66 75
-0.114093 -0.267747 -0.602 48 48 50
-0.0844657 -0.279755 -0.629 74 73 79
-0.0573943 -0.288206 -0.648 72 70 81
0.0441581 -0.212596 -0.478 201 168 163
0.0510114 -0.210817 -0.474 198 159 152
0.0621067 -0.211707 -0.476 176 126 115
0.0737533 -0.21393 -0.481 134 96 87
0.0804038 -0.217044 -0.488 118 88 80
0.342783 -0.239282 -0.538 141 88 94
0.343658 -0.237058 -0.533 132 80 84
0.3717 -0.236169 -0.531 137 96 100
0.37905 -0.23261 -0.523 143 101 102
0.3848 -0.231276 -0.52 145 99 99
0.44978 -0.23261 -0.523 126 89 80
0.452636 -0.233055 -0.524 127 88 81
0.4636 -0.236613 -0.532 131 88 82
-0.117891 -0.267107 -0.598 59 58 63
-0.115807 -0.267553 -0.599 73 74 78
-0.10384 -0.275147 -0.616 68 67 73
-0.101988 -0.276487 -0.619 71 70 76
-0.09568 -0.27872 -0.624 76 75 81
-0.0823305 -0.281847 -0.631 74 73 79
-0.0644 -0.287653 -0.644 71 70 76
-0.0609086 -0.288547 -0.646 70 69 77
0.0782229 -0.21708 -0.486 113 84 78
0.0920438 -0.226013 -0.506 108 79 75
0.343286 -0.23852 -0.534 135 84 89
0.343658 -0.238073 -0.533 135 85 88
0.37433 -0.236287 -0.529 141 99 101
0.380578 -0.232713 -0.521 148 104 105
0.406411 -0.23048 -0.516 156 107 100
0.407394 -0.23048 -0.516 156 107 100
0.408567 -0.230033 -0.515 155 106 99
0.429167 -0.230033 -0.515 150 102 92
0.431129 -0.230033 -0.515 148 100 90
0.441533 -0.231373 -0.518 127 87 79
0.4545 -0.2345 -0.525 125 86 79
0.459978 -0.236287 -0.529 133 90 84
-0.113904 -0.269591 -0.601 49 50 52
-0.10567 -0.274974 -0.613 64 65 70
-0.101134 -0.278563 -0.621 70 69 75
-0.0858 -0.2826 -0.63 74 73 79
-0.0679743 -0.288431 -0.643 72 71 77
-0.0667495 -0.288431 -0.643 72 71 77
-0.0597705 -0.290226 -0.647 71 70 78
-0.0562467 -0.291123 -0.649 71 70 78
0.0491019 -0.212174 -0.473 196 163 146
0.0528171 -0.212623 -0.474 196 153 147
0.0760571 -0.217109 -0.484 117 86 81
0.0845562 -0.222491 -0.496 112 82 74
0.0895819 -0.225631 -0.503 110 81 77
0.0979838 -0.231911 -0.517 100 74 75
0.35317 -0.237294 -0.529 141 100 98
0.36256 -0.236846 -0.528 143 101 102
0.3745 -0.2355 -0.525 144 100 101
0.377058 -0.234603 -0.523 145 101 102
0.390227 -0.23236 -0.518 155 108 102
0.410529 -0.231014 -0.515 158 110 100
0.430148 -0.231014 -0.515 149 101 91
0.431129 -0.231014 -0.515 148 100 90
-0.130795 -0.272538 -0.605 76 81 85
-0.0836648 -0.284701 -0.632 74 73 78
-0.0573943 -0.291909 -0.648 70 69 77
0.0431571 -0.214877 -0.477 201 168 161
0.0518048 -0.213075 -0.473 195 155 143
0.0729886 -0.21713 -0.482 128 89 82
0.0925895 -0.229292 -0.509 106 77 73
0.103086 -0.237851 -0.528 97 73 73
0.346205 -0.24551 -0.545 135 86 90
0.346053 -0.239653 -0.532 136 88 86
0.35046 -0.239203 -0.531 147 99 97
0.351819 -0.238752 -0.53 147 99 97
0.35317 -0.238302 -0.529 144 99 96
0.354178 -0.238302 -0.529 143 99 96
0.365194 -0.23695 -0.526 144 100 101
0.375066 -0.235599 -0.523 147 103 102
0.38381 -0.234248 -0.52 146 103 97
0.389473 -0.232896 -0.517 154 107 99
0.395382 -0.232896 -0.517 157 109 99
0.41249 -0.231995 -0.515 153 106 98
0.413471 -0.231995 -0.515 152 105 97
0.419357 -0.231995 -0.515 147 100 92
0.425243 -0.231995 -0.515 152 105 97
0.429167 -0.231995 -0.515 151 102 95
0.443374 -0.233797 -0.519 125 84 78
0.475565 -0.243708 -0.541 126 86 74
-0.10846 -0.2755 -0.609 59 60 65
-0.107652 -0.276405 -0.611 60 60 68
-0.0915086 -0.284095 -0.628 74 73 79
-0.0904562 -0.284548 -0.629 75 74 80
-0.0792238 -0.287262 -0.635 72 71 77
0.0422486 -0.215786 -0.477 201 166 160
0.0430667 -0.215333 -0.476 200 165 159
0.0583571 -0.214881 -0.475 181 131 122
0.0678305 -0.216238 -0.478 156 112 103
0.071921 -0.217595 -0.481 132 93 86
0.0836114 -0.224381 -0.496 110 79 76
0.0958286 -0.233429 -0.516 98 72 71
0.352829 -0.239762 -0.53 144 100 97
0.374349 -0.236143 -0.522 149 103 103
0.376609 -0.23569 -0.521 150 104 104
0.379848 -0.235238 -0.52 150 105 102
0.397566 -0.233429 -0.516 155 108 100
0.403463 -0.233429 -0.516 158 111 103
0.407586 -0.232976 -0.515 161 113 103
0.42312 -0.233429 -0.516 149 101 91
0.438711 -0.233881 -0.517 133 90 81
0.44621 -0.235238 -0.52 121 83 74
-0.10944 -0.276206 -0.608 59 60 65
-0.0916543 -0.285746 -0.629 73 72 78
-0.0621391 -0.293469 -0.646 71 70 76
0.0454981 -0.214877 -0.473 203 166 158
0.112414 -0.249403 -0.549 218 212 238
0.354848 -0.240771 -0.53 146 101 98
0.356193 -0.240317 -0.529 146 102 101
0.370792 -0.238046 -0.524 141 97 98
0.371081 -0.237591 -0.523 141 97 96
0.374349 -0.237137 -0.522 149 103 103
0.376876 -0.236229 -0.52 150 105 102
0.379848 -0.236229 -0.52 150 105 102
0.431966 -0.234411 -0.516 148 99 92
0.444363 -0.235774 -0.519 125 87 78
-0.12276 -0.270977 -0.594 121 125 128
0.0406857 -0.218971 -0.48 204 169 163
0.0429762 -0.21669 -0.475 200 165 159
0.05372 -0.216234 -0.474 193 149 138
0.0700886 -0.219428 -0.481 139 100 93
0.350837 -0.250449 -0.549 133 84 87
0.357876 -0.241781 -0.53 146 102 101
0.399531 -0.235394 -0.516 157 109 99
0.417395 -0.234938 -0.515 150 102 92
0.422137 -0.235394 -0.516 150 102 92
0.424262 -0.234938 -0.515 154 105 98
0.428186 -0.234938 -0.515 151 103 93
0.449914 -0.238131 -0.522 128 90 81
0.472928 -0.24543 -0.538 127 89 80
-0.08848 -0.289516 -0.632 74 73 79
-0.0749714 -0.293181 -0.64 73 72 78
0.0445971 -0.216679 -0.473 200 163 155
0.0573314 -0.217137 -0.474 184 135 128
0.0592619 -0.217595 -0.475 182 132 125
0.0602933 -0.218053 -0.476 179 130 123
0.07222 -0.22126 -0.483 125 90 88
0.0804514 -0.226299 -0.494 101 76 79
0.0910067 -0.234087 -0.511 101 76 79
0.09234 -0.235003 -0.513 99 77 80
0.356529 -0.243249 -0.531 143 98 95
0.358886 -0.24279 -0.53 144 100 99
0.371366 -0.239126 -0.522 146 101 96
0.379117 -0.237751 -0.519 151 103 99
0.381347 -0.237293 -0.518 153 105 101
0.396795 -0.235919 -0.515 158 109 102
0.402681 -0.235919 -0.515 161 113 103
0.409548 -0.235919 -0.515 154 106 94
0.424262 -0.235919 -0.515 154 105 98
0.437727 -0.236835 -0.517 135 92 83
0.438711 -0.236835 -0.517 134 91 82
-0.10944 -0.27968 -0.608 64 64 72
-0.102811 -0.28704 -0.624 59 58 66
-0.0908876 -0.29072 -0.632 72 71 77
-0.0896838 -0.29072 -0.632 72 71 77
-0.0785057 -0.29394 -0.639 75 74 79
-0.0738676 -0.29486 -0.641 74 73 78
0.0436962 -0.21758 -0.473 200 163 155
0.0491019 -0.21758 -0.473 196 158 149
0.0546229 -0.21804 -0.474 186 139 131
0.0592619 -0.2185 -0.475 178 128 121
0.0622371 -0.21942 -0.477 172 125 117
0.0700886 -0.22126 -0.481 136 98 95
0.0940448 -0.23782 -0.517 98 77 82
0.109519 -0.2507 -0.545 205 206 237
0.35266 -0.24794 -0.539 133 89 88
0.354826 -0.24518 -0.533 137 93 90
0.367798 -0.24104 -0.524 143 98 95
0.390686 -0.23736 -0.516 154 105 98
0.393852 -0.2369 -0.515 159 110 103
0.402681 -0.2369 -0.515 162 114 104
0.404643 -0.2369 -0.515 158 110 100
0.405815 -0.23644 -0.514 157 109 99
0.41151 -0.2369 -0.515 153 105 93
0.414452 -0.2369 -0.515 150 102 92
0.440681 -0.23782 -0.517 133 93 81
0.453765 -0.24058 -0.523 129 86 80
0.459243 -0.24242 -0.527 130 89 83
-0.118763 -0.272986 -0.591 107 110 115
-0.117836 -0.273448 -0.592 107 108 112
-0.102976 -0.28869 -0.625 58 57 65
-0.0841943 -0.293771 -0.636 74 73 81
-0.07276 -0.296543 -0.642 73 72 80
-0.0716486 -0.297005 -0.643 72 71 79
-0.0694143 -0.297929 -0.645 71 70 75
-0.0600476 -0.300238 -0.65 70 69 75
0.0403467 -0.219867 -0.476 202 167 161
0.0472 -0.218019 -0.472 197 158 151
0.0574524 -0.219405 -0.475 182 133 126
0.0942267 -0.239267 -0.518 96 77 83
0.101457 -0.24481 -0.53 95 78 88
0.146814 -0.297929 -0.645 215 217 238
0.355802 -0.247581 -0.536 134 90 87
0.357871 -0.246195 -0.533 135 94 90
0.363566 -0.243886 -0.528 140 95 90
0.382333 -0.239267 -0.518 152 105 99
0.400719 -0.237881 -0.515 161 112 105
0.403857 -0.237419 -0.514 155 107 97
0.435897 -0.238343 -0.516 139 95 84
0.43688 -0.238343 -0.516 138 96 84
0.44634 -0.239729 -0.519 125 87 76
-0.129429 -0.280141 -0.604 115 118 123
-0.127004 -0.277358 -0.598 114 117 122
-0.125023 -0.275503 -0.594 115 118 123
-0.108994 -0.283851 -0.612 66 67 72
-0.108181 -0.284779 -0.614 65 65 73
-0.0786286 -0.296838 -0.64 75 74 82
0.0583571 -0.22031 -0.475 181 131 124
0.065099 -0.221701 -0.478 154 107 99
0.0672 -0.222629 -0.48 146 108 105
0.0944086 -0.240717 -0.519 95 75 84
0.369794 -0.243036 -0.524 145 100 97
0.386519 -0.23979 -0.517 155 106 101
0.387737 -0.239326 -0.516 154 105 98
0.39091 -0.238862 -0.515 156 108 98
0.395814 -0.238862 -0.515 159 111 101
0.40092 -0.238398 -0.514 161 113 103
0.406794 -0.238398 -0.514 157 110 100
0.409731 -0.238398 -0.514 154 106 94
0.413471 -0.238862 -0.515 151 103 93
0.432949 -0.239326 -0.516 145 99 86
0.451037 -0.241645 -0.521 129 89 77
-0.13838 -0.292934 -0.629 113 116 123
-0.119686 -0.274771 -0.59 111 111 119
-0.118763 -0.275237 -0.591 109 109 117
-0.117836 -0.275703 -0.592 105 106 111
-0.1098 -0.284086 -0.61 70 71 76
-0.0876905 -0.295729 -0.635 70 70 78
-0.0832438 -0.297126 -0.638 74 73 81
-0.0752057 -0.298989 -0.642 74 72 83
-0.07176 -0.29992 -0.644 74 72 83
0.0500029 -0.220283 -0.473 189 150 143
0.0641886 -0.222611 -0.478 149 108 102
0.0672 -0.223543 -0.48 144 103 97
0.0862609 -0.235651 -0.506 95 77 77
0.0973143 -0.244034 -0.524 93 68 74
0.360557 -0.250089 -0.537 131 91 89
0.37236 -0.243103 -0.522 145 95 94
0.373354 -0.243103 -0.522 146 96 95
0.385534 -0.240774 -0.517 149 100 93
0.386519 -0.240774 -0.517 152 103 98
0.397776 -0.239843 -0.515 161 114 104
0.399941 -0.239377 -0.514 159 112 102
0.402878 -0.239377 -0.514 161 113 101
0.416585 -0.239377 -0.514 153 105 95
0.423281 -0.239843 -0.515 153 105 95
0.425243 -0.239843 -0.515 155 107 97
0.427051 -0.240309 -0.516 155 107 97
-0.119483 -0.275428 -0.589 109 109 117
-0.0981105 -0.295535 -0.632 58 58 66
-0.0867533 -0.297873 -0.637 69 69 77
-0.0822857 -0.299276 -0.64 72 71 79
0.0500029 -0.221184 -0.473 192 151 145
0.0622371 -0.223054 -0.477 164 121 115
0.0738971 -0.228198 -0.488 109 83 86
0.0811029 -0.232874 -0.498 98 75 81
0.0825457 -0.234277 -0.501 99 74 78
0.361483 -0.253917 -0.543 130 85 80
0.362212 -0.252982 -0.541 130 85 80
0.365262 -0.24737 -0.529 138 93 87
0.366892 -0.246435 -0.527 144 96 86
0.369794 -0.245032 -0.524 148 100 96
0.37236 -0.244097 -0.522 145 97 93
0.38332 -0.242227 -0.518 152 103 96
0.396795 -0.240824 -0.515 162 114 104
0.40092 -0.240356 -0.514 159 111 101
0.401899 -0.240356 -0.514 164 116 106
0.409731 -0.240356 -0.514 157 109 99
0.413648 -0.240356 -0.514 147 99 89
0.432949 -0.241291 -0.516 147 101 86
0.436742 -0.241759 -0.517 143 97 84
0.44548 -0.242227 -0.518 128 84 71
0.4585 -0.2455 -0.525 129 89 77
1.12143 -0.293665 -0.628 210 210 198
-0.111986 -0.283123 -0.603 81 82 87
-0.0835048 -0.300495 -0.64 71 70 76
0.0377848 -0.224432 -0.478 200 165 159
0.0391914 -0.222085 -0.473 201 164 156
0.06946 -0.22678 -0.483 133 99 98
0.0751333 -0.230067 -0.49 105 82 88
0.0774714 -0.231475 -0.493 101 80 87
0.0866019 -0.238518 -0.508 97 76 83
0.0894086 -0.240866 -0.513 100 75 79
0.0976857 -0.24697 -0.526 95 72 78
0.112586 -0.260586 -0.555 143 161 211
0.380106 -0.243683 -0.519 150 101 94
0.404049 -0.240866 -0.513 161 113 101
0.416585 -0.241335 -0.514 158 110 100
0.421319 -0.241805 -0.515 155 106 92
0.424262 -0.241805 -0.515 156 108 96
0.446467 -0.243213 -0.518 130 88 76
0.448317 -0.243683 -0.519 130 88 76
-0.126791 -0.281443 -0.597 104 104 112
0.0479971 -0.222043 -0.471 198 158 150
0.0489981 -0.222514 -0.472 193 153 145
0.0527057 -0.222986 -0.473 188 144 135
0.0564286 -0.223457 -0.474 180 133 127
0.0728181 -0.229586 -0.487 116 91 95
0.0922533 -0.2442 -0.518 97 76 81
0.106851 -0.255514 -0.542 174 186 234
0.36623 -0.257871 -0.547 128 86 87
0.365657 -0.254571 -0.54 129 88 84
0.383565 -0.243729 -0.517 151 102 95
0.387504 -0.243729 -0.517 153 104 97
0.402094 -0.241843 -0.513 160 110 101
0.403071 -0.241843 -0.513 161 111 102
0.427205 -0.242786 -0.515 158 109 94
0.439696 -0.243729 -0.517 136 94 82
-0.126579 -0.282107 -0.596 100 100 108
-0.107883 -0.292993 -0.619 75 75 83
-0.105694 -0.29678 -0.627 66 65 73
-0.07544 -0.304827 -0.644 72 71 77
0.0382905 -0.223887 -0.473 204 167 161
0.0391086 -0.223413 -0.472 202 165 159
0.04082 -0.22294 -0.471 197 160 154
0.0683981 -0.228147 -0.482 134 100 99
0.368987 -0.259387 -0.548 126 86 86
0.3695 -0.2485 -0.525 151 102 97
0.385534 -0.244713 -0.517 151 103 93
0.38872 -0.24424 -0.516 154 106 96
0.390686 -0.24424 -0.516 154 105 98
0.423281 -0.243767 -0.515 158 108 97
0.428186 -0.243767 -0.515 158 109 95
0.440681 -0.244713 -0.517 138 96 84
0.441666 -0.244713 -0.517 135 95 83
0.454886 -0.24708 -0.522 131 89 77
-0.112759 -0.285618 -0.601 89 90 95
-0.0997857 -0.301776 -0.635 56 56 64
-0.08918 -0.302727 -0.637 60 60 68
-0.0800971 -0.305103 -0.642 72 71 79
0.0462029 -0.223837 -0.471 197 156 150
0.0527057 -0.224788 -0.473 186 143 134
0.0742 -0.232867 -0.49 107 82 88
0.368366 -0.25853 -0.544 127 87 87
0.370204 -0.249975 -0.526 153 104 99
0.392651 -0.245223 -0.516 157 107 98
0.415606 -0.244272 -0.514 162 113 99
0.419522 -0.244272 -0.514 160 110 99
0.426224 -0.244748 -0.515 158 109 94
0.435897 -0.245223 -0.516 143 97 84
0.452152 -0.247124 -0.52 136 94 82
0.469548 -0.253302 -0.533 128 90 77
-0.10871 -0.294397 -0.617 81 80 85
-0.09752 -0.303463 -0.636 55 55 63
-0.09282 -0.30394 -0.637 58 57 65
-0.065 -0.310143 -0.65 71 71 79
0.0366429 -0.226643 -0.475 205 168 160
0.0416286 -0.224257 -0.47 198 160 151
0.0462029 -0.224734 -0.471 197 156 150
0.0806371 -0.239049 -0.501 99 78 85
0.0982429 -0.252409 -0.529 99 76 86
0.403071 -0.244774 -0.513 161 113 101
0.433931 -0.246206 -0.516 150 102 90
0.43688 -0.246206 -0.516 147 100 90
0.468667 -0.25384 -0.532 129 89 77
-0.117959 -0.281201 -0.587 90 91 96
-0.0987314 -0.304674 -0.636 56 55 61
-0.0940333 -0.305153 -0.637 55 55 63
-0.0905352 -0.305632 -0.638 57 56 64
0.0708171 -0.232817 -0.486 119 90 94
0.0833695 -0.242398 -0.506 96 76 85
0.375137 -0.265392 -0.554 122 86 86
0.370749 -0.255811 -0.534 135 94 92
0.371308 -0.253416 -0.529 147 103 100
0.378857 -0.249105 -0.52 147 99 89
0.429167 -0.24671 -0.515 161 109 96
0.43688 -0.247189 -0.516 149 101 87
0.467786 -0.254374 -0.531 129 89 77
-0.114647 -0.285205 -0.593 70 70 78
-0.108406 -0.299152 -0.622 80 79 85
-0.0859429 -0.30781 -0.64 63 62 70
-0.0789971 -0.309252 -0.643 72 71 79
-0.0778933 -0.309733 -0.644 70 69 77
0.0365657 -0.227971 -0.474 203 166 157
0.0373105 -0.22701 -0.472 204 167 158
0.0425238 -0.226048 -0.47 195 157 148
0.0623676 -0.229895 -0.478 150 110 110
0.0901057 -0.248652 -0.517 100 80 91
0.0929657 -0.251057 -0.522 99 78 85
0.375934 -0.264043 -0.549 128 90 87
0.373548 -0.260195 -0.541 129 89 87
0.372831 -0.258271 -0.537 135 94 92
0.373623 -0.253943 -0.528 149 100 93
0.388489 -0.248652 -0.517 152 104 92
0.40131 -0.246248 -0.512 159 109 98
0.434914 -0.248171 -0.516 154 105 90
0.43688 -0.248171 -0.516 152 103 88
0.453143 -0.250095 -0.52 133 93 81
0.45588 -0.251057 -0.522 131 91 79
-0.142685 -0.310477 -0.643 98 101 108
-0.107738 -0.301786 -0.625 81 80 86
-0.107059 -0.303234 -0.628 78 77 83
-0.0929657 -0.308063 -0.638 51 51 59
-0.0871619 -0.309029 -0.64 57 57 65
-0.0825429 -0.309994 -0.642 67 66 74
0.0343571 -0.232254 -0.481 202 165 157
0.0364886 -0.228391 -0.473 203 165 156
0.043419 -0.226943 -0.47 198 158 150
0.0507962 -0.227909 -0.472 190 146 137
0.0593867 -0.22984 -0.476 155 115 113
0.06762 -0.23322 -0.483 123 93 101
0.0833695 -0.244326 -0.506 96 79 89
0.375213 -0.253983 -0.526 144 97 87
0.379848 -0.251086 -0.52 148 98 87
0.40734 -0.24674 -0.511 164 116 104
0.411063 -0.247223 -0.512 162 116 103
0.417729 -0.247706 -0.513 162 113 99
0.419683 -0.247706 -0.513 163 114 100
0.437863 -0.249154 -0.516 152 103 86
1.12502 -0.303234 -0.628 201 203 190
-0.130363 -0.292311 -0.603 95 98 105
-0.115386 -0.286494 -0.591 66 66 74
-0.074559 -0.313641 -0.647 72 71 79
0.0498971 -0.228808 -0.472 191 147 138
0.0656438 -0.233655 -0.482 136 97 102
0.0665619 -0.233655 -0.482 125 95 103
0.0757467 -0.239472 -0.494 105 84 93
0.379586 -0.252561 -0.521 148 99 85
0.383071 -0.251591 -0.519 152 104 94
0.384307 -0.251107 -0.518 149 100 93
0.387267 -0.251107 -0.518 155 105 96
0.390686 -0.250137 -0.516 156 106 97
0.418706 -0.248683 -0.513 162 113 98
0.430148 -0.249652 -0.515 159 107 93
-0.125305 -0.287133 -0.59 93 96 103
-0.12355 -0.285673 -0.587 94 95 100
-0.118671 -0.2847 -0.585 92 93 98
-0.11078 -0.29638 -0.609 94 95 100
-0.0931114 -0.31098 -0.639 50 50 58
-0.0862114 -0.31244 -0.642 55 54 62
0.0364114 -0.229707 -0.472 204 167 158
0.0452095 -0.228733 -0.47 196 153 144
0.0507962 -0.229707 -0.472 188 144 135
0.0527057 -0.230193 -0.473 176 132 123
0.05848 -0.231653 -0.476 152 110 111
0.0614571 -0.232627 -0.478 149 109 110
0.0796829 -0.24382 -0.501 101 80 89
0.0863086 -0.249173 -0.512 95 79 82
0.09468 -0.255987 -0.526 102 82 94
0.379066 -0.26426 -0.543 141 93 93
0.376538 -0.260367 -0.535 137 94 87
0.377217 -0.255987 -0.526 142 94 90
0.424417 -0.250147 -0.514 161 112 97
0.4429 -0.250633 -0.515 148 97 78
0.451283 -0.25258 -0.519 141 93 81
-0.119581 -0.285326 -0.584 94 95 100
-0.103903 -0.311709 -0.638 76 75 80
-0.090819 -0.312686 -0.64 49 49 57
0.0565476 -0.232071 -0.475 160 116 113
0.0595114 -0.233049 -0.477 149 107 108
0.0863086 -0.250149 -0.512 100 81 85
0.0904543 -0.253569 -0.519 102 80 92
0.0933219 -0.256011 -0.524 102 81 88
0.09486 -0.257477 -0.527 105 85 96
0.380314 -0.255034 -0.522 148 100 88
0.392651 -0.252103 -0.516 158 108 97
0.428333 -0.251126 -0.514 154 105 88
0.431129 -0.251614 -0.515 154 105 88
0.471578 -0.260409 -0.533 132 89 82
-0.146263 -0.317829 -0.648 91 94 99
-0.13816 -0.308019 -0.628 95 98 105
-0.0804714 -0.316357 -0.645 63 62 70
0.0425238 -0.230524 -0.47 197 154 145
0.081281 -0.24769 -0.505 98 81 91
0.102722 -0.265838 -0.542 242 239 248
0.399163 -0.251614 -0.513 163 114 100
0.411233 -0.250633 -0.511 161 112 98
0.413013 -0.251124 -0.512 159 110 95
0.416914 -0.251124 -0.512 159 110 95
0.424569 -0.251614 -0.513 160 109 92
0.474367 -0.262405 -0.535 130 90 82
0.491857 -0.269762 -0.55 128 91 85
-0.134783 -0.304291 -0.618 95 98 103
-0.1118 -0.296413 -0.602 102 101 109
-0.11078 -0.29986 -0.609 99 98 104
-0.108754 -0.307246 -0.624 91 90 98
-0.0909609 -0.315616 -0.641 48 49 54
0.0346133 -0.232404 -0.472 201 161 153
0.0516952 -0.232404 -0.472 177 132 126
0.0527057 -0.232896 -0.473 176 133 127
0.05372 -0.233389 -0.474 174 131 125
0.0636752 -0.236835 -0.481 138 102 106
0.070179 -0.240282 -0.488 116 89 98
0.0864771 -0.252591 -0.513 101 78 88
0.0892933 -0.255053 -0.518 100 77 93
0.381633 -0.263424 -0.535 126 86 86
0.381222 -0.262439 -0.533 126 86 86
0.381225 -0.258992 -0.526 136 91 86
0.421637 -0.252591 -0.513 159 107 93
0.429312 -0.253084 -0.514 155 106 89
0.430291 -0.253084 -0.514 151 102 85
-0.143014 -0.315849 -0.639 96 99 104
-0.118469 -0.288663 -0.584 95 95 103
-0.114995 -0.291134 -0.589 60 59 67
-0.0946238 -0.316837 -0.641 49 48 56
-0.08988 -0.317331 -0.642 48 48 58
0.0330238 -0.234786 -0.475 198 160 151
0.0353619 -0.232314 -0.47 197 157 149
0.0433267 -0.23182 -0.469 197 154 145
0.047 -0.232314 -0.47 189 145 136
0.0497914 -0.232809 -0.471 182 138 129
0.0575733 -0.23528 -0.476 157 113 112
0.0714 -0.2422 -0.49 115 89 100
0.0751086 -0.245166 -0.496 109 83 92
0.0814419 -0.250109 -0.506 98 80 92
0.0938562 -0.260489 -0.527 105 84 93
0.0983381 -0.264443 -0.535 160 147 167
0.382227 -0.259994 -0.526 137 93 90
0.384766 -0.259006 -0.524 144 100 89
0.38628 -0.258017 -0.522 153 105 91
0.396795 -0.254557 -0.515 160 110 99
0.402286 -0.253074 -0.512 162 114 100
0.403447 -0.25258 -0.511 166 118 104
0.40442 -0.25258 -0.511 165 117 103
0.40734 -0.25258 -0.511 162 114 100
0.433229 -0.254063 -0.514 154 103 86
0.435187 -0.254063 -0.514 155 104 85
0.437145 -0.254063 -0.514 154 103 84
-0.100886 -0.318554 -0.642 69 70 75
0.0433267 -0.232713 -0.469 193 153 143
0.0596362 -0.237179 -0.478 147 107 107
0.0985219 -0.265958 -0.536 209 196 216
0.3855 -0.2605 -0.525 140 97 88
0.385764 -0.260004 -0.524 143 96 86
0.393412 -0.25653 -0.517 156 108 94
0.396583 -0.256034 -0.516 162 113 99
0.445843 -0.255538 -0.515 142 99 83
0.48367 -0.268935 -0.542 130 94 80
-0.118469 -0.290888 -0.584 103 103 111
-0.113709 -0.295869 -0.594 117 116 124
-0.112956 -0.296865 -0.596 117 116 124
-0.111144 -0.304336 -0.611 107 106 114
-0.0947714 -0.319777 -0.642 47 47 55
0.0451133 -0.233607 -0.469 194 151 142
0.0595114 -0.237591 -0.477 147 107 108
0.0740143 -0.246557 -0.495 106 85 94
0.0883067 -0.258013 -0.518 98 75 81
0.38909 -0.270964 -0.544 122 83 86
0.38571 -0.266481 -0.535 121 82 83
0.386762 -0.261002 -0.524 142 95 85
0.38702 -0.260504 -0.523 147 99 89
0.394173 -0.258013 -0.518 158 109 95
0.422614 -0.255523 -0.513 157 104 86
0.437145 -0.256021 -0.514 149 101 81
0.440082 -0.256021 -0.514 152 103 86
0.474497 -0.265983 -0.534 129 89 81
0.578431 -0.314796 -0.632 215 217 238
-0.119581 -0.292 -0.584 108 108 116
-0.11426 -0.2955 -0.591 121 120 128
0.0545076 -0.2365 -0.473 164 123 121
0.0816029 -0.2535 -0.507 103 81 93
0.0868143 -0.2575 -0.515 99 76 82
0.387236 -0.263 -0.526 138 93 87
0.402094 -0.2565 -0.513 164 112 98
0.410088 -0.256 -0.512 158 110 90
0.415939 -0.256 -0.512 155 107 87
0.422614 -0.2565 -0.513 153 105 83
0.441061 -0.257 -0.514 149 100 83
-0.109451 -0.315196 -0.628 104 103 108
0.0395838 -0.23439 -0.467 197 159 148
0.0433267 -0.235393 -0.469 198 155 146
0.0605467 -0.23991 -0.478 138 103 107
0.0659162 -0.242922 -0.484 125 92 99
0.06818 -0.244428 -0.487 120 90 102
0.0898105 -0.261492 -0.521 101 80 89
0.3926 -0.27404 -0.546 109 81 80
0.436166 -0.257979 -0.514 149 100 83
0.471831 -0.266511 -0.531 131 91 83
-0.120693 -0.294225 -0.584 110 110 118
-0.105777 -0.323446 -0.642 88 92 95
-0.0863457 -0.32395 -0.643 50 49 57
0.0310829 -0.238302 -0.473 197 163 151
0.0326762 -0.23679 -0.47 199 163 151
0.0451133 -0.236287 -0.469 193 150 141
0.0716914 -0.247874 -0.492 106 83 93
0.389627 -0.268027 -0.532 121 88 83
0.389714 -0.266011 -0.528 127 91 91
0.390754 -0.263996 -0.524 137 94 88
0.399531 -0.259966 -0.516 157 108 94
0.400514 -0.259966 -0.516 158 109 95
0.401497 -0.259966 -0.516 159 110 96
0.424569 -0.258454 -0.513 152 103 88
0.425546 -0.258454 -0.513 154 105 90
0.443019 -0.258958 -0.514 143 97 82
0.444977 -0.258958 -0.514 143 97 82
-0.140244 -0.319611 -0.632 100 100 108
-0.126154 -0.300394 -0.594 109 109 117
-0.113714 -0.303429 -0.6 220 219 225
-0.08988 -0.324669 -0.642 48 48 56
0.0295286 -0.241226 -0.477 199 163 151
0.0506886 -0.238191 -0.471 175 130 125
0.0545076 -0.239203 -0.473 162 118 117
0.0659162 -0.244766 -0.484 122 89 98
0.0743133 -0.25134 -0.497 102 82 91
0.102252 -0.275614 -0.545 253 251 255
0.393479 -0.263477 -0.521 146 98 86
0.400306 -0.261454 -0.517 155 106 92
0.402681 -0.260443 -0.515 158 109 95
0.411866 -0.259431 -0.513 161 112 97
0.435187 -0.259937 -0.514 150 102 88
-0.124391 -0.300003 -0.591 109 109 117
-0.11178 -0.315231 -0.621 158 160 159
-0.110824 -0.319292 -0.629 121 123 122
-0.107886 -0.324876 -0.64 92 93 95
0.02868 -0.242642 -0.478 199 163 151
0.0386943 -0.237058 -0.467 192 152 142
0.0414514 -0.237566 -0.468 191 151 141
0.0565476 -0.241119 -0.475 150 111 112
0.06486 -0.24518 -0.483 123 91 102
0.392731 -0.268023 -0.528 124 89 85
0.393248 -0.267008 -0.526 127 90 84
0.39499 -0.265485 -0.523 137 93 82
0.40326 -0.262439 -0.517 156 107 92
0.405624 -0.261424 -0.515 158 109 94
0.429454 -0.260409 -0.513 160 108 95
0.443998 -0.260916 -0.514 145 98 82
0.447805 -0.261424 -0.515 142 95 79
-0.11999 -0.298581 -0.586 104 104 112
-0.11816 -0.2996 -0.588 101 101 109
-0.11196 -0.316924 -0.622 184 186 183
0.0277019 -0.251195 -0.493 197 164 155
0.0496857 -0.239476 -0.47 172 130 118
0.062759 -0.245081 -0.481 132 99 108
0.0769733 -0.255781 -0.502 102 85 95
0.0905 -0.2675 -0.525 101 84 94
0.4033 -0.282786 -0.555 116 83 78
0.400714 -0.280238 -0.55 117 83 81
0.395251 -0.26801 -0.526 126 89 83
0.40108 -0.263933 -0.518 156 104 91
0.42148 -0.261895 -0.514 152 103 88
0.428477 -0.261386 -0.513 154 105 90
0.432386 -0.261386 -0.513 151 102 87
0.44118 -0.261386 -0.513 143 95 81
0.452498 -0.263424 -0.517 143 95 81
0.454468 -0.263424 -0.517 142 96 83
0.486768 -0.276162 -0.542 132 95 79
-0.126579 -0.304811 -0.596 101 101 111
-0.115227 -0.304811 -0.596 80 78 91
-0.113697 -0.309926 -0.606 226 225 231
-0.112417 -0.316063 -0.618 219 219 221
-0.0896 -0.327314 -0.64 36 35 43
0.0277114 -0.243951 -0.477 202 165 156
0.029219 -0.241394 -0.472 194 157 148
0.0315781 -0.238837 -0.467 200 162 151
0.0555257 -0.242417 -0.474 154 110 111
0.0661886 -0.248554 -0.486 122 94 106
0.0708981 -0.252134 -0.493 110 86 100
0.399015 -0.277194 -0.542 116 85 82
0.398974 -0.267477 -0.523 132 94 85
0.39997 -0.267477 -0.523 136 93 84
0.406214 -0.264409 -0.517 153 104 90
0.41249 -0.263386 -0.515 153 104 89
0.427354 -0.262874 -0.514 155 106 91
0.429454 -0.262363 -0.513 151 102 87
0.432386 -0.262363 -0.513 150 101 86
0.451623 -0.263897 -0.516 145 97 83
-0.129214 -0.30954 -0.603 92 95 104
0.0469 -0.240753 -0.469 181 137 128
0.0545076 -0.242807 -0.473 159 115 116
0.0555257 -0.24332 -0.474 156 112 113
0.07728 -0.25872 -0.504 106 83 99
0.101771 -0.281307 -0.548 238 250 255
0.41249 -0.264367 -0.515 148 99 85
0.415433 -0.264367 -0.515 150 101 87
0.424417 -0.263853 -0.514 151 102 87
0.433363 -0.26334 -0.513 148 101 85
0.471177 -0.27104 -0.528 132 90 78
-0.13772 -0.322539 -0.626 86 89 96
-0.125233 -0.306567 -0.595 89 92 99
-0.119483 -0.303475 -0.589 91 91 99
0.0298629 -0.241131 -0.468 202 166 154
0.0450171 -0.241131 -0.468 184 141 132
0.0825686 -0.264317 -0.513 101 80 95
0.0921971 -0.272561 -0.529 102 84 106
0.10036 -0.28132 -0.546 208 213 243
0.403955 -0.26947 -0.523 142 96 83
0.408377 -0.265863 -0.516 147 98 84
0.414274 -0.265863 -0.516 146 100 87
0.418376 -0.265348 -0.515 149 101 87
-0.14279 -0.329937 -0.638 85 88 95
-0.123474 -0.306149 -0.592 84 87 94
-0.107717 -0.330454 -0.639 165 167 164
0.0469 -0.24254 -0.469 177 133 124
0.0710419 -0.255469 -0.494 109 87 100
0.0735143 -0.257537 -0.498 107 85 98
0.417047 -0.267363 -0.517 145 98 88
0.42312 -0.266846 -0.516 148 100 86
0.436294 -0.265294 -0.513 152 103 88
0.437394 -0.264777 -0.512 150 101 86
-0.123891 -0.308314 -0.594 80 83 90
-0.116362 -0.309352 -0.596 65 62 71
-0.111666 -0.325443 -0.627 225 224 232
0.0332857 -0.241876 -0.466 202 165 147
0.0403867 -0.241876 -0.466 193 153 141
0.0640724 -0.251219 -0.484 123 93 105
0.0749114 -0.260043 -0.501 104 84 96
0.0815914 -0.266271 -0.513 103 82 97
0.4048 -0.274057 -0.528 121 86 80
0.409763 -0.269386 -0.519 140 93 83
0.418206 -0.267829 -0.516 146 102 91
0.421154 -0.267829 -0.516 148 102 89
0.43127 -0.26679 -0.514 147 99 85
0.465719 -0.271462 -0.523 131 87 76
-0.116 -0.312571 -0.6 70 67 74
-0.11232 -0.325074 -0.624 229 228 236
-0.0879667 -0.331847 -0.637 36 35 43
0.0413629 -0.243285 -0.467 191 149 137
0.0575733 -0.247973 -0.476 140 104 108
0.0913619 -0.276105 -0.53 100 84 97
0.0928943 -0.277668 -0.533 104 89 108
0.0959933 -0.280793 -0.539 163 156 187
0.238333 -0.338619 -0.65 179 185 199
0.464709 -0.337577 -0.648 108 114 146
0.40609 -0.27871 -0.535 118 83 77
0.419016 -0.269332 -0.517 142 98 87
0.435317 -0.267249 -0.513 154 105 91
0.478685 -0.277668 -0.533 130 92 79
0.059761 -0.250449 -0.479 133 100 107
0.0790162 -0.266134 -0.509 103 85 99
0.408891 -0.280251 -0.536 121 84 75
0.408111 -0.277637 -0.531 125 85 77
0.414514 -0.271886 -0.52 134 90 79
0.43837 -0.267703 -0.512 149 100 85
-0.127549 -0.318006 -0.606 73 76 85
-0.115623 -0.316956 -0.604 66 64 77
-0.112781 -0.325352 -0.62 234 233 239
0.0288476 -0.244539 -0.466 199 162 146
0.0314429 -0.244014 -0.465 195 157 144
0.0367571 -0.244014 -0.465 195 156 141
0.0394143 -0.244014 -0.465 193 151 137
0.0556429 -0.249262 -0.475 144 105 110
0.059761 -0.251361 -0.479 131 98 107
0.0619714 -0.252935 -0.482 121 93 105
0.0678048 -0.257658 -0.491 109 89 101
0.0778933 -0.266579 -0.508 102 84 98
0.410645 -0.283896 -0.541 121 83 72
0.410834 -0.277074 -0.528 124 86 77
0.417486 -0.272876 -0.52 129 87 75
0.437271 -0.269203 -0.513 153 104 90
0.45752 -0.270777 -0.516 140 93 83
0.475092 -0.277599 -0.529 131 89 77
0.0247238 -0.248587 -0.472 204 168 152
0.0366781 -0.244373 -0.464 195 153 137
0.0403 -0.2449 -0.465 188 146 132
0.0556429 -0.250167 -0.475 139 102 109
0.0643371 -0.25596 -0.486 112 88 101
0.0741048 -0.264387 -0.502 103 83 95
0.0860057 -0.27492 -0.522 102 86 99
0.0935914 -0.28282 -0.537 105 97 120
0.10023 -0.290193 -0.551 234 240 255
0.14919 -0.342333 -0.65 249 251 250
0.152905 -0.342333 -0.65 253 253 253
0.155381 -0.342333 -0.65 254 254 252
0.165286 -0.342333 -0.65 248 249 254
0.264333 -0.342333 -0.65 240 244 253
0.458714 -0.342333 -0.65 169 171 196
0.462429 -0.342333 -0.65 172 175 190
0.467471 -0.3397 -0.645 113 126 171
0.414626 -0.28914 -0.549 120 83 75
0.414157 -0.288087 -0.547 119 82 74
0.41192 -0.280187 -0.532 116 82 73
0.413169 -0.27966 -0.531 122 85 77
0.41591 -0.275447 -0.523 121 81 73
0.420273 -0.274393 -0.521 129 86 77
-0.13948 -0.335114 -0.634 78 81 88
-0.135335 -0.330886 -0.626 75 78 85
-0.132857 -0.327714 -0.62 76 79 86
0.0224933 -0.254771 -0.482 200 164 148
0.0246714 -0.248957 -0.471 203 167 151
0.0576943 -0.252129 -0.477 131 99 104
0.0891743 -0.279614 -0.529 102 86 99
0.100593 -0.2923 -0.553 252 255 255
0.15267 -0.343043 -0.649 255 253 255
0.244524 -0.343571 -0.65 252 252 255
0.251952 -0.343571 -0.65 201 214 249
0.264333 -0.343571 -0.65 228 234 246
0.289095 -0.343571 -0.65 151 170 213
0.323762 -0.343571 -0.65 149 175 226
0.458714 -0.343571 -0.65 174 175 193
0.467689 -0.341986 -0.647 117 121 150
0.416717 -0.290186 -0.549 118 84 75
0.415075 -0.278557 -0.527 115 78 70
0.41529 -0.278029 -0.526 112 75 67
0.449097 -0.270629 -0.512 150 100 89
0.458503 -0.272743 -0.516 144 96 86
0.463146 -0.274329 -0.519 137 90 80
0.479813 -0.2812 -0.532 133 88 83
-0.129232 -0.325712 -0.614 74 77 84
-0.118089 -0.317755 -0.599 76 77 82
0.0223533 -0.254098 -0.479 201 165 149
0.0237743 -0.249854 -0.471 202 166 150
0.0330714 -0.24561 -0.463 196 157 142
0.0339533 -0.24561 -0.463 196 157 142
0.0667333 -0.259933 -0.49 109 87 100
0.06916 -0.262055 -0.494 107 87 99
0.071761 -0.264708 -0.499 104 84 95
0.0863352 -0.27797 -0.524 103 85 97
0.101139 -0.294945 -0.556 251 255 255
0.155142 -0.344279 -0.649 253 253 255
0.281233 -0.344279 -0.649 168 182 219
0.469696 -0.341096 -0.643 55 78 132
0.416566 -0.285396 -0.538 116 82 80
0.42541 -0.275848 -0.52 130 87 78
0.426569 -0.275317 -0.519 130 87 78
0.455747 -0.272665 -0.514 147 99 87
0.465029 -0.275848 -0.52 134 90 81
-0.135768 -0.334335 -0.628 78 81 86
-0.119628 -0.319961 -0.601 79 80 85
-0.112235 -0.328479 -0.617 224 225 230
0.0261848 -0.24809 -0.466 202 165 149
0.0366781 -0.247025 -0.464 193 151 135
0.0440314 -0.248622 -0.467 173 130 121
0.0487905 -0.250219 -0.47 159 115 112
0.0546229 -0.252349 -0.474 137 102 108
0.0622286 -0.257672 -0.484 117 91 104
0.0835343 -0.276306 -0.519 104 84 96
0.0958476 -0.289615 -0.544 175 167 188
0.09954 -0.294407 -0.553 254 254 255
0.234769 -0.34445 -0.647 230 232 255
0.24662 -0.345515 -0.649 218 226 247
0.290674 -0.344983 -0.648 138 158 217
0.313374 -0.345515 -0.649 163 186 240
0.321531 -0.344983 -0.648 119 151 208
0.332429 -0.346048 -0.65 192 202 238
0.337381 -0.346048 -0.65 151 165 200
0.456772 -0.345515 -0.649 169 172 187
0.458009 -0.345515 -0.649 175 178 193
0.468921 -0.34445 -0.647 48 69 122
0.421667 -0.29281 -0.55 111 81 70
0.421177 -0.291745 -0.548 116 81 77
0.418786 -0.283759 -0.533 115 78 70
0.421887 -0.278435 -0.523 116 78 69
0.424419 -0.276838 -0.52 123 83 75
0.430833 -0.275241 -0.517 143 94 80
0.437014 -0.274176 -0.515 154 102 88
0.439226 -0.273111 -0.513 157 106 89
0.443246 -0.272579 -0.512 157 108 93
0.44822 -0.272047 -0.511 154 106 92
0.450167 -0.272047 -0.511 152 104 90
-0.118877 -0.322174 -0.603 83 84 89
-0.115814 -0.323243 -0.605 67 67 77
0.0229257 -0.252183 -0.472 204 168 152
0.06944 -0.265006 -0.496 105 84 99
0.0745476 -0.269814 -0.505 103 83 95
0.137623 -0.346217 -0.648 254 255 255
0.138857 -0.346217 -0.648 250 251 255
0.230714 -0.345149 -0.646 166 178 218
0.234406 -0.345149 -0.646 239 243 255
0.245384 -0.346751 -0.649 242 247 251
0.285737 -0.346217 -0.648 122 148 205
0.305486 -0.346217 -0.648 238 240 255
0.316594 -0.346217 -0.648 118 148 208
0.328209 -0.346751 -0.649 116 140 188
0.329445 -0.346751 -0.649 131 155 203
0.331917 -0.346751 -0.649 172 184 222
0.341095 -0.347286 -0.65 119 137 187
0.44881 -0.347286 -0.65 93 125 184
0.463524 -0.331257 -0.62 114 92 94
0.420681 -0.282637 -0.529 116 79 71
0.431818 -0.276226 -0.517 143 94 79
0.437995 -0.275157 -0.515 155 102 84
0.440203 -0.274089 -0.513 159 104 84
0.462346 -0.276226 -0.517 143 99 86
-0.122179 -0.326004 -0.608 88 88 96
-0.11124 -0.331366 -0.618 219 218 224
0.0220733 -0.253618 -0.473 203 167 151
0.0304257 -0.248256 -0.463 198 159 144
0.0403 -0.249329 -0.465 177 135 123
0.0469 -0.251473 -0.469 164 120 117
0.0634114 -0.260589 -0.486 113 91 104
0.0646019 -0.261661 -0.488 112 90 103
0.0708105 -0.267559 -0.499 104 86 100
0.0720486 -0.268631 -0.501 103 85 99
0.148502 -0.346915 -0.647 183 194 216
0.229129 -0.345843 -0.645 170 185 228
0.243771 -0.347451 -0.648 250 255 255
0.25079 -0.346915 -0.647 185 200 243
0.254487 -0.346915 -0.647 155 176 231
0.258184 -0.346915 -0.647 177 195 243
0.259416 -0.346915 -0.647 182 200 248
0.331406 -0.347451 -0.648 202 215 250
0.336862 -0.347988 -0.649 186 195 226
0.358429 -0.348524 -0.65 75 107 182
0.359667 -0.348524 -0.65 108 134 195
0.365857 -0.348524 -0.65 163 170 198
0.438905 -0.348524 -0.65 163 165 180
0.44441 -0.347988 -0.649 109 136 191
0.451828 -0.347988 -0.649 74 104 158
0.428385 -0.298122 -0.556 114 77 71
0.427127 -0.296513 -0.553 111 76 70
0.422486 -0.284181 -0.53 115 78 69
0.425871 -0.280428 -0.523 116 76 66
0.43068 -0.277747 -0.518 132 84 70
0.443246 -0.27453 -0.512 161 110 91
-0.127927 -0.333081 -0.619 88 91 98
-0.12006 -0.3277 -0.609 86 89 98
-0.113043 -0.330929 -0.615 72 75 82
0.0459086 -0.251829 -0.468 163 120 114
0.239698 -0.348148 -0.647 254 253 255
0.243771 -0.348686 -0.648 247 249 255
0.261881 -0.348148 -0.647 164 181 227
0.263113 -0.348148 -0.647 202 217 250
0.265578 -0.348148 -0.647 222 237 255
0.270508 -0.348148 -0.647 248 248 255
0.275437 -0.348148 -0.647 187 197 224
0.288993 -0.348148 -0.647 127 150 204
0.316106 -0.348148 -0.647 100 136 196
0.321035 -0.348148 -0.647 91 126 194
0.356641 -0.349224 -0.649 50 81 163
0.385667 -0.349762 -0.65 66 104 175
0.438905 -0.349762 -0.65 163 165 180
0.473857 -0.345457 -0.642 108 112 147
0.464807 -0.332005 -0.617 113 93 92
0.45994 -0.3277 -0.609 117 89 86
0.424294 -0.285729 -0.531 116 79 70
0.434914 -0.277657 -0.516 145 96 81
0.440082 -0.276581 -0.514 156 103 85
0.471696 -0.281424 -0.523 135 98 82
-0.130149 -0.33696 -0.624 91 94 99
-0.114214 -0.3321 -0.615 85 85 93
0.0252429 -0.2511 -0.465 207 170 152
0.0260724 -0.25056 -0.464 204 167 149
0.0357171 -0.25002 -0.463 192 150 138
0.0375619 -0.25056 -0.464 180 138 126
0.0431419 -0.25218 -0.467 170 127 120
0.0590943 -0.25974 -0.481 123 97 108
0.0671419 -0.26622 -0.493 107 89 105
0.0812429 -0.27918 -0.517 105 84 99
0.0841781 -0.28242 -0.523 102 84 98
0.0856629 -0.28404 -0.526 103 85 101
0.0936029 -0.29322 -0.543 101 89 113
0.148272 -0.34884 -0.646 179 189 214
0.232814 -0.3483 -0.645 244 248 255
0.238097 -0.34884 -0.646 253 253 255
0.242163 -0.34938 -0.647 251 255 255
0.247941 -0.34884 -0.646 178 195 241
0.254093 -0.34884 -0.646 135 166 223
0.286086 -0.34884 -0.646 125 144 200
0.300851 -0.34884 -0.646 186 192 224
0.32177 -0.34884 -0.646 101 138 208
0.333874 -0.34992 -0.648 211 212 242
0.348686 -0.34992 -0.648 52 82 154
0.355405 -0.35046 -0.649 35 71 147
0.361586 -0.35046 -0.649 173 192 224
0.429 -0.351 -0.65 177 177 203
0.439466 -0.35046 -0.649 119 138 178
0.442491 -0.34992 -0.648 98 123 177
0.448663 -0.34992 -0.648 116 142 193
0.463786 -0.3483 -0.645 107 116 149
0.465014 -0.3483 -0.645 95 107 147
0.471653 -0.34776 -0.644 158 168 195
0.434667 -0.3024 -0.56 114 81 74
0.425892 -0.28782 -0.533 117 80 72
0.42592 -0.28512 -0.528 113 76 68
0.43364 -0.27972 -0.518 139 91 79
0.438976 -0.2781 -0.515 147 95 81
0.453973 -0.27648 -0.512 153 106 88
-0.13239 -0.340858 -0.629 87 91 94
-0.116368 -0.33273 -0.614 96 97 102
0.0210829 -0.255237 -0.471 206 169 153
0.03036 -0.25036 -0.462 190 153 137
0.0450171 -0.253611 -0.468 167 124 118
0.0569048 -0.25903 -0.478 127 97 105
0.0672781 -0.267701 -0.494 108 90 102
0.0772286 -0.276371 -0.51 106 86 98
0.0888333 -0.288835 -0.533 107 89 103
0.099021 -0.301299 -0.556 254 253 255
0.146814 -0.349529 -0.645 201 210 239
0.154186 -0.349529 -0.645 174 191 237
0.236867 -0.35007 -0.646 225 225 249
0.238097 -0.35007 -0.646 236 239 254
0.262707 -0.35007 -0.646 163 178 221
0.280729 -0.349529 -0.645 120 137 191
0.335824 -0.350612 -0.647 207 211 236
0.351154 -0.351154 -0.648 52 91 168
0.404852 -0.351696 -0.649 91 100 131
0.44797 -0.350612 -0.647 112 139 186
0.449203 -0.350612 -0.647 97 124 171
0.472146 -0.348445 -0.643 169 174 196
0.432929 -0.29859 -0.551 111 81 73
0.44227 -0.277455 -0.512 159 106 88
0.452113 -0.276913 -0.511 153 104 87
0.453087 -0.276913 -0.511 155 106 89
0.45406 -0.276913 -0.511 155 106 89
0.455924 -0.277455 -0.512 155 106 89
0.459663 -0.278539 -0.514 148 102 87
0.471789 -0.282874 -0.522 134 98 82
0.489547 -0.290461 -0.536 144 100 89
-0.13281 -0.343144 -0.631 96 100 103
-0.122031 -0.336618 -0.619 99 99 107
-0.116936 -0.33553 -0.617 100 101 105
-0.113594 -0.336074 -0.618 88 89 94
0.0209933 -0.255047 -0.469 206 169 151
0.0286 -0.25124 -0.462 197 160 144
0.02948 -0.25124 -0.462 194 157 141
0.0469 -0.255047 -0.469 160 119 115
0.0845 -0.2855 -0.525 101 83 99
0.157627 -0.350213 -0.644 156 171 214
0.264757 -0.350757 -0.645 184 199 240
0.315617 -0.351301 -0.646 105 146 208
0.335824 -0.351845 -0.647 206 212 234
0.337056 -0.351845 -0.647 203 209 231
0.344983 -0.352389 -0.648 93 111 161
0.393727 -0.352932 -0.649 191 190 208
0.40238 -0.352932 -0.649 171 169 190
0.404852 -0.352932 -0.649 85 100 133
0.41227 -0.352932 -0.649 159 180 225
0.415978 -0.352932 -0.649 136 155 195
0.431383 -0.352389 -0.648 179 179 203
0.448509 -0.351301 -0.646 89 116 161
0.454661 -0.351301 -0.646 172 176 201
0.4692 -0.350213 -0.644 167 169 192
0.42931 -0.291482 -0.536 115 82 75
0.428726 -0.290394 -0.534 115 82 73
0.428125 -0.286588 -0.527 118 82 70
0.427684 -0.284956 -0.524 121 83 74
0.444327 -0.277887 -0.511 163 112 93
0.4453 -0.277887 -0.511 163 112 93
0.458769 -0.278974 -0.513 146 100 84
0.02684 -0.25212 -0.462 198 161 145
0.03036 -0.25212 -0.462 194 155 140
0.0384457 -0.253211 -0.464 181 137 128
0.0549686 -0.260306 -0.477 133 100 109
0.0674143 -0.270129 -0.495 105 88 98
0.06958 -0.27122 -0.497 109 87 99
0.07344 -0.27504 -0.504 107 85 97
0.229643 -0.350894 -0.643 145 163 203
0.235271 -0.351986 -0.645 163 172 205
0.25576 -0.35144 -0.644 127 161 224
0.260667 -0.35144 -0.644 152 175 227
0.2668 -0.35144 -0.644 235 240 255
0.287207 -0.350894 -0.643 100 124 188
0.312671 -0.351986 -0.645 118 153 207
0.337766 -0.352531 -0.646 195 206 234
0.345683 -0.353077 -0.647 73 99 160
0.416571 -0.353623 -0.648 161 175 212
0.417806 -0.353623 -0.648 163 178 211
0.435647 -0.353077 -0.647 176 176 200
0.438111 -0.353077 -0.647 157 165 186
0.476511 -0.348711 -0.639 167 169 184
0.429147 -0.29032 -0.532 118 81 75
0.428543 -0.289229 -0.53 119 82 76
0.435897 -0.281589 -0.516 152 101 84
0.440082 -0.280497 -0.514 156 103 85
0.443246 -0.279406 -0.512 161 108 90
-0.12064 -0.341714 -0.624 111 112 116
-0.114146 -0.340071 -0.621 103 104 108
-0.110119 -0.342262 -0.625 92 93 97
0.0185476 -0.260119 -0.475 204 169 150
0.0488943 -0.257929 -0.471 148 108 108
0.05934 -0.2645 -0.483 117 94 104
0.0639333 -0.268333 -0.49 110 90 101
0.0651314 -0.269429 -0.492 109 89 100
0.0979619 -0.304476 -0.556 255 254 255
0.146359 -0.352119 -0.643 251 250 255
0.234907 -0.352667 -0.644 191 198 226
0.269253 -0.352667 -0.644 234 240 254
0.276613 -0.352667 -0.644 200 214 243
0.278633 -0.352119 -0.643 139 157 203
0.283091 -0.351571 -0.642 106 128 186
0.292874 -0.351571 -0.642 171 192 245
0.320773 -0.352667 -0.644 106 143 198
0.323227 -0.352667 -0.644 107 139 190
0.358684 -0.353762 -0.646 59 89 153
0.364836 -0.353762 -0.646 175 188 223
0.367297 -0.353762 -0.646 188 189 207
0.4515 -0.353214 -0.645 122 146 174
0.462348 -0.352119 -0.643 98 110 150
0.476981 -0.349381 -0.638 169 171 186
0.436166 -0.281476 -0.514 157 106 89
0.449286 -0.279286 -0.51 155 106 89
0.451229 -0.279286 -0.51 151 102 85
0.45698 -0.279833 -0.511 144 98 82
-0.1157 -0.342353 -0.623 108 109 113
-0.1125 -0.343452 -0.625 107 108 112
-0.109277 -0.344551 -0.627 99 100 104
0.0286 -0.25388 -0.462 193 156 138
0.223171 -0.352794 -0.642 151 165 214
0.234542 -0.353344 -0.643 224 229 249
0.235767 -0.353344 -0.643 225 230 250
0.259857 -0.352794 -0.642 150 174 222
0.299454 -0.353344 -0.643 218 226 249
0.308028 -0.353344 -0.643 168 174 196
0.311702 -0.353344 -0.643 122 154 205
0.345843 -0.354443 -0.645 124 152 202
0.364271 -0.354443 -0.645 183 192 233
0.421438 -0.354992 -0.646 173 180 209
0.428821 -0.354992 -0.646 71 81 117
0.437986 -0.354443 -0.645 137 148 168
0.445893 -0.353893 -0.644 86 111 167
0.47434 -0.352245 -0.641 167 170 185
0.47866 -0.350047 -0.637 166 169 188
0.430029 -0.286851 -0.522 141 93 79
0.43068 -0.284653 -0.518 151 100 83
0.431667 -0.284653 -0.518 152 101 84
0.43309 -0.283005 -0.515 156 105 88
0.437271 -0.281906 -0.513 157 104 88
0.44118 -0.281906 -0.513 161 108 92
0.480413 -0.28905 -0.526 141 99 85
-0.109451 -0.346297 -0.628 110 111 113
0.0199714 -0.256966 -0.466 205 170 151
0.0250257 -0.254209 -0.461 192 157 138
0.0393295 -0.255863 -0.464 176 134 122
0.05304 -0.26248 -0.476 129 99 109
0.251297 -0.354017 -0.642 115 150 206
0.254966 -0.354017 -0.642 132 169 221
0.259857 -0.354017 -0.642 137 161 207
0.265161 -0.354569 -0.643 228 233 255
0.26964 -0.354017 -0.642 235 240 255
0.2782 -0.354017 -0.642 120 137 183
0.28265 -0.353466 -0.641 130 155 211
0.307549 -0.354017 -0.642 197 203 229
0.334267 -0.35512 -0.644 194 200 222
0.335493 -0.35512 -0.644 194 200 222
0.3404 -0.35512 -0.644 83 93 129
0.34776 -0.35512 -0.644 167 190 234
0.350213 -0.35512 -0.644 109 132 176
0.364271 -0.355671 -0.645 176 185 228
0.369186 -0.355671 -0.645 184 190 214
0.371643 -0.355671 -0.645 184 192 215
0.395598 -0.356223 -0.646 165 174 205
0.40052 -0.356223 -0.646 73 86 121
0.404814 -0.355671 -0.645 172 179 208
0.44344 -0.35512 -0.644 92 127 185
0.446426 -0.354569 -0.643 70 102 163
0.429034 -0.287846 -0.522 147 98 83
0.435187 -0.283434 -0.514 162 109 91
0.44227 -0.282331 -0.512 163 109 85
0.444327 -0.28178 -0.511 162 110 88
0.455033 -0.28178 -0.511 145 98 78
0.4617 -0.282883 -0.513 145 98 82
0.490868 -0.293911 -0.533 144 105 88
-0.117637 -0.34694 -0.627 116 117 119
0.03212 -0.25564 -0.462 193 151 137
0.05304 -0.263387 -0.476 127 100 109
0.0986667 -0.309867 -0.56 252 254 251
0.224045 -0.354687 -0.641 137 153 204
0.22684 -0.35524 -0.642 153 170 222
0.245183 -0.35524 -0.642 161 172 202
0.254569 -0.354687 -0.641 143 176 221
0.272086 -0.35524 -0.642 223 230 255
0.287534 -0.354687 -0.641 116 140 200
0.302657 -0.35524 -0.642 213 217 244
0.321 -0.35524 -0.642 109 140 186
0.34477 -0.355793 -0.643 156 172 208
0.375973 -0.356347 -0.644 132 138 172
0.378427 -0.356347 -0.644 103 117 162
0.423243 -0.3569 -0.645 174 181 207
0.435052 -0.284967 -0.515 164 111 93
0.0166676 -0.262628 -0.473 202 164 143
0.02244 -0.25652 -0.462 202 165 147
0.0384457 -0.25763 -0.464 174 132 116
0.0531514 -0.264849 -0.477 126 100 109
0.0713781 -0.279285 -0.503 107 87 99
