ply
format ascii 1.0
comment Created by Open3D
element vertex 1314
property double x
property double y
property double z
property uchar red
property uchar green
property uchar blue
end_header
0.434006 -0.195377 -0.522 134 97 89
-0.320215 -0.24001 -0.638 162 164 159
-0.287414 -0.244148 -0.649 251 252 247
-0.172226 -0.240386 -0.639 186 186 176
-0.169526 -0.24001 -0.638 185 185 175
0.1525 -0.1975 -0.525 201 155 142
0.155204 -0.197124 -0.524 202 154 142
0.180117 -0.195995 -0.521 191 144 134
0.1914 -0.196371 -0.522 208 159 162
0.199256 -0.198252 -0.527 116 79 86
0.22218 -0.1817 -0.483 44 37 45
0.242533 -0.179067 -0.476 106 89 95
0.244347 -0.179067 -0.476 110 91 97
0.251446 -0.178314 -0.474 110 91 95
0.255057 -0.178314 -0.474 106 85 90
0.268934 -0.177938 -0.473 87 65 68
0.270736 -0.177938 -0.473 85 63 66
0.290226 -0.177186 -0.471 86 64 67
0.306126 -0.177562 -0.472 141 114 119
0.307025 -0.177562 -0.472 143 116 121
0.31714 -0.177186 -0.471 134 104 106
0.324793 -0.177938 -0.473 130 101 105
0.394067 -0.193362 -0.514 187 133 123
0.395254 -0.192986 -0.513 184 129 124
0.403447 -0.192233 -0.511 169 119 110
0.421319 -0.193738 -0.515 155 108 98
0.440337 -0.197876 -0.526 141 102 97
-0.327314 -0.241981 -0.64 248 249 244
-0.284143 -0.245762 -0.65 250 252 247
-0.0619467 -0.243493 -0.644 66 63 72
0.1566 -0.197366 -0.522 200 152 140
0.179771 -0.19661 -0.52 193 145 135
0.2395 -0.181108 -0.479 66 55 63
0.267357 -0.179595 -0.475 109 90 94
0.273114 -0.179217 -0.474 90 70 72
0.303429 -0.178461 -0.472 137 112 118
0.305227 -0.178461 -0.472 137 110 115
0.394067 -0.194341 -0.514 187 133 123
0.395254 -0.193963 -0.513 184 129 124
0.428707 -0.195853 -0.518 147 107 95
-0.336143 -0.247 -0.65 249 252 245
-0.31486 -0.24206 -0.637 140 142 139
-0.16614 -0.24282 -0.639 186 186 176
-0.16473 -0.24434 -0.643 186 186 176
0.13676 -0.20748 -0.546 199 153 138
0.1435 -0.1995 -0.525 204 158 145
0.148217 -0.19912 -0.524 205 157 145
0.153911 -0.19874 -0.523 199 153 140
0.161943 -0.1976 -0.52 202 156 143
0.169867 -0.1976 -0.52 198 150 138
0.1975 -0.1995 -0.525 172 124 122
0.212889 -0.18506 -0.487 35 29 39
0.216154 -0.18468 -0.486 38 32 42
0.252273 -0.18202 -0.479 57 44 53
0.252657 -0.18164 -0.478 58 45 54
0.253946 -0.18126 -0.477 62 49 58
0.268827 -0.18088 -0.476 103 84 90
0.294438 -0.17936 -0.472 73 51 54
0.308823 -0.17936 -0.472 136 109 114
0.318934 -0.17898 -0.471 133 102 107
0.39189 -0.1957 -0.515 185 133 122
0.395254 -0.19494 -0.513 185 130 127
0.396231 -0.19494 -0.513 182 127 122
0.400527 -0.19418 -0.511 176 123 115
0.405393 -0.19418 -0.511 163 113 102
0.418706 -0.19494 -0.513 155 108 98
-0.286529 -0.247092 -0.647 247 248 243
-0.284503 -0.247474 -0.648 250 251 246
-0.163038 -0.24671 -0.646 186 188 177
-0.0577238 -0.243655 -0.638 71 67 81
0.135789 -0.203937 -0.534 198 155 138
0.136293 -0.203173 -0.532 199 156 139
0.196126 -0.200118 -0.524 207 162 157
0.237533 -0.187133 -0.49 40 34 46
0.26231 -0.182932 -0.479 49 39 47
0.271209 -0.182169 -0.477 73 60 67
0.27336 -0.181787 -0.476 79 64 71
0.279434 -0.181023 -0.474 84 68 71
0.29326 -0.180641 -0.473 73 52 57
0.298034 -0.180259 -0.472 72 51 56
0.300731 -0.180259 -0.472 74 54 56
0.395749 -0.201646 -0.528 148 106 108
0.391669 -0.197063 -0.516 182 132 123
0.393088 -0.196299 -0.514 184 129 122
0.396434 -0.195535 -0.512 174 121 115
0.408313 -0.195153 -0.511 164 116 104
0.413989 -0.195535 -0.512 160 112 100
0.428864 -0.197445 -0.517 150 106 95
-0.337381 -0.249476 -0.65 254 253 248
0.13728 -0.202651 -0.528 205 157 147
0.1405 -0.2015 -0.525 207 159 147
0.15699 -0.199581 -0.52 203 155 143
0.164597 -0.199197 -0.519 198 150 138
0.16724 -0.198813 -0.518 196 148 136
0.171187 -0.198813 -0.518 194 146 134
0.173494 -0.199197 -0.519 194 146 136
0.179426 -0.199197 -0.519 201 154 146
0.198122 -0.201116 -0.524 120 83 91
0.214762 -0.191905 -0.5 57 51 63
0.233353 -0.190753 -0.497 45 42 51
0.308576 -0.181542 -0.473 88 67 72
0.314217 -0.181158 -0.472 119 97 100
0.318712 -0.181158 -0.472 133 106 113
0.32141 -0.181158 -0.472 136 105 110
0.412207 -0.196127 -0.511 161 113 101
0.4325 -0.199197 -0.519 149 103 87
0.4415 -0.2015 -0.525 148 101 83
-0.31871 -0.244929 -0.635 141 147 143
-0.285296 -0.249557 -0.647 250 251 246
-0.284503 -0.249943 -0.648 251 252 247
-0.164474 -0.247629 -0.642 186 186 176
-0.0522143 -0.248786 -0.645 72 70 81
0.14123 -0.202114 -0.524 205 157 145
0.145942 -0.201729 -0.523 205 157 145
0.17908 -0.1998 -0.518 203 156 150
0.189311 -0.200186 -0.519 222 171 168
0.22608 -0.1944 -0.504 67 64 75
0.235651 -0.195171 -0.506 67 65 76
0.282382 -0.184757 -0.479 42 32 40
0.290289 -0.183986 -0.477 52 42 50
0.293307 -0.1836 -0.476 56 46 54
0.300833 -0.183214 -0.475 60 47 54
0.31218 -0.182443 -0.473 73 56 62
0.397607 -0.1971 -0.511 177 124 118
0.40734 -0.1971 -0.511 160 112 102
0.414153 -0.1971 -0.511 160 112 98
0.42066 -0.197871 -0.513 158 110 98
0.4325 -0.200186 -0.519 149 103 87
-0.16329 -0.25079 -0.647 190 187 180
-0.0705333 -0.249627 -0.644 63 60 69
0.132489 -0.206601 -0.533 202 155 145
0.150634 -0.202337 -0.522 204 156 142
0.2005 -0.2035 -0.525 113 73 82
0.228771 -0.197686 -0.51 46 40 50
0.274867 -0.189933 -0.49 37 31 41
0.2829 -0.18722 -0.483 36 31 38
0.302373 -0.184507 -0.476 54 43 51
0.304187 -0.184507 -0.476 52 41 49
0.31284 -0.183731 -0.474 57 44 51
0.399553 -0.198073 -0.511 172 122 115
0.402473 -0.198073 -0.511 173 120 112
0.405393 -0.198073 -0.511 162 109 101
0.409457 -0.197686 -0.51 164 116 104
0.418865 -0.198461 -0.512 160 112 100
0.437983 -0.202337 -0.522 144 97 79
0.440659 -0.203112 -0.524 148 101 83
-0.31871 -0.247348 -0.635 138 145 138
-0.284855 -0.251632 -0.646 250 251 246
-0.176703 -0.250074 -0.642 184 185 177
-0.175207 -0.249685 -0.641 184 184 176
-0.171009 -0.248906 -0.639 187 187 179
-0.168574 -0.248906 -0.639 187 187 179
-0.167357 -0.248906 -0.639 188 188 180
-0.0716486 -0.250464 -0.643 66 63 74
-0.0609848 -0.246958 -0.634 70 66 80
0.133005 -0.205279 -0.527 203 157 144
0.134756 -0.20489 -0.526 204 158 145
0.15836 -0.201773 -0.518 200 154 139
0.189933 -0.201773 -0.518 213 165 161
0.195003 -0.202942 -0.521 203 155 155
0.19874 -0.203721 -0.523 137 97 108
0.226988 -0.201384 -0.517 59 53 67
0.231463 -0.200994 -0.516 44 40 54
0.251021 -0.20411 -0.524 52 46 58
0.2555 -0.2045 -0.525 45 39 53
0.302454 -0.186582 -0.479 39 34 41
0.391251 -0.203331 -0.522 168 123 118
0.393509 -0.199436 -0.512 175 122 116
0.394484 -0.199436 -0.512 177 124 118
0.4015 -0.199047 -0.511 167 117 108
0.418865 -0.199436 -0.512 157 109 97
0.439818 -0.203721 -0.523 142 98 87
-0.323548 -0.248557 -0.635 249 254 247
-0.31871 -0.248557 -0.635 135 142 135
-0.284064 -0.253254 -0.647 254 255 250
0.132251 -0.206674 -0.528 202 156 141
0.15501 -0.203543 -0.52 198 150 136
0.166594 -0.201977 -0.516 198 150 138
0.185 -0.20276 -0.518 210 164 166
0.2425 -0.2055 -0.525 74 70 84
0.261914 -0.209023 -0.534 41 37 51
0.3013 -0.18906 -0.483 30 27 36
0.307929 -0.187494 -0.479 40 35 42
0.309753 -0.187494 -0.479 42 37 44
0.313003 -0.186711 -0.477 42 35 42
0.321413 -0.18632 -0.476 50 45 51
0.401686 -0.199629 -0.51 164 114 105
0.409624 -0.199237 -0.509 163 115 105
-0.332523 -0.252913 -0.643 254 255 249
-0.282034 -0.25488 -0.648 254 255 250
-0.0770238 -0.254487 -0.647 67 66 74
-0.0736371 -0.25134 -0.639 66 64 77
-0.0577238 -0.250947 -0.638 67 67 77
-0.05564 -0.25252 -0.642 68 68 78
-0.0545019 -0.252913 -0.643 68 68 78
0.131246 -0.20768 -0.528 205 159 144
0.1365 -0.2065 -0.525 204 158 143
0.139965 -0.205713 -0.523 204 157 141
0.153323 -0.204927 -0.521 202 154 140
0.157373 -0.203747 -0.518 198 150 136
0.164948 -0.203353 -0.517 201 153 141
0.190551 -0.203353 -0.517 218 170 166
0.200732 -0.205713 -0.523 133 106 125
0.2355 -0.2065 -0.525 108 106 117
0.257249 -0.21122 -0.537 43 42 56
0.26687 -0.213187 -0.542 56 54 67
0.286377 -0.210827 -0.536 36 34 47
0.323906 -0.18762 -0.477 49 40 45
0.388948 -0.202567 -0.515 175 125 118
0.439129 -0.204927 -0.521 144 102 90
-0.0598714 -0.250976 -0.635 67 67 77
0.1335 -0.2075 -0.525 203 157 142
0.14268 -0.206314 -0.522 204 157 141
0.1557 -0.205129 -0.519 205 157 143
0.16856 -0.203943 -0.516 195 148 138
0.173474 -0.203943 -0.516 190 142 128
0.185269 -0.203943 -0.516 215 166 162
0.258207 -0.213033 -0.539 47 46 60
0.288579 -0.21501 -0.544 55 54 68
0.293657 -0.213429 -0.54 50 48 62
0.313189 -0.196038 -0.496 28 28 36
0.312233 -0.194852 -0.493 27 27 35
0.326406 -0.188924 -0.478 44 37 45
0.332563 -0.189319 -0.479 132 122 123
0.388948 -0.203548 -0.515 179 126 122
0.393713 -0.201967 -0.511 171 118 114
0.394687 -0.201967 -0.511 172 119 113
0.406543 -0.201571 -0.51 154 106 96
0.408486 -0.201571 -0.51 159 111 101
0.416257 -0.201571 -0.51 154 105 98
0.436454 -0.205129 -0.519 150 101 96
-0.338098 -0.257746 -0.649 250 251 246
-0.284855 -0.256554 -0.646 255 255 251
-0.284064 -0.256951 -0.647 251 252 247
-0.179589 -0.257349 -0.648 187 187 179
-0.1664 -0.254171 -0.64 192 189 180
-0.07462 -0.25298 -0.637 65 67 80
-0.0489048 -0.258143 -0.65 72 71 79
0.127464 -0.210089 -0.529 201 157 144
0.166594 -0.204926 -0.516 200 152 140
0.229806 -0.209691 -0.528 42 36 48
0.2345 -0.2085 -0.525 47 41 53
0.249623 -0.212869 -0.536 39 37 50
0.264195 -0.216443 -0.545 84 82 96
0.272905 -0.218429 -0.55 89 88 102
0.286497 -0.220017 -0.554 116 115 129
0.29592 -0.217634 -0.548 79 78 94
0.409624 -0.202146 -0.509 160 110 101
-0.280429 -0.259381 -0.65 253 253 251
-0.162559 -0.258982 -0.649 194 191 182
-0.0499886 -0.258583 -0.648 69 69 79
0.123583 -0.213091 -0.534 200 156 143
0.1295 -0.2095 -0.525 200 154 139
0.138703 -0.208303 -0.522 205 158 140
0.143399 -0.207904 -0.521 204 157 141
0.150057 -0.207505 -0.52 196 148 134
0.16529 -0.20551 -0.515 198 150 136
0.168233 -0.20551 -0.515 195 146 132
0.172157 -0.20551 -0.515 183 134 119
0.182948 -0.20551 -0.515 208 164 163
0.187852 -0.20551 -0.515 214 166 164
0.235949 -0.209899 -0.526 77 71 83
0.280118 -0.22187 -0.556 40 38 52
0.287503 -0.222669 -0.558 46 45 61
0.29017 -0.22227 -0.557 41 40 56
0.296513 -0.220673 -0.553 59 58 74
0.29808 -0.220274 -0.552 79 78 96
0.310329 -0.22227 -0.557 33 35 47
0.321178 -0.224664 -0.563 35 35 47
0.325877 -0.219875 -0.551 35 33 47
0.327381 -0.219476 -0.55 35 33 47
0.323502 -0.19673 -0.493 27 26 34
0.325893 -0.193139 -0.484 25 24 30
0.335564 -0.192341 -0.482 142 138 152
0.3978 -0.203514 -0.51 165 112 108
0.401686 -0.203514 -0.51 163 113 106
0.402837 -0.203115 -0.509 160 110 103
0.403807 -0.203115 -0.509 161 111 104
0.417229 -0.203514 -0.51 147 98 91
0.430148 -0.20551 -0.515 155 106 101
-0.280429 -0.260619 -0.65 252 252 250
-0.0822857 -0.25661 -0.64 70 68 81
-0.0511438 -0.259416 -0.647 69 69 79
0.127743 -0.210901 -0.526 207 161 145
0.136976 -0.209698 -0.523 202 156 140
0.160386 -0.20649 -0.515 204 156 142
0.170195 -0.20649 -0.515 197 148 134
0.187852 -0.20649 -0.515 213 165 165
0.188833 -0.20649 -0.515 211 167 168
0.194114 -0.206891 -0.516 214 171 165
0.256073 -0.216915 -0.541 88 82 96
0.282189 -0.223731 -0.558 55 52 69
0.287467 -0.224533 -0.56 48 47 63
0.291212 -0.224132 -0.559 34 33 49
0.312557 -0.224934 -0.561 33 35 48
0.330609 -0.224132 -0.559 35 34 48
0.396829 -0.204486 -0.51 167 114 110
0.398771 -0.204486 -0.51 160 109 105
-0.335824 -0.260649 -0.647 250 251 246
-0.286086 -0.260246 -0.646 246 246 244
-0.0881152 -0.260649 -0.647 71 70 78
-0.0816429 -0.255814 -0.635 69 67 80
-0.0724848 -0.253397 -0.629 66 64 75
-0.0567743 -0.258231 -0.641 67 67 75
-0.0545867 -0.25944 -0.644 68 68 78
-0.0488295 -0.261454 -0.649 69 69 79
0.121648 -0.213514 -0.53 199 156 140
0.1275 -0.2115 -0.525 207 163 150
0.139697 -0.210291 -0.522 199 153 137
0.169865 -0.207069 -0.514 196 147 133
0.177697 -0.207069 -0.514 202 154 144
0.228935 -0.211903 -0.526 46 40 52
0.231614 -0.210694 -0.523 36 33 44
0.234053 -0.211097 -0.524 40 34 46
0.249623 -0.215931 -0.536 44 40 55
0.251579 -0.216737 -0.538 48 44 59
0.259566 -0.219154 -0.544 52 48 63
0.27489 -0.223183 -0.554 80 76 91
0.293323 -0.226003 -0.561 74 71 88
0.298131 -0.224794 -0.558 60 59 75
0.318621 -0.228823 -0.568 34 33 47
0.333355 -0.230031 -0.571 33 35 48
0.337735 -0.226406 -0.562 36 36 48
0.332569 -0.201831 -0.501 25 25 35
0.386781 -0.209486 -0.52 169 118 114
0.389391 -0.206666 -0.513 181 126 123
0.396829 -0.205457 -0.51 163 112 108
0.407851 -0.204651 -0.508 155 106 101
0.4275 -0.206666 -0.513 160 109 92
-0.318 -0.257429 -0.636 252 255 248
-0.312433 -0.257833 -0.637 156 161 154
-0.31122 -0.257833 -0.637 146 148 145
-0.289656 -0.260262 -0.643 100 100 98
-0.281667 -0.263095 -0.65 255 255 251
-0.16376 -0.260667 -0.644 194 191 182
-0.161571 -0.263095 -0.65 195 192 183
-0.0871619 -0.259048 -0.64 70 68 81
-0.0811286 -0.255405 -0.631 69 67 78
-0.0784752 -0.254595 -0.629 67 65 76
-0.0772771 -0.254595 -0.629 69 67 78
-0.0723695 -0.25419 -0.628 67 65 78
-0.0688905 -0.254595 -0.629 67 65 76
-0.0656076 -0.25581 -0.632 67 66 74
-0.0612733 -0.257833 -0.637 68 68 78
-0.0601543 -0.258238 -0.638 68 68 76
0.1285 -0.2125 -0.525 205 162 146
0.13125 -0.212095 -0.524 205 159 144
0.146803 -0.210071 -0.519 198 151 135
0.156766 -0.208857 -0.516 200 152 138
0.158424 -0.208452 -0.515 200 151 137
0.163011 -0.208048 -0.514 198 148 137
0.17476 -0.208048 -0.514 197 149 137
0.193738 -0.208452 -0.515 210 170 168
0.228065 -0.212095 -0.524 72 65 73
0.263157 -0.220595 -0.545 49 45 59
0.272846 -0.223429 -0.552 47 43 57
0.295987 -0.227476 -0.562 78 76 90
0.302383 -0.225857 -0.558 77 74 91
0.331827 -0.232333 -0.574 32 31 45
0.342891 -0.22181 -0.548 30 28 39
0.341357 -0.214929 -0.531 31 29 40
0.338233 -0.206833 -0.511 25 25 33
0.386005 -0.208452 -0.515 181 128 122
0.38646 -0.207643 -0.513 181 127 125
0.387657 -0.207238 -0.512 180 126 126
0.430291 -0.208048 -0.514 153 109 100
0.436742 -0.209262 -0.517 150 106 97
-0.318 -0.25864 -0.636 254 255 251
-0.308063 -0.259453 -0.638 147 149 144
-0.1748 -0.261893 -0.644 192 193 187
-0.168838 -0.260267 -0.64 192 189 180
-0.163506 -0.261487 -0.643 196 193 184
-0.160333 -0.264333 -0.65 195 192 183
-0.0851371 -0.257827 -0.634 71 69 82
-0.0734486 -0.25498 -0.627 69 67 78
-0.0646076 -0.257827 -0.634 69 67 78
-0.0624867 -0.259047 -0.637 67 67 77
0.119403 -0.215127 -0.529 194 148 135
0.1255 -0.2135 -0.525 206 160 145
0.150467 -0.210653 -0.518 197 150 132
0.172802 -0.209027 -0.514 198 150 136
0.191404 -0.209027 -0.514 210 171 164
0.26572 -0.22204 -0.546 62 59 70
0.334586 -0.2257 -0.555 31 31 43
0.343824 -0.209433 -0.515 26 26 34
0.385255 -0.209027 -0.514 179 126 120
0.38646 -0.20862 -0.513 180 127 123
0.401868 -0.206993 -0.509 161 111 104
0.414471 -0.206993 -0.509 157 109 99
0.45838 -0.216753 -0.533 144 104 94
-0.320927 -0.26026 -0.637 254 255 250
-0.31486 -0.26026 -0.637 253 255 250
-0.1664 -0.261486 -0.64 193 191 179
-0.0905352 -0.260669 -0.638 70 70 78
-0.0647095 -0.259443 -0.635 69 68 76
-0.0579952 -0.261894 -0.641 68 68 78
-0.0499886 -0.264754 -0.648 68 68 78
0.1225 -0.2145 -0.525 200 157 141
0.1255 -0.2145 -0.525 206 160 145
0.13125 -0.214091 -0.524 206 159 143
0.134984 -0.213683 -0.523 200 153 137
0.137709 -0.213274 -0.522 199 150 135
0.143124 -0.212457 -0.52 199 150 133
0.147791 -0.212049 -0.519 199 150 133
0.156462 -0.210414 -0.515 197 150 134
0.18455 -0.210006 -0.514 207 159 149
0.189446 -0.210006 -0.514 212 169 163
0.19532 -0.210006 -0.514 212 175 169
0.2385 -0.2145 -0.525 63 55 66
0.26676 -0.22308 -0.546 40 34 46
0.290594 -0.230434 -0.564 66 60 74
0.30294 -0.229209 -0.561 39 37 51
0.308283 -0.229209 -0.561 36 34 47
0.327497 -0.235337 -0.576 35 35 47
0.344694 -0.221037 -0.541 30 29 37
0.341273 -0.20306 -0.497 36 36 44
0.385255 -0.210006 -0.514 179 124 119
0.387873 -0.20878 -0.511 178 127 126
0.393914 -0.208371 -0.51 168 115 109
0.398959 -0.207963 -0.509 164 114 105
0.452216 -0.215317 -0.527 137 97 85
-0.335626 -0.266399 -0.649 251 254 245
-0.316073 -0.261473 -0.637 254 255 251
-0.304152 -0.262705 -0.64 242 244 239
-0.287316 -0.265168 -0.646 161 161 161
-0.0964429 -0.264757 -0.645 70 69 74
-0.0488295 -0.266399 -0.649 70 70 82
0.116245 -0.218784 -0.533 199 157 145
0.1215 -0.2155 -0.525 201 158 142
0.129253 -0.21509 -0.524 199 153 137
0.131995 -0.214679 -0.523 204 157 141
0.140422 -0.213858 -0.521 197 148 133
0.147507 -0.212627 -0.518 198 149 132
0.152834 -0.211806 -0.516 196 149 133
0.16399 -0.210985 -0.514 195 146 132
0.170844 -0.210985 -0.514 200 151 137
0.172802 -0.210985 -0.514 201 152 138
0.184191 -0.210574 -0.513 205 157 143
0.190054 -0.210574 -0.513 211 170 166
0.227427 -0.212627 -0.518 48 40 51
0.228413 -0.212627 -0.518 52 44 55
0.240958 -0.21591 -0.526 59 53 63
0.259714 -0.221657 -0.54 63 57 69
0.308832 -0.230688 -0.562 39 37 51
0.3302 -0.22412 -0.546 34 33 47
0.337694 -0.222889 -0.543 34 32 45
0.34017 -0.222478 -0.542 33 31 42
0.340971 -0.221657 -0.54 32 30 41
0.34504 -0.218373 -0.532 28 28 38
0.345463 -0.216731 -0.528 28 26 37
0.349098 -0.212216 -0.517 28 26 40
0.347651 -0.204417 -0.498 109 109 121
0.385024 -0.211395 -0.515 173 122 118
0.385483 -0.210574 -0.513 182 127 122
0.386682 -0.210164 -0.512 178 125 121
0.390793 -0.209753 -0.511 176 118 116
0.448784 -0.214679 -0.523 138 96 82
-0.3311 -0.265986 -0.645 252 253 248
-0.324369 -0.263511 -0.639 251 252 247
-0.302933 -0.263924 -0.64 251 253 250
-0.0837943 -0.257326 -0.624 71 70 78
-0.0592162 -0.264336 -0.641 68 68 78
-0.0534429 -0.265986 -0.645 70 70 80
0.116245 -0.219799 -0.533 199 157 145
0.136714 -0.215263 -0.522 197 150 134
0.150176 -0.213201 -0.517 200 153 135
0.17442 -0.211551 -0.513 201 152 138
0.175397 -0.211551 -0.513 203 154 140
0.185169 -0.211551 -0.513 204 156 142
0.191031 -0.211551 -0.513 211 167 164
0.225333 -0.214438 -0.52 39 29 37
0.226003 -0.213201 -0.517 71 61 70
0.247838 -0.218562 -0.53 32 26 38
0.254252 -0.220624 -0.535 52 46 58
0.256226 -0.221449 -0.537 51 45 57
0.258752 -0.221861 -0.538 60 54 66
0.32396 -0.22516 -0.546 81 80 96
0.328207 -0.223098 -0.541 62 61 77
0.337814 -0.220624 -0.535 31 29 40
0.34716 -0.216912 -0.526 29 27 38
0.348417 -0.208665 -0.506 29 29 39
0.3869 -0.210727 -0.511 175 124 121
0.417229 -0.210314 -0.51 153 105 95
0.42486 -0.210727 -0.511 154 106 94
-0.299744 -0.265557 -0.641 251 253 248
-0.293014 -0.267214 -0.645 251 251 249
-0.288206 -0.268457 -0.648 178 180 177
-0.174921 -0.268871 -0.649 242 243 237
-0.164665 -0.264314 -0.638 199 199 187
-0.160555 -0.265557 -0.641 201 198 189
-0.0860333 -0.2581 -0.623 60 63 72
-0.0776019 -0.257686 -0.622 70 68 79
0.11616 -0.218743 -0.528 199 157 145
0.1185 -0.2175 -0.525 200 162 141
0.157137 -0.212943 -0.514 201 154 138
0.184191 -0.212529 -0.513 205 157 143
0.195917 -0.212529 -0.513 217 179 178
0.249857 -0.219571 -0.53 66 60 72
0.299114 -0.236143 -0.57 65 61 76
0.31266 -0.2349 -0.567 42 41 57
0.352474 -0.216257 -0.522 28 27 35
0.352426 -0.215014 -0.519 29 30 34
0.354361 -0.210871 -0.509 50 53 62
0.384548 -0.215843 -0.521 162 117 122
0.392943 -0.211286 -0.51 167 114 108
0.443374 -0.215014 -0.519 146 99 89
-0.170854 -0.26761 -0.643 241 242 236
-0.106271 -0.268443 -0.645 113 114 118
-0.0692191 -0.263032 -0.632 69 69 77
-0.0569514 -0.26761 -0.643 68 68 76
0.177981 -0.21309 -0.512 201 153 139
0.223348 -0.219332 -0.527 32 21 27
0.22567 -0.213922 -0.514 59 49 57
0.238668 -0.216835 -0.521 66 58 69
0.265838 -0.225575 -0.542 56 50 62
0.271912 -0.228072 -0.548 60 54 66
0.289469 -0.235564 -0.566 71 65 79
0.297464 -0.237645 -0.571 68 62 76
0.320554 -0.225575 -0.542 125 124 142
0.3365 -0.2185 -0.525 32 30 41
0.338853 -0.218084 -0.524 32 30 41
0.342846 -0.218084 -0.524 30 28 39
0.354707 -0.215587 -0.518 34 32 43
0.356286 -0.214754 -0.516 36 34 47
0.381339 -0.213922 -0.514 173 121 123
0.389057 -0.212257 -0.51 170 119 115
0.396426 -0.211009 -0.507 165 112 106
0.397391 -0.211009 -0.507 166 113 107
0.40011 -0.211425 -0.508 161 108 100
0.414625 -0.211425 -0.508 152 104 94
-0.2967 -0.269671 -0.645 252 254 251
-0.289095 -0.271762 -0.65 249 249 247
-0.172183 -0.270926 -0.648 248 249 244
-0.1564 -0.269253 -0.644 197 197 185
-0.153431 -0.270508 -0.647 194 192 180
-0.102366 -0.265909 -0.636 77 78 83
-0.0976448 -0.262982 -0.629 75 76 81
-0.0787867 -0.260055 -0.622 70 70 78
-0.0714 -0.2634 -0.63 68 68 76
-0.0682305 -0.265072 -0.634 69 69 77
-0.0660229 -0.265909 -0.636 68 68 76
-0.0615619 -0.267581 -0.64 69 69 77
0.125022 -0.218664 -0.523 202 155 137
0.12876 -0.218246 -0.522 202 154 134
0.153519 -0.215319 -0.515 197 150 132
0.155179 -0.214901 -0.514 195 148 130
0.165626 -0.214483 -0.513 195 146 131
0.215317 -0.220336 -0.527 184 157 166
0.222733 -0.214901 -0.514 28 17 25
0.227629 -0.214901 -0.514 51 41 49
0.234866 -0.216155 -0.517 42 32 41
0.2475 -0.2195 -0.525 67 59 72
0.278557 -0.232043 -0.555 66 58 73
0.318707 -0.239987 -0.574 37 35 49
0.323897 -0.235806 -0.564 123 120 137
0.336857 -0.219082 -0.524 50 48 59
0.34518 -0.218664 -0.523 30 28 39
0.358057 -0.21741 -0.52 30 28 41
0.389057 -0.213229 -0.51 168 119 112
0.406083 -0.211974 -0.507 162 112 103
-0.329445 -0.27258 -0.649 252 253 248
-0.30707 -0.26922 -0.641 251 253 248
-0.16588 -0.26796 -0.638 246 246 244
-0.106 -0.26712 -0.636 81 80 86
-0.104459 -0.26628 -0.634 79 78 84
-0.0798429 -0.26082 -0.621 70 70 78
-0.0724848 -0.26418 -0.629 68 68 76
-0.0535257 -0.27132 -0.646 70 70 78
0.111552 -0.2226 -0.53 205 162 143
0.120041 -0.21966 -0.523 205 159 136
0.122033 -0.21966 -0.523 203 155 133
0.1542 -0.21588 -0.514 197 150 132
0.163352 -0.21504 -0.512 196 149 133
0.166278 -0.21504 -0.512 195 146 132
0.167253 -0.21504 -0.512 193 144 130
0.189684 -0.21504 -0.512 205 157 143
0.198461 -0.21504 -0.512 216 180 180
0.202757 -0.21546 -0.513 219 180 185
0.20511 -0.21588 -0.514 219 180 185
0.224792 -0.21504 -0.512 62 49 59
0.240717 -0.21798 -0.519 54 44 55
0.246086 -0.21924 -0.522 53 45 60
0.2505 -0.2205 -0.525 52 44 59
0.311603 -0.23982 -0.571 63 59 74
0.320843 -0.2331 -0.555 125 124 142
0.333133 -0.22092 -0.526 88 85 102
0.354146 -0.21966 -0.523 29 26 35
0.387325 -0.21378 -0.509 170 117 111
0.389264 -0.21378 -0.509 168 115 109
0.399323 -0.21294 -0.507 163 110 102
0.421114 -0.2142 -0.51 150 103 93
0.426807 -0.21462 -0.511 152 106 91
0.438976 -0.2163 -0.515 151 105 90
0.443635 -0.21714 -0.517 152 106 91
-0.326972 -0.273816 -0.649 252 253 248
-0.309994 -0.270863 -0.642 251 253 250
-0.30707 -0.270441 -0.641 250 252 249
-0.302373 -0.271707 -0.644 253 253 251
-0.162681 -0.26791 -0.635 243 243 245
-0.124237 -0.273816 -0.649 245 245 237
-0.100434 -0.263269 -0.624 74 73 81
-0.0844381 -0.261581 -0.62 71 72 77
-0.0693286 -0.267066 -0.633 69 69 77
-0.0615619 -0.270019 -0.64 70 70 78
0.157809 -0.216437 -0.513 199 150 135
0.168229 -0.216015 -0.512 192 143 129
0.169204 -0.216015 -0.512 194 145 131
0.201387 -0.216015 -0.512 216 177 178
0.268935 -0.228672 -0.542 56 50 62
0.303929 -0.242595 -0.575 70 63 79
0.305587 -0.242173 -0.574 78 71 87
0.318167 -0.242595 -0.575 58 54 69
0.321323 -0.224875 -0.533 120 117 136
0.345845 -0.219812 -0.521 28 27 35
0.35813 -0.220656 -0.523 34 29 35
0.399323 -0.213906 -0.507 164 112 101
0.405117 -0.213906 -0.507 164 114 107
0.406083 -0.213906 -0.507 164 114 107
0.408014 -0.213906 -0.507 164 114 107
0.415592 -0.214328 -0.508 153 105 95
0.426807 -0.215593 -0.511 154 106 92
0.428753 -0.215593 -0.511 153 105 91
0.438124 -0.216859 -0.514 152 106 91
0.440938 -0.217281 -0.515 151 105 90
0.442777 -0.217703 -0.516 150 104 89
0.446467 -0.218547 -0.518 145 99 84
-0.320539 -0.273781 -0.646 252 253 248
-0.319309 -0.273781 -0.646 252 253 248
-0.299776 -0.275052 -0.649 253 253 251
-0.149567 -0.271662 -0.641 196 196 188
-0.13392 -0.274629 -0.648 229 229 221
-0.132481 -0.274205 -0.647 233 233 225
-0.09476 -0.261914 -0.618 73 74 79
-0.0935829 -0.261914 -0.618 73 74 79
-0.0876971 -0.261914 -0.618 71 75 78
-0.0535257 -0.273781 -0.646 72 71 79
-0.0500657 -0.275052 -0.649 71 70 78
0.11506 -0.221652 -0.523 205 158 140
0.120041 -0.221652 -0.523 206 159 139
0.124783 -0.221229 -0.522 201 152 135
0.14186 -0.219957 -0.519 194 145 128
0.149595 -0.218262 -0.515 191 144 128
0.153221 -0.217838 -0.514 194 145 128
0.161402 -0.21699 -0.512 194 145 130
0.178607 -0.216567 -0.511 198 149 135
0.20862 -0.217414 -0.513 214 178 178
0.228693 -0.21699 -0.512 68 47 52
0.234482 -0.217838 -0.514 51 31 33
0.235461 -0.217838 -0.514 48 29 31
0.2369 -0.218262 -0.515 45 26 28
0.261914 -0.226314 -0.534 57 49 62
0.301166 -0.244114 -0.576 51 44 60
0.379381 -0.217838 -0.514 159 108 104
0.389467 -0.215295 -0.508 167 117 110
0.389666 -0.214871 -0.507 168 115 107
0.436294 -0.217414 -0.513 153 107 92
0.445605 -0.21911 -0.517 146 100 85
-0.319063 -0.275863 -0.648 252 253 248
-0.16001 -0.269903 -0.634 243 243 243
-0.12354 -0.272031 -0.639 187 186 182
-0.100809 -0.263517 -0.619 75 76 81
-0.0981324 -0.262666 -0.617 73 74 78
-0.0944533 -0.26224 -0.616 76 77 82
-0.0791667 -0.266071 -0.625 69 72 79
-0.0726 -0.2682 -0.63 67 70 77
0.11506 -0.222649 -0.523 206 161 142
0.177633 -0.21754 -0.511 195 146 132
0.204887 -0.21754 -0.511 214 174 174
0.218198 -0.216263 -0.508 98 64 63
0.247124 -0.221371 -0.52 33 20 27
0.30059 -0.245637 -0.577 39 35 50
0.306085 -0.245637 -0.577 46 42 59
0.326967 -0.245637 -0.577 31 29 43
0.31772 -0.23244 -0.546 123 122 140
0.318874 -0.227331 -0.534 104 100 117
0.333936 -0.221797 -0.521 115 108 124
0.37962 -0.218391 -0.513 162 112 105
0.380314 -0.217114 -0.51 170 120 113
0.380538 -0.216689 -0.509 167 117 110
0.389666 -0.215837 -0.507 169 116 108
-0.312619 -0.277952 -0.65 253 254 249
-0.152282 -0.270255 -0.632 245 245 245
-0.0978143 -0.262986 -0.615 74 75 79
-0.0736829 -0.268972 -0.629 68 71 76
-0.059401 -0.274959 -0.643 73 72 80
-0.0582667 -0.275387 -0.644 74 73 81
-0.0536086 -0.27667 -0.647 71 70 78
0.107109 -0.225783 -0.528 207 164 147
0.10791 -0.225355 -0.527 208 165 148
0.162694 -0.219369 -0.513 194 145 128
0.166603 -0.219369 -0.513 191 144 128
0.186393 -0.218513 -0.511 192 140 129
0.206429 -0.218086 -0.51 214 176 173
0.210314 -0.218086 -0.51 195 154 152
0.242744 -0.221079 -0.517 51 34 40
0.30494 -0.247591 -0.579 34 32 46
0.31921 -0.236901 -0.554 142 140 154
0.328611 -0.223217 -0.522 106 99 117
0.391597 -0.216803 -0.507 166 113 105
0.395644 -0.216375 -0.506 168 115 107
0.40898 -0.216803 -0.507 168 116 105
-0.158802 -0.272318 -0.634 162 162 164
-0.129614 -0.271889 -0.633 118 118 120
-0.1242 -0.2706 -0.63 67 66 71
-0.114146 -0.266734 -0.621 64 65 67
-0.109885 -0.265016 -0.617 68 69 71
-0.0857571 -0.266734 -0.621 73 73 81
-0.0759581 -0.269741 -0.628 69 72 77
-0.0683381 -0.272748 -0.635 71 74 79
-0.0616581 -0.275325 -0.641 70 70 78
-0.0524571 -0.278331 -0.648 71 71 79
0.126771 -0.224211 -0.522 194 143 124
0.129754 -0.224211 -0.522 197 146 127
0.148903 -0.221634 -0.516 192 141 124
0.160074 -0.220775 -0.514 188 139 124
0.162694 -0.220346 -0.513 191 142 127
0.163671 -0.220346 -0.513 193 144 129
0.166603 -0.220346 -0.513 194 145 130
0.172466 -0.220346 -0.513 186 137 123
0.17603 -0.219916 -0.512 188 136 123
0.1825 -0.219487 -0.511 190 139 122
0.203514 -0.219057 -0.51 209 172 166
0.238862 -0.221205 -0.515 92 67 70
0.254527 -0.224641 -0.523 57 41 51
0.272 -0.233661 -0.544 61 58 69
0.281683 -0.239245 -0.557 59 55 70
0.287371 -0.242251 -0.564 63 59 76
0.307676 -0.249124 -0.58 40 38 52
0.323395 -0.242681 -0.565 145 143 157
0.320717 -0.226359 -0.527 99 92 110
0.3235 -0.2255 -0.525 98 91 109
0.326252 -0.224641 -0.523 96 89 107
0.337281 -0.222064 -0.517 99 92 108
0.34319 -0.222064 -0.517 80 74 86
0.40239 -0.217339 -0.506 171 119 108
0.429727 -0.219487 -0.511 161 112 98
0.441061 -0.220775 -0.514 153 105 91
-0.139578 -0.271369 -0.629 151 153 152
-0.106663 -0.264034 -0.612 72 71 76
-0.08694 -0.267917 -0.621 73 74 79
-0.062781 -0.276114 -0.64 70 71 76
0.106297 -0.226069 -0.524 208 165 149
0.147222 -0.223049 -0.517 188 137 120
0.163011 -0.221754 -0.514 190 138 124
0.177006 -0.220891 -0.512 187 134 120
0.183473 -0.22046 -0.511 179 123 110
0.186393 -0.22046 -0.511 190 134 121
0.197686 -0.220029 -0.51 207 162 156
0.198657 -0.220029 -0.51 208 163 157
0.218734 -0.218734 -0.507 122 82 82
0.284774 -0.242031 -0.561 82 78 95
0.3071 -0.25066 -0.581 67 63 78
0.316514 -0.250229 -0.58 38 36 50
0.328709 -0.251954 -0.584 37 35 49
0.317006 -0.231246 -0.536 113 106 124
0.319713 -0.227363 -0.527 100 91 110
0.325997 -0.224774 -0.521 92 84 99
0.380758 -0.219166 -0.508 171 118 112
0.409946 -0.218734 -0.507 165 113 102
0.410911 -0.218734 -0.507 165 113 102
0.411877 -0.218734 -0.507 164 112 99
0.425971 -0.220029 -0.51 161 109 96
0.440203 -0.221323 -0.513 155 106 92
0.451283 -0.223911 -0.519 150 103 87
-0.136091 -0.2704 -0.624 75 76 78
-0.110962 -0.264333 -0.61 69 70 74
-0.0934314 -0.267367 -0.617 74 75 79
-0.0837943 -0.2704 -0.624 71 74 79
-0.0582667 -0.279067 -0.644 132 132 140
-0.0513019 -0.281233 -0.649 67 67 75
0.120806 -0.2262 -0.522 197 146 125
0.1218 -0.2262 -0.522 195 144 123
0.148207 -0.224033 -0.517 182 133 116
0.160386 -0.223167 -0.515 187 135 121
0.166928 -0.222733 -0.514 191 138 124
0.194771 -0.221 -0.51 199 151 139
0.201176 -0.220567 -0.509 208 168 160
0.205619 -0.220133 -0.508 206 167 160
0.210457 -0.220133 -0.508 187 139 137
0.215837 -0.2197 -0.507 151 103 101
0.224004 -0.220133 -0.508 118 80 79
0.229743 -0.221 -0.51 117 81 81
0.240824 -0.223167 -0.515 109 77 78
0.245223 -0.2236 -0.516 108 76 79
0.259485 -0.228367 -0.527 39 22 30
0.308737 -0.2522 -0.582 65 61 78
0.3216 -0.242667 -0.56 138 136 150
0.317457 -0.234867 -0.542 127 118 135
0.33004 -0.224467 -0.518 83 72 89
0.331372 -0.224033 -0.517 82 73 94
0.337611 -0.2236 -0.516 90 83 99
0.339577 -0.2236 -0.516 99 93 107
0.349406 -0.2236 -0.516 31 32 37
0.380009 -0.2197 -0.507 172 119 111
0.391789 -0.219267 -0.506 168 115 107
0.398535 -0.219267 -0.506 170 117 109
0.411065 -0.219267 -0.506 163 111 100
0.422228 -0.220567 -0.509 158 109 95
0.43362 -0.221433 -0.511 161 112 97
-0.13662 -0.270283 -0.621 82 83 87
-0.0816781 -0.272459 -0.626 71 74 79
0.127014 -0.22763 -0.523 186 138 116
0.136452 -0.226759 -0.521 187 139 119
0.140422 -0.226759 -0.521 189 138 119
0.143124 -0.226324 -0.52 188 137 118
0.149191 -0.225018 -0.517 185 132 116
0.151161 -0.225018 -0.517 183 130 114
0.160386 -0.224148 -0.515 187 134 120
0.168886 -0.223712 -0.514 186 134 120
0.18542 -0.222407 -0.511 184 128 111
0.189313 -0.222407 -0.511 191 139 125
0.213906 -0.220666 -0.507 179 126 122
0.225414 -0.221536 -0.509 128 88 88
0.229743 -0.221971 -0.51 122 86 86
0.231167 -0.222407 -0.511 122 86 86
0.238398 -0.223712 -0.514 111 77 76
0.239377 -0.223712 -0.514 110 76 77
0.241805 -0.224148 -0.515 111 77 76
0.26447 -0.231982 -0.533 58 42 52
0.283759 -0.243298 -0.559 62 55 71
0.310378 -0.253744 -0.583 46 43 60
0.31536 -0.254179 -0.584 39 36 53
0.321471 -0.254614 -0.585 38 36 50
0.328161 -0.255485 -0.587 40 38 52
0.318302 -0.238075 -0.547 132 121 137
0.318176 -0.237205 -0.545 130 119 135
0.318043 -0.236334 -0.543 127 116 130
0.317753 -0.234593 -0.539 120 109 123
0.317433 -0.232852 -0.535 115 104 118
0.326723 -0.225889 -0.519 84 75 94
0.345786 -0.224148 -0.515 35 29 41
0.37592 -0.221101 -0.508 173 123 116
0.380974 -0.220666 -0.507 173 120 112
0.388897 -0.22023 -0.506 173 121 110
0.392938 -0.219795 -0.505 172 119 111
0.40721 -0.22023 -0.506 167 113 103
0.411065 -0.22023 -0.506 163 111 100
0.412843 -0.220666 -0.507 158 106 95
0.419463 -0.221101 -0.508 160 111 97
0.443998 -0.223712 -0.514 152 112 102
0.452271 -0.225889 -0.519 153 106 90
-0.134347 -0.26928 -0.616 68 69 73
-0.131571 -0.268406 -0.614 65 66 70
-0.123337 -0.265783 -0.608 61 60 65
-0.116773 -0.264034 -0.604 61 62 67
-0.0968 -0.26928 -0.616 76 77 81
-0.0594933 -0.28152 -0.644 144 145 150
0.10208 -0.230811 -0.528 210 167 151
0.109658 -0.227751 -0.521 199 156 137
0.13943 -0.227751 -0.521 183 132 113
0.151161 -0.226003 -0.517 180 129 112
0.152146 -0.226003 -0.517 182 131 114
0.160697 -0.225566 -0.516 181 128 114
0.201176 -0.222506 -0.509 208 161 155
0.206587 -0.222069 -0.508 197 152 147
0.24424 -0.225566 -0.516 109 75 74
0.245223 -0.225566 -0.516 109 75 74
0.266979 -0.234309 -0.536 52 42 53
0.283251 -0.243926 -0.558 63 59 74
0.298391 -0.252231 -0.577 51 42 59
0.322749 -0.245674 -0.562 128 112 123
0.318884 -0.239554 -0.548 129 111 123
0.317902 -0.236494 -0.541 119 103 114
0.320275 -0.228626 -0.523 95 84 98
0.329749 -0.225566 -0.516 74 63 79
0.3774 -0.22644 -0.518 160 118 119
0.374721 -0.222506 -0.509 166 117 113
0.402557 -0.220757 -0.505 168 118 107
0.403519 -0.220757 -0.505 168 115 107
0.412992 -0.221194 -0.506 160 110 99
0.446824 -0.225129 -0.515 158 111 95
-0.102829 -0.267819 -0.61 74 73 79
-0.0828705 -0.274844 -0.626 72 73 78
-0.075119 -0.277039 -0.631 72 73 78
-0.0728305 -0.277478 -0.632 73 72 78
-0.0559867 -0.283625 -0.646 127 127 135
0.103903 -0.229183 -0.522 209 168 150
0.107673 -0.228744 -0.521 200 157 138
0.119582 -0.228744 -0.521 184 133 114
0.124783 -0.229183 -0.522 183 132 113
0.133988 -0.229622 -0.523 179 128 109
0.138703 -0.229183 -0.522 180 129 110
0.160697 -0.226549 -0.516 177 124 110
0.163646 -0.226549 -0.516 177 124 110
0.180283 -0.225231 -0.513 181 124 113
0.180907 -0.224792 -0.512 174 117 106
0.202716 -0.223036 -0.508 208 161 155
0.211009 -0.222597 -0.507 190 143 137
0.211556 -0.222158 -0.506 188 139 132
0.21252 -0.222158 -0.506 181 132 125
0.243257 -0.226549 -0.516 103 67 67
0.245223 -0.226549 -0.516 104 68 68
0.266979 -0.23533 -0.536 49 39 50
0.312557 -0.256843 -0.585 58 55 72
0.333774 -0.259477 -0.591 37 39 54
0.317597 -0.235769 -0.537 90 75 82
0.317083 -0.233134 -0.531 86 71 76
0.3224 -0.228305 -0.52 92 75 85
0.342489 -0.225231 -0.513 26 25 33
0.374734 -0.225231 -0.513 167 123 124
0.380223 -0.222158 -0.506 170 121 116
0.381187 -0.222158 -0.506 169 118 114
0.387167 -0.221719 -0.505 172 122 115
0.39504 -0.22128 -0.504 170 120 109
0.39984 -0.22128 -0.504 169 119 108
0.404481 -0.221719 -0.505 167 115 104
0.408329 -0.221719 -0.505 163 114 100
0.427914 -0.223914 -0.51 161 112 97
0.441295 -0.224792 -0.512 162 111 90
0.452387 -0.227427 -0.518 155 104 87
-0.137195 -0.270304 -0.613 85 86 91
-0.13282 -0.26854 -0.609 70 71 76
-0.0875 -0.275595 -0.625 74 74 82
-0.075119 -0.278241 -0.631 74 73 79
-0.0674457 -0.281328 -0.638 72 71 77
-0.065219 -0.28221 -0.64 71 70 76
0.110438 -0.229295 -0.52 197 152 133
0.163293 -0.228413 -0.518 173 120 104
0.165267 -0.228413 -0.518 176 120 105
0.173138 -0.22709 -0.515 173 117 102
0.182237 -0.226209 -0.513 164 107 90
0.194771 -0.224886 -0.51 197 147 136
0.211009 -0.223563 -0.507 189 140 135
0.226384 -0.224445 -0.509 116 80 82
0.238398 -0.22665 -0.514 101 65 67
0.250603 -0.228854 -0.519 107 75 76
0.27966 -0.243847 -0.553 53 44 63
0.299426 -0.255311 -0.579 56 52 69
0.301567 -0.256193 -0.581 54 50 67
0.32562 -0.25002 -0.567 112 99 108
0.322667 -0.246933 -0.56 116 103 112
0.320048 -0.242524 -0.55 109 89 90
0.32141 -0.229295 -0.52 80 57 63
0.326449 -0.227972 -0.517 75 54 61
0.3912 -0.22224 -0.504 174 124 117
0.39504 -0.22224 -0.504 169 119 108
0.416706 -0.223563 -0.507 156 109 91
0.429984 -0.224445 -0.509 166 115 96
0.43946 -0.225327 -0.511 165 113 91
0.445956 -0.22665 -0.514 163 111 90
-0.132384 -0.268814 -0.607 73 73 81
-0.102167 -0.271471 -0.613 68 69 74
-0.0831352 -0.278114 -0.628 72 73 78
-0.0729457 -0.280329 -0.633 73 72 78
-0.0501429 -0.287857 -0.65 72 72 80
0.100069 -0.233829 -0.528 210 167 151
0.127014 -0.231614 -0.523 168 117 98
0.12801 -0.231614 -0.523 172 121 102
0.132248 -0.232057 -0.524 175 124 105
0.139234 -0.232057 -0.524 173 120 102
0.142229 -0.232057 -0.524 174 121 103
0.153723 -0.229843 -0.519 175 122 108
0.15836 -0.2294 -0.518 171 118 104
0.163609 -0.229843 -0.519 173 117 102
0.168227 -0.2294 -0.518 172 115 98
0.179655 -0.227629 -0.514 182 124 112
0.183832 -0.226743 -0.512 176 118 104
0.195743 -0.225857 -0.51 198 148 141
0.211556 -0.224086 -0.506 188 140 130
0.241291 -0.228514 -0.516 107 68 71
0.328127 -0.262614 -0.593 37 37 49
0.332633 -0.2635 -0.595 39 37 51
0.333767 -0.2635 -0.595 38 37 55
0.321999 -0.246671 -0.557 114 93 90
0.32063 -0.244014 -0.551 105 81 79
0.3165 -0.2325 -0.525 75 49 52
0.3268 -0.228514 -0.516 74 51 57
0.333366 -0.227629 -0.514 73 54 60
0.351573 -0.226743 -0.512 35 32 39
0.37851 -0.223643 -0.505 169 121 119
0.3816 -0.2232 -0.504 171 123 119
0.412029 -0.224086 -0.506 163 114 99
0.418637 -0.224529 -0.507 162 114 94
0.424301 -0.224971 -0.508 164 113 94
0.452498 -0.228957 -0.517 155 108 88
-0.121833 -0.264633 -0.595 60 60 68
-0.073061 -0.281979 -0.634 74 73 79
-0.0572171 -0.287316 -0.646 68 69 74
-0.0536914 -0.288206 -0.648 68 67 75
0.127014 -0.23261 -0.523 166 115 96
0.1345 -0.2335 -0.525 172 121 102
0.153029 -0.231276 -0.52 170 117 101
0.183214 -0.228163 -0.513 171 112 96
0.184191 -0.228163 -0.513 176 118 104
0.187733 -0.227718 -0.512 184 127 116
0.188709 -0.227718 -0.512 184 127 116
0.189684 -0.227718 -0.512 178 121 110
0.192233 -0.227273 -0.511 183 131 120
0.221101 -0.225939 -0.508 133 85 83
0.222069 -0.225939 -0.508 132 84 82
0.243213 -0.230387 -0.518 108 69 72
0.24566 -0.230831 -0.519 108 67 71
0.283251 -0.248177 -0.558 54 42 62
0.325868 -0.263744 -0.593 38 37 51
0.326124 -0.251735 -0.566 114 102 106
0.316486 -0.235724 -0.53 87 58 60
0.315698 -0.23439 -0.527 92 63 65
0.3155 -0.2335 -0.525 98 68 70
0.32251 -0.229942 -0.517 93 64 69
0.328129 -0.229052 -0.515 88 61 66
0.341757 -0.226384 -0.509 25 15 24
0.346605 -0.226384 -0.509 25 20 27
0.348544 -0.226384 -0.509 29 24 31
0.373717 -0.229942 -0.517 155 116 119
0.370843 -0.226384 -0.509 157 119 118
0.3737 -0.224605 -0.505 171 125 125
0.40464 -0.22416 -0.504 171 119 106
0.423333 -0.225939 -0.508 167 116 97
0.434714 -0.226829 -0.51 167 115 94
0.435686 -0.226829 -0.51 166 114 93
0.437513 -0.227273 -0.511 165 113 92
0.44227 -0.227718 -0.512 164 113 92
-0.119366 -0.26532 -0.594 71 72 77
-0.0984505 -0.276487 -0.619 72 71 79
-0.0832676 -0.280953 -0.629 73 73 81
-0.0653209 -0.286313 -0.641 73 74 78
-0.0642 -0.28676 -0.642 72 73 77
0.0982429 -0.236287 -0.529 205 167 144
0.137762 -0.234947 -0.526 166 115 96
0.147219 -0.234053 -0.524 172 119 103
0.153617 -0.23316 -0.522 170 114 99
0.158285 -0.232713 -0.521 173 117 102
0.164239 -0.232713 -0.521 167 111 98
0.179371 -0.23048 -0.516 169 111 99
0.191634 -0.228693 -0.512 182 125 114
0.196127 -0.228247 -0.511 186 133 125
0.2006 -0.2278 -0.51 191 141 134
0.201571 -0.2278 -0.51 190 139 135
0.207554 -0.226907 -0.508 195 144 140
0.242227 -0.231373 -0.518 111 71 72
0.250576 -0.232713 -0.521 113 71 75
0.311329 -0.263087 -0.589 65 56 75
0.319522 -0.242093 -0.542 90 61 57
0.32116 -0.231373 -0.518 111 77 78
0.327148 -0.230033 -0.515 106 76 78
0.329786 -0.22914 -0.513 104 73 71
0.371549 -0.226013 -0.506 164 124 122
0.382759 -0.224673 -0.503 170 121 116
0.384675 -0.224673 -0.503 171 122 117
0.399047 -0.224673 -0.503 169 119 108
0.413138 -0.225567 -0.505 163 111 97
-0.149734 -0.290226 -0.647 106 110 113
-0.127853 -0.27004 -0.602 107 110 115
-0.124726 -0.268246 -0.598 111 114 119
-0.120497 -0.266451 -0.594 116 117 122
-0.118234 -0.266451 -0.594 115 116 121
-0.112956 -0.267349 -0.596 79 80 84
-0.103334 -0.274974 -0.613 61 60 68
-0.0776457 -0.283497 -0.632 72 71 77
0.0997343 -0.233706 -0.521 201 169 144
0.10726 -0.232809 -0.519 188 141 121
0.110226 -0.232809 -0.519 187 139 117
0.116381 -0.233257 -0.52 182 127 106
0.11859 -0.233706 -0.521 179 124 103
0.1295 -0.2355 -0.525 162 109 93
0.132752 -0.235949 -0.526 162 109 93
0.16356 -0.234154 -0.522 163 107 94
0.166543 -0.234154 -0.522 163 107 94
0.183303 -0.231463 -0.516 167 108 94
0.184286 -0.231463 -0.516 165 106 92
0.193963 -0.230117 -0.513 182 127 120
0.199047 -0.22922 -0.511 180 127 121
0.211425 -0.227874 -0.508 183 130 126
0.227273 -0.22922 -0.511 112 72 73
0.231094 -0.230117 -0.513 113 72 76
0.306917 -0.263311 -0.587 62 55 71
0.33545 -0.268246 -0.598 39 38 54
0.328429 -0.255686 -0.57 114 101 108
0.323539 -0.249406 -0.556 106 81 77
0.31878 -0.24178 -0.539 105 74 71
0.315686 -0.234154 -0.522 139 99 100
0.316837 -0.232809 -0.519 138 99 100
0.335629 -0.228771 -0.51 97 71 74
0.34138 -0.227426 -0.507 78 61 69
0.37584 -0.22608 -0.504 175 127 123
0.385633 -0.225631 -0.503 172 123 116
0.402879 -0.225631 -0.503 172 120 107
0.421534 -0.227426 -0.507 171 120 103
0.425397 -0.227426 -0.507 167 116 99
-0.0665419 -0.288755 -0.641 71 72 76
0.102514 -0.234248 -0.52 198 160 137
0.111214 -0.233797 -0.519 188 138 111
0.13728 -0.237851 -0.528 163 110 92
0.1515 -0.2365 -0.525 161 108 94
0.171186 -0.234698 -0.521 159 105 95
0.194341 -0.231545 -0.514 174 119 112
0.195917 -0.231094 -0.513 185 130 123
0.197486 -0.230644 -0.512 177 123 113
0.220567 -0.229292 -0.509 133 77 78
0.2535 -0.2365 -0.525 117 68 74
0.262439 -0.240104 -0.533 112 74 73
0.30961 -0.265781 -0.59 45 41 55
0.31909 -0.267132 -0.593 36 35 49
0.322433 -0.268033 -0.595 37 36 50
0.332032 -0.269385 -0.598 40 40 52
0.321428 -0.24641 -0.547 99 71 70
0.32054 -0.232896 -0.517 129 94 92
0.336248 -0.228842 -0.508 106 75 80
0.343598 -0.227941 -0.506 103 78 84
0.363986 -0.231094 -0.513 147 112 116
0.378927 -0.22659 -0.503 171 122 117
0.390604 -0.226139 -0.502 169 119 110
0.402078 -0.226139 -0.502 168 119 105
0.418775 -0.227941 -0.506 164 115 98
0.419739 -0.227941 -0.506 168 119 102
0.4225 -0.228391 -0.507 169 117 103
0.423466 -0.228391 -0.507 168 116 102
0.435801 -0.229292 -0.509 165 113 99
-0.1139 -0.269167 -0.595 97 98 102
-0.0967133 -0.281833 -0.623 67 67 75
-0.0665419 -0.289976 -0.641 72 73 77
-0.0584476 -0.292238 -0.646 72 71 77
0.1144 -0.235238 -0.52 175 125 102
0.13754 -0.23931 -0.529 156 105 88
0.160194 -0.237048 -0.524 160 106 94
0.172839 -0.236595 -0.523 159 103 90
0.192521 -0.233881 -0.517 170 113 102
0.199826 -0.232071 -0.513 174 119 112
0.200411 -0.231619 -0.512 173 118 111
0.201387 -0.231619 -0.512 176 121 114
0.203913 -0.231167 -0.511 184 126 122
0.208371 -0.230714 -0.51 184 126 122
0.226743 -0.231619 -0.512 116 71 74
0.228163 -0.232071 -0.513 113 68 71
0.295167 -0.260119 -0.575 40 37 54
0.304681 -0.265548 -0.587 41 38 55
0.337151 -0.270976 -0.599 41 39 53
0.337705 -0.266905 -0.59 41 39 52
0.323314 -0.249714 -0.552 106 70 72
0.320701 -0.246095 -0.544 130 85 88
0.318027 -0.242476 -0.536 134 92 94
0.344562 -0.228905 -0.506 117 86 91
0.348417 -0.228905 -0.506 127 95 98
0.352003 -0.229357 -0.507 147 110 117
0.353665 -0.22981 -0.508 146 110 114
0.37701 -0.227548 -0.503 174 125 120
0.401122 -0.227095 -0.502 167 115 104
0.432042 -0.22981 -0.508 161 112 98
0.441514 -0.230714 -0.51 160 111 96
0.449872 -0.232524 -0.514 158 109 94
-0.1386 -0.2862 -0.63 121 122 127
-0.122967 -0.2703 -0.595 118 121 126
-0.104502 -0.278477 -0.613 60 59 67
-0.0596781 -0.293469 -0.646 70 71 76
0.0985524 -0.236229 -0.52 200 162 141
0.1144 -0.236229 -0.52 170 120 97
0.149631 -0.240317 -0.529 162 110 96
0.154085 -0.239409 -0.527 160 106 94
0.1745 -0.2385 -0.525 152 100 87
0.177162 -0.238046 -0.524 149 97 84
0.180809 -0.237591 -0.523 154 102 89
0.195853 -0.23532 -0.518 172 113 105
0.210314 -0.231686 -0.51 178 120 116
0.253416 -0.240317 -0.529 105 66 71
0.259393 -0.242134 -0.533 113 73 74
0.264901 -0.244406 -0.538 114 74 75
0.333143 -0.272571 -0.6 39 38 52
0.334843 -0.273026 -0.601 40 38 52
0.335988 -0.273026 -0.601 41 39 53
0.338857 -0.272571 -0.6 38 38 50
0.32129 -0.247586 -0.545 132 90 94
0.315099 -0.238954 -0.526 141 102 103
0.317826 -0.235774 -0.519 127 86 90
0.3556 -0.230777 -0.508 151 112 113
0.357535 -0.230777 -0.508 154 115 116
0.364309 -0.230777 -0.508 164 120 119
0.364557 -0.230323 -0.507 164 120 119
0.36673 -0.229869 -0.506 162 116 116
0.379885 -0.228506 -0.503 172 123 116
0.400166 -0.228051 -0.502 167 117 106
0.406859 -0.228051 -0.502 170 118 107
0.41891 -0.229414 -0.505 165 116 101
0.43774 -0.231231 -0.509 162 113 99
-0.119889 -0.269609 -0.591 116 117 122
-0.115581 -0.270065 -0.592 112 113 117
-0.111243 -0.273258 -0.599 62 63 67
-0.10872 -0.275539 -0.604 64 65 70
-0.0947943 -0.285575 -0.626 67 67 75
-0.07462 -0.290593 -0.637 71 74 79
0.09468 -0.239956 -0.526 207 170 152
0.136037 -0.242237 -0.531 143 96 80
0.1444 -0.242693 -0.532 149 100 85
0.154085 -0.240412 -0.527 160 106 94
0.159804 -0.239956 -0.526 157 105 92
0.176169 -0.240412 -0.527 143 93 82
0.190137 -0.239044 -0.524 149 97 86
0.204131 -0.234482 -0.514 176 121 118
0.205689 -0.234026 -0.513 172 114 112
0.218513 -0.233113 -0.511 140 92 92
0.230927 -0.23585 -0.517 108 67 75
0.263876 -0.24543 -0.538 108 69 72
0.327527 -0.233113 -0.511 130 91 94
0.335586 -0.231289 -0.507 119 83 85
0.348417 -0.230832 -0.506 137 98 99
0.358503 -0.231745 -0.508 157 113 112
0.362626 -0.231289 -0.507 163 119 118
0.40399 -0.229008 -0.502 168 116 103
0.422757 -0.230376 -0.505 167 115 101
0.43774 -0.232201 -0.509 165 113 100
0.440649 -0.232201 -0.509 162 110 97
0.448122 -0.23357 -0.512 161 112 98
0.45183 -0.234482 -0.514 155 107 95
0.458307 -0.236307 -0.518 153 107 94
1.13544 -0.296068 -0.649 205 207 194
-0.109507 -0.275773 -0.602 65 66 71
-0.102152 -0.284019 -0.62 58 58 66
-0.100434 -0.285851 -0.624 58 58 66
-0.0667495 -0.294555 -0.643 70 74 77
-0.0632714 -0.295471 -0.645 69 72 77
0.144943 -0.244623 -0.534 148 101 85
0.15467 -0.242332 -0.529 154 102 89
0.167451 -0.241874 -0.528 144 96 84
0.173814 -0.242332 -0.529 145 97 87
0.19874 -0.239584 -0.523 164 109 106
0.202163 -0.237751 -0.519 164 109 106
0.210006 -0.235461 -0.514 169 114 111
0.214483 -0.235003 -0.513 161 112 107
0.263829 -0.247371 -0.54 113 72 76
0.30408 -0.26936 -0.588 55 52 69
0.331363 -0.276231 -0.603 39 38 52
0.336514 -0.27669 -0.604 39 38 52
0.341133 -0.275773 -0.602 38 38 50
0.31629 -0.239584 -0.523 143 101 102
0.317066 -0.238668 -0.521 137 96 100
0.334312 -0.232712 -0.508 117 76 80
0.339071 -0.231338 -0.505 124 84 85
0.344843 -0.231338 -0.505 128 89 92
0.363838 -0.231796 -0.506 162 117 114
0.372436 -0.229964 -0.502 174 125 120
0.378173 -0.229964 -0.502 170 120 113
0.381042 -0.229964 -0.502 168 118 109
0.385823 -0.229964 -0.502 164 114 103
0.388691 -0.229964 -0.502 168 118 107
0.393472 -0.229964 -0.502 166 117 103
0.405903 -0.229964 -0.502 169 117 104
0.43774 -0.23317 -0.509 163 111 98
-0.122553 -0.27278 -0.593 115 119 122
-0.121014 -0.27186 -0.591 115 119 122
-0.105842 -0.28244 -0.614 62 61 69
-0.0916543 -0.28934 -0.629 66 69 76
-0.0859362 -0.29026 -0.631 71 71 79
0.0963857 -0.23874 -0.519 200 163 144
0.10212 -0.23828 -0.518 190 149 127
0.106271 -0.23874 -0.519 189 143 119
0.117823 -0.24012 -0.522 159 107 86
0.147252 -0.2461 -0.535 147 99 85
0.162029 -0.2438 -0.53 147 97 86
0.185597 -0.24426 -0.531 133 85 75
0.18762 -0.24426 -0.531 139 91 81
0.222186 -0.2369 -0.515 124 80 79
0.226988 -0.23782 -0.517 112 71 75
0.2438 -0.2438 -0.53 102 63 68
0.260743 -0.2484 -0.54 110 69 73
0.316086 -0.27508 -0.598 66 63 80
0.337071 -0.2783 -0.605 41 39 53
0.343427 -0.27692 -0.602 38 36 50
0.321737 -0.25024 -0.544 137 96 102
0.31905 -0.23966 -0.521 133 93 94
0.320791 -0.23874 -0.519 134 94 95
0.33811 -0.2323 -0.505 118 78 79
0.381042 -0.23092 -0.502 170 117 109
0.389648 -0.23092 -0.502 166 116 107
0.40399 -0.23092 -0.502 167 115 102
0.416292 -0.23138 -0.503 166 117 102
0.425643 -0.2323 -0.505 160 111 96
0.426605 -0.2323 -0.505 161 112 97
0.44822 -0.23506 -0.511 155 107 93
-0.0985286 -0.289614 -0.627 60 59 67
-0.0882 -0.291 -0.63 70 69 77
-0.0632714 -0.297929 -0.645 71 72 77
0.134519 -0.246195 -0.533 134 87 71
0.15031 -0.247119 -0.535 147 97 86
0.179862 -0.247119 -0.535 135 88 78
0.187345 -0.247581 -0.536 136 89 79
0.20178 -0.245271 -0.531 150 97 91
0.204043 -0.244348 -0.529 152 99 95
0.230729 -0.240652 -0.521 103 66 73
0.291881 -0.265595 -0.575 64 59 79
0.328 -0.258667 -0.56 127 91 95
0.317103 -0.242962 -0.526 141 101 102
0.318283 -0.241576 -0.523 134 93 97
0.323851 -0.238343 -0.516 138 98 99
0.336851 -0.233724 -0.506 114 72 74
0.363119 -0.233262 -0.505 162 114 110
0.368611 -0.231876 -0.502 166 115 111
0.400166 -0.231876 -0.502 163 114 100
0.404947 -0.231876 -0.502 168 116 103
0.410684 -0.231876 -0.502 167 118 103
0.414509 -0.231876 -0.502 166 117 102
0.416421 -0.231876 -0.502 164 115 100
0.420125 -0.232338 -0.503 162 113 98
0.430341 -0.233724 -0.506 157 108 93
0.43688 -0.234648 -0.508 159 110 95
-0.0906 -0.2922 -0.63 66 65 73
-0.069199 -0.29823 -0.643 72 73 77
0.0927876 -0.241645 -0.521 207 170 154
0.104093 -0.240253 -0.518 188 142 118
0.108249 -0.240717 -0.519 176 131 102
0.109237 -0.240717 -0.519 176 131 102
0.126217 -0.244891 -0.528 137 90 74
0.143711 -0.249066 -0.537 141 95 80
0.164269 -0.247674 -0.534 143 95 83
0.169671 -0.248138 -0.535 141 93 83
0.187367 -0.249993 -0.539 135 91 82
0.192857 -0.250457 -0.54 130 89 83
0.206743 -0.248602 -0.536 145 100 97
0.209081 -0.245355 -0.529 149 98 95
0.225767 -0.241645 -0.521 113 71 73
0.27018 -0.256487 -0.553 111 81 89
0.29028 -0.266227 -0.574 56 49 65
0.301327 -0.272256 -0.587 50 47 64
0.309352 -0.27643 -0.596 41 38 55
0.32731 -0.280141 -0.604 37 34 51
0.332462 -0.280605 -0.605 38 37 53
