ply
format ascii 1.0
comment Created by Open3D
element vertex 1314
property double x
property double y
property double z
property uchar red
property uchar green
property uchar blue
end_header
0.165874 -0.0957486 -0.472 205 150 145
0.166773 -0.0957486 -0.472 204 149 144
0.168214 -0.0955457 -0.471 202 147 142
0.172642 -0.0945314 -0.466 200 143 134
0.193112 -0.0941257 -0.464 204 154 143
0.195764 -0.0941257 -0.464 208 158 147
0.197531 -0.0941257 -0.464 205 155 144
0.198843 -0.0943286 -0.465 203 153 142
0.202386 -0.0943286 -0.465 201 149 138
0.204157 -0.0943286 -0.465 200 148 135
0.253587 -0.100211 -0.494 121 83 82
0.258486 -0.101023 -0.498 113 77 77
0.297065 -0.106703 -0.526 44 31 41
0.3025 -0.1065 -0.525 34 23 29
0.30636 -0.10508 -0.518 141 104 112
0.320638 -0.104269 -0.514 143 107 111
0.376146 -0.102849 -0.507 135 100 104
0.19488 -0.0950095 -0.464 207 157 146
0.208586 -0.0952143 -0.465 188 134 122
0.231231 -0.0976714 -0.477 145 96 89
0.288397 -0.10709 -0.523 8 6 19
0.298067 -0.107705 -0.526 40 28 38
0.314395 -0.105452 -0.515 137 100 107
0.320281 -0.105452 -0.515 141 105 109
0.336287 -0.104633 -0.511 141 105 107
0.3563 -0.104224 -0.509 139 104 108
0.358239 -0.104224 -0.509 124 89 95
0.362117 -0.104224 -0.509 133 107 110
0.362373 -0.104019 -0.508 131 102 106
0.367211 -0.104019 -0.508 114 84 86
0.369386 -0.103814 -0.507 126 96 98
0.379043 -0.103814 -0.507 133 98 102
0.399321 -0.105862 -0.517 130 102 101
0.415114 -0.106886 -0.522 194 144 145
0.16116 -0.09796 -0.474 202 154 144
0.212585 -0.0963067 -0.466 147 98 83
0.217063 -0.09672 -0.468 142 97 91
0.221146 -0.09734 -0.471 139 95 86
0.230323 -0.09858 -0.477 139 92 84
0.262474 -0.103747 -0.502 94 64 66
0.315743 -0.106227 -0.514 138 101 108
0.330118 -0.105813 -0.512 140 106 107
0.335313 -0.105607 -0.511 140 106 107
0.351452 -0.105193 -0.509 144 108 112
0.399321 -0.106847 -0.517 110 82 79
0.162831 -0.0982371 -0.471 201 153 143
0.167675 -0.0974029 -0.467 205 152 146
0.182507 -0.0967771 -0.464 196 139 130
0.189169 -0.0965686 -0.463 203 151 140
0.191814 -0.0965686 -0.463 207 157 146
0.197106 -0.0965686 -0.463 199 145 133
0.200633 -0.0965686 -0.463 200 147 133
0.206807 -0.0965686 -0.463 187 134 120
0.222043 -0.0982371 -0.471 136 93 86
0.227548 -0.0990714 -0.475 136 88 86
0.230323 -0.0994886 -0.477 132 89 82
0.232627 -0.0996971 -0.478 130 90 82
0.266929 -0.105329 -0.505 66 47 51
0.276043 -0.106997 -0.513 42 35 43
0.283771 -0.108457 -0.52 35 25 34
0.289393 -0.109083 -0.523 112 114 126
0.290945 -0.109291 -0.524 88 90 102
0.301188 -0.108666 -0.521 114 87 92
0.320638 -0.107206 -0.514 141 105 109
0.326854 -0.106997 -0.513 141 105 107
0.345343 -0.106371 -0.51 141 105 109
0.358503 -0.105954 -0.508 141 108 115
0.360438 -0.105954 -0.508 134 102 107
0.364309 -0.105954 -0.508 117 85 90
0.377331 -0.105537 -0.506 133 101 104
0.394277 -0.106997 -0.513 123 89 88
0.396795 -0.107414 -0.515 116 82 81
0.413327 -0.108666 -0.521 200 151 157
0.158213 -0.100187 -0.476 204 147 140
0.161037 -0.0991343 -0.471 201 151 142
0.1914 -0.09724 -0.462 203 154 140
0.209452 -0.0974505 -0.463 159 108 91
0.256589 -0.104817 -0.498 103 68 72
0.259524 -0.105238 -0.5 98 68 70
0.302229 -0.108606 -0.516 130 93 101
0.305177 -0.108606 -0.516 136 100 104
0.307529 -0.108395 -0.515 128 98 100
0.310848 -0.108185 -0.514 137 98 101
0.338233 -0.107553 -0.511 137 103 104
0.347286 -0.107343 -0.51 139 103 107
0.352422 -0.107132 -0.509 141 106 112
0.378295 -0.106501 -0.506 133 101 104
0.383871 -0.106711 -0.507 133 99 100
0.414319 -0.109658 -0.521 191 145 148
0.1564 -0.101093 -0.476 206 153 145
0.16214 -0.0996067 -0.469 199 152 142
0.19316 -0.09812 -0.462 203 151 138
0.19668 -0.09812 -0.462 192 138 126
0.20372 -0.09812 -0.462 189 132 123
0.20548 -0.09812 -0.462 179 122 113
0.235429 -0.101943 -0.48 125 85 83
0.243 -0.103217 -0.486 114 79 77
0.271514 -0.108314 -0.51 38 29 34
0.275066 -0.108951 -0.513 35 25 33
0.287401 -0.111075 -0.523 11 11 23
0.300845 -0.109801 -0.517 132 97 104
0.30889 -0.109164 -0.514 135 101 102
0.317701 -0.109164 -0.514 137 101 105
0.365523 -0.107677 -0.507 119 89 91
0.4056 -0.110438 -0.52 73 37 39
0.409357 -0.11065 -0.521 177 132 135
0.412334 -0.11065 -0.521 191 147 148
0.192742 -0.0987857 -0.461 199 151 137
0.194498 -0.0987857 -0.461 200 150 139
0.239234 -0.103714 -0.484 117 78 79
0.250256 -0.105643 -0.493 112 73 78
0.251705 -0.105857 -0.494 107 70 77
0.273554 -0.109714 -0.512 35 21 34
0.29821 -0.111643 -0.521 52 39 46
0.309869 -0.110143 -0.514 133 97 101
0.337571 -0.109286 -0.51 137 103 104
0.342429 -0.109286 -0.51 139 104 108
0.346605 -0.109071 -0.509 142 105 113
0.360438 -0.108857 -0.508 137 100 107
0.375404 -0.108429 -0.506 123 87 89
0.387531 -0.108857 -0.508 136 97 102
0.394277 -0.109929 -0.513 93 72 77
0.402843 -0.111214 -0.519 57 32 35
0.40461 -0.111429 -0.52 46 21 24
0.154419 -0.104636 -0.484 201 151 140
0.161247 -0.101393 -0.469 202 149 141
0.166429 -0.100745 -0.466 206 153 147
0.16925 -0.100312 -0.464 199 146 138
0.172785 -0.100312 -0.464 193 140 132
0.178586 -0.100096 -0.463 194 144 133
0.18524 -0.09988 -0.462 203 151 140
0.190986 -0.0996638 -0.461 199 147 136
0.200645 -0.0996638 -0.461 180 120 110
0.223413 -0.102042 -0.472 131 87 84
0.231716 -0.103339 -0.478 121 83 82
0.26256 -0.10896 -0.504 34 25 30
0.264043 -0.109176 -0.505 28 19 24
0.268514 -0.109825 -0.508 23 13 22
0.277657 -0.111554 -0.516 26 20 30
0.27972 -0.111987 -0.518 26 20 30
0.285409 -0.113068 -0.523 18 15 26
0.286405 -0.113068 -0.523 10 7 18
0.294806 -0.112851 -0.522 34 29 35
0.319037 -0.110906 -0.513 137 102 106
0.320014 -0.110906 -0.513 139 104 108
0.325242 -0.11069 -0.512 140 106 107
0.33142 -0.110473 -0.511 140 108 109
0.338543 -0.110257 -0.51 141 107 108
0.342727 -0.110041 -0.509 137 101 101
0.347859 -0.109825 -0.508 141 106 112
0.354632 -0.109825 -0.508 145 119 128
0.377548 -0.109176 -0.505 134 98 102
0.392533 -0.11069 -0.512 113 77 81
0.415505 -0.112419 -0.52 196 142 140
0.158567 -0.102287 -0.469 205 152 146
0.162338 -0.10185 -0.467 204 151 143
0.174176 -0.100978 -0.463 195 142 134
0.17468 -0.10076 -0.462 192 142 133
0.17732 -0.10076 -0.462 193 143 132
0.187473 -0.100542 -0.461 200 148 137
0.200645 -0.100542 -0.461 180 117 108
0.201523 -0.100542 -0.461 174 114 104
0.239729 -0.105776 -0.485 113 74 75
0.247874 -0.107303 -0.492 105 65 73
0.264566 -0.110356 -0.506 18 13 19
0.278733 -0.112973 -0.518 19 16 25
0.304586 -0.112319 -0.515 130 98 101
0.304973 -0.112101 -0.514 129 97 100
0.30791 -0.112101 -0.514 128 96 99
0.312806 -0.112101 -0.514 136 101 105
0.332714 -0.111229 -0.51 140 108 109
0.345924 -0.110792 -0.508 136 99 106
0.357535 -0.110792 -0.508 133 98 102
0.36842 -0.110574 -0.507 135 100 104
0.37444 -0.110356 -0.506 123 88 92
0.380433 -0.110138 -0.505 116 87 89
0.164653 -0.10252 -0.466 208 155 147
0.17556 -0.10164 -0.462 193 143 134
0.17908 -0.10164 -0.462 198 148 139
0.183961 -0.10142 -0.461 204 154 145
0.18923 -0.10142 -0.461 200 148 137
0.19362 -0.10142 -0.461 197 148 134
0.205913 -0.10142 -0.461 157 99 88
0.210334 -0.10186 -0.463 136 91 86
0.216135 -0.10252 -0.466 130 91 84
0.241645 -0.10714 -0.487 106 67 70
0.24307 -0.10736 -0.488 107 68 73
0.287401 -0.11506 -0.523 53 53 61
0.29748 -0.11396 -0.518 125 94 102
0.30889 -0.11308 -0.514 130 98 101
0.320366 -0.11264 -0.512 139 104 108
0.323291 -0.11264 -0.512 138 104 105
0.3285 -0.11242 -0.511 141 107 108
0.338849 -0.11198 -0.509 138 106 109
0.344666 -0.11198 -0.509 137 102 106
0.3549 -0.11154 -0.507 163 145 157
0.37851 -0.1111 -0.505 99 73 74
0.408154 -0.11484 -0.522 107 72 76
0.412334 -0.11462 -0.521 183 128 131
0.152229 -0.106514 -0.48 202 147 144
0.152824 -0.106292 -0.479 199 146 140
0.154187 -0.104739 -0.472 209 156 152
0.160559 -0.10363 -0.467 205 152 146
0.166071 -0.103186 -0.465 207 154 148
0.186595 -0.102298 -0.461 198 148 139
0.187473 -0.102298 -0.461 196 146 137
0.192324 -0.102076 -0.46 201 151 140
0.2369 -0.10718 -0.483 110 71 76
0.26064 -0.11184 -0.504 63 48 53
0.262638 -0.112284 -0.506 50 35 40
0.274176 -0.114281 -0.515 18 12 24
0.285857 -0.115834 -0.522 10 8 19
0.301057 -0.114059 -0.514 124 92 95
0.316106 -0.113837 -0.513 136 101 105
0.320366 -0.113615 -0.512 138 103 107
0.333686 -0.113171 -0.51 141 106 110
0.33497 -0.11295 -0.509 140 105 109
0.345924 -0.112728 -0.508 143 107 111
0.35173 -0.112728 -0.508 240 229 245
0.406944 -0.116056 -0.523 50 25 28
0.412533 -0.11539 -0.52 191 135 134
0.413717 -0.115169 -0.519 192 141 138
0.168366 -0.103848 -0.464 204 151 145
0.17556 -0.1034 -0.462 195 145 136
0.176058 -0.103176 -0.461 196 146 137
0.229414 -0.106757 -0.477 122 80 81
0.242637 -0.109443 -0.489 100 64 68
0.296331 -0.115486 -0.516 119 87 98
0.33497 -0.113919 -0.509 140 105 109
0.349106 -0.113471 -0.507 248 228 237
0.356128 -0.113248 -0.506 128 97 102
0.366005 -0.113024 -0.505 132 97 103
0.370814 -0.113024 -0.505 133 93 101
0.152452 -0.107214 -0.475 205 150 147
0.170649 -0.104506 -0.463 195 145 138
0.179181 -0.103829 -0.46 198 149 142
0.182686 -0.103829 -0.46 202 152 145
0.189695 -0.103829 -0.46 197 147 138
0.215671 -0.104957 -0.465 129 90 83
0.22294 -0.106311 -0.471 131 87 84
0.243133 -0.1106 -0.49 92 57 61
0.244565 -0.110826 -0.491 83 52 57
0.261674 -0.114211 -0.506 66 44 47
0.293111 -0.117146 -0.519 26 16 17
0.303015 -0.116017 -0.514 125 93 96
0.326886 -0.115114 -0.51 137 105 106
0.343989 -0.114663 -0.508 136 104 109
0.356128 -0.114211 -0.506 123 88 92
0.358055 -0.114211 -0.506 112 86 89
0.365043 -0.113986 -0.505 135 100 106
0.367929 -0.113986 -0.505 133 96 103
0.4085 -0.1185 -0.525 62 38 38
0.4095 -0.1185 -0.525 79 45 46
0.409932 -0.118049 -0.523 125 79 82
0.17028 -0.10516 -0.462 199 149 142
0.197581 -0.104705 -0.46 168 108 100
0.204157 -0.104932 -0.461 173 110 101
0.215671 -0.105843 -0.465 131 94 88
0.218378 -0.106298 -0.467 128 89 84
0.231289 -0.10903 -0.479 111 70 74
0.234087 -0.109485 -0.481 105 66 69
0.247941 -0.112444 -0.494 63 40 50
0.271233 -0.117224 -0.515 41 28 37
0.273726 -0.117451 -0.516 29 24 31
0.294936 -0.117679 -0.517 100 81 83
0.296738 -0.117224 -0.515 115 88 95
0.297719 -0.117224 -0.515 116 86 88
0.318767 -0.116313 -0.511 134 102 105
0.323 -0.116086 -0.51 136 104 107
0.323971 -0.116086 -0.51 138 106 109
0.325914 -0.116086 -0.51 137 105 108
0.331092 -0.115858 -0.509 137 105 108
0.345243 -0.115403 -0.507 140 105 112
0.350071 -0.115403 -0.507 176 149 156
0.353236 -0.115175 -0.506 146 119 128
0.356128 -0.115175 -0.506 115 79 83
0.360233 -0.114948 -0.505 69 47 49
0.367929 -0.114948 -0.505 133 98 104
0.36889 -0.114948 -0.505 131 96 102
0.389608 -0.116541 -0.512 93 66 71
0.394617 -0.117451 -0.516 42 30 32
0.402959 -0.119045 -0.523 37 21 24
0.425057 -0.118817 -0.522 154 105 101
0.161103 -0.106958 -0.466 200 150 143
0.173924 -0.105581 -0.46 198 149 144
0.187943 -0.105581 -0.46 189 139 130
0.206791 -0.10581 -0.461 156 96 88
0.20767 -0.10581 -0.461 146 101 96
0.20988 -0.10604 -0.462 128 83 80
0.217023 -0.106958 -0.466 135 92 86
0.22294 -0.108106 -0.471 126 85 81
0.234573 -0.11063 -0.482 104 70 69
0.24989 -0.113844 -0.496 65 38 45
0.282781 -0.119352 -0.52 10 11 13
0.301057 -0.117975 -0.514 123 93 93
0.302036 -0.117975 -0.514 124 94 94
0.303994 -0.117975 -0.514 123 95 94
0.308663 -0.117516 -0.512 126 96 98
0.318767 -0.117287 -0.511 129 99 99
0.322029 -0.117057 -0.51 134 104 104
0.361195 -0.11591 -0.505 79 57 59
0.364081 -0.11591 -0.505 127 95 100
0.365043 -0.11591 -0.505 129 97 102
0.367929 -0.11591 -0.505 132 97 101
0.376586 -0.11591 -0.505 130 100 100
0.411925 -0.120041 -0.523 142 96 98
0.150643 -0.109929 -0.475 202 152 145
0.173048 -0.106457 -0.46 196 145 141
0.187534 -0.106226 -0.459 188 138 129
0.190157 -0.106226 -0.459 179 126 118
0.196277 -0.106226 -0.459 173 113 103
0.20459 -0.106457 -0.46 169 109 101
0.21076 -0.10692 -0.462 131 86 81
0.234573 -0.111549 -0.482 107 73 72
0.236469 -0.112011 -0.484 103 69 68
0.238371 -0.112474 -0.486 95 63 64
0.247 -0.114326 -0.494 70 41 46
0.24989 -0.114789 -0.496 74 44 52
0.273726 -0.119417 -0.516 41 24 30
0.28179 -0.120343 -0.52 7 7 9
0.292967 -0.119649 -0.517 100 79 84
0.317793 -0.11826 -0.511 126 96 96
0.332377 -0.117566 -0.508 136 106 106
0.344277 -0.117334 -0.507 138 103 107
0.34814 -0.117334 -0.507 136 104 107
0.362157 -0.116871 -0.505 95 70 73
0.411925 -0.121037 -0.523 143 97 99
0.412729 -0.120111 -0.519 191 138 134
0.148571 -0.112 -0.48 203 153 146
0.153771 -0.1092 -0.468 202 152 145
0.155222 -0.108967 -0.467 200 150 143
0.157001 -0.108967 -0.467 201 151 144
0.16764 -0.1078 -0.462 201 150 146
0.175785 -0.106867 -0.458 201 150 146
0.17753 -0.106867 -0.458 197 150 144
0.179274 -0.106867 -0.458 197 150 142
0.181891 -0.106867 -0.458 198 149 142
0.193654 -0.1071 -0.459 170 107 98
0.194529 -0.1071 -0.459 173 110 101
0.199774 -0.1071 -0.459 174 114 104
0.206343 -0.107333 -0.46 158 100 89
0.210304 -0.107567 -0.461 138 93 88
0.23979 -0.113633 -0.487 85 51 52
0.256226 -0.1169 -0.501 83 53 61
0.25968 -0.1176 -0.504 83 50 59
0.263676 -0.118533 -0.508 60 35 41
0.270707 -0.119933 -0.514 43 26 32
0.28026 -0.1211 -0.519 42 30 34
0.311953 -0.119233 -0.511 122 101 100
0.323336 -0.118767 -0.509 135 105 107
0.329153 -0.118767 -0.509 134 102 105
0.337517 -0.1183 -0.507 138 103 107
0.36624 -0.1176 -0.504 128 99 103
0.37104 -0.1176 -0.504 127 88 91
0.384416 -0.118767 -0.509 124 91 98
0.410929 -0.122033 -0.523 141 95 97
0.412334 -0.121567 -0.521 174 120 120
0.422438 -0.121333 -0.52 167 118 113
0.150009 -0.111268 -0.473 203 153 146
0.15288 -0.110091 -0.468 203 153 146
0.156111 -0.109856 -0.467 201 151 144
0.161295 -0.10915 -0.464 203 153 146
0.16588 -0.10868 -0.462 203 154 149
0.168155 -0.108445 -0.461 201 152 147
0.17442 -0.107974 -0.459 203 154 149
0.247 -0.116208 -0.494 77 42 46
0.289157 -0.122089 -0.519 26 14 18
0.2924 -0.121383 -0.516 105 80 84
0.296563 -0.120677 -0.513 116 86 84
0.37851 -0.118795 -0.505 124 92 97
0.380223 -0.11903 -0.506 123 91 96
0.384416 -0.119736 -0.509 112 83 88
0.412131 -0.122794 -0.522 162 106 107
0.412533 -0.122324 -0.52 188 133 130
0.41588 -0.121853 -0.518 195 144 140
0.154002 -0.110509 -0.466 200 149 145
0.156665 -0.110509 -0.466 202 151 147
0.16412 -0.10956 -0.462 202 153 148
0.168667 -0.109086 -0.46 203 154 149
0.172671 -0.108849 -0.459 199 150 145
0.185381 -0.108611 -0.458 188 135 127
0.220629 -0.110983 -0.468 142 94 90
0.290434 -0.122366 -0.516 109 88 93
0.300471 -0.121654 -0.513 120 95 99
0.303403 -0.121654 -0.513 123 94 98
0.304762 -0.121417 -0.512 119 93 96
0.306712 -0.121417 -0.512 100 84 85
0.317171 -0.120943 -0.51 128 107 114
0.335586 -0.120231 -0.507 155 124 130
0.347174 -0.120231 -0.507 136 101 105
0.149374 -0.112591 -0.471 199 150 143
0.149952 -0.112352 -0.47 207 158 151
0.15489 -0.111396 -0.466 200 149 145
0.15776 -0.110918 -0.464 207 156 152
0.170049 -0.109723 -0.459 198 147 143
0.178402 -0.109484 -0.458 188 137 133
0.19236 -0.109484 -0.458 177 117 109
0.208971 -0.109962 -0.46 149 99 92
0.247439 -0.11785 -0.493 100 60 61
0.2616 -0.12048 -0.504 98 68 68
0.289451 -0.123349 -0.516 89 68 73
0.289871 -0.12311 -0.515 98 77 82
0.290852 -0.12311 -0.515 104 82 85
0.309033 -0.122153 -0.511 52 82 84
0.314257 -0.121914 -0.51 207 211 214
0.326245 -0.121675 -0.509 137 104 111
0.330442 -0.121436 -0.508 134 105 109
0.330757 -0.121197 -0.507 128 101 106
0.339449 -0.121197 -0.507 137 102 109
0.35568 -0.12048 -0.504 140 101 106
0.365513 -0.120241 -0.503 112 82 84
0.370304 -0.120241 -0.503 81 53 52
0.37392 -0.12048 -0.504 121 89 90
0.146132 -0.115898 -0.481 207 158 153
0.150774 -0.112525 -0.467 205 154 150
0.171423 -0.110356 -0.458 196 147 142
0.172295 -0.110356 -0.458 196 147 142
0.178883 -0.110115 -0.457 183 130 124
0.183235 -0.110115 -0.457 182 129 121
0.184976 -0.110115 -0.457 177 122 115
0.191488 -0.110356 -0.458 172 113 105
0.198467 -0.110356 -0.458 182 123 115
0.202829 -0.110356 -0.458 169 112 103
0.26256 -0.12144 -0.504 87 62 65
0.288469 -0.124331 -0.516 95 76 80
0.304762 -0.123368 -0.512 71 69 74
0.340414 -0.122163 -0.507 134 101 110
0.344562 -0.121922 -0.506 134 99 105
0.422438 -0.125295 -0.52 175 124 121
0.424243 -0.125536 -0.521 169 118 115
0.150774 -0.113414 -0.467 205 154 150
0.156876 -0.112686 -0.464 206 155 151
0.172295 -0.111229 -0.458 196 147 142
0.184106 -0.110986 -0.457 180 125 118
0.190615 -0.111229 -0.458 167 110 101
0.19236 -0.111229 -0.458 175 116 108
0.207643 -0.111471 -0.459 149 98 94
0.208971 -0.111714 -0.46 149 98 94
0.249317 -0.119729 -0.493 125 83 84
0.255127 -0.1207 -0.497 140 96 93
0.264566 -0.122886 -0.506 62 37 40
0.283119 -0.125557 -0.517 66 51 56
0.286503 -0.125314 -0.516 94 77 83
0.295985 -0.124343 -0.512 108 90 90
0.336551 -0.123129 -0.507 133 104 109
0.338483 -0.123129 -0.507 136 105 111
0.347453 -0.122886 -0.506 137 102 108
0.348417 -0.122886 -0.506 140 105 111
0.35376 -0.1224 -0.504 126 91 97
0.36743 -0.122157 -0.503 121 89 92
0.381726 -0.123371 -0.508 117 86 91
0.4115 -0.1275 -0.525 133 84 88
0.436619 -0.128714 -0.53 183 135 131
0.440106 -0.129443 -0.533 180 132 128
0.146427 -0.116507 -0.476 202 153 148
0.154557 -0.113814 -0.465 203 154 147
0.165162 -0.11259 -0.46 202 153 148
0.171049 -0.111856 -0.457 191 144 138
0.218798 -0.114059 -0.466 163 114 109
0.26352 -0.12336 -0.504 88 59 61
0.294034 -0.125318 -0.512 112 87 90
0.29638 -0.125073 -0.511 110 88 90
0.298327 -0.125073 -0.511 113 87 90
0.304167 -0.125073 -0.511 63 70 78
0.32786 -0.124094 -0.507 138 109 114
0.338483 -0.124094 -0.507 134 103 111
0.368388 -0.123115 -0.503 84 55 57
0.19281 -0.112727 -0.457 180 120 110
0.250176 -0.121113 -0.491 153 108 105
0.284967 -0.127033 -0.515 79 60 64
0.285948 -0.127033 -0.515 84 65 69
0.312671 -0.125553 -0.509 78 95 103
0.313641 -0.125553 -0.509 90 107 115
0.429926 -0.13764 -0.558 42 27 30
0.413717 -0.12802 -0.519 198 145 141
0.427864 -0.129007 -0.523 153 105 101
0.433144 -0.129993 -0.527 157 114 107
0.155656 -0.115089 -0.463 206 155 151
0.15796 -0.11484 -0.462 201 150 146
0.159374 -0.114591 -0.461 206 157 152
0.19281 -0.113597 -0.457 185 127 116
0.197163 -0.113597 -0.457 182 125 116
0.2478 -0.1218 -0.49 151 106 103
0.290133 -0.127269 -0.512 98 77 82
0.291109 -0.127269 -0.512 101 80 85
0.293059 -0.127269 -0.512 104 83 88
0.29638 -0.12702 -0.511 105 85 86
0.31883 -0.126274 -0.508 166 173 179
0.320766 -0.126274 -0.508 128 119 122
0.35905 -0.124783 -0.502 128 96 101
0.369346 -0.125031 -0.503 117 86 91
0.412533 -0.129257 -0.52 187 131 130
0.420637 -0.129009 -0.519 186 131 128
0.147267 -0.117724 -0.47 203 153 146
0.15708 -0.11572 -0.462 201 150 146
0.162533 -0.115219 -0.46 204 153 149
0.201515 -0.114468 -0.457 173 119 109
0.208063 -0.114718 -0.458 160 107 103
0.208935 -0.114718 -0.458 159 106 102
0.230323 -0.119477 -0.477 101 59 63
0.244 -0.122232 -0.488 129 83 83
0.283005 -0.128995 -0.515 74 54 56
0.289158 -0.128244 -0.512 98 77 82
0.300273 -0.127993 -0.511 77 68 71
0.313641 -0.127492 -0.509 78 93 100
0.331069 -0.126741 -0.506 194 177 185
0.34704 -0.12624 -0.504 219 207 219
0.35376 -0.12624 -0.504 150 127 133
0.357849 -0.12599 -0.503 129 98 103
0.366699 -0.125739 -0.502 92 61 66
0.377331 -0.126741 -0.506 120 91 96
0.426129 -0.137511 -0.549 64 42 45
0.412284 -0.13175 -0.526 135 89 91
0.41292 -0.129747 -0.518 195 144 140
0.423429 -0.130248 -0.52 169 116 112
0.432322 -0.13175 -0.526 151 106 100
0.437629 -0.132752 -0.53 178 131 125
0.143384 -0.121395 -0.481 208 159 154
0.146095 -0.119124 -0.472 196 147 140
0.175886 -0.115086 -0.456 188 138 129
0.19107 -0.115338 -0.457 179 127 114
0.19194 -0.115338 -0.457 180 128 115
0.21114 -0.115843 -0.459 153 99 97
0.220573 -0.11761 -0.466 170 123 115
0.247718 -0.123162 -0.488 159 111 109
0.280497 -0.129724 -0.514 66 46 48
0.282455 -0.129724 -0.514 74 53 58
0.288183 -0.129219 -0.512 95 75 77
0.305514 -0.128714 -0.51 171 184 190
0.323031 -0.127957 -0.507 128 102 105
0.32625 -0.127705 -0.506 127 102 108
0.330105 -0.127705 -0.506 239 219 228
0.337148 -0.127452 -0.505 132 103 108
0.35689 -0.126948 -0.503 130 99 104
0.360962 -0.126695 -0.502 127 96 101
0.423429 -0.131238 -0.52 166 113 109
0.436803 -0.13351 -0.529 170 123 117
0.439466 -0.134014 -0.531 173 122 118
0.442136 -0.134519 -0.533 175 124 120
0.443983 -0.134771 -0.534 172 124 122
0.1434 -0.121549 -0.478 207 158 153
0.14431 -0.120786 -0.475 203 154 149
0.145504 -0.120277 -0.473 197 148 141
0.146371 -0.119514 -0.47 197 148 141
0.16218 -0.116717 -0.459 202 151 147
0.1976 -0.115954 -0.456 186 133 125
0.201943 -0.115954 -0.456 174 121 115
0.215572 -0.117226 -0.461 155 106 99
0.2435 -0.123837 -0.487 141 96 93
0.273457 -0.129686 -0.51 51 31 33
0.285814 -0.130449 -0.513 89 69 71
0.28762 -0.12994 -0.511 95 75 77
0.297353 -0.12994 -0.511 107 87 89
0.307824 -0.129431 -0.509 147 151 162
0.308793 -0.129431 -0.509 158 162 173
0.313992 -0.129177 -0.508 171 180 187
0.330105 -0.128669 -0.506 240 219 228
0.365014 -0.127397 -0.501 124 92 97
0.413628 -0.134517 -0.529 112 73 76
0.452432 -0.136806 -0.538 174 123 122
0.142788 -0.122715 -0.479 208 159 154
0.145786 -0.120666 -0.471 199 149 142
0.151247 -0.118616 -0.463 198 147 143
0.157276 -0.117848 -0.46 200 151 146
0.166331 -0.116823 -0.456 190 140 133
0.182433 -0.116567 -0.455 182 127 120
0.193257 -0.116823 -0.456 182 129 121
0.194126 -0.116823 -0.456 185 132 124
0.201074 -0.116823 -0.456 175 122 116
0.212889 -0.117591 -0.459 154 104 97
0.240652 -0.124252 -0.485 139 95 94
0.264286 -0.128095 -0.5 119 84 82
0.277997 -0.131426 -0.513 59 43 46
0.286232 -0.13117 -0.512 90 70 72
0.288593 -0.130913 -0.511 97 77 79
0.298327 -0.130913 -0.511 105 80 86
0.2993 -0.130913 -0.511 70 74 73
0.3026 -0.130657 -0.51 193 192 197
0.304543 -0.130657 -0.51 174 190 190
0.307824 -0.130401 -0.509 194 197 204
0.313641 -0.130401 -0.509 177 181 190
0.316895 -0.130145 -0.508 171 180 187
0.337148 -0.129376 -0.505 131 104 109
0.34896 -0.12912 -0.504 218 210 221
0.34992 -0.12912 -0.504 161 153 164
0.35376 -0.12912 -0.504 170 158 160
0.367655 -0.128608 -0.502 126 94 99
0.41652 -0.136806 -0.534 94 55 58
0.411543 -0.133219 -0.52 177 123 121
0.411933 -0.132707 -0.518 196 143 137
0.41292 -0.132707 -0.518 192 143 136
0.413907 -0.132707 -0.518 194 145 138
0.425235 -0.133475 -0.521 159 112 106
0.434148 -0.135012 -0.527 154 107 101
0.438638 -0.135781 -0.53 161 112 107
0.171167 -0.117433 -0.455 195 145 138
0.172033 -0.117433 -0.455 194 144 135
0.1729 -0.117433 -0.455 193 143 134
0.1963 -0.117433 -0.455 184 129 122
0.202367 -0.117433 -0.455 164 111 105
0.208023 -0.117691 -0.456 158 106 95
0.237328 -0.124402 -0.482 125 81 80
0.285257 -0.132145 -0.512 90 70 72
0.304543 -0.131629 -0.51 139 157 157
0.360006 -0.129564 -0.502 126 93 100
0.440477 -0.137049 -0.531 161 111 104
0.1672 -0.11856 -0.456 197 147 140
0.172033 -0.1183 -0.455 192 144 134
0.174633 -0.1183 -0.455 184 136 126
0.178967 -0.1183 -0.455 187 132 125
0.202367 -0.1183 -0.455 171 118 112
0.212425 -0.11908 -0.458 179 126 118
0.2425 -0.1261 -0.485 161 113 111
0.246195 -0.1261 -0.485 170 120 119
0.248554 -0.12636 -0.486 158 110 106
0.265769 -0.13026 -0.501 112 81 79
0.277455 -0.13312 -0.512 59 40 42
0.299686 -0.1326 -0.51 50 75 69
0.308793 -0.13234 -0.509 185 195 197
0.317863 -0.13208 -0.508 179 190 196
0.322394 -0.13156 -0.506 110 87 97
0.34731 -0.13078 -0.503 238 229 246
0.36406 -0.13026 -0.501 124 93 98
0.37104 -0.13104 -0.504 129 94 101
0.462286 -0.156 -0.6 88 58 66
0.424419 -0.1352 -0.52 163 114 107
0.42804 -0.13572 -0.522 157 110 104
0.146013 -0.122048 -0.466 205 156 151
0.147154 -0.121524 -0.464 206 157 152
0.153771 -0.120476 -0.46 201 154 148
0.154311 -0.120214 -0.459 207 160 154
0.163726 -0.119429 -0.456 197 148 143
0.164594 -0.119429 -0.456 193 144 139
0.169433 -0.119167 -0.455 199 148 144
0.182433 -0.119167 -0.455 183 128 121
0.231167 -0.124405 -0.475 109 67 68
0.246195 -0.127024 -0.485 168 120 118
0.247119 -0.127024 -0.485 163 116 108
0.259757 -0.129643 -0.495 129 96 89
0.2627 -0.130167 -0.497 119 86 79
0.26928 -0.132 -0.504 65 38 43
0.315928 -0.133048 -0.508 171 172 177
0.32143 -0.132524 -0.506 114 103 111
0.335224 -0.132262 -0.505 128 103 109
0.336186 -0.132262 -0.505 125 102 108
0.359289 -0.131214 -0.501 122 94 93
0.360243 -0.131214 -0.501 123 95 94
0.361197 -0.131214 -0.501 124 98 99
0.363106 -0.131214 -0.501 126 97 102
0.37008 -0.132 -0.504 124 89 95
0.412846 -0.138286 -0.528 108 66 70
0.413108 -0.135405 -0.517 191 144 138
0.429856 -0.136976 -0.523 164 115 108
0.436983 -0.138286 -0.528 145 98 90
0.452792 -0.140381 -0.536 154 103 99
0.163726 -0.120297 -0.456 196 147 140
0.164594 -0.120297 -0.456 195 146 139
0.171167 -0.120033 -0.455 195 147 137
0.1807 -0.120033 -0.455 187 133 123
0.1833 -0.120033 -0.455 180 126 116
0.257246 -0.129794 -0.492 131 93 82
0.259232 -0.130322 -0.494 126 93 86
0.268746 -0.132696 -0.503 64 39 42
0.273352 -0.134015 -0.508 59 34 38
0.2847 -0.134807 -0.511 87 67 69
0.288029 -0.134543 -0.51 96 76 78
0.301629 -0.134543 -0.51 72 97 94
0.313025 -0.134015 -0.508 225 228 237
0.325605 -0.133224 -0.505 176 157 163
0.348268 -0.132696 -0.503 236 230 244
0.351142 -0.132696 -0.503 228 222 236
0.434326 -0.138764 -0.526 157 108 101
0.138803 -0.127809 -0.481 215 164 160
0.1457 -0.123557 -0.465 202 155 147
0.158862 -0.121431 -0.457 202 153 146
0.1651 -0.1209 -0.455 197 149 139
0.190233 -0.1209 -0.455 180 128 117
0.191545 -0.120634 -0.454 189 137 126
0.198889 -0.120369 -0.453 180 126 114
0.262171 -0.131794 -0.496 112 82 74
0.313025 -0.134983 -0.508 218 221 230
0.31496 -0.134983 -0.508 223 226 233
0.316895 -0.134983 -0.508 192 193 198
0.324643 -0.134186 -0.505 234 215 221
0.34416 -0.13392 -0.504 232 226 238
0.362151 -0.133123 -0.501 122 96 99
0.478104 -0.164477 -0.619 104 74 82
0.413108 -0.137374 -0.517 194 145 140
0.440657 -0.140829 -0.53 157 104 100
0.151689 -0.122837 -0.459 203 156 150
0.157121 -0.122302 -0.457 196 147 140
0.160251 -0.122034 -0.456 198 149 142
0.168567 -0.121767 -0.455 194 144 133
0.17425 -0.121499 -0.454 185 136 122
0.181567 -0.121767 -0.455 187 135 124
0.186767 -0.121767 -0.455 187 133 123
0.19068 -0.121499 -0.454 186 133 125
0.193711 -0.121231 -0.453 189 135 125
0.204929 -0.121231 -0.453 172 120 109
0.210167 -0.121767 -0.455 173 119 107
0.272814 -0.135683 -0.507 55 33 35
0.283727 -0.136753 -0.511 85 63 65
0.285673 -0.136753 -0.511 93 71 73
0.286086 -0.136486 -0.51 94 69 72
0.298129 -0.136218 -0.509 61 76 71
0.31434 -0.135683 -0.507 213 216 223
0.317237 -0.135683 -0.507 224 222 227
0.354269 -0.134345 -0.502 233 221 233
0.476514 -0.165924 -0.62 86 65 72
0.480421 -0.166459 -0.622 105 78 85
0.469191 -0.161374 -0.603 125 90 96
0.410929 -0.139965 -0.523 153 107 109
0.417223 -0.138091 -0.516 188 137 133
0.443511 -0.142106 -0.531 158 103 100
0.450086 -0.142909 -0.534 158 103 100
0.453813 -0.143444 -0.536 154 99 96
0.455683 -0.143711 -0.537 151 96 93
0.142183 -0.126137 -0.468 201 152 147
0.142769 -0.125868 -0.467 200 151 146
0.144814 -0.125329 -0.465 208 159 154
0.15625 -0.123172 -0.457 197 147 140
0.164233 -0.122633 -0.455 194 144 137
0.186356 -0.122364 -0.454 184 129 122
0.188086 -0.122364 -0.454 186 131 124
0.203203 -0.122094 -0.453 173 119 107
0.221871 -0.125329 -0.465 121 76 73
0.233467 -0.128293 -0.476 144 96 96
0.239584 -0.129641 -0.481 175 124 121
0.251331 -0.130989 -0.486 143 98 92
0.276913 -0.137727 -0.511 63 42 41
0.33677 -0.13557 -0.503 129 107 110
0.350184 -0.13557 -0.503 232 229 240
0.353058 -0.13557 -0.503 230 227 238
0.372283 -0.136649 -0.507 109 80 82
0.478466 -0.167374 -0.621 98 79 83
0.480421 -0.167644 -0.622 110 85 91
0.418206 -0.139074 -0.516 190 137 133
0.419189 -0.139074 -0.516 188 135 131
0.420986 -0.139344 -0.517 185 132 128
0.42197 -0.139344 -0.517 181 128 124
0.455683 -0.144734 -0.537 148 93 90
0.173385 -0.123229 -0.454 189 137 126
0.183762 -0.123229 -0.454 188 133 126
0.229707 -0.128114 -0.472 121 77 74
0.243754 -0.130829 -0.482 166 116 109
0.251331 -0.131914 -0.486 144 99 93
0.258183 -0.133543 -0.492 116 86 78
0.268211 -0.136257 -0.502 61 36 39
0.272814 -0.137614 -0.507 57 35 37
0.306251 -0.137886 -0.508 59 74 79
0.317237 -0.137614 -0.507 230 223 231
0.339645 -0.136529 -0.503 230 224 238
0.362151 -0.135986 -0.501 120 95 99
0.364787 -0.136257 -0.502 122 92 100
0.366471 -0.136529 -0.503 121 92 97
0.138609 -0.12874 -0.471 201 153 149
0.151358 -0.125187 -0.458 203 156 150
0.163872 -0.124093 -0.454 196 143 137
0.168196 -0.124093 -0.454 197 144 136
0.17425 -0.124093 -0.454 183 131 120
0.178573 -0.124093 -0.454 180 128 117
0.180303 -0.124093 -0.454 184 132 121
0.224605 -0.127647 -0.467 116 75 73
0.231094 -0.129287 -0.473 130 86 83
0.263647 -0.135847 -0.497 95 69 68
0.282331 -0.139947 -0.512 59 39 38
0.290943 -0.1394 -0.51 99 79 81
0.29425 -0.139127 -0.509 104 84 85
0.316271 -0.13858 -0.507 162 165 172
0.319169 -0.13858 -0.507 161 141 152
0.338687 -0.137487 -0.503 233 227 241
0.342519 -0.137487 -0.503 233 225 238
0.344435 -0.137487 -0.503 230 226 240
0.346351 -0.137487 -0.503 227 223 238
0.410929 -0.142953 -0.523 152 103 106
0.15451 -0.125784 -0.457 189 140 133
0.163872 -0.124958 -0.454 196 143 135
0.179438 -0.124958 -0.454 185 133 122
0.249375 -0.133215 -0.484 139 92 84
0.282331 -0.140922 -0.512 61 40 39
0.283727 -0.140647 -0.511 80 60 59
0.289403 -0.140096 -0.509 98 80 80
0.298129 -0.140096 -0.509 106 83 91
0.313374 -0.139546 -0.507 147 154 160
0.31434 -0.139546 -0.507 179 186 192
0.316611 -0.13927 -0.506 163 150 160
0.319503 -0.13927 -0.506 122 99 109
0.320795 -0.138995 -0.505 220 197 207
0.3288 -0.13872 -0.504 121 98 104
0.33677 -0.138445 -0.503 205 185 187
0.340603 -0.138445 -0.503 237 229 242
0.347575 -0.13817 -0.502 230 224 238
0.356426 -0.137894 -0.501 125 104 111
0.475333 -0.170648 -0.62 88 76 76
0.42744 -0.15083 -0.548 111 75 77
0.412284 -0.144775 -0.526 146 97 100
0.448228 -0.146702 -0.533 156 105 101
0.142735 -0.128594 -0.464 206 159 153
0.159033 -0.1261 -0.455 194 141 133
0.169061 -0.125823 -0.454 192 137 130
0.196292 -0.124991 -0.451 183 129 119
0.19801 -0.124991 -0.451 182 128 118
0.225977 -0.129703 -0.468 136 88 84
0.226869 -0.129703 -0.468 136 88 84
0.240412 -0.132751 -0.479 172 123 118
0.318539 -0.140234 -0.506 133 105 119
0.361918 -0.139126 -0.502 121 99 101
0.413108 -0.143283 -0.517 191 135 134
0.414274 -0.143006 -0.516 193 134 128
0.418376 -0.142729 -0.515 176 121 116
0.42476 -0.14356 -0.518 156 105 102
0.461138 -0.149934 -0.541 145 96 91
0.159033 -0.126967 -0.455 193 140 132
0.162143 -0.126688 -0.454 194 141 133
0.163872 -0.126688 -0.454 195 142 136
0.216386 -0.128083 -0.459 143 96 90
0.220917 -0.129199 -0.463 143 98 92
0.283727 -0.142593 -0.511 73 53 54
0.285114 -0.142314 -0.51 91 69 71
0.286086 -0.142314 -0.51 93 71 73
0.309511 -0.141477 -0.507 213 221 223
0.310477 -0.141477 -0.507 213 221 223
0.311792 -0.141198 -0.506 74 78 79
0.328148 -0.140361 -0.503 122 99 105
0.355471 -0.139803 -0.501 120 100 101
0.359289 -0.139803 -0.501 121 96 99
0.410947 -0.144547 -0.518 199 145 143
0.411138 -0.144268 -0.517 197 143 141
0.451103 -0.149011 -0.534 162 104 102
0.135307 -0.13261 -0.472 211 163 159
0.145569 -0.128957 -0.459 196 147 142
0.175591 -0.127271 -0.453 197 143 133
0.179906 -0.127271 -0.453 185 130 123
0.182952 -0.12699 -0.452 190 135 128
0.195857 -0.126429 -0.45 183 129 119
0.203165 -0.12671 -0.451 174 122 111
0.224124 -0.130924 -0.466 137 89 85
0.252257 -0.136543 -0.486 128 89 82
0.268211 -0.141038 -0.502 57 36 35
0.283727 -0.143567 -0.511 81 61 62
0.287057 -0.143286 -0.51 95 73 75
0.295608 -0.142724 -0.508 109 83 84
0.302381 -0.142724 -0.508 145 126 130
0.322719 -0.141881 -0.505 174 163 171
0.324 -0.1416 -0.504 120 97 103
0.329106 -0.141319 -0.503 122 97 101
0.336101 -0.141038 -0.502 127 100 105
0.409562 -0.146095 -0.52 190 141 136
0.415433 -0.14469 -0.515 180 123 116
0.133733 -0.13464 -0.476 212 159 153
0.138912 -0.131811 -0.466 192 143 139
0.1395 -0.131529 -0.465 202 153 148
0.140386 -0.131529 -0.465 197 148 143
0.143 -0.13068 -0.462 205 156 151
0.147869 -0.129549 -0.458 195 144 140
0.155909 -0.128983 -0.456 198 145 141
0.161278 -0.128417 -0.454 191 138 132
0.172621 -0.127851 -0.452 191 137 127
0.173482 -0.127851 -0.452 192 138 128
0.180769 -0.128134 -0.453 184 129 122
0.184674 -0.127851 -0.452 190 136 126
0.185535 -0.127851 -0.452 192 137 130
0.190279 -0.127569 -0.451 190 138 127
0.191571 -0.127286 -0.45 191 139 128
0.197571 -0.127286 -0.45 180 126 116
0.222278 -0.131246 -0.464 138 93 88
0.23569 -0.134357 -0.475 168 121 115
0.254225 -0.138034 -0.488 119 86 79
0.285114 -0.144257 -0.51 91 69 71
0.291342 -0.143974 -0.509 104 79 82
0.300446 -0.143691 -0.508 115 89 92
0.318539 -0.143126 -0.506 188 167 176
0.322719 -0.142843 -0.505 136 120 130
0.32592 -0.14256 -0.504 123 98 104
0.32784 -0.14256 -0.504 122 97 101
0.333232 -0.141994 -0.502 126 97 102
0.345663 -0.141994 -0.502 122 100 103
0.355471 -0.141711 -0.501 98 76 78
0.356667 -0.141429 -0.5 84 59 62
0.41441 -0.149914 -0.53 159 119 117
0.410552 -0.147086 -0.52 190 141 137
0.410947 -0.14652 -0.518 196 143 139
0.414274 -0.145954 -0.516 190 133 124
0.417395 -0.145671 -0.515 168 113 106
0.420986 -0.146237 -0.517 144 91 85
0.444523 -0.150197 -0.531 159 108 105
0.454834 -0.151611 -0.536 154 100 98
0.135629 -0.133838 -0.47 202 153 148
0.146124 -0.130421 -0.458 200 151 146
0.148416 -0.130136 -0.457 196 145 141
0.159549 -0.129282 -0.454 197 144 140
0.174343 -0.128712 -0.452 189 135 123
0.187702 -0.128428 -0.451 190 135 128
0.188143 -0.128143 -0.45 193 141 130
0.226384 -0.132984 -0.467 123 78 73
0.277887 -0.145513 -0.511 66 46 48
0.27886 -0.145513 -0.511 70 50 51
0.286086 -0.145229 -0.51 96 71 74
0.299478 -0.144659 -0.508 111 85 88
0.306614 -0.144374 -0.507 123 113 114
0.30758 -0.144374 -0.507 157 147 148
0.341838 -0.14295 -0.502 130 101 106
0.344707 -0.14295 -0.502 126 99 104
0.346619 -0.14295 -0.502 125 103 106
0.347575 -0.14295 -0.502 127 107 109
0.356667 -0.142381 -0.5 84 59 62
0.361918 -0.14295 -0.502 120 95 99
0.362874 -0.14295 -0.502 121 96 100
0.463023 -0.170288 -0.598 75 52 58
0.40996 -0.147507 -0.518 195 144 140
0.438994 -0.150354 -0.528 137 92 87
0.446373 -0.151493 -0.532 161 107 105
0.459433 -0.153487 -0.539 150 99 95
0.14382 -0.13158 -0.459 200 151 146
0.160413 -0.130147 -0.454 201 148 142
0.17176 -0.129573 -0.452 195 141 131
0.21057 -0.130147 -0.454 151 103 93
0.240317 -0.13674 -0.477 154 107 101
0.296575 -0.145627 -0.508 112 86 87
0.311792 -0.145053 -0.506 120 99 104
0.322719 -0.144767 -0.505 133 112 121
0.32688 -0.14448 -0.504 121 96 100
0.332276 -0.143907 -0.502 126 97 102
0.335145 -0.143907 -0.502 126 97 102
0.409357 -0.149353 -0.521 177 132 129
0.444523 -0.15222 -0.531 155 104 100
0.133509 -0.136206 -0.472 198 153 147
0.1392 -0.133897 -0.464 206 157 152
0.158684 -0.131011 -0.454 201 146 139
0.161278 -0.131011 -0.454 197 144 136
0.162143 -0.131011 -0.454 189 136 128
0.163511 -0.130723 -0.453 190 137 129
0.17176 -0.130434 -0.452 195 141 131
0.185984 -0.130146 -0.451 190 136 126
0.258183 -0.141977 -0.492 98 70 67
0.268746 -0.145151 -0.503 58 38 39
0.277887 -0.14746 -0.511 70 50 52
0.311792 -0.146017 -0.506 122 95 102
0.319833 -0.145729 -0.505 236 217 223
0.32496 -0.14544 -0.504 118 96 99
0.337057 -0.144863 -0.502 121 94 99
0.472623 -0.178337 -0.618 70 55 60
0.471134 -0.176894 -0.613 70 53 61
0.412123 -0.149191 -0.517 195 137 133
0.419189 -0.148903 -0.516 148 95 91
0.420986 -0.149191 -0.517 142 89 85
0.43633 -0.151789 -0.526 126 78 76
0.132474 -0.138848 -0.478 209 159 158
0.14036 -0.1342 -0.462 203 152 148
0.142381 -0.133619 -0.46 204 153 149
0.149829 -0.132457 -0.456 188 138 131
0.1573 -0.132167 -0.455 203 150 142
0.167826 -0.131586 -0.453 183 128 121
0.201 -0.130714 -0.45 166 112 102
0.2375 -0.137976 -0.475 156 109 103
0.243552 -0.138848 -0.478 140 93 85
0.244974 -0.139138 -0.479 134 87 79
0.2562 -0.142333 -0.49 106 73 68
0.26619 -0.145238 -0.5 58 34 32
0.276371 -0.148143 -0.51 67 44 50
0.284555 -0.147852 -0.509 95 70 73
0.29406 -0.147271 -0.507 106 85 84
0.30082 -0.147271 -0.507 115 86 90
0.316948 -0.14669 -0.505 119 99 101
0.318871 -0.14669 -0.505 150 134 137
0.344974 -0.145529 -0.501 115 88 93
0.349746 -0.145529 -0.501 119 90 95
0.360962 -0.145819 -0.502 118 88 96
0.36673 -0.146981 -0.506 90 71 75
0.467157 -0.179224 -0.617 65 50 53
0.409763 -0.150757 -0.519 194 139 134
0.132269 -0.138589 -0.474 207 156 152
0.138316 -0.135665 -0.464 207 158 154
0.141505 -0.134495 -0.46 202 151 147
0.145251 -0.13391 -0.458 200 151 146
0.148091 -0.133326 -0.456 195 147 137
0.156433 -0.133033 -0.455 204 152 141
0.179509 -0.132156 -0.452 184 130 118
0.184266 -0.131864 -0.451 194 139 132
0.19029 -0.131279 -0.449 189 137 126
0.197132 -0.131279 -0.449 175 123 112
0.197988 -0.131279 -0.449 176 124 113
0.201 -0.131571 -0.45 164 112 101
0.205742 -0.131864 -0.451 159 109 98
0.20838 -0.132449 -0.453 152 104 94
0.21861 -0.134495 -0.46 133 90 84
0.230524 -0.137419 -0.47 151 106 100
0.253704 -0.14239 -0.487 107 76 71
0.272814 -0.148237 -0.507 62 40 43
0.278314 -0.149114 -0.51 72 47 51
0.298299 -0.147945 -0.506 116 86 88
0.303118 -0.147945 -0.506 120 91 93
0.306367 -0.147652 -0.505 119 94 97
0.32112 -0.14736 -0.504 127 105 108
0.333523 -0.146483 -0.501 123 97 100
0.341429 -0.14619 -0.5 120 89 95
0.351905 -0.14619 -0.5 119 90 94
0.354762 -0.14619 -0.5 121 94 101
0.411326 -0.150869 -0.516 193 140 136
0.420001 -0.151161 -0.517 142 93 86
0.13948 -0.13596 -0.462 207 158 153
0.142634 -0.134783 -0.458 201 152 147
0.159549 -0.133606 -0.454 197 142 135
0.162649 -0.133311 -0.453 188 133 126
0.176065 -0.133017 -0.452 192 137 130
0.185571 -0.132429 -0.45 194 139 132
0.197988 -0.132134 -0.449 172 119 111
0.200143 -0.132429 -0.45 169 116 108
0.212767 -0.1339 -0.455 144 97 91
0.237 -0.139491 -0.474 152 105 97
0.272814 -0.149203 -0.507 64 39 42
0.285525 -0.149791 -0.509 95 69 72
0.29077 -0.149497 -0.508 106 77 79
0.295026 -0.149203 -0.507 111 82 84
0.309252 -0.148614 -0.505 117 89 88
0.323357 -0.148026 -0.503 122 95 100
0.326539 -0.147731 -0.502 120 93 98
0.332569 -0.147437 -0.501 124 95 99
0.333523 -0.147437 -0.501 124 93 98
0.35 -0.147143 -0.5 123 94 98
0.355714 -0.147143 -0.5 122 92 92
0.360962 -0.147731 -0.502 123 88 92
0.36336 -0.14832 -0.504 111 84 89
0.431676 -0.154206 -0.524 120 75 72
0.437159 -0.155089 -0.527 131 81 82
0.138018 -0.137136 -0.463 205 156 152
0.145486 -0.135063 -0.456 195 144 140
0.146354 -0.135063 -0.456 195 144 140
0.152967 -0.134767 -0.455 197 144 136
0.160923 -0.134174 -0.453 197 142 135
0.191573 -0.132693 -0.448 182 127 120
0.192427 -0.132693 -0.448 183 128 121
0.200143 -0.133286 -0.45 168 115 107
0.202714 -0.133286 -0.45 170 117 109
0.225011 -0.138025 -0.466 106 65 61
0.244974 -0.141875 -0.479 127 86 84
0.258708 -0.146022 -0.493 78 56 58
0.264708 -0.147799 -0.499 55 36 38
0.268746 -0.148984 -0.503 58 38 40
0.289802 -0.150465 -0.508 105 76 78
0.29077 -0.150465 -0.508 106 77 79
0.293672 -0.150465 -0.508 108 79 81
0.297335 -0.149872 -0.506 114 85 87
0.298299 -0.149872 -0.506 115 86 88
0.304082 -0.149872 -0.506 120 94 97
0.3144 -0.14928 -0.504 138 113 119
0.332857 -0.148095 -0.5 124 93 98
0.33381 -0.148095 -0.5 124 93 98
0.342647 -0.147799 -0.499 127 97 99
0.345498 -0.147799 -0.499 122 93 97
0.351201 -0.147799 -0.499 124 93 98
0.352151 -0.147799 -0.499 123 95 92
0.36336 -0.14928 -0.504 98 73 77
0.4633 -0.182157 -0.615 62 47 54
0.466737 -0.183046 -0.618 64 49 56
0.475682 -0.18423 -0.622 76 59 67
0.417059 -0.158758 -0.536 145 113 116
0.429856 -0.154908 -0.523 115 72 66
0.450258 -0.15787 -0.533 163 105 104
0.45212 -0.158166 -0.534 162 104 103
-0.134333 -0.193762 -0.65 197 194 189
0.139449 -0.136826 -0.459 205 154 151
0.140323 -0.136826 -0.459 206 155 152
0.16315 -0.134739 -0.452 190 135 128
0.167944 -0.134441 -0.451 193 138 131
0.182548 -0.134441 -0.451 191 136 129
0.18687 -0.133845 -0.449 195 140 133
0.18858 -0.133845 -0.449 192 137 130
0.21057 -0.135335 -0.454 144 95 88
0.227273 -0.13921 -0.467 122 78 75
0.231419 -0.140105 -0.47 161 114 108
0.271312 -0.150836 -0.506 61 41 43
0.299263 -0.150836 -0.506 118 89 91
0.30119 -0.150836 -0.506 119 90 92
0.304082 -0.150836 -0.506 120 94 95
0.3096 -0.15024 -0.504 121 92 94
0.3192 -0.15024 -0.504 123 101 104
0.407786 -0.154711 -0.519 190 143 137
0.132984 -0.1401 -0.467 206 157 152
0.135372 -0.1389 -0.463 203 154 150
0.158684 -0.1362 -0.454 194 142 129
0.165733 -0.1356 -0.452 189 134 127
0.187307 -0.1344 -0.448 191 136 129
0.20838 -0.1359 -0.453 147 99 89
0.244463 -0.1434 -0.478 123 83 83
0.27486 -0.1527 -0.509 65 43 46
0.279708 -0.1527 -0.509 82 55 60
0.29077 -0.1524 -0.508 103 77 78
0.292129 -0.1521 -0.507 106 80 81
0.295408 -0.1518 -0.506 113 84 86
0.30768 -0.1512 -0.504 123 95 94
0.320483 -0.1509 -0.503 121 92 96
0.329706 -0.1503 -0.501 125 94 99
0.424419 -0.156 -0.52 129 86 79
0.426228 -0.1563 -0.521 125 82 75
0.447557 -0.1593 -0.531 164 106 105
0.449413 -0.1596 -0.532 163 105 104
-0.137623 -0.195634 -0.648 194 194 186
0.133897 -0.140084 -0.464 205 154 150
0.146354 -0.137669 -0.456 199 149 140
0.151233 -0.137367 -0.455 199 149 138
0.1547 -0.137367 -0.455 199 150 136
0.155225 -0.137065 -0.454 199 150 136
0.167944 -0.136159 -0.451 193 138 131
0.170521 -0.136159 -0.451 193 138 131
0.17997 -0.136159 -0.451 184 129 122
0.184714 -0.135857 -0.45 183 128 121
0.197132 -0.135555 -0.449 176 121 114
0.219085 -0.139178 -0.461 122 79 72
0.226787 -0.140688 -0.466 130 86 83
0.228163 -0.14099 -0.467 142 98 95
0.232809 -0.142197 -0.471 153 106 100
0.2464 -0.144914 -0.48 126 82 81
0.267788 -0.151858 -0.503 56 35 40
0.269814 -0.152462 -0.505 59 38 43
0.271849 -0.153066 -0.507 63 42 47
0.281647 -0.15367 -0.509 85 58 63
0.283996 -0.153368 -0.508 95 68 73
0.302519 -0.152462 -0.505 121 92 94
0.317609 -0.151858 -0.503 121 94 101
0.332857 -0.150952 -0.5 123 94 96
0.338845 -0.15065 -0.499 122 92 94
0.339795 -0.15065 -0.499 122 92 94
0.342647 -0.15065 -0.499 125 95 97
0.355714 -0.150952 -0.5 123 92 97
0.407786 -0.156689 -0.519 194 147 141
0.422614 -0.156689 -0.519 138 87 83
0.436155 -0.159104 -0.527 127 83 80
0.457729 -0.162123 -0.537 143 95 93
0.131811 -0.141575 -0.466 204 154 145
0.13449 -0.140664 -0.463 205 154 150
0.155225 -0.13793 -0.454 200 150 139
0.18816 -0.136107 -0.448 181 126 119
0.189867 -0.136107 -0.448 176 121 114
0.195422 -0.13641 -0.449 172 119 111
0.225414 -0.141271 -0.465 116 75 71
0.232314 -0.14279 -0.47 149 102 96
0.259757 -0.150386 -0.495 61 36 40
0.295408 -0.153728 -0.506 113 84 86
0.296748 -0.153424 -0.505 115 86 88
0.30864 -0.15312 -0.504 117 91 92
0.327143 -0.151905 -0.5 123 94 98
0.341696 -0.151601 -0.499 122 92 94
0.371549 -0.156158 -0.514 42 31 37
0.4325 -0.1595 -0.525 125 81 78
0.438994 -0.160411 -0.528 131 86 81
0.449413 -0.161627 -0.532 164 106 105
-0.144581 -0.197491 -0.646 188 189 183
-0.14335 -0.197491 -0.646 190 191 183
-0.14212 -0.197491 -0.646 191 192 184
0.138272 -0.140017 -0.458 207 157 150
0.143433 -0.1391 -0.455 196 146 137
0.146033 -0.1391 -0.455 193 145 135
0.15436 -0.138794 -0.454 200 150 141
0.165367 -0.137877 -0.451 192 137 130
0.1856 -0.13696 -0.448 182 127 120
0.197132 -0.137266 -0.449 167 112 105
0.201447 -0.137877 -0.451 166 113 105
0.203615 -0.138183 -0.452 157 107 98
0.231419 -0.143686 -0.47 143 98 93
0.235101 -0.144297 -0.472 138 90 86
0.248345 -0.147354 -0.482 127 83 82
0.26228 -0.152246 -0.498 59 34 38
0.263229 -0.152246 -0.498 59 34 38
0.26832 -0.15408 -0.504 57 36 41
0.277343 -0.155914 -0.51 76 49 54
0.283996 -0.155303 -0.508 95 68 73
0.289231 -0.154997 -0.507 105 76 78
0.290197 -0.154997 -0.507 106 77 79
0.30576 -0.15408 -0.504 121 92 96
0.310902 -0.153774 -0.503 190 171 173
0.323026 -0.153163 -0.501 122 93 97
0.327143 -0.152857 -0.5 123 92 97
0.356426 -0.153163 -0.501 123 91 96
0.47686 -0.193517 -0.633 120 120 148
0.424419 -0.158971 -0.52 141 94 88
0.437159 -0.161111 -0.527 129 81 79
-0.150733 -0.198722 -0.646 189 186 179
-0.138857 -0.199337 -0.648 194 194 186
0.129087 -0.144273 -0.469 202 155 145
0.140274 -0.140274 -0.456 200 152 142
0.150367 -0.139967 -0.455 199 151 141
0.16193 -0.138736 -0.451 191 136 129
0.188591 -0.137506 -0.447 182 125 118
0.189867 -0.137813 -0.448 174 117 110
0.195422 -0.138121 -0.449 160 107 99
0.229543 -0.143966 -0.468 143 98 93
0.238806 -0.145811 -0.474 131 86 83
0.276913 -0.157193 -0.511 74 47 52
0.278738 -0.156578 -0.509 80 55 61
0.282616 -0.156578 -0.509 87 60 65
0.289625 -0.155655 -0.506 107 77 79
0.295786 -0.155348 -0.505 115 85 87
0.30096 -0.15504 -0.504 119 90 94
0.30864 -0.15504 -0.504 120 94 95
0.316021 -0.154425 -0.502 126 93 102
0.32398 -0.154117 -0.501 122 93 97
0.324934 -0.154117 -0.501 124 93 98
0.338845 -0.153502 -0.499 123 91 94
0.424419 -0.159962 -0.52 138 91 85
0.443686 -0.163038 -0.53 149 100 96
0.451273 -0.163961 -0.533 155 101 101
-0.154903 -0.200571 -0.648 184 184 176
-0.147813 -0.199333 -0.644 189 189 181
0.129087 -0.145167 -0.469 207 156 153
0.135077 -0.142071 -0.459 206 162 153
0.1371 -0.141452 -0.457 203 159 148
0.15263 -0.140524 -0.454 203 153 146
0.184747 -0.138667 -0.448 175 121 111
0.186453 -0.138667 -0.448 174 120 110
0.201447 -0.139595 -0.451 159 108 91
0.217733 -0.142381 -0.46 105 64 58
0.23321 -0.145476 -0.47 132 86 86
0.263757 -0.154452 -0.499 56 36 38
0.278738 -0.157548 -0.509 80 55 59
0.2873 -0.156929 -0.507 103 74 79
0.295786 -0.15631 -0.505 113 84 86
0.329048 -0.154762 -0.5 124 92 97
0.343597 -0.154452 -0.499 199 174 178
0.344806 -0.154143 -0.498 217 197 199
0.351201 -0.154452 -0.499 128 92 96
0.40996 -0.160333 -0.518 188 144 135
0.418031 -0.160024 -0.517 153 98 93
0.437159 -0.163119 -0.527 130 82 78
-0.147813 -0.20056 -0.644 189 189 181
-0.146587 -0.20056 -0.644 189 189 181
0.1391 -0.1417 -0.455 201 154 144
0.148633 -0.1417 -0.455 201 153 143
0.157471 -0.141077 -0.453 187 135 124
0.167571 -0.140143 -0.45 187 132 125
0.168429 -0.140143 -0.45 184 130 120
0.1856 -0.13952 -0.448 181 127 117
0.200588 -0.140454 -0.451 152 103 88
0.204476 -0.140766 -0.452 146 98 86
0.207517 -0.141077 -0.453 149 96 90
0.219085 -0.143569 -0.461 88 49 42
0.230927 -0.14606 -0.469 130 85 82
0.24886 -0.15042 -0.483 118 76 77
0.253295 -0.151977 -0.488 102 68 66
0.274429 -0.158829 -0.51 73 44 49
0.294824 -0.157271 -0.505 114 86 85
0.3 -0.15696 -0.504 119 89 91
0.30288 -0.15696 -0.504 122 92 94
0.308028 -0.156649 -0.503 123 94 99
0.31186 -0.156649 -0.503 204 177 182
0.320163 -0.156026 -0.501 121 92 96
0.32619 -0.155714 -0.5 125 93 96
0.33 -0.155714 -0.5 125 93 98
0.337894 -0.155403 -0.499 117 86 91
0.341011 -0.155091 -0.498 118 87 95
0.346703 -0.155091 -0.498 153 128 132
0.347651 -0.155091 -0.498 153 128 132
0.41192 -0.16568 -0.532 148 101 107
0.412123 -0.161009 -0.517 180 123 114
0.424419 -0.161943 -0.52 134 84 83
0.441841 -0.164746 -0.529 146 97 93
-0.145586 -0.2021 -0.645 189 189 181
0.128871 -0.1457 -0.465 204 157 149
0.142567 -0.142567 -0.455 200 152 140
0.155746 -0.14194 -0.453 189 135 123
0.201447 -0.141313 -0.451 153 101 88
0.20884 -0.142253 -0.454 141 90 86
0.22044 -0.14476 -0.462 100 65 59
0.229543 -0.14664 -0.468 128 83 80
0.230927 -0.146953 -0.469 127 82 79
0.276371 -0.1598 -0.51 76 49 54
0.277343 -0.1598 -0.51 80 53 58
0.288661 -0.158547 -0.506 104 75 77
0.291938 -0.158233 -0.505 110 82 81
0.308028 -0.157607 -0.503 125 94 100
0.313152 -0.157293 -0.502 132 101 106
0.316977 -0.157293 -0.502 124 93 98
0.32398 -0.15698 -0.501 124 92 97
0.341011 -0.15604 -0.498 120 90 98
0.407786 -0.16262 -0.519 193 144 139
0.42804 -0.16356 -0.522 130 82 78
0.44 -0.16544 -0.528 139 91 87
0.15402 -0.142803 -0.453 192 140 127
0.157124 -0.142488 -0.452 190 136 124
0.178317 -0.141542 -0.449 182 127 120
0.189013 -0.141227 -0.448 175 121 109
0.192001 -0.141542 -0.449 162 110 97
0.192856 -0.141542 -0.449 160 108 97
0.199729 -0.142172 -0.451 148 98 89
0.204476 -0.142488 -0.452 145 92 88
0.207517 -0.142803 -0.453 140 89 86
0.227273 -0.147216 -0.467 129 81 79
0.243552 -0.150684 -0.478 118 74 73
0.245486 -0.151314 -0.48 119 75 74
0.270883 -0.159826 -0.507 66 39 46
0.282061 -0.160141 -0.508 94 65 70
0.285369 -0.159826 -0.507 99 70 74
0.2952 -0.15888 -0.504 114 86 85
0.302279 -0.158565 -0.503 121 89 92
0.308028 -0.158565 -0.503 122 91 96
0.312196 -0.15825 -0.502 132 100 105
0.3173 -0.157934 -0.501 124 92 97
0.331526 -0.156989 -0.498 125 93 96
0.34196 -0.156989 -0.498 166 136 144
0.344806 -0.156989 -0.498 180 163 169
0.345754 -0.156989 -0.498 219 202 208
0.355471 -0.157934 -0.501 105 82 88
0.408276 -0.165815 -0.526 171 123 119
0.40659 -0.163924 -0.52 191 142 137
0.406797 -0.163609 -0.519 194 144 137
0.41624 -0.162663 -0.516 153 99 87
-0.152483 -0.203923 -0.643 187 187 179
0.129199 -0.146837 -0.463 203 159 148
0.151233 -0.1443 -0.455 200 154 139
0.180028 -0.142397 -0.449 178 124 114
0.207975 -0.143983 -0.454 133 84 80
0.231419 -0.149057 -0.47 123 78 75
0.261331 -0.157937 -0.498 55 35 37
0.264814 -0.158889 -0.501 56 36 38
