ply
format ascii 1.0
comment Created by Open3D
element vertex 1312
property double x
property double y
property double z
property uchar red
property uchar green
property uchar blue
end_header
0.195097 -0.210823 -0.516 197 144 136
0.198046 -0.210823 -0.516 187 135 124
0.372795 -0.264346 -0.647 53 58 78
0.344279 -0.227574 -0.557 110 93 103
0.356553 -0.22594 -0.553 89 83 93
0.4068 -0.220629 -0.54 144 103 107
0.416062 -0.211231 -0.517 160 107 99
0.436454 -0.212049 -0.519 142 98 89
0.442954 -0.213274 -0.522 128 90 81
0.465911 -0.219403 -0.537 123 93 85
-0.0656076 -0.259421 -0.632 65 65 75
-0.0536086 -0.265578 -0.647 68 67 73
0.0861705 -0.214679 -0.523 207 165 149
0.102317 -0.213037 -0.519 197 147 122
0.124813 -0.212627 -0.518 188 140 118
0.140057 -0.211806 -0.516 187 136 117
0.152538 -0.211395 -0.515 191 138 120
0.157137 -0.210985 -0.514 190 137 119
0.161053 -0.210985 -0.514 191 135 120
0.171509 -0.211806 -0.516 171 115 102
0.185 -0.212627 -0.518 188 133 113
0.233706 -0.213858 -0.521 195 141 141
0.364326 -0.253674 -0.618 118 103 106
0.344967 -0.226993 -0.553 106 86 95
0.363 -0.225762 -0.55 47 45 56
0.346767 -0.20729 -0.505 77 70 77
0.4015 -0.2155 -0.525 170 117 109
0.402189 -0.214269 -0.522 170 117 113
0.409763 -0.213037 -0.519 163 110 104
0.414893 -0.212627 -0.518 161 111 104
0.420171 -0.211806 -0.516 160 110 101
0.437443 -0.213037 -0.519 141 97 88
0.084661 -0.216912 -0.526 206 168 149
0.108249 -0.214026 -0.519 187 137 114
0.117146 -0.214026 -0.519 182 131 110
0.130733 -0.213613 -0.518 180 129 108
0.139344 -0.213201 -0.517 184 133 114
0.145671 -0.212376 -0.515 183 131 110
0.167252 -0.212376 -0.515 182 124 112
0.17908 -0.213613 -0.518 184 126 112
0.182391 -0.214026 -0.519 181 125 108
0.218547 -0.213613 -0.518 177 121 120
0.231276 -0.214438 -0.52 189 134 137
0.232267 -0.214438 -0.52 193 139 139
0.349623 -0.211139 -0.512 51 45 55
0.407372 -0.21485 -0.521 165 112 108
0.42312 -0.212789 -0.516 156 106 99
-0.0765629 -0.262243 -0.633 68 68 80
-0.0739171 -0.261414 -0.631 67 67 79
-0.051381 -0.269286 -0.65 69 70 75
0.0841781 -0.216671 -0.523 205 167 146
0.0866667 -0.215429 -0.52 206 170 146
0.0876571 -0.215429 -0.52 204 166 147
0.0962 -0.2146 -0.518 197 152 131
0.105283 -0.215014 -0.519 185 135 112
0.118134 -0.215014 -0.519 179 128 107
0.1211 -0.215014 -0.519 181 130 109
0.12284 -0.2146 -0.518 180 129 108
0.1258 -0.2146 -0.518 178 127 106
0.132707 -0.2146 -0.518 175 127 105
0.137374 -0.214186 -0.517 182 131 110
0.1548 -0.213771 -0.516 180 124 107
0.158731 -0.213771 -0.516 180 124 109
0.19388 -0.2146 -0.518 185 129 114
0.194867 -0.2146 -0.518 184 128 115
0.205323 -0.214186 -0.517 169 112 103
0.206308 -0.214186 -0.517 177 122 115
0.21756 -0.2146 -0.518 169 114 111
0.222923 -0.215014 -0.519 150 94 97
0.245897 -0.218743 -0.528 140 105 109
0.248306 -0.219986 -0.531 255 231 235
0.376492 -0.268043 -0.647 52 56 68
0.352911 -0.244843 -0.591 107 76 84
0.35308 -0.2262 -0.546 114 102 114
0.356819 -0.217086 -0.524 48 42 52
0.352143 -0.211286 -0.51 141 138 145
0.417047 -0.214186 -0.517 150 100 93
0.418206 -0.213771 -0.516 155 105 98
0.428864 -0.214186 -0.517 156 103 97
0.435466 -0.215014 -0.519 148 100 90
-0.285381 -0.270524 -0.65 253 254 249
-0.0845914 -0.265946 -0.639 69 69 79
-0.0581762 -0.26761 -0.643 69 67 78
-0.0536914 -0.269691 -0.648 71 70 78
0.0848486 -0.216835 -0.521 206 168 145
0.0884771 -0.216003 -0.519 199 161 142
0.151161 -0.21517 -0.517 175 122 104
0.164948 -0.21517 -0.517 171 113 101
0.167902 -0.21517 -0.517 168 110 96
0.179771 -0.216419 -0.52 165 109 92
0.206707 -0.215587 -0.518 170 112 108
0.210653 -0.215587 -0.518 157 99 95
0.226759 -0.216835 -0.521 177 120 129
0.240042 -0.218084 -0.524 190 135 140
0.345548 -0.23931 -0.575 129 92 99
0.349714 -0.226408 -0.544 95 75 86
0.35075 -0.226408 -0.544 95 79 90
0.363185 -0.226408 -0.544 43 41 52
0.363953 -0.224327 -0.539 42 42 52
0.402189 -0.217251 -0.522 162 111 108
0.405388 -0.216835 -0.521 154 103 99
0.41292 -0.215587 -0.518 158 105 99
-0.322438 -0.267581 -0.64 218 221 214
-0.0841943 -0.265909 -0.636 68 68 78
-0.0747619 -0.262564 -0.628 68 67 75
-0.0735657 -0.262564 -0.628 68 67 75
-0.05704 -0.269253 -0.644 69 68 76
0.0953971 -0.216991 -0.519 198 152 128
0.109448 -0.21741 -0.52 173 123 100
0.119582 -0.217828 -0.521 175 125 102
0.172506 -0.216991 -0.519 158 102 89
0.194629 -0.21741 -0.52 170 114 97
0.212049 -0.216991 -0.519 161 103 101
0.216419 -0.21741 -0.52 156 98 96
0.220805 -0.217828 -0.521 151 97 97
0.245897 -0.220754 -0.528 130 73 82
0.24737 -0.221172 -0.529 212 155 164
0.348429 -0.226608 -0.542 91 68 78
0.421319 -0.215319 -0.515 159 106 98
0.424262 -0.215319 -0.515 158 108 99
0.437443 -0.216991 -0.519 141 99 87
0.447646 -0.219082 -0.524 131 93 84
0.472314 -0.226608 -0.542 129 90 83
-0.1748 -0.27048 -0.644 188 188 180
-0.0835324 -0.26502 -0.631 70 68 79
-0.0758371 -0.26334 -0.627 67 67 75
0.0808067 -0.22134 -0.527 207 168 153
0.0855114 -0.21798 -0.519 201 165 143
0.112635 -0.21882 -0.521 169 121 99
0.115612 -0.21882 -0.521 172 124 104
0.138437 -0.21882 -0.521 173 117 100
0.150757 -0.21798 -0.519 167 114 100
0.153723 -0.21798 -0.519 165 109 96
0.161943 -0.2184 -0.52 160 106 94
0.165905 -0.2184 -0.52 156 104 93
0.19077 -0.21966 -0.523 164 107 96
0.224641 -0.21966 -0.523 137 82 87
0.236595 -0.21966 -0.523 194 139 142
0.2405 -0.2205 -0.525 186 133 143
0.24196 -0.22092 -0.526 181 128 138
0.344346 -0.24066 -0.573 136 99 106
0.347396 -0.22764 -0.542 86 63 73
0.348429 -0.22764 -0.542 91 68 78
0.361182 -0.22722 -0.541 45 37 52
0.366962 -0.2226 -0.53 167 165 179
0.405388 -0.21882 -0.521 157 106 102
0.41292 -0.21756 -0.518 150 97 89
0.430833 -0.21714 -0.517 146 99 89
0.462291 -0.22428 -0.534 129 90 83
-0.177667 -0.274238 -0.65 191 192 184
-0.165243 -0.272129 -0.645 195 193 181
0.08436 -0.218547 -0.518 207 165 149
0.0993514 -0.218969 -0.519 182 134 112
0.103306 -0.218969 -0.519 179 128 107
0.11484 -0.220234 -0.522 169 118 99
0.12303 -0.220656 -0.523 168 117 98
0.1563 -0.219812 -0.521 157 103 91
0.1945 -0.2215 -0.525 156 99 90
0.198122 -0.221078 -0.524 165 106 98
0.223074 -0.221078 -0.524 139 84 89
0.232943 -0.221922 -0.526 171 115 128
0.34625 -0.243861 -0.578 143 107 111
0.363629 -0.225297 -0.534 45 44 50
0.434627 -0.218547 -0.518 151 103 93
0.455948 -0.223188 -0.529 122 88 78
0.458683 -0.224031 -0.531 126 90 78
-0.163038 -0.273781 -0.646 197 194 185
-0.0828705 -0.265305 -0.626 70 69 77
-0.0803571 -0.264881 -0.625 68 68 76
-0.0692191 -0.267848 -0.632 67 67 75
0.153323 -0.220805 -0.521 155 101 91
0.162877 -0.221652 -0.523 149 96 88
0.201264 -0.223348 -0.527 146 91 86
0.231817 -0.223771 -0.528 164 108 121
0.238405 -0.223348 -0.527 184 127 136
0.341202 -0.229705 -0.542 108 77 82
0.345086 -0.228857 -0.54 76 47 51
0.371443 -0.226738 -0.535 148 147 161
-0.16376 -0.27416 -0.644 197 194 185
-0.162058 -0.275437 -0.647 198 195 186
-0.0967629 -0.272031 -0.639 74 73 81
-0.0922371 -0.269477 -0.633 70 70 78
-0.08792 -0.267349 -0.628 64 67 72
-0.0814171 -0.265646 -0.624 68 68 76
-0.0582667 -0.27416 -0.644 69 68 76
-0.054841 -0.275437 -0.647 70 68 79
0.0912667 -0.22052 -0.518 192 144 121
0.0953971 -0.220946 -0.519 185 135 112
0.105486 -0.221371 -0.52 166 113 97
0.114064 -0.222649 -0.523 156 103 87
0.1335 -0.2235 -0.525 165 112 98
0.141957 -0.222649 -0.523 162 109 95
0.147934 -0.222649 -0.523 157 105 94
0.156202 -0.223074 -0.524 147 97 88
0.1605 -0.2235 -0.525 144 94 85
0.1625 -0.2235 -0.525 146 96 87
0.167819 -0.223926 -0.526 137 87 80
0.194053 -0.22648 -0.532 144 94 83
0.213111 -0.225203 -0.529 139 86 82
0.217142 -0.225203 -0.529 138 87 84
0.22218 -0.225203 -0.529 136 85 82
0.227648 -0.225629 -0.53 125 75 74
0.335762 -0.234143 -0.55 136 91 98
0.33728 -0.231589 -0.544 145 104 110
0.339542 -0.230311 -0.541 128 89 94
0.353397 -0.228609 -0.537 94 77 87
0.367717 -0.228609 -0.537 45 44 52
0.396223 -0.222223 -0.522 164 113 109
0.437443 -0.220946 -0.519 153 100 94
-0.332127 -0.27667 -0.647 251 252 247
-0.322942 -0.274104 -0.641 253 254 248
-0.157857 -0.277952 -0.65 198 195 186
-0.0814171 -0.266834 -0.624 68 68 76
-0.07904 -0.266834 -0.624 69 69 77
-0.0726 -0.2694 -0.63 68 69 74
-0.0650152 -0.272821 -0.638 68 67 75
-0.0513019 -0.277525 -0.649 72 71 79
0.0788943 -0.22279 -0.521 209 167 153
0.109869 -0.223217 -0.522 153 100 84
0.119728 -0.224928 -0.526 155 102 86
0.12397 -0.225355 -0.527 158 107 90
0.126741 -0.224928 -0.526 163 110 94
0.1465 -0.2245 -0.525 151 101 90
0.149215 -0.224072 -0.524 148 100 88
0.169784 -0.22621 -0.529 128 81 73
0.18325 -0.227921 -0.533 132 87 82
0.205338 -0.228776 -0.535 130 81 74
0.217769 -0.227921 -0.533 134 85 81
0.219387 -0.227493 -0.532 134 83 80
0.378427 -0.275387 -0.644 66 60 72
0.3367 -0.237329 -0.555 137 90 100
0.337243 -0.234763 -0.549 132 89 98
0.33666 -0.232197 -0.543 144 101 110
0.338105 -0.23177 -0.542 137 94 101
0.371829 -0.230914 -0.54 49 49 61
0.393995 -0.225355 -0.527 169 116 110
0.398211 -0.223217 -0.522 163 112 108
0.403619 -0.222362 -0.52 154 104 97
0.427879 -0.221079 -0.517 147 97 88
0.432653 -0.221507 -0.518 154 101 93
0.456955 -0.22621 -0.529 125 88 79
0.470571 -0.230914 -0.54 130 93 85
-0.1664 -0.274895 -0.64 197 197 189
-0.161557 -0.277043 -0.645 200 197 188
-0.108167 -0.278761 -0.649 175 172 163
-0.0802286 -0.268023 -0.624 69 69 77
-0.0738 -0.2706 -0.63 70 71 76
-0.0594933 -0.276613 -0.644 68 67 73
-0.0582667 -0.276613 -0.644 68 67 73
0.133257 -0.226789 -0.528 158 106 92
0.159708 -0.227218 -0.529 139 95 86
0.20558 -0.232372 -0.541 139 94 89
0.221449 -0.230654 -0.537 132 82 81
0.38019 -0.277902 -0.647 64 56 67
0.351423 -0.229366 -0.534 65 53 57
0.395464 -0.223782 -0.521 161 112 108
0.402629 -0.223352 -0.52 153 103 96
0.403619 -0.223352 -0.52 154 104 97
0.40461 -0.223352 -0.52 154 104 97
0.407581 -0.223352 -0.52 154 104 95
-0.314395 -0.276546 -0.641 252 253 247
-0.173952 -0.280429 -0.65 246 247 242
-0.162997 -0.276546 -0.641 199 197 185
-0.1075 -0.278271 -0.645 82 82 82
-0.102688 -0.275251 -0.638 77 77 85
-0.0823409 -0.268349 -0.622 70 70 78
-0.07174 -0.273094 -0.633 66 69 74
-0.054841 -0.279134 -0.647 69 69 79
0.104696 -0.224774 -0.521 161 110 93
0.124676 -0.228657 -0.53 148 99 85
0.128471 -0.228226 -0.529 150 101 87
0.140563 -0.228226 -0.529 145 99 86
0.145326 -0.227794 -0.528 145 97 87
0.149631 -0.228226 -0.529 140 93 85
0.16732 -0.230383 -0.534 127 84 78
0.208902 -0.235991 -0.547 129 91 88
0.209944 -0.235991 -0.547 127 89 86
0.224543 -0.233834 -0.542 128 82 84
0.252982 -0.233403 -0.541 195 160 166
0.346849 -0.249797 -0.579 139 96 105
0.337886 -0.232971 -0.54 144 98 108
0.339467 -0.231246 -0.536 146 100 110
0.339852 -0.230814 -0.535 144 98 108
0.3572 -0.22952 -0.532 40 29 37
0.369771 -0.232971 -0.54 48 45 54
0.394234 -0.225206 -0.522 161 110 107
0.40659 -0.224343 -0.52 153 103 96
0.416062 -0.223049 -0.517 157 104 96
0.42394 -0.223049 -0.517 153 103 94
0.42591 -0.223049 -0.517 155 105 96
0.441257 -0.224343 -0.52 146 97 90
-0.311217 -0.2782 -0.642 250 251 245
-0.302373 -0.279067 -0.644 250 251 246
-0.301147 -0.279067 -0.644 251 251 249
-0.29716 -0.279933 -0.646 254 255 251
-0.170157 -0.2795 -0.645 240 240 238
-0.0894495 -0.269533 -0.622 72 73 78
-0.0791667 -0.270833 -0.625 67 70 77
-0.078101 -0.271267 -0.626 69 69 77
-0.0739171 -0.273433 -0.631 66 69 76
-0.0729457 -0.2743 -0.633 66 69 76
-0.0718533 -0.274733 -0.634 66 69 76
-0.0559867 -0.279933 -0.646 70 70 80
0.0753514 -0.2301 -0.531 207 169 158
0.0851819 -0.224033 -0.517 197 152 131
0.0922533 -0.224467 -0.518 179 134 105
0.0963857 -0.2249 -0.519 170 120 93
0.101719 -0.225767 -0.521 162 109 95
0.161217 -0.2314 -0.534 134 89 83
0.238403 -0.2353 -0.543 137 88 94
0.344231 -0.247433 -0.571 137 92 99
0.337886 -0.234 -0.54 146 101 108
0.38081 -0.238333 -0.55 152 151 165
0.39072 -0.2288 -0.528 149 101 99
0.407786 -0.2249 -0.519 152 102 93
0.416062 -0.224033 -0.517 157 104 96
0.424925 -0.224033 -0.517 155 105 96
0.436454 -0.2249 -0.519 153 103 94
0.448784 -0.226633 -0.523 134 94 86
0.459694 -0.2301 -0.531 123 81 69
-0.324957 -0.280729 -0.645 252 253 247
-0.323227 -0.280293 -0.644 252 253 247
-0.302373 -0.280293 -0.644 250 251 246
-0.146489 -0.28247 -0.649 223 220 205
-0.12319 -0.282905 -0.65 249 249 241
-0.111369 -0.278117 -0.639 75 74 79
-0.109807 -0.277247 -0.637 75 74 80
-0.075119 -0.274635 -0.631 67 70 77
0.104897 -0.227194 -0.522 158 107 90
0.106094 -0.22763 -0.523 155 104 87
0.127651 -0.232417 -0.534 153 100 86
0.13858 -0.231982 -0.533 144 97 89
0.148732 -0.231982 -0.533 139 95 86
0.149748 -0.231982 -0.533 137 94 85
0.150763 -0.231982 -0.533 135 92 83
0.157443 -0.232852 -0.535 138 93 88
0.255095 -0.239381 -0.55 143 101 113
0.339334 -0.238946 -0.549 145 100 105
0.341628 -0.231982 -0.533 140 95 98
0.34338 -0.231111 -0.531 133 91 93
0.359895 -0.230676 -0.53 49 33 44
0.396686 -0.226324 -0.52 157 104 100
0.41292 -0.225453 -0.518 156 104 93
0.420001 -0.225018 -0.517 156 106 97
0.42394 -0.225018 -0.517 152 104 94
-0.153469 -0.280646 -0.642 198 198 188
-0.145811 -0.282394 -0.646 221 219 204
-0.127749 -0.283269 -0.648 238 238 230
-0.119414 -0.281083 -0.643 184 183 178
-0.111881 -0.277586 -0.635 74 73 81
-0.0950667 -0.271029 -0.62 74 75 80
-0.0938857 -0.271029 -0.62 73 74 79
-0.0772771 -0.274963 -0.629 70 70 78
-0.0617543 -0.280646 -0.642 65 65 73
-0.0571286 -0.281957 -0.645 71 71 81
0.11071 -0.229937 -0.526 141 89 75
0.118843 -0.232123 -0.531 135 86 71
0.125852 -0.233871 -0.535 144 95 80
0.136297 -0.234309 -0.536 144 98 85
0.143176 -0.233871 -0.535 143 95 83
0.155986 -0.234746 -0.537 130 87 80
0.17108 -0.23868 -0.546 124 87 81
0.176203 -0.239991 -0.549 118 85 80
0.2405 -0.242614 -0.555 117 77 78
0.251524 -0.243051 -0.556 136 88 104
0.25484 -0.242177 -0.554 131 91 102
0.340987 -0.23256 -0.532 144 97 103
0.344752 -0.231686 -0.53 123 84 85
0.352839 -0.230374 -0.527 47 28 24
0.372167 -0.23562 -0.539 150 146 160
0.389263 -0.228189 -0.522 151 103 101
0.393714 -0.227314 -0.52 157 106 102
0.397676 -0.227314 -0.52 156 105 101
0.401854 -0.226877 -0.519 158 105 97
0.408973 -0.22644 -0.518 148 98 87
0.411933 -0.22644 -0.518 158 108 97
0.415257 -0.225566 -0.516 153 103 92
0.458829 -0.231686 -0.53 128 88 78
-0.309994 -0.281869 -0.642 252 253 247
-0.144133 -0.282747 -0.644 226 224 212
-0.130843 -0.283186 -0.645 237 236 231
-0.12696 -0.282747 -0.644 223 222 218
-0.08694 -0.272649 -0.621 73 74 79
-0.0536086 -0.284064 -0.647 72 70 81
0.102909 -0.229183 -0.522 151 99 85
0.106297 -0.230061 -0.524 149 97 83
0.11559 -0.232695 -0.53 133 84 69
0.119067 -0.233573 -0.532 133 84 69
0.13783 -0.236208 -0.538 142 96 83
0.153487 -0.236647 -0.539 138 95 89
0.34614 -0.24894 -0.567 137 94 101
0.342087 -0.232256 -0.529 130 86 87
0.400866 -0.227866 -0.519 158 105 99
0.429693 -0.227427 -0.518 152 104 94
0.460706 -0.233134 -0.531 131 91 81
1.1342 -0.284942 -0.649 201 205 190
-0.304543 -0.284855 -0.646 253 254 249
-0.159052 -0.280005 -0.635 244 244 242
-0.155179 -0.279564 -0.634 247 247 245
-0.110119 -0.275595 -0.625 74 74 84
-0.0784752 -0.277359 -0.629 72 73 78
-0.0774 -0.2778 -0.63 72 73 78
0.0987419 -0.229736 -0.521 161 111 88
0.128057 -0.238114 -0.54 136 93 77
0.154626 -0.239437 -0.543 140 95 90
0.15964 -0.24076 -0.546 126 88 87
0.177917 -0.247374 -0.561 122 93 97
0.383929 -0.284414 -0.645 122 101 108
0.343094 -0.233264 -0.529 127 82 85
0.343451 -0.232823 -0.528 128 83 86
0.3855 -0.2315 -0.525 145 101 98
0.389752 -0.229295 -0.52 161 112 108
0.393946 -0.228854 -0.519 153 102 98
0.407 -0.228413 -0.518 157 104 96
0.40996 -0.228413 -0.518 154 101 93
-0.311176 -0.286529 -0.647 251 251 249
-0.161019 -0.282543 -0.638 216 216 216
-0.132651 -0.281657 -0.636 191 191 191
-0.128611 -0.280771 -0.634 116 116 118
-0.124397 -0.279443 -0.631 72 72 74
-0.106531 -0.273686 -0.618 69 69 77
-0.0830029 -0.277671 -0.627 73 72 80
-0.0741514 -0.280329 -0.633 69 69 77
-0.0606257 -0.284757 -0.643 68 68 78
0.118275 -0.236043 -0.533 127 81 68
0.120983 -0.237371 -0.536 126 80 67
0.122231 -0.237814 -0.537 128 82 69
0.13988 -0.2418 -0.546 139 95 86
0.14092 -0.2418 -0.546 137 94 85
0.145346 -0.242243 -0.547 145 98 90
0.151597 -0.242243 -0.547 143 98 93
0.170283 -0.246671 -0.557 129 91 90
0.340714 -0.234714 -0.53 135 90 93
0.341079 -0.234271 -0.529 133 88 91
0.393319 -0.242243 -0.547 127 95 98
0.385286 -0.231171 -0.522 151 103 103
0.406013 -0.2294 -0.518 157 107 100
0.42591 -0.228957 -0.517 154 104 95
0.471753 -0.2387 -0.539 134 94 82
1.13348 -0.287857 -0.65 203 205 191
-0.309666 -0.28865 -0.649 252 252 250
-0.30519 -0.289095 -0.65 252 252 250
-0.14867 -0.28109 -0.632 218 218 220
-0.106014 -0.273529 -0.615 68 69 73
-0.0959371 -0.274863 -0.618 75 74 82
-0.0831352 -0.27931 -0.628 73 72 80
-0.0764419 -0.28109 -0.632 68 71 78
-0.0583571 -0.286871 -0.645 123 121 132
-0.0536086 -0.287761 -0.647 90 88 99
0.13413 -0.24373 -0.548 138 95 86
0.141952 -0.244619 -0.55 137 94 87
0.14431 -0.245064 -0.551 139 96 89
0.154313 -0.245953 -0.553 136 95 91
0.351078 -0.252625 -0.568 138 95 102
0.34716 -0.233945 -0.526 129 87 89
0.3495 -0.2335 -0.525 133 91 93
0.360185 -0.233945 -0.526 113 88 91
0.361187 -0.233945 -0.526 116 91 94
0.454364 -0.233945 -0.526 128 88 78
1.131 -0.289095 -0.65 203 205 191
-0.160305 -0.285867 -0.64 104 104 106
-0.146767 -0.280953 -0.629 134 135 140
-0.1422 -0.2814 -0.63 114 113 118
-0.140776 -0.280953 -0.629 107 106 111
-0.118111 -0.275593 -0.617 65 65 73
-0.101164 -0.274253 -0.614 74 75 80
-0.0886905 -0.279167 -0.625 75 74 82
-0.0754762 -0.283187 -0.634 73 72 80
-0.06072 -0.287653 -0.644 111 111 121
-0.0583571 -0.2881 -0.645 83 83 95
-0.0501429 -0.290333 -0.65 73 71 82
0.129717 -0.244327 -0.547 131 88 79
0.13746 -0.247007 -0.553 136 96 88
0.145881 -0.248793 -0.557 138 99 94
0.1584 -0.250133 -0.56 132 98 97
0.35278 -0.254153 -0.569 137 94 101
0.353825 -0.234053 -0.524 141 100 104
0.383671 -0.238967 -0.535 133 97 99
0.3815 -0.2345 -0.525 148 106 108
0.382303 -0.23316 -0.522 156 106 109
0.39516 -0.231373 -0.518 158 109 105
0.402275 -0.230927 -0.517 156 107 102
0.414274 -0.23048 -0.516 158 109 102
0.421154 -0.23048 -0.516 151 104 96
0.436454 -0.23182 -0.519 149 102 92
0.451638 -0.234053 -0.524 126 86 76
0.461717 -0.23718 -0.531 127 89 80
1.131 -0.290333 -0.65 204 206 192
-0.155913 -0.28574 -0.637 101 102 104
-0.150839 -0.283049 -0.631 97 96 101
-0.1463 -0.281254 -0.627 91 92 97
-0.130706 -0.278563 -0.621 69 68 74
-0.0969571 -0.276769 -0.617 75 76 81
-0.08764 -0.280806 -0.626 74 74 82
-0.0865857 -0.281254 -0.627 74 74 82
0.0789667 -0.231014 -0.515 199 160 145
0.0840343 -0.231463 -0.516 194 142 121
0.105902 -0.236397 -0.527 136 90 77
0.124861 -0.244023 -0.544 123 76 66
0.343805 -0.236397 -0.527 126 82 83
0.375746 -0.238191 -0.531 134 95 98
0.380376 -0.237294 -0.529 131 91 92
0.380223 -0.235949 -0.526 143 101 103
0.390227 -0.23236 -0.518 160 110 109
0.414274 -0.231463 -0.516 162 114 104
0.42591 -0.231911 -0.517 148 101 93
0.445083 -0.233706 -0.521 133 93 83
0.450776 -0.234603 -0.523 127 87 77
0.481881 -0.245369 -0.547 137 95 81
1.1381 -0.290226 -0.647 203 205 191
1.13881 -0.289777 -0.646 203 205 191
1.13773 -0.28888 -0.644 202 204 190
-0.122983 -0.275691 -0.612 64 63 71
-0.10944 -0.27389 -0.608 67 66 74
-0.0960924 -0.278845 -0.619 75 75 83
-0.0928543 -0.279746 -0.621 75 75 83
-0.0654229 -0.289206 -0.642 70 70 78
-0.0595857 -0.290557 -0.645 104 104 114
-0.0560733 -0.291458 -0.647 115 115 125
0.086 -0.232446 -0.516 182 134 111
0.347073 -0.249113 -0.553 136 95 101
0.349832 -0.23605 -0.524 138 93 96
0.3696 -0.237851 -0.528 144 97 103
0.371611 -0.237851 -0.528 138 91 97
0.383071 -0.233797 -0.519 155 109 109
0.390227 -0.233347 -0.518 159 110 106
0.394397 -0.232896 -0.517 159 108 104
0.396367 -0.232896 -0.517 161 110 106
0.40936 -0.232446 -0.516 162 114 102
0.417223 -0.232446 -0.516 159 110 103
0.420171 -0.232446 -0.516 150 101 94
0.459978 -0.238302 -0.529 127 89 80
0.481 -0.24596 -0.546 136 94 80
1.13369 -0.291909 -0.648 204 206 192
-0.158116 -0.292238 -0.646 116 118 117
-0.14418 -0.281833 -0.623 99 100 105
-0.127229 -0.275952 -0.61 64 63 69
-0.112171 -0.273238 -0.604 60 60 68
-0.110234 -0.274143 -0.606 63 63 71
-0.09078 -0.281833 -0.623 74 75 80
-0.089881 -0.282738 -0.625 75 76 81
-0.0844657 -0.284548 -0.629 74 73 79
0.0698048 -0.242024 -0.535 207 170 164
0.073081 -0.232976 -0.515 204 170 160
0.0819095 -0.232976 -0.515 193 148 127
0.0840343 -0.233429 -0.516 190 142 120
0.086 -0.233429 -0.516 184 136 113
0.0912667 -0.234333 -0.518 174 123 102
0.1188 -0.244286 -0.54 122 82 72
0.125779 -0.247905 -0.548 119 76 67
0.127286 -0.24881 -0.55 110 73 64
0.141189 -0.256952 -0.568 121 93 92
0.342733 -0.239762 -0.53 131 81 90
0.352827 -0.237048 -0.524 136 96 96
0.377058 -0.236595 -0.523 146 104 106
0.388253 -0.234333 -0.518 155 107 105
0.398336 -0.233881 -0.517 161 110 107
0.408377 -0.233429 -0.516 166 115 111
0.420171 -0.233429 -0.516 150 101 94
0.421154 -0.233429 -0.516 150 101 94
0.431667 -0.234333 -0.518 155 105 96
1.13369 -0.293143 -0.648 204 206 192
1.13493 -0.293143 -0.648 203 205 191
-0.0941886 -0.282566 -0.622 74 75 80
-0.0723067 -0.289834 -0.638 72 71 79
-0.0699857 -0.290289 -0.639 73 72 80
-0.0550105 -0.294831 -0.649 72 72 82
0.0809286 -0.233957 -0.515 197 150 130
0.0869829 -0.234411 -0.516 187 135 114
0.099121 -0.237591 -0.523 142 96 81
0.12798 -0.25122 -0.553 114 79 75
0.134106 -0.254854 -0.561 117 84 77
0.345167 -0.247586 -0.545 138 93 98
0.376337 -0.237137 -0.522 147 103 104
0.400514 -0.234411 -0.516 164 113 109
0.408567 -0.233957 -0.515 161 111 104
0.410529 -0.233957 -0.515 160 110 103
0.414452 -0.233957 -0.515 160 111 104
0.446075 -0.236683 -0.521 136 93 84
0.44892 -0.237137 -0.522 136 93 84
1.13564 -0.293923 -0.647 203 205 191
-0.130071 -0.276908 -0.607 78 79 84
-0.125769 -0.275083 -0.603 80 81 86
-0.116 -0.273714 -0.6 53 53 61
-0.07462 -0.290593 -0.637 73 72 80
-0.0573943 -0.295611 -0.648 71 71 79
-0.052619 -0.296524 -0.65 75 75 85
0.0993105 -0.239044 -0.524 136 93 77
0.122424 -0.249536 -0.547 113 80 73
0.123917 -0.250449 -0.549 111 78 71
0.34918 -0.252273 -0.553 136 91 96
0.343169 -0.244974 -0.537 138 93 100
0.3515 -0.2395 -0.525 142 96 96
0.367389 -0.238131 -0.522 144 103 101
0.408567 -0.234938 -0.515 160 110 101
0.413471 -0.234938 -0.515 158 109 102
0.424925 -0.23585 -0.517 149 101 91
-0.140169 -0.284477 -0.621 86 87 91
-0.136471 -0.281729 -0.615 73 74 79
-0.11903 -0.273941 -0.598 58 58 66
-0.116752 -0.273941 -0.598 60 61 66
-0.087 -0.2886 -0.63 74 74 82
-0.0847343 -0.289058 -0.631 73 72 78
0.0692914 -0.236377 -0.516 206 169 161
0.0869829 -0.236377 -0.516 181 133 111
0.0914429 -0.237751 -0.519 168 121 101
0.0971286 -0.239584 -0.523 143 100 83
0.105694 -0.243249 -0.531 124 87 78
0.109548 -0.245081 -0.535 122 85 76
0.122871 -0.251494 -0.549 112 81 76
0.3525 -0.2405 -0.525 142 96 96
0.400719 -0.235919 -0.515 162 112 103
0.415433 -0.235919 -0.515 156 108 98
0.416414 -0.235919 -0.515 154 106 96
0.417395 -0.235919 -0.515 152 104 94
0.432653 -0.237293 -0.518 153 103 92
0.450909 -0.239126 -0.522 133 90 83
0.465627 -0.243707 -0.532 131 92 85
1.13704 -0.295471 -0.645 203 206 189
-0.124934 -0.27554 -0.599 58 58 66
-0.103671 -0.2829 -0.615 65 66 71
-0.0999514 -0.28566 -0.621 70 71 76
-0.0792238 -0.2921 -0.635 72 71 77
-0.0666457 -0.29532 -0.642 71 72 77
-0.0631733 -0.29624 -0.644 69 69 77
-0.0538571 -0.299 -0.65 68 68 78
0.086 -0.23736 -0.516 182 134 111
0.0869829 -0.23736 -0.516 179 133 110
0.09028 -0.23828 -0.518 167 122 99
0.105893 -0.24472 -0.532 120 86 77
0.133615 -0.26128 -0.568 102 74 71
0.135409 -0.26266 -0.571 107 79 76
0.348132 -0.24334 -0.529 135 86 89
0.349486 -0.24288 -0.528 136 88 88
0.358815 -0.24104 -0.524 142 96 96
0.367389 -0.24012 -0.522 143 99 98
0.386519 -0.23782 -0.517 156 107 103
0.41169 -0.23644 -0.514 157 109 99
0.412669 -0.23644 -0.514 156 108 98
0.430833 -0.23782 -0.517 155 106 92
0.441397 -0.23874 -0.519 138 96 84
0.450909 -0.24012 -0.522 131 88 81
1.1309 -0.2967 -0.645 203 206 189
-0.105497 -0.282686 -0.612 60 61 66
-0.101988 -0.285919 -0.619 67 66 72
-0.100971 -0.286381 -0.62 67 66 72
-0.0968686 -0.288229 -0.624 72 71 77
-0.0891162 -0.290076 -0.628 75 74 80
-0.0847343 -0.291462 -0.631 73 73 81
-0.0677629 -0.296081 -0.641 70 71 76
-0.0608143 -0.297929 -0.645 69 70 75
0.100883 -0.243424 -0.527 121 85 71
0.116571 -0.251276 -0.544 111 78 71
0.194125 -0.297005 -0.643 194 202 238
0.34914 -0.244348 -0.529 133 84 87
0.351497 -0.243886 -0.528 149 101 99
0.38455 -0.238805 -0.517 159 110 106
0.39091 -0.237881 -0.515 159 110 103
0.398962 -0.237419 -0.514 161 111 104
0.407773 -0.237419 -0.514 158 108 99
0.419357 -0.237881 -0.515 153 103 92
0.442386 -0.239729 -0.519 140 96 83
0.445219 -0.24019 -0.52 139 95 82
0.4565 -0.2425 -0.525 129 91 78
1.13542 -0.296543 -0.642 204 207 188
-0.147497 -0.300549 -0.648 97 101 102
-0.113525 -0.277822 -0.599 63 66 71
-0.0769257 -0.294983 -0.636 70 70 78
-0.0758333 -0.295447 -0.637 72 72 80
0.118256 -0.253704 -0.547 110 80 70
0.126174 -0.25927 -0.559 108 75 66
0.199645 -0.301012 -0.649 187 200 235
0.3654 -0.242109 -0.522 146 98 98
0.372639 -0.241645 -0.521 148 100 98
0.37714 -0.240717 -0.519 155 106 102
0.383565 -0.23979 -0.517 157 108 104
0.389703 -0.239326 -0.516 157 107 100
0.39189 -0.238862 -0.515 158 108 99
0.395814 -0.238862 -0.515 160 110 103
0.437587 -0.240253 -0.518 148 100 86
0.449052 -0.241645 -0.521 131 89 77
1.13352 -0.29823 -0.643 203 205 191
1.1342 -0.297766 -0.642 202 204 190
-0.0992457 -0.290606 -0.624 65 64 72
-0.0758333 -0.29666 -0.637 72 72 80
0.0663429 -0.240309 -0.516 204 169 163
0.0848524 -0.239843 -0.515 184 136 116
0.354178 -0.246363 -0.529 138 94 91
0.364108 -0.243569 -0.523 145 97 97
0.365104 -0.243569 -0.523 145 97 97
0.3661 -0.243569 -0.523 144 96 94
0.441397 -0.241706 -0.519 149 101 87
0.452897 -0.243103 -0.522 130 91 74
0.468532 -0.248226 -0.533 135 89 76
0.47586 -0.25102 -0.539 136 92 79
1.12862 -0.299454 -0.643 204 206 192
1.13229 -0.299454 -0.643 203 205 191
-0.126075 -0.280104 -0.599 120 123 128
-0.118964 -0.27683 -0.592 114 117 122
-0.112384 -0.280104 -0.599 59 62 67
-0.104177 -0.288989 -0.618 60 59 67
-0.09614 -0.293197 -0.627 68 67 73
-0.0906 -0.2946 -0.63 73 72 78
-0.0712029 -0.298809 -0.639 71 71 79
-0.0632714 -0.301614 -0.645 73 72 80
-0.0610029 -0.30255 -0.647 73 72 80
0.0707048 -0.239421 -0.512 203 165 154
0.0869829 -0.241291 -0.516 175 127 107
0.0988752 -0.246435 -0.527 126 90 78
0.101266 -0.24737 -0.529 114 82 71
0.133071 -0.268881 -0.575 85 63 65
0.357531 -0.246903 -0.528 138 94 91
0.359183 -0.245968 -0.526 140 96 93
0.3625 -0.2455 -0.525 142 97 94
0.368383 -0.244097 -0.522 143 95 93
0.402878 -0.240356 -0.514 163 114 100
0.428034 -0.241291 -0.516 157 108 94
0.431818 -0.241759 -0.517 156 108 94
0.434627 -0.242227 -0.518 151 103 89
1.13321 -0.298341 -0.638 200 201 193
1.13265 -0.297873 -0.637 202 203 195
-0.10987 -0.283592 -0.604 63 64 69
-0.107476 -0.28641 -0.61 62 61 69
-0.0817714 -0.298617 -0.636 74 75 80
0.0988752 -0.247439 -0.527 124 90 81
0.141755 -0.278428 -0.593 233 231 236
0.356187 -0.249787 -0.532 134 91 84
0.362189 -0.24697 -0.526 140 95 92
0.367096 -0.245561 -0.523 143 95 91
0.369089 -0.245561 -0.523 143 95 93
0.386754 -0.242274 -0.516 157 107 100
0.392871 -0.241805 -0.515 156 106 97
0.418543 -0.241335 -0.514 154 105 91
0.424262 -0.241805 -0.515 157 108 94
0.432803 -0.242744 -0.517 158 109 94
0.437587 -0.243213 -0.518 151 104 88
0.442386 -0.243683 -0.519 143 97 81
0.46125 -0.247439 -0.527 131 91 79
1.1331 -0.300495 -0.64 197 206 189
-0.113146 -0.281443 -0.597 61 64 69
-0.0863448 -0.298886 -0.634 72 71 76
-0.0840619 -0.299357 -0.635 72 73 78
-0.0783829 -0.300771 -0.638 74 75 80
0.0651067 -0.242314 -0.514 204 170 158
0.0871514 -0.243729 -0.517 171 124 106
0.0892933 -0.2442 -0.518 161 115 99
0.0904543 -0.244671 -0.519 156 110 94
0.0927876 -0.245614 -0.521 149 106 90
0.115341 -0.258343 -0.548 104 75 69
0.358551 -0.250329 -0.531 135 90 87
0.360224 -0.249386 -0.529 139 94 91
0.36319 -0.247971 -0.526 138 90 86
0.376151 -0.244671 -0.519 150 99 95
0.381347 -0.2442 -0.518 155 106 101
0.395046 -0.242314 -0.514 160 108 97
0.424262 -0.242786 -0.515 161 109 96
1.13133 -0.301243 -0.639 199 208 191
1.13199 -0.300771 -0.638 203 207 192
1.13265 -0.3003 -0.637 205 205 193
-0.128066 -0.28542 -0.603 115 119 122
-0.125654 -0.28258 -0.597 115 118 123
-0.122347 -0.280213 -0.592 113 116 121
-0.104514 -0.293467 -0.62 61 60 68
-0.101786 -0.295833 -0.625 60 59 65
-0.0942 -0.2982 -0.63 65 64 69
-0.093 -0.2982 -0.63 66 65 70
-0.0919457 -0.298673 -0.631 68 67 73
-0.0875524 -0.300093 -0.634 71 70 75
-0.0575714 -0.307667 -0.65 70 69 77
0.0815914 -0.24282 -0.513 190 144 128
0.109746 -0.256073 -0.541 106 79 72
0.115762 -0.260333 -0.55 103 74 68
0.130653 -0.271693 -0.574 104 73 71
0.367798 -0.248027 -0.524 144 97 91
0.368092 -0.247553 -0.523 146 97 92
0.381595 -0.244713 -0.517 158 109 104
0.428034 -0.24424 -0.516 162 110 96
0.472329 -0.253233 -0.535 135 93 79
1.13151 -0.300567 -0.635 202 204 193
-0.111429 -0.285143 -0.6 70 71 76
-0.102811 -0.296549 -0.624 59 58 64
-0.0806867 -0.302727 -0.637 72 73 78
0.0676467 -0.242847 -0.511 201 169 158
0.07154 -0.242847 -0.511 201 167 157
0.0754333 -0.242847 -0.511 194 156 143
0.0785067 -0.243322 -0.512 193 151 135
0.0815914 -0.243797 -0.513 188 142 126
0.0881362 -0.245698 -0.517 163 117 101
0.103433 -0.254252 -0.535 112 81 76
0.361914 -0.251876 -0.53 137 92 89
0.3675 -0.2495 -0.525 144 96 92
0.375886 -0.247124 -0.52 154 103 99
0.378129 -0.246649 -0.519 154 105 100
0.38258 -0.245698 -0.517 156 105 101
0.386754 -0.245223 -0.516 157 107 100
0.393852 -0.244748 -0.515 161 108 100
0.395046 -0.244272 -0.514 159 109 98
0.397004 -0.244272 -0.514 156 106 95
0.401117 -0.243797 -0.513 160 110 99
0.402094 -0.243797 -0.513 162 113 99
0.435757 -0.245698 -0.517 158 109 92
0.444363 -0.246649 -0.519 145 97 83
0.456753 -0.24855 -0.523 137 95 83
1.13087 -0.302251 -0.636 203 205 191
-0.114647 -0.282946 -0.593 73 76 85
-0.103833 -0.29726 -0.623 61 60 66
-0.0795981 -0.304417 -0.638 72 71 76
-0.0737524 -0.305371 -0.64 75 74 80
-0.0726467 -0.305849 -0.641 74 73 79
0.0657 -0.24382 -0.511 206 168 157
0.0704286 -0.243343 -0.51 201 167 157
0.07446 -0.24382 -0.511 195 157 144
0.108916 -0.258611 -0.542 106 77 73
0.361182 -0.258134 -0.541 132 88 87
0.379373 -0.24716 -0.518 155 105 98
0.38036 -0.24716 -0.518 156 106 99
0.38455 -0.246683 -0.517 155 105 98
0.397004 -0.245251 -0.514 158 108 97
0.398962 -0.245251 -0.514 160 110 99
0.427205 -0.245729 -0.515 166 115 98
0.456753 -0.249546 -0.523 137 93 80
0.464137 -0.251931 -0.528 134 92 78
1.12525 -0.304894 -0.639 204 206 192
-0.0785057 -0.306111 -0.639 72 71 77
-0.0657286 -0.308986 -0.645 71 70 78
0.0621695 -0.24623 -0.514 199 170 166
0.0996257 -0.254374 -0.531 118 87 84
0.123006 -0.270183 -0.564 97 71 72
0.133353 -0.278327 -0.581 138 113 116
0.364943 -0.253895 -0.53 136 91 88
0.381347 -0.248147 -0.518 152 102 93
0.399163 -0.245751 -0.513 162 110 99
0.402286 -0.245272 -0.512 163 111 100
0.409112 -0.245272 -0.512 169 117 103
0.452152 -0.249105 -0.52 141 95 80
-0.11704 -0.2828 -0.588 97 100 105
-0.102437 -0.302519 -0.629 61 60 68
0.0838714 -0.24769 -0.515 173 127 112
0.367971 -0.254905 -0.53 139 94 91
0.381347 -0.249133 -0.518 152 102 93
0.401117 -0.246729 -0.513 161 109 98
0.402094 -0.246729 -0.513 158 106 95
0.402286 -0.246248 -0.512 159 107 96
0.410088 -0.246248 -0.512 166 114 100
0.413989 -0.246248 -0.512 165 113 99
0.449306 -0.249614 -0.519 147 100 84
-0.125233 -0.2873 -0.595 101 104 109
-0.116117 -0.284403 -0.589 87 90 95
-0.08554 -0.30758 -0.637 70 69 77
-0.0716486 -0.310477 -0.643 74 73 81
0.123224 -0.272814 -0.565 94 64 64
0.128243 -0.276677 -0.573 91 70 79
0.130237 -0.278609 -0.577 105 84 93
0.36874 -0.259294 -0.537 129 88 84
0.3703 -0.255431 -0.529 143 98 93
0.376876 -0.251086 -0.52 157 107 98
0.38455 -0.249637 -0.517 151 101 90
0.386754 -0.249154 -0.516 156 107 93
0.398186 -0.247706 -0.513 160 111 97
0.403261 -0.247223 -0.512 161 112 98
0.41984 -0.247223 -0.512 160 111 94
0.436742 -0.249637 -0.517 159 108 91
0.459623 -0.253017 -0.524 141 95 80
0.475253 -0.258811 -0.536 133 93 81
1.12679 -0.304683 -0.631 204 206 192
1.1262 -0.3042 -0.63 203 205 192
-0.112196 -0.289888 -0.598 87 88 93
-0.110653 -0.291827 -0.602 85 86 91
0.0796371 -0.248683 -0.513 184 136 122
0.0828905 -0.249652 -0.515 171 127 116
0.0896381 -0.252076 -0.52 146 106 98
0.106654 -0.262256 -0.541 107 78 80
0.120214 -0.271951 -0.561 102 74 73
0.126708 -0.276799 -0.571 97 71 74
0.37572 -0.270497 -0.558 125 89 91
0.3717 -0.257409 -0.531 136 99 83
0.3745 -0.2545 -0.525 156 107 100
0.377867 -0.252076 -0.52 152 102 93
0.378857 -0.252076 -0.52 151 101 90
0.393852 -0.249652 -0.515 157 108 94
0.404236 -0.248198 -0.512 161 112 98
0.431966 -0.250137 -0.516 164 112 98
0.445605 -0.250622 -0.517 152 105 89
0.458746 -0.25353 -0.523 139 96 80
1.12304 -0.307824 -0.635 202 205 186
-0.123057 -0.287133 -0.59 94 97 102
-0.0996286 -0.308547 -0.634 57 56 62
-0.08904 -0.30952 -0.636 64 63 71
-0.067061 -0.314387 -0.646 73 72 78
0.0785067 -0.249173 -0.512 185 139 124
0.0794819 -0.249173 -0.512 180 134 119
0.0838714 -0.250633 -0.515 164 120 111
0.0896381 -0.253067 -0.52 144 104 96
0.108083 -0.26426 -0.543 105 76 78
0.115757 -0.2701 -0.555 100 74 75
0.380159 -0.273993 -0.563 117 87 87
0.375571 -0.267667 -0.55 124 91 86
0.374583 -0.264747 -0.544 128 87 85
0.381094 -0.25258 -0.519 148 98 87
0.38872 -0.25112 -0.516 157 108 94
0.414153 -0.248687 -0.511 167 118 104
0.420815 -0.249173 -0.512 160 111 97
0.443635 -0.251607 -0.517 152 103 89
1.12369 -0.308547 -0.634 203 206 189
1.12558 -0.307087 -0.631 206 209 192
-0.118874 -0.286303 -0.586 93 94 99
-0.106876 -0.302914 -0.62 78 79 84
-0.0996286 -0.309754 -0.634 57 56 62
-0.0718714 -0.315129 -0.645 72 71 77
-0.0671648 -0.316106 -0.647 73 72 78
0.0580543 -0.254546 -0.521 205 170 164
0.073199 -0.248683 -0.509 195 153 139
0.0806143 -0.250637 -0.513 172 125 115
0.111369 -0.268226 -0.549 103 77 78
0.399941 -0.251126 -0.514 162 110 99
0.409287 -0.24966 -0.511 164 116 102
0.420815 -0.250149 -0.512 159 110 96
0.426375 -0.251126 -0.514 160 108 94
0.434914 -0.252103 -0.516 159 110 95
1.12558 -0.308289 -0.631 201 203 189
-0.110837 -0.295757 -0.603 90 91 96
-0.0997857 -0.311452 -0.635 58 57 63
0.0722295 -0.249652 -0.509 197 155 141
0.0886476 -0.255048 -0.52 141 102 95
0.0898105 -0.255538 -0.521 138 101 95
0.09504 -0.258971 -0.528 126 92 91
0.110122 -0.268781 -0.548 107 78 80
0.116174 -0.273195 -0.557 98 76 79
0.377242 -0.262895 -0.536 145 96 89
0.387504 -0.253576 -0.517 156 106 95
0.396795 -0.252595 -0.515 162 110 99
0.398962 -0.252105 -0.514 162 110 99
0.4161 -0.250633 -0.511 158 109 94
0.434914 -0.253086 -0.516 156 107 92
0.440811 -0.253086 -0.516 151 103 89
0.441794 -0.253086 -0.516 150 102 88
1.11886 -0.310962 -0.634 203 205 191
-0.0999429 -0.313154 -0.636 59 60 65
-0.0777724 -0.316601 -0.643 70 69 77
0.13384 -0.28952 -0.588 211 212 232
0.40734 -0.251607 -0.511 167 119 105
-0.107883 -0.305963 -0.619 82 82 90
-0.106548 -0.308929 -0.625 80 79 87
-0.105694 -0.309917 -0.627 77 76 82
-0.09752 -0.314366 -0.636 55 56 61
-0.09282 -0.31486 -0.637 53 54 59
-0.0837657 -0.317331 -0.642 66 65 73
0.0621657 -0.250109 -0.506 200 166 157
0.0741686 -0.251591 -0.509 192 144 132
0.0840343 -0.255051 -0.516 153 112 106
0.0977867 -0.26296 -0.532 117 87 89
0.115113 -0.275317 -0.557 103 76 81
0.3857 -0.272351 -0.551 135 89 92
0.38353 -0.267903 -0.542 138 93 88
0.380376 -0.261477 -0.529 143 96 90
0.380773 -0.259006 -0.524 140 91 86
0.3848 -0.257029 -0.52 153 103 94
0.394617 -0.255051 -0.516 159 107 96
0.418047 -0.25258 -0.511 156 107 93
0.434071 -0.254557 -0.515 151 103 89
0.441794 -0.255051 -0.516 150 102 88
-0.127641 -0.29821 -0.601 95 98 105
-0.11592 -0.29176 -0.588 74 74 82
-0.11519 -0.292752 -0.59 70 70 78
-0.103414 -0.315081 -0.635 73 74 78
-0.1001 -0.316073 -0.637 63 64 68
-0.0673724 -0.322028 -0.649 72 72 80
0.0621657 -0.251072 -0.506 205 168 159
0.0794819 -0.25405 -0.512 171 124 118
0.0817505 -0.255042 -0.514 161 116 110
0.0863333 -0.257027 -0.518 148 109 102
0.104787 -0.268935 -0.542 107 81 84
0.109277 -0.272409 -0.549 103 76 81
0.110725 -0.273401 -0.551 109 78 83
0.128483 -0.287294 -0.579 209 194 199
0.387799 -0.273401 -0.551 132 88 85
0.381669 -0.261989 -0.528 135 90 85
0.393412 -0.25653 -0.517 157 105 94
0.397566 -0.256034 -0.516 158 108 97
0.417073 -0.253553 -0.511 155 106 91
0.424569 -0.254546 -0.513 151 103 89
0.437995 -0.255538 -0.515 151 103 89
0.441919 -0.255538 -0.515 150 102 88
0.444743 -0.256034 -0.516 150 101 87
0.447691 -0.256034 -0.516 146 97 83
0.453373 -0.257027 -0.518 143 96 86
-0.0978267 -0.317785 -0.638 57 58 63
-0.0860771 -0.319279 -0.641 57 56 64
-0.07344 -0.322766 -0.648 71 70 78
0.0584257 -0.252534 -0.507 203 169 160
0.0640933 -0.252036 -0.506 202 164 155
0.0899829 -0.260006 -0.522 134 99 97
0.106405 -0.271462 -0.545 110 80 82
0.386627 -0.269968 -0.542 131 87 86
0.383837 -0.264489 -0.531 129 88 84
0.383957 -0.262496 -0.527 138 93 88
0.38554 -0.259508 -0.521 148 98 89
0.389003 -0.258511 -0.519 158 105 97
0.398757 -0.256519 -0.515 162 112 101
0.401899 -0.256021 -0.514 161 111 100
0.409287 -0.254527 -0.511 166 117 103
0.453373 -0.258013 -0.518 142 98 85
0.471831 -0.264489 -0.531 131 89 73
1.1214 -0.3138 -0.63 201 204 187
-0.111429 -0.3 -0.6 102 102 110
-0.1098 -0.305 -0.61 95 95 103
-0.105333 -0.316 -0.632 80 79 85
-0.101472 -0.319 -0.638 68 69 73
0.07738 -0.2555 -0.511 176 128 118
0.3855 -0.2625 -0.525 138 101 92
0.395382 -0.2585 -0.517 161 109 95
0.41026 -0.2555 -0.511 170 118 105
0.440938 -0.2575 -0.515 151 102 88
0.446709 -0.258 -0.516 144 98 83
0.447691 -0.258 -0.516 147 101 86
0.470943 -0.265 -0.53 134 92 76
-0.11592 -0.29512 -0.588 73 73 83
-0.101631 -0.320717 -0.639 71 72 76
-0.090819 -0.321219 -0.64 50 49 57
-0.0838962 -0.322725 -0.643 57 56 64
0.0573467 -0.253964 -0.506 205 168 159
0.0581952 -0.253462 -0.505 204 167 158
0.0680829 -0.254466 -0.507 195 157 148
0.0889886 -0.261994 -0.522 137 98 99
0.0969552 -0.267515 -0.533 113 87 86
0.118919 -0.283576 -0.565 103 77 80
0.131824 -0.295622 -0.589 251 250 255
0.388593 -0.270527 -0.539 124 85 80
0.39516 -0.259987 -0.518 156 104 93
0.404836 -0.257979 -0.514 162 110 97
0.425546 -0.257477 -0.513 150 102 88
0.427354 -0.257979 -0.514 150 101 87
0.43309 -0.258481 -0.515 152 103 89
0.437014 -0.258481 -0.515 155 106 92
0.439957 -0.258481 -0.515 149 101 87
0.456226 -0.260489 -0.519 142 96 83
0.466387 -0.264002 -0.526 135 92 76
1.1166 -0.3162 -0.63 203 205 191
1.12203 -0.314694 -0.627 202 205 188
1.12382 -0.314192 -0.626 203 206 189
-0.11426 -0.297751 -0.591 75 75 83
-0.113517 -0.298759 -0.593 100 101 106
-0.112767 -0.299767 -0.595 111 112 117
-0.104789 -0.320423 -0.636 79 80 84
0.0541257 -0.25795 -0.512 205 168 159
0.0572333 -0.254424 -0.505 205 168 159
0.0785067 -0.25795 -0.512 172 125 117
0.105367 -0.274576 -0.545 108 82 85
0.13048 -0.29624 -0.588 253 246 253
0.391066 -0.272561 -0.541 120 85 79
0.388329 -0.26853 -0.533 126 85 79
0.414964 -0.25795 -0.512 162 113 99
0.439957 -0.259462 -0.515 149 101 87
0.444862 -0.259462 -0.515 148 100 86
0.445843 -0.259462 -0.515 144 98 83
1.11722 -0.316896 -0.629 203 205 191
1.12501 -0.315385 -0.626 202 204 190
-0.129429 -0.305451 -0.604 97 98 103
-0.0958448 -0.324163 -0.641 51 52 57
0.0841971 -0.261454 -0.517 144 105 98
0.0853467 -0.26196 -0.518 143 106 98
0.391243 -0.271569 -0.537 123 83 81
0.390359 -0.269546 -0.533 126 85 81
0.392246 -0.263983 -0.522 140 95 89
0.4429 -0.260443 -0.515 147 99 85
0.474747 -0.26904 -0.532 133 91 79
1.11784 -0.317589 -0.628 203 205 191
1.1244 -0.316071 -0.625 202 206 191
-0.118469 -0.29645 -0.584 98 101 106
-0.111429 -0.304571 -0.6 108 107 113
-0.0909609 -0.325384 -0.641 48 47 55
-0.0863457 -0.326399 -0.643 47 46 54
0.0530467 -0.259393 -0.511 204 167 159
0.06288 -0.25584 -0.504 199 161 152
0.0741686 -0.258378 -0.509 176 132 123
0.0819095 -0.261424 -0.515 154 111 104
0.0967733 -0.270053 -0.532 110 84 85
0.110073 -0.280713 -0.553 108 81 86
0.118051 -0.287312 -0.566 104 82 84
0.119761 -0.288835 -0.569 104 82 84
0.392996 -0.273099 -0.538 120 82 79
0.404643 -0.261424 -0.515 156 106 95
0.405624 -0.261424 -0.515 158 108 97
0.407586 -0.261424 -0.515 159 109 98
0.437995 -0.261424 -0.515 149 101 87
0.448786 -0.261424 -0.515 139 93 80
1.11664 -0.318785 -0.628 202 206 191
1.12501 -0.31777 -0.626 201 205 188
-0.132309 -0.311829 -0.612 99 102 107
-0.120693 -0.297562 -0.584 100 103 108
-0.116642 -0.298581 -0.586 84 87 92
-0.115723 -0.29909 -0.587 70 73 78
-0.102109 -0.327114 -0.642 76 77 82
-0.100886 -0.327114 -0.642 73 74 79
0.0588057 -0.255781 -0.502 203 166 157
0.0741686 -0.259348 -0.509 175 130 124
0.0983381 -0.272595 -0.535 109 85 85
0.10556 -0.2782 -0.546 107 82 86
0.396649 -0.276671 -0.543 116 81 77
0.392991 -0.268519 -0.527 127 88 81
0.39425 -0.26801 -0.526 130 89 83
0.395745 -0.26699 -0.524 134 91 82
0.397449 -0.265462 -0.521 138 95 86
0.400866 -0.264443 -0.519 151 101 90
0.406411 -0.262914 -0.516 158 108 97
0.407394 -0.262914 -0.516 157 107 96
0.427354 -0.261895 -0.514 152 103 89
0.437145 -0.261895 -0.514 148 100 86
0.441061 -0.261895 -0.514 148 100 86
0.452606 -0.262914 -0.516 139 93 80
0.456333 -0.263933 -0.518 143 99 86
0.46839 -0.26801 -0.526 133 91 77
1.12143 -0.318962 -0.626 202 206 189
-0.106706 -0.323734 -0.633 89 90 95
-0.0985933 -0.328849 -0.643 60 59 65
-0.0838962 -0.328849 -0.643 46 45 53
0.0519714 -0.260829 -0.51 201 168 161
0.0533857 -0.258271 -0.505 204 166 155
0.0832124 -0.264409 -0.517 148 107 105
0.105753 -0.279751 -0.547 108 83 89
0.125607 -0.29714 -0.581 220 214 224
0.394483 -0.270546 -0.529 125 88 82
0.396253 -0.269011 -0.526 129 88 82
0.401638 -0.265943 -0.52 144 96 86
0.430291 -0.262874 -0.514 151 102 88
0.43127 -0.262874 -0.514 151 103 89
0.443019 -0.262874 -0.514 151 103 91
0.454468 -0.264409 -0.517 141 97 84
0.459191 -0.265431 -0.519 142 96 83
1.12549 -0.317597 -0.621 200 204 189
-0.117557 -0.3003 -0.585 108 109 114
-0.105283 -0.32802 -0.639 88 89 94
0.06672 -0.25872 -0.504 193 150 143
0.0719457 -0.26026 -0.507 186 137 130
0.0730552 -0.260773 -0.508 185 136 129
0.0785067 -0.262827 -0.512 160 119 113
0.0881629 -0.268473 -0.523 134 97 104
0.0916743 -0.270013 -0.526 126 94 99
0.3995 -0.2695 -0.525 128 90 81
0.39997 -0.268473 -0.523 130 90 82
0.40241 -0.267447 -0.521 139 92 82
0.420501 -0.263853 -0.514 148 98 87
0.433229 -0.263853 -0.514 152 104 90
0.436166 -0.263853 -0.514 146 98 84
0.461953 -0.267447 -0.521 141 95 82
0.472183 -0.27104 -0.528 133 90 81
-0.1086 -0.3246 -0.63 99 100 105
-0.0838962 -0.331298 -0.643 46 45 53
0.0577343 -0.258134 -0.501 204 170 160
0.0586886 -0.258134 -0.501 200 166 156
0.0596429 -0.258134 -0.501 197 163 153
0.07098 -0.261226 -0.507 187 139 129
0.0719457 -0.261226 -0.507 184 137 129
0.0905 -0.2705 -0.525 131 96 102
0.398747 -0.274107 -0.532 122 85 77
0.401963 -0.26947 -0.523 134 89 83
0.414274 -0.265863 -0.516 150 100 89
-0.11519 -0.305114 -0.59 68 69 74
-0.11088 -0.31856 -0.616 135 136 140
-0.107043 -0.328386 -0.635 95 96 101
0.0614657 -0.330454 -0.639 201 168 159
0.0615514 -0.259089 -0.501 198 161 152
0.0646714 -0.260123 -0.503 195 155 147
0.0698762 -0.261674 -0.506 188 141 135
0.0764067 -0.26426 -0.511 167 123 120
0.0820686 -0.266846 -0.516 147 107 107
0.402026 -0.272534 -0.527 125 86 81
0.418206 -0.266846 -0.516 148 100 88
1.12437 -0.32218 -0.623 201 203 189
-0.1386 -0.327 -0.63 97 97 105
-0.118671 -0.303643 -0.585 110 110 118
0.0626305 -0.260562 -0.502 197 160 151
0.0656295 -0.261081 -0.503 194 149 143
0.0752857 -0.264714 -0.51 168 123 120
0.0775314 -0.265752 -0.512 160 116 113
0.0906724 -0.273019 -0.526 128 95 102
0.129549 -0.308314 -0.594 205 208 225
0.409357 -0.270424 -0.521 143 96 88
0.41174 -0.269386 -0.519 142 94 84
0.421319 -0.26731 -0.515 147 97 86
0.426069 -0.267829 -0.516 148 99 85
0.426224 -0.26731 -0.515 147 98 84
0.45369 -0.26731 -0.515 146 100 85
0.459293 -0.268867 -0.518 143 100 84
-0.116117 -0.306841 -0.589 79 79 87
0.0615514 -0.260997 -0.501 198 161 152
0.0656295 -0.262039 -0.503 194 149 143
0.0788133 -0.26777 -0.514 156 114 115
0.0810857 -0.268811 -0.516 149 109 109
0.415694 -0.270374 -0.519 143 94 87
0.418031 -0.269332 -0.517 146 97 90
0.420986 -0.269332 -0.517 145 95 84
0.428034 -0.268811 -0.516 147 98 84
0.43309 -0.26829 -0.515 146 99 83
0.435052 -0.26829 -0.515 151 104 88
0.440082 -0.26777 -0.514 155 107 93
0.443998 -0.26777 -0.514 150 101 84
0.445956 -0.26777 -0.514 147 98 81
1.11725 -0.324553 -0.623 202 204 190
-0.132741 -0.321034 -0.614 97 97 105
-0.123057 -0.308486 -0.59 101 101 109
-0.11484 -0.310577 -0.594 62 62 70
0.0511562 -0.262474 -0.502 205 166 159
0.0921971 -0.276591 -0.529 123 91 102
0.10367 -0.286003 -0.547 107 83 96
0.459203 -0.327831 -0.627 116 86 84
0.409052 -0.275546 -0.527 124 83 77
0.414514 -0.271886 -0.52 143 95 85
0.416495 -0.271886 -0.52 138 91 83
0.4218 -0.27084 -0.518 140 92 82
0.430983 -0.269794 -0.516 149 100 83
0.432949 -0.269794 -0.516 152 103 86
0.441919 -0.269271 -0.515 157 108 91
0.444977 -0.268749 -0.514 151 102 85
0.446935 -0.268749 -0.514 149 100 83
0.455652 -0.269271 -0.515 148 102 87
1.12186 -0.323649 -0.619 201 204 187
-0.11592 -0.30856 -0.588 89 89 97
-0.110953 -0.326927 -0.623 204 205 207
0.0519048 -0.262381 -0.5 200 166 164
0.0565533 -0.261856 -0.499 201 163 154
0.0923714 -0.278124 -0.53 121 91 101
0.410567 -0.285995 -0.545 116 81 75
0.409649 -0.279698 -0.533 119 82 76
0.410605 -0.277599 -0.529 122 83 76
0.4115 -0.2755 -0.525 128 85 78
0.426733 -0.271827 -0.518 140 92 80
0.478009 -0.278124 -0.53 137 95 81
1.12076 -0.325877 -0.621 202 204 190
-0.13904 -0.332853 -0.632 89 89 97
-0.136091 -0.32864 -0.624 89 89 97
-0.112308 -0.321793 -0.611 229 230 234
-0.108423 -0.33496 -0.636 164 164 162
0.0584543 -0.262807 -0.499 200 163 157
0.0665876 -0.264913 -0.503 184 141 134
0.0741686 -0.268073 -0.509 163 119 118
0.0860057 -0.27492 -0.522 132 96 100
0.09666 -0.28282 -0.537 112 86 95
0.112064 -0.296513 -0.563 109 85 99
0.11904 -0.30336 -0.576 116 103 123
0.415087 -0.290193 -0.551 115 82 77
0.412643 -0.287033 -0.545 114 79 73
0.45281 -0.270707 -0.514 150 103 87
1.11721 -0.32706 -0.621 203 205 191
1.12186 -0.326007 -0.619 202 204 190
-0.13904 -0.334057 -0.632 87 87 95
-0.116117 -0.311329 -0.589 81 81 89
-0.115033 -0.3145 -0.595 61 59 70
-0.113322 -0.319257 -0.604 224 223 231
0.0470219 -0.269043 -0.509 201 168 159
0.0823867 -0.2738 -0.518 140 104 108
0.0900114 -0.279086 -0.528 121 93 105
0.1073 -0.293357 -0.555 107 84 100
0.414719 -0.288071 -0.545 116 81 75
0.416291 -0.278029 -0.526 129 86 77
0.419894 -0.276443 -0.523 118 75 68
0.437863 -0.272743 -0.516 151 102 88
0.443998 -0.271686 -0.514 157 106 89
0.449974 -0.271157 -0.513 156 107 90
0.452906 -0.271157 -0.513 155 106 89
0.459486 -0.272743 -0.516 149 102 82
1.12241 -0.326657 -0.618 202 204 190
-0.136746 -0.332609 -0.627 84 85 90
-0.122347 -0.314042 -0.592 83 84 89
0.0468371 -0.268951 -0.507 202 169 160
0.0603552 -0.264708 -0.499 197 159 150
0.0645429 -0.266299 -0.502 185 145 135
0.0875 -0.2785 -0.525 124 94 102
0.469857 -0.34481 -0.65 152 157 186
0.418809 -0.291231 -0.549 116 81 77
0.41756 -0.28964 -0.546 115 84 81
0.441919 -0.273195 -0.515 156 107 90
0.450951 -0.272134 -0.513 158 109 94
0.452906 -0.272134 -0.513 159 110 95
0.453883 -0.272134 -0.513 159 110 95
0.464227 -0.274787 -0.518 150 101 87
1.11895 -0.328895 -0.62 202 205 188
-0.129128 -0.323688 -0.608 79 80 85
-0.115581 -0.31517 -0.592 72 73 78
0.0665876 -0.267788 -0.503 180 137 128
0.0888371 -0.280565 -0.527 117 90 99
0.0972 -0.287486 -0.54 110 86 99
0.419886 -0.281097 -0.528 122 83 76
0.444977 -0.273644 -0.514 157 105 91
0.45486 -0.273111 -0.513 159 108 91
-0.1374 -0.3366 -0.63 79 80 85
-0.134687 -0.33286 -0.623 79 80 85
-0.114093 -0.32164 -0.602 85 83 96
-0.11142 -0.330723 -0.619 228 227 232
0.0472371 -0.267677 -0.501 205 171 161
0.0592857 -0.266074 -0.498 195 157 148
0.0644143 -0.267677 -0.501 184 141 134
0.0665876 -0.268746 -0.503 181 137 128
0.124181 -0.315229 -0.59 243 240 255
0.232143 -0.347286 -0.65 205 210 229
0.101957 -0.294369 -0.549 107 83 96
0.464905 -0.348524 -0.65 151 154 161
0.422847 -0.28579 -0.533 119 82 74
0.438846 -0.276674 -0.516 155 98 81
0.449193 -0.273993 -0.511 160 110 87
0.453087 -0.273993 -0.511 160 110 87
-0.11142 -0.333081 -0.619 230 229 234
-0.107043 -0.34169 -0.635 214 212 213
0.0435676 -0.276581 -0.514 203 169 157
0.105186 -0.298643 -0.555 108 85 95
0.10846 -0.301871 -0.561 107 84 94
0.122849 -0.316938 -0.589 232 233 253
0.160333 -0.349762 -0.65 222 223 228
0.465426 -0.349224 -0.649 169 166 183
0.431511 -0.279271 -0.519 120 80 72
0.434772 -0.278195 -0.517 137 90 84
0.457791 -0.276043 -0.513 160 112 89
