ply
format ascii 1.0
comment Created by Open3D
element vertex 1292
property double x
property double y
property double z
property uchar red
property uchar green
property uchar blue
end_header
0.417811 -0.42772 -0.578 77 102 142
0.433619 -0.4292 -0.58 111 114 121
0.458237 -0.42846 -0.579 117 123 145
0.461546 -0.42846 -0.579 100 101 121
0.472286 -0.4292 -0.58 144 147 166
0.490474 -0.42772 -0.578 134 137 152
0.462471 -0.3663 -0.495 165 120 99
0.465281 -0.36334 -0.491 170 125 102
0.467133 -0.3626 -0.49 175 131 106
0.475451 -0.36112 -0.488 162 118 93
0.484809 -0.36186 -0.489 160 116 91
0.49528 -0.36408 -0.492 152 112 87
0.573573 -0.40552 -0.548 155 137 123
0.00990476 -0.308632 -0.416 195 154 122
0.0324771 -0.312342 -0.421 180 136 109
0.034081 -0.312342 -0.421 180 135 104
0.0466571 -0.316051 -0.426 157 109 89
0.211562 -0.430305 -0.58 158 168 195
0.233254 -0.429563 -0.579 168 189 218
0.234357 -0.429563 -0.579 192 203 223
0.284596 -0.428821 -0.578 131 148 178
0.290101 -0.428821 -0.578 130 155 186
0.320928 -0.428821 -0.578 129 144 187
0.327533 -0.428821 -0.578 160 171 193
0.367168 -0.428821 -0.578 113 117 118
0.386985 -0.428821 -0.578 107 133 166
0.406098 -0.428079 -0.577 154 157 166
0.408296 -0.428079 -0.577 125 137 159
0.457134 -0.429563 -0.579 135 140 159
0.45934 -0.429563 -0.579 134 140 154
0.486911 -0.429563 -0.579 80 96 130
0.491575 -0.428821 -0.578 132 138 152
0.48678 -0.407306 -0.549 134 104 94
0.460365 -0.373178 -0.503 164 122 98
0.463414 -0.367243 -0.495 166 124 100
0.464354 -0.365017 -0.492 168 123 100
0.469874 -0.36205 -0.488 165 120 97
0.473592 -0.36205 -0.488 165 123 98
0.47355 -0.361308 -0.487 167 123 98
0.515865 -0.372436 -0.502 151 111 86
0.0218429 -0.310169 -0.417 183 139 110
0.0324771 -0.313144 -0.421 179 135 108
0.0398829 -0.314631 -0.423 169 123 99
0.084239 -0.351822 -0.473 92 69 63
0.241659 -0.429922 -0.578 143 158 191
0.247164 -0.429922 -0.578 169 180 198
0.301689 -0.429178 -0.577 181 185 197
0.317075 -0.429178 -0.577 158 172 201
0.320372 -0.429178 -0.577 116 133 177
0.353344 -0.429178 -0.577 98 125 172
0.377076 -0.429922 -0.578 99 119 152
0.404999 -0.429178 -0.577 145 149 158
0.439489 -0.430666 -0.579 134 140 152
0.447537 -0.429922 -0.578 111 122 144
0.451941 -0.429922 -0.578 141 144 161
0.471758 -0.429922 -0.578 135 143 154
0.491575 -0.429922 -0.578 126 132 146
0.495121 -0.429178 -0.577 74 76 91
0.498651 -0.428434 -0.576 106 106 118
0.462471 -0.368186 -0.495 165 123 99
0.464359 -0.366698 -0.493 168 126 101
0.478188 -0.362235 -0.487 154 114 88
0.479115 -0.362235 -0.487 157 113 88
-0.00928762 -0.316183 -0.424 194 155 124
0.00356571 -0.310217 -0.416 189 148 116
0.0043581 -0.310217 -0.416 190 149 117
0.018621 -0.310217 -0.416 189 144 115
0.03 -0.3132 -0.42 181 135 109
0.033279 -0.313946 -0.421 177 131 105
0.0752962 -0.340791 -0.457 92 71 68
0.0938143 -0.369129 -0.495 91 73 73
0.109947 -0.39672 -0.532 229 229 239
0.204227 -0.431023 -0.578 212 216 227
0.210094 -0.431769 -0.579 128 144 177
0.214135 -0.431023 -0.578 185 193 214
0.216337 -0.431023 -0.578 213 215 227
0.220741 -0.431023 -0.578 169 185 211
0.221842 -0.431023 -0.578 153 169 195
0.275311 -0.430277 -0.577 190 192 213
0.27751 -0.430277 -0.577 191 192 212
0.281906 -0.430277 -0.577 186 195 210
0.292896 -0.430277 -0.577 90 117 162
0.329165 -0.430277 -0.577 92 112 145
0.378622 -0.430277 -0.577 139 153 179
0.400603 -0.430277 -0.577 97 103 115
0.404999 -0.430277 -0.577 144 151 159
0.422584 -0.430277 -0.577 98 117 149
0.444565 -0.430277 -0.577 145 144 158
0.455555 -0.430277 -0.577 143 153 154
0.475061 -0.431023 -0.578 109 116 144
0.476162 -0.431023 -0.578 103 110 138
0.495121 -0.430277 -0.577 51 54 71
0.468708 -0.390009 -0.523 146 114 103
0.4644 -0.384789 -0.516 151 115 99
0.461397 -0.373603 -0.501 160 124 98
0.463419 -0.368383 -0.494 166 124 100
0.46342 -0.367637 -0.493 166 124 100
0.488465 -0.363909 -0.488 164 120 95
0.518809 -0.375094 -0.503 149 108 80
-0.0100952 -0.31699 -0.424 193 154 125
0.00671905 -0.310262 -0.415 193 153 118
0.00988095 -0.310262 -0.415 193 153 118
0.0194133 -0.31101 -0.416 188 143 114
0.03 -0.314 -0.42 181 136 107
0.0365733 -0.315495 -0.422 174 127 99
0.0390771 -0.316243 -0.423 168 122 98
0.0449286 -0.317738 -0.425 157 110 92
0.0483933 -0.319233 -0.427 154 106 92
0.05002 -0.319233 -0.427 148 102 89
0.0592429 -0.325214 -0.435 121 87 78
0.0673857 -0.33269 -0.445 106 77 71
0.0683867 -0.333438 -0.446 103 75 72
0.0707143 -0.336429 -0.45 99 75 73
0.07788 -0.3454 -0.462 89 69 68
0.216337 -0.432124 -0.578 213 215 228
0.24234 -0.431376 -0.577 173 181 200
0.29568 -0.430629 -0.576 94 119 159
0.33408 -0.430629 -0.576 153 175 212
0.339566 -0.430629 -0.576 172 174 195
0.34176 -0.430629 -0.576 171 173 188
0.363703 -0.430629 -0.576 166 166 174
0.36983 -0.431376 -0.577 100 107 117
0.377966 -0.430629 -0.576 148 155 171
0.394423 -0.430629 -0.576 135 152 162
0.420754 -0.430629 -0.576 89 106 136
0.452258 -0.431376 -0.577 138 145 153
0.483031 -0.431376 -0.577 34 62 110
0.486329 -0.431376 -0.577 99 124 164
0.461397 -0.374557 -0.501 162 125 99
0.493191 -0.365586 -0.489 156 112 87
0.499966 -0.367829 -0.492 154 110 81
0.50388 -0.369324 -0.494 154 110 81
-0.00597143 -0.313301 -0.418 189 152 123
0.00909048 -0.311052 -0.415 192 154 118
0.00988095 -0.311052 -0.415 192 154 118
0.0122524 -0.311052 -0.415 193 153 118
0.0324 -0.3148 -0.42 174 130 101
0.044119 -0.318548 -0.425 156 110 94
0.08786 -0.36202 -0.483 92 71 70
0.0926838 -0.370265 -0.494 86 70 70
0.100937 -0.383756 -0.512 163 154 159
0.201675 -0.432475 -0.577 213 219 233
0.206071 -0.432475 -0.577 215 215 225
0.225854 -0.432475 -0.577 163 178 209
0.229151 -0.432475 -0.577 135 155 188
0.259474 -0.431726 -0.576 152 173 226
0.337881 -0.430976 -0.575 174 176 189
0.387167 -0.430976 -0.575 149 160 178
0.407267 -0.430227 -0.574 120 131 149
0.413827 -0.430227 -0.574 90 110 147
0.417833 -0.430976 -0.575 73 96 130
0.425143 -0.431726 -0.576 143 151 164
0.42624 -0.431726 -0.576 138 146 159
0.453357 -0.432475 -0.577 134 141 147
0.46215 -0.432475 -0.577 128 135 151
0.469843 -0.432475 -0.577 122 137 158
0.463857 -0.382257 -0.51 157 116 94
0.46306 -0.380009 -0.507 163 123 98
0.46224 -0.37776 -0.504 163 123 98
0.462447 -0.372513 -0.497 168 126 102
0.470767 -0.365018 -0.487 167 125 100
0.48276 -0.364269 -0.486 164 120 95
0.483686 -0.364269 -0.486 164 120 95
0.490324 -0.365768 -0.488 161 115 91
0.497 -0.367267 -0.49 158 113 84
0.513651 -0.373263 -0.498 150 108 84
-0.0117381 -0.319357 -0.425 195 156 125
-0.0091781 -0.314849 -0.419 194 155 124
-0.00595714 -0.313346 -0.417 190 151 120
0.00197619 -0.311843 -0.415 195 155 120
0.018621 -0.312594 -0.416 184 140 111
0.0242838 -0.314097 -0.418 178 135 103
0.0316 -0.3156 -0.42 174 130 101
0.0365733 -0.317103 -0.422 170 124 98
0.0808467 -0.35242 -0.469 89 68 67
0.0962886 -0.377969 -0.503 90 80 88
0.211567 -0.433574 -0.577 201 207 223
0.237531 -0.432823 -0.576 200 205 224
0.300643 -0.432071 -0.575 184 186 198
0.306119 -0.432071 -0.575 185 186 204
0.317071 -0.432071 -0.575 158 172 201
0.325833 -0.432071 -0.575 160 175 196
0.340071 -0.432071 -0.575 178 179 197
0.369189 -0.432823 -0.576 94 99 121
0.387167 -0.432071 -0.575 153 160 179
0.406173 -0.43132 -0.574 140 151 169
0.410547 -0.43132 -0.574 84 99 132
0.440503 -0.432823 -0.576 143 146 151
0.460251 -0.432823 -0.576 132 139 149
0.467931 -0.432823 -0.576 61 77 102
0.495595 -0.432071 -0.575 118 123 142
0.48724 -0.41028 -0.546 129 106 100
0.468015 -0.366697 -0.488 168 126 101
0.468945 -0.366697 -0.488 169 127 102
0.503799 -0.370454 -0.493 151 109 84
0.508671 -0.371957 -0.495 152 110 86
0.513651 -0.374211 -0.498 149 107 85
-0.0043581 -0.313387 -0.416 191 152 119
-0.000395238 -0.312633 -0.415 193 154 121
0.00118571 -0.312633 -0.415 193 154 121
0.0169952 -0.312633 -0.415 185 142 110
0.018621 -0.313387 -0.416 183 140 108
0.0283324 -0.315647 -0.419 174 129 100
0.0292 -0.3164 -0.42 175 130 101
0.0545933 -0.324687 -0.431 129 92 83
0.0603476 -0.329207 -0.437 116 85 80
0.0665381 -0.335233 -0.445 105 76 70
0.0675371 -0.335987 -0.446 104 75 69
0.0686933 -0.337493 -0.448 101 73 69
0.0757905 -0.346533 -0.46 90 69 68
0.081019 -0.354067 -0.47 91 67 67
0.093059 -0.373653 -0.496 87 72 77
0.200229 -0.43392 -0.576 210 212 227
0.205714 -0.43392 -0.576 173 180 198
0.209369 -0.434673 -0.577 192 199 218
0.272167 -0.433167 -0.575 194 195 213
0.315976 -0.433167 -0.575 168 180 202
0.360253 -0.432413 -0.574 162 170 189
0.381027 -0.432413 -0.574 123 131 144
0.397427 -0.432413 -0.574 74 85 105
0.442697 -0.43392 -0.576 142 145 154
0.461349 -0.43392 -0.576 145 147 159
0.478903 -0.43392 -0.576 40 58 104
0.481834 -0.36612 -0.486 164 118 94
0.488391 -0.366873 -0.487 164 117 91
-0.00673524 -0.314179 -0.416 194 153 121
0.00828 -0.312669 -0.414 194 151 117
0.0194133 -0.314179 -0.416 183 140 106
0.0202057 -0.314179 -0.416 181 138 104
0.0234876 -0.31569 -0.418 180 135 104
0.0259381 -0.316445 -0.419 176 131 102
0.0348829 -0.317955 -0.421 169 125 98
0.0356848 -0.317955 -0.421 168 124 99
0.0537724 -0.325508 -0.431 131 91 81
0.0917429 -0.373088 -0.494 94 76 74
0.204617 -0.435017 -0.576 159 170 192
0.210103 -0.435017 -0.576 206 211 230
0.21631 -0.434262 -0.575 209 212 227
0.221786 -0.434262 -0.575 129 153 191
0.236024 -0.434262 -0.575 203 206 221
0.240405 -0.434262 -0.575 199 205 221
0.24369 -0.434262 -0.575 201 201 213
0.294653 -0.433507 -0.574 83 116 161
0.320893 -0.433507 -0.574 56 78 117
0.386911 -0.432751 -0.573 150 159 166
0.389094 -0.432751 -0.573 153 162 169
0.429881 -0.434262 -0.575 30 47 75
0.433507 -0.433507 -0.574 132 142 151
0.458357 -0.434262 -0.575 133 139 151
0.463543 -0.435017 -0.576 140 143 152
0.470126 -0.435017 -0.576 73 86 121
0.471223 -0.435017 -0.576 81 94 129
0.487929 -0.434262 -0.575 49 69 106
0.49036 -0.433507 -0.574 34 52 90
0.494733 -0.433507 -0.574 124 123 137
0.469892 -0.393479 -0.521 145 112 93
0.463357 -0.376864 -0.499 166 124 102
0.468945 -0.368556 -0.488 170 124 101
0.503714 -0.371577 -0.492 153 108 85
0.518571 -0.377619 -0.5 150 108 86
-0.000395238 -0.314214 -0.415 192 151 119
0.0365733 -0.319514 -0.422 165 121 96
0.0595152 -0.330871 -0.437 118 85 76
0.0656905 -0.336929 -0.445 106 77 73
0.0902505 -0.371757 -0.491 92 74 74
0.100352 -0.389171 -0.514 126 129 144
0.252013 -0.4346 -0.574 172 193 222
0.287 -0.4346 -0.574 123 148 188
0.305587 -0.4346 -0.574 173 179 201
0.330157 -0.433843 -0.573 171 179 200
0.345437 -0.433843 -0.573 121 139 161
0.346529 -0.433843 -0.573 110 129 162
0.367907 -0.4346 -0.574 84 99 128
0.380363 -0.433843 -0.573 157 164 174
0.381454 -0.433843 -0.573 146 153 163
0.400009 -0.433843 -0.573 37 53 78
0.406937 -0.433086 -0.572 110 124 153
0.420746 -0.433843 -0.573 100 117 145
0.43788 -0.4346 -0.574 102 97 104
0.445533 -0.4346 -0.574 114 123 132
0.4485 -0.435357 -0.575 87 97 109
0.461643 -0.435357 -0.575 137 142 148
0.468214 -0.435357 -0.575 60 69 98
0.4715 -0.435357 -0.575 38 55 98
0.47396 -0.4346 -0.574 53 75 114
0.476147 -0.4346 -0.574 51 72 115
0.47724 -0.4346 -0.574 32 53 96
0.478333 -0.4346 -0.574 22 46 90
0.491453 -0.4346 -0.574 69 86 129
0.470794 -0.395229 -0.522 142 109 92
0.464887 -0.385386 -0.509 156 113 94
0.463393 -0.3763 -0.497 166 124 102
0.468015 -0.369486 -0.488 172 126 103
0.473503 -0.367971 -0.486 166 120 96
0.474429 -0.367971 -0.486 166 120 96
-0.00832 -0.315764 -0.416 192 154 118
0.00906857 -0.314246 -0.414 191 148 114
0.0114343 -0.314246 -0.414 189 146 114
0.0122229 -0.314246 -0.414 190 147 115
0.0154143 -0.315005 -0.415 186 143 111
0.0218429 -0.316523 -0.417 179 136 104
0.0493219 -0.324872 -0.428 142 98 87
0.05472 -0.327909 -0.432 128 90 81
0.0656905 -0.337776 -0.445 106 77 73
0.0713429 -0.344608 -0.454 91 72 66
0.0749143 -0.349162 -0.46 89 68 65
0.0775 -0.352957 -0.465 91 67 65
0.0889514 -0.371174 -0.489 93 75 75
0.0921143 -0.376488 -0.496 93 75 73
0.102317 -0.393946 -0.519 159 162 179
0.223587 -0.435693 -0.574 135 160 200
0.361809 -0.434934 -0.573 151 156 176
0.37818 -0.434934 -0.573 159 168 175
0.388003 -0.434934 -0.573 160 164 175
0.390186 -0.434934 -0.573 164 165 169
0.394551 -0.434934 -0.573 143 146 151
0.395643 -0.434934 -0.573 153 156 161
0.406937 -0.434175 -0.572 98 116 152
0.408027 -0.434175 -0.572 97 115 151
0.414564 -0.434175 -0.572 44 72 120
0.416743 -0.434175 -0.572 54 81 126
0.438209 -0.434934 -0.573 130 129 137
0.4393 -0.434934 -0.573 133 140 150
0.465213 -0.435693 -0.574 136 140 152
0.476147 -0.435693 -0.574 42 65 107
0.496278 -0.434175 -0.572 126 127 131
0.501726 -0.434175 -0.572 116 119 128
0.465298 -0.37421 -0.493 167 125 101
0.475354 -0.368897 -0.486 167 121 97
0.505496 -0.372692 -0.491 158 113 90
-0.012341 -0.318078 -0.418 190 151 118
-0.0115171 -0.317317 -0.417 191 152 119
0.0114343 -0.315034 -0.414 190 147 115
0.0177857 -0.315795 -0.415 182 138 109
0.018621 -0.316556 -0.416 185 141 112
0.0485067 -0.325688 -0.428 146 99 89
0.0501371 -0.325688 -0.428 138 94 83
0.0585486 -0.331775 -0.436 121 86 80
0.0924857 -0.378954 -0.498 93 75 73
0.0957095 -0.384281 -0.505 87 75 79
0.200627 -0.436787 -0.574 123 141 177
0.285409 -0.436026 -0.573 118 147 179
0.33285 -0.435265 -0.572 146 157 177
0.364446 -0.435265 -0.572 54 77 108
0.398221 -0.435265 -0.572 127 141 154
0.410206 -0.435265 -0.572 51 78 123
0.417832 -0.435265 -0.572 76 103 146
0.42219 -0.435265 -0.572 60 83 125
0.426549 -0.435265 -0.572 89 100 132
0.48514 -0.436026 -0.573 21 46 86
0.497586 -0.434504 -0.571 126 124 137
0.467424 -0.39189 -0.515 146 115 97
0.464991 -0.385803 -0.507 158 116 92
0.464326 -0.378954 -0.498 164 124 98
0.465291 -0.374389 -0.492 166 124 99
0.47628 -0.369823 -0.486 166 120 96
0.476224 -0.369062 -0.485 169 123 99
-0.0166733 -0.32574 -0.427 185 146 113
0.0202057 -0.317349 -0.416 183 140 108
0.0226371 -0.318111 -0.417 181 136 105
0.0283324 -0.319637 -0.419 172 128 99
0.0348829 -0.321163 -0.421 166 122 95
0.0556714 -0.330317 -0.433 128 89 82
0.0847476 -0.366934 -0.481 92 71 70
0.0926714 -0.380666 -0.499 92 77 74
0.28491 -0.436354 -0.572 115 140 181
0.28709 -0.436354 -0.572 131 159 198
0.358998 -0.436354 -0.572 161 166 185
0.366625 -0.436354 -0.572 151 160 175
0.381878 -0.436354 -0.572 132 135 150
0.396042 -0.436354 -0.572 151 158 166
0.410576 -0.435591 -0.571 36 67 113
0.42437 -0.436354 -0.572 46 68 105
0.448031 -0.437117 -0.573 86 92 114
0.463311 -0.437117 -0.573 127 127 139
0.470951 -0.437117 -0.573 25 48 89
0.494323 -0.435591 -0.571 132 130 141
0.496498 -0.435591 -0.571 131 130 138
0.502346 -0.434066 -0.569 118 108 109
0.46426 -0.382191 -0.501 167 127 102
0.464326 -0.379903 -0.498 164 124 98
0.468043 -0.373037 -0.489 171 129 104
0.48269 -0.369986 -0.485 166 120 96
-0.0157114 -0.323494 -0.423 187 148 117
-0.00275333 -0.315847 -0.413 193 153 118
0.0122229 -0.316611 -0.414 190 145 112
0.0210486 -0.318906 -0.417 182 137 106
0.0348829 -0.321965 -0.421 165 121 94
0.0728438 -0.350261 -0.458 88 70 66
0.105902 -0.40303 -0.527 170 176 200
0.28491 -0.437444 -0.572 114 137 179
0.315953 -0.436679 -0.571 164 168 169
0.320304 -0.436679 -0.571 173 179 191
0.325742 -0.436679 -0.571 182 186 198
0.374251 -0.437444 -0.572 146 149 154
0.380123 -0.436679 -0.571 111 118 136
0.388824 -0.436679 -0.571 154 160 172
0.405514 -0.435914 -0.57 46 70 118
0.409857 -0.435914 -0.57 35 66 112
0.41819 -0.436679 -0.571 52 75 125
0.484293 -0.437444 -0.572 43 68 108
0.49192 -0.437444 -0.572 86 92 106
0.465258 -0.381616 -0.499 165 123 99
0.466229 -0.376263 -0.492 169 125 100
0.484461 -0.370145 -0.484 166 120 96
0.510274 -0.376263 -0.492 155 110 89
-0.00828 -0.3174 -0.414 192 152 117
0.0059 -0.316633 -0.413 193 150 118
0.0114067 -0.316633 -0.413 190 145 112
0.0450343 -0.3266 -0.426 144 100 89
0.0494371 -0.3289 -0.429 140 98 84
0.0521305 -0.330433 -0.431 132 92 80
0.0659857 -0.3427 -0.447 100 72 69
0.0964676 -0.390233 -0.509 118 109 112
0.09976 -0.3956 -0.516 223 223 235
0.223897 -0.438533 -0.572 150 172 209
0.229345 -0.438533 -0.572 148 162 197
0.244598 -0.438533 -0.572 191 199 220
0.288179 -0.438533 -0.572 128 156 203
0.306165 -0.437767 -0.571 179 189 201
0.324654 -0.437767 -0.571 178 184 196
0.393571 -0.437 -0.57 118 123 126
0.432329 -0.437767 -0.571 88 89 93
0.44725 -0.438533 -0.572 99 105 119
0.451608 -0.438533 -0.572 109 116 126
0.464682 -0.438533 -0.572 122 128 140
0.48671 -0.437767 -0.571 84 98 124
0.465238 -0.383333 -0.5 164 122 98
0.466229 -0.3772 -0.492 169 125 100
0.4662 -0.375667 -0.49 167 123 98
0.468067 -0.375667 -0.49 169 125 100
0.4753 -0.371833 -0.485 170 126 101
0.492852 -0.371833 -0.485 160 114 91
0.496646 -0.3726 -0.486 160 114 91
0.515171 -0.378733 -0.494 152 109 90
1.01934 -0.433933 -0.566 134 137 126
-0.0059 -0.31742 -0.413 192 152 117
0.000392381 -0.316651 -0.412 193 150 116
0.0365733 -0.324337 -0.422 158 114 87
0.0649886 -0.342783 -0.446 101 73 70
0.127151 -0.440391 -0.573 98 116 156
0.196659 -0.439623 -0.572 193 204 226
0.237645 -0.438854 -0.571 193 197 222
0.247433 -0.438854 -0.571 202 204 219
0.320829 -0.438086 -0.57 175 184 191
0.327343 -0.438086 -0.57 182 182 194
0.392486 -0.438086 -0.57 129 133 134
0.423971 -0.438086 -0.57 87 109 150
0.440257 -0.438086 -0.57 125 129 138
0.442117 -0.438854 -0.571 129 133 144
0.478009 -0.438854 -0.571 40 65 106
0.495629 -0.438086 -0.57 126 124 135
0.498886 -0.438086 -0.57 128 125 132
0.499971 -0.438086 -0.57 126 123 130
0.471133 -0.39812 -0.518 143 110 91
0.469386 -0.395814 -0.515 145 112 93
0.467627 -0.393509 -0.512 149 112 93
0.467743 -0.391971 -0.51 150 113 94
0.466043 -0.388129 -0.505 159 119 94
0.466216 -0.377369 -0.491 167 123 98
0.468911 -0.374294 -0.487 171 127 102
0.469839 -0.374294 -0.487 171 127 102
0.475354 -0.373526 -0.486 167 123 98
0.480773 -0.371989 -0.484 167 121 98
0.482617 -0.371989 -0.484 164 118 95
0.505196 -0.375063 -0.488 158 113 92
0.980414 -0.431169 -0.561 155 156 148
0.987514 -0.431937 -0.562 143 144 136
1.0007 -0.433474 -0.564 147 147 145
1.01216 -0.434243 -0.565 117 119 114
1.0179 -0.43578 -0.567 112 114 109
-0.0181714 -0.326682 -0.424 184 149 119
-0.0130429 -0.319748 -0.415 190 154 120
-0.00117714 -0.317436 -0.412 195 152 117
0.000392381 -0.317436 -0.412 194 151 116
0.00904667 -0.318207 -0.413 188 145 111
0.0242838 -0.322059 -0.418 171 128 96
0.0267362 -0.32283 -0.419 166 122 93
0.0540219 -0.333616 -0.433 124 88 76
0.0609 -0.33978 -0.441 110 80 72
0.0639952 -0.342862 -0.445 103 73 71
0.066281 -0.345944 -0.449 96 71 67
0.0672857 -0.346714 -0.45 92 71 66
0.130198 -0.440712 -0.572 193 205 229
0.224593 -0.439942 -0.571 149 172 206
0.236557 -0.439942 -0.571 193 200 228
0.23982 -0.439942 -0.571 94 104 139
0.353864 -0.438401 -0.569 81 113 172
0.354948 -0.438401 -0.569 63 95 154
0.38963 -0.438401 -0.569 155 160 166
0.438086 -0.439171 -0.57 145 149 158
0.454081 -0.439942 -0.571 139 142 151
0.481514 -0.439171 -0.57 42 66 104
0.486943 -0.439171 -0.57 120 126 140
0.467151 -0.378304 -0.491 164 122 97
0.473452 -0.373681 -0.485 168 124 99
0.485383 -0.37291 -0.484 169 123 99
0.980021 -0.433008 -0.562 124 125 120
1.00209 -0.43609 -0.566 117 119 116
-0.00511333 -0.318993 -0.413 196 156 120
-0.00432667 -0.318993 -0.413 197 158 119
-0.00275333 -0.318993 -0.413 195 156 117
0.00117714 -0.318221 -0.412 194 152 114
0.00745524 -0.318221 -0.412 188 144 109
0.0162048 -0.320538 -0.415 184 139 108
0.0209981 -0.32131 -0.416 179 134 105
0.0226371 -0.322083 -0.417 177 132 103
0.0283324 -0.323628 -0.419 163 119 90
0.0568876 -0.336758 -0.436 115 82 73
0.0697667 -0.351433 -0.455 90 71 67
0.0758914 -0.35993 -0.466 87 69 67
0.0813171 -0.368426 -0.477 90 69 68
0.0858048 -0.37615 -0.487 89 70 66
0.128019 -0.441802 -0.572 118 137 179
0.231119 -0.44103 -0.571 198 205 215
0.249171 -0.440257 -0.57 201 204 209
0.357115 -0.439485 -0.569 42 72 132
0.367953 -0.439485 -0.569 166 167 171
0.369037 -0.439485 -0.569 122 122 122
0.391797 -0.439485 -0.569 168 169 171
0.409501 -0.438712 -0.568 36 68 109
0.413829 -0.438712 -0.568 20 52 99
0.446468 -0.44103 -0.571 133 136 141
0.455457 -0.440257 -0.57 135 138 143
0.469571 -0.440257 -0.57 111 126 149
0.478502 -0.439485 -0.569 58 85 130
0.485857 -0.440257 -0.57 111 117 129
0.488029 -0.440257 -0.57 130 134 145
0.48934 -0.439485 -0.569 82 90 109
0.495843 -0.439485 -0.569 113 116 131
0.49244 -0.42172 -0.546 124 104 95
0.466242 -0.381556 -0.494 169 124 101
0.467151 -0.379239 -0.491 166 122 97
0.469839 -0.37615 -0.487 168 124 99
0.894929 -0.433306 -0.561 202 204 190
0.91044 -0.434078 -0.562 198 202 188
0.91151 -0.434078 -0.562 198 202 188
0.924423 -0.435623 -0.564 195 197 183
0.953259 -0.434078 -0.562 159 161 150
0.97384 -0.435623 -0.564 118 119 114
0.975989 -0.435623 -0.564 112 113 108
0.993177 -0.435623 -0.564 109 110 105
0.00353143 -0.319006 -0.412 193 149 114
0.034081 -0.325974 -0.421 158 111 91
0.0365733 -0.326749 -0.422 157 111 88
0.04514 -0.33062 -0.427 141 99 85
0.0459533 -0.33062 -0.427 139 97 81
0.0468762 -0.331394 -0.428 139 97 81
0.124532 -0.442117 -0.571 166 174 187
0.364702 -0.440569 -0.569 167 167 175
0.36687 -0.440569 -0.569 178 178 180
0.372716 -0.439794 -0.568 153 158 164
0.41491 -0.439794 -0.568 31 64 107
0.421402 -0.439794 -0.568 99 112 144
0.427893 -0.439794 -0.568 105 117 129
0.454371 -0.441343 -0.57 140 141 145
0.455457 -0.441343 -0.57 143 144 148
0.476334 -0.440569 -0.569 56 78 117
0.482837 -0.440569 -0.569 88 102 128
0.491508 -0.440569 -0.569 59 70 90
0.467795 -0.394111 -0.509 151 115 93
0.468765 -0.394111 -0.509 151 115 93
0.468043 -0.378626 -0.489 166 124 100
0.468911 -0.377077 -0.487 167 125 101
0.509957 -0.378626 -0.489 157 113 88
0.92502 -0.43902 -0.567 190 192 179
0.929367 -0.440569 -0.569 189 191 178
0.961881 -0.440569 -0.569 139 139 131
0.96632 -0.436697 -0.564 115 116 110
-0.0162829 -0.323671 -0.417 191 153 117
-0.0146238 -0.322119 -0.415 190 151 118
0.00983333 -0.320567 -0.413 188 145 111
0.0153771 -0.321343 -0.414 180 135 104
0.0349657 -0.327552 -0.422 157 110 90
0.0382714 -0.328329 -0.423 150 105 86
0.040881 -0.329881 -0.425 143 100 83
0.0504886 -0.334538 -0.431 130 88 76
0.0687486 -0.35239 -0.454 92 71 68
0.0762171 -0.363257 -0.468 88 68 67
0.0876229 -0.381886 -0.492 90 72 72
0.126708 -0.443205 -0.571 112 126 153
0.236812 -0.441652 -0.569 83 95 135
0.313211 -0.440876 -0.568 126 132 144
0.317539 -0.440876 -0.568 112 124 148
0.319703 -0.440876 -0.568 131 143 165
0.32403 -0.440876 -0.568 145 155 165
0.331604 -0.440876 -0.568 172 182 194
0.372716 -0.440876 -0.568 177 178 182
0.3807 -0.4401 -0.567 156 160 171
0.390027 -0.440876 -0.568 175 174 180
0.39582 -0.4401 -0.567 116 119 134
0.3969 -0.4401 -0.567 113 118 140
0.39906 -0.4401 -0.567 87 101 127
0.40662 -0.4401 -0.567 66 92 129
0.41418 -0.4401 -0.567 42 74 113
0.41958 -0.4401 -0.567 131 152 183
0.433303 -0.440876 -0.568 153 152 160
0.438712 -0.440876 -0.568 149 153 162
0.448155 -0.441652 -0.569 144 148 151
0.449239 -0.441652 -0.569 146 149 156
0.465496 -0.441652 -0.569 120 127 145
0.476334 -0.441652 -0.569 64 87 119
0.490644 -0.440876 -0.568 90 98 119
0.487274 -0.41759 -0.538 130 102 91
0.470432 -0.398962 -0.514 147 111 97
0.467123 -0.388871 -0.501 165 123 101
0.467159 -0.387319 -0.499 169 127 103
0.467151 -0.38111 -0.491 169 125 98
0.4753 -0.376452 -0.485 170 124 100
0.49358 -0.3749 -0.483 162 116 92
0.501167 -0.376452 -0.485 160 114 91
0.889067 -0.434667 -0.56 194 196 182
0.890133 -0.434667 -0.56 194 196 182
0.968643 -0.444757 -0.573 114 113 108
0.973173 -0.440876 -0.568 111 112 107
-0.01298 -0.321353 -0.413 187 149 113
-0.000392381 -0.320575 -0.412 187 144 109
0.0209981 -0.323688 -0.416 175 130 101
0.0316752 -0.327578 -0.421 160 115 92
0.0374657 -0.329134 -0.423 149 103 87
0.0504886 -0.335359 -0.431 130 87 78
0.0712543 -0.357146 -0.459 90 70 69
0.0985857 -0.400719 -0.515 226 224 237
0.123229 -0.443514 -0.57 193 206 225
0.23031 -0.442736 -0.569 180 194 223
0.282918 -0.441958 -0.568 69 99 161
0.36126 -0.44118 -0.567 172 177 197
0.36234 -0.44118 -0.567 174 179 199
0.41634 -0.44118 -0.567 112 138 175
0.41958 -0.44118 -0.567 144 155 177
0.42174 -0.44118 -0.567 144 145 166
0.43146 -0.44118 -0.567 145 149 160
0.44845 -0.441958 -0.568 144 147 154
0.461432 -0.441958 -0.568 60 70 97
0.496053 -0.441958 -0.568 52 62 87
0.489991 -0.42095 -0.541 128 100 89
0.477589 -0.407722 -0.524 141 107 95
0.467889 -0.394494 -0.507 155 114 94
0.467123 -0.389826 -0.501 164 123 103
0.501055 -0.376598 -0.484 161 115 92
0.520817 -0.384379 -0.494 154 109 86
-0.0153771 -0.32292 -0.414 190 152 116
-0.00743714 -0.32058 -0.411 192 152 116
0.00353143 -0.32136 -0.412 193 148 115
0.0426 -0.33228 -0.426 144 101 85
0.0504886 -0.33618 -0.431 129 89 79
0.0514286 -0.33696 -0.432 123 89 79
0.0601962 -0.34476 -0.442 105 75 73
0.0970362 -0.39936 -0.512 214 215 233
0.229905 -0.44304 -0.568 188 199 231
0.241148 -0.44382 -0.569 199 201 222
0.36018 -0.44226 -0.567 127 146 178
0.36342 -0.44226 -0.567 183 183 193
0.406981 -0.44148 -0.566 65 94 138
0.41345 -0.44148 -0.566 62 94 133
0.41884 -0.44148 -0.566 145 158 177
0.427465 -0.44148 -0.566 74 90 116
0.429621 -0.44148 -0.566 122 132 144
0.450613 -0.44304 -0.568 147 150 157
0.475497 -0.44304 -0.568 66 87 118
0.502931 -0.44148 -0.566 109 112 119
0.479411 -0.41028 -0.526 140 106 94
0.47676 -0.40716 -0.522 140 104 90
0.474093 -0.40404 -0.518 143 107 93
0.468103 -0.38376 -0.492 172 126 102
0.477148 -0.3783 -0.485 172 124 102
0.477086 -0.37752 -0.484 173 125 103
0.488886 -0.37596 -0.482 167 119 96
0.49164 -0.37596 -0.482 166 118 95
-0.00743714 -0.321363 -0.411 193 150 115
0.0316752 -0.329182 -0.421 160 113 93
0.0375543 -0.331528 -0.424 148 105 89
0.0496676 -0.337001 -0.431 131 95 81
0.0561857 -0.341692 -0.437 116 83 76
0.0613143 -0.347166 -0.444 97 78 72
0.0645705 -0.351075 -0.449 94 74 75
0.0657171 -0.352639 -0.451 92 72 73
0.0922724 -0.392516 -0.502 93 82 86
0.126264 -0.444904 -0.569 150 156 170
0.201775 -0.444122 -0.568 208 212 221
0.23315 -0.444122 -0.568 107 123 159
0.236396 -0.444122 -0.568 164 182 220
0.23856 -0.444122 -0.568 189 200 220
0.28458 -0.44334 -0.567 50 85 151
0.375716 -0.442558 -0.566 183 183 193
0.413795 -0.441776 -0.565 70 99 139
0.44766 -0.44334 -0.567 146 150 159
0.47142 -0.44334 -0.567 65 76 104
0.49452 -0.42692 -0.546 121 97 87
0.490114 -0.422229 -0.54 125 101 91
0.469906 -0.382351 -0.489 168 124 99
0.473452 -0.379224 -0.485 170 124 101
0.48346 -0.37766 -0.483 173 125 102
0.48705 -0.376878 -0.482 167 119 96
0.519646 -0.384697 -0.492 153 111 87
-0.00741905 -0.321362 -0.41 195 152 117
-0.0066381 -0.321362 -0.41 192 149 114
-0.00195714 -0.322146 -0.411 191 149 111
0.0194133 -0.326065 -0.416 172 125 97
0.0487333 -0.337038 -0.43 131 92 77
0.0563143 -0.343309 -0.438 113 83 75
0.0909524 -0.391905 -0.5 86 77 82
0.194202 -0.445204 -0.568 210 213 220
0.2403 -0.44442 -0.567 199 202 219
0.31103 -0.443636 -0.566 168 173 176
0.332592 -0.443636 -0.566 181 185 194
0.382586 -0.442852 -0.565 184 184 192
0.390119 -0.442852 -0.565 184 186 198
0.393348 -0.442852 -0.565 121 131 158
0.431014 -0.442852 -0.565 141 150 167
0.437168 -0.443636 -0.566 157 159 171
0.468854 -0.397391 -0.507 151 113 94
0.468115 -0.386418 -0.493 170 122 99
0.48254 -0.37858 -0.483 172 124 101
0.48346 -0.37858 -0.483 172 124 101
0.498067 -0.377796 -0.482 161 115 91
0.506587 -0.379364 -0.484 158 114 89
0.57837 -0.420122 -0.536 139 118 101
0.853867 -0.438933 -0.56 187 190 179
0.857067 -0.438933 -0.56 185 186 178
0.858133 -0.438933 -0.56 184 185 177
0.864409 -0.440501 -0.562 180 181 173
0.881679 -0.445988 -0.569 174 175 167
-0.00430571 -0.322929 -0.411 191 149 111
-0.00274 -0.322929 -0.411 193 151 113
0.0169952 -0.326071 -0.415 176 129 101
0.0242838 -0.328429 -0.418 158 112 89
0.02508 -0.328429 -0.418 160 114 91
0.0427 -0.3355 -0.427 139 97 83
0.0604686 -0.348857 -0.444 100 76 72
0.0683324 -0.359071 -0.457 90 71 67
0.0765429 -0.369286 -0.47 86 68 66
0.0848771 -0.382643 -0.487 91 69 72
0.22842 -0.4455 -0.567 103 132 190
0.23274 -0.4455 -0.567 97 118 161
0.23814 -0.4455 -0.567 197 205 218
0.33631 -0.443929 -0.565 103 117 143
0.369671 -0.443929 -0.565 191 191 199
0.438548 -0.443929 -0.565 157 159 172
0.440402 -0.444714 -0.566 152 156 168
0.44687 -0.444714 -0.566 147 153 167
0.461964 -0.444714 -0.566 148 147 161
0.46412 -0.444714 -0.566 141 144 161
0.477057 -0.444714 -0.566 106 122 145
0.484604 -0.444714 -0.566 118 126 137
0.46812 -0.391286 -0.498 163 121 99
0.469874 -0.383429 -0.488 169 124 101
0.470726 -0.381857 -0.486 168 124 99
0.472529 -0.381071 -0.485 172 128 103
0.887417 -0.449429 -0.572 143 142 137
-0.0219476 -0.330012 -0.419 182 146 112
-0.0210486 -0.328437 -0.417 184 146 110
0.00117143 -0.322924 -0.41 185 146 107
0.0169952 -0.326862 -0.415 174 129 96
0.02514 -0.330012 -0.419 160 114 90
0.0384524 -0.334738 -0.425 147 102 81
0.0418867 -0.336313 -0.427 141 98 82
0.0606048 -0.35049 -0.445 100 75 71
0.0617286 -0.352066 -0.447 99 75 71
0.121714 -0.447368 -0.568 220 219 235
0.20682 -0.44658 -0.567 173 178 197
0.239876 -0.445792 -0.566 197 201 213
0.392651 -0.444217 -0.564 78 93 126
0.393726 -0.444217 -0.564 82 97 130
0.408766 -0.444217 -0.564 104 133 175
0.423806 -0.444217 -0.564 166 170 179
0.445792 -0.445792 -0.566 139 145 161
0.459808 -0.445792 -0.566 151 151 161
0.468432 -0.445792 -0.566 100 116 139
0.481595 -0.445005 -0.565 75 91 114
0.499006 -0.444217 -0.564 54 68 95
0.50241 -0.44343 -0.563 81 98 128
0.469022 -0.386721 -0.491 166 121 98
0.479851 -0.381208 -0.484 177 130 104
0.47978 -0.38042 -0.483 175 128 102
0.48438 -0.38042 -0.483 175 125 100
0.492452 -0.378845 -0.481 164 116 93
0.841929 -0.442642 -0.562 157 158 152
0.843 -0.442642 -0.562 156 157 149
-0.0228 -0.3316 -0.42 186 147 114
-0.0097619 -0.323705 -0.41 189 149 113
-0.00740095 -0.322915 -0.409 191 152 113
-0.00117143 -0.323705 -0.41 192 152 116
0.00667048 -0.325284 -0.412 183 140 106
0.00824 -0.325284 -0.412 181 138 103
0.0185762 -0.327652 -0.415 172 127 96
0.0292695 -0.33239 -0.421 157 112 91
0.0453514 -0.338706 -0.429 135 93 79
0.0480257 -0.340285 -0.431 125 92 75
0.0516667 -0.342653 -0.434 116 88 76
0.06286 -0.354496 -0.449 97 76 71
0.0650019 -0.356865 -0.452 96 75 74
0.0661543 -0.358444 -0.454 93 73 72
0.0684819 -0.361602 -0.458 89 69 68
0.121714 -0.44845 -0.568 222 220 234
0.12474 -0.44766 -0.567 205 208 213
0.15174 -0.44766 -0.567 179 191 215
0.19244 -0.44687 -0.566 192 194 206
0.218314 -0.44687 -0.566 69 105 165
0.219392 -0.44687 -0.566 64 100 160
0.22047 -0.44687 -0.566 59 97 160
0.226939 -0.44687 -0.566 79 114 180
0.230173 -0.44687 -0.566 72 100 163
0.409113 -0.444502 -0.563 117 142 182
0.433474 -0.445291 -0.564 145 156 178
0.445005 -0.446081 -0.565 140 148 169
0.451462 -0.446081 -0.565 112 125 157
0.45469 -0.446081 -0.565 100 115 138
0.47729 -0.446081 -0.565 114 127 146
0.488052 -0.446081 -0.565 132 141 148
0.497931 -0.445291 -0.564 41 56 87
0.501154 -0.445291 -0.564 56 72 108
0.489437 -0.423974 -0.537 120 97 91
0.485893 -0.420027 -0.532 127 99 87
0.469857 -0.399499 -0.506 150 113 94
0.469011 -0.396341 -0.502 155 119 97
0.476224 -0.382919 -0.485 175 129 105
0.48162 -0.38134 -0.483 176 127 97
0.500698 -0.379761 -0.481 164 116 93
0.502657 -0.38055 -0.482 163 115 92
0.806557 -0.441344 -0.559 189 191 180
0.838718 -0.443712 -0.562 132 131 126
0.85611 -0.446081 -0.565 120 120 112
0.865171 -0.44687 -0.566 116 115 110
0.876714 -0.450029 -0.57 113 112 107
-0.0121048 -0.324486 -0.41 190 152 115
-0.0097381 -0.323694 -0.409 188 148 112
-0.00195238 -0.324486 -0.41 195 152 117
0.00195714 -0.325277 -0.411 181 138 103
0.0409771 -0.337149 -0.426 141 99 83
0.0516667 -0.34348 -0.434 117 88 74
0.0868619 -0.390174 -0.493 89 71 67
0.0931914 -0.401254 -0.507 130 131 149
0.239452 -0.447157 -0.565 197 201 213
0.241605 -0.447157 -0.565 195 201 215
0.391955 -0.445574 -0.563 92 109 137
0.3941 -0.445574 -0.563 150 166 189
0.43992 -0.446366 -0.564 145 161 187
0.476986 -0.410751 -0.519 137 108 94
0.46906 -0.394923 -0.499 161 121 96
0.469874 -0.386217 -0.488 167 125 100
0.4753 -0.383843 -0.485 175 129 103
0.486955 -0.380677 -0.481 175 124 95
0.501614 -0.380677 -0.481 162 115 89
0.50253 -0.380677 -0.481 158 114 89
0.507248 -0.381469 -0.482 159 114 91
0.840211 -0.445574 -0.563 116 115 110
-0.0113238 -0.325267 -0.41 190 150 114
0.00274 -0.32606 -0.411 185 142 107
0.00983333 -0.327647 -0.413 178 135 100
0.02514 -0.332407 -0.419 160 114 91
0.0309467 -0.334787 -0.422 154 109 86
0.0367467 -0.336373 -0.424 147 102 83
0.0453514 -0.34034 -0.429 131 92 77
0.0536886 -0.346687 -0.437 112 84 72
0.239452 -0.448233 -0.565 198 199 217
0.395172 -0.446647 -0.563 184 186 198
0.427655 -0.445853 -0.562 174 172 186
0.43914 -0.446647 -0.563 143 164 191
0.466777 -0.44744 -0.564 97 110 144
0.467851 -0.44744 -0.564 73 86 120
0.471074 -0.44744 -0.564 91 109 147
0.476446 -0.44744 -0.564 114 131 151
0.490614 -0.446647 -0.563 134 142 144
0.469022 -0.389527 -0.491 166 127 98
0.474376 -0.384767 -0.485 173 129 102
0.4807 -0.38318 -0.483 176 129 101
0.500571 -0.3808 -0.48 163 116 90
0.5141 -0.384767 -0.485 151 109 85
0.815168 -0.445853 -0.562 141 140 135
0.835507 -0.445853 -0.562 116 115 110
-0.0176143 -0.326843 -0.411 186 148 112
-0.00740095 -0.325252 -0.409 191 148 113
0.00983333 -0.328433 -0.413 176 133 98
0.0169952 -0.330024 -0.415 166 119 93
0.0242838 -0.33241 -0.418 159 113 90
0.0351314 -0.337181 -0.424 150 105 82
0.035939 -0.337181 -0.424 148 103 82
0.0454571 -0.341952 -0.43 129 92 74
0.0462762 -0.341952 -0.43 128 93 74
0.0828514 -0.386486 -0.486 84 68 68
0.231509 -0.448514 -0.564 128 144 178
0.234731 -0.448514 -0.564 190 198 219
0.373061 -0.446924 -0.562 186 191 210
0.378413 -0.446924 -0.562 176 189 206
0.381625 -0.446924 -0.562 178 180 195
0.436995 -0.447719 -0.563 101 124 165
0.465703 -0.448514 -0.564 132 140 153
0.489542 -0.447719 -0.563 142 147 151
0.470804 -0.388076 -0.488 169 128 100
0.480773 -0.384895 -0.484 172 126 100
0.48254 -0.3841 -0.483 175 128 100
0.486955 -0.38251 -0.481 171 121 94
0.4896 -0.381714 -0.48 167 120 94
0.497704 -0.380919 -0.479 168 121 95
0.498616 -0.380919 -0.479 166 119 93
0.505143 -0.381714 -0.48 161 117 90
0.794845 -0.444538 -0.559 129 130 124
0.858257 -0.453286 -0.57 123 124 118
-0.0216857 -0.330017 -0.414 190 150 115
0.0259381 -0.334003 -0.419 157 111 88
0.0463838 -0.343569 -0.431 126 91 72
0.0567 -0.35154 -0.441 105 80 75
0.0773571 -0.378643 -0.475 85 67 67
0.11913 -0.451183 -0.566 217 220 235
0.434078 -0.447994 -0.562 60 83 135
0.43836 -0.447994 -0.562 120 150 188
0.441285 -0.448791 -0.563 71 96 137
0.446647 -0.448791 -0.563 76 105 145
0.448791 -0.448791 -0.563 51 79 126
0.465703 -0.449589 -0.564 126 135 144
0.479038 -0.447994 -0.562 68 90 127
0.48332 -0.447994 -0.562 105 114 129
0.469071 -0.394586 -0.495 154 112 88
0.469054 -0.392991 -0.493 163 122 94
0.469 -0.3906 -0.49 165 124 96
0.47978 -0.38502 -0.483 173 126 100
0.486955 -0.383426 -0.481 172 122 97
0.494054 -0.381831 -0.479 168 121 93
0.501353 -0.381831 -0.479 158 113 84
0.524067 -0.3906 -0.49 149 110 81
0.83351 -0.450386 -0.565 118 118 110
0.846997 -0.453574 -0.569 119 119 111
0.849165 -0.453574 -0.569 117 117 109
0.855 -0.454371 -0.57 120 121 113
0.863448 -0.455966 -0.572 124 124 116
0.884184 -0.459951 -0.577 122 123 117
-0.0241676 -0.332404 -0.416 188 148 113
-0.00971429 -0.326011 -0.408 185 145 109
-0.00738286 -0.326011 -0.408 192 149 115
0.00588571 -0.329208 -0.412 180 135 102
0.035939 -0.338796 -0.424 146 103 84
0.0724962 -0.373155 -0.467 86 68 68
0.078921 -0.382744 -0.479 85 67 67
0.226809 -0.449864 -0.563 144 169 200
0.40018 -0.448266 -0.561 159 164 170
0.405523 -0.448266 -0.561 140 168 205
0.457629 -0.449065 -0.562 164 164 166
0.474529 -0.449864 -0.563 94 117 159
0.48332 -0.449065 -0.562 88 104 120
0.469946 -0.401921 -0.503 151 114 95
0.46906 -0.398725 -0.499 159 118 96
0.470017 -0.397926 -0.498 159 118 96
0.47886 -0.38594 -0.483 174 127 99
0.485123 -0.384342 -0.481 174 124 97
0.486857 -0.383543 -0.48 173 123 96
0.495754 -0.381945 -0.478 171 121 94
0.82458 -0.45306 -0.567 121 122 116
0.8474 -0.455457 -0.57 120 121 113
0.885716 -0.46185 -0.578 125 126 120
0.00824 -0.329992 -0.412 179 134 103
0.01062 -0.330793 -0.413 175 130 101
0.0437171 -0.343609 -0.429 130 93 77
0.0472048 -0.34521 -0.431 124 88 74
0.057801 -0.354822 -0.443 103 78 74
0.078921 -0.383656 -0.479 84 68 68
0.235388 -0.450936 -0.563 173 180 209
0.405867 -0.448533 -0.56 129 158 200
0.406933 -0.448533 -0.56 131 154 188
0.427963 -0.449334 -0.561 177 181 192
0.450135 -0.450135 -0.562 63 87 133
0.484597 -0.449334 -0.561 144 149 155
0.469933 -0.392467 -0.49 167 125 100
0.485943 -0.384457 -0.48 162 112 85
0.486857 -0.384457 -0.48 171 121 94
0.509714 -0.384457 -0.48 154 110 83
0.817379 -0.454941 -0.568 103 103 101
0.835075 -0.455742 -0.569 116 116 108
0.842662 -0.455742 -0.569 121 121 113
0.8595 -0.458946 -0.573 114 115 110
0.882413 -0.46295 -0.578 105 106 100
0.892954 -0.466154 -0.582 110 111 105
-0.0232067 -0.33158 -0.413 191 151 116
0.00274 -0.329974 -0.411 183 138 105
0.0284 -0.3372 -0.42 160 115 92
0.0333581 -0.338806 -0.422 148 103 82
0.0528562 -0.350849 -0.437 111 81 71
0.0538114 -0.351651 -0.438 109 79 69
0.0679048 -0.369314 -0.46 88 70 70
0.0714533 -0.374131 -0.466 87 69 69
0.0819257 -0.390189 -0.486 85 71 70
0.0892257 -0.402231 -0.501 88 83 106
0.0944781 -0.412669 -0.514 218 218 244
0.384533 -0.4496 -0.56 72 102 154
0.394133 -0.4496 -0.56 151 153 152
0.402667 -0.4496 -0.56 95 121 170
0.431467 -0.4496 -0.56 79 102 144
0.4336 -0.4496 -0.56 57 88 135
0.435733 -0.4496 -0.56 45 79 124
0.457629 -0.451206 -0.562 163 164 168
0.468569 -0.450403 -0.561 63 87 131
0.483529 -0.450403 -0.561 126 144 166
0.472663 -0.391794 -0.488 170 124 100
0.477086 -0.388583 -0.484 167 121 97
0.484207 -0.386174 -0.481 174 124 97
0.487771 -0.385371 -0.48 172 122 95
0.488686 -0.385371 -0.48 171 121 94
0.49926 -0.382963 -0.477 162 115 87
0.5951 -0.434346 -0.541 195 191 182
0.814829 -0.457629 -0.57 105 104 102
0.828943 -0.457629 -0.57 121 122 116
0.836543 -0.457629 -0.57 121 121 113
0.86031 -0.461643 -0.575 86 88 83
0.862093 -0.46084 -0.574 79 81 76
0.866881 -0.461643 -0.575 91 93 88
0.890313 -0.46646 -0.581 104 105 99
-0.0198657 -0.329148 -0.409 186 146 111
-0.0174857 -0.328343 -0.408 185 142 107
-0.0167086 -0.328343 -0.408 186 143 108
-0.0120457 -0.328343 -0.408 185 142 107
-0.00505143 -0.328343 -0.408 188 145 110
-0.00349714 -0.328343 -0.408 188 145 111
0.00274 -0.330757 -0.411 184 139 106
0.01062 -0.332367 -0.413 177 132 101
0.0185762 -0.333976 -0.415 168 120 97
0.0333581 -0.33961 -0.422 147 102 81
0.0367467 -0.341219 -0.424 143 100 81
0.0418867 -0.343633 -0.427 136 97 80
0.0482486 -0.348462 -0.433 123 87 73
0.062281 -0.362948 -0.451 95 71 67
0.0740143 -0.379043 -0.471 86 68 68
0.204996 -0.452276 -0.562 132 142 177
0.335467 -0.450667 -0.56 192 198 214
0.406207 -0.449862 -0.559 104 135 179
0.4144 -0.450667 -0.56 84 122 169
0.415467 -0.450667 -0.56 86 114 161
0.421113 -0.449862 -0.559 183 181 184
0.428267 -0.450667 -0.56 177 179 191
0.44 -0.450667 -0.56 47 78 133
0.441067 -0.450667 -0.56 40 71 126
0.449334 -0.451471 -0.561 118 138 171
0.456814 -0.451471 -0.561 167 168 173
0.471774 -0.451471 -0.561 55 83 133
0.479254 -0.451471 -0.561 50 80 130
0.5022 -0.449057 -0.558 20 43 77
0.470924 -0.40399 -0.502 149 111 90
0.486857 -0.386286 -0.48 171 122 92
0.490291 -0.384676 -0.478 172 123 93
0.497443 -0.383871 -0.477 168 118 93
0.513525 -0.38709 -0.481 152 110 85
0.83801 -0.459519 -0.571 128 127 122
0.847494 -0.461129 -0.573 121 122 117
0.848586 -0.461129 -0.573 119 120 115
0.881312 -0.465152 -0.578 102 105 98
-0.0174857 -0.32912 -0.408 184 141 106
-0.00969048 -0.328313 -0.407 188 145 110
-0.00738286 -0.32912 -0.408 187 144 109
0.0169543 -0.33396 -0.414 165 118 92
0.0482486 -0.349287 -0.433 123 87 73
0.0510743 -0.351707 -0.436 110 81 73
0.234551 -0.45254 -0.561 98 118 155
0.377458 -0.450927 -0.559 104 132 172
0.382782 -0.450927 -0.559 64 100 162
0.3913 -0.450927 -0.559 197 202 198
0.39343 -0.450927 -0.559 184 186 183
0.438933 -0.451733 -0.56 35 67 118
0.454677 -0.45254 -0.561 169 170 172
0.477333 -0.451733 -0.56 55 88 139
0.490323 -0.450927 -0.559 107 110 117
0.47365 -0.409787 -0.508 144 106 85
0.494717 -0.38478 -0.477 174 124 99
0.868797 -0.465447 -0.577 98 100 95
0.870995 -0.465447 -0.577 120 122 117
-0.0255667 -0.33394 -0.413 191 150 118
-0.0230943 -0.332323 -0.411 191 150 118
-0.0206448 -0.330706 -0.409 192 149 115
-0.00891524 -0.329089 -0.407 187 144 110
-0.00582857 -0.329897 -0.408 186 143 109
-0.00503905 -0.329089 -0.407 186 143 109
-0.00349714 -0.329897 -0.408 187 144 109
0.0121933 -0.33394 -0.413 170 123 95
0.0185762 -0.335557 -0.415 167 120 94
0.02508 -0.337983 -0.418 160 112 90
0.0317505 -0.341217 -0.422 149 104 83
0.0593067 -0.36224 -0.448 98 77 72
0.09144 -0.410754 -0.508 160 161 189
0.203563 -0.453609 -0.561 100 119 151
0.4528 -0.4528 -0.56 159 163 166
0.463467 -0.4528 -0.56 114 137 181
0.476481 -0.451991 -0.559 43 83 135
0.484999 -0.451991 -0.559 135 138 153
0.488193 -0.451991 -0.559 140 140 150
0.495823 -0.451183 -0.558 44 67 101
0.477286 -0.415606 -0.514 140 104 88
0.475473 -0.41318 -0.511 141 105 89
0.471862 -0.406711 -0.503 150 108 86
0.472622 -0.393774 -0.487 170 123 97
0.479851 -0.391349 -0.484 167 120 94
0.867 -0.467354 -0.578 82 84 81
0.876909 -0.467354 -0.578 102 104 99
0.881734 -0.468163 -0.579 44 46 41
0.889629 -0.470589 -0.582 59 62 55
-0.00814 -0.329864 -0.407 186 143 109
0.00745524 -0.333916 -0.412 175 130 99
0.00902476 -0.333916 -0.412 177 130 102
0.0185762 -0.336348 -0.415 166 120 96
0.0259381 -0.33959 -0.419 157 109 87
0.0491867 -0.351747 -0.434 115 82 75
0.0971286 -0.423879 -0.523 208 214 230
0.118288 -0.455488 -0.562 213 215 227
0.233067 -0.453867 -0.56 152 163 183
0.382097 -0.452246 -0.558 120 147 200
0.38316 -0.452246 -0.558 120 147 200
0.384223 -0.452246 -0.558 145 163 203
0.419297 -0.452246 -0.558 186 190 199
0.437366 -0.452246 -0.558 37 69 126
0.447732 -0.453056 -0.559 97 111 137
0.479675 -0.453056 -0.559 39 75 123
0.483934 -0.453056 -0.559 78 97 127
0.48094 -0.420637 -0.519 125 96 82
0.471894 -0.406049 -0.501 154 109 88
0.4718 -0.397133 -0.49 162 118 93
0.474477 -0.394702 -0.487 171 124 98
0.485123 -0.389839 -0.481 172 122 97
0.487771 -0.389029 -0.48 172 122 97
0.494452 -0.384976 -0.475 172 122 95
0.5765 -0.4255 -0.525 133 107 90
0.591642 -0.434415 -0.536 199 184 177
0.83143 -0.467645 -0.577 22 22 20
0.831086 -0.466834 -0.576 39 39 37
0.861495 -0.468455 -0.578 112 114 109
0.867397 -0.469266 -0.579 109 111 108
-0.00966667 -0.329827 -0.406 186 143 109
-0.00503905 -0.330639 -0.407 183 139 104
0.0226914 -0.339575 -0.418 159 111 89
0.0276 -0.3412 -0.42 154 107 87
0.0308733 -0.342012 -0.421 151 104 86
0.0572143 -0.36151 -0.445 100 74 73
0.06384 -0.370446 -0.456 87 67 68
0.0757067 -0.386693 -0.476 85 69 69
0.0797448 -0.393192 -0.484 83 67 67
0.0886238 -0.408628 -0.503 113 114 119
0.0936809 -0.418376 -0.515 152 163 195
0.121283 -0.455746 -0.561 181 184 193
0.42385 -0.452496 -0.557 192 189 206
0.433399 -0.452496 -0.557 54 85 149
0.435521 -0.452496 -0.557 36 68 125
0.47244 -0.453309 -0.558 21 62 118
0.485194 -0.453309 -0.558 104 115 137
0.491571 -0.453309 -0.558 46 62 85
0.497223 -0.451684 -0.556 39 62 104
0.471828 -0.398879 -0.491 159 117 93
0.474429 -0.394817 -0.486 170 123 97
0.485029 -0.389943 -0.48 173 123 98
0.48858 -0.38913 -0.479 175 125 100
0.493548 -0.385881 -0.475 176 126 99
0.498829 -0.385069 -0.474 169 122 94
0.516114 -0.389943 -0.48 154 114 78
0.843881 -0.467119 -0.575 105 106 101
0.846071 -0.467119 -0.575 101 101 99
0.864089 -0.470369 -0.579 112 115 108
0.871809 -0.470369 -0.579 94 96 93
0.88478 -0.471993 -0.581 53 56 49
-0.0119867 -0.3306 -0.406 191 148 114
-0.00966667 -0.3306 -0.406 188 143 110
0.00194762 -0.333043 -0.409 182 138 103
0.0114067 -0.3363 -0.413 171 126 97
0.018621 -0.338743 -0.416 164 116 94
0.0218952 -0.340371 -0.418 157 109 87
0.02514 -0.341186 -0.419 155 107 87
0.043819 -0.350143 -0.43 129 89 79
0.0720667 -0.382714 -0.47 86 68 68
0.0732724 -0.384343 -0.472 86 68 66
0.0758657 -0.388414 -0.477 84 68 68
0.11594 -0.456814 -0.561 212 215 224
0.41218 -0.453557 -0.557 76 114 177
0.435521 -0.453557 -0.557 37 67 121
0.451183 -0.454371 -0.558 68 96 135
0.456497 -0.454371 -0.558 150 163 182
0.501459 -0.452743 -0.556 25 43 83
0.472733 -0.399 -0.49 161 119 95
0.478008 -0.394114 -0.484 174 127 101
0.485943 -0.390857 -0.48 173 123 98
-0.0119867 -0.331373 -0.406 190 147 113
-0.00814 -0.33219 -0.407 186 141 110
0.0154143 -0.338719 -0.415 169 122 96
0.0178286 -0.339535 -0.416 162 112 89
0.0259381 -0.341984 -0.419 154 106 86
0.059439 -0.36647 -0.449 97 73 69
0.06384 -0.372183 -0.456 91 70 67
0.0746429 -0.38769 -0.475 85 67 65
0.431277 -0.454618 -0.557 71 96 137
0.493873 -0.454618 -0.557 105 117 141
0.498282 -0.453802 -0.556 39 62 103
0.471905 -0.408095 -0.5 144 108 86
0.478008 -0.395036 -0.484 174 127 101
0.485029 -0.391771 -0.48 172 125 99
0.49612 -0.386874 -0.474 173 124 94
0.503343 -0.386874 -0.474 162 118 89
0.836173 -0.471758 -0.578 70 72 71
0.838024 -0.470942 -0.577 123 119 116
0.862267 -0.47339 -0.58 101 103 98
0.869287 -0.474207 -0.581 114 116 113
0.873 -0.475023 -0.582 115 117 114
0.875217 -0.475023 -0.582 117 119 116
0.881869 -0.475023 -0.582 102 104 99
0.882977 -0.475023 -0.582 102 104 99
-0.0287133 -0.337873 -0.413 184 143 111
-0.0143067 -0.332147 -0.406 193 150 116
-0.00814 -0.332965 -0.407 187 142 111
-0.00503905 -0.332965 -0.407 183 138 105
0.0234876 -0.341964 -0.418 154 106 84
0.0360238 -0.34769 -0.425 136 90 74
0.0411695 -0.350145 -0.428 129 89 79
0.0475333 -0.355053 -0.434 117 83 74
0.0628333 -0.372233 -0.455 92 72 65
0.0748 -0.389413 -0.476 85 67 63
0.0891524 -0.413956 -0.506 207 213 227
0.40085 -0.454861 -0.556 67 108 160
0.428385 -0.454861 -0.556 71 98 141
0.436857 -0.454861 -0.556 42 71 129
0.460984 -0.455679 -0.557 119 143 177
0.485573 -0.454861 -0.556 152 159 169
0.497386 -0.454043 -0.555 36 59 93
0.4995 -0.454043 -0.555 29 48 90
0.491049 -0.434409 -0.531 112 90 77
0.493411 -0.387777 -0.474 176 126 101
0.506954 -0.387777 -0.474 159 114 85
0.508929 -0.388595 -0.475 155 114 86
0.583715 -0.431136 -0.527 143 129 120
0.840222 -0.472041 -0.577 123 119 116
0.87561 -0.47695 -0.583 90 95 91
-0.02454 -0.33538 -0.409 178 138 103
-0.0135333 -0.33292 -0.406 191 148 114
-0.00734667 -0.33292 -0.406 186 141 110
0.018621 -0.34112 -0.416 160 112 89
0.0723733 -0.38704 -0.472 86 67 61
0.0847267 -0.40754 -0.497 84 73 71
0.0863629 -0.41082 -0.501 106 95 93
0.341543 -0.45592 -0.556 91 124 177
0.35531 -0.45592 -0.556 197 205 216
0.43368 -0.45592 -0.556 41 72 126
0.437916 -0.45592 -0.556 39 70 127
0.438975 -0.45592 -0.556 40 68 131
0.497223 -0.45592 -0.556 61 82 113
0.496497 -0.44116 -0.538 107 85 74
0.472857 -0.41 -0.5 144 109 89
0.476224 -0.3977 -0.485 167 125 100
0.4761 -0.39606 -0.483 173 125 102
0.482459 -0.39524 -0.482 177 130 104
0.485029 -0.3936 -0.48 173 126 98
0.48756 -0.39196 -0.478 177 127 100
0.48847 -0.39196 -0.478 171 121 94
0.507857 -0.38868 -0.474 161 116 87
0.517776 -0.39278 -0.479 161 114 88
0.596652 -0.4387 -0.535 108 105 100
0.8775 -0.4797 -0.585 91 96 92
-0.025319 -0.336159 -0.409 183 143 108
-0.00812 -0.333693 -0.406 185 138 108
-0.000388571 -0.335337 -0.408 182 137 104
0.01946 -0.342734 -0.417 158 111 85
0.0377314 -0.350131 -0.426 132 90 74
0.043 -0.353419 -0.43 126 88 77
0.0494133 -0.35835 -0.436 111 83 72
0.050359 -0.359172 -0.437 109 81 70
0.0676114 -0.381364 -0.464 85 70 67
0.114462 -0.459445 -0.559 180 184 183
0.372643 -0.456157 -0.555 58 88 148
0.396957 -0.456157 -0.555 76 105 149
0.402243 -0.456157 -0.555 67 107 169
0.423386 -0.456157 -0.555 106 124 148
0.452496 -0.457801 -0.557 152 166 175
0.464392 -0.456979 -0.556 79 114 152
0.473924 -0.456979 -0.556 60 96 148
0.474983 -0.456979 -0.556 66 102 154
0.504636 -0.456979 -0.556 57 68 88
0.505987 -0.455335 -0.554 76 75 81
0.494748 -0.439719 -0.535 110 85 78
0.472763 -0.403555 -0.491 159 118 96
0.4761 -0.39698 -0.483 169 123 99
0.48756 -0.39287 -0.478 172 125 97
0.493411 -0.389583 -0.474 176 126 99
0.495073 -0.388761 -0.473 173 123 96
0.497776 -0.388761 -0.473 168 121 93
0.498522 -0.387939 -0.472 167 120 92
0.500479 -0.388761 -0.473 169 122 94
0.504083 -0.388761 -0.473 164 117 89
0.506786 -0.388761 -0.473 163 116 88
0.596554 -0.438897 -0.534 78 74 71
0.892799 -0.482458 -0.587 116 119 112
-0.0220943 -0.33529 -0.407 185 142 108
-0.01972 -0.334467 -0.406 186 141 108
-0.00734667 -0.334467 -0.406 185 138 108
-0.0058 -0.334467 -0.406 184 137 107
0.00428476 -0.336938 -0.409 178 133 100
0.0394467 -0.351767 -0.427 129 90 75
0.053461 -0.364124 -0.442 104 77 68
0.0585838 -0.36989 -0.449 97 74 66
0.0701267 -0.386367 -0.469 86 68 66
0.0791486 -0.400371 -0.486 81 66 63
0.091541 -0.423438 -0.514 211 217 231
0.346214 -0.457214 -0.555 85 117 174
