ply
format ascii 1.0
comment Created by Open3D
element vertex 1289
property double x
property double y
property double z
property uchar red
property uchar green
property uchar blue
end_header
0.0957438 -0.257965 -0.439 139 99 91
0.0987 -0.25914 -0.441 137 98 91
0.116717 -0.269717 -0.459 96 76 77
0.224046 -0.366674 -0.624 249 249 255
0.2288 -0.366674 -0.624 244 248 249
0.259703 -0.366674 -0.624 204 218 247
0.2625 -0.367262 -0.625 138 144 180
0.264881 -0.367262 -0.625 200 207 233
0.267262 -0.367262 -0.625 231 239 252
0.291794 -0.366674 -0.624 231 236 255
0.31131 -0.367262 -0.625 175 190 229
0.34281 -0.36785 -0.626 175 175 199
0.364272 -0.36785 -0.626 202 200 214
0.379773 -0.36785 -0.626 97 124 171
0.38335 -0.36785 -0.626 191 195 220
0.395274 -0.36785 -0.626 165 173 194
0.411968 -0.36785 -0.626 124 141 169
0.41316 -0.36785 -0.626 104 121 164
0.416737 -0.36785 -0.626 58 71 126
0.441777 -0.36785 -0.626 86 112 169
0.47008 -0.366674 -0.624 62 76 123
0.474073 -0.366087 -0.623 160 169 200
0.436294 -0.301449 -0.513 163 108 88
0.446371 -0.299686 -0.51 158 106 85
0.454143 -0.299686 -0.51 149 101 81
0.4617 -0.301449 -0.513 150 101 84
0.485342 -0.309675 -0.527 150 104 88
0.0615867 -0.255853 -0.434 204 160 149
0.0762905 -0.255264 -0.433 185 142 126
0.0795895 -0.255264 -0.433 178 135 118
0.0968 -0.25939 -0.44 139 99 91
0.196709 -0.367863 -0.624 161 174 209
0.22606 -0.367273 -0.623 247 251 254
0.234743 -0.367863 -0.624 157 162 191
0.235931 -0.367863 -0.624 196 201 230
0.269643 -0.368452 -0.625 235 244 253
0.281097 -0.367863 -0.624 228 233 252
0.290606 -0.367863 -0.624 231 237 253
0.335119 -0.368452 -0.625 176 180 207
0.341071 -0.368452 -0.625 192 196 221
0.3625 -0.368452 -0.625 200 201 222
0.383929 -0.368452 -0.625 192 197 217
0.40839 -0.369042 -0.626 70 95 151
0.4125 -0.368452 -0.625 118 133 172
0.430857 -0.367863 -0.624 136 140 151
0.434423 -0.367863 -0.624 79 101 158
0.46814 -0.367273 -0.623 111 120 159
0.478051 -0.366684 -0.622 157 162 184
0.479649 -0.366094 -0.621 157 161 190
0.4464 -0.330133 -0.56 123 93 83
0.439476 -0.324238 -0.55 135 95 87
0.428034 -0.304194 -0.516 166 111 91
0.455114 -0.300657 -0.51 147 99 79
0.0472448 -0.259637 -0.439 199 155 146
0.0566267 -0.25668 -0.434 200 156 143
0.0599333 -0.25668 -0.434 202 158 145
0.0624133 -0.25668 -0.434 199 155 144
0.06572 -0.25668 -0.434 195 151 140
0.0771152 -0.256089 -0.433 183 142 124
0.0863867 -0.25668 -0.434 168 122 107
0.102986 -0.263186 -0.445 132 93 86
0.105151 -0.264369 -0.447 115 87 86
0.223687 -0.36846 -0.623 244 249 245
0.255727 -0.36846 -0.623 232 232 255
0.2759 -0.36846 -0.623 196 197 218
0.27946 -0.36846 -0.623 177 180 195
0.28302 -0.36846 -0.623 231 236 255
0.321509 -0.369051 -0.624 215 222 248
0.33869 -0.369643 -0.625 180 189 218
0.344643 -0.369643 -0.625 79 106 161
0.349405 -0.369643 -0.625 175 180 218
0.360119 -0.369643 -0.625 190 198 211
0.36131 -0.369643 -0.625 200 202 223
0.373214 -0.369643 -0.625 115 140 181
0.397577 -0.369051 -0.624 81 102 159
0.407738 -0.369643 -0.625 79 103 163
0.41184 -0.369051 -0.624 144 157 192
0.480831 -0.367277 -0.621 165 166 196
0.433363 -0.303403 -0.513 167 112 92
0.458927 -0.30222 -0.511 151 103 83
0.477831 -0.308134 -0.521 151 105 89
0.0464086 -0.260473 -0.439 201 157 148
0.0471371 -0.25988 -0.438 200 156 147
0.0542714 -0.2581 -0.435 198 154 141
0.0721667 -0.256913 -0.433 192 148 135
0.0804143 -0.256913 -0.433 175 129 113
0.0989238 -0.262253 -0.442 127 94 89
0.101063 -0.26344 -0.444 126 93 88
0.193709 -0.369053 -0.622 226 235 244
0.214689 -0.36846 -0.621 246 250 253
0.228433 -0.369647 -0.623 242 246 255
0.241487 -0.369647 -0.623 212 221 250
0.25454 -0.369647 -0.623 210 215 245
0.256913 -0.369647 -0.623 242 249 255
0.271153 -0.369647 -0.623 239 243 254
0.290859 -0.369053 -0.622 209 213 238
0.32032 -0.37024 -0.624 189 208 248
0.344091 -0.37024 -0.624 62 87 143
0.348214 -0.370833 -0.625 191 197 229
0.351786 -0.370833 -0.625 131 149 189
0.377371 -0.37024 -0.624 100 132 170
0.394011 -0.37024 -0.624 145 149 178
0.401143 -0.37024 -0.624 173 178 216
0.409463 -0.37024 -0.624 168 179 211
0.420673 -0.369647 -0.623 176 187 209
0.42542 -0.369647 -0.623 178 180 201
0.437989 -0.37024 -0.624 108 140 191
0.452251 -0.37024 -0.624 172 173 193
0.466204 -0.369053 -0.622 170 172 193
0.478466 -0.36846 -0.621 172 174 195
0.432373 -0.318027 -0.536 147 103 92
0.426733 -0.307347 -0.518 166 114 92
0.429017 -0.30616 -0.516 168 113 93
0.433229 -0.304973 -0.514 169 117 96
0.448405 -0.302007 -0.509 158 107 88
0.470297 -0.30616 -0.516 151 104 86
0.0431895 -0.267262 -0.449 194 153 135
0.0442 -0.263095 -0.442 198 160 141
0.0461971 -0.260119 -0.437 201 157 148
0.0647438 -0.257738 -0.433 199 153 140
0.0795895 -0.257738 -0.433 175 129 113
0.0828886 -0.257738 -0.433 171 128 112
0.0921886 -0.260714 -0.438 145 103 91
0.0989238 -0.263095 -0.442 127 94 89
0.0999914 -0.26369 -0.443 126 93 88
0.118497 -0.277381 -0.466 90 72 72
0.1235 -0.282738 -0.475 94 79 82
0.13033 -0.289881 -0.487 220 220 244
0.243469 -0.370238 -0.622 192 203 235
0.249392 -0.370238 -0.622 197 208 240
0.268349 -0.370238 -0.622 237 240 255
0.273088 -0.370238 -0.622 209 211 232
0.291574 -0.369643 -0.621 202 208 234
0.30438 -0.370833 -0.623 168 175 194
0.319807 -0.370833 -0.623 181 202 245
0.320993 -0.370833 -0.623 219 220 241
0.346469 -0.371429 -0.624 153 173 224
0.369647 -0.370833 -0.623 102 119 147
0.37558 -0.370833 -0.623 126 153 198
0.380937 -0.371429 -0.624 137 165 212
0.383314 -0.371429 -0.624 186 197 219
0.392193 -0.370833 -0.623 188 189 217
0.4005 -0.370833 -0.623 181 184 217
0.40406 -0.370833 -0.623 116 137 182
0.415927 -0.370833 -0.623 175 186 214
0.423552 -0.370238 -0.622 177 182 204
0.431353 -0.370833 -0.623 139 149 184
0.446309 -0.371429 -0.624 153 165 191
0.458647 -0.370833 -0.623 169 173 198
0.477283 -0.369643 -0.621 175 173 195
0.474757 -0.355357 -0.597 126 92 90
0.43225 -0.305952 -0.514 170 115 95
0.441407 -0.304167 -0.511 170 118 97
0.446371 -0.303571 -0.51 164 112 91
0.447343 -0.303571 -0.51 163 112 91
0.458029 -0.303571 -0.51 152 103 86
0.494929 -0.317262 -0.533 140 97 81
0.044 -0.262743 -0.44 194 156 137
0.074641 -0.258563 -0.433 177 131 116
0.0804143 -0.258563 -0.433 172 126 111
0.0847333 -0.25916 -0.434 166 123 107
0.09618 -0.26334 -0.441 134 97 89
0.1043 -0.266923 -0.447 116 87 83
0.10781 -0.269311 -0.451 106 82 82
0.235175 -0.371423 -0.622 241 248 255
0.273088 -0.371423 -0.622 199 204 226
0.275457 -0.371423 -0.622 222 227 255
0.282111 -0.370826 -0.621 219 229 255
0.317433 -0.37202 -0.623 140 160 210
0.323367 -0.37202 -0.623 211 218 236
0.33998 -0.37202 -0.623 187 197 233
0.3471 -0.37202 -0.623 196 202 236
0.362527 -0.37202 -0.623 200 202 227
0.36313 -0.371423 -0.622 200 202 227
0.36846 -0.37202 -0.623 167 174 192
0.431846 -0.371423 -0.622 126 137 169
0.444407 -0.37202 -0.623 133 150 194
0.44678 -0.37202 -0.623 164 176 200
0.447967 -0.37202 -0.623 164 176 200
0.463834 -0.371423 -0.622 172 175 192
0.48282 -0.369631 -0.619 141 143 156
0.437213 -0.323651 -0.542 146 102 89
0.441514 -0.304543 -0.51 172 117 96
0.0516667 -0.259987 -0.434 197 151 138
0.0566267 -0.259987 -0.434 201 155 140
0.05828 -0.259987 -0.434 201 155 140
0.0672181 -0.259388 -0.433 192 149 133
0.0754657 -0.259388 -0.433 177 131 116
0.0795895 -0.259388 -0.433 167 121 106
0.0839067 -0.259987 -0.434 166 120 105
0.0849286 -0.260586 -0.435 164 118 103
0.0913543 -0.262383 -0.438 143 105 96
0.122853 -0.285147 -0.476 98 81 87
0.220248 -0.37141 -0.62 244 248 255
0.238346 -0.372009 -0.621 226 231 250
0.25254 -0.372009 -0.621 172 185 219
0.253723 -0.372009 -0.621 198 209 237
0.256089 -0.372009 -0.621 240 249 255
0.267917 -0.372009 -0.621 163 164 192
0.2691 -0.372009 -0.621 182 183 211
0.276933 -0.37141 -0.62 141 150 193
0.297489 -0.372009 -0.621 223 229 253
0.301037 -0.372009 -0.621 221 225 252
0.304586 -0.372009 -0.621 162 175 207
0.312185 -0.372608 -0.622 160 182 223
0.315739 -0.372608 -0.622 137 158 205
0.339434 -0.372608 -0.622 188 197 230
0.345358 -0.372608 -0.622 171 189 235
0.366684 -0.372608 -0.622 198 203 222
0.370238 -0.372608 -0.622 113 125 149
0.382086 -0.372608 -0.622 182 190 211
0.402763 -0.372009 -0.621 169 178 207
0.428786 -0.372009 -0.621 169 168 184
0.443693 -0.372608 -0.622 138 152 197
0.444878 -0.372608 -0.622 154 161 187
0.467067 -0.37141 -0.62 174 172 194
0.43225 -0.30791 -0.514 173 118 98
0.474163 -0.309708 -0.517 153 106 90
0.478895 -0.311505 -0.52 153 106 90
0.0422276 -0.263818 -0.439 196 153 137
0.0524933 -0.260813 -0.434 194 148 135
0.0857571 -0.261414 -0.435 156 113 97
0.089481 -0.262616 -0.437 150 107 98
0.09618 -0.26502 -0.441 129 92 86
0.104767 -0.269828 -0.449 105 80 76
0.110986 -0.274635 -0.457 96 75 74
0.224971 -0.37259 -0.62 223 228 247
0.271466 -0.373191 -0.621 195 198 231
0.272649 -0.373191 -0.621 194 201 230
0.275752 -0.37259 -0.62 178 189 221
0.280476 -0.37259 -0.62 202 216 253
0.281657 -0.37259 -0.62 202 216 253
0.301037 -0.373191 -0.621 228 232 255
0.352467 -0.373792 -0.622 183 192 221
0.379106 -0.373191 -0.621 149 168 210
0.392749 -0.373792 -0.622 170 172 195
0.402763 -0.373191 -0.621 184 190 214
0.403946 -0.373191 -0.621 138 144 168
0.41814 -0.373191 -0.621 179 180 208
0.424552 -0.37259 -0.62 100 102 125
0.425733 -0.37259 -0.62 128 130 153
0.444163 -0.373191 -0.621 150 157 185
0.47061 -0.37259 -0.62 174 175 196
0.439863 -0.326918 -0.544 145 105 97
0.428381 -0.312495 -0.52 165 113 92
0.462886 -0.306486 -0.51 159 110 93
0.0467067 -0.26164 -0.434 203 156 138
0.0516667 -0.26164 -0.434 196 150 137
0.0581457 -0.261037 -0.433 197 151 136
0.06062 -0.261037 -0.433 196 150 137
0.0614448 -0.261037 -0.433 196 150 137
0.252133 -0.373771 -0.62 178 187 226
0.271029 -0.373771 -0.62 183 188 220
0.29819 -0.373771 -0.62 223 231 254
0.308134 -0.374374 -0.621 150 165 206
0.311683 -0.374374 -0.621 162 181 221
0.314049 -0.374374 -0.621 137 156 198
0.31878 -0.374374 -0.621 191 211 244
0.365505 -0.373771 -0.62 199 199 223
0.38502 -0.374374 -0.621 182 180 202
0.39739 -0.373771 -0.62 191 194 213
0.435883 -0.374374 -0.621 59 95 153
0.452443 -0.374374 -0.621 106 111 141
0.478509 -0.372566 -0.618 123 120 127
0.484786 -0.371963 -0.617 165 162 183
0.436249 -0.323734 -0.537 152 106 93
0.433493 -0.308663 -0.512 174 119 98
0.43654 -0.30806 -0.511 173 119 95
0.449459 -0.306251 -0.508 164 112 90
0.478963 -0.312883 -0.519 153 106 88
0.03874 -0.270329 -0.447 195 153 137
0.0564962 -0.261862 -0.433 199 153 138
0.0645943 -0.261257 -0.432 190 147 130
0.0711771 -0.261257 -0.432 186 140 124
0.12104 -0.287867 -0.476 104 81 87
0.249369 -0.374348 -0.619 179 193 228
0.251727 -0.374348 -0.619 183 195 233
0.269412 -0.374348 -0.619 182 187 219
0.274129 -0.374348 -0.619 209 224 255
0.29701 -0.374952 -0.62 222 230 253
0.302914 -0.374952 -0.62 190 196 222
0.31 -0.374952 -0.62 175 194 227
0.325352 -0.374952 -0.62 212 217 239
0.333081 -0.374348 -0.619 202 209 235
0.337162 -0.374952 -0.62 210 217 233
0.378495 -0.374952 -0.62 152 168 202
0.422689 -0.374348 -0.619 75 77 102
0.466313 -0.374348 -0.619 139 143 168
0.434213 -0.321733 -0.532 154 105 90
0.432772 -0.319919 -0.529 158 105 87
0.430029 -0.315686 -0.522 162 110 89
0.429534 -0.313871 -0.519 165 115 92
0.439571 -0.308429 -0.51 174 118 95
0.443557 -0.307824 -0.509 177 121 98
0.452362 -0.307219 -0.508 160 108 86
0.48372 -0.315686 -0.522 152 107 84
0.0442267 -0.263293 -0.434 199 156 140
0.0457743 -0.262687 -0.433 202 159 142
0.0515476 -0.262687 -0.433 198 154 141
0.057321 -0.262687 -0.433 198 155 139
0.0744686 -0.26208 -0.432 181 136 117
0.0849286 -0.2639 -0.435 159 113 100
0.0867848 -0.264507 -0.436 156 110 97
0.0896857 -0.26572 -0.438 148 104 95
0.119629 -0.28756 -0.474 89 69 71
0.1854 -0.37492 -0.618 170 183 217
0.191286 -0.37492 -0.618 246 245 255
0.21836 -0.37492 -0.618 213 224 246
0.231683 -0.375527 -0.619 245 247 255
0.237578 -0.375527 -0.619 225 227 248
0.239936 -0.375527 -0.619 172 189 217
0.241115 -0.375527 -0.619 172 189 217
0.277217 -0.37492 -0.618 150 166 200
0.283103 -0.37492 -0.618 216 222 246
0.323649 -0.375527 -0.619 208 213 235
0.326007 -0.375527 -0.619 144 144 170
0.38378 -0.375527 -0.619 164 168 203
0.399108 -0.375527 -0.619 188 196 217
0.42436 -0.37492 -0.618 98 101 142
0.442732 -0.375527 -0.619 64 94 156
0.46556 -0.37492 -0.618 128 134 160
0.432322 -0.319107 -0.526 159 110 93
0.444527 -0.308793 -0.509 175 119 96
0.476194 -0.31304 -0.516 152 105 85
0.046599 -0.263511 -0.433 202 159 143
0.0571886 -0.262903 -0.432 198 155 138
0.0580114 -0.262903 -0.432 197 154 137
0.0687086 -0.262903 -0.432 188 145 129
0.0703543 -0.262903 -0.432 186 143 127
0.103056 -0.273249 -0.449 107 82 78
0.189801 -0.375489 -0.617 244 245 255
0.198028 -0.375489 -0.617 241 248 255
0.199203 -0.375489 -0.617 243 246 253
0.239936 -0.376706 -0.619 174 190 224
0.286634 -0.376097 -0.618 219 226 245
0.323126 -0.376097 -0.618 193 200 229
0.337251 -0.376097 -0.618 206 217 239
0.344871 -0.376706 -0.619 203 212 227
0.34779 -0.377314 -0.62 205 214 229
0.394931 -0.376097 -0.618 183 192 197
0.398463 -0.376097 -0.618 191 193 208
0.44509 -0.376706 -0.619 26 57 122
0.468332 -0.375489 -0.617 122 131 162
0.48126 -0.375489 -0.617 172 167 173
0.48361 -0.375489 -0.617 161 165 177
0.4346 -0.322543 -0.53 152 104 94
0.430291 -0.312806 -0.514 172 120 98
0.434714 -0.310371 -0.51 176 120 95
0.437629 -0.310371 -0.51 174 116 92
0.447524 -0.309154 -0.508 174 116 92
0.455334 -0.308546 -0.507 167 111 86
0.472449 -0.312197 -0.513 153 106 86
0.475271 -0.313414 -0.515 151 104 84
0.483786 -0.317066 -0.521 153 106 88
0.03738 -0.26922 -0.441 196 157 142
0.0497829 -0.263726 -0.432 200 155 136
0.0711771 -0.263726 -0.432 181 135 119
0.0736457 -0.263726 -0.432 183 136 118
0.0762905 -0.264336 -0.433 174 127 111
0.0795895 -0.264336 -0.433 168 122 107
0.0814267 -0.264947 -0.434 165 119 106
0.08308 -0.264947 -0.434 160 113 103
0.0896857 -0.267389 -0.438 144 101 94
0.183925 -0.376664 -0.617 177 193 227
0.210955 -0.376664 -0.617 178 192 229
0.213306 -0.376664 -0.617 133 147 192
0.236017 -0.377274 -0.618 239 247 250
0.252497 -0.377274 -0.618 205 218 252
0.2678 -0.377274 -0.618 225 226 254
0.271331 -0.377274 -0.618 230 232 253
0.284995 -0.376664 -0.617 228 233 253
0.297229 -0.377274 -0.618 216 223 252
0.318417 -0.377274 -0.618 213 213 239
0.319594 -0.377274 -0.618 215 215 241
0.320771 -0.377274 -0.618 211 215 240
0.326657 -0.377274 -0.618 156 166 201
0.34605 -0.377885 -0.619 202 209 225
0.348409 -0.377885 -0.619 203 210 226
0.430246 -0.377274 -0.618 62 96 159
0.439663 -0.377274 -0.618 49 80 145
0.480085 -0.376664 -0.617 184 175 180
0.43624 -0.324773 -0.532 148 106 94
0.435686 -0.311343 -0.51 177 121 96
0.03796 -0.268223 -0.438 197 155 139
0.04092 -0.265773 -0.434 198 155 139
0.0416505 -0.265161 -0.433 199 156 140
0.0481371 -0.264549 -0.432 203 158 137
0.0629486 -0.264549 -0.432 192 147 128
0.0687086 -0.264549 -0.432 188 143 124
0.0888514 -0.268223 -0.438 144 101 94
0.11618 -0.288431 -0.471 93 72 71
0.19184 -0.377227 -0.616 240 240 250
0.214481 -0.377839 -0.617 180 195 238
0.23446 -0.377839 -0.617 242 249 255
0.242687 -0.377839 -0.617 192 204 242
0.24816 -0.377227 -0.616 186 196 231
0.263841 -0.377839 -0.617 201 203 226
0.267367 -0.377839 -0.617 232 233 254
0.27632 -0.377227 -0.616 180 186 212
0.292047 -0.377839 -0.617 123 129 163
0.31085 -0.377839 -0.617 132 157 198
0.319077 -0.377839 -0.617 214 219 249
0.323778 -0.377839 -0.617 103 112 151
0.328479 -0.377839 -0.617 171 178 194
0.334355 -0.377839 -0.617 211 215 227
0.344314 -0.378451 -0.618 205 212 228
0.362561 -0.377839 -0.617 140 148 185
0.373138 -0.377839 -0.617 74 107 174
0.376664 -0.377839 -0.617 93 119 176
0.383715 -0.377839 -0.617 108 121 173
0.402519 -0.377839 -0.617 106 121 150
0.451879 -0.377839 -0.617 182 178 195
0.462456 -0.377839 -0.617 160 162 175
0.471093 -0.377227 -0.616 164 167 186
0.485557 -0.376614 -0.615 102 113 141
0.433363 -0.314151 -0.513 174 119 98
0.436657 -0.312314 -0.51 176 120 97
0.441718 -0.31109 -0.508 179 123 98
0.450506 -0.310477 -0.507 178 122 95
0.483848 -0.318438 -0.52 155 108 92
0.0497829 -0.265371 -0.432 202 156 133
0.0959886 -0.272743 -0.444 122 93 89
0.0979 -0.273357 -0.445 118 89 85
0.11832 -0.2924 -0.476 90 73 81
0.21648 -0.3784 -0.616 230 242 255
0.250507 -0.3784 -0.616 197 208 238
0.264587 -0.3784 -0.616 205 207 230
0.27984 -0.3784 -0.616 231 229 251
0.327947 -0.3784 -0.616 209 216 234
0.343757 -0.379014 -0.617 206 211 230
0.393117 -0.379014 -0.617 185 180 184
0.412427 -0.3784 -0.616 184 180 194
0.419467 -0.3784 -0.616 173 169 183
0.421813 -0.3784 -0.616 152 163 183
0.42768 -0.3784 -0.616 37 75 140
0.45658 -0.379014 -0.617 149 148 156
0.452743 -0.341543 -0.556 128 98 96
0.433672 -0.321886 -0.524 152 110 96
0.435567 -0.3139 -0.511 178 121 101
0.442686 -0.312057 -0.508 180 124 101
0.467743 -0.313286 -0.51 160 113 93
0.0645943 -0.266194 -0.432 194 149 128
0.0654171 -0.266194 -0.432 192 147 126
0.06624 -0.266194 -0.432 189 144 123
0.0736457 -0.266194 -0.432 173 126 110
0.0806 -0.267427 -0.434 163 116 106
0.0814267 -0.267427 -0.434 159 112 102
0.0822533 -0.267427 -0.434 158 111 101
0.0832714 -0.268043 -0.435 157 110 100
0.0909333 -0.271124 -0.44 133 94 89
0.09198 -0.27174 -0.441 128 93 89
0.20944 -0.379573 -0.616 225 234 249
0.21648 -0.379573 -0.616 238 246 255
0.224693 -0.379573 -0.616 199 209 234
0.251271 -0.378957 -0.615 214 219 251
0.268843 -0.378957 -0.615 238 239 255
0.280557 -0.378957 -0.615 235 236 255
0.313867 -0.379573 -0.616 175 199 247
0.32208 -0.379573 -0.616 122 135 177
0.329757 -0.378957 -0.615 168 168 176
0.375489 -0.38019 -0.617 96 127 194
0.379014 -0.38019 -0.617 58 91 160
0.414773 -0.379573 -0.616 133 127 129
0.415947 -0.379573 -0.616 133 127 129
0.425333 -0.379573 -0.616 53 78 134
0.4488 -0.379573 -0.616 138 144 180
0.457013 -0.379573 -0.616 125 125 137
0.464471 -0.378957 -0.615 179 177 198
0.451353 -0.340753 -0.553 128 100 97
0.433493 -0.31549 -0.512 171 116 96
0.443653 -0.313025 -0.508 182 127 106
0.44954 -0.312409 -0.507 185 131 107
0.0473143 -0.267017 -0.432 203 158 139
0.0637714 -0.267017 -0.432 194 149 128
0.072 -0.267017 -0.432 179 134 113
0.10049 -0.277525 -0.449 104 80 80
0.106867 -0.283088 -0.458 93 75 75
0.2091 -0.380129 -0.615 232 238 252
0.234871 -0.380129 -0.615 234 239 245
0.263728 -0.37951 -0.614 223 226 243
0.286414 -0.380129 -0.615 223 229 251
0.301643 -0.380129 -0.615 167 175 211
0.308671 -0.380129 -0.615 103 134 191
0.330929 -0.380129 -0.615 169 168 173
0.3432 -0.380747 -0.616 196 201 223
0.384814 -0.380129 -0.615 184 190 206
0.387157 -0.380129 -0.615 190 191 196
0.395357 -0.380129 -0.615 149 143 155
0.4136 -0.380747 -0.616 132 124 135
0.431671 -0.380129 -0.615 57 88 152
0.459786 -0.380129 -0.615 181 181 191
0.478529 -0.380129 -0.615 171 177 191
0.487481 -0.378892 -0.613 156 162 188
0.434167 -0.322028 -0.521 163 112 95
0.445762 -0.312756 -0.506 186 131 110
0.0326333 -0.2759 -0.445 191 154 138
0.0390857 -0.26784 -0.432 197 156 134
0.0415543 -0.26784 -0.432 201 159 137
0.042279 -0.26722 -0.431 203 158 137
0.0455629 -0.26722 -0.431 202 160 138
0.0580114 -0.26784 -0.432 190 145 124
0.0637714 -0.26784 -0.432 193 148 127
0.0645943 -0.26784 -0.432 191 146 125
0.0670629 -0.26784 -0.432 188 143 122
0.074641 -0.26846 -0.433 174 128 115
0.0787648 -0.26846 -0.433 163 116 106
0.0890543 -0.27218 -0.439 135 96 91
0.0921886 -0.27404 -0.442 126 92 90
0.20993 -0.38068 -0.614 217 225 248
0.218116 -0.38068 -0.614 246 246 254
0.245015 -0.38068 -0.614 165 183 221
0.28361 -0.38068 -0.614 229 231 254
0.294614 -0.3813 -0.615 132 138 172
0.30817 -0.38068 -0.614 87 119 180
0.326243 -0.3813 -0.615 209 212 231
0.333271 -0.3813 -0.615 173 167 177
0.337957 -0.3813 -0.615 165 171 195
0.35376 -0.38192 -0.616 199 205 219
0.36784 -0.38192 -0.616 56 96 166
0.375443 -0.3813 -0.615 48 78 151
0.407071 -0.3813 -0.615 175 180 200
0.408243 -0.3813 -0.615 193 192 206
0.424643 -0.3813 -0.615 152 174 215
0.434478 -0.38068 -0.614 74 114 175
0.461377 -0.38068 -0.614 183 181 195
0.468394 -0.38068 -0.614 174 180 192
0.485937 -0.38068 -0.614 139 149 176
0.43434 -0.31806 -0.513 173 122 103
0.434469 -0.31744 -0.512 174 123 104
0.440849 -0.31434 -0.507 177 125 103
0.441814 -0.31434 -0.507 179 127 105
0.465909 -0.31496 -0.508 161 115 92
0.059519 -0.268041 -0.431 192 145 125
0.0654171 -0.268663 -0.432 188 143 122
0.0940848 -0.275504 -0.443 122 88 86
0.244616 -0.381228 -0.613 159 178 218
0.265633 -0.381228 -0.613 234 232 245
0.274253 -0.38185 -0.614 207 213 227
0.275423 -0.38185 -0.614 210 216 230
0.277762 -0.38185 -0.614 220 227 246
0.280101 -0.38185 -0.614 231 233 254
0.288288 -0.38185 -0.614 225 232 248
0.297644 -0.38185 -0.614 144 150 184
0.317526 -0.38185 -0.614 67 101 149
0.385358 -0.38185 -0.614 189 200 220
0.399392 -0.38185 -0.614 175 178 195
0.401214 -0.382471 -0.615 164 170 186
0.4298 -0.38185 -0.614 77 105 168
0.434938 -0.381228 -0.613 71 111 170
0.446173 -0.38185 -0.614 122 129 157
0.447343 -0.38185 -0.614 93 102 145
0.437848 -0.315928 -0.508 176 124 102
0.44287 -0.314684 -0.506 185 133 109
0.469734 -0.31655 -0.509 157 109 86
0.497326 -0.328366 -0.528 151 110 90
0.0545933 -0.268862 -0.431 193 146 126
0.1156 -0.296933 -0.476 98 82 82
0.21309 -0.382395 -0.613 243 243 253
0.243449 -0.382395 -0.613 161 176 217
0.249287 -0.382395 -0.613 185 200 241
0.250454 -0.382395 -0.613 211 221 255
0.251622 -0.382395 -0.613 222 232 255
0.255874 -0.381771 -0.612 166 175 208
0.25746 -0.382395 -0.613 210 214 243
0.273807 -0.382395 -0.613 179 180 200
0.276142 -0.382395 -0.613 192 193 213
0.294824 -0.382395 -0.613 178 183 203
0.322204 -0.383019 -0.614 198 208 243
0.366071 -0.383643 -0.615 74 113 188
0.371324 -0.383019 -0.614 50 85 153
0.390569 -0.382395 -0.613 191 196 202
0.395884 -0.383019 -0.614 170 168 179
0.408749 -0.383019 -0.614 190 190 202
0.416935 -0.383019 -0.614 184 181 202
0.433063 -0.381771 -0.612 102 132 192
0.446614 -0.382395 -0.613 142 147 176
0.471134 -0.382395 -0.613 175 177 190
0.487851 -0.381771 -0.612 172 175 190
0.448152 -0.339352 -0.544 127 107 100
0.434477 -0.323757 -0.519 154 112 98
0.43677 -0.317519 -0.509 178 121 94
0.455462 -0.315024 -0.505 176 124 100
0.481157 -0.321262 -0.515 150 108 86
0.03212 -0.274063 -0.438 198 157 137
0.0463838 -0.269683 -0.431 197 152 133
0.0554143 -0.269683 -0.431 193 146 126
0.0562352 -0.269683 -0.431 196 149 129
0.0578771 -0.269683 -0.431 191 144 124
0.0738162 -0.270934 -0.433 170 122 108
0.0913467 -0.276566 -0.442 130 92 89
0.202251 -0.382937 -0.612 233 233 241
0.270304 -0.383563 -0.613 186 186 198
0.28152 -0.382937 -0.612 214 216 237
0.291321 -0.383563 -0.613 219 224 243
0.295991 -0.383563 -0.613 141 149 186
0.302997 -0.383563 -0.613 83 114 181
0.326983 -0.382937 -0.612 205 209 234
0.329314 -0.382937 -0.612 206 209 226
0.332811 -0.382937 -0.612 145 149 152
0.352037 -0.383563 -0.613 203 197 209
0.377725 -0.383563 -0.613 136 158 208
0.408749 -0.384189 -0.614 191 193 208
0.430268 -0.383563 -0.613 82 113 170
0.431897 -0.382937 -0.612 101 136 194
0.461793 -0.383563 -0.613 179 180 200
0.48281 -0.383563 -0.613 159 163 188
0.438994 -0.330377 -0.528 146 109 100
0.435317 -0.320991 -0.513 168 121 101
0.441907 -0.316611 -0.506 178 126 104
0.4545 -0.315986 -0.505 176 124 102
0.475473 -0.31974 -0.511 154 109 88
0.0357114 -0.270504 -0.431 198 157 137
0.0405429 -0.269876 -0.43 203 160 141
0.0413619 -0.269876 -0.43 204 161 142
0.103151 -0.286822 -0.457 93 73 75
0.239554 -0.384103 -0.612 151 173 214
0.249637 -0.383475 -0.611 146 162 214
0.250801 -0.383475 -0.611 148 164 216
0.266366 -0.384103 -0.612 230 232 244
0.280354 -0.384103 -0.612 189 191 214
0.285715 -0.383475 -0.611 230 232 255
0.288514 -0.384103 -0.612 225 228 247
0.356708 -0.38473 -0.613 181 183 206
0.359043 -0.38473 -0.613 101 115 154
0.381771 -0.384103 -0.612 101 119 155
0.382937 -0.384103 -0.612 124 141 171
0.401077 -0.38473 -0.613 188 186 197
0.45288 -0.384103 -0.612 107 108 136
0.454046 -0.384103 -0.612 167 168 196
0.46104 -0.384103 -0.612 173 175 198
0.464537 -0.384103 -0.612 110 112 137
0.436989 -0.327617 -0.522 148 110 99
0.441907 -0.317575 -0.506 178 126 104
0.0520095 -0.270695 -0.43 192 147 128
0.0544667 -0.270695 -0.43 192 145 125
0.0569238 -0.270695 -0.43 194 147 127
0.0807857 -0.273843 -0.435 150 107 98
0.0826324 -0.274472 -0.436 144 104 96
0.204249 -0.384639 -0.611 235 235 247
0.263603 -0.384639 -0.611 229 232 251
0.264767 -0.384639 -0.611 226 229 248
0.285715 -0.384639 -0.611 227 229 250
0.289207 -0.384639 -0.611 221 222 242
0.310663 -0.385269 -0.612 73 104 168
0.311829 -0.385269 -0.612 90 121 185
0.364881 -0.385898 -0.613 164 183 226
0.426069 -0.385269 -0.612 130 144 181
0.445886 -0.385269 -0.612 180 179 197
0.48589 -0.384639 -0.611 170 173 190
0.437826 -0.329241 -0.523 147 110 101
0.434914 -0.324834 -0.516 157 118 103
0.446805 -0.31791 -0.505 183 128 107
0.452576 -0.31791 -0.505 178 126 104
0.46793 -0.318539 -0.506 153 110 93
0.483119 -0.324205 -0.515 150 109 91
0.043 -0.271514 -0.43 200 157 138
0.0462762 -0.271514 -0.43 191 146 127
0.0764667 -0.27404 -0.434 166 118 106
0.0926057 -0.280354 -0.444 123 85 84
0.239163 -0.385803 -0.611 147 170 214
0.249229 -0.385171 -0.61 131 150 206
0.252714 -0.385171 -0.61 169 186 232
0.262439 -0.385803 -0.611 232 237 255
0.263603 -0.385803 -0.611 234 236 255
0.311319 -0.385803 -0.611 111 143 202
0.325285 -0.385803 -0.611 214 211 230
0.330562 -0.385171 -0.61 204 207 222
0.343906 -0.385803 -0.611 201 200 214
0.358457 -0.386434 -0.612 120 128 164
0.383475 -0.385803 -0.611 84 99 138
0.421881 -0.385803 -0.611 191 188 207
0.4277 -0.385803 -0.611 85 108 152
0.432355 -0.385803 -0.611 120 146 195
0.443554 -0.386434 -0.612 178 180 201
0.447051 -0.386434 -0.612 186 185 203
0.4692 -0.386434 -0.612 145 158 192
0.438917 -0.320134 -0.507 171 120 99
0.440943 -0.319503 -0.506 173 122 101
0.461233 -0.318871 -0.505 169 118 97
0.0420829 -0.2717 -0.429 201 156 137
0.0453514 -0.2717 -0.429 194 147 129
0.0628029 -0.272967 -0.431 183 136 116
0.06624 -0.2736 -0.432 177 130 114
0.0738162 -0.274233 -0.433 172 124 110
0.0826324 -0.276133 -0.436 146 105 99
0.194619 -0.386333 -0.61 235 238 255
0.196943 -0.386333 -0.61 243 242 255
0.198105 -0.386333 -0.61 245 244 255
0.209724 -0.386333 -0.61 180 182 197
0.210886 -0.386333 -0.61 205 208 225
0.270143 -0.386333 -0.61 217 218 236
0.273629 -0.386333 -0.61 185 185 197
0.275952 -0.386333 -0.61 216 219 236
0.292219 -0.386333 -0.61 179 180 201
0.316619 -0.386333 -0.61 150 172 213
0.340414 -0.386967 -0.611 209 207 221
0.34507 -0.386967 -0.611 206 205 219
0.364854 -0.386967 -0.611 118 141 183
0.367182 -0.386967 -0.611 104 137 191
0.373552 -0.386333 -0.61 141 163 200
0.381686 -0.386333 -0.61 133 146 181
0.385171 -0.386333 -0.61 77 98 141
0.399769 -0.386967 -0.611 147 150 167
0.448649 -0.386967 -0.611 119 121 136
0.449812 -0.386967 -0.611 161 166 185
0.453304 -0.386967 -0.611 134 141 169
0.459123 -0.386967 -0.611 121 139 185
0.483933 -0.386333 -0.61 169 167 180
0.487419 -0.386333 -0.61 165 165 189
0.435897 -0.3268 -0.516 155 112 96
0.4584 -0.3192 -0.504 171 121 98
0.46224 -0.3192 -0.504 166 118 96
0.470821 -0.320467 -0.506 155 112 95
0.0461686 -0.272517 -0.429 196 150 134
0.0478029 -0.272517 -0.429 195 150 129
0.0494371 -0.272517 -0.429 199 154 133
0.0577429 -0.273152 -0.43 189 144 125
0.0644448 -0.273788 -0.431 187 140 124
0.0898657 -0.28141 -0.443 127 88 89
0.107417 -0.297291 -0.468 91 70 75
0.113591 -0.304279 -0.479 99 81 81
0.230638 -0.387495 -0.61 156 167 197
0.241095 -0.387495 -0.61 120 142 199
0.25114 -0.38686 -0.609 131 148 191
0.25346 -0.38686 -0.609 209 224 255
0.27086 -0.38686 -0.609 218 220 235
0.27202 -0.38686 -0.609 218 220 235
0.27898 -0.38686 -0.609 223 224 242
0.28246 -0.38686 -0.609 225 228 247
0.313133 -0.387495 -0.61 184 201 253
0.32074 -0.38686 -0.609 172 187 220
0.342181 -0.387495 -0.61 204 203 217
0.343343 -0.387495 -0.61 205 207 219
0.359035 -0.38813 -0.611 196 200 227
0.35961 -0.387495 -0.61 198 203 222
0.368905 -0.387495 -0.61 99 135 187
0.37526 -0.38686 -0.609 166 186 219
0.37874 -0.38686 -0.609 194 196 217
0.38106 -0.38686 -0.609 176 185 214
0.38401 -0.387495 -0.61 97 113 147
0.388657 -0.387495 -0.61 136 141 160
0.401438 -0.387495 -0.61 174 180 202
0.4321 -0.38686 -0.609 129 153 197
0.462614 -0.38813 -0.611 139 162 214
0.466106 -0.38813 -0.611 99 116 172
0.48894 -0.38686 -0.609 90 107 161
0.449803 -0.343664 -0.541 137 106 101
0.442957 -0.320795 -0.505 174 122 100
0.45168 -0.32016 -0.504 180 126 102
0.46989 -0.320795 -0.505 155 112 95
0.471785 -0.32143 -0.506 153 111 95
0.486062 -0.327148 -0.515 149 110 95
0.03168 -0.275246 -0.432 198 156 134
0.0363629 -0.273334 -0.429 198 155 138
0.07564 -0.27652 -0.434 163 120 104
0.08778 -0.28098 -0.441 128 93 89
0.2001 -0.38802 -0.609 232 234 249
0.21634 -0.38802 -0.609 229 230 248
0.22214 -0.38802 -0.609 238 241 250
0.22678 -0.38802 -0.609 233 240 255
0.23026 -0.38802 -0.609 150 159 188
0.24302 -0.38802 -0.609 125 151 212
0.26854 -0.38802 -0.609 229 230 250
0.276206 -0.387383 -0.608 230 230 242
0.29058 -0.38802 -0.609 160 161 189
0.314295 -0.388657 -0.61 196 202 226
0.31494 -0.38802 -0.609 202 208 232
0.31726 -0.38802 -0.609 141 152 180
0.33582 -0.38802 -0.609 199 197 210
0.356124 -0.388657 -0.61 132 139 167
0.37178 -0.38802 -0.609 94 122 161
0.3973 -0.38802 -0.609 155 161 187
0.400276 -0.388657 -0.61 134 141 169
0.417705 -0.388657 -0.61 132 132 144
0.43674 -0.38802 -0.609 92 120 168
0.449076 -0.388657 -0.61 172 178 190
0.46145 -0.389294 -0.611 91 116 170
0.47038 -0.38802 -0.609 41 77 135
0.48546 -0.38802 -0.609 144 145 149
0.48662 -0.38802 -0.609 156 162 178
0.480281 -0.371454 -0.583 126 105 104
0.4405 -0.3345 -0.525 145 109 97
0.437513 -0.32558 -0.511 166 119 99
0.438487 -0.32558 -0.511 168 120 100
0.45072 -0.32112 -0.504 179 127 103
0.450784 -0.320483 -0.503 178 123 102
0.476552 -0.323669 -0.508 153 111 95
0.4794 -0.324943 -0.51 153 111 95
0.491814 -0.330677 -0.519 148 108 96
0.02634 -0.280542 -0.439 195 154 132
0.0461686 -0.274151 -0.429 198 151 135
0.0552857 -0.27479 -0.43 191 146 127
0.061161 -0.27543 -0.431 188 144 119
0.06624 -0.276069 -0.432 176 131 110
0.0783 -0.277986 -0.435 152 110 96
0.0811571 -0.279264 -0.437 144 104 94
0.102298 -0.294601 -0.461 93 75 75
0.106526 -0.299074 -0.468 95 70 74
0.118308 -0.313772 -0.491 111 103 114
0.251886 -0.388541 -0.608 159 172 207
0.258834 -0.388541 -0.608 228 230 253
0.262309 -0.388541 -0.608 232 231 247
0.271573 -0.388541 -0.608 220 224 236
0.276206 -0.388541 -0.608 225 224 242
0.2871 -0.38918 -0.609 214 215 243
0.34046 -0.38918 -0.609 205 204 220
0.380434 -0.388541 -0.608 188 191 208
0.396648 -0.388541 -0.608 161 168 197
0.406086 -0.389819 -0.61 140 149 182
0.41122 -0.38918 -0.609 132 140 186
0.41586 -0.38918 -0.609 189 187 209
0.44138 -0.38918 -0.609 168 173 202
0.465343 -0.389819 -0.61 52 82 146
0.48082 -0.38918 -0.609 183 182 190
0.488137 -0.388541 -0.608 81 114 155
0.462874 -0.356589 -0.558 133 106 99
0.44784 -0.32208 -0.504 178 126 102
0.480371 -0.325914 -0.51 152 110 94
0.0283886 -0.276891 -0.432 200 158 136
0.0330943 -0.274969 -0.429 192 150 128
0.0585619 -0.27561 -0.43 184 139 118
0.0721667 -0.277532 -0.433 165 122 105
0.0729914 -0.277532 -0.433 164 121 104
0.0739867 -0.278173 -0.434 163 120 104
0.0774714 -0.278814 -0.435 153 111 97
0.0890219 -0.283942 -0.443 125 88 82
0.1012 -0.294838 -0.46 92 74 72
0.104071 -0.298043 -0.465 92 74 74
0.192823 -0.389699 -0.608 237 240 255
0.198613 -0.389699 -0.608 237 240 255
0.23104 -0.389699 -0.608 202 213 235
0.233356 -0.389699 -0.608 199 210 238
0.244937 -0.389699 -0.608 160 184 230
0.258834 -0.389699 -0.608 223 229 255
0.265346 -0.389058 -0.607 228 231 250
0.287787 -0.389699 -0.608 160 166 192
0.29425 -0.389058 -0.607 213 215 238
0.304 -0.389699 -0.608 137 169 218
0.307474 -0.389699 -0.608 117 146 190
0.320213 -0.389699 -0.608 115 129 176
0.338743 -0.389699 -0.608 198 203 223
0.415177 -0.389699 -0.608 181 188 198
0.431837 -0.389058 -0.607 115 146 193
0.476556 -0.389699 -0.608 173 176 191
0.477714 -0.389699 -0.608 173 176 191
0.439971 -0.334577 -0.522 148 110 99
0.4386 -0.326886 -0.51 169 121 99
0.439571 -0.326886 -0.51 167 119 96
0.440849 -0.324963 -0.507 171 123 100
0.44791 -0.322399 -0.503 175 125 102
0.478488 -0.325604 -0.508 152 111 93
0.0354629 -0.275143 -0.428 202 157 134
0.0370933 -0.275143 -0.428 198 153 130
0.0444305 -0.275143 -0.428 195 148 128
0.0559743 -0.275786 -0.429 189 144 121
0.0628029 -0.277071 -0.431 180 136 111
0.0636238 -0.277071 -0.431 181 137 112
0.0729914 -0.278357 -0.433 162 119 102
0.0803248 -0.280929 -0.437 143 103 93
0.0811571 -0.280929 -0.437 142 103 96
0.242222 -0.390214 -0.607 156 183 230
0.26419 -0.390214 -0.607 224 227 244
0.27922 -0.390214 -0.607 224 229 248
0.301188 -0.390214 -0.607 121 149 197
0.308125 -0.390214 -0.607 115 137 186
0.313906 -0.390214 -0.607 205 209 234
0.34281 -0.390214 -0.607 179 183 208
0.343967 -0.390214 -0.607 177 183 209
0.403596 -0.390857 -0.608 115 134 177
0.40774 -0.3915 -0.609 72 94 152
0.412861 -0.390857 -0.608 175 177 200
0.430681 -0.390214 -0.607 92 119 166
0.440655 -0.390857 -0.608 109 125 158
0.45646 -0.3915 -0.609 80 101 144
0.465343 -0.392143 -0.61 53 84 149
0.469608 -0.390857 -0.608 68 103 167
0.471924 -0.390857 -0.608 128 151 201
0.486178 -0.390214 -0.607 150 149 167
0.459167 -0.354214 -0.551 136 103 98
0.440649 -0.327214 -0.509 173 122 101
0.454669 -0.322714 -0.502 175 128 102
0.46423 -0.322714 -0.502 162 117 96
0.0419848 -0.275958 -0.428 198 152 128
0.0567914 -0.276603 -0.429 185 141 116
0.0721667 -0.279182 -0.433 167 124 107
0.0894238 -0.286919 -0.445 118 83 79
0.0927933 -0.289498 -0.449 108 79 81
0.0977143 -0.294011 -0.456 97 75 77
0.201755 -0.39137 -0.607 235 237 252
0.242222 -0.39137 -0.607 158 185 232
0.243378 -0.39137 -0.607 148 171 212
0.244534 -0.39137 -0.607 158 181 222
0.249159 -0.39137 -0.607 221 228 254
0.259565 -0.39137 -0.607 213 219 245
0.282223 -0.390726 -0.606 220 223 242
0.289149 -0.390726 -0.606 187 196 225
0.318006 -0.390726 -0.606 203 208 228
0.31916 -0.390726 -0.606 191 194 227
0.338186 -0.39137 -0.607 187 193 219
0.339342 -0.39137 -0.607 187 193 219
0.350904 -0.39137 -0.607 191 195 220
0.363622 -0.39137 -0.607 118 137 170
0.413338 -0.39137 -0.607 182 186 189
0.416807 -0.39137 -0.607 188 187 193
0.432993 -0.39137 -0.607 93 124 181
0.454552 -0.392015 -0.608 142 156 195
0.46845 -0.392015 -0.608 42 75 142
0.471148 -0.39137 -0.607 141 163 212
0.449826 -0.324315 -0.503 177 126 105
0.0370933 -0.276773 -0.428 197 151 127
0.0419848 -0.276773 -0.428 193 147 123
0.05434 -0.27742 -0.429 191 147 122
0.0551571 -0.27742 -0.429 190 146 121
0.0739867 -0.280653 -0.434 152 112 100
0.0813429 -0.28324 -0.438 134 99 93
0.240669 -0.39188 -0.606 166 193 238
0.24644 -0.39188 -0.606 191 206 239
0.247594 -0.39188 -0.606 214 220 246
0.261446 -0.39188 -0.606 220 222 245
0.285686 -0.39188 -0.606 113 124 154
0.287994 -0.39188 -0.606 182 192 219
0.307617 -0.39188 -0.606 131 154 196
0.315176 -0.391233 -0.605 199 209 221
0.317481 -0.391233 -0.605 201 207 223
0.32209 -0.391233 -0.605 178 185 211
0.328394 -0.39188 -0.606 162 170 191
0.336474 -0.39188 -0.606 164 174 210
0.337629 -0.39188 -0.606 189 197 233
0.348017 -0.39188 -0.606 179 190 222
0.382646 -0.39188 -0.606 192 191 197
0.390214 -0.392527 -0.607 55 86 141
0.394839 -0.392527 -0.607 82 113 177
0.419583 -0.39188 -0.606 159 163 175
0.441087 -0.392527 -0.607 137 156 198
0.446868 -0.392527 -0.607 182 184 205
0.453394 -0.393173 -0.608 177 174 201
0.453805 -0.392527 -0.607 162 170 209
0.454961 -0.392527 -0.607 138 146 185
0.460343 -0.393173 -0.608 32 67 131
0.476929 -0.392527 -0.607 133 143 179
0.439226 -0.33174 -0.513 158 115 98
0.439345 -0.331093 -0.512 160 117 101
0.450784 -0.325273 -0.503 179 127 106
0.451742 -0.325273 -0.503 178 126 105
0.462351 -0.32398 -0.501 167 119 97
0.471862 -0.325273 -0.503 161 116 95
0.482338 -0.329153 -0.509 152 111 93
0.0250971 -0.280183 -0.432 203 161 137
0.0444305 -0.277589 -0.428 195 147 124
0.0652657 -0.279534 -0.431 178 133 112
0.0695314 -0.280183 -0.432 172 127 108
0.1023 -0.301586 -0.465 91 71 73
0.23028 -0.393034 -0.606 193 196 215
0.233743 -0.393034 -0.606 176 187 217
0.279452 -0.392386 -0.605 208 211 230
0.285214 -0.392386 -0.605 148 157 186
0.305309 -0.393034 -0.606 158 181 225
0.39188 -0.393034 -0.606 54 84 148
0.411503 -0.393034 -0.606 186 185 201
0.412657 -0.393034 -0.606 184 187 194
0.443823 -0.393034 -0.606 173 178 200
0.446131 -0.393034 -0.606 176 179 198
0.461501 -0.394331 -0.608 22 60 131
0.469991 -0.393683 -0.607 113 136 190
0.48884 -0.393034 -0.606 62 94 153
0.448228 -0.345689 -0.533 141 107 98
0.44791 -0.326231 -0.503 175 127 104
0.449826 -0.326231 -0.503 178 128 105
0.476624 -0.327529 -0.505 154 111 92
0.490013 -0.333366 -0.514 151 110 92
0.0322019 -0.278404 -0.428 202 156 132
0.0386333 -0.277753 -0.427 198 152 126
0.0567914 -0.279054 -0.429 184 138 115
0.0670629 -0.281006 -0.432 169 124 105
0.0823648 -0.285559 -0.439 133 99 90
0.0833905 -0.28621 -0.44 131 97 88
0.0970581 -0.297268 -0.457 98 74 74
0.240271 -0.393538 -0.605 175 193 233
0.287519 -0.393538 -0.605 215 216 237
0.329005 -0.393538 -0.605 124 147 201
0.337629 -0.394189 -0.606 164 180 239
0.35148 -0.394189 -0.606 191 198 217
0.356097 -0.394189 -0.606 196 199 216
0.363576 -0.393538 -0.605 104 128 176
0.412657 -0.394189 -0.606 182 185 200
0.434589 -0.394189 -0.606 89 119 181
0.463446 -0.394189 -0.606 19 53 127
0.47346 -0.394839 -0.607 90 117 164
0.477297 -0.394189 -0.606 59 75 111
0.479967 -0.393538 -0.605 131 139 150
0.489186 -0.393538 -0.605 37 66 126
0.485554 -0.379878 -0.584 125 101 97
0.439696 -0.336296 -0.517 155 114 96
0.439103 -0.334345 -0.514 160 118 96
0.441514 -0.331743 -0.51 170 122 100
0.445843 -0.32849 -0.505 169 118 97
0.452809 -0.325889 -0.501 172 124 102
0.459524 -0.325238 -0.5 165 117 95
0.025039 -0.281176 -0.431 201 159 135
0.03294 -0.278567 -0.427 201 155 131
0.0628029 -0.281176 -0.431 176 128 108
0.0705171 -0.282481 -0.433 160 116 103
0.0759886 -0.284438 -0.436 149 105 94
0.0778276 -0.28509 -0.437 141 101 93
0.0815286 -0.286395 -0.439 131 92 85
0.231052 -0.39469 -0.605 207 211 236
0.252948 -0.39469 -0.605 220 224 249
0.257557 -0.39469 -0.605 197 209 235
0.275539 -0.394038 -0.604 189 195 221
0.281291 -0.394038 -0.604 121 135 172
0.293947 -0.394038 -0.604 182 189 215
0.321558 -0.394038 -0.604 157 163 177
0.343986 -0.39469 -0.605 57 92 150
0.347443 -0.39469 -0.605 182 190 211
0.353205 -0.39469 -0.605 195 201 217
0.364729 -0.39469 -0.605 98 123 177
0.37448 -0.394038 -0.604 138 156 204
0.381383 -0.394038 -0.604 189 191 204
0.400941 -0.394038 -0.604 30 68 139
0.403242 -0.394038 -0.604 95 126 190
0.445395 -0.39469 -0.605 181 184 201
0.461137 -0.395343 -0.606 19 57 128
0.4646 -0.395343 -0.606 5 52 124
0.490678 -0.394038 -0.604 46 72 133
0.492163 -0.393386 -0.603 26 63 133
0.443746 -0.330757 -0.507 172 124 104
0.448931 -0.327495 -0.502 173 125 103
0.462381 -0.32619 -0.5 166 120 97
0.470924 -0.327495 -0.502 161 116 95
0.0241619 -0.281343 -0.43 200 158 134
0.0273105 -0.280034 -0.428 201 157 132
0.0305 -0.27938 -0.427 202 158 131
0.0361933 -0.27938 -0.427 198 154 129
0.03782 -0.27938 -0.427 200 154 130
0.0517676 -0.280034 -0.428 186 140 116
0.0660867 -0.281997 -0.431 172 125 105
0.0976952 -0.300971 -0.46 95 75 76
0.099 -0.30228 -0.462 93 73 74
0.226069 -0.395189 -0.604 237 235 255
0.227219 -0.395189 -0.604 237 235 255
0.22952 -0.395189 -0.604 226 230 255
0.274389 -0.395189 -0.604 194 205 225
0.275539 -0.395189 -0.604 182 193 221
0.30315 -0.395189 -0.604 135 153 191
0.332462 -0.395843 -0.605 100 131 188
0.354922 -0.395189 -0.604 197 198 216
0.359524 -0.395189 -0.604 102 118 152
0.371563 -0.394534 -0.603 85 115 167
0.375009 -0.394534 -0.603 189 186 203
0.393538 -0.395843 -0.605 40 74 146
0.400941 -0.395189 -0.604 32 71 146
0.440057 -0.395189 -0.604 117 130 164
0.490678 -0.395189 -0.604 51 87 147
0.483603 -0.378831 -0.579 126 108 98
0.442157 -0.335649 -0.513 169 118 99
0.465238 -0.327143 -0.5 161 115 92
0.0190286 -0.291349 -0.444 193 151 127
0.0493219 -0.28085 -0.428 190 144 118
0.0551571 -0.281506 -0.429 184 136 114
0.0739867 -0.284787 -0.434 145 102 95
0.076819 -0.286099 -0.436 142 99 92
0.250963 -0.395683 -0.603 228 226 247
0.273238 -0.396339 -0.604 192 204 244
0.291163 -0.395683 -0.603 212 217 239
0.298054 -0.395683 -0.603 122 145 186
0.312986 -0.395683 -0.603 194 205 227
0.328461 -0.396339 -0.604 71 97 158
0.339966 -0.396339 -0.604 43 81 146
0.369266 -0.395683 -0.603 99 130 184
0.412446 -0.396339 -0.604 110 128 166
0.437756 -0.396339 -0.604 52 87 145
0.440057 -0.396339 -0.604 84 102 140
0.456919 -0.396995 -0.605 23 64 128
0.461529 -0.396995 -0.605 22 58 132
0.494787 -0.395027 -0.602 39 73 136
0.468095 -0.328095 -0.5 163 116 96
0.491991 -0.336626 -0.513 155 114 94
0.0279943 -0.280349 -0.426 200 158 133
0.0320514 -0.280349 -0.426 200 156 127
0.0328629 -0.280349 -0.426 198 154 125
0.0377314 -0.280349 -0.426 198 154 127
0.0443267 -0.281007 -0.427 193 147 123
0.0501371 -0.281665 -0.428 190 144 120
0.061019 -0.282981 -0.43 182 136 113
0.08274 -0.29022 -0.441 121 90 88
0.224546 -0.396831 -0.603 233 231 255
0.231437 -0.396831 -0.603 185 196 218
0.265894 -0.396831 -0.603 172 188 221
0.306094 -0.396831 -0.603 141 163 213
0.308903 -0.39749 -0.604 132 152 202
0.341116 -0.39749 -0.604 59 99 168
0.354334 -0.396831 -0.603 196 197 218
0.360077 -0.396831 -0.603 97 125 175
0.362374 -0.396831 -0.603 97 132 188
0.387643 -0.396831 -0.603 136 153 196
0.403723 -0.396831 -0.603 43 83 135
0.423249 -0.396831 -0.603 42 74 133
0.425546 -0.396831 -0.603 35 72 140
0.456164 -0.39749 -0.604 37 76 135
0.468819 -0.39749 -0.604 88 122 185
0.47227 -0.39749 -0.604 146 160 186
0.480324 -0.39749 -0.604 167 170 187
0.443134 -0.337603 -0.513 161 116 95
0.4509 -0.329706 -0.501 173 122 103
0.451854 -0.329706 -0.501 170 119 100
0.451905 -0.329048 -0.5 162 111 90
0.463357 -0.32839 -0.499 163 117 94
0.472849 -0.329706 -0.501 163 118 97
0.481433 -0.332338 -0.505 157 112 93
0.505567 -0.344184 -0.523 152 109 92
0.0240495 -0.28248 -0.428 197 157 131
0.02562 -0.28182 -0.427 198 156 131
0.0393543 -0.28116 -0.426 196 152 125
0.04758 -0.28182 -0.427 191 147 122
0.0636238 -0.28446 -0.431 174 127 107
0.0688676 -0.28578 -0.433 162 117 98
0.0916914 -0.29832 -0.452 103 75 72
0.1045 -0.3135 -0.475 94 72 74
0.241373 -0.39732 -0.602 172 188 222
0.25284 -0.39732 -0.602 219 223 248
0.257427 -0.39732 -0.602 192 196 221
0.272333 -0.39732 -0.602 152 176 224
0.274627 -0.39732 -0.602 109 134 188
0.28036 -0.39732 -0.602 154 175 222
0.299853 -0.39732 -0.602 112 139 186
0.30954 -0.39798 -0.603 115 138 190
0.313613 -0.39732 -0.602 198 206 225
0.3182 -0.39732 -0.602 200 202 223
0.323933 -0.39732 -0.602 191 200 233
0.35604 -0.39732 -0.602 183 190 218
0.373765 -0.39666 -0.601 140 165 205
0.38356 -0.39732 -0.602 72 95 145
0.385853 -0.39732 -0.602 89 114 178
0.392237 -0.39798 -0.603 24 63 130
0.399613 -0.39732 -0.602 24 61 142
0.408787 -0.39732 -0.602 46 85 142
0.427843 -0.39798 -0.603 18 63 131
0.431289 -0.39798 -0.603 26 73 141
0.433586 -0.39798 -0.603 33 76 144
0.440477 -0.39798 -0.603 133 152 192
0.474934 -0.39798 -0.603 166 170 182
0.49511 -0.39666 -0.601 60 89 145
0.449743 -0.3498 -0.53 147 109 96
0.44376 -0.34056 -0.516 156 119 103
0.4509 -0.33066 -0.501 171 120 101
0.453852 -0.32934 -0.499 168 120 100
0.456704 -0.32934 -0.499 164 116 94
0.457654 -0.32934 -0.499 166 118 96
0.0201133 -0.285281 -0.431 199 158 136
0.0319762 -0.28131 -0.425 198 157 129
0.0368333 -0.28131 -0.425 195 154 126
0.05002 -0.282633 -0.427 191 147 122
0.0602 -0.284619 -0.43 178 131 111
0.0628029 -0.285281 -0.431 169 122 102
0.264307 -0.398467 -0.602 101 129 177
0.2666 -0.398467 -0.602 112 140 188
0.299853 -0.398467 -0.602 100 130 180
0.31132 -0.398467 -0.602 150 174 222
0.3182 -0.398467 -0.602 202 203 231
0.319347 -0.398467 -0.602 203 205 228
0.353159 -0.397805 -0.601 185 189 214
0.354304 -0.397805 -0.601 168 178 205
0.37491 -0.397805 -0.601 106 133 180
0.384068 -0.397805 -0.601 63 85 142
0.41108 -0.398467 -0.602 104 125 170
0.415667 -0.398467 -0.602 177 183 195
0.469191 -0.399129 -0.603 115 131 165
0.49282 -0.397805 -0.601 70 101 156
0.446648 -0.346838 -0.524 149 110 95
0.443353 -0.338233 -0.511 160 119 97
0.448931 -0.332276 -0.502 168 119 102
0.452857 -0.330952 -0.5 170 122 102
0.0458457 -0.282783 -0.426 182 136 112
0.0559743 -0.284774 -0.429 184 137 117
0.0688676 -0.28743 -0.433 155 112 96
0.161107 -0.399613 -0.602 236 238 253
0.316527 -0.39895 -0.601 201 202 230
0.325685 -0.39895 -0.601 147 173 222
0.335988 -0.39895 -0.601 36 72 158
0.338277 -0.39895 -0.601 36 71 152
0.378344 -0.39895 -0.601 183 186 205
0.395515 -0.39895 -0.601 27 67 139
0.412687 -0.39895 -0.601 171 178 197
0.420253 -0.399613 -0.602 105 123 159
0.468043 -0.400277 -0.603 59 90 154
0.47988 -0.399613 -0.602 168 175 193
0.444743 -0.342526 -0.516 155 114 92
0.46148 -0.330577 -0.498 170 123 103
0.0231257 -0.283594 -0.426 197 157 131
0.02556 -0.283594 -0.426 196 154 129
0.0295476 -0.282929 -0.425 198 156 131
0.0319762 -0.282929 -0.425 200 156 131
0.0542133 -0.284926 -0.428 183 137 114
0.0644448 -0.286923 -0.431 166 119 101
0.0688676 -0.288254 -0.433 152 108 95
0.0698533 -0.28892 -0.434 146 102 89
0.0733286 -0.289586 -0.435 142 99 90
0.0950667 -0.306229 -0.46 97 75 77
0.22609 -0.400094 -0.601 227 233 249
0.263868 -0.400094 -0.601 115 138 180
0.286286 -0.399429 -0.6 205 210 232
0.309143 -0.399429 -0.6 82 112 166
0.336571 -0.399429 -0.6 31 71 156
0.346857 -0.399429 -0.6 66 91 147
0.358286 -0.399429 -0.6 66 94 157
0.388 -0.399429 -0.6 93 120 163
0.400571 -0.399429 -0.6 64 104 174
0.410857 -0.399429 -0.6 137 138 156
0.4207 -0.400094 -0.601 68 102 166
0.464201 -0.400094 -0.601 34 69 133
0.449888 -0.334189 -0.502 172 123 106
0.453852 -0.332191 -0.499 168 121 103
0.458634 -0.331526 -0.498 162 115 95
0.4824 -0.33552 -0.504 156 115 93
0.484319 -0.336186 -0.505 152 109 90
0.02074 -0.285073 -0.427 200 158 133
0.0335952 -0.283738 -0.425 198 154 129
0.0368333 -0.283738 -0.425 193 149 124
0.0426 -0.284406 -0.426 188 142 118
0.0628029 -0.287744 -0.431 171 120 103
0.08022 -0.29442 -0.441 123 88 82
0.0891086 -0.301764 -0.452 103 78 81
0.09548 -0.30844 -0.462 94 74 75
0.268 -0.400571 -0.6 73 103 175
0.297714 -0.400571 -0.6 96 127 192
0.317143 -0.400571 -0.6 164 170 196
0.321714 -0.400571 -0.6 97 112 143
0.345714 -0.400571 -0.6 79 111 170
0.346857 -0.400571 -0.6 88 108 159
0.372 -0.400571 -0.6 94 134 195
0.375944 -0.399904 -0.599 181 192 212
0.379367 -0.399904 -0.599 179 186 205
0.389143 -0.400571 -0.6 76 105 173
0.391429 -0.400571 -0.6 22 60 133
0.394857 -0.400571 -0.6 17 58 124
0.397143 -0.400571 -0.6 31 67 143
0.413143 -0.400571 -0.6 182 188 204
0.424571 -0.400571 -0.6 58 102 167
0.441714 -0.400571 -0.6 179 177 190
0.459622 -0.401239 -0.601 80 110 164
0.46649 -0.401239 -0.601 55 80 137
0.469925 -0.401239 -0.601 64 77 109
0.476793 -0.401239 -0.601 171 174 189
0.488571 -0.400571 -0.6 95 119 167
0.444327 -0.341153 -0.511 161 115 99
0.463377 -0.332474 -0.498 162 113 96
0.46812 -0.332474 -0.498 162 115 97
0.481443 -0.335812 -0.503 156 114 92
0.493 -0.340486 -0.51 153 108 89
0.0160086 -0.288565 -0.431 200 158 134
0.0360238 -0.284548 -0.425 199 153 127
0.0492067 -0.285887 -0.427 190 142 119
0.0542133 -0.286556 -0.428 178 130 110
0.0577429 -0.287895 -0.43 166 117 100
0.07068 -0.290573 -0.434 143 101 89
0.0987133 -0.314007 -0.469 91 70 67
0.318896 -0.401045 -0.599 90 102 128
0.324601 -0.401045 -0.599 57 88 155
0.339433 -0.401045 -0.599 53 88 152
0.342286 -0.401714 -0.6 103 132 190
0.353125 -0.401045 -0.599 155 162 188
0.373662 -0.401045 -0.599 165 186 215
0.378226 -0.401045 -0.599 185 187 200
0.393058 -0.401045 -0.599 23 66 134
0.421143 -0.401714 -0.6 64 102 167
0.438696 -0.401045 -0.599 179 179 191
0.456571 -0.401714 -0.6 70 100 154
0.467635 -0.402384 -0.601 60 83 135
0.469925 -0.402384 -0.601 62 77 118
0.474857 -0.401714 -0.6 167 169 184
0.477143 -0.401714 -0.6 164 174 183
0.481714 -0.401714 -0.6 174 174 184
0.485143 -0.401714 -0.6 99 118 150
0.487429 -0.401714 -0.6 74 102 149
0.445605 -0.346144 -0.517 150 111 96
0.45484 -0.333423 -0.498 167 120 100
0.460553 -0.332753 -0.497 173 124 107
0.493971 -0.341457 -0.51 150 108 92
0.0137029 -0.292743 -0.436 195 155 130
0.0286705 -0.284686 -0.424 200 156 129
0.0327086 -0.284686 -0.424 198 152 126
0.0360238 -0.285357 -0.425 196 150 126
0.0508333 -0.2867 -0.427 180 132 110
0.07938 -0.2961 -0.441 120 89 84
0.248157 -0.402186 -0.599 212 217 247
0.26299 -0.402186 -0.599 150 172 219
0.342856 -0.402186 -0.599 160 179 212
0.354266 -0.402186 -0.599 180 188 209
0.374177 -0.401514 -0.598 182 187 216
