ply
format ascii 1.0
comment Created by Open3D
element vertex 1296
property double x
property double y
property double z
property uchar red
property uchar green
property uchar blue
end_header
0.12584 -0.454876 -0.572 129 143 172
0.458187 -0.451695 -0.568 144 158 184
0.47117 -0.451695 -0.568 92 123 154
0.47682 -0.4509 -0.567 107 131 159
0.51116 -0.4342 -0.546 124 104 93
0.491971 -0.408752 -0.514 145 112 95
0.481834 -0.386486 -0.486 166 124 99
0.48269 -0.38569 -0.485 172 128 103
0.4853 -0.3841 -0.483 172 128 101
0.485213 -0.383305 -0.482 173 127 101
0.496665 -0.380124 -0.478 175 126 96
0.514706 -0.379329 -0.477 163 118 89
0.614357 -0.436586 -0.549 197 199 186
0.811267 -0.450105 -0.566 127 128 120
0.812345 -0.450105 -0.566 125 126 118
0.856627 -0.456467 -0.574 123 124 119
0.867291 -0.458057 -0.576 114 113 108
0.880631 -0.460443 -0.579 126 125 120
-0.0439505 -0.443211 -0.556 191 153 117
-0.02682 -0.356323 -0.447 192 156 120
-0.0148667 -0.355526 -0.446 191 151 115
0.0143943 -0.365091 -0.458 172 127 98
0.0152667 -0.365091 -0.458 171 126 97
0.0308857 -0.374657 -0.47 131 102 86
0.0318486 -0.375454 -0.471 129 100 84
0.0685 -0.4185 -0.525 99 81 79
0.0769124 -0.432051 -0.542 94 80 80
0.0783762 -0.434443 -0.545 92 90 101
0.44658 -0.45198 -0.567 164 168 179
0.45414 -0.45198 -0.567 97 113 138
0.462514 -0.452777 -0.568 171 170 178
0.46576 -0.452777 -0.568 155 161 173
0.48676 -0.451183 -0.566 162 167 171
0.50948 -0.432051 -0.542 124 104 95
0.528712 -0.385817 -0.484 140 109 80
0.801224 -0.450386 -0.565 115 115 113
0.8127 -0.45198 -0.567 124 125 120
0.815215 -0.452777 -0.568 124 125 120
0.816297 -0.452777 -0.568 122 121 117
0.817379 -0.452777 -0.568 124 123 119
0.857417 -0.459154 -0.576 117 118 113
0.881048 -0.462343 -0.58 124 123 118
-0.019919 -0.355576 -0.445 192 154 115
-0.00979143 -0.357174 -0.447 187 142 109
0.039019 -0.385141 -0.482 114 89 82
0.0543476 -0.403519 -0.505 107 86 81
0.0929914 -0.456256 -0.571 114 129 160
0.0951667 -0.456256 -0.571 96 114 152
0.478135 -0.452261 -0.566 97 117 152
0.479213 -0.452261 -0.566 79 99 134
0.484604 -0.452261 -0.566 169 169 177
0.50312 -0.425093 -0.532 128 103 96
0.482888 -0.389935 -0.488 165 124 102
0.49223 -0.382744 -0.479 171 127 100
0.496665 -0.381945 -0.478 173 127 101
0.526528 -0.385141 -0.482 142 111 82
0.808724 -0.453859 -0.568 105 105 103
0.81665 -0.454658 -0.569 122 123 118
0.820257 -0.455457 -0.57 122 121 117
0.84788 -0.458653 -0.574 118 117 113
-0.028459 -0.357225 -0.446 194 158 124
0.0187971 -0.367637 -0.459 161 119 95
0.0215133 -0.369239 -0.461 155 113 91
0.0251886 -0.371642 -0.464 147 109 88
0.0270724 -0.373244 -0.466 143 108 89
0.0289714 -0.374846 -0.468 135 102 85
0.0328848 -0.37885 -0.473 121 94 83
0.0672429 -0.418898 -0.523 98 84 84
0.0698971 -0.422903 -0.528 95 81 81
0.0973419 -0.457344 -0.571 101 121 156
0.114543 -0.456543 -0.57 152 159 178
0.118886 -0.456543 -0.57 167 176 191
0.470589 -0.453339 -0.566 116 136 161
0.493433 -0.452538 -0.565 129 137 148
0.513032 -0.438922 -0.548 121 101 92
0.484538 -0.388462 -0.485 174 129 106
0.4853 -0.38686 -0.483 173 129 104
0.487871 -0.385258 -0.481 174 130 103
0.513452 -0.380452 -0.475 163 118 89
0.812657 -0.456543 -0.57 103 104 99
0.819521 -0.457344 -0.571 120 121 116
0.831851 -0.458145 -0.572 121 120 116
-0.0292429 -0.357271 -0.445 196 157 124
-0.0257943 -0.356469 -0.444 193 154 121
-0.015681 -0.357271 -0.445 192 152 116
-0.00299333 -0.360483 -0.449 190 145 112
0.00647143 -0.363694 -0.453 179 133 107
0.0223914 -0.370117 -0.461 152 111 89
0.0541324 -0.403837 -0.503 106 86 77
0.0672429 -0.419894 -0.523 96 82 81
0.511262 -0.437557 -0.545 121 102 95
0.503994 -0.428726 -0.534 126 103 97
0.495769 -0.416683 -0.519 139 111 99
0.482888 -0.391794 -0.488 166 125 103
0.488686 -0.385371 -0.48 176 132 105
0.4896 -0.385371 -0.48 175 131 104
0.498213 -0.38216 -0.476 175 128 102
0.81333 -0.459234 -0.572 100 101 96
0.825666 -0.460037 -0.573 123 122 118
0.86078 -0.464854 -0.579 101 100 96
0.879247 -0.46646 -0.581 104 105 99
-0.0232048 -0.35651 -0.443 194 154 119
-0.00384 -0.360533 -0.448 189 144 111
0.0431343 -0.391919 -0.487 110 90 83
0.0507486 -0.400771 -0.498 108 87 84
0.124096 -0.45791 -0.569 139 138 154
0.456843 -0.45469 -0.565 106 108 103
0.464376 -0.45469 -0.565 135 142 152
0.483966 -0.453886 -0.564 146 151 155
0.486143 -0.400771 -0.498 158 120 99
0.484611 -0.391114 -0.486 170 130 105
0.488788 -0.38709 -0.481 178 132 106
0.494717 -0.383871 -0.477 175 129 103
0.507687 -0.380652 -0.473 171 124 94
0.516167 -0.382262 -0.475 160 118 93
0.526171 -0.386286 -0.48 144 110 83
0.873314 -0.466762 -0.58 104 105 100
0.89544 -0.4732 -0.588 102 101 96
-0.0257362 -0.357353 -0.443 192 152 117
0.00214286 -0.363 -0.45 184 139 108
0.00647143 -0.36542 -0.453 178 132 106
0.00994476 -0.366227 -0.454 174 127 99
0.031781 -0.379133 -0.47 127 97 87
0.0452667 -0.395267 -0.49 110 86 82
0.463554 -0.45496 -0.564 133 140 150
0.48815 -0.405753 -0.503 155 116 101
0.4851 -0.3993 -0.495 161 123 102
0.4853 -0.38962 -0.483 171 129 105
0.488686 -0.3872 -0.48 176 130 106
0.498071 -0.383167 -0.475 175 128 102
0.503343 -0.38236 -0.474 171 124 96
0.519973 -0.383973 -0.476 152 115 88
0.826357 -0.463833 -0.575 119 118 114
0.838766 -0.46464 -0.576 124 123 119
0.846816 -0.465447 -0.577 110 111 106
0.847915 -0.465447 -0.577 108 109 104
0.863753 -0.468673 -0.581 103 104 99
0.867457 -0.46948 -0.582 101 102 97
0.868566 -0.46948 -0.582 102 103 98
0.87482 -0.468673 -0.581 101 102 97
-0.0198295 -0.358197 -0.443 194 154 118
-0.00298667 -0.36224 -0.448 189 144 111
-0.00213333 -0.36224 -0.448 188 143 112
0.00214286 -0.363857 -0.45 183 138 107
0.00559619 -0.365474 -0.452 178 133 104
0.0161038 -0.369517 -0.457 166 121 98
0.0178838 -0.370326 -0.458 160 118 96
0.0223914 -0.372751 -0.461 149 107 91
0.0553095 -0.408329 -0.505 105 86 82
0.0575733 -0.410754 -0.508 105 85 84
0.0771962 -0.439863 -0.544 128 123 129
0.460331 -0.456034 -0.564 175 179 182
0.467851 -0.456034 -0.564 88 109 152
0.487397 -0.455226 -0.563 163 164 168
0.485018 -0.398626 -0.493 161 123 100
0.487871 -0.388923 -0.481 177 131 107
0.4896 -0.388114 -0.48 175 129 105
0.499731 -0.383263 -0.474 174 127 101
0.501537 -0.383263 -0.474 171 124 96
0.51039 -0.382454 -0.473 168 121 95
0.514894 -0.382454 -0.473 162 120 95
0.516886 -0.383263 -0.474 157 117 91
0.52088 -0.38488 -0.476 148 113 85
0.522883 -0.385689 -0.477 149 114 86
0.843519 -0.466546 -0.577 107 106 102
0.877434 -0.470589 -0.582 98 99 93
-0.0337819 -0.363904 -0.449 192 153 120
-0.0317857 -0.360662 -0.445 194 155 122
-0.0299552 -0.359041 -0.443 194 156 120
-0.0248362 -0.35823 -0.442 194 154 118
-0.0181419 -0.359041 -0.443 193 154 115
-0.00974762 -0.360662 -0.445 188 145 110
-0.0089 -0.360662 -0.445 188 145 110
0.00128286 -0.363904 -0.449 183 138 107
0.00386571 -0.365525 -0.451 179 134 103
0.00472476 -0.365525 -0.451 178 133 104
0.0713057 -0.430363 -0.531 97 79 79
0.462732 -0.456298 -0.563 114 120 132
0.474529 -0.456298 -0.563 69 98 140
0.47989 -0.456298 -0.563 63 95 144
0.48418 -0.456298 -0.563 172 172 174
0.504133 -0.431173 -0.532 126 102 98
0.493946 -0.415774 -0.513 144 112 101
0.487119 -0.404428 -0.499 157 119 98
0.491317 -0.388218 -0.479 174 129 100
0.508411 -0.382545 -0.472 171 121 94
0.512907 -0.382545 -0.472 166 122 95
0.841321 -0.467645 -0.577 103 102 98
0.875217 -0.471697 -0.582 110 111 106
-0.0500333 -0.449247 -0.553 182 147 117
-0.0055219 -0.362322 -0.446 190 146 111
-0.00213333 -0.363947 -0.448 187 142 109
-0.00128 -0.363947 -0.448 186 141 108
0.0178448 -0.371258 -0.457 157 114 95
0.0205457 -0.372883 -0.459 151 110 92
0.04094 -0.39238 -0.483 108 87 84
0.0686305 -0.427312 -0.526 98 80 78
0.0700295 -0.42975 -0.529 97 79 79
0.11394 -0.46062 -0.567 169 176 186
0.472384 -0.45737 -0.563 62 98 150
0.493946 -0.416751 -0.513 141 111 100
0.49009 -0.410252 -0.505 151 114 96
0.484867 -0.398067 -0.49 162 125 99
0.485537 -0.394817 -0.486 167 126 98
0.497307 -0.386693 -0.476 176 130 97
0.506613 -0.383444 -0.472 170 123 93
0.507512 -0.383444 -0.472 172 123 93
0.508411 -0.383444 -0.472 172 123 93
0.513806 -0.383444 -0.472 166 123 91
0.514705 -0.383444 -0.472 162 121 91
0.618088 -0.441935 -0.544 195 195 187
0.834377 -0.467931 -0.576 120 122 117
0.847183 -0.469556 -0.578 99 100 95
0.873775 -0.47443 -0.584 101 102 96
0.880052 -0.473618 -0.583 102 103 97
-0.03256 -0.361543 -0.444 195 155 120
-0.017259 -0.359914 -0.442 191 149 111
-0.013079 -0.360729 -0.443 189 147 109
-0.00805238 -0.362357 -0.445 190 146 111
-0.00298 -0.363986 -0.447 185 140 107
0.0232695 -0.375386 -0.461 149 107 91
0.031781 -0.382714 -0.47 123 96 89
0.451206 -0.457629 -0.562 112 118 116
0.454417 -0.457629 -0.562 177 182 185
0.455488 -0.457629 -0.562 179 184 187
0.473686 -0.457629 -0.562 50 87 139
0.501403 -0.429129 -0.527 126 106 97
0.486002 -0.402257 -0.494 160 123 97
0.485462 -0.394929 -0.485 169 128 98
0.487871 -0.391671 -0.481 175 132 100
0.489492 -0.390043 -0.479 173 129 100
0.496262 -0.386786 -0.475 177 131 98
0.499731 -0.385971 -0.474 177 131 98
0.520497 -0.385971 -0.474 158 115 81
0.611486 -0.439714 -0.54 193 190 181
0.833628 -0.469843 -0.577 122 124 119
0.836571 -0.469029 -0.576 104 106 101
0.851957 -0.471471 -0.579 83 84 78
0.861914 -0.473914 -0.582 111 110 106
0.878225 -0.475543 -0.584 108 109 103
-0.02394 -0.35994 -0.441 193 154 115
-0.02226 -0.35994 -0.441 195 153 115
-0.01974 -0.35994 -0.441 193 151 113
-0.0189 -0.35994 -0.441 192 150 112
-0.0164171 -0.360756 -0.442 187 147 111
-0.00888 -0.362389 -0.444 191 147 112
0.0367971 -0.389323 -0.477 109 92 85
0.0398543 -0.392588 -0.481 108 87 84
0.0441524 -0.398301 -0.488 106 87 83
0.0462 -0.399933 -0.49 106 86 85
0.0773381 -0.444824 -0.545 165 162 171
0.09342 -0.46278 -0.567 116 140 186
0.115895 -0.461964 -0.566 170 172 187
0.445853 -0.458699 -0.562 67 102 156
0.451206 -0.458699 -0.562 138 140 137
0.455488 -0.458699 -0.562 180 185 189
0.48574 -0.399117 -0.489 166 126 100
0.487771 -0.391771 -0.48 173 129 100
0.489492 -0.390955 -0.479 172 128 99
0.491083 -0.389323 -0.477 179 134 103
0.491991 -0.389323 -0.477 178 133 102
0.50138 -0.386058 -0.473 175 129 96
0.517402 -0.385242 -0.472 159 114 81
0.5359 -0.39422 -0.483 143 107 83
0.833971 -0.471758 -0.578 118 120 119
0.876768 -0.478288 -0.586 106 108 103
-0.0363476 -0.367325 -0.449 187 149 113
-0.02058 -0.36078 -0.441 193 150 115
-0.0164171 -0.361598 -0.442 188 145 110
-0.00128 -0.366507 -0.448 180 137 103
0.0116486 -0.370597 -0.453 167 119 99
0.012539 -0.371415 -0.454 166 118 98
0.04094 -0.39514 -0.483 108 87 82
0.0430457 -0.397594 -0.486 107 86 83
0.05986 -0.418047 -0.511 101 83 83
0.0647514 -0.424591 -0.519 98 82 83
0.492031 -0.414774 -0.507 148 111 102
0.48714 -0.39514 -0.483 169 125 96
0.502849 -0.385323 -0.471 169 123 89
0.507334 -0.385323 -0.471 169 124 91
0.508048 -0.384505 -0.47 169 124 91
0.522303 -0.387777 -0.474 159 114 85
0.618912 -0.443408 -0.542 167 166 161
0.836173 -0.472859 -0.578 122 124 121
0.839123 -0.472041 -0.577 104 105 100
0.851219 -0.474495 -0.58 31 32 26
0.852324 -0.474495 -0.58 27 28 22
-0.0385667 -0.3731 -0.455 184 148 114
-0.0342514 -0.36408 -0.444 192 154 118
-0.0315 -0.36162 -0.441 191 153 117
-0.0255619 -0.3608 -0.44 190 150 115
-0.01638 -0.36162 -0.441 189 146 111
-0.0122352 -0.36326 -0.443 189 146 111
-0.0046619 -0.3649 -0.445 183 140 105
0.000426667 -0.36736 -0.448 177 134 100
0.0143 -0.3731 -0.455 162 115 95
0.0451743 -0.40098 -0.489 104 85 81
0.0528571 -0.41 -0.5 105 87 87
0.0609524 -0.41984 -0.512 101 81 82
0.443991 -0.46002 -0.561 40 75 133
0.450403 -0.46002 -0.561 163 167 179
0.480533 -0.4592 -0.56 74 102 152
0.482667 -0.4592 -0.56 87 111 137
0.4848 -0.4592 -0.56 152 168 184
0.490048 -0.41164 -0.502 152 115 99
0.487771 -0.3936 -0.48 176 131 102
0.490291 -0.39196 -0.478 175 130 99
0.492773 -0.39032 -0.476 177 131 98
0.494314 -0.38868 -0.474 175 129 96
0.498677 -0.38786 -0.473 173 127 94
0.499421 -0.38704 -0.472 176 130 97
0.501951 -0.38622 -0.471 170 124 90
0.528334 -0.39114 -0.477 159 112 84
0.534597 -0.39442 -0.481 144 105 76
0.53774 -0.39606 -0.483 133 102 74
0.61218 -0.44034 -0.537 144 140 137
0.86449 -0.48052 -0.586 102 103 97
0.868201 -0.48134 -0.587 110 111 105
-0.0529048 -0.452048 -0.55 185 146 113
0.00385714 -0.369857 -0.45 177 132 103
0.00557143 -0.369857 -0.45 177 132 103
0.00817905 -0.371501 -0.452 169 123 97
0.0143 -0.373967 -0.455 162 115 97
0.0367971 -0.392049 -0.477 111 88 82
0.0398543 -0.395336 -0.481 111 88 82
0.0440619 -0.400268 -0.487 106 85 80
0.0573467 -0.415884 -0.506 104 85 81
0.453867 -0.460267 -0.56 154 160 182
0.4624 -0.460267 -0.56 55 91 127
0.506096 -0.438075 -0.533 124 96 92
0.49959 -0.429856 -0.523 127 102 97
0.49104 -0.41424 -0.504 149 113 99
0.486896 -0.405199 -0.493 159 122 96
0.486846 -0.404377 -0.492 161 124 98
0.486606 -0.40109 -0.488 166 127 98
0.489381 -0.39287 -0.478 173 130 98
0.517203 -0.387117 -0.471 162 117 86
0.520099 -0.387939 -0.472 163 118 87
0.871159 -0.484102 -0.589 113 114 109
-0.0528086 -0.452271 -0.549 184 145 112
-0.0350181 -0.364948 -0.443 192 152 117
-0.0296848 -0.361652 -0.439 194 151 116
-0.0205333 -0.362476 -0.44 190 148 108
-0.0147 -0.3633 -0.441 189 149 113
-0.0113657 -0.364124 -0.442 187 147 111
0.0232695 -0.379776 -0.461 148 107 89
0.02796 -0.383895 -0.466 129 99 89
0.0647514 -0.427557 -0.519 97 82 85
0.07748 -0.4498 -0.546 85 96 124
0.121931 -0.464629 -0.564 99 108 125
0.123006 -0.464629 -0.564 103 112 129
0.486671 -0.402843 -0.489 166 127 98
0.48705 -0.397076 -0.482 172 128 99
0.492773 -0.392133 -0.476 177 132 101
0.493411 -0.390486 -0.474 176 131 100
0.496875 -0.389662 -0.473 174 127 97
0.496724 -0.388838 -0.472 173 126 96
0.503571 -0.38719 -0.47 161 115 82
0.511433 -0.386367 -0.469 170 125 94
0.530151 -0.392957 -0.477 150 109 81
0.00904 -0.373223 -0.452 167 121 97
0.0223429 -0.379829 -0.46 148 107 89
0.0429571 -0.400471 -0.485 110 86 82
0.0527514 -0.412031 -0.499 106 86 85
0.0659933 -0.430197 -0.521 97 80 86
0.0886286 -0.465703 -0.564 43 66 108
0.439214 -0.461574 -0.559 45 79 142
0.467963 -0.461574 -0.559 39 86 138
0.507046 -0.440931 -0.534 117 96 91
0.498671 -0.430197 -0.521 125 100 93
0.494909 -0.424417 -0.514 130 102 91
0.490026 -0.413683 -0.501 151 114 98
0.490053 -0.39304 -0.476 176 131 100
0.495974 -0.390563 -0.473 176 130 97
0.523904 -0.390563 -0.473 161 115 89
0.611681 -0.440106 -0.533 78 77 75
-0.0389133 -0.371601 -0.449 188 148 112
-0.03486 -0.36498 -0.441 195 152 117
-0.0321933 -0.363325 -0.439 198 154 117
-0.0313571 -0.363325 -0.439 197 153 116
-0.00718857 -0.367463 -0.444 187 143 108
0.00127714 -0.369946 -0.447 178 133 104
0.0107619 -0.374084 -0.452 167 120 100
0.031781 -0.388981 -0.47 116 92 88
0.0408552 -0.398912 -0.482 112 89 83
0.0729981 -0.443604 -0.536 82 83 103
0.476691 -0.461811 -0.558 89 129 181
0.508577 -0.461811 -0.558 55 89 137
0.505209 -0.439466 -0.531 119 99 90
0.49104 -0.41712 -0.504 143 110 95
0.487929 -0.409671 -0.495 154 116 93
0.486733 -0.405533 -0.49 161 124 98
0.486305 -0.400568 -0.484 167 126 98
0.489266 -0.394774 -0.477 174 127 97
0.498363 -0.389809 -0.471 179 130 98
0.500886 -0.388981 -0.47 179 130 98
0.51054 -0.388153 -0.469 167 120 90
0.514113 -0.388153 -0.469 159 114 83
-0.0512914 -0.451261 -0.544 184 146 110
-0.0376343 -0.368309 -0.444 193 151 113
-0.0213229 -0.364161 -0.439 193 151 113
-0.00465143 -0.368309 -0.444 183 137 103
0.0160333 -0.377433 -0.455 157 115 93
0.020501 -0.379922 -0.458 147 109 90
0.031781 -0.389876 -0.47 116 92 88
0.0504429 -0.410614 -0.495 106 87 83
0.0647514 -0.430523 -0.519 97 78 82
0.0701619 -0.439648 -0.53 93 78 85
0.0906162 -0.467022 -0.563 36 62 111
0.461811 -0.462874 -0.558 81 114 165
0.468189 -0.462874 -0.558 49 98 157
0.475629 -0.462874 -0.558 97 135 180
0.480943 -0.462874 -0.558 165 184 199
0.516153 -0.462045 -0.557 131 129 134
0.490026 -0.415591 -0.501 142 109 94
0.48756 -0.396512 -0.478 178 131 103
0.489266 -0.395683 -0.477 175 128 98
0.489147 -0.394853 -0.476 179 132 102
0.495073 -0.392365 -0.473 177 128 96
0.496724 -0.391535 -0.472 175 126 94
0.500157 -0.390706 -0.471 181 132 100
0.502676 -0.389876 -0.47 176 127 95
0.512327 -0.389047 -0.469 171 125 92
-0.0330295 -0.364997 -0.439 197 154 119
-0.0196505 -0.364997 -0.439 191 147 110
0.00127714 -0.371649 -0.447 179 134 103
0.00298667 -0.37248 -0.448 177 132 103
0.0151667 -0.3783 -0.455 156 114 92
0.0702943 -0.441489 -0.531 93 80 89
0.0717086 -0.443983 -0.534 92 79 88
0.445869 -0.463937 -0.558 143 177 215
0.449057 -0.463937 -0.558 165 174 191
0.473503 -0.463937 -0.558 90 133 178
0.507111 -0.443151 -0.533 116 96 89
0.48797 -0.412389 -0.496 154 112 90
0.486733 -0.4074 -0.49 166 121 98
0.486386 -0.403243 -0.485 170 124 98
0.48665 -0.397423 -0.478 173 126 98
0.49926 -0.391603 -0.471 182 133 101
0.537849 -0.398254 -0.479 138 104 77
-0.0304514 -0.365 -0.438 190 151 112
-0.0179781 -0.365833 -0.439 189 146 111
0.00384 -0.373333 -0.448 176 130 104
0.0142686 -0.378333 -0.454 160 115 94
0.02508 -0.385 -0.462 141 103 90
0.0537019 -0.415833 -0.499 104 83 80
0.0747095 -0.450833 -0.541 72 78 102
0.460749 -0.465 -0.558 155 161 175
0.495647 -0.465833 -0.559 126 132 146
0.49 -0.416667 -0.5 146 111 92
0.488989 -0.415 -0.498 148 113 94
0.487835 -0.410833 -0.493 160 115 92
0.492509 -0.395 -0.474 181 132 102
0.495073 -0.394167 -0.473 179 129 102
0.498522 -0.393333 -0.472 182 133 103
0.506777 -0.39 -0.468 172 123 93
0.509451 -0.39 -0.468 169 122 92
0.511234 -0.39 -0.468 167 120 90
0.517687 -0.390833 -0.469 163 116 88
0.523483 -0.3925 -0.471 163 114 84
-0.0393257 -0.370846 -0.444 187 147 112
-0.0237771 -0.365834 -0.438 191 148 113
-0.02044 -0.365834 -0.438 191 148 113
-0.00884 -0.369175 -0.442 187 143 108
-0.00296 -0.370846 -0.444 175 131 104
-0.00127143 -0.371681 -0.445 176 130 104
0.112734 -0.468569 -0.561 163 171 182
0.439765 -0.465228 -0.557 51 84 153
0.452496 -0.465228 -0.557 194 207 213
0.462874 -0.466063 -0.558 111 138 165
0.465228 -0.465228 -0.557 101 135 180
0.477546 -0.466898 -0.559 106 133 163
0.490133 -0.467733 -0.56 160 166 166
0.498667 -0.467733 -0.56 174 173 169
0.509894 -0.448523 -0.537 114 98 85
0.496834 -0.430983 -0.516 126 100 87
0.486606 -0.407596 -0.488 165 123 99
0.486536 -0.406761 -0.487 165 123 98
0.486386 -0.40509 -0.485 167 123 96
0.494172 -0.395068 -0.473 178 132 99
0.496724 -0.394232 -0.472 177 131 98
0.498522 -0.394232 -0.472 180 133 103
0.498363 -0.393397 -0.471 181 134 104
0.5025 -0.391727 -0.469 174 125 95
0.504103 -0.390891 -0.468 172 125 95
0.504994 -0.390891 -0.468 171 124 94
0.5137 -0.390056 -0.467 165 119 86
0.516583 -0.390891 -0.468 166 120 87
-0.0404429 -0.374203 -0.447 187 147 111
-0.0079981 -0.370017 -0.442 186 142 107
0.009 -0.376714 -0.45 166 122 97
0.0124838 -0.378389 -0.452 163 117 94
0.03082 -0.39262 -0.469 124 96 82
0.0387762 -0.400991 -0.479 112 89 83
0.0439714 -0.406851 -0.486 108 84 80
0.0449895 -0.407689 -0.487 108 84 80
0.0633943 -0.431966 -0.516 97 79 77
0.452496 -0.466289 -0.557 202 216 217
0.463937 -0.467126 -0.558 117 141 169
0.46735 -0.466289 -0.557 102 130 170
0.477546 -0.467963 -0.559 132 151 158
0.504555 -0.471311 -0.563 165 165 167
0.5168 -0.4688 -0.56 138 137 135
0.490053 -0.39848 -0.476 174 129 98
0.49096 -0.39848 -0.476 175 130 99
0.494314 -0.396806 -0.474 178 132 99
0.496724 -0.395131 -0.472 177 131 97
0.501607 -0.39262 -0.469 171 125 91
0.503393 -0.39262 -0.469 174 125 92
0.507669 -0.391783 -0.468 173 124 92
0.52819 -0.395131 -0.472 148 109 80
0.531111 -0.395969 -0.473 145 109 83
-0.0278848 -0.366664 -0.437 193 151 111
-0.0212743 -0.367503 -0.438 191 148 113
-0.00379714 -0.371698 -0.443 176 131 102
0.00554667 -0.375893 -0.448 171 125 101
0.00987905 -0.37841 -0.451 168 121 95
0.0107381 -0.37841 -0.451 168 121 95
0.0159981 -0.380928 -0.454 156 114 92
0.02508 -0.38764 -0.462 136 103 84
0.0279 -0.390157 -0.465 127 98 82
0.0397714 -0.402743 -0.48 110 86 82
0.101867 -0.469867 -0.56 82 99 142
0.12 -0.469867 -0.56 177 175 180
0.439765 -0.46735 -0.557 59 95 157
0.449313 -0.46735 -0.557 195 205 207
0.475416 -0.469028 -0.559 175 178 183
0.488871 -0.470706 -0.561 177 178 182
0.491009 -0.470706 -0.561 178 179 183
0.493146 -0.470706 -0.561 177 178 180
0.509576 -0.474062 -0.565 152 150 151
0.497797 -0.433788 -0.517 125 101 91
0.488989 -0.417846 -0.498 149 111 92
0.490053 -0.399387 -0.476 175 130 99
0.49999 -0.394352 -0.47 176 130 96
0.504103 -0.392674 -0.468 173 124 91
0.509252 -0.391835 -0.467 174 125 93
0.5137 -0.391835 -0.467 171 122 90
0.520149 -0.392674 -0.468 160 114 88
0.543099 -0.401065 -0.478 142 107 85
-0.05668 -0.45916 -0.546 186 141 108
-0.0371257 -0.368337 -0.438 194 151 116
-0.0362914 -0.368337 -0.438 194 151 116
-0.0337114 -0.367496 -0.437 191 152 113
-0.0311429 -0.366655 -0.436 193 150 115
-0.0286514 -0.366655 -0.436 193 151 111
-0.0270524 -0.367496 -0.437 192 150 112
-0.0163057 -0.369178 -0.439 187 143 106
-0.012961 -0.369178 -0.439 191 147 112
0.00127429 -0.375065 -0.446 175 129 103
0.0178057 -0.383474 -0.456 153 112 90
0.0377848 -0.401975 -0.478 107 88 84
0.0439714 -0.408703 -0.486 106 85 80
0.0537019 -0.419635 -0.499 106 85 82
0.05712 -0.42384 -0.504 101 83 81
0.0718429 -0.44991 -0.535 142 140 141
0.447994 -0.469251 -0.558 160 170 180
0.50008 -0.474297 -0.564 156 156 158
0.521458 -0.46841 -0.557 78 77 75
0.488989 -0.418794 -0.498 147 110 92
0.487449 -0.401134 -0.477 174 130 103
0.493271 -0.39777 -0.473 177 132 99
0.51459 -0.392725 -0.467 168 121 91
0.552234 -0.405339 -0.482 134 100 73
-0.0113143 -0.370857 -0.44 189 145 110
-0.00126857 -0.374229 -0.444 176 131 102
-0.00042381 -0.375071 -0.445 175 130 101
0.00641429 -0.378443 -0.449 169 123 97
0.0115971 -0.380129 -0.451 165 119 93
0.02508 -0.3894 -0.462 139 99 89
0.04186 -0.4071 -0.483 106 85 82
0.0646267 -0.4366 -0.518 94 79 72
0.0688914 -0.445029 -0.528 88 77 71
0.43368 -0.468629 -0.556 130 141 147
0.447994 -0.470314 -0.558 188 193 196
0.453309 -0.470314 -0.558 193 191 194
0.474133 -0.472 -0.56 181 181 181
0.520248 -0.482114 -0.572 103 99 100
0.488989 -0.419743 -0.498 147 110 92
0.489024 -0.400357 -0.475 180 136 107
0.497305 -0.396143 -0.47 173 128 97
0.531557 -0.396986 -0.471 151 111 86
0.532454 -0.396986 -0.471 149 109 84
-0.037041 -0.369161 -0.437 191 151 115
-0.0269905 -0.368316 -0.436 193 151 113
-0.0171029 -0.370006 -0.438 187 143 108
-0.0154695 -0.37085 -0.439 190 146 111
-0.012961 -0.37085 -0.439 189 145 110
-0.0104762 -0.371695 -0.44 184 139 106
0.00042381 -0.375919 -0.445 172 128 99
0.0514895 -0.419002 -0.496 106 86 85
0.0607143 -0.430829 -0.51 99 78 77
0.405414 -0.468843 -0.555 99 137 182
0.411757 -0.468843 -0.555 135 151 167
0.429444 -0.469688 -0.556 188 188 190
0.45012 -0.471377 -0.558 191 192 196
0.462639 -0.472222 -0.559 185 185 185
0.49302 -0.47898 -0.567 158 154 155
0.498217 -0.479825 -0.568 147 145 146
0.526003 -0.475601 -0.563 47 42 48
0.491004 -0.42407 -0.502 138 109 91
0.487535 -0.412244 -0.488 163 123 98
0.486755 -0.404641 -0.479 169 128 100
0.503211 -0.395349 -0.468 175 130 97
0.5415 -0.401262 -0.475 141 105 81
-0.0294143 -0.3683 -0.435 189 150 111
-0.0146333 -0.371687 -0.439 188 145 110
0.00382286 -0.377613 -0.446 171 125 99
0.0064 -0.379307 -0.448 166 122 97
0.0115971 -0.381847 -0.451 161 116 93
0.0168629 -0.384387 -0.454 150 112 93
0.0279 -0.3937 -0.465 124 95 81
0.0337143 -0.399627 -0.472 114 89 82
0.03476 -0.40132 -0.474 111 86 79
0.0357381 -0.402167 -0.475 111 86 81
0.0537019 -0.422487 -0.499 101 81 80
0.0647514 -0.43942 -0.519 95 77 73
0.108943 -0.47244 -0.558 151 156 175
0.405414 -0.4699 -0.555 135 159 187
0.407529 -0.4699 -0.555 154 169 190
0.413871 -0.4699 -0.555 196 201 205
0.414929 -0.4699 -0.555 196 201 205
0.4181 -0.4699 -0.555 199 200 204
0.42309 -0.470747 -0.556 202 201 206
0.427326 -0.470747 -0.556 201 204 209
0.475827 -0.475827 -0.562 161 161 163
0.482891 -0.47752 -0.564 148 148 150
0.487838 -0.479213 -0.566 142 138 139
0.49641 -0.397933 -0.47 173 128 97
0.506387 -0.394547 -0.466 172 127 94
0.509937 -0.394547 -0.466 170 125 92
0.54331 -0.402167 -0.475 141 105 79
0.547414 -0.40386 -0.477 137 102 72
-0.0572971 -0.459926 -0.542 183 148 110
-0.0294143 -0.369129 -0.435 191 149 111
-0.0178962 -0.370826 -0.437 190 147 112
-0.0104762 -0.373371 -0.44 182 137 104
0.0177667 -0.3861 -0.455 152 111 91
0.0547619 -0.424286 -0.5 102 81 78
0.398014 -0.470957 -0.555 176 180 189
0.436303 -0.473503 -0.558 197 196 201
0.437366 -0.473503 -0.558 196 195 200
0.445869 -0.473503 -0.558 190 180 188
0.474297 -0.478594 -0.564 145 143 144
0.476214 -0.479443 -0.565 141 139 140
0.488825 -0.419194 -0.494 150 115 95
0.487727 -0.416649 -0.491 153 117 95
0.488897 -0.402223 -0.474 174 133 103
0.49641 -0.398829 -0.47 174 129 98
0.498033 -0.39798 -0.469 172 127 96
0.498927 -0.39798 -0.469 174 127 97
0.5115 -0.394586 -0.465 170 124 91
0.529063 -0.397131 -0.468 153 112 82
0.54808 -0.40392 -0.476 134 103 74
-0.0414857 -0.37421 -0.44 188 148 112
-0.0395381 -0.371658 -0.437 189 149 113
-0.00798 -0.37506 -0.441 178 133 102
-0.00714 -0.37506 -0.441 177 132 101
0.0298629 -0.398023 -0.468 122 92 82
0.398014 -0.472014 -0.555 201 199 204
0.415676 -0.472865 -0.556 207 209 208
0.431277 -0.473715 -0.557 193 192 190
0.439491 -0.474566 -0.558 185 185 187
0.443473 -0.475416 -0.559 179 180 182
0.445603 -0.475416 -0.559 183 172 180
0.461333 -0.476267 -0.56 144 133 137
0.470239 -0.478818 -0.563 118 116 119
0.475979 -0.48137 -0.566 110 108 109
0.508187 -0.452453 -0.532 117 95 82
0.504459 -0.44735 -0.526 119 96 82
0.504611 -0.396322 -0.466 171 124 94
-0.0594714 -0.462843 -0.543 183 147 111
-0.0448 -0.381867 -0.448 190 147 113
-0.0293467 -0.369933 -0.434 192 150 112
-0.0170638 -0.37249 -0.437 190 146 111
-0.00546 -0.3759 -0.441 176 131 102
-0.00126571 -0.377605 -0.443 175 130 99
0.00467238 -0.380162 -0.446 169 123 97
0.00638571 -0.381014 -0.447 168 122 98
0.0387762 -0.40829 -0.479 111 86 81
0.0595086 -0.43301 -0.508 101 77 75
0.0706914 -0.455171 -0.534 164 163 168
0.073679 -0.461138 -0.541 139 148 163
0.381469 -0.472219 -0.554 207 205 206
0.3959 -0.473071 -0.555 197 201 204
0.40085 -0.473924 -0.556 207 203 202
0.430989 -0.475629 -0.558 180 174 178
0.433114 -0.475629 -0.558 183 177 181
0.448533 -0.477333 -0.56 152 148 147
0.468094 -0.47989 -0.563 91 91 93
0.505418 -0.449205 -0.527 120 94 81
0.500686 -0.443238 -0.52 126 100 83
0.496877 -0.437271 -0.513 128 103 83
0.48997 -0.425338 -0.499 140 107 92
0.487449 -0.406586 -0.477 172 128 99
0.488357 -0.406586 -0.477 171 127 98
0.489024 -0.404881 -0.475 171 128 96
0.515703 -0.395505 -0.464 163 118 87
0.516587 -0.395505 -0.464 161 118 86
0.518354 -0.395505 -0.464 165 120 89
0.53466 -0.399767 -0.469 146 107 78
-0.0412029 -0.373323 -0.437 189 150 111
-0.0104524 -0.375031 -0.439 179 134 103
0.00553429 -0.381866 -0.447 167 121 95
0.0722457 -0.459606 -0.538 164 164 172
0.35234 -0.47242 -0.553 182 185 178
0.359713 -0.47242 -0.553 196 197 201
0.416424 -0.475837 -0.557 190 186 187
0.428863 -0.476691 -0.558 168 167 165
0.4432 -0.4784 -0.56 131 129 132
0.47358 -0.48438 -0.567 68 66 71
0.53298 -0.48438 -0.567 17 15 20
0.487668 -0.409203 -0.479 164 123 95
0.487449 -0.407494 -0.477 169 128 98
0.489024 -0.405786 -0.475 171 128 96
0.492229 -0.403223 -0.472 176 133 99
0.496247 -0.40066 -0.469 176 132 97
0.499468 -0.398951 -0.467 174 128 92
0.504611 -0.398097 -0.466 168 122 89
0.511284 -0.396389 -0.464 168 121 91
0.52189 -0.396389 -0.464 155 112 80
0.524786 -0.397243 -0.465 155 111 82
0.528577 -0.398097 -0.466 153 110 78
0.530601 -0.398951 -0.467 153 109 80
0.545527 -0.404077 -0.473 139 102 73
-0.0576838 -0.458918 -0.536 183 147 111
-0.00210476 -0.378436 -0.442 174 129 100
0.00382286 -0.381861 -0.446 169 123 97
0.0288476 -0.398985 -0.466 125 93 82
0.03672 -0.407547 -0.476 108 85 79
0.0662467 -0.447788 -0.523 93 77 78
0.357198 -0.47433 -0.554 207 208 210
0.446129 -0.480323 -0.561 86 84 87
0.449334 -0.480323 -0.561 77 75 78
0.480774 -0.490597 -0.573 62 60 65
0.4988 -0.441794 -0.516 124 102 81
0.495914 -0.436657 -0.51 125 103 82
0.488825 -0.422958 -0.494 146 109 91
0.4898 -0.405834 -0.474 174 131 99
0.490569 -0.404978 -0.473 174 131 97
0.509729 -0.398129 -0.465 174 128 95
0.511946 -0.396416 -0.463 166 120 86
0.539381 -0.40241 -0.47 143 103 77
-0.0590333 -0.462513 -0.539 183 147 111
-0.0367019 -0.371555 -0.433 191 148 113
-0.0219067 -0.372413 -0.434 187 143 108
-0.0129314 -0.375846 -0.438 180 135 102
-0.0112886 -0.376704 -0.439 180 133 103
-0.00712381 -0.377562 -0.44 175 128 100
-0.00628571 -0.377562 -0.44 175 128 100
0.0133152 -0.387001 -0.451 151 109 87
0.0159629 -0.388717 -0.453 150 109 89
0.0222943 -0.393866 -0.459 132 99 84
0.368414 -0.476243 -0.555 206 206 206
0.401229 -0.478817 -0.558 180 178 181
0.408669 -0.478817 -0.558 162 160 161
0.450936 -0.483108 -0.563 62 60 65
0.454417 -0.48225 -0.562 62 60 65
0.488014 -0.496837 -0.579 59 57 62
0.487535 -0.41875 -0.488 148 110 91
0.487389 -0.417034 -0.486 155 114 94
0.487968 -0.413602 -0.482 162 120 98
0.487871 -0.412744 -0.481 161 119 94
0.490569 -0.405879 -0.473 175 132 100
0.503529 -0.399014 -0.465 169 123 89
0.507957 -0.399014 -0.465 174 128 95
0.514591 -0.397298 -0.463 167 121 87
0.516355 -0.397298 -0.463 167 121 87
0.534159 -0.40073 -0.467 146 106 80
0.536194 -0.401589 -0.468 145 105 79
0.541171 -0.403305 -0.47 146 106 81
-0.0203 -0.3741 -0.435 183 138 105
-0.0137343 -0.37582 -0.437 180 134 101
-0.00544762 -0.3784 -0.44 174 127 99
0.00296667 -0.3827 -0.445 169 124 95
0.0337143 -0.40592 -0.472 111 86 79
0.0621695 -0.44204 -0.514 94 76 76
0.0678857 -0.45408 -0.528 121 115 119
0.0840429 -0.4773 -0.555 132 147 168
0.325417 -0.47472 -0.552 202 197 201
0.34559 -0.47644 -0.554 204 204 212
0.365243 -0.4773 -0.555 202 200 201
0.381787 -0.47816 -0.556 186 181 185
0.409067 -0.4816 -0.56 123 122 127
0.4112 -0.4816 -0.56 116 114 115
0.413333 -0.4816 -0.56 108 106 107
0.431467 -0.4816 -0.56 71 66 72
0.44343 -0.48418 -0.563 62 61 66
0.450663 -0.48504 -0.564 60 57 64
0.49294 -0.43258 -0.503 136 104 91
0.486955 -0.41366 -0.481 161 119 94
0.542962 -0.4042 -0.47 139 102 76
0.5427 -0.40334 -0.469 141 104 78
-0.0227333 -0.374067 -0.434 186 142 107
-0.0112629 -0.377514 -0.438 178 132 99
0.0115714 -0.387857 -0.45 156 113 94
0.0288476 -0.401648 -0.466 118 91 82
0.0377057 -0.411129 -0.477 108 85 79
0.0513857 -0.426643 -0.495 103 82 77
0.0635171 -0.445605 -0.517 89 73 73
0.0840429 -0.478357 -0.555 127 144 164
0.331273 -0.476633 -0.553 204 202 207
0.34137 -0.477495 -0.554 203 202 207
0.372925 -0.480081 -0.557 180 175 179
0.376783 -0.480943 -0.558 178 173 177
0.41588 -0.48439 -0.562 75 75 77
0.43729 -0.48439 -0.562 61 60 65
0.440212 -0.485252 -0.563 61 60 65
0.457919 -0.486976 -0.565 59 58 63
0.502641 -0.449052 -0.521 119 96 80
0.486955 -0.414576 -0.481 161 121 95
0.49608 -0.403371 -0.468 177 132 99
0.499286 -0.401648 -0.466 175 129 96
0.501061 -0.401648 -0.466 171 125 91
0.507957 -0.400786 -0.465 176 130 96
0.5126 -0.3982 -0.462 169 123 89
0.51524 -0.3982 -0.462 168 122 88
0.51612 -0.3982 -0.462 166 121 88
0.527192 -0.399924 -0.464 151 113 77
0.5301 -0.400786 -0.465 152 109 75
0.536828 -0.40251 -0.467 147 103 76
-0.0622286 -0.466457 -0.54 182 144 108
-0.00460952 -0.380076 -0.44 175 128 100
-0.00378 -0.38094 -0.441 174 127 99
0.00296667 -0.384395 -0.445 167 121 95
0.0222943 -0.396489 -0.459 134 98 84
0.0279 -0.401671 -0.465 119 92 85
0.0307543 -0.404263 -0.468 115 86 80
0.0377057 -0.412037 -0.477 110 85 81
0.0678857 -0.456091 -0.528 146 141 147
0.0849467 -0.47855 -0.554 93 111 133
0.314903 -0.476823 -0.552 205 206 208
0.34472 -0.480278 -0.556 200 198 201
0.347897 -0.480278 -0.556 196 194 197
0.352767 -0.481142 -0.557 191 187 188
0.373199 -0.48287 -0.559 162 157 161
0.378133 -0.483733 -0.56 148 146 151
0.380267 -0.483733 -0.56 137 135 140
0.384533 -0.483733 -0.56 125 123 128
0.39447 -0.485461 -0.562 96 94 99
0.413063 -0.487189 -0.564 57 56 61
0.427344 -0.486325 -0.563 59 58 64
0.433778 -0.486325 -0.563 58 57 63
0.437771 -0.487189 -0.564 57 56 62
0.44982 -0.48978 -0.567 55 56 61
0.489713 -0.425858 -0.493 146 111 89
0.488662 -0.42413 -0.491 144 109 87
0.509516 -0.400808 -0.464 174 128 94
0.5126 -0.39908 -0.462 172 123 90
-0.0357943 -0.373989 -0.432 192 150 112
-0.0112629 -0.379183 -0.438 178 131 101
-0.00794381 -0.380049 -0.439 175 128 98
-0.00378 -0.38178 -0.441 173 126 98
0.0106905 -0.388706 -0.449 157 117 92
0.0386952 -0.413811 -0.478 111 86 81
0.0396886 -0.414677 -0.479 111 86 79
0.309646 -0.477874 -0.552 202 206 209
0.355526 -0.483069 -0.558 182 172 183
0.372397 -0.485666 -0.561 131 129 134
0.40301 -0.491726 -0.568 60 57 64
0.435319 -0.489129 -0.565 57 56 62
0.439624 -0.489129 -0.565 53 52 58
0.44845 -0.491726 -0.568 54 54 62
0.456543 -0.493457 -0.57 43 42 50
0.491871 -0.431991 -0.499 136 105 87
0.488662 -0.425066 -0.491 145 110 88
0.48731 -0.419871 -0.485 155 118 92
0.487227 -0.419006 -0.484 157 120 94
0.486755 -0.414677 -0.479 157 120 93
-0.0434 -0.376547 -0.434 188 149 116
-0.0267429 -0.374811 -0.432 186 144 106
-0.0129019 -0.37915 -0.437 182 136 103
0.00723714 -0.387826 -0.447 165 119 93
0.0168629 -0.393899 -0.454 139 101 90
0.029799 -0.405178 -0.467 116 88 77
0.031781 -0.407781 -0.47 115 86 78
0.0327457 -0.408649 -0.471 115 86 78
0.0622905 -0.446824 -0.515 93 74 76
0.306491 -0.478926 -0.552 209 210 212
0.315473 -0.479793 -0.553 210 204 208
0.320265 -0.480661 -0.554 201 196 202
0.365986 -0.486734 -0.561 111 110 116
0.377611 -0.489337 -0.564 83 81 86
0.407649 -0.497146 -0.573 57 54 61
0.415289 -0.497146 -0.573 56 53 60
0.424311 -0.493675 -0.569 54 53 59
0.42573 -0.492808 -0.568 56 55 61
0.454081 -0.49541 -0.571 22 21 29
0.455169 -0.49541 -0.571 23 22 30
0.489713 -0.427736 -0.493 143 111 90
0.488465 -0.423398 -0.488 148 114 89
0.489668 -0.410384 -0.473 170 129 97
0.493567 -0.406913 -0.469 175 132 98
0.499286 -0.40431 -0.466 171 128 94
0.507749 -0.402575 -0.464 169 123 89
-0.0299648 -0.374765 -0.431 187 143 106
-0.0218562 -0.376504 -0.433 190 144 110
-0.0161571 -0.378243 -0.435 183 138 105
-0.0153286 -0.378243 -0.435 183 138 105
0.0204562 -0.397372 -0.457 136 100 86
0.0346867 -0.411285 -0.473 114 87 76
0.05712 -0.43824 -0.504 95 78 70
0.27919 -0.478238 -0.55 205 206 210
0.285476 -0.478238 -0.55 206 210 211
0.291243 -0.479108 -0.551 209 210 212
0.313933 -0.481716 -0.554 200 198 201
0.322957 -0.482586 -0.555 191 186 192
0.328834 -0.483455 -0.556 186 181 187
0.332609 -0.484325 -0.557 177 174 181
0.361062 -0.491281 -0.565 106 105 110
0.375962 -0.49389 -0.568 73 72 80
0.416329 -0.503454 -0.579 63 62 70
0.49392 -0.43824 -0.504 129 104 82
0.491871 -0.433892 -0.499 133 105 84
0.488534 -0.425197 -0.489 144 112 89
0.49751 -0.405198 -0.466 175 131 96
0.500871 -0.404329 -0.465 172 127 94
0.502643 -0.404329 -0.465 174 129 96
0.506654 -0.40259 -0.463 167 121 88
-0.0441248 -0.377329 -0.433 188 148 113
-0.0323524 -0.374714 -0.43 188 146 106
0.00211429 -0.386914 -0.444 164 118 92
0.0046619 -0.387786 -0.445 163 117 93
0.0195429 -0.397371 -0.456 136 100 88
0.0213733 -0.399114 -0.458 134 98 86
0.023219 -0.400857 -0.46 132 96 82
0.0269562 -0.404343 -0.464 119 89 79
0.050239 -0.429614 -0.493 105 82 76
0.291243 -0.480157 -0.551 207 207 209
0.297029 -0.481029 -0.552 204 204 206
0.318244 -0.484514 -0.556 180 178 181
0.332143 -0.486257 -0.558 150 148 153
0.333803 -0.487129 -0.559 147 146 151
0.341409 -0.488871 -0.561 122 121 127
0.344158 -0.489743 -0.562 116 115 121
0.428821 -0.503686 -0.578 44 43 51
0.4346 -0.5002 -0.574 20 18 29
0.506422 -0.459243 -0.527 115 93 79
0.490804 -0.432229 -0.496 134 106 84
0.488314 -0.423514 -0.486 150 114 90
0.48756 -0.416543 -0.478 157 120 94
0.488119 -0.413929 -0.475 164 123 95
0.49751 -0.406086 -0.466 176 132 97
0.499986 -0.405214 -0.465 169 124 91
0.51084 -0.4026 -0.462 170 124 91
0.52756 -0.4026 -0.462 150 111 78
0.52932 -0.4026 -0.462 144 108 74
-0.0331714 -0.375533 -0.43 188 146 106
-0.0218057 -0.37728 -0.432 188 142 108
-0.0137029 -0.380773 -0.436 179 135 100
-0.00709143 -0.38252 -0.438 172 127 96
0.00981333 -0.391253 -0.448 150 112 91
0.0204562 -0.399113 -0.457 134 98 86
0.02508 -0.40348 -0.462 122 92 82
0.0337143 -0.412213 -0.472 114 87 78
0.0406857 -0.4192 -0.48 113 86 77
0.04278 -0.42182 -0.483 111 84 77
0.0437905 -0.422693 -0.484 111 84 77
0.0448048 -0.423567 -0.485 110 83 76
0.046941 -0.426187 -0.488 107 82 75
0.0610714 -0.44802 -0.513 89 74 71
0.271857 -0.480333 -0.55 203 203 203
0.336066 -0.48994 -0.561 106 105 110
0.35478 -0.49518 -0.567 72 69 76
0.361 -0.4978 -0.57 69 67 72
0.384346 -0.50566 -0.579 64 63 69
0.392989 -0.50828 -0.582 63 62 68
0.432475 -0.503913 -0.577 11 11 21
0.507383 -0.46112 -0.528 115 93 79
0.490804 -0.433173 -0.496 134 106 84
0.489391 -0.41134 -0.471 171 128 94
0.493406 -0.40872 -0.468 174 131 99
0.50333 -0.405227 -0.464 175 131 96
0.506654 -0.404353 -0.463 169 125 90
0.520895 -0.401733 -0.46 160 117 82
0.5302 -0.40348 -0.462 146 107 76
-0.325115 -0.473504 -0.541 225 226 218
-0.0389048 -0.376352 -0.43 193 151 113
-0.0307143 -0.376352 -0.43 189 145 108
-0.026619 -0.376352 -0.43 186 142 105
-0.00709143 -0.383354 -0.438 172 127 94
0.00637143 -0.390356 -0.446 158 114 89
0.0124286 -0.393857 -0.45 142 104 85
0.0260162 -0.405235 -0.463 121 91 81
0.0491 -0.429742 -0.491 104 81 75
0.248357 -0.480506 -0.549 199 198 194
0.25986 -0.480506 -0.549 201 201 199
0.263476 -0.481381 -0.55 204 204 204
0.27081 -0.481381 -0.55 200 200 200
0.278103 -0.483131 -0.552 196 196 198
0.279154 -0.483131 -0.552 193 193 195
0.313011 -0.488383 -0.558 138 136 141
0.33083 -0.492759 -0.563 88 87 92
0.351845 -0.499761 -0.571 67 66 72
0.35355 -0.500636 -0.572 67 66 72
0.434724 -0.507638 -0.58 9 9 19
0.49786 -0.447247 -0.511 124 99 79
0.487866 -0.413988 -0.473 165 124 94
0.489391 -0.412237 -0.471 171 128 96
0.51301 -0.40261 -0.46 170 125 92
0.53108 -0.40436 -0.462 146 105 75
-0.0502067 -0.388574 -0.443 184 146 110
-0.0322771 -0.376294 -0.429 192 148 111
-0.0290762 -0.377171 -0.43 187 141 105
-0.01612 -0.38068 -0.434 181 137 98
0.00550952 -0.390329 -0.445 159 115 90
0.00808857 -0.392083 -0.447 157 113 88
0.0307543 -0.410503 -0.468 115 86 78
0.0638857 -0.456114 -0.52 96 82 82
0.242083 -0.481551 -0.549 198 202 205
0.244174 -0.481551 -0.549 199 201 200
0.249403 -0.481551 -0.549 203 201 202
0.260333 -0.482429 -0.55 202 202 204
0.287552 -0.485937 -0.554 172 172 174
0.30024 -0.487691 -0.556 142 137 141
0.351024 -0.504357 -0.575 65 64 72
0.357259 -0.506989 -0.578 66 65 73
0.43377 -0.537689 -0.613 13 12 20
0.500751 -0.453483 -0.517 115 94 75
0.495894 -0.444711 -0.507 127 97 86
0.493898 -0.441203 -0.503 127 98 80
0.490707 -0.433309 -0.494 140 108 87
0.48858 -0.420151 -0.479 154 117 91
0.496799 -0.409626 -0.467 172 127 96
0.523524 -0.403486 -0.46 161 116 83
0.53284 -0.40524 -0.462 145 106 75
-0.043 -0.37799 -0.43 188 148 112
-0.026619 -0.37799 -0.43 189 143 107
-0.0217552 -0.37887 -0.431 186 140 106
-0.0177324 -0.380628 -0.433 182 136 102
0.00380571 -0.390297 -0.444 158 114 89
0.029799 -0.410515 -0.467 115 88 79
0.0480667 -0.430733 -0.49 101 81 74
0.228489 -0.482597 -0.549 200 200 202
0.250905 -0.483476 -0.55 198 196 199
0.254048 -0.483476 -0.55 197 197 195
0.259757 -0.484355 -0.551 191 189 190
0.262906 -0.484355 -0.551 188 185 192
0.295475 -0.48963 -0.557 119 117 120
0.331604 -0.499299 -0.568 64 61 68
0.444407 -0.547647 -0.623 9 9 19
0.449405 -0.549405 -0.625 10 10 20
0.458009 -0.551163 -0.627 10 10 20
0.499795 -0.45271 -0.515 117 95 74
0.49786 -0.449193 -0.511 123 95 81
0.490887 -0.412273 -0.469 167 123 94
0.496799 -0.410515 -0.467 170 127 95
0.50556 -0.40612 -0.462 175 131 96
0.510381 -0.404362 -0.46 164 119 86
0.53372 -0.40612 -0.462 146 107 76
-0.00292667 -0.386738 -0.439 167 123 96
0.00807048 -0.392905 -0.446 152 110 88
0.00981333 -0.394667 -0.448 148 107 89
0.0548714 -0.441357 -0.501 93 75 71
0.235809 -0.483643 -0.549 196 202 200
0.25241 -0.485405 -0.551 187 188 190
0.25451 -0.485405 -0.551 187 187 187
0.278 -0.48981 -0.556 143 142 147
0.31374 -0.4995 -0.567 65 64 70
0.31482 -0.4995 -0.567 62 61 67
0.317539 -0.500381 -0.568 62 61 67
0.320829 -0.502143 -0.57 59 58 64
0.392386 -0.532976 -0.605 26 26 34
0.455642 -0.556762 -0.632 12 12 22
0.498831 -0.451929 -0.513 120 94 77
0.487449 -0.420214 -0.477 155 118 92
0.495735 -0.410524 -0.466 170 127 95
0.539 -0.407 -0.462 141 105 73
-0.0429 -0.378746 -0.429 189 146 111
-0.0281257 -0.377863 -0.428 187 143 104
-0.0217552 -0.380511 -0.431 186 140 104
0.00210476 -0.390223 -0.442 159 115 90
0.0159629 -0.399934 -0.453 137 101 85
0.0213733 -0.404349 -0.458 124 94 83
0.0269562 -0.409646 -0.464 120 92 80
0.0287857 -0.410529 -0.465 117 91 78
0.0317133 -0.41406 -0.469 113 89 77
0.0336429 -0.415826 -0.471 112 88 78
0.0386143 -0.421123 -0.477 111 87 77
0.0480667 -0.4326 -0.49 100 81 75
0.0537019 -0.440546 -0.499 93 75 71
0.217634 -0.483806 -0.548 199 200 204
0.227857 -0.485571 -0.55 201 196 200
0.228905 -0.485571 -0.55 200 195 199
0.237286 -0.485571 -0.55 196 195 201
0.244014 -0.486454 -0.551 188 187 192
0.248212 -0.486454 -0.551 189 188 194
0.25392 -0.487337 -0.552 175 179 180
0.266448 -0.489103 -0.554 147 142 146
0.324206 -0.508526 -0.576 59 58 66
0.39991 -0.541191 -0.613 11 11 21
0.408395 -0.544723 -0.617 11 9 22
0.416286 -0.547371 -0.62 8 8 16
0.41814 -0.548254 -0.621 9 9 17
0.436011 -0.554434 -0.628 8 8 16
0.460689 -0.564146 -0.639 7 10 17
0.492822 -0.440546 -0.499 132 101 83
0.491462 -0.412294 -0.467 171 128 96
0.509271 -0.405231 -0.459 169 125 88
0.53724 -0.40788 -0.462 147 106 76
0.538711 -0.406997 -0.461 141 104 75
0.00720476 -0.393719 -0.445 152 111 91
0.00981333 -0.396373 -0.448 147 106 88
0.0287857 -0.411414 -0.465 117 90 79
0.0336429 -0.416723 -0.471 111 86 79
0.0586562 -0.450344 -0.509 87 69 67
0.213459 -0.48485 -0.548 205 205 207
0.214894 -0.485734 -0.549 207 205 206
0.244457 -0.488389 -0.552 176 171 175
0.248663 -0.488389 -0.552 168 166 169
0.250167 -0.489273 -0.553 166 164 167
0.278933 -0.495467 -0.56 81 80 86
0.404476 -0.548552 -0.62 12 12 22
0.412367 -0.551207 -0.623 11 12 17
0.413553 -0.551207 -0.623 8 11 16
0.421507 -0.553861 -0.626 9 9 17
0.436381 -0.55917 -0.632 10 11 15
0.451967 -0.563593 -0.637 11 11 19
0.457752 -0.566248 -0.64 12 13 18
0.500766 -0.456537 -0.516 121 91 80
0.493843 -0.443266 -0.501 127 98 80
0.487994 -0.419377 -0.474 160 119 91
0.488632 -0.417608 -0.472 166 122 93
0.490731 -0.414069 -0.468 170 127 95
0.49751 -0.412299 -0.466 171 128 94
0.503127 -0.409645 -0.463 174 129 96
0.50556 -0.40876 -0.462 166 122 87
0.506222 -0.407875 -0.461 167 123 88
0.509907 -0.405221 -0.458 168 124 85
0.514887 -0.404336 -0.457 169 125 90
0.523865 -0.405221 -0.458 158 115 81
-0.0656057 -0.47348 -0.534 183 147 111
-0.0617857 -0.46018 -0.519 186 148 111
-0.0419848 -0.379493 -0.428 191 152 111
-0.0321267 -0.378607 -0.427 187 145 105
-0.0225238 -0.381267 -0.43 183 139 102
-0.0128429 -0.3857 -0.435 176 132 97
0.0336429 -0.41762 -0.471 111 86 79
0.0376267 -0.422053 -0.476 110 87 81
0.225123 -0.488553 -0.551 187 185 188
0.228686 -0.48944 -0.552 185 183 188
0.268371 -0.49476 -0.558 78 77 83
0.291573 -0.503627 -0.568 68 67 75
0.41448 -0.556827 -0.628 8 11 18
0.425547 -0.560373 -0.632 10 10 18
0.47088 -0.57456 -0.648 12 12 20
0.48026 -0.575447 -0.649 10 13 22
0.503633 -0.461953 -0.521 118 92 79
0.489319 -0.431807 -0.487 144 108 86
0.487771 -0.4256 -0.48 151 114 88
0.487733 -0.418507 -0.472 162 121 93
0.494671 -0.4123 -0.465 172 129 95
0.5071 -0.408753 -0.461 169 125 88
0.522992 -0.406093 -0.458 157 114 80
-0.0410733 -0.37942 -0.427 193 151 111
-0.04026 -0.37942 -0.427 192 150 110
-0.03692 -0.378531 -0.426 188 146 106
-0.0288733 -0.37942 -0.427 187 143 108
-0.0192924 -0.382974 -0.431 181 137 102
-0.00872 -0.387417 -0.436 172 128 99
-0.00788952 -0.387417 -0.436 171 127 98
0.00892 -0.396303 -0.446 148 107 87
0.0132857 -0.399857 -0.45 141 103 84
0.0396057 -0.424737 -0.478 106 86 77
0.0587714 -0.453171 -0.51 84 68 68
0.189106 -0.486049 -0.547 188 188 190
0.199525 -0.486049 -0.547 197 197 199
0.201609 -0.486049 -0.547 195 195 197
0.237956 -0.492269 -0.554 138 135 142
0.241122 -0.492269 -0.554 127 124 131
0.248347 -0.494046 -0.556 104 103 109
0.261867 -0.4976 -0.56 73 70 79
0.26554 -0.498489 -0.561 72 71 79
0.267677 -0.498489 -0.561 70 69 77
0.27761 -0.502931 -0.566 67 66 74
0.392323 -0.557134 -0.627 11 11 21
0.406929 -0.562466 -0.633 10 10 20
0.425148 -0.564243 -0.635 7 10 17
0.506463 -0.467389 -0.526 112 92 83
0.49488 -0.44784 -0.504 124 99 79
0.492783 -0.442509 -0.498 131 104 85
0.490532 -0.436289 -0.491 135 104 83
0.48907 -0.430069 -0.484 144 109 87
0.48898 -0.42918 -0.483 148 111 85
0.487449 -0.423849 -0.477 152 115 88
0.492351 -0.414963 -0.467 170 125 94
0.49396 -0.414074 -0.466 170 125 94
0.496443 -0.413186 -0.465 176 131 100
0.50204 -0.41052 -0.462 173 128 95
0.504466 -0.409631 -0.461 159 115 80
0.506222 -0.409631 -0.461 171 127 92
0.509271 -0.407854 -0.459 167 122 83
0.509664 -0.406077 -0.457 170 124 88
0.522721 -0.406077 -0.457 157 114 80
0.534914 -0.408743 -0.46 149 108 78
-0.326803 -0.478186 -0.537 225 226 218
-0.31862 -0.478186 -0.537 224 225 217
-0.03124 -0.379343 -0.426 183 139 102
-0.0288733 -0.380233 -0.427 188 144 107
-0.0241057 -0.382014 -0.429 185 141 106
-0.0152581 -0.385576 -0.433 177 132 99
-0.0119867 -0.386467 -0.434 173 128 95
-0.00624286 -0.389138 -0.437 167 123 96
-0.00376286 -0.390919 -0.439 164 120 95
-0.00125714 -0.39181 -0.44 160 120 95
0.0159276 -0.402495 -0.452 138 102 86
0.0177276 -0.404276 -0.454 131 98 83
0.0426914 -0.42921 -0.482 107 84 78
0.0480667 -0.436333 -0.49 96 78 74
0.0600943 -0.456814 -0.513 80 69 73
0.1742 -0.4862 -0.546 184 185 187
0.17628 -0.4862 -0.546 185 187 186
0.189451 -0.487981 -0.548 182 182 184
0.214628 -0.490652 -0.551 171 169 172
0.225293 -0.493324 -0.554 143 142 148
0.235638 -0.495105 -0.556 113 110 117
0.260661 -0.500448 -0.562 68 67 73
0.268034 -0.502229 -0.564 70 69 77
0.270662 -0.503119 -0.565 67 66 74
0.418549 -0.566343 -0.636 9 12 19
0.420971 -0.566343 -0.636 8 11 18
0.432152 -0.569905 -0.64 9 9 17
0.43527 -0.570795 -0.641 9 9 17
0.506463 -0.46839 -0.526 109 90 83
0.489157 -0.431881 -0.485 139 107 82
0.509907 -0.407838 -0.458 170 124 90
0.512023 -0.406057 -0.456 171 127 92
0.51984 -0.406057 -0.456 160 115 82
0.525332 -0.406948 -0.457 154 111 79
-0.0509571 -0.388186 -0.435 185 147 111
-0.0443267 -0.381047 -0.427 189 149 113
-0.0393543 -0.380154 -0.426 187 148 109
-0.03692 -0.380154 -0.426 189 146 111
-0.0241057 -0.382831 -0.429 184 138 104
-0.0160457 -0.385509 -0.432 177 132 101
-0.0152229 -0.385509 -0.432 178 133 102
-0.00209048 -0.391755 -0.439 163 118 95
0.00126 -0.39354 -0.441 161 116 95
0.0195 -0.406033 -0.455 128 99 85
0.0269562 -0.414065 -0.464 114 90 80
0.0307543 -0.417634 -0.468 114 90 80
0.06726 -0.473854 -0.531 137 149 165
0.174519 -0.488132 -0.547 180 180 182
0.197476 -0.49081 -0.55 159 157 162
0.21043 -0.491702 -0.551 151 151 153
0.217513 -0.493487 -0.553 135 133 138
0.229696 -0.497056 -0.557 97 96 102
0.240737 -0.497949 -0.558 75 72 81
0.273662 -0.507765 -0.569 64 63 71
0.310659 -0.52829 -0.592 35 35 45
0.316164 -0.531859 -0.596 26 25 33
0.33582 -0.54346 -0.609 13 13 21
0.392513 -0.568447 -0.637 8 9 14
0.40963 -0.572016 -0.641 8 11 18
0.417524 -0.571124 -0.64 10 10 18
0.4224 -0.571124 -0.64 11 12 17
0.429165 -0.572016 -0.641 9 10 15
0.503633 -0.464931 -0.521 116 93 77
0.499809 -0.457791 -0.513 119 97 76
0.49588 -0.451545 -0.506 120 97 79
0.491462 -0.416742 -0.467 167 122 93
0.50271 -0.411388 -0.461 171 127 92
0.507752 -0.410495 -0.46 173 127 91
0.539871 -0.409603 -0.459 134 96 73
-0.32109 -0.479337 -0.536 225 226 218
-0.0459533 -0.38186 -0.427 192 152 117
-0.03124 -0.380966 -0.426 188 145 110
-0.0168295 -0.385437 -0.431 178 132 99
-0.0119867 -0.38812 -0.434 170 125 96
0.0168257 -0.405111 -0.453 136 99 81
0.0213267 -0.408689 -0.457 126 93 84
0.0396057 -0.427469 -0.478 109 86 78
0.0426914 -0.431046 -0.482 108 85 77
0.0437 -0.43194 -0.483 105 85 76
0.15444 -0.48828 -0.546 178 179 181
0.163058 -0.489174 -0.547 179 179 179
0.179013 -0.490069 -0.548 171 169 170
0.185614 -0.490963 -0.549 161 159 164
0.197835 -0.492751 -0.551 126 123 130
0.204132 -0.492751 -0.551 138 138 140
0.224391 -0.498117 -0.557 75 74 80
0.236267 -0.5008 -0.56 69 66 75
0.237757 -0.501694 -0.561 68 65 74
0.248256 -0.503483 -0.563 67 66 74
0.249771 -0.504377 -0.564 66 65 73
0.25129 -0.505271 -0.565 64 63 71
0.26128 -0.507954 -0.568 64 63 71
0.263908 -0.508849 -0.569 62 61 69
0.270747 -0.511531 -0.572 65 65 73
0.320493 -0.53836 -0.602 15 14 22
0.368968 -0.565189 -0.632 9 9 17
0.414 -0.57592 -0.644 10 10 18
0.424943 -0.574131 -0.642 9 10 15
0.4343 -0.576814 -0.645 9 9 17
0.448663 -0.579497 -0.648 8 9 14
0.505535 -0.468606 -0.524 108 91 84
