ply
format ascii 1.0
comment Created by Open3D
element vertex 1285
property double x
property double y
property double z
property uchar red
property uchar green
property uchar blue
end_header
0.475198 -0.352021 -0.634 119 123 148
0.426926 -0.293166 -0.528 136 92 83
0.440203 -0.284837 -0.513 161 106 85
0.459486 -0.286503 -0.516 142 95 79
0.4698 -0.289834 -0.522 140 93 77
-0.07826 -0.3549 -0.637 186 184 187
-0.0199886 -0.354343 -0.636 218 216 217
0.00302857 -0.354343 -0.636 234 233 238
0.0235857 -0.353786 -0.635 191 163 151
0.0334057 -0.247371 -0.444 202 163 148
0.0409248 -0.246814 -0.443 193 151 139
0.0654333 -0.2535 -0.455 123 91 104
0.180824 -0.353786 -0.635 171 189 229
0.213481 -0.353786 -0.635 159 176 219
0.260669 -0.355457 -0.638 246 252 252
0.3195 -0.356014 -0.639 154 172 210
0.320717 -0.356014 -0.639 174 187 221
0.327314 -0.356571 -0.64 225 229 255
0.334629 -0.356571 -0.64 123 133 160
0.373001 -0.357129 -0.641 177 188 220
0.40963 -0.357129 -0.641 182 187 207
0.413292 -0.357129 -0.641 189 192 211
0.433371 -0.356571 -0.64 83 104 157
0.439467 -0.356571 -0.64 28 58 122
0.451657 -0.356571 -0.64 41 73 134
0.465557 -0.356014 -0.639 167 172 191
0.472593 -0.3549 -0.637 102 113 145
0.47686 -0.352671 -0.633 160 163 182
0.443991 -0.312557 -0.561 110 82 81
0.429534 -0.289157 -0.519 161 106 86
0.430523 -0.289157 -0.519 159 104 84
0.432803 -0.288043 -0.517 162 106 89
0.473596 -0.291943 -0.524 142 95 79
0.479223 -0.294171 -0.528 144 98 83
-0.0272571 -0.355554 -0.636 213 211 212
-0.00666286 -0.355554 -0.636 227 225 226
-0.00181429 -0.354995 -0.635 231 231 233
0.0459876 -0.247658 -0.443 179 136 127
0.0468314 -0.247658 -0.443 175 132 123
0.0818286 -0.268343 -0.48 94 82 94
0.0972257 -0.286791 -0.513 97 95 119
0.193517 -0.353877 -0.633 205 215 240
0.213481 -0.354995 -0.635 184 202 238
0.260669 -0.356672 -0.638 247 253 251
0.263099 -0.356672 -0.638 250 254 253
0.269597 -0.357231 -0.639 252 255 253
0.277682 -0.356672 -0.638 221 229 250
0.284973 -0.356672 -0.638 235 242 252
0.308063 -0.356672 -0.638 191 201 236
0.330454 -0.357231 -0.639 173 178 208
0.341409 -0.357231 -0.639 209 219 246
0.35901 -0.35779 -0.64 199 205 231
0.377295 -0.35779 -0.64 99 129 189
0.379106 -0.35835 -0.641 104 134 194
0.402895 -0.35779 -0.64 189 195 219
0.404114 -0.35779 -0.64 187 193 217
0.435129 -0.357231 -0.639 50 81 145
0.462398 -0.356672 -0.638 157 155 166
0.432949 -0.288469 -0.516 165 109 92
0.452023 -0.286232 -0.512 151 99 85
0.500189 -0.303004 -0.542 149 106 90
-0.0114905 -0.356205 -0.635 224 222 225
0.0187181 -0.355644 -0.634 213 203 201
0.028459 -0.250185 -0.446 199 162 144
0.0426124 -0.248502 -0.443 186 146 134
0.0451438 -0.248502 -0.443 182 140 128
0.0476752 -0.248502 -0.443 175 132 125
0.068781 -0.258038 -0.46 113 87 98
0.0861571 -0.274306 -0.489 97 79 95
0.148633 -0.357327 -0.637 141 162 209
0.154457 -0.356766 -0.636 145 162 208
0.201957 -0.355083 -0.633 246 255 255
0.223509 -0.356766 -0.636 195 210 243
0.28938 -0.357327 -0.637 232 233 254
0.294233 -0.357327 -0.637 205 207 228
0.31657 -0.357888 -0.638 153 172 212
0.341409 -0.358449 -0.639 212 223 241
0.342626 -0.358449 -0.639 213 224 242
0.34506 -0.358449 -0.639 213 224 242
0.374857 -0.35901 -0.64 135 155 208
0.377295 -0.35901 -0.64 84 115 179
0.402895 -0.35901 -0.64 187 195 218
0.41021 -0.35901 -0.64 144 151 180
0.412003 -0.358449 -0.639 169 174 196
0.425391 -0.358449 -0.639 140 139 153
0.448517 -0.358449 -0.639 36 74 137
0.454603 -0.358449 -0.639 170 175 207
0.457537 -0.357888 -0.638 171 168 187
0.428125 -0.295622 -0.527 144 95 81
0.427046 -0.292817 -0.522 161 104 87
0.433931 -0.289451 -0.516 165 108 91
0.439103 -0.28833 -0.514 167 110 90
0.443246 -0.287208 -0.512 160 104 89
0.47841 -0.295061 -0.526 146 100 84
0.483153 -0.296744 -0.529 143 100 83
-0.0768048 -0.357414 -0.635 189 187 190
-0.0622905 -0.357414 -0.635 200 195 199
-0.0489857 -0.357414 -0.635 206 206 206
-0.0477762 -0.357414 -0.635 207 207 207
-0.03816 -0.357977 -0.636 210 208 209
0.00301905 -0.356851 -0.634 239 238 244
0.0358619 -0.249346 -0.443 196 157 140
0.0426124 -0.249346 -0.443 186 144 132
0.0721857 -0.261729 -0.465 105 83 95
0.0756476 -0.264543 -0.47 101 81 92
0.0768686 -0.265669 -0.472 100 80 91
0.0836048 -0.272986 -0.485 97 79 93
0.0911343 -0.281991 -0.501 103 82 99
0.0943429 -0.285931 -0.508 98 83 102
0.155669 -0.357977 -0.636 149 166 210
0.185989 -0.355726 -0.632 204 224 255
0.195619 -0.355726 -0.632 248 253 255
0.221086 -0.357977 -0.636 236 248 255
0.223509 -0.357977 -0.636 212 223 251
0.24168 -0.357977 -0.636 219 230 252
0.273607 -0.35854 -0.637 240 244 253
0.310731 -0.357977 -0.636 166 177 209
0.317287 -0.35854 -0.637 154 172 218
0.323861 -0.359103 -0.638 225 234 255
0.351811 -0.359103 -0.638 206 214 235
0.408351 -0.359666 -0.639 146 157 185
0.459247 -0.35854 -0.637 176 176 202
0.4641 -0.35854 -0.637 151 152 170
0.429693 -0.29156 -0.518 167 111 94
0.440203 -0.288746 -0.513 164 107 87
0.44227 -0.288183 -0.512 161 105 88
0.452113 -0.28762 -0.511 151 100 83
-0.0609848 -0.358059 -0.634 199 197 200
-0.053739 -0.358059 -0.634 202 200 201
-0.0393095 -0.358624 -0.635 211 209 210
-0.0235486 -0.358059 -0.634 217 216 214
0.00422 -0.357494 -0.633 243 240 247
0.00783714 -0.357494 -0.633 246 245 253
0.0341743 -0.25019 -0.443 196 157 140
0.0350181 -0.25019 -0.443 196 157 140
0.0585838 -0.253578 -0.449 140 103 110
0.0647086 -0.257531 -0.456 118 92 103
0.0881571 -0.279557 -0.495 101 80 95
0.107287 -0.304407 -0.539 189 204 247
0.109318 -0.30723 -0.544 167 186 229
0.151795 -0.358624 -0.635 188 201 254
0.183581 -0.35693 -0.632 191 203 241
0.194415 -0.35693 -0.632 245 251 255
0.334798 -0.360318 -0.638 209 215 237
0.341553 -0.359753 -0.637 210 217 236
0.348833 -0.359753 -0.637 208 214 236
0.356672 -0.360318 -0.638 210 212 237
0.390699 -0.360318 -0.638 183 189 223
0.44226 -0.359753 -0.637 37 71 143
0.458526 -0.359189 -0.636 173 175 196
0.4699 -0.358624 -0.635 167 169 190
0.435149 -0.306101 -0.542 127 90 82
0.437145 -0.290288 -0.514 166 109 89
0.473777 -0.294806 -0.522 142 96 80
0.50318 -0.306666 -0.543 144 107 91
-0.0669171 -0.3587 -0.633 198 193 199
-0.0440781 -0.359267 -0.634 211 209 210
-0.0404552 -0.359267 -0.634 212 210 211
-0.0368324 -0.359267 -0.634 214 212 213
-0.01266 -0.3587 -0.633 226 224 225
0.000602857 -0.3587 -0.633 240 237 244
0.00422 -0.3587 -0.633 244 241 248
0.0637 -0.257833 -0.455 118 92 105
0.0667371 -0.259533 -0.458 110 86 99
0.0983629 -0.2941 -0.519 126 126 154
0.178766 -0.358133 -0.632 181 195 230
0.22039 -0.359267 -0.634 243 250 255
0.221948 -0.359833 -0.635 234 240 252
0.224367 -0.359833 -0.635 236 242 255
0.236462 -0.359833 -0.635 254 254 254
0.259851 -0.3604 -0.636 245 249 248
0.261063 -0.3604 -0.636 247 251 250
0.271966 -0.3604 -0.636 249 254 255
0.284843 -0.359833 -0.635 245 249 255
0.288471 -0.359833 -0.635 245 248 255
0.2921 -0.359833 -0.635 240 247 253
0.331847 -0.360967 -0.637 214 219 248
0.387053 -0.361533 -0.638 74 104 176
0.411927 -0.360967 -0.637 149 156 185
0.430663 -0.3604 -0.636 95 118 170
0.440354 -0.3604 -0.636 49 88 157
0.484533 -0.358133 -0.632 98 107 146
0.431777 -0.3026 -0.534 136 96 86
0.428546 -0.2941 -0.519 170 113 93
0.434208 -0.291267 -0.514 172 115 95
0.436166 -0.291267 -0.514 168 111 91
0.452113 -0.289567 -0.511 157 105 84
0.477589 -0.296933 -0.524 143 97 81
0.490868 -0.302033 -0.533 145 102 86
-0.0669171 -0.359906 -0.633 199 194 200
-0.0319514 -0.359906 -0.633 215 215 215
-0.0235114 -0.359906 -0.633 220 219 217
0.0383067 -0.251309 -0.442 187 148 131
0.08142 -0.27462 -0.483 97 79 93
0.147933 -0.360474 -0.634 190 205 246
0.150349 -0.360474 -0.634 190 202 242
0.152523 -0.359906 -0.633 189 198 237
0.162425 -0.360474 -0.634 170 179 222
0.171543 -0.359337 -0.632 251 252 255
0.194108 -0.358769 -0.631 250 254 255
0.211603 -0.359906 -0.633 248 255 255
0.248557 -0.361043 -0.635 197 206 247
0.257024 -0.361043 -0.635 234 238 255
0.258233 -0.361043 -0.635 244 248 255
0.309033 -0.361043 -0.635 148 161 205
0.310243 -0.361043 -0.635 132 145 189
0.335487 -0.36218 -0.637 218 224 238
0.34344 -0.361611 -0.636 198 202 227
0.350709 -0.361611 -0.636 183 190 209
0.357977 -0.361611 -0.636 208 209 229
0.364034 -0.361611 -0.636 177 179 200
0.368247 -0.36218 -0.637 89 114 170
0.377953 -0.36218 -0.637 37 75 150
0.42824 -0.361611 -0.636 42 62 112
0.430663 -0.361611 -0.636 146 164 202
0.443989 -0.361611 -0.636 104 135 199
0.456595 -0.361043 -0.635 118 133 174
0.458291 -0.360474 -0.634 161 171 196
0.43779 -0.309303 -0.544 125 94 91
0.45406 -0.29054 -0.511 159 107 86
0.46727 -0.293951 -0.517 140 94 78
0.5004 -0.307029 -0.54 140 104 88
-0.0656076 -0.360541 -0.632 201 196 202
-0.00902857 -0.360541 -0.632 232 230 231
0.0469371 -0.253291 -0.444 169 127 115
0.0549171 -0.255003 -0.447 147 105 106
0.0567467 -0.255573 -0.448 141 102 105
0.0606971 -0.257855 -0.452 125 93 98
0.0828514 -0.277251 -0.486 99 79 91
0.0937429 -0.290943 -0.51 101 89 103
0.108282 -0.310339 -0.544 187 197 232
0.147933 -0.361682 -0.634 198 208 244
0.152523 -0.361111 -0.633 201 210 239
0.157346 -0.361111 -0.633 203 220 250
0.17395 -0.360541 -0.632 248 254 254
0.218837 -0.361111 -0.633 247 250 255
0.22366 -0.361111 -0.633 248 252 251
0.224866 -0.361111 -0.633 247 251 250
0.275941 -0.361682 -0.634 248 251 255
0.290432 -0.361682 -0.634 243 246 253
0.300093 -0.361682 -0.634 169 176 205
0.304924 -0.361682 -0.634 190 197 226
0.351367 -0.362252 -0.635 174 176 197
0.376149 -0.362823 -0.636 51 90 157
0.378571 -0.362823 -0.636 59 97 170
0.382206 -0.362823 -0.636 73 107 171
0.384629 -0.362823 -0.636 58 88 158
0.393109 -0.362823 -0.636 188 196 219
0.426357 -0.362252 -0.635 62 74 114
0.44571 -0.362252 -0.635 132 157 198
0.455386 -0.362252 -0.635 61 80 113
0.475198 -0.361682 -0.634 167 170 187
0.479271 -0.361111 -0.633 156 155 171
0.489776 -0.35997 -0.631 168 171 190
0.491818 -0.35883 -0.629 168 167 181
0.491449 -0.357689 -0.627 140 138 160
0.42886 -0.298359 -0.523 165 110 90
0.429693 -0.295507 -0.518 169 113 90
0.4453 -0.291513 -0.511 167 110 90
0.459746 -0.292654 -0.513 146 100 84
0.472952 -0.296648 -0.52 139 97 81
-0.0463467 -0.361745 -0.632 212 210 211
-0.0415314 -0.361745 -0.632 215 213 214
-0.0234371 -0.361172 -0.631 221 220 216
-0.0222352 -0.361172 -0.631 221 220 218
-0.0198314 -0.361172 -0.631 224 223 221
-0.00420667 -0.361172 -0.631 238 236 239
0.0193705 -0.270736 -0.473 198 162 146
0.0227143 -0.257571 -0.45 201 160 142
0.0357 -0.25242 -0.441 193 151 135
0.0459876 -0.253565 -0.443 170 126 117
0.0530952 -0.255282 -0.446 153 109 106
0.0658648 -0.26215 -0.458 109 85 98
0.0973743 -0.297066 -0.519 146 141 164
0.1477 -0.362317 -0.633 209 215 249
0.166728 -0.361745 -0.632 244 244 254
0.171271 -0.361172 -0.631 251 250 255
0.197713 -0.361172 -0.631 230 238 255
0.231259 -0.36289 -0.634 200 213 229
0.250581 -0.36289 -0.634 186 201 234
0.26628 -0.36289 -0.634 241 244 251
0.283946 -0.362317 -0.633 246 250 249
0.332014 -0.363462 -0.635 216 223 242
0.3429 -0.363462 -0.635 173 176 195
0.356766 -0.364034 -0.636 207 209 232
0.378571 -0.364034 -0.636 69 106 176
0.397329 -0.363462 -0.635 195 195 207
0.435347 -0.36289 -0.634 120 139 171
0.437762 -0.36289 -0.634 80 109 165
0.449838 -0.36289 -0.634 163 170 196
0.464803 -0.362317 -0.633 170 171 189
0.4853 -0.362317 -0.633 97 101 136
0.492232 -0.359455 -0.628 145 145 169
0.430132 -0.301645 -0.527 152 103 88
-0.0823305 -0.362374 -0.631 202 200 203
-0.0570905 -0.362374 -0.631 208 206 209
-0.0474752 -0.362374 -0.631 212 212 212
-0.0162257 -0.362374 -0.631 226 224 225
0.0291771 -0.254983 -0.444 196 158 139
0.0433581 -0.253834 -0.442 177 133 122
0.0468314 -0.254409 -0.443 168 123 118
0.0539448 -0.256131 -0.446 144 105 106
0.0704143 -0.267043 -0.465 103 83 92
0.0738571 -0.269914 -0.47 101 81 92
0.153486 -0.362949 -0.632 232 245 253
0.157097 -0.362949 -0.632 226 238 255
0.20853 -0.362374 -0.631 251 251 255
0.238129 -0.363523 -0.633 250 253 255
0.289516 -0.362949 -0.632 241 246 252
0.29072 -0.362949 -0.632 242 247 253
0.300826 -0.363523 -0.633 190 196 230
0.302031 -0.363523 -0.633 152 158 192
0.311677 -0.363523 -0.633 99 124 188
0.341152 -0.364097 -0.634 168 171 190
0.357414 -0.364671 -0.635 206 208 231
0.370135 -0.364097 -0.634 117 140 182
0.403376 -0.364671 -0.635 191 194 209
0.416025 -0.364097 -0.634 184 187 206
0.42327 -0.364097 -0.634 100 104 129
0.456363 -0.363523 -0.633 65 74 103
0.461186 -0.363523 -0.633 180 177 194
0.470831 -0.363523 -0.633 60 73 118
0.474903 -0.362949 -0.632 168 169 187
0.489349 -0.362949 -0.632 167 168 188
0.440671 -0.312986 -0.545 127 96 94
0.4332 -0.30552 -0.532 148 100 86
0.431136 -0.302649 -0.527 157 106 89
0.430029 -0.299777 -0.522 166 110 93
0.431129 -0.295757 -0.515 175 120 100
0.444327 -0.29346 -0.511 169 112 92
0.447247 -0.29346 -0.511 169 112 93
0.459825 -0.294034 -0.512 154 107 91
-0.0354 -0.363 -0.63 218 216 217
-0.0342 -0.363 -0.63 218 216 217
-0.0294 -0.363 -0.63 221 219 220
-0.0186 -0.363 -0.63 227 225 226
-0.0114 -0.363 -0.63 237 235 238
0.0530952 -0.256981 -0.446 145 105 105
0.0880952 -0.288095 -0.5 98 81 89
0.105038 -0.30999 -0.538 186 195 228
0.180887 -0.363576 -0.631 183 193 229
0.182089 -0.363576 -0.631 196 206 242
0.1842 -0.363 -0.63 189 197 234
0.317706 -0.364729 -0.633 117 141 203
0.326146 -0.364729 -0.633 217 223 255
0.335791 -0.364729 -0.633 210 217 233
0.370135 -0.365305 -0.634 155 172 200
0.400326 -0.365305 -0.634 191 191 201
0.416574 -0.364729 -0.633 184 186 207
0.41778 -0.364729 -0.633 167 163 180
0.422063 -0.365305 -0.634 114 115 135
0.450827 -0.364152 -0.632 179 178 194
0.464069 -0.364152 -0.632 172 173 193
0.43068 -0.298467 -0.518 173 116 97
0.433229 -0.296162 -0.514 171 116 95
0.436294 -0.295586 -0.513 171 116 95
0.43946 -0.294433 -0.511 173 116 96
0.447247 -0.294433 -0.511 170 115 94
0.448314 -0.293857 -0.51 172 117 96
0.467424 -0.296738 -0.515 145 98 78
-0.033 -0.3642 -0.63 220 218 219
0.0383067 -0.255518 -0.442 186 145 127
0.0579857 -0.260721 -0.451 130 97 104
0.0598362 -0.261299 -0.452 123 93 101
0.0781714 -0.277486 -0.48 97 79 91
0.145059 -0.365356 -0.632 249 249 255
0.1698 -0.3642 -0.63 232 239 255
0.264236 -0.365356 -0.632 245 251 249
0.295068 -0.364778 -0.631 233 234 252
0.314796 -0.365356 -0.632 126 157 221
0.355083 -0.365934 -0.633 205 210 229
0.356289 -0.365934 -0.633 205 210 229
0.36714 -0.365934 -0.633 199 210 238
0.370757 -0.365934 -0.633 157 176 218
0.382814 -0.365934 -0.633 191 194 225
0.401533 -0.366512 -0.634 195 196 214
0.460457 -0.365356 -0.632 139 153 182
0.494242 -0.361888 -0.626 75 95 145
0.430523 -0.300031 -0.519 172 116 99
0.43434 -0.296563 -0.513 175 118 99
0.444429 -0.294829 -0.51 170 115 94
0.470297 -0.298297 -0.516 147 102 83
0.502457 -0.312171 -0.54 144 105 88
-0.0305514 -0.36482 -0.629 223 221 222
0.0202324 -0.26216 -0.452 203 163 138
0.0258524 -0.2581 -0.445 200 159 139
0.0315714 -0.25636 -0.442 194 156 137
0.057 -0.261 -0.45 132 97 101
0.0619667 -0.2639 -0.455 118 91 98
0.0695286 -0.2697 -0.465 107 84 94
0.081 -0.28188 -0.486 99 78 93
0.103627 -0.31088 -0.536 182 193 225
0.177917 -0.36482 -0.629 190 200 236
0.268626 -0.36598 -0.631 244 247 252
0.269828 -0.36598 -0.631 243 246 253
0.278241 -0.36598 -0.631 196 199 218
0.280645 -0.36598 -0.631 207 209 230
0.291462 -0.36598 -0.631 241 243 255
0.299875 -0.36598 -0.631 170 175 207
0.319611 -0.36656 -0.632 181 200 243
0.334057 -0.36656 -0.632 219 220 241
0.342484 -0.36656 -0.632 169 175 189
0.343688 -0.36656 -0.632 198 204 218
0.382814 -0.36714 -0.633 199 198 229
0.385226 -0.36714 -0.633 188 195 223
0.421935 -0.36656 -0.632 124 128 153
0.424343 -0.36656 -0.632 176 181 210
0.42675 -0.36656 -0.632 182 183 203
0.477757 -0.36598 -0.631 89 103 142
0.434469 -0.29696 -0.512 177 120 100
0.4454 -0.2958 -0.51 171 116 95
0.454143 -0.2958 -0.51 169 114 93
-0.0449286 -0.366018 -0.629 220 218 219
-0.0413343 -0.366018 -0.629 221 219 220
-0.03774 -0.366018 -0.629 223 221 222
-0.0329476 -0.366018 -0.629 223 221 222
0.0209533 -0.261275 -0.449 204 162 138
0.0399905 -0.257202 -0.442 178 136 120
0.0797448 -0.281642 -0.484 99 77 89
0.1746 -0.3666 -0.63 229 242 250
0.209068 -0.366018 -0.629 250 251 255
0.212662 -0.366018 -0.629 226 226 236
0.222247 -0.366018 -0.629 252 253 255
0.2586 -0.3666 -0.63 191 204 248
0.2838 -0.3666 -0.63 225 230 250
0.285 -0.3666 -0.63 231 236 255
0.303 -0.3666 -0.63 177 185 222
0.332853 -0.367764 -0.632 216 218 241
0.36656 -0.367764 -0.632 206 208 231
0.378598 -0.367764 -0.632 133 155 194
0.411652 -0.367182 -0.631 188 193 212
0.429681 -0.367182 -0.631 183 184 205
0.430883 -0.367182 -0.631 146 147 168
0.471 -0.3666 -0.63 75 98 148
0.477 -0.3666 -0.63 79 96 139
0.49062 -0.366018 -0.629 173 170 187
0.49504 -0.363109 -0.624 100 117 160
0.43911 -0.313065 -0.538 129 96 87
0.433324 -0.306082 -0.526 159 110 95
0.453252 -0.29619 -0.509 169 114 93
0.488274 -0.307246 -0.528 150 105 86
-0.0508381 -0.366632 -0.628 219 219 217
-0.0461267 -0.367216 -0.629 221 219 220
0.0257943 -0.259211 -0.444 198 158 133
0.0357 -0.25746 -0.441 191 150 130
0.0408324 -0.258044 -0.442 174 133 115
0.0426124 -0.258628 -0.443 172 130 114
0.0495857 -0.259795 -0.445 150 109 107
0.0571267 -0.263298 -0.451 128 96 101
0.0674657 -0.270304 -0.463 108 83 87
0.0770962 -0.279645 -0.479 101 78 86
0.0969429 -0.304749 -0.522 136 139 170
0.1458 -0.3678 -0.63 213 214 216
0.155153 -0.367216 -0.629 252 253 255
0.160888 -0.366632 -0.628 249 252 255
0.191096 -0.367216 -0.629 186 200 239
0.2562 -0.3678 -0.63 133 155 204
0.2898 -0.3678 -0.63 242 245 252
0.309 -0.3678 -0.63 140 168 218
0.3402 -0.3678 -0.63 212 214 229
0.352759 -0.368384 -0.631 211 213 226
0.36598 -0.368384 -0.631 204 203 221
0.367182 -0.368384 -0.631 204 206 227
0.384617 -0.368968 -0.632 195 196 217
0.39122 -0.368384 -0.631 150 154 179
0.400835 -0.368384 -0.631 188 191 210
0.404441 -0.368384 -0.631 106 123 166
0.409249 -0.368384 -0.631 180 186 208
0.4206 -0.3678 -0.63 192 192 216
0.429 -0.3678 -0.63 177 178 199
0.4506 -0.3678 -0.63 168 168 176
0.493837 -0.366049 -0.627 83 101 139
0.43706 -0.31117 -0.533 141 103 92
0.433333 -0.303581 -0.52 168 111 91
0.465676 -0.29891 -0.512 147 98 81
0.0416743 -0.258886 -0.442 176 134 118
0.0686429 -0.272357 -0.465 103 80 86
0.0971286 -0.306329 -0.523 143 147 182
0.106405 -0.319214 -0.545 186 196 231
0.150122 -0.367829 -0.628 247 250 255
0.17285 -0.367829 -0.628 198 214 240
0.174046 -0.367829 -0.628 200 216 242
0.235426 -0.368414 -0.629 174 180 206
0.259388 -0.368414 -0.629 209 216 244
0.2646 -0.369 -0.63 247 251 254
0.277359 -0.368414 -0.629 201 203 215
0.280953 -0.368414 -0.629 245 247 255
0.28335 -0.368414 -0.629 243 243 253
0.286944 -0.368414 -0.629 241 244 253
0.298925 -0.368414 -0.629 189 192 223
0.326481 -0.368414 -0.629 106 119 153
0.333 -0.369 -0.63 216 218 243
0.3366 -0.369 -0.63 210 211 229
0.382807 -0.369586 -0.631 196 197 215
0.427121 -0.368414 -0.629 179 186 196
0.437904 -0.368414 -0.629 116 143 198
0.457073 -0.368414 -0.629 163 165 180
0.460668 -0.368414 -0.629 62 85 139
0.483859 -0.367829 -0.628 164 167 186
0.487448 -0.367829 -0.628 171 172 190
0.491449 -0.367243 -0.627 167 171 196
0.442686 -0.297543 -0.508 175 118 98
0.0241571 -0.26149 -0.445 200 160 135
0.0249486 -0.260903 -0.444 201 161 136
0.0523629 -0.262666 -0.447 140 102 101
0.0687905 -0.27383 -0.466 101 80 87
0.0699771 -0.275006 -0.468 102 81 88
0.0760248 -0.280882 -0.478 99 79 88
0.139134 -0.368437 -0.627 252 253 255
0.183323 -0.368437 -0.627 129 149 202
0.23864 -0.369025 -0.628 161 178 221
0.26418 -0.369612 -0.629 249 253 254
0.265378 -0.369612 -0.629 245 249 250
0.275722 -0.369025 -0.628 248 251 255
0.327679 -0.369612 -0.629 104 115 145
0.33367 -0.369612 -0.629 218 216 237
0.3858 -0.3702 -0.63 193 198 220
0.407951 -0.369612 -0.629 166 177 209
0.42113 -0.369612 -0.629 182 187 206
0.424725 -0.369612 -0.629 179 181 193
0.433619 -0.369025 -0.628 98 127 183
0.440796 -0.369025 -0.628 77 104 157
0.441992 -0.369025 -0.628 89 110 167
0.463064 -0.369612 -0.629 149 160 192
0.468309 -0.369025 -0.628 64 78 125
0.485055 -0.369025 -0.628 167 172 194
0.446466 -0.299098 -0.509 176 120 97
0.448405 -0.299098 -0.509 179 123 98
0.451394 -0.29851 -0.508 175 119 96
0.466651 -0.300861 -0.512 153 104 87
0.470432 -0.302036 -0.514 152 105 87
0.48365 -0.307325 -0.523 151 105 89
0.0153333 -0.271181 -0.46 200 159 137
0.03402 -0.25998 -0.441 189 146 129
0.0443 -0.261159 -0.443 165 126 111
0.0478905 -0.262338 -0.445 154 116 105
0.0994381 -0.312448 -0.53 165 173 210
0.142945 -0.370221 -0.628 249 253 254
0.178546 -0.369631 -0.627 143 156 201
0.211986 -0.369631 -0.627 221 219 240
0.224286 -0.370221 -0.628 252 252 255
0.231463 -0.370221 -0.628 235 236 254
0.267349 -0.370221 -0.628 246 249 254
0.274526 -0.370221 -0.628 246 251 255
0.27931 -0.370221 -0.628 238 241 248
0.311608 -0.370221 -0.628 165 182 225
0.314 -0.370221 -0.628 176 191 232
0.382791 -0.37081 -0.629 197 201 226
0.47234 -0.369631 -0.627 169 176 202
0.473534 -0.369631 -0.627 164 169 191
0.491857 -0.369042 -0.626 159 161 186
0.494643 -0.368452 -0.625 103 120 163
0.438454 -0.313037 -0.531 151 105 89
0.435159 -0.307142 -0.521 167 112 91
0.435317 -0.302426 -0.513 178 123 102
0.43654 -0.301247 -0.511 177 120 100
0.45333 -0.299478 -0.508 172 118 94
0.467627 -0.301836 -0.512 153 106 88
0.471411 -0.303015 -0.514 152 107 88
0.0408324 -0.261411 -0.442 174 132 116
0.0562676 -0.266734 -0.451 126 94 95
0.06556 -0.27324 -0.462 106 85 92
0.146067 -0.370234 -0.626 240 238 255
0.219151 -0.370826 -0.627 239 242 251
0.253786 -0.370826 -0.627 229 238 247
0.267349 -0.371417 -0.628 245 248 255
0.299169 -0.370826 -0.627 197 201 228
0.310411 -0.371417 -0.628 183 196 238
0.324249 -0.370826 -0.627 217 219 242
0.407849 -0.370826 -0.627 169 179 214
0.418069 -0.371417 -0.628 180 179 197
0.436511 -0.370826 -0.627 114 137 191
0.453954 -0.371417 -0.628 163 169 193
0.473534 -0.370826 -0.627 175 173 194
0.478311 -0.370826 -0.627 167 174 192
0.435 -0.308726 -0.522 164 109 88
0.434914 -0.305177 -0.516 170 115 94
0.435052 -0.304586 -0.515 172 117 96
0.47239 -0.303994 -0.514 154 107 89
0.477117 -0.305769 -0.517 155 108 90
0.0248924 -0.262847 -0.443 197 157 132
0.0452457 -0.26344 -0.444 161 119 107
0.0516267 -0.265813 -0.448 142 101 97
0.0603657 -0.27056 -0.456 118 89 91
0.06454 -0.273527 -0.461 108 83 89
0.0667276 -0.275307 -0.464 105 82 88
0.0863629 -0.29726 -0.501 97 81 91
0.101585 -0.318027 -0.536 148 160 202
0.202109 -0.371427 -0.626 253 254 255
0.227874 -0.372613 -0.628 248 251 244
0.272894 -0.37202 -0.627 246 250 255
0.282449 -0.37202 -0.627 243 244 255
0.301557 -0.37202 -0.627 222 220 244
0.340316 -0.372613 -0.628 148 161 206
0.340969 -0.37202 -0.627 114 127 172
0.366632 -0.372613 -0.628 182 181 199
0.395906 -0.37202 -0.627 104 125 172
0.467563 -0.37202 -0.627 120 126 150
0.476356 -0.371427 -0.626 171 173 194
0.489881 -0.370833 -0.625 178 174 199
0.438818 -0.313873 -0.529 157 106 85
0.435994 -0.30972 -0.522 160 109 88
0.435613 -0.307347 -0.518 165 114 93
0.439679 -0.302007 -0.509 178 124 98
0.443653 -0.301413 -0.508 175 119 94
-0.0470238 -0.372024 -0.625 230 230 228
0.0167143 -0.267857 -0.45 202 160 138
0.0434562 -0.26369 -0.443 168 126 112
0.0496971 -0.265476 -0.446 146 107 102
0.05066 -0.266071 -0.447 144 104 102
0.0793114 -0.289881 -0.487 99 78 87
0.0821667 -0.293452 -0.493 100 78 90
0.09288 -0.307143 -0.516 109 99 123
0.0945905 -0.309524 -0.52 114 113 145
0.150595 -0.372024 -0.625 202 205 222
0.165145 -0.372619 -0.626 247 249 255
0.172024 -0.372024 -0.625 161 175 210
0.199405 -0.372024 -0.625 249 252 255
0.222379 -0.372619 -0.626 252 253 255
0.224764 -0.372619 -0.626 248 252 253
0.247419 -0.372619 -0.626 173 195 232
0.252189 -0.372619 -0.626 218 227 255
0.253381 -0.372619 -0.626 238 242 254
0.302269 -0.372619 -0.626 184 195 225
0.311808 -0.372619 -0.626 152 173 216
0.33327 -0.372619 -0.626 160 175 208
0.34281 -0.372619 -0.626 136 163 216
0.383963 -0.373214 -0.627 157 159 172
0.402429 -0.372619 -0.626 83 104 135
0.407198 -0.372619 -0.626 169 183 212
0.450843 -0.373214 -0.627 167 169 190
0.456814 -0.373214 -0.627 180 177 206
0.46324 -0.372619 -0.626 173 175 198
0.464432 -0.372619 -0.626 171 173 196
0.470394 -0.372619 -0.626 169 175 197
0.481548 -0.372024 -0.625 118 122 147
0.489097 -0.371429 -0.624 175 176 197
0.495433 -0.370833 -0.623 73 97 145
0.436033 -0.306548 -0.515 171 119 97
0.436166 -0.305952 -0.514 172 120 98
0.437513 -0.304167 -0.511 176 124 100
0.444621 -0.302381 -0.508 174 120 96
0.480013 -0.308333 -0.518 151 109 93
0.03906 -0.26334 -0.441 175 134 116
0.0585 -0.2717 -0.455 118 88 88
0.09324 -0.30932 -0.518 111 103 124
0.166071 -0.373214 -0.625 232 235 250
0.167262 -0.373214 -0.625 180 186 212
0.18631 -0.373214 -0.625 203 213 249
0.1875 -0.373214 -0.625 213 223 255
0.218452 -0.373214 -0.625 245 246 248
0.225956 -0.373811 -0.626 240 247 255
0.268882 -0.373811 -0.626 243 246 251
0.318452 -0.373214 -0.625 220 226 252
0.326116 -0.373811 -0.626 215 220 242
0.329693 -0.373811 -0.626 164 173 206
0.345194 -0.373811 -0.626 178 193 216
0.347579 -0.373811 -0.626 127 146 188
0.399405 -0.373214 -0.625 178 186 207
0.400595 -0.373214 -0.625 148 164 190
0.430357 -0.373214 -0.625 109 132 176
0.457738 -0.373214 -0.625 175 176 194
0.481548 -0.373214 -0.625 161 163 186
0.440657 -0.316486 -0.53 144 105 90
0.43654 -0.30514 -0.511 173 121 97
0.438487 -0.30514 -0.511 177 123 97
0.471528 -0.305737 -0.512 156 111 92
0.575243 -0.358883 -0.601 193 182 178
0.022361 -0.265378 -0.443 199 157 132
0.0452457 -0.265977 -0.444 155 115 105
0.0535714 -0.269571 -0.45 133 98 96
0.0900333 -0.306113 -0.511 103 87 100
0.143223 -0.373806 -0.624 235 233 246
0.171749 -0.373806 -0.624 189 199 226
0.225595 -0.374405 -0.625 229 236 252
0.230357 -0.374405 -0.625 213 215 236
0.292262 -0.374405 -0.625 234 240 255
0.295833 -0.374405 -0.625 235 238 253
0.308929 -0.374405 -0.625 174 188 233
0.310811 -0.373806 -0.624 143 165 212
0.36131 -0.374405 -0.625 203 203 227
0.373811 -0.375004 -0.626 130 161 207
0.380966 -0.375004 -0.626 191 193 216
0.38631 -0.374405 -0.625 183 189 205
0.419643 -0.374405 -0.625 91 100 131
0.432046 -0.373806 -0.624 94 117 171
0.439881 -0.374405 -0.625 131 150 192
0.458929 -0.374405 -0.625 180 181 202
0.481966 -0.373806 -0.624 115 114 132
0.4895 -0.373207 -0.623 165 175 210
0.49306 -0.373207 -0.623 109 129 179
0.493453 -0.372608 -0.622 104 124 174
0.45084 -0.32708 -0.546 135 104 99
0.44232 -0.318693 -0.532 139 105 95
0.4563 -0.303717 -0.507 179 125 101
0.0566419 -0.272832 -0.454 123 92 89
0.0707248 -0.28425 -0.473 100 78 81
0.100751 -0.322711 -0.537 145 158 202
0.171749 -0.374994 -0.624 213 219 241
0.182153 -0.374393 -0.623 165 182 225
0.19046 -0.374393 -0.623 241 245 255
0.208594 -0.374994 -0.624 250 250 252
0.259703 -0.374994 -0.624 238 244 255
0.273966 -0.374994 -0.624 191 199 235
0.329167 -0.375595 -0.625 162 168 202
0.384503 -0.374994 -0.624 186 192 208
0.408274 -0.374994 -0.624 182 186 213
0.452251 -0.374994 -0.624 156 161 190
0.498952 -0.37259 -0.62 37 66 126
0.437145 -0.30889 -0.514 167 116 95
0.439679 -0.305885 -0.509 173 121 97
0.0157514 -0.269477 -0.447 205 161 136
0.02478 -0.26586 -0.441 196 154 129
0.0305905 -0.265257 -0.44 190 148 126
0.07314 -0.287563 -0.477 101 79 82
0.0872248 -0.305046 -0.506 103 84 90
0.0903857 -0.309266 -0.513 108 95 112
0.097419 -0.319514 -0.53 140 145 185
0.152242 -0.374977 -0.622 249 254 255
0.17266 -0.37558 -0.623 200 205 224
0.185415 -0.374977 -0.622 215 223 246
0.196393 -0.37558 -0.623 182 188 220
0.219291 -0.376183 -0.624 251 251 253
0.22048 -0.376183 -0.624 249 250 255
0.239497 -0.376183 -0.624 186 200 227
0.25098 -0.37558 -0.623 216 225 255
0.25454 -0.37558 -0.623 249 253 252
0.255727 -0.37558 -0.623 246 250 249
0.269211 -0.376183 -0.624 192 198 224
0.285851 -0.376183 -0.624 130 142 180
0.29536 -0.376183 -0.624 230 232 253
0.3115 -0.37558 -0.623 131 154 198
0.313873 -0.37558 -0.623 158 176 212
0.33696 -0.376183 -0.624 189 199 226
0.338149 -0.376183 -0.624 162 181 214
0.3536 -0.376183 -0.624 145 154 185
0.359543 -0.376183 -0.624 204 204 230
0.367863 -0.376183 -0.624 120 133 165
0.369051 -0.376183 -0.624 127 140 172
0.39694 -0.37558 -0.623 185 193 212
0.401687 -0.37558 -0.623 125 135 160
0.405247 -0.37558 -0.623 187 189 210
0.439177 -0.376183 -0.624 138 159 206
0.441554 -0.376183 -0.624 139 151 191
0.448686 -0.376183 -0.624 57 62 91
0.454629 -0.376183 -0.624 178 181 196
0.490039 -0.361111 -0.599 121 102 108
0.444167 -0.321323 -0.533 139 106 99
0.440649 -0.306854 -0.509 174 122 98
0.450506 -0.305649 -0.507 182 128 102
0.470657 -0.307457 -0.51 165 117 95
1.0727 -0.3587 -0.595 204 206 192
0.0231524 -0.267305 -0.442 199 157 132
0.0305905 -0.266095 -0.44 191 149 127
0.0452457 -0.268514 -0.444 152 112 102
0.04992 -0.270933 -0.448 135 98 92
0.0785448 -0.295124 -0.488 99 78 83
0.13706 -0.376767 -0.623 244 252 254
0.16172 -0.376162 -0.622 206 212 228
0.191339 -0.376162 -0.622 250 250 255
0.200817 -0.376162 -0.622 252 247 254
0.223687 -0.376767 -0.623 217 220 237
0.230807 -0.376767 -0.623 248 246 255
0.235553 -0.376767 -0.623 234 234 242
0.23674 -0.376767 -0.623 192 199 225
0.249392 -0.376162 -0.622 173 186 220
0.256501 -0.376162 -0.622 245 248 255
0.260473 -0.376767 -0.623 239 244 250
0.28658 -0.376767 -0.623 157 165 201
0.305567 -0.376767 -0.623 153 166 210
0.309127 -0.376767 -0.623 158 171 215
0.364297 -0.377371 -0.624 189 194 216
0.381513 -0.376767 -0.623 154 159 181
0.3827 -0.376767 -0.623 154 159 181
0.46102 -0.376767 -0.623 170 173 192
0.48279 -0.376162 -0.622 174 169 189
0.440849 -0.306614 -0.507 175 123 99
0.445677 -0.306614 -0.507 176 124 100
0.453403 -0.306614 -0.507 183 127 100
0.01408 -0.271787 -0.448 200 160 134
0.0452457 -0.26936 -0.444 152 112 100
0.0528314 -0.273607 -0.451 127 92 88
0.0608952 -0.279067 -0.46 114 86 85
0.138986 -0.37674 -0.621 246 255 254
0.150814 -0.37674 -0.621 214 212 225
0.155546 -0.37674 -0.621 243 241 255
0.188666 -0.37674 -0.621 244 252 255
0.194893 -0.377347 -0.622 184 193 222
0.212665 -0.377347 -0.622 197 199 220
0.281833 -0.377953 -0.623 179 195 231
0.297968 -0.377347 -0.622 228 225 254
0.334695 -0.377347 -0.622 206 208 233
0.358967 -0.377953 -0.623 183 192 221
0.411043 -0.37674 -0.621 187 192 214
0.42642 -0.37674 -0.621 114 132 170
0.428786 -0.37674 -0.621 111 134 186
0.43966 -0.377953 -0.623 92 120 185
0.46265 -0.377347 -0.622 140 145 174
0.466204 -0.377347 -0.622 94 103 136
0.499327 -0.375527 -0.619 23 58 116
0.4425 -0.3185 -0.525 147 107 97
0.4386 -0.3094 -0.51 173 121 99
0.441718 -0.308187 -0.508 175 123 101
0.467844 -0.308187 -0.508 166 115 94
0.4745 -0.310007 -0.511 158 113 94
0.49162 -0.317287 -0.523 152 111 91
1.06863 -0.36036 -0.594 203 206 189
0.0338657 -0.267163 -0.439 182 140 118
0.03906 -0.26838 -0.441 171 130 110
0.0927876 -0.317066 -0.521 127 132 162
0.0945 -0.3195 -0.525 140 145 175
0.13447 -0.378531 -0.622 245 248 255
0.164743 -0.377314 -0.62 240 248 255
0.205226 -0.377923 -0.621 241 242 255
0.215871 -0.377923 -0.621 237 241 253
0.303403 -0.377923 -0.621 174 189 218
0.308134 -0.377923 -0.621 177 190 232
0.3105 -0.377923 -0.621 145 163 201
0.316414 -0.377923 -0.621 211 221 248
0.324694 -0.377923 -0.621 122 123 151
0.350097 -0.378531 -0.622 195 201 227
0.417467 -0.377314 -0.62 128 131 146
0.441797 -0.377923 -0.621 45 70 127
0.45791 -0.378531 -0.622 169 168 176
0.480831 -0.377923 -0.621 169 168 184
0.499327 -0.376706 -0.619 32 63 120
0.439696 -0.314631 -0.517 158 115 99
0.461183 -0.307937 -0.506 174 122 100
0.00998857 -0.278377 -0.456 202 162 136
0.0272381 -0.26861 -0.44 192 150 125
0.0313571 -0.267999 -0.439 187 145 121
0.0330295 -0.267999 -0.439 182 140 116
0.0381333 -0.26861 -0.44 174 131 114
0.0461952 -0.271662 -0.445 146 104 92
0.0568914 -0.278377 -0.456 117 88 84
0.0929657 -0.318669 -0.522 133 140 168
0.145848 -0.378495 -0.62 192 195 214
0.195763 -0.379106 -0.621 245 249 255
0.226517 -0.379106 -0.621 249 249 255
0.230066 -0.379106 -0.621 243 246 251
0.278563 -0.379106 -0.621 220 229 255
0.279746 -0.379106 -0.621 223 224 255
0.288026 -0.379106 -0.621 193 202 235
0.305276 -0.378495 -0.62 175 187 229
0.308819 -0.378495 -0.62 162 180 216
0.344803 -0.379106 -0.621 207 209 234
0.350717 -0.379106 -0.621 199 204 226
0.367869 -0.379716 -0.622 130 146 162
0.380289 -0.379106 -0.621 90 98 135
0.4092 -0.378495 -0.62 186 188 209
0.412743 -0.378495 -0.62 190 192 205
0.440614 -0.379106 -0.621 41 72 139
0.447711 -0.379106 -0.621 158 166 179
0.450077 -0.379106 -0.621 165 163 174
0.464705 -0.378495 -0.62 113 124 146
0.441718 -0.310122 -0.508 176 124 102
0.442686 -0.310122 -0.508 175 123 101
0.44278 -0.309511 -0.507 176 124 102
0.44769 -0.308901 -0.506 179 125 101
0.468854 -0.309511 -0.507 164 117 97
0.4955 -0.3205 -0.525 146 109 91
1.07135 -0.362012 -0.593 201 203 189
0.0426124 -0.271285 -0.443 160 118 102
0.06538 -0.285982 -0.467 102 80 82
0.0866019 -0.31109 -0.508 96 79 87
0.142075 -0.379064 -0.619 243 248 254
0.152933 -0.379676 -0.62 243 247 255
0.182163 -0.379064 -0.619 173 183 219
0.221429 -0.379676 -0.62 195 200 238
0.226152 -0.379676 -0.62 251 252 255
0.271466 -0.380289 -0.621 214 218 245
0.331257 -0.379676 -0.62 201 208 224
0.373191 -0.380289 -0.621 144 165 218
0.389124 -0.379676 -0.62 170 167 174
0.393848 -0.379676 -0.62 179 185 197
0.398571 -0.379676 -0.62 153 165 187
0.410898 -0.379064 -0.619 184 183 191
0.424552 -0.379676 -0.62 36 65 133
0.463524 -0.379676 -0.62 146 153 172
0.468248 -0.379676 -0.62 159 164 186
0.478876 -0.379676 -0.62 178 173 180
0.489894 -0.379064 -0.619 102 125 177
0.45931 -0.309252 -0.505 175 123 101
0.471714 -0.31109 -0.508 162 115 95
0.0702667 -0.2924 -0.476 99 79 81
0.0901057 -0.317586 -0.517 115 112 129
0.0987057 -0.329871 -0.537 193 202 233
0.155045 -0.380243 -0.619 216 222 244
0.193953 -0.380243 -0.619 250 249 254
0.195132 -0.380243 -0.619 243 242 247
0.196311 -0.380243 -0.619 243 242 247
0.221429 -0.380857 -0.62 195 200 242
0.22379 -0.380857 -0.62 244 245 249
0.250548 -0.380243 -0.619 237 244 254
0.251727 -0.380243 -0.619 239 246 255
0.278845 -0.380243 -0.619 227 231 255
0.2852 -0.380857 -0.62 226 230 255
0.29701 -0.380857 -0.62 219 224 253
0.300552 -0.380857 -0.62 187 194 222
0.304095 -0.380857 -0.62 143 157 202
0.323649 -0.380243 -0.619 181 189 212
0.333081 -0.380243 -0.619 200 207 226
0.364911 -0.381471 -0.621 160 162 177
0.3844 -0.380857 -0.62 174 183 212
0.386762 -0.380857 -0.62 126 125 139
0.430942 -0.380243 -0.619 25 56 123
0.474567 -0.380243 -0.619 177 174 185
0.479283 -0.380243 -0.619 166 169 186
0.501239 -0.379014 -0.617 119 144 198
0.460833 -0.3397 -0.553 139 106 99
0.443746 -0.311443 -0.507 173 123 100
0.465081 -0.310214 -0.505 171 119 97
0.0155752 -0.272356 -0.442 201 160 132
0.01974 -0.27174 -0.441 196 155 125
0.02058 -0.27174 -0.441 195 154 124
0.0338657 -0.270508 -0.439 178 136 112
0.0435543 -0.273589 -0.444 151 109 95
0.06116 -0.28468 -0.462 109 84 80
0.0754457 -0.299469 -0.486 96 77 81
0.196311 -0.381422 -0.619 242 241 246
0.19867 -0.381422 -0.619 201 204 223
0.29653 -0.381422 -0.619 218 225 253
0.313037 -0.381422 -0.619 194 204 229
0.320111 -0.381422 -0.619 84 96 144
0.344248 -0.382038 -0.62 201 206 226
0.378495 -0.382038 -0.62 87 113 170
0.382038 -0.382038 -0.62 112 133 180
0.432121 -0.381422 -0.619 35 65 135
0.438016 -0.381422 -0.619 79 113 177
0.44581 -0.382038 -0.62 143 154 186
0.452165 -0.381422 -0.619 182 180 191
0.454523 -0.381422 -0.619 136 133 140
0.477331 -0.380806 -0.618 173 173 185
0.480863 -0.380806 -0.618 111 124 159
0.449243 -0.32843 -0.533 148 110 99
0.468893 -0.311792 -0.506 167 116 95
0.0139229 -0.273816 -0.443 202 163 132
0.02142 -0.27258 -0.441 194 153 123
0.0399905 -0.273198 -0.442 163 122 104
0.0646286 -0.289269 -0.468 105 81 79
0.0702667 -0.294213 -0.476 97 79 79
0.0782514 -0.304103 -0.492 96 80 83
0.0856343 -0.313992 -0.508 101 85 88
0.234041 -0.382601 -0.619 214 220 232
0.274863 -0.381983 -0.618 224 228 255
0.288989 -0.381983 -0.618 139 152 187
0.294874 -0.381983 -0.618 215 224 255
0.34779 -0.383219 -0.62 198 204 220
0.367867 -0.383219 -0.62 56 94 156
0.413766 -0.381983 -0.618 118 112 114
0.420829 -0.381983 -0.618 82 102 152
0.423673 -0.381365 -0.617 78 109 164
0.451434 -0.381983 -0.618 178 177 191
0.462029 -0.381983 -0.618 176 175 189
0.500064 -0.381365 -0.617 71 98 145
0.447557 -0.328209 -0.531 152 114 103
0.4584 -0.31152 -0.504 176 124 102
0.0114429 -0.2759 -0.445 201 162 131
0.0222095 -0.2728 -0.44 194 155 124
0.0271762 -0.27218 -0.439 191 152 123
0.0313571 -0.27218 -0.439 185 143 118
0.0540476 -0.28148 -0.454 121 88 79
0.057141 -0.28396 -0.458 116 87 79
0.063601 -0.28954 -0.467 107 82 77
0.0843333 -0.31372 -0.506 98 82 83
0.141616 -0.38254 -0.617 222 230 253
0.143967 -0.38254 -0.617 157 165 204
0.147492 -0.38254 -0.617 201 212 240
0.16042 -0.38254 -0.617 240 239 255
0.18275 -0.38254 -0.617 178 187 226
0.232486 -0.38316 -0.618 236 241 255
0.254439 -0.38254 -0.617 212 216 245
0.267367 -0.38254 -0.617 226 232 246
0.268542 -0.38254 -0.617 229 234 254
0.274418 -0.38254 -0.617 223 227 252
0.279119 -0.38254 -0.617 228 229 255
0.28617 -0.38254 -0.617 217 223 249
0.288521 -0.38254 -0.617 178 188 223
0.295572 -0.38254 -0.617 212 217 239
0.314376 -0.38254 -0.617 198 214 250
0.331366 -0.38316 -0.618 204 208 217
0.363143 -0.3844 -0.62 61 87 146
0.389046 -0.38316 -0.618 136 130 130
0.396109 -0.38316 -0.618 139 149 176
0.40722 -0.38254 -0.617 176 173 182
0.426024 -0.38254 -0.617 102 130 178
0.44084 -0.38316 -0.618 159 180 211
0.468332 -0.38254 -0.617 183 181 194
0.480085 -0.38254 -0.617 69 83 118
0.497713 -0.38254 -0.617 87 113 162
0.448733 -0.3286 -0.53 151 112 95
0.444799 -0.32426 -0.523 153 114 97
0.45744 -0.31248 -0.504 178 126 104
0.4584 -0.31248 -0.504 176 124 102
0.017181 -0.273638 -0.44 199 160 131
0.03822 -0.27426 -0.441 166 123 104
0.0416743 -0.274882 -0.442 154 112 96
0.0501429 -0.279857 -0.45 127 93 83
0.0909771 -0.324634 -0.522 133 130 159
0.131039 -0.383715 -0.617 247 245 255
0.137867 -0.383093 -0.616 181 195 230
0.190976 -0.383715 -0.617 247 243 255
0.194502 -0.383715 -0.617 242 244 255
0.216831 -0.383715 -0.617 232 234 247
0.218007 -0.383715 -0.617 235 239 251
0.23446 -0.383715 -0.617 197 214 234
0.237986 -0.383715 -0.617 180 194 223
0.360794 -0.384337 -0.618 53 75 133
0.369034 -0.384337 -0.618 42 76 147
0.373743 -0.384337 -0.618 46 78 151
0.377839 -0.383715 -0.617 115 136 183
0.38489 -0.383715 -0.617 185 191 205
0.401867 -0.383093 -0.616 178 181 198
0.416622 -0.383715 -0.617 181 180 196
0.430725 -0.383715 -0.617 93 126 193
0.443652 -0.383715 -0.617 85 101 137
0.447178 -0.383715 -0.617 91 101 150
0.45658 -0.383715 -0.617 180 179 195
0.471858 -0.383715 -0.617 168 168 178
0.476559 -0.383715 -0.617 122 121 137
0.448046 -0.328366 -0.528 151 114 96
0.44976 -0.31344 -0.504 178 127 100
1.06818 -0.366924 -0.59 203 205 191
0.0222095 -0.274476 -0.44 196 155 125
0.0238314 -0.273852 -0.439 194 153 123
0.0313571 -0.273852 -0.439 184 143 115
0.13552 -0.384267 -0.616 144 152 188
0.17424 -0.384267 -0.616 191 206 245
0.1848 -0.384267 -0.616 236 242 255
0.20743 -0.38489 -0.617 212 213 233
0.219182 -0.38489 -0.617 239 242 255
0.254027 -0.384267 -0.616 133 144 174
0.2552 -0.384267 -0.616 137 148 178
0.288053 -0.384267 -0.616 217 219 240
0.298613 -0.384267 -0.616 150 165 194
0.33318 -0.38489 -0.617 179 177 190
0.347846 -0.385514 -0.618 194 197 216
0.349023 -0.385514 -0.618 195 198 217
0.3502 -0.385514 -0.618 196 199 218
0.371963 -0.38489 -0.617 53 85 142
0.390767 -0.38489 -0.617 152 147 154
0.396 -0.384267 -0.616 177 182 201
0.401867 -0.384267 -0.616 182 185 200
0.41712 -0.384267 -0.616 117 121 166
0.421323 -0.38489 -0.617 147 163 199
0.461707 -0.384267 -0.616 185 181 195
0.482827 -0.384267 -0.616 168 171 188
0.488693 -0.384267 -0.616 132 132 158
0.50231 -0.383019 -0.614 134 146 170
0.44769 -0.315648 -0.506 172 124 101
0.4536 -0.3144 -0.504 179 129 104
0.460365 -0.313776 -0.503 174 124 99
0.462281 -0.313776 -0.503 174 124 99
0.46416 -0.3144 -0.504 171 121 96
0.471814 -0.315024 -0.505 162 117 96
0.485151 -0.320014 -0.513 151 110 92
1.05582 -0.368048 -0.59 204 207 190
1.06525 -0.367424 -0.589 202 204 190
0.017181 -0.275314 -0.44 198 157 127
0.02634 -0.274689 -0.439 189 148 120
0.03906 -0.27594 -0.441 159 116 97
0.0512267 -0.282823 -0.452 122 91 86
0.0833695 -0.316611 -0.506 100 84 94
0.133173 -0.38544 -0.616 178 183 205
0.144907 -0.38544 -0.616 159 168 207
0.158729 -0.384814 -0.615 233 240 255
0.185973 -0.38544 -0.616 244 240 255
0.22352 -0.38544 -0.616 152 158 184
0.229387 -0.38544 -0.616 239 241 255
0.2665 -0.384814 -0.615 226 225 239
0.275871 -0.384814 -0.615 221 226 246
0.279386 -0.384814 -0.615 219 221 246
0.288757 -0.384814 -0.615 220 222 243
0.3157 -0.384814 -0.615 127 142 201
0.353159 -0.386066 -0.617 137 132 136
0.38544 -0.38544 -0.616 188 186 208
0.41008 -0.38544 -0.616 182 182 190
0.412427 -0.38544 -0.616 185 185 195
0.415947 -0.38544 -0.616 127 134 163
0.418293 -0.38544 -0.616 91 105 144
0.479307 -0.38544 -0.616 145 153 176
0.495 -0.371674 -0.594 122 101 100
1.01649 -0.369171 -0.59 205 207 193
0.0255038 -0.275525 -0.439 189 150 121
0.0296171 -0.274897 -0.438 184 144 118
0.182157 -0.385986 -0.615 200 214 240
0.238386 -0.385986 -0.615 150 167 210
0.247757 -0.385986 -0.615 214 224 255
0.2501 -0.385986 -0.615 214 223 254
0.286414 -0.385986 -0.615 214 220 242
0.296957 -0.385986 -0.615 94 120 171
0.305653 -0.386613 -0.616 72 106 178
0.326243 -0.385986 -0.615 197 199 214
0.331467 -0.386613 -0.616 119 117 130
0.35786 -0.387241 -0.617 121 132 154
0.3784 -0.386613 -0.616 101 119 165
0.400043 -0.385986 -0.615 188 187 201
0.4141 -0.385986 -0.615 126 132 164
0.477357 -0.385986 -0.615 113 118 138
0.482043 -0.385986 -0.615 173 172 188
0.44769 -0.317575 -0.506 173 125 102
0.477546 -0.318203 -0.507 156 113 96
0.484233 -0.320713 -0.511 152 110 94
1.05852 -0.369668 -0.589 204 206 192
1.06008 -0.36904 -0.588 203 205 191
1.06344 -0.36904 -0.588 203 205 191
0.0138286 -0.27699 -0.44 198 159 130
0.03822 -0.27762 -0.441 160 119 101
0.0409248 -0.278879 -0.443 149 110 95
0.0777857 -0.311614 -0.495 98 80 80
0.095281 -0.336795 -0.535 196 204 243
0.164318 -0.386528 -0.614 234 237 254
0.1927 -0.387157 -0.615 149 154 192
0.201743 -0.386528 -0.614 214 214 222
0.254371 -0.386528 -0.614 217 226 255
0.266067 -0.386528 -0.614 171 173 185
0.267969 -0.385898 -0.613 195 194 208
0.291796 -0.386528 -0.614 139 145 169
0.312186 -0.387157 -0.615 73 106 175
0.329757 -0.387157 -0.615 175 173 184
0.334443 -0.387157 -0.615 151 151 161
0.3403 -0.387157 -0.615 187 190 207
0.351413 -0.387787 -0.616 153 151 162
0.36784 -0.387787 -0.616 78 119 183
0.3813 -0.387157 -0.615 130 142 182
0.410586 -0.387157 -0.615 148 150 165
0.412257 -0.386528 -0.614 126 129 144
0.448071 -0.387157 -0.615 98 105 133
0.482043 -0.387157 -0.615 173 171 185
0.485557 -0.387157 -0.615 172 171 189
0.456531 -0.338684 -0.538 138 109 101
0.44621 -0.327352 -0.52 155 115 103
0.44969 -0.31791 -0.505 173 125 102
0.472776 -0.31791 -0.505 159 113 97
0.0171419 -0.277197 -0.439 198 157 129
0.0565143 -0.290457 -0.46 114 85 79
0.068741 -0.301823 -0.478 100 79 78
0.130402 -0.387697 -0.614 199 206 222
0.161979 -0.387697 -0.614 220 224 253
0.165488 -0.387697 -0.614 233 238 255
0.216947 -0.387697 -0.614 236 239 254
0.294824 -0.387066 -0.613 85 107 148
0.312848 -0.387697 -0.614 66 101 167
0.317009 -0.387066 -0.613 194 205 237
0.393545 -0.387697 -0.614 187 186 202
0.395884 -0.387697 -0.614 184 183 199
0.397053 -0.387697 -0.614 183 182 198
0.439871 -0.388329 -0.615 180 178 199
0.448071 -0.388329 -0.615 98 105 133
0.447788 -0.330237 -0.523 147 113 104
0.444221 -0.323291 -0.512 166 119 101
0.445589 -0.320766 -0.508 172 124 104
0.487131 -0.323291 -0.512 151 112 95
0.490013 -0.324554 -0.514 148 109 92
1.05336 -0.37128 -0.588 203 206 189
1.0594 -0.370649 -0.587 203 205 191
0.0154695 -0.278033 -0.439 199 157 132
0.0171419 -0.278033 -0.439 198 156 131
0.0196505 -0.278033 -0.439 194 153 125
0.0364571 -0.278667 -0.44 162 121 101
0.0465067 -0.283733 -0.448 133 96 88
0.0726686 -0.3078 -0.486 99 78 77
0.137195 -0.388233 -0.613 211 210 226
0.141866 -0.388233 -0.613 215 218 235
0.16081 -0.388867 -0.614 165 181 206
0.169889 -0.388233 -0.613 197 207 234
0.180397 -0.388233 -0.613 211 218 247
0.181565 -0.388233 -0.613 206 213 242
0.227102 -0.388233 -0.613 146 159 191
0.260963 -0.388233 -0.613 216 218 241
0.307 -0.388867 -0.614 57 91 162
0.316491 -0.3876 -0.612 178 190 228
0.320511 -0.388233 -0.613 200 199 213
0.351442 -0.388867 -0.614 173 178 198
0.35612 -0.388867 -0.614 132 143 175
0.409918 -0.388867 -0.614 180 181 201
0.412753 -0.388233 -0.613 80 90 115
0.420927 -0.388233 -0.613 167 168 189
0.426765 -0.388233 -0.613 84 110 159
0.460208 -0.388867 -0.614 159 167 206
0.464886 -0.388867 -0.614 150 165 204
0.470733 -0.388867 -0.614 61 88 135
0.471903 -0.388867 -0.614 50 77 124
0.480475 -0.388233 -0.613 149 147 160
0.496011 -0.3876 -0.612 104 125 172
0.44634 -0.3287 -0.519 154 114 104
0.469946 -0.318567 -0.503 161 114 96
0.485229 -0.323 -0.51 153 111 95
1.0594 -0.371767 -0.587 203 205 191
0.0171029 -0.278234 -0.438 195 155 129
0.0179371 -0.278234 -0.438 194 155 126
0.02044 -0.278234 -0.438 193 154 125
0.0229429 -0.278234 -0.438 192 151 119
0.0271143 -0.278234 -0.438 184 143 115
0.0391486 -0.280775 -0.442 152 110 94
0.0495048 -0.287128 -0.452 125 92 85
0.158212 -0.389401 -0.613 185 191 227
0.161715 -0.389401 -0.613 169 169 203
0.200247 -0.389401 -0.613 236 236 248
0.210755 -0.389401 -0.613 232 233 253
0.223599 -0.389401 -0.613 234 238 255
0.239946 -0.389401 -0.613 100 130 192
0.243449 -0.389401 -0.613 126 151 215
0.248119 -0.389401 -0.613 116 136 195
0.264034 -0.388766 -0.612 199 197 218
0.282686 -0.388766 -0.612 215 216 234
0.315326 -0.388766 -0.612 100 113 155
0.32232 -0.388766 -0.612 199 197 210
0.32635 -0.389401 -0.613 198 201 220
0.33102 -0.389401 -0.613 197 204 212
0.348534 -0.389401 -0.613 192 194 215
0.391736 -0.389401 -0.613 179 184 203
0.39991 -0.389401 -0.613 180 181 201
0.413246 -0.388766 -0.612 106 117 139
0.443111 -0.389401 -0.613 154 156 169
0.457123 -0.389401 -0.613 109 127 177
0.466464 -0.389401 -0.613 111 128 182
0.480475 -0.389401 -0.613 160 157 166
0.488649 -0.389401 -0.613 78 102 138
0.496011 -0.388766 -0.612 92 114 161
0.498343 -0.388766 -0.612 86 109 153
0.491957 -0.371614 -0.585 129 105 101
0.445726 -0.327783 -0.516 162 116 100
0.4453 -0.324607 -0.511 169 122 104
0.44769 -0.32143 -0.506 177 126 105
0.476624 -0.320795 -0.505 161 118 99
0.991191 -0.372885 -0.587 206 209 192
0.99231 -0.372885 -0.587 207 210 193
0.0154695 -0.279706 -0.439 198 157 129
0.05764 -0.29436 -0.462 109 81 77
0.06664 -0.30328 -0.476 103 78 81
0.0678305 -0.304554 -0.478 103 78 81
0.0729676 -0.310926 -0.488 100 76 76
0.131143 -0.389931 -0.612 234 240 254
0.146297 -0.389931 -0.612 236 242 255
0.163783 -0.389931 -0.612 234 235 255
0.16728 -0.389931 -0.612 208 212 239
0.188263 -0.389931 -0.612 142 158 192
0.230229 -0.389931 -0.612 139 158 200
0.239554 -0.389931 -0.612 93 123 183
0.251211 -0.389931 -0.612 201 214 249
0.277569 -0.389294 -0.611 210 214 241
0.283388 -0.389294 -0.611 213 216 233
0.285017 -0.389931 -0.612 213 218 237
0.28968 -0.389931 -0.612 163 164 185
0.299494 -0.390569 -0.613 68 95 148
0.310663 -0.389931 -0.612 164 183 226
0.321154 -0.389931 -0.612 194 200 226
0.344469 -0.389931 -0.612 194 197 216
0.354372 -0.390569 -0.613 135 142 171
0.368985 -0.391206 -0.614 96 120 164
0.381771 -0.389931 -0.612 87 100 134
0.387066 -0.390569 -0.613 136 136 162
0.406915 -0.390569 -0.613 161 166 196
0.440057 -0.389931 -0.612 178 180 193
0.442389 -0.389931 -0.612 151 154 163
0.467631 -0.390569 -0.613 61 83 141
0.472302 -0.390569 -0.613 81 103 144
0.47814 -0.390569 -0.613 175 171 185
0.480475 -0.390569 -0.613 180 175 182
0.48552 -0.389931 -0.612 126 129 144
0.487851 -0.389931 -0.612 84 108 144
0.498343 -0.389931 -0.612 83 107 153
0.500674 -0.389931 -0.612 80 103 144
0.452925 -0.337049 -0.529 147 112 106
0.456581 -0.319846 -0.502 177 127 104
0.458534 -0.319209 -0.501 172 122 99
0.461397 -0.319209 -0.501 174 124 101
1.05201 -0.373366 -0.586 202 204 190
1.05313 -0.373366 -0.586 202 204 190
1.05982 -0.373366 -0.586 203 206 189
0.00299333 -0.286932 -0.449 200 158 133
0.0338657 -0.280542 -0.439 167 124 105
0.104 -0.357867 -0.56 188 197 226
0.156789 -0.391097 -0.612 227 233 255
0.164949 -0.391097 -0.612 228 233 255
0.169611 -0.391097 -0.612 194 205 235
0.173109 -0.391097 -0.612 151 167 201
0.174274 -0.391097 -0.612 146 162 196
0.306 -0.391097 -0.612 102 137 191
0.312994 -0.391097 -0.612 191 205 244
0.318302 -0.390458 -0.611 139 154 195
0.321793 -0.390458 -0.611 195 200 222
0.326983 -0.391097 -0.612 196 203 213
0.328149 -0.391097 -0.612 197 204 214
