ply
format ascii 1.0
comment Created by Open3D
element vertex 1293
property double x
property double y
property double z
property uchar red
property uchar green
property uchar blue
end_header
-0.107741 -0.324427 -0.632 184 184 184
0.0748971 -0.263853 -0.514 202 168 158
0.08614 -0.262313 -0.511 201 152 137
0.106094 -0.268473 -0.523 135 100 94
0.13114 -0.283873 -0.553 108 77 75
0.132671 -0.2849 -0.555 102 74 70
0.137311 -0.28798 -0.561 99 74 70
0.15288 -0.30184 -0.588 251 246 252
0.404066 -0.27258 -0.531 112 75 67
0.408184 -0.265393 -0.517 117 80 72
0.422913 -0.262313 -0.511 117 79 70
0.433123 -0.26026 -0.507 145 99 83
0.43516 -0.259747 -0.506 150 102 88
0.435262 -0.259233 -0.505 149 98 79
0.449888 -0.257693 -0.502 169 121 101
0.4584 -0.25872 -0.504 156 110 94
-0.136964 -0.32357 -0.628 85 83 94
0.0942943 -0.264317 -0.513 165 121 110
0.0966238 -0.265348 -0.515 158 116 104
0.102514 -0.267924 -0.52 142 104 95
0.112987 -0.274107 -0.532 115 84 81
0.127054 -0.282866 -0.549 108 76 77
0.129851 -0.284411 -0.552 108 78 76
0.4626 -0.3246 -0.63 113 129 178
0.407582 -0.272561 -0.529 108 77 72
0.419357 -0.265348 -0.515 119 81 70
0.431074 -0.261741 -0.508 133 90 74
0.44112 -0.25968 -0.504 168 120 98
0.454616 -0.259165 -0.503 168 117 98
0.4584 -0.25968 -0.504 158 111 93
-0.119889 -0.305631 -0.591 79 79 87
-0.118361 -0.304597 -0.589 77 77 85
-0.113525 -0.309769 -0.599 67 64 75
-0.106 -0.328903 -0.636 181 181 181
0.108913 -0.272534 -0.527 126 93 88
0.12428 -0.28236 -0.546 108 80 79
0.127054 -0.283911 -0.549 110 78 81
0.412334 -0.269431 -0.521 117 79 70
0.413327 -0.269431 -0.521 118 80 71
0.414706 -0.268397 -0.519 115 78 69
0.420986 -0.267363 -0.517 120 82 73
0.427642 -0.264777 -0.512 116 78 69
0.463157 -0.261157 -0.505 152 105 89
0.468811 -0.262709 -0.508 151 105 89
0.470704 -0.263226 -0.509 152 105 85
-0.132429 -0.320771 -0.618 79 79 89
-0.106874 -0.329076 -0.634 199 197 198
0.107705 -0.273019 -0.526 127 94 89
0.111763 -0.275614 -0.531 119 88 85
0.120272 -0.281324 -0.542 109 79 77
0.125779 -0.284438 -0.548 109 81 80
0.139367 -0.293262 -0.565 91 69 71
0.141437 -0.295338 -0.569 91 69 71
0.414486 -0.277171 -0.534 109 76 71
0.44112 -0.2616 -0.504 168 117 98
0.471673 -0.264195 -0.509 156 109 89
-0.130402 -0.319865 -0.614 78 78 88
-0.109103 -0.326116 -0.626 223 222 227
0.0733429 -0.265686 -0.51 202 168 158
0.124508 -0.284961 -0.547 110 81 83
0.424875 -0.272458 -0.523 111 77 68
0.44016 -0.26256 -0.504 169 118 99
0.452756 -0.261518 -0.502 170 122 102
0.454669 -0.261518 -0.502 162 115 97
0.45749 -0.262039 -0.503 159 112 94
0.46224 -0.26256 -0.504 157 110 94
0.464119 -0.263081 -0.505 156 109 93
-0.116906 -0.310054 -0.593 70 73 78
-0.105667 -0.331491 -0.634 206 206 206
0.0723714 -0.266657 -0.51 203 169 159
0.0759581 -0.265611 -0.508 200 164 152
0.0858029 -0.266134 -0.509 185 143 131
0.0879143 -0.266657 -0.51 182 134 122
0.422053 -0.27816 -0.532 111 78 73
0.43211 -0.269271 -0.515 120 83 74
0.434831 -0.266134 -0.509 145 97 83
0.437186 -0.264043 -0.505 159 108 89
0.438148 -0.264043 -0.505 164 113 94
0.46224 -0.26352 -0.504 159 111 91
-0.137836 -0.33165 -0.632 74 77 82
-0.112308 -0.32063 -0.611 178 177 185
0.0807962 -0.266579 -0.508 193 153 143
0.0869429 -0.267629 -0.51 184 137 127
0.12324 -0.28652 -0.546 112 83 87
0.1406 -0.299114 -0.57 96 74 76
0.228429 -0.341095 -0.65 228 227 233
0.233381 -0.341095 -0.65 248 253 249
0.433324 -0.276025 -0.526 108 73 67
0.434593 -0.268153 -0.511 138 94 81
0.435801 -0.267104 -0.509 144 98 83
0.438051 -0.26553 -0.506 161 110 91
0.444077 -0.263955 -0.503 169 118 97
0.445993 -0.263955 -0.503 171 120 99
0.46128 -0.26448 -0.504 159 111 91
-0.131889 -0.32706 -0.621 78 77 91
0.0827314 -0.267547 -0.508 189 149 141
0.0858029 -0.268073 -0.509 180 140 130
0.102909 -0.27492 -0.522 140 102 99
0.109327 -0.278607 -0.529 124 90 88
0.113411 -0.28124 -0.534 116 85 83
0.11631 -0.283347 -0.538 113 83 83
0.132326 -0.29388 -0.558 95 73 75
0.20459 -0.341807 -0.649 253 250 255
0.219424 -0.341807 -0.649 248 246 251
0.43261 -0.286507 -0.544 108 79 73
0.434772 -0.272287 -0.517 115 81 71
0.437951 -0.26702 -0.507 153 104 87
0.447019 -0.264387 -0.502 171 120 101
0.459407 -0.264913 -0.503 162 114 94
0.4632 -0.26544 -0.504 160 112 92
-0.119429 -0.317143 -0.6 79 79 91
-0.116 -0.317143 -0.6 75 74 88
0.0836991 -0.268514 -0.508 185 145 133
0.093499 -0.271686 -0.514 163 120 113
0.0958286 -0.272743 -0.516 153 112 106
0.104102 -0.276443 -0.523 138 100 99
0.115071 -0.283843 -0.537 116 86 86
0.120716 -0.287543 -0.544 112 83 85
0.121976 -0.288071 -0.545 111 82 84
0.124963 -0.290186 -0.549 108 82 83
0.132563 -0.295471 -0.559 100 73 80
0.205509 -0.342514 -0.648 253 252 255
0.226841 -0.343043 -0.649 218 220 235
0.481496 -0.343043 -0.649 87 101 162
0.438163 -0.278557 -0.527 106 73 68
0.436454 -0.274329 -0.519 116 79 71
0.449888 -0.265343 -0.502 173 118 97
0.4632 -0.2664 -0.504 161 114 96
0.470786 -0.267986 -0.507 161 112 95
-0.109238 -0.328895 -0.62 228 227 233
-0.102926 -0.335261 -0.632 56 57 62
0.0701524 -0.269482 -0.508 203 170 163
0.093499 -0.272665 -0.514 161 118 112
0.126468 -0.292292 -0.551 111 82 84
0.139759 -0.302902 -0.571 96 77 83
0.440071 -0.26789 -0.505 170 119 100
0.445107 -0.266299 -0.502 174 120 96
-0.136416 -0.335932 -0.631 86 89 96
0.0836991 -0.27045 -0.508 186 143 134
0.113836 -0.285356 -0.536 117 87 89
0.12519 -0.29281 -0.55 113 84 88
0.183009 -0.34445 -0.647 230 230 242
0.235494 -0.345515 -0.649 180 180 214
0.478524 -0.346048 -0.65 78 97 156
0.443511 -0.282694 -0.531 109 78 73
0.440659 -0.278968 -0.524 110 79 74
0.438124 -0.273644 -0.514 128 90 79
0.438249 -0.273111 -0.513 134 90 77
0.439015 -0.269385 -0.506 157 110 92
0.44016 -0.26832 -0.504 166 113 97
0.447019 -0.267255 -0.502 169 119 96
0.449888 -0.267255 -0.502 169 118 99
0.455625 -0.267255 -0.502 173 122 103
0.45945 -0.267255 -0.502 166 115 96
-0.108057 -0.331257 -0.62 142 141 149
0.235131 -0.346217 -0.648 178 182 219
0.476048 -0.347286 -0.65 84 102 166
0.480754 -0.346217 -0.648 80 100 159
0.44181 -0.279431 -0.523 107 78 74
0.439829 -0.275691 -0.516 125 88 80
0.439979 -0.270349 -0.506 162 111 94
0.454717 -0.267677 -0.501 172 121 102
0.460406 -0.268211 -0.502 168 117 96
0.471785 -0.270349 -0.506 165 114 93
0.487006 -0.275691 -0.516 145 98 80
-0.126748 -0.331902 -0.619 92 92 100
-0.101078 -0.336728 -0.628 60 59 65
0.09252 -0.275602 -0.514 160 117 111
0.182726 -0.346379 -0.646 226 231 250
0.213488 -0.346379 -0.646 187 194 223
0.223331 -0.346379 -0.646 188 195 237
0.231071 -0.346915 -0.647 162 171 210
0.239203 -0.347988 -0.649 240 247 255
0.445029 -0.283109 -0.528 103 77 76
0.440849 -0.271849 -0.507 160 109 92
0.458493 -0.269168 -0.502 173 122 101
-0.113843 -0.329852 -0.613 87 88 93
-0.1107 -0.330929 -0.615 82 82 90
-0.104851 -0.334695 -0.622 56 54 65
0.07536 -0.2712 -0.504 196 159 151
0.2021 -0.347071 -0.645 255 253 255
0.211929 -0.347071 -0.645 214 219 248
0.472333 -0.349762 -0.65 81 96 135
0.482477 -0.348148 -0.647 119 139 189
0.495416 -0.345995 -0.643 210 208 229
0.441061 -0.276581 -0.514 133 93 81
0.44304 -0.2712 -0.504 168 113 93
0.44415 -0.270124 -0.502 168 117 96
0.448991 -0.269586 -0.501 175 123 101
0.467071 -0.270662 -0.503 167 116 95
0.0647267 -0.27594 -0.511 200 167 162
0.06864 -0.27216 -0.504 201 166 160
0.0913629 -0.27702 -0.513 163 119 116
0.10092 -0.28188 -0.522 140 104 106
0.464905 -0.351 -0.65 164 161 170
0.466143 -0.351 -0.65 188 187 205
0.471607 -0.35046 -0.649 82 96 141
0.478286 -0.34992 -0.648 123 141 189
0.47878 -0.34938 -0.647 95 116 159
0.491575 -0.34884 -0.646 197 204 230
0.50184 -0.33048 -0.612 183 181 195
0.44252 -0.27972 -0.518 124 88 74
0.44278 -0.27378 -0.507 162 109 91
0.448991 -0.27054 -0.501 172 120 98
0.456626 -0.27054 -0.501 173 121 97
0.475614 -0.27378 -0.507 166 113 95
-0.119673 -0.335439 -0.619 104 103 111
0.0694619 -0.272578 -0.503 193 158 152
0.07344 -0.27312 -0.504 196 159 153
0.0764714 -0.273662 -0.505 191 152 145
0.1199 -0.295338 -0.545 115 88 97
0.20424 -0.348987 -0.644 255 249 255
0.21528 -0.348987 -0.644 186 198 224
0.459952 -0.352238 -0.65 182 179 198
0.475817 -0.351154 -0.648 152 169 212
0.498314 -0.347903 -0.642 202 207 227
0.442588 -0.27583 -0.509 149 100 85
0.44278 -0.274746 -0.507 160 107 89
0.44287 -0.274204 -0.506 160 107 89
0.446063 -0.272036 -0.502 168 117 96
-0.123017 -0.339337 -0.624 107 106 111
-0.117505 -0.337162 -0.62 107 108 113
0.0636286 -0.277343 -0.51 203 168 162
0.0795143 -0.275168 -0.506 184 143 137
0.0814419 -0.275168 -0.506 185 142 135
0.103697 -0.286044 -0.526 132 97 103
0.208822 -0.34967 -0.643 255 251 253
0.21617 -0.34967 -0.643 171 192 235
0.229129 -0.350757 -0.645 166 176 229
0.235636 -0.351301 -0.646 228 229 249
0.244148 -0.352932 -0.649 240 235 255
0.458009 -0.352932 -0.649 171 177 209
0.477548 -0.351845 -0.647 168 177 208
0.487884 -0.351301 -0.646 130 138 174
0.494036 -0.351301 -0.646 201 205 230
0.443881 -0.280062 -0.515 135 92 76
-0.123411 -0.341617 -0.626 114 113 118
-0.118073 -0.33998 -0.623 113 114 118
0.07042 -0.274494 -0.503 196 159 153
0.0962 -0.28268 -0.518 150 111 114
0.106505 -0.289229 -0.53 127 95 106
0.12012 -0.29796 -0.546 113 87 96
0.126329 -0.302871 -0.555 102 78 92
0.207597 -0.350894 -0.643 252 251 255
0.250329 -0.354169 -0.649 151 168 211
0.446333 -0.354714 -0.65 111 137 194
0.453064 -0.354169 -0.649 76 106 158
0.467177 -0.353623 -0.648 183 185 206
0.468411 -0.353623 -0.648 154 156 177
0.486653 -0.352531 -0.646 176 185 214
0.496957 -0.351986 -0.645 203 210 228
0.49909 -0.350894 -0.643 209 214 236
0.447788 -0.285409 -0.523 117 88 82
0.444111 -0.279951 -0.513 139 97 85
0.444221 -0.279406 -0.512 141 99 87
0.448991 -0.273403 -0.501 172 120 98
-0.115514 -0.340619 -0.622 113 112 117
0.0646714 -0.275452 -0.503 196 161 157
0.07028 -0.274905 -0.502 199 160 153
0.07632 -0.276 -0.504 188 147 141
0.0806371 -0.277643 -0.507 181 138 131
0.0846667 -0.27819 -0.508 173 128 122
0.0938629 -0.282571 -0.516 153 113 114
0.175753 -0.352119 -0.643 255 255 255
0.197491 -0.351571 -0.642 179 192 234
0.239698 -0.35431 -0.647 194 199 229
0.296524 -0.355952 -0.65 128 154 228
0.456069 -0.354857 -0.648 163 166 185
0.46224 -0.354857 -0.648 167 178 200
0.4859 -0.353214 -0.645 185 192 220
0.444798 -0.277095 -0.506 158 107 86
0.448931 -0.274905 -0.502 173 121 99
0.455714 -0.27381 -0.5 174 124 101
0.0614438 -0.279158 -0.508 202 167 163
0.065499 -0.275861 -0.502 196 163 156
0.0950295 -0.284104 -0.517 148 108 109
0.114898 -0.297292 -0.541 114 88 91
0.122048 -0.302238 -0.55 107 84 94
0.232814 -0.354443 -0.645 139 152 196
0.258982 -0.356641 -0.649 104 136 195
0.26681 -0.35719 -0.65 163 190 245
0.289887 -0.356641 -0.649 51 78 155
0.436429 -0.35719 -0.65 164 166 187
0.437667 -0.35719 -0.65 144 142 164
0.441938 -0.356641 -0.649 113 133 170
0.459062 -0.355542 -0.647 168 174 198
0.476071 -0.354443 -0.645 166 171 200
0.502765 -0.353344 -0.643 165 172 201
0.445956 -0.282455 -0.514 135 97 88
0.447019 -0.275861 -0.502 168 118 95
0.447975 -0.275861 -0.502 170 120 97
0.462381 -0.274762 -0.5 174 122 98
0.469011 -0.275861 -0.502 170 118 96
0.475662 -0.27751 -0.505 164 113 92
0.486156 -0.281356 -0.512 157 109 89
0.489034 -0.282455 -0.514 155 108 88
0.0752105 -0.277369 -0.503 185 146 139
0.181594 -0.354017 -0.642 189 197 233
0.187416 -0.353466 -0.641 158 179 224
0.193521 -0.353466 -0.641 164 184 234
0.198405 -0.353466 -0.641 184 193 232
0.208172 -0.353466 -0.641 167 175 211
0.211835 -0.353466 -0.641 156 166 202
0.219161 -0.353466 -0.641 137 153 204
0.221603 -0.353466 -0.641 138 152 201
0.256114 -0.357326 -0.648 86 125 190
0.267635 -0.357877 -0.649 200 206 238
0.29854 -0.357877 -0.649 184 203 243
0.299776 -0.357877 -0.649 184 203 243
0.432714 -0.358429 -0.65 167 174 203
0.492507 -0.35512 -0.644 117 124 150
0.499537 -0.354017 -0.642 193 198 220
0.516267 -0.352914 -0.64 183 187 214
0.45 -0.275714 -0.5 177 127 104
0.454803 -0.275163 -0.499 176 124 100
0.456704 -0.275163 -0.499 177 125 101
0.0672771 -0.27722 -0.501 196 162 153
0.119516 -0.303227 -0.548 111 87 87
0.127239 -0.309313 -0.559 99 78 87
0.135883 -0.31706 -0.573 91 78 88
0.137691 -0.31872 -0.576 96 89 122
0.210286 -0.354133 -0.64 185 196 228
0.2176 -0.354133 -0.64 135 149 194
0.235271 -0.3569 -0.645 221 225 252
0.273816 -0.359113 -0.649 205 211 237
0.297304 -0.359113 -0.649 142 169 214
0.29854 -0.359113 -0.649 163 190 235
0.317571 -0.359667 -0.65 90 121 185
0.320791 -0.359113 -0.649 54 98 159
0.421571 -0.359667 -0.65 145 158 193
0.451668 -0.358007 -0.647 73 95 145
0.459583 -0.357453 -0.646 166 171 203
0.466243 -0.3569 -0.645 134 142 179
0.475333 -0.356347 -0.644 185 189 216
0.47656 -0.356347 -0.644 173 177 204
0.481467 -0.356347 -0.644 189 195 221
0.48392 -0.356347 -0.644 191 197 223
0.4876 -0.356347 -0.644 190 196 222
0.490053 -0.356347 -0.644 174 181 207
0.492507 -0.356347 -0.644 127 134 160
0.447914 -0.284413 -0.514 138 100 89
0.456704 -0.276113 -0.499 176 124 100
0.459555 -0.276113 -0.499 176 125 98
0.0595086 -0.282061 -0.508 205 172 165
0.0690476 -0.277619 -0.5 191 156 150
0.07824 -0.27984 -0.504 180 139 133
0.0793571 -0.280395 -0.505 179 138 132
0.125723 -0.309268 -0.557 99 78 85
0.142557 -0.325925 -0.587 150 158 207
0.198095 -0.355352 -0.64 194 203 246
0.2365 -0.358129 -0.645 232 233 253
0.27216 -0.359794 -0.648 205 211 227
0.334905 -0.360905 -0.65 180 193 212
0.420923 -0.36035 -0.649 160 167 196
0.4522 -0.358684 -0.646 87 108 155
0.461329 -0.358129 -0.645 96 101 133
0.470427 -0.357573 -0.644 177 182 204
0.525197 -0.354797 -0.639 212 209 226
0.447767 -0.280395 -0.505 168 117 98
0.0953971 -0.289157 -0.519 139 103 105
0.115535 -0.303086 -0.544 113 88 91
0.117 -0.3042 -0.546 111 86 89
0.12144 -0.307543 -0.552 107 85 88
0.184974 -0.357129 -0.641 158 176 216
0.212391 -0.356014 -0.639 205 214 255
0.220038 -0.356571 -0.64 141 157 209
0.247557 -0.359357 -0.645 138 157 190
0.278331 -0.361029 -0.648 144 160 193
0.29269 -0.360471 -0.647 57 91 163
0.300085 -0.360471 -0.647 143 155 195
0.321531 -0.361029 -0.648 104 137 188
0.329445 -0.361586 -0.649 142 168 219
0.351 -0.362143 -0.65 156 179 223
0.360905 -0.362143 -0.65 117 136 176
0.379476 -0.362143 -0.65 155 159 188
0.381952 -0.362143 -0.65 97 106 147
0.390619 -0.362143 -0.65 105 125 176
0.393095 -0.362143 -0.65 161 166 188
0.412905 -0.362143 -0.65 167 174 203
0.441126 -0.359914 -0.646 108 119 149
0.446048 -0.359914 -0.646 95 119 179
0.450271 -0.359357 -0.645 74 97 151
0.486843 -0.358243 -0.643 196 199 218
0.488068 -0.358243 -0.643 193 198 217
0.491742 -0.358243 -0.643 188 191 210
0.51261 -0.356571 -0.64 117 137 188
0.519924 -0.356571 -0.64 162 175 210
0.458605 -0.278014 -0.499 177 127 102
0.485247 -0.283586 -0.509 161 115 92
0.0615514 -0.280083 -0.501 203 170 163
0.0689095 -0.278965 -0.499 189 154 152
0.0871133 -0.285673 -0.511 160 118 120
0.091719 -0.28791 -0.515 149 108 112
0.13122 -0.31698 -0.567 99 75 89
0.184686 -0.35779 -0.64 175 190 229
0.202654 -0.357231 -0.639 241 246 249
0.212391 -0.357231 -0.639 198 205 247
0.2176 -0.35779 -0.64 138 150 202
0.229643 -0.359468 -0.643 172 184 236
0.282831 -0.361704 -0.647 80 105 159
0.30255 -0.361704 -0.647 186 191 211
0.308711 -0.361704 -0.647 189 196 215
0.312891 -0.362263 -0.648 155 163 199
0.367767 -0.362822 -0.649 111 119 156
0.375184 -0.362822 -0.649 176 183 209
0.393727 -0.362822 -0.649 177 182 204
0.404852 -0.362822 -0.649 127 139 177
0.429485 -0.361704 -0.647 119 128 159
0.4508 -0.360027 -0.644 109 131 180
0.45448 -0.360027 -0.644 155 168 203
0.488531 -0.358909 -0.642 200 203 222
0.500419 -0.35779 -0.64 155 164 203
0.501638 -0.35779 -0.64 150 168 216
0.520329 -0.357231 -0.639 170 176 208
0.52559 -0.356672 -0.638 210 208 221
0.528407 -0.356113 -0.637 212 212 224
0.458605 -0.278965 -0.499 175 127 104
0.473792 -0.280642 -0.502 168 120 97
0.481423 -0.282878 -0.506 162 116 93
0.0614286 -0.280476 -0.5 201 168 161
0.0882591 -0.287208 -0.512 156 114 116
0.0979371 -0.292817 -0.522 133 98 102
0.104683 -0.297866 -0.531 121 92 96
0.11596 -0.30628 -0.546 112 87 91
0.154043 -0.344986 -0.615 148 160 210
0.16831 -0.357888 -0.638 230 233 250
0.187124 -0.35901 -0.64 156 168 216
0.20874 -0.358449 -0.639 235 240 246
0.211174 -0.358449 -0.639 204 212 235
0.222476 -0.35901 -0.64 153 172 215
0.22684 -0.360131 -0.642 135 150 205
0.230868 -0.360692 -0.643 149 159 210
0.234542 -0.360692 -0.643 224 230 255
0.247173 -0.361253 -0.644 135 161 194
0.259843 -0.361814 -0.645 120 152 201
0.281164 -0.362375 -0.646 90 113 163
0.3235 -0.362936 -0.647 104 135 192
0.352932 -0.364058 -0.649 122 135 167
0.359794 -0.363497 -0.648 168 176 212
0.370903 -0.363497 -0.648 136 146 181
0.415337 -0.363497 -0.648 165 175 202
0.442213 -0.361253 -0.644 73 94 147
0.44712 -0.361253 -0.644 74 105 169
0.461123 -0.360692 -0.643 125 132 161
0.472634 -0.360131 -0.642 182 185 204
0.491433 -0.35957 -0.641 184 186 209
0.492654 -0.35957 -0.641 184 186 209
0.4992 -0.35901 -0.64 110 118 165
0.51261 -0.35901 -0.64 96 118 168
0.513026 -0.358449 -0.639 95 116 171
0.524375 -0.357888 -0.638 209 206 213
0.454803 -0.279915 -0.499 180 128 106
0.459555 -0.279915 -0.499 175 125 102
0.0604762 -0.281429 -0.5 202 168 159
0.0689095 -0.280866 -0.499 191 156 150
0.0749114 -0.281991 -0.501 184 141 135
0.0882591 -0.288183 -0.512 153 113 114
0.103476 -0.298314 -0.53 121 92 97
0.118905 -0.309571 -0.55 111 86 92
0.137543 -0.326457 -0.58 126 119 150
0.201122 -0.359103 -0.638 242 246 255
0.218477 -0.359666 -0.639 151 168 211
0.232092 -0.361917 -0.643 152 164 204
0.2623 -0.363043 -0.645 126 152 203
0.2709 -0.363043 -0.645 199 206 222
0.313641 -0.364169 -0.647 145 149 187
0.322268 -0.364169 -0.647 117 140 192
0.32843 -0.364169 -0.647 156 178 217
0.378309 -0.364731 -0.648 157 163 199
0.395589 -0.364731 -0.648 125 126 154
0.439214 -0.363043 -0.645 131 148 194
0.459183 -0.361354 -0.642 117 130 164
0.470677 -0.360791 -0.641 174 176 199
0.495543 -0.360229 -0.64 185 192 211
0.52073 -0.359103 -0.638 209 216 242
0.531586 -0.357414 -0.635 196 199 214
0.462138 -0.301129 -0.535 118 98 91
0.450257 -0.287057 -0.51 161 112 95
0.449617 -0.284806 -0.506 167 119 96
0.455753 -0.280866 -0.499 180 130 107
0.460506 -0.280866 -0.499 173 123 100
0.47952 -0.28368 -0.504 161 115 91
0.0749114 -0.282946 -0.501 185 142 136
0.0894086 -0.289723 -0.513 151 110 114
0.173443 -0.360883 -0.639 248 252 255
0.18318 -0.360883 -0.639 180 199 242
0.186831 -0.360883 -0.639 166 179 224
0.192615 -0.360318 -0.638 177 195 241
0.234177 -0.362577 -0.642 201 208 237
0.238216 -0.363142 -0.643 220 226 252
0.282747 -0.363707 -0.644 167 187 224
0.313156 -0.364836 -0.646 147 151 186
0.32423 -0.364836 -0.646 86 112 161
0.327922 -0.364836 -0.646 158 178 215
0.334074 -0.364836 -0.646 173 180 209
0.337056 -0.365401 -0.647 116 125 156
0.340753 -0.365401 -0.647 123 134 166
0.34938 -0.365401 -0.647 173 177 206
0.35431 -0.365401 -0.647 173 177 206
0.374028 -0.365401 -0.647 159 169 204
0.431843 -0.364271 -0.645 158 162 191
0.450623 -0.362577 -0.642 85 109 171
0.491886 -0.361448 -0.64 189 194 214
0.49842 -0.360883 -0.639 96 112 164
0.503289 -0.360883 -0.639 107 128 185
0.505723 -0.360883 -0.639 86 104 166
0.458634 -0.281251 -0.498 173 123 100
0.204768 -0.361533 -0.638 237 241 250
0.21449 -0.361533 -0.638 164 173 212
0.219694 -0.3621 -0.639 179 192 227
0.237846 -0.3638 -0.642 220 225 254
0.275814 -0.3655 -0.645 113 124 156
0.293787 -0.364933 -0.644 160 170 205
0.29624 -0.364933 -0.644 174 186 224
0.297467 -0.364933 -0.644 174 186 224
0.330383 -0.366067 -0.646 183 193 218
0.331613 -0.366067 -0.646 183 193 218
0.339521 -0.366633 -0.647 90 98 135
0.372795 -0.366633 -0.647 79 91 131
0.439077 -0.364367 -0.643 81 103 161
0.444509 -0.3638 -0.642 34 69 137
0.446954 -0.3638 -0.642 20 54 115
0.48701 -0.362667 -0.64 148 148 158
0.489448 -0.362667 -0.64 198 198 206
0.526366 -0.3604 -0.636 208 208 220
0.469049 -0.3077 -0.543 116 95 90
0.452113 -0.289567 -0.511 161 113 93
0.458634 -0.2822 -0.498 172 121 100
0.0659257 -0.283149 -0.498 196 159 151
0.0749114 -0.284854 -0.501 180 139 133
0.0760171 -0.285423 -0.502 179 138 134
0.0996895 -0.299069 -0.526 128 97 102
0.101074 -0.300206 -0.528 126 95 100
0.10649 -0.304186 -0.535 117 90 97
0.166833 -0.36218 -0.637 211 219 255
0.187754 -0.362749 -0.638 182 195 230
0.19474 -0.36218 -0.637 188 201 233
0.204768 -0.362749 -0.638 236 243 253
0.213274 -0.362749 -0.638 198 204 238
0.219694 -0.363317 -0.639 191 202 232
0.224914 -0.363886 -0.64 209 216 245
0.23137 -0.364454 -0.641 135 148 183
0.239917 -0.364454 -0.641 212 222 249
0.251689 -0.365591 -0.643 163 180 223
0.258213 -0.36616 -0.644 137 158 203
0.27784 -0.36616 -0.644 187 198 228
0.30728 -0.36616 -0.644 177 190 222
0.329871 -0.366729 -0.645 180 187 216
0.351301 -0.367297 -0.646 174 178 203
0.354443 -0.366729 -0.645 174 180 202
0.369758 -0.367297 -0.646 133 144 174
0.378371 -0.367297 -0.646 129 141 179
0.430504 -0.365591 -0.643 128 128 138
0.466286 -0.363886 -0.64 171 170 184
0.496425 -0.362749 -0.638 116 125 164
0.513847 -0.36218 -0.637 147 166 208
0.523943 -0.361611 -0.636 162 164 179
0.530749 -0.360474 -0.634 209 208 226
0.451471 -0.288266 -0.507 175 124 105
0.46811 -0.283717 -0.499 172 121 102
0.0687714 -0.284097 -0.498 190 149 143
0.0771267 -0.28695 -0.503 170 129 125
0.101266 -0.301782 -0.529 125 96 101
0.143849 -0.340574 -0.597 183 198 239
0.173171 -0.363964 -0.638 248 248 255
0.174113 -0.363393 -0.637 249 249 255
0.182607 -0.363393 -0.637 185 201 237
0.203233 -0.363393 -0.637 240 242 255
0.212059 -0.363964 -0.638 194 201 230
0.223695 -0.365105 -0.64 217 223 249
0.24396 -0.366246 -0.642 210 212 237
0.263936 -0.366816 -0.643 194 205 235
0.271285 -0.366816 -0.643 115 126 158
0.289206 -0.366246 -0.642 182 199 217
0.3036 -0.367387 -0.644 83 96 141
0.345149 -0.368528 -0.646 176 183 199
0.363043 -0.367957 -0.645 173 181 204
0.389446 -0.368528 -0.646 98 124 183
0.3999 -0.367957 -0.645 167 173 197
0.404814 -0.367957 -0.645 176 179 194
0.437711 -0.365675 -0.641 40 69 135
0.479411 -0.363964 -0.638 176 175 191
0.480627 -0.363964 -0.638 181 180 196
0.487918 -0.363964 -0.638 197 194 203
0.499287 -0.363393 -0.637 146 160 205
0.516273 -0.363393 -0.637 200 209 238
0.532686 -0.360541 -0.632 207 206 224
0.452902 -0.284668 -0.499 175 124 105
0.464326 -0.284097 -0.498 170 119 100
0.46906 -0.284668 -0.499 169 120 103
0.47001 -0.284668 -0.499 169 120 103
0.47762 -0.285809 -0.501 163 116 98
0.479529 -0.286379 -0.502 167 118 101
0.05424 -0.28848 -0.504 205 176 162
0.0591667 -0.284473 -0.497 202 166 154
0.07824 -0.28848 -0.504 169 128 126
0.08614 -0.292487 -0.511 155 110 115
0.101266 -0.30279 -0.529 124 95 100
0.109543 -0.309086 -0.54 113 88 91
0.208087 -0.364607 -0.637 187 190 223
0.21935 -0.365179 -0.638 190 200 227
0.226133 -0.366324 -0.64 227 228 255
0.248851 -0.367469 -0.642 128 154 189
0.25252 -0.367469 -0.642 150 168 214
0.258634 -0.367469 -0.642 118 137 180
0.326907 -0.368613 -0.644 161 179 227
0.33672 -0.368613 -0.644 164 170 204
0.3655 -0.369186 -0.645 170 177 196
0.417606 -0.367469 -0.642 121 131 158
0.439467 -0.366324 -0.64 72 102 162
0.444866 -0.365751 -0.639 32 66 129
0.450951 -0.365751 -0.639 45 73 136
0.46434 -0.365751 -0.639 140 139 153
0.472593 -0.364607 -0.637 156 161 181
0.509406 -0.364034 -0.636 125 153 200
0.52471 -0.36289 -0.634 203 205 220
0.527126 -0.36289 -0.634 211 210 228
0.457214 -0.297066 -0.519 143 107 91
0.458634 -0.285046 -0.498 177 126 107
0.475714 -0.28619 -0.5 167 119 99
0.0533857 -0.290014 -0.505 207 170 161
0.05822 -0.28542 -0.497 202 166 154
0.0676867 -0.28542 -0.497 193 150 143
0.0827314 -0.291737 -0.508 157 117 117
0.133766 -0.331937 -0.578 98 89 106
0.17384 -0.365246 -0.636 244 246 255
0.18232 -0.365246 -0.636 184 200 234
0.214153 -0.36582 -0.637 222 228 250
0.218135 -0.366394 -0.638 219 226 252
0.267999 -0.368117 -0.641 121 131 166
0.306803 -0.369266 -0.643 124 133 176
0.309252 -0.369266 -0.643 180 185 225
0.315376 -0.369266 -0.643 68 93 149
0.330073 -0.369266 -0.643 132 146 191
0.371067 -0.36984 -0.644 159 163 190
0.378427 -0.36984 -0.644 44 69 126
0.387013 -0.36984 -0.644 37 64 133
0.410908 -0.369266 -0.643 132 134 157
0.457037 -0.366969 -0.639 53 68 111
0.467259 -0.366394 -0.638 157 157 165
0.476233 -0.36582 -0.637 185 185 209
0.477447 -0.36582 -0.637 180 180 204
0.479873 -0.36582 -0.637 183 184 202
0.487153 -0.36582 -0.637 197 195 206
0.492007 -0.36582 -0.637 124 129 167
0.507395 -0.364671 -0.635 124 148 192
0.518281 -0.364671 -0.635 159 161 182
0.521088 -0.364097 -0.634 146 153 172
0.529911 -0.363523 -0.633 209 208 226
0.467086 -0.307817 -0.536 124 104 97
0.459742 -0.300351 -0.523 138 108 97
0.45264 -0.28944 -0.504 175 124 105
0.45381 -0.287143 -0.5 176 125 106
0.473812 -0.286569 -0.499 169 121 99
0.0537019 -0.287519 -0.499 209 173 161
0.0563267 -0.286367 -0.497 205 169 157
0.0609371 -0.28579 -0.496 193 155 144
0.06674 -0.286367 -0.497 191 148 141
0.0738095 -0.288095 -0.5 176 133 127
0.0793571 -0.290976 -0.505 163 122 120
0.120418 -0.320938 -0.557 101 80 87
0.121915 -0.32209 -0.559 94 73 80
0.125154 -0.324971 -0.564 99 79 88
0.177474 -0.366457 -0.636 242 248 255
0.217793 -0.367033 -0.637 222 228 254
0.221781 -0.36761 -0.638 220 225 247
0.278988 -0.369338 -0.641 191 197 213
0.297302 -0.369338 -0.641 184 190 214
0.305103 -0.369914 -0.642 89 101 143
0.309252 -0.37049 -0.643 167 174 216
0.31244 -0.369914 -0.642 118 136 184
0.3404 -0.371067 -0.644 176 181 203
0.342853 -0.371067 -0.644 126 129 146
0.354569 -0.37049 -0.643 147 157 184
0.390087 -0.37049 -0.643 41 66 130
0.397435 -0.37049 -0.643 168 170 185
0.40111 -0.37049 -0.643 178 178 190
0.4224 -0.368762 -0.64 146 148 160
0.433371 -0.368762 -0.64 66 81 122
0.439997 -0.368186 -0.639 70 104 168
0.44903 -0.36761 -0.638 100 120 170
0.476697 -0.366457 -0.636 183 183 207
0.50456 -0.366457 -0.636 127 146 189
0.5275 -0.364729 -0.633 210 209 225
0.52202 -0.349748 -0.607 107 91 91
0.453403 -0.292129 -0.507 169 123 100
0.45381 -0.288095 -0.5 172 124 104
0.455753 -0.287519 -0.499 180 129 110
0.470017 -0.286943 -0.498 173 122 101
0.6061 -0.3509 -0.609 202 206 209
0.0589286 -0.286157 -0.495 197 159 148
0.06674 -0.287313 -0.497 188 148 140
0.0676867 -0.287313 -0.497 189 146 139
0.0760171 -0.290204 -0.502 171 130 128
0.114506 -0.317374 -0.549 108 85 91
0.120634 -0.322577 -0.558 100 79 84
0.16389 -0.36709 -0.635 222 228 252
0.170206 -0.367669 -0.636 227 230 247
0.178405 -0.36709 -0.635 218 224 240
0.179614 -0.36709 -0.635 200 205 235
0.240386 -0.369403 -0.639 199 208 237
0.241603 -0.369403 -0.639 208 217 246
0.252952 -0.369981 -0.64 125 153 201
0.257829 -0.369981 -0.64 138 159 212
0.260267 -0.369981 -0.64 169 183 222
0.302186 -0.370559 -0.641 180 186 212
0.321721 -0.370559 -0.641 45 76 141
0.35524 -0.371137 -0.642 126 136 161
0.361354 -0.371137 -0.642 169 174 193
0.364367 -0.371715 -0.643 168 172 197
0.384589 -0.371137 -0.642 66 91 158
0.39804 -0.371137 -0.642 168 167 201
0.411429 -0.369981 -0.64 121 127 153
0.458033 -0.368247 -0.637 56 74 114
0.47912 -0.367669 -0.636 189 186 207
0.488811 -0.367669 -0.636 101 108 124
0.490023 -0.367669 -0.636 101 108 124
0.510219 -0.366512 -0.634 154 174 209
0.513842 -0.366512 -0.634 204 207 226
0.5334 -0.3642 -0.63 143 149 175
0.5346 -0.3642 -0.63 117 123 149
0.458307 -0.299453 -0.518 149 109 97
0.458634 -0.287891 -0.498 180 127 109
0.0570429 -0.2871 -0.495 199 161 148
0.0617571 -0.2871 -0.495 194 154 144
0.0647162 -0.28768 -0.496 192 152 144
0.0728571 -0.29 -0.5 174 129 124
0.0749114 -0.29058 -0.501 172 128 125
0.105866 -0.31146 -0.537 111 89 92
0.131109 -0.33408 -0.576 105 86 90
0.172357 -0.3683 -0.635 245 249 255
0.196548 -0.3683 -0.635 227 234 253
0.231503 -0.37004 -0.638 214 218 243
0.235149 -0.37004 -0.638 142 157 186
0.244037 -0.37062 -0.639 189 200 232
0.26838 -0.37062 -0.639 176 185 214
0.287854 -0.37062 -0.639 183 189 213
0.300965 -0.37178 -0.641 182 187 207
0.321721 -0.37178 -0.641 30 61 128
0.322942 -0.37178 -0.641 43 74 141
0.326605 -0.37178 -0.641 51 81 141
0.362577 -0.37236 -0.642 173 178 198
0.368691 -0.37236 -0.642 104 106 119
0.376029 -0.37236 -0.642 54 85 142
0.401083 -0.37178 -0.641 168 173 193
0.40963 -0.37178 -0.641 174 171 190
0.414437 -0.37062 -0.639 167 172 194
0.420523 -0.37062 -0.639 142 143 163
0.43026 -0.37062 -0.639 51 66 105
0.452469 -0.36888 -0.636 157 167 194
0.456103 -0.36888 -0.636 91 105 142
0.457314 -0.36888 -0.636 63 77 114
0.49409 -0.3683 -0.635 186 191 220
0.51062 -0.36714 -0.633 158 169 201
0.519444 -0.36656 -0.632 187 189 204
0.470727 -0.31262 -0.539 128 103 98
0.4625 -0.3045 -0.525 142 107 101
0.453538 -0.2929 -0.505 171 124 104
0.469073 -0.28826 -0.497 173 122 103
0.485275 -0.29174 -0.503 161 114 94
0.065661 -0.288625 -0.496 186 146 138
0.0827314 -0.295608 -0.508 153 114 119
0.0863086 -0.297935 -0.512 144 105 110
0.10324 -0.310737 -0.534 116 91 95
0.179614 -0.36951 -0.635 201 208 237
0.2275 -0.370673 -0.637 217 221 246
0.247301 -0.371255 -0.638 102 124 171
0.259453 -0.371255 -0.638 144 165 220
0.291506 -0.371837 -0.639 184 191 217
0.300495 -0.372419 -0.64 186 191 213
0.328533 -0.372419 -0.64 57 88 152
0.330268 -0.373001 -0.641 120 137 180
0.331489 -0.373001 -0.641 156 173 216
0.336372 -0.373001 -0.641 178 181 198
0.364454 -0.373001 -0.641 173 178 200
0.379106 -0.373001 -0.641 75 106 160
0.394978 -0.373001 -0.641 70 85 128
0.432017 -0.371255 -0.638 137 151 178
0.471575 -0.368928 -0.634 140 147 166
0.508209 -0.368346 -0.633 146 162 198
0.51062 -0.368346 -0.633 145 158 193
0.465895 -0.30841 -0.53 136 107 101
0.459293 -0.301427 -0.518 149 112 103
0.454669 -0.292116 -0.502 173 126 106
0.463393 -0.289207 -0.497 173 123 100
0.0627 -0.288986 -0.495 188 148 138
0.0676867 -0.290153 -0.497 185 142 135
0.0761686 -0.293656 -0.503 165 123 124
0.0783952 -0.294824 -0.505 160 118 120
0.0840286 -0.297743 -0.51 149 108 114
0.107685 -0.315841 -0.541 108 86 88
0.131791 -0.338026 -0.579 111 95 98
0.140437 -0.348534 -0.597 249 249 255
0.14276 -0.351453 -0.602 244 244 255
0.16631 -0.370719 -0.635 219 221 233
0.178124 -0.370135 -0.634 220 228 241
0.182954 -0.370135 -0.634 177 187 223
0.197446 -0.370135 -0.634 186 194 215
0.207107 -0.370135 -0.634 228 233 252
0.208314 -0.370135 -0.634 228 233 252
0.21469 -0.370719 -0.635 218 223 242
0.219529 -0.370719 -0.635 218 223 245
0.225931 -0.371303 -0.636 217 222 242
0.376664 -0.374222 -0.641 118 136 176
0.412573 -0.37247 -0.638 168 170 191
0.428913 -0.371887 -0.637 91 104 138
0.442777 -0.371303 -0.636 101 127 176
0.452469 -0.371303 -0.636 164 167 184
0.507003 -0.369551 -0.633 150 167 197
0.516218 -0.368384 -0.631 196 203 211
0.459391 -0.30183 -0.517 151 113 102
0.457705 -0.300078 -0.514 154 116 105
0.4545 -0.294824 -0.505 168 123 102
0.454762 -0.291905 -0.5 173 127 104
0.454803 -0.291321 -0.499 173 127 104
0.477606 -0.290737 -0.498 168 120 98
0.492025 -0.295408 -0.506 156 117 100
0.0569276 -0.289343 -0.494 198 162 148
0.106457 -0.316286 -0.54 109 87 89
0.160709 -0.370171 -0.632 247 250 255
0.195929 -0.370757 -0.633 204 211 237
0.19834 -0.370757 -0.633 176 183 212
0.231989 -0.372514 -0.636 209 214 234
0.244487 -0.3731 -0.637 126 144 194
0.254193 -0.3731 -0.637 51 84 151
0.266327 -0.3731 -0.637 182 194 218
0.273607 -0.3731 -0.637 183 189 211
0.29591 -0.373686 -0.638 177 184 203
0.317066 -0.374271 -0.639 36 69 140
0.318283 -0.374271 -0.639 39 72 141
0.325586 -0.374271 -0.639 68 97 155
0.32802 -0.374271 -0.639 76 105 163
0.347494 -0.374271 -0.639 116 118 139
0.372419 -0.374857 -0.64 167 176 209
0.374857 -0.374857 -0.64 135 148 183
0.377295 -0.374857 -0.64 137 159 209
0.411358 -0.373686 -0.638 133 138 158
0.500183 -0.370171 -0.632 102 121 161
0.5202 -0.369 -0.63 203 204 222
0.5286 -0.369 -0.63 150 163 195
0.5298 -0.369 -0.63 144 157 189
0.46028 -0.3034 -0.518 151 113 102
0.456737 -0.291686 -0.498 176 129 103
0.460553 -0.2911 -0.497 178 128 103
0.0577514 -0.289696 -0.493 198 160 147
0.0676867 -0.292047 -0.497 182 137 131
0.0876248 -0.302036 -0.514 136 104 107
0.108083 -0.319077 -0.543 107 87 89
0.112414 -0.322603 -0.549 107 85 88
0.12869 -0.337881 -0.575 102 86 89
0.174226 -0.371963 -0.633 226 231 255
0.18146 -0.371963 -0.633 152 165 207
0.194723 -0.371963 -0.633 195 204 243
0.200751 -0.371963 -0.633 224 230 255
0.240469 -0.373726 -0.636 78 96 136
0.27482 -0.374313 -0.637 181 183 206
0.304894 -0.375489 -0.639 84 93 126
0.330454 -0.375489 -0.639 51 68 114
0.342626 -0.375489 -0.639 171 182 202
0.348711 -0.375489 -0.639 152 157 179
0.354797 -0.375489 -0.639 173 178 200
0.375489 -0.375489 -0.639 139 150 182
0.377923 -0.375489 -0.639 111 129 177
0.415471 -0.373138 -0.635 170 169 187
0.426357 -0.373138 -0.635 108 120 144
0.433614 -0.373138 -0.635 160 166 188
0.438452 -0.373138 -0.635 96 118 165
0.448129 -0.373138 -0.635 108 128 178
0.472037 -0.371963 -0.633 71 88 131
0.500183 -0.371375 -0.632 105 124 166
0.506603 -0.370788 -0.631 129 151 190
0.515016 -0.370788 -0.631 208 208 218
0.5214 -0.3702 -0.63 206 209 226
0.52177 -0.369612 -0.629 170 184 213
0.526563 -0.369612 -0.629 97 111 148
0.528959 -0.369612 -0.629 139 153 190
0.473657 -0.317314 -0.54 137 108 100
0.47117 -0.314964 -0.536 140 111 103
0.456232 -0.29851 -0.508 161 118 101
0.45866 -0.292047 -0.497 175 128 100
0.4757 -0.292047 -0.497 171 119 97
0.0504429 -0.291814 -0.495 200 167 150
0.06674 -0.292993 -0.497 184 141 135
0.09028 -0.305373 -0.518 129 100 102
0.108282 -0.320701 -0.544 107 88 90
0.172747 -0.372579 -0.632 173 177 212
0.204046 -0.372579 -0.632 226 232 255
0.207657 -0.372579 -0.632 224 227 246
0.217631 -0.373169 -0.633 186 191 210
0.240469 -0.374937 -0.636 94 112 152
0.248949 -0.374937 -0.636 45 79 151
0.265909 -0.374937 -0.636 184 190 224
0.270754 -0.374937 -0.636 187 195 216
0.2756 -0.374937 -0.636 180 182 205
0.309278 -0.376116 -0.638 104 125 170
0.338444 -0.376116 -0.638 175 179 204
0.339659 -0.376116 -0.638 174 178 203
0.376116 -0.376116 -0.638 129 146 189
0.382791 -0.376706 -0.639 101 123 172
0.388873 -0.375527 -0.637 168 171 186
0.409424 -0.374348 -0.635 68 84 120
0.421519 -0.374348 -0.635 132 136 161
0.455876 -0.373758 -0.634 155 154 170
0.459499 -0.373758 -0.634 161 166 185
0.468884 -0.372579 -0.632 144 155 185
0.482126 -0.372579 -0.632 62 73 118
0.495786 -0.37199 -0.631 191 192 210
0.53051 -0.370221 -0.628 192 203 233
0.532903 -0.370221 -0.628 131 147 183
0.4563 -0.298889 -0.507 165 119 103
0.458634 -0.293583 -0.498 173 126 96
0.0828943 -0.301037 -0.509 141 106 110
0.122364 -0.334749 -0.566 94 71 77
0.17007 -0.373191 -0.631 226 228 249
0.17997 -0.373783 -0.632 145 158 200
0.200434 -0.373783 -0.632 223 229 253
0.210065 -0.373783 -0.632 200 205 227
0.226071 -0.374374 -0.633 210 213 230
0.232467 -0.374966 -0.634 200 208 229
0.250976 -0.375557 -0.635 49 83 155
0.271966 -0.376149 -0.636 190 195 217
0.277586 -0.375557 -0.635 182 186 211
0.316073 -0.37674 -0.637 58 96 159
0.317287 -0.37674 -0.637 63 99 161
0.320927 -0.37674 -0.637 130 158 208
0.32578 -0.37674 -0.637 178 183 213
0.376116 -0.377331 -0.638 121 137 173
0.377331 -0.377331 -0.638 119 135 171
0.379762 -0.377331 -0.638 122 140 188
0.382192 -0.377331 -0.638 106 128 175
0.383408 -0.377331 -0.638 112 130 166
0.396743 -0.376149 -0.636 87 96 129
0.402167 -0.375557 -0.635 171 167 192
0.420855 -0.374966 -0.634 104 109 138
0.42327 -0.374966 -0.634 155 160 189
0.450334 -0.374374 -0.633 164 169 188
0.455157 -0.374374 -0.633 153 152 166
0.464069 -0.373783 -0.632 59 76 119
0.528118 -0.371417 -0.628 177 188 220
0.529314 -0.371417 -0.628 188 198 225
0.534783 -0.370234 -0.626 171 180 211
0.46624 -0.293349 -0.496 170 120 97
0.468129 -0.292757 -0.495 172 122 99
0.475688 -0.293349 -0.496 167 119 97
0.476632 -0.293349 -0.496 167 119 97
0.484268 -0.295123 -0.499 155 112 93
0.0806371 -0.30082 -0.507 143 109 110
0.0984286 -0.314467 -0.53 118 93 97
0.1147 -0.3293 -0.555 106 86 88
0.143946 -0.360153 -0.607 243 246 253
0.181173 -0.374987 -0.632 133 145 193
0.222454 -0.37558 -0.633 179 181 202
0.226071 -0.37558 -0.633 213 214 235
0.242128 -0.376173 -0.634 88 106 152
0.269119 -0.376767 -0.635 196 197 218
0.277586 -0.376767 -0.635 194 196 211
0.288471 -0.376767 -0.635 190 190 214
0.289681 -0.376767 -0.635 178 185 204
0.2921 -0.376767 -0.635 176 187 207
0.337383 -0.37736 -0.636 172 176 201
0.349497 -0.37736 -0.636 164 169 191
0.367033 -0.377953 -0.637 130 129 161
0.370673 -0.377953 -0.637 174 177 196
0.371887 -0.377953 -0.637 174 177 196
0.403376 -0.376767 -0.635 157 157 193
0.41844 -0.376173 -0.634 88 111 145
0.428631 -0.37558 -0.633 159 157 170
0.431043 -0.37558 -0.633 166 168 183
0.463334 -0.374393 -0.631 46 62 113
0.46694 -0.374393 -0.631 119 134 163
0.476555 -0.374393 -0.631 131 145 182
0.478959 -0.374393 -0.631 103 114 159
0.496988 -0.374393 -0.631 147 157 184
0.4974 -0.3738 -0.63 120 130 157
0.529666 -0.37202 -0.627 196 199 216
0.473071 -0.31862 -0.537 148 108 96
0.470693 -0.315653 -0.532 149 112 94
0.455625 -0.297853 -0.502 169 122 102
0.456626 -0.29726 -0.501 173 126 106
0.491982 -0.298447 -0.503 150 112 93
0.0453286 -0.298214 -0.501 203 167 151
0.0586905 -0.293452 -0.493 192 152 140
0.0605686 -0.293452 -0.493 188 148 138
0.0972352 -0.314881 -0.529 119 93 96
0.116383 -0.332143 -0.558 105 85 86
0.165 -0.375 -0.63 239 241 255
0.176079 -0.375595 -0.631 140 154 201
0.177281 -0.375595 -0.631 134 148 195
0.178483 -0.375595 -0.631 144 158 203
0.184492 -0.375595 -0.631 124 137 189
0.1938 -0.375 -0.63 126 140 189
0.204925 -0.375595 -0.631 216 224 245
0.244157 -0.376786 -0.633 133 160 205
0.263449 -0.376786 -0.633 91 108 152
0.268695 -0.377381 -0.634 189 191 216
0.299357 -0.377976 -0.635 77 83 117
0.354343 -0.378571 -0.636 173 175 196
0.384629 -0.378571 -0.636 119 136 182
0.424343 -0.37619 -0.632 172 172 184
0.429158 -0.37619 -0.632 160 160 172
0.4424 -0.37619 -0.632 92 118 167
0.456846 -0.37619 -0.632 168 171 180
0.46694 -0.375595 -0.631 128 142 169
0.4854 -0.375 -0.63 180 185 207
0.517352 -0.37381 -0.628 199 200 220
0.523694 -0.373214 -0.627 193 199 221
0.531206 -0.372619 -0.626 181 188 207
0.532398 -0.372619 -0.626 133 143 168
0.481551 -0.326786 -0.549 136 103 98
0.49294 -0.299405 -0.503 152 111 91
0.0440267 -0.303349 -0.508 203 168 149
0.0774333 -0.301557 -0.505 153 112 110
0.0807962 -0.303349 -0.508 143 108 112
0.0819248 -0.303946 -0.509 140 105 109
0.0879657 -0.308126 -0.516 133 102 107
0.102989 -0.321263 -0.538 109 87 90
0.142319 -0.361271 -0.605 222 225 244
0.1698 -0.3762 -0.63 223 229 245
0.1914 -0.3762 -0.63 131 148 200
0.1986 -0.3762 -0.63 218 223 253
0.20853 -0.376797 -0.631 217 221 246
0.210934 -0.376797 -0.631 203 207 232
0.24054 -0.377991 -0.633 169 183 220
0.315081 -0.379186 -0.635 114 141 196
0.319919 -0.379186 -0.635 116 137 184
0.323548 -0.379186 -0.635 158 177 210
0.325967 -0.379186 -0.635 180 182 205
0.34411 -0.379186 -0.635 162 168 190
0.361611 -0.379783 -0.636 135 147 173
0.364034 -0.379783 -0.636 167 177 204
0.384024 -0.379186 -0.635 87 105 155
0.443604 -0.377394 -0.632 70 98 146
0.457325 -0.376797 -0.631 171 172 192
0.4962 -0.3762 -0.63 177 183 207
0.517352 -0.375006 -0.628 185 186 207
0.535119 -0.373214 -0.625 199 202 221
0.472463 -0.318874 -0.534 149 112 94
0.465823 -0.311709 -0.522 152 115 97
0.46435 -0.296183 -0.496 176 130 107
0.473786 -0.295586 -0.495 170 123 103
0.498791 -0.302751 -0.507 150 109 91
0.0448762 -0.297128 -0.496 201 166 146
0.0576343 -0.294731 -0.492 191 152 135
0.0945 -0.3145 -0.525 120 93 98
0.100189 -0.319891 -0.534 111 89 92
0.10764 -0.32708 -0.546 106 87 91
0.11532 -0.334269 -0.558 104 85 89
0.130705 -0.349844 -0.584 237 231 243
0.1746 -0.3774 -0.63 140 145 187
0.2046 -0.3774 -0.63 222 230 249
0.241364 -0.378598 -0.632 165 176 208
0.248587 -0.378598 -0.632 82 118 180
0.25581 -0.378598 -0.632 157 170 202
0.269051 -0.378598 -0.632 190 197 226
0.300093 -0.379796 -0.634 149 159 194
0.330805 -0.380395 -0.635 164 171 190
0.34236 -0.379796 -0.634 170 174 201
0.384627 -0.379796 -0.634 141 162 215
0.391254 -0.379197 -0.633 171 170 184
0.397283 -0.379197 -0.633 130 137 156
0.402674 -0.378598 -0.632 97 112 155
0.424873 -0.377999 -0.631 173 171 192
0.43569 -0.377999 -0.631 69 97 145
0.4424 -0.378598 -0.632 84 111 158
0.4602 -0.3774 -0.63 79 94 123
0.488224 -0.376801 -0.629 164 168 193
0.506587 -0.376202 -0.628 138 156 194
0.517352 -0.376202 -0.628 170 172 197
0.533929 -0.374405 -0.625 196 195 211
0.535119 -0.374405 -0.625 206 205 221
0.474232 -0.32109 -0.536 149 113 97
0.0576343 -0.295669 -0.492 190 149 131
0.0976029 -0.319106 -0.531 114 89 93
0.118709 -0.338937 -0.564 104 85 89
0.167134 -0.377999 -0.629 236 242 255
0.173125 -0.377999 -0.629 170 174 211
0.225 -0.3786 -0.63 206 211 230
0.230165 -0.379201 -0.631 201 208 227
0.231367 -0.379201 -0.631 181 188 207
0.232569 -0.379201 -0.631 130 139 178
0.23377 -0.379201 -0.631 87 96 135
0.234972 -0.379201 -0.631 113 121 158
0.28109 -0.379802 -0.632 117 121 150
0.286357 -0.380403 -0.633 179 185 209
0.289974 -0.380403 -0.633 178 183 203
0.310471 -0.380403 -0.633 108 131 181
0.336322 -0.381004 -0.634 115 122 148
0.338737 -0.381004 -0.634 120 127 153
0.344231 -0.380403 -0.633 123 132 165
0.348398 -0.381004 -0.634 118 133 174
0.361043 -0.381605 -0.635 158 172 209
0.36289 -0.381004 -0.634 166 177 199
0.373138 -0.381605 -0.635 112 120 141
0.374348 -0.381605 -0.635 94 107 151
0.390636 -0.379802 -0.632 153 153 165
0.414056 -0.379201 -0.631 124 139 172
0.4554 -0.3786 -0.63 165 170 190
0.50539 -0.377398 -0.628 121 140 183
0.471831 -0.319106 -0.531 153 117 103
0.464227 -0.311293 -0.518 158 121 103
0.4584 -0.30288 -0.504 166 123 104
0.470957 -0.297471 -0.495 169 122 102
0.4719 -0.297471 -0.495 168 121 101
0.483273 -0.298673 -0.497 152 114 93
0.0479819 -0.365934 -0.607 204 169 150
0.052841 -0.296003 -0.491 195 160 140
0.0666057 -0.299017 -0.496 172 125 119
0.0687714 -0.300223 -0.498 170 125 119
0.08322 -0.30806 -0.511 138 106 111
0.0856667 -0.309869 -0.514 131 100 106
0.109476 -0.331571 -0.55 106 85 90
0.117426 -0.339409 -0.563 102 85 91
0.137026 -0.359906 -0.597 236 240 251
0.16328 -0.378594 -0.628 239 239 251
0.204275 -0.379197 -0.629 218 223 242
0.210266 -0.379197 -0.629 213 218 238
0.216256 -0.379197 -0.629 205 208 225
0.260212 -0.380403 -0.631 193 199 223
0.30035 -0.381006 -0.632 180 187 206
0.301554 -0.381006 -0.632 179 186 205
0.302758 -0.381006 -0.632 180 186 202
0.314796 -0.381006 -0.632 105 130 186
0.320815 -0.381006 -0.632 153 178 219
0.326146 -0.381609 -0.633 178 186 209
0.327351 -0.381609 -0.633 173 181 204
0.336997 -0.381609 -0.633 74 85 117
0.349054 -0.381609 -0.633 138 155 199
0.359267 -0.382211 -0.634 114 128 167
0.377381 -0.382211 -0.634 108 129 172
0.385821 -0.381006 -0.632 171 174 193
0.390018 -0.380403 -0.631 107 109 124
0.406845 -0.380403 -0.631 69 92 144
0.4182 -0.3798 -0.63 81 89 128
0.4266 -0.3798 -0.63 161 166 188
0.435 -0.3798 -0.63 80 102 149
0.4434 -0.3798 -0.63 86 105 148
0.447 -0.3798 -0.63 139 160 205
0.462328 -0.378594 -0.628 162 167 189
0.483859 -0.378594 -0.628 109 113 140
0.506974 -0.377991 -0.627 159 178 220
0.527131 -0.376183 -0.624 200 203 220
0.496463 -0.341217 -0.566 132 102 102
0.4653 -0.298414 -0.495 168 123 104
0.040881 -0.305405 -0.505 209 172 153
0.0499333 -0.296333 -0.49 200 162 141
0.0625733 -0.298752 -0.494 180 137 120
0.0687714 -0.301171 -0.498 167 122 116
0.0820857 -0.308429 -0.51 141 105 107
0.08322 -0.309033 -0.511 136 104 109
0.105173 -0.32899 -0.544 106 85 92
0.112789 -0.336248 -0.556 104 84 93
0.114257 -0.337457 -0.558 102 87 94
0.11913 -0.342295 -0.566 102 87 94
0.131824 -0.356205 -0.589 248 246 255
0.139551 -0.364671 -0.603 242 246 255
0.177634 -0.37979 -0.628 200 215 246
0.17883 -0.37979 -0.628 165 180 211
0.184811 -0.37979 -0.628 155 172 215
0.189596 -0.37979 -0.628 202 208 240
0.223445 -0.380395 -0.629 208 207 225
0.224643 -0.380395 -0.629 207 208 229
0.2298 -0.381 -0.63 144 149 181
0.2346 -0.381 -0.63 176 188 212
0.2526 -0.381 -0.63 133 155 196
0.2646 -0.381 -0.63 125 138 170
0.274635 -0.381605 -0.631 165 167 188
0.342484 -0.38221 -0.632 142 151 192
0.3587 -0.382814 -0.633 122 134 172
0.374374 -0.382814 -0.633 83 92 131
0.385821 -0.38221 -0.632 172 174 195
0.428319 -0.380395 -0.629 166 168 189
0.431913 -0.380395 -0.629 138 137 155
0.457543 -0.37979 -0.628 113 123 150
0.51876 -0.359229 -0.594 117 102 105
0.477913 -0.325967 -0.539 147 115 102
0.461516 -0.299962 -0.496 172 129 110
0.464357 -0.299357 -0.495 174 131 112
0.469065 -0.298752 -0.494 166 123 104
0.0536667 -0.297267 -0.49 196 155 137
0.0979705 -0.323353 -0.533 110 87 93
0.100939 -0.326387 -0.538 110 87 93
0.108231 -0.33306 -0.549 106 83 89
0.114462 -0.339127 -0.559 101 82 88
0.151543 -0.37856 -0.624 239 236 255
0.165145 -0.379773 -0.626 208 214 238
0.186906 -0.38038 -0.627 197 211 246
0.194381 -0.380987 -0.628 184 193 226
0.266576 -0.381593 -0.629 134 152 188
0.295068 -0.382807 -0.631 171 180 209
0.297471 -0.382807 -0.631 179 185 207
0.335261 -0.383413 -0.632 83 96 138
0.343144 -0.382807 -0.631 108 117 160
0.353318 -0.383413 -0.632 106 119 163
0.361745 -0.383413 -0.632 170 178 199
0.386412 -0.382807 -0.631 162 161 179
0.3918 -0.3822 -0.63 158 166 185
0.406753 -0.381593 -0.629 55 73 109
0.430715 -0.381593 -0.629 125 122 139
0.43431 -0.381593 -0.629 104 123 163
0.439102 -0.381593 -0.629 106 128 177
0.457543 -0.380987 -0.628 133 143 168
0.487088 -0.379773 -0.626 89 89 117
0.518811 -0.37856 -0.624 190 195 214
0.468124 -0.299693 -0.494 171 126 105
0.477533 -0.299693 -0.494 157 116 96
0.48706 -0.301513 -0.497 151 113 94
0.0418724 -0.300634 -0.494 205 168 150
0.06986 -0.303677 -0.499 164 123 119
0.07774 -0.308546 -0.507 152 110 111
0.086 -0.314023 -0.516 123 96 103
0.121482 -0.348103 -0.572 105 84 89
0.1287 -0.356014 -0.585 244 242 253
0.189294 -0.381574 -0.627 204 211 237
0.217109 -0.382183 -0.628 202 208 240
0.227039 -0.382791 -0.629 199 205 229
0.228237 -0.382791 -0.629 141 147 171
0.261368 -0.382183 -0.628 192 196 221
0.271369 -0.382791 -0.629 134 143 176
0.2886 -0.3834 -0.63 111 126 167
0.3054 -0.3834 -0.63 136 143 169
0.3078 -0.3834 -0.63 87 103 152
0.347951 -0.384009 -0.631 140 158 198
0.370171 -0.384617 -0.632 176 173 200
0.379201 -0.384009 -0.631 99 122 172
0.3858 -0.3834 -0.63 170 175 197
0.403159 -0.382791 -0.629 163 174 204
0.431227 -0.382183 -0.628 138 143 172
0.437208 -0.382183 -0.628 85 112 157
0.441498 -0.382791 -0.629 82 103 156
0.44917 -0.382183 -0.628 134 137 154
0.458009 -0.381574 -0.627 167 173 189
0.46801 -0.380966 -0.626 169 171 196
0.479933 -0.380966 -0.626 166 167 185
0.49305 -0.380966 -0.626 168 180 218
0.535243 -0.377923 -0.621 189 188 194
0.501936 -0.347494 -0.571 129 107 109
0.469604 -0.318891 -0.524 155 118 100
0.46148 -0.303069 -0.498 174 128 112
0.470947 -0.300634 -0.494 174 129 108
0.47377 -0.300634 -0.494 162 119 100
0.475651 -0.300634 -0.494 159 116 97
0.476592 -0.300634 -0.494 161 118 99
0.0425533 -0.299744 -0.491 202 165 147
0.0443333 -0.299133 -0.49 203 164 147
0.0595086 -0.300354 -0.492 189 144 123
0.0811143 -0.311343 -0.51 142 107 111
0.0995429 -0.327215 -0.536 107 84 90
0.101127 -0.329047 -0.539 107 84 90
0.168722 -0.382158 -0.626 216 220 245
0.172299 -0.382158 -0.626 233 231 252
0.175876 -0.382158 -0.626 176 180 205
0.247013 -0.383379 -0.628 138 163 203
0.24821 -0.383379 -0.628 139 164 204
0.265729 -0.382769 -0.627 177 187 212
0.272133 -0.383379 -0.628 129 142 176
0.28335 -0.38399 -0.629 158 168 204
0.285746 -0.38399 -0.629 112 122 158
0.294132 -0.38399 -0.629 171 181 208
0.306113 -0.38399 -0.629 102 120 166
0.3354 -0.3846 -0.63 104 117 152
0.3378 -0.3846 -0.63 137 152 185
0.3522 -0.3846 -0.63 146 153 182
0.3798 -0.3846 -0.63 103 124 167
0.407303 -0.383379 -0.628 140 146 172
0.415014 -0.382769 -0.627 165 171 187
0.425763 -0.382769 -0.627 109 114 143
0.428834 -0.383379 -0.628 121 123 146
0.43003 -0.383379 -0.628 157 161 186
0.464881 -0.381548 -0.625 172 175 194
0.48631 -0.381548 -0.625 147 151 162
0.499405 -0.381548 -0.625 65 92 145
0.516434 -0.380937 -0.624 187 193 209
0.518811 -0.380937 -0.624 196 200 212
0.527811 -0.379716 -0.622 179 182 199
0.488389 -0.336983 -0.552 144 110 101
0.491871 -0.304628 -0.499 150 104 89
0.0374 -0.312314 -0.51 204 165 150
0.0417029 -0.301291 -0.492 202 165 147
0.0645857 -0.303129 -0.495 174 128 113
0.0755095 -0.309252 -0.505 154 110 109
0.116767 -0.345995 -0.565 110 89 94
0.138862 -0.37049 -0.605 240 239 255
0.164881 -0.382738 -0.625 160 165 194
0.176786 -0.382738 -0.625 170 179 210
0.177976 -0.382738 -0.625 182 191 222
0.180357 -0.382738 -0.625 185 196 228
0.1881 -0.383963 -0.627 188 201 233
0.190489 -0.383963 -0.627 219 224 253
0.210455 -0.38335 -0.626 199 199 223
0.211648 -0.38335 -0.626 168 170 193
0.226317 -0.383963 -0.627 134 139 168
0.233483 -0.383963 -0.627 205 203 227
0.239454 -0.383963 -0.627 122 132 159
