ply
format ascii 1.0
comment Created by Open3D
element vertex 1289
property double x
property double y
property double z
property uchar red
property uchar green
property uchar blue
end_header
0.0669343 -0.415774 -0.513 182 134 111
0.07238 -0.419016 -0.517 173 124 107
0.0805 -0.4255 -0.525 153 110 91
0.433987 -0.436036 -0.538 141 94 66
0.433811 -0.432794 -0.534 150 96 68
0.434409 -0.430363 -0.531 159 102 75
0.439818 -0.423879 -0.523 178 123 93
0.44844 -0.419827 -0.518 183 127 100
0.452498 -0.419016 -0.517 178 122 95
0.463417 -0.418206 -0.516 177 126 97
0.466366 -0.418206 -0.516 175 124 95
0.473246 -0.418206 -0.516 174 124 97
0.4975 -0.4255 -0.525 166 120 94
0.510157 -0.431984 -0.533 163 117 93
0.513091 -0.433605 -0.535 161 115 91
0.527871 -0.44171 -0.545 155 133 122
0.52988 -0.44252 -0.546 154 132 121
0.00854857 -0.428937 -0.528 192 147 118
0.0104 -0.422438 -0.52 189 146 114
0.0274143 -0.410252 -0.505 199 153 120
0.0351095 -0.410252 -0.505 200 151 119
0.0506 -0.411065 -0.506 196 150 117
0.0515638 -0.411065 -0.506 196 150 117
0.433987 -0.437061 -0.538 137 93 68
0.434829 -0.433811 -0.534 151 100 71
0.43542 -0.431374 -0.531 158 104 78
0.438333 -0.427312 -0.526 179 123 96
0.442954 -0.424063 -0.522 182 127 97
0.44634 -0.421626 -0.519 184 128 101
0.457614 -0.418376 -0.515 183 129 101
0.480126 -0.419189 -0.516 166 119 93
0.485933 -0.420813 -0.518 165 120 91
0.492717 -0.42325 -0.521 166 120 94
0.501453 -0.427312 -0.526 166 119 93
0.53092 -0.44356 -0.546 150 135 130
0.934833 -0.449247 -0.553 205 209 192
0.00459429 -0.436457 -0.536 194 150 123
0.0178305 -0.412029 -0.506 204 157 127
0.020681 -0.411214 -0.505 207 158 125
0.0245286 -0.411214 -0.505 201 152 119
0.0283762 -0.411214 -0.505 200 154 121
0.0379952 -0.411214 -0.505 194 145 113
0.04176 -0.4104 -0.504 195 148 118
0.0658286 -0.416914 -0.512 184 136 113
0.0679114 -0.417729 -0.513 181 133 110
0.0735067 -0.4218 -0.518 173 124 107
0.0881476 -0.435643 -0.535 118 95 87
0.434203 -0.437271 -0.537 143 95 72
0.436619 -0.431571 -0.53 162 108 84
0.454571 -0.420171 -0.516 178 124 96
0.478214 -0.419357 -0.515 170 123 97
0.479195 -0.419357 -0.515 168 121 95
0.483074 -0.420171 -0.516 167 121 95
0.487907 -0.4218 -0.518 165 120 91
0.514166 -0.434829 -0.534 163 118 95
0.0177952 -0.412176 -0.505 202 156 123
0.03696 -0.41136 -0.504 199 153 120
0.0456 -0.41136 -0.504 202 153 123
0.0534914 -0.412992 -0.506 200 153 123
0.0564943 -0.413809 -0.507 196 151 120
0.0604762 -0.414625 -0.508 193 147 114
0.0818105 -0.430132 -0.527 140 107 90
0.0829714 -0.430949 -0.528 135 102 85
0.434793 -0.439927 -0.539 135 92 73
0.43503 -0.43503 -0.533 153 99 71
0.438333 -0.429316 -0.526 171 115 88
0.445219 -0.424419 -0.52 182 129 97
0.450529 -0.42197 -0.517 185 129 102
0.452606 -0.421154 -0.516 185 129 102
0.459663 -0.419522 -0.514 179 128 99
0.480176 -0.420338 -0.515 170 124 98
0.48795 -0.42197 -0.517 167 121 95
0.5015 -0.4285 -0.525 162 118 93
0.515183 -0.435846 -0.534 164 120 95
0.525028 -0.441559 -0.541 159 118 96
0.532024 -0.444824 -0.545 149 130 123
0.0130629 -0.415592 -0.508 199 154 125
0.01776 -0.41232 -0.504 200 153 123
0.020599 -0.411502 -0.503 203 157 124
0.0234733 -0.411502 -0.503 202 153 121
0.0349705 -0.411502 -0.503 199 153 120
0.04656 -0.41232 -0.504 199 152 122
0.0495381 -0.413138 -0.505 198 153 122
0.0514619 -0.413138 -0.505 196 151 120
0.0595086 -0.415592 -0.508 194 148 115
0.0604762 -0.415592 -0.508 192 146 113
0.0712571 -0.422137 -0.516 174 126 104
0.0746371 -0.424591 -0.519 165 120 101
0.435226 -0.439317 -0.537 143 95 72
0.435436 -0.438499 -0.536 147 96 69
0.43503 -0.436045 -0.533 149 98 69
0.436045 -0.436045 -0.533 150 99 70
0.43781 -0.432772 -0.529 163 107 80
0.450529 -0.422955 -0.517 184 128 101
0.476307 -0.420501 -0.514 170 123 95
0.480223 -0.420501 -0.514 171 124 98
0.4841 -0.421319 -0.515 165 119 95
0.487006 -0.422137 -0.516 166 120 96
0.49959 -0.427864 -0.523 162 118 91
0.506422 -0.431136 -0.527 159 117 92
0.0102 -0.4182 -0.51 198 153 130
0.0149095 -0.4141 -0.505 199 154 123
0.0186829 -0.41246 -0.503 200 153 123
0.020599 -0.41246 -0.503 203 157 124
0.0244314 -0.41246 -0.503 198 152 119
0.02544 -0.41328 -0.504 197 151 118
0.0264 -0.41328 -0.504 197 151 118
0.02736 -0.41328 -0.504 202 156 123
0.0524238 -0.4141 -0.505 199 152 122
0.0563829 -0.41492 -0.506 195 150 119
0.0625343 -0.41738 -0.509 186 141 112
0.0636286 -0.4182 -0.51 183 136 110
0.0856267 -0.43624 -0.532 121 97 87
0.43582 -0.44198 -0.539 139 91 69
0.435436 -0.43952 -0.536 143 93 68
0.440966 -0.42804 -0.522 171 118 87
0.443238 -0.4264 -0.52 172 119 88
0.445219 -0.4264 -0.52 178 125 94
0.4626 -0.42148 -0.514 177 126 99
0.474403 -0.42066 -0.513 175 125 100
0.476357 -0.42066 -0.513 172 122 95
0.477334 -0.42066 -0.513 173 123 96
0.485081 -0.4223 -0.515 163 115 92
0.5133 -0.43542 -0.531 156 118 97
0.516249 -0.43706 -0.533 150 109 87
0.00152286 -0.438075 -0.533 190 149 121
0.00252857 -0.436431 -0.531 190 149 121
0.00922857 -0.419171 -0.51 197 151 127
0.01488 -0.41424 -0.504 200 155 124
0.0292219 -0.413418 -0.503 202 153 123
0.0425505 -0.412596 -0.502 201 152 120
0.04848 -0.41424 -0.504 202 153 121
0.436407 -0.44465 -0.541 129 90 73
0.436036 -0.442185 -0.538 138 92 69
0.435643 -0.439719 -0.535 138 90 67
0.43781 -0.434788 -0.529 155 101 73
0.44196 -0.429034 -0.522 170 116 88
0.443098 -0.428212 -0.521 170 116 88
0.44409 -0.428212 -0.521 174 118 91
0.445351 -0.426569 -0.519 179 123 96
0.448674 -0.424103 -0.516 180 126 98
0.45369 -0.423281 -0.515 177 126 97
0.463654 -0.421637 -0.513 173 124 94
0.491889 -0.424925 -0.517 167 119 97
0.493827 -0.425747 -0.518 169 121 99
0.497714 -0.42739 -0.52 167 119 97
0.533174 -0.446294 -0.543 163 126 107
0.535192 -0.447116 -0.544 168 150 130
0.0158086 -0.414376 -0.503 203 158 127
0.0224705 -0.413552 -0.502 202 155 125
0.034901 -0.413552 -0.502 197 151 118
0.04944 -0.4152 -0.504 200 154 121
0.0533857 -0.416024 -0.505 196 151 120
0.0584257 -0.417671 -0.507 192 145 115
0.0636286 -0.420143 -0.51 186 140 116
0.0733648 -0.42591 -0.517 155 110 91
0.0793486 -0.431676 -0.524 138 105 86
0.436036 -0.44321 -0.538 136 90 64
0.436249 -0.442386 -0.537 139 87 65
0.438818 -0.435795 -0.529 155 103 79
0.439661 -0.431676 -0.524 166 112 86
0.44409 -0.429205 -0.521 174 121 90
0.44634 -0.427557 -0.519 178 125 94
0.446467 -0.426733 -0.518 179 126 95
0.447453 -0.426733 -0.518 177 123 95
0.449767 -0.424262 -0.515 178 125 94
0.450748 -0.424262 -0.515 181 128 97
0.458684 -0.423438 -0.514 180 129 100
0.4617 -0.422614 -0.513 181 130 101
0.464631 -0.422614 -0.513 169 118 91
0.468602 -0.42179 -0.512 180 129 102
0.498705 -0.428381 -0.52 163 117 94
0.50457 -0.430852 -0.523 160 115 94
0.514352 -0.436619 -0.53 158 113 92
0.520269 -0.439914 -0.534 163 118 97
0.012 -0.41616 -0.504 203 158 127
0.0138924 -0.415334 -0.503 201 154 124
0.0243829 -0.414509 -0.502 199 152 122
0.0463752 -0.414509 -0.502 198 152 119
0.05328 -0.41616 -0.504 194 151 119
0.0625343 -0.420289 -0.509 189 143 117
0.0646 -0.421114 -0.51 181 135 111
0.0700019 -0.424417 -0.514 165 122 103
0.436847 -0.44506 -0.539 131 87 62
0.436863 -0.440931 -0.534 147 95 74
0.438994 -0.435977 -0.528 153 102 75
0.440659 -0.432674 -0.524 168 114 88
0.440814 -0.431849 -0.523 169 115 87
0.44196 -0.431023 -0.522 169 115 87
0.445351 -0.428546 -0.519 177 122 92
0.446467 -0.42772 -0.518 177 124 93
0.451729 -0.425243 -0.515 178 125 94
0.45183 -0.424417 -0.514 181 128 97
0.45281 -0.424417 -0.514 182 129 98
0.454768 -0.424417 -0.514 183 130 99
0.461775 -0.422766 -0.512 180 129 100
0.464631 -0.423591 -0.513 171 120 93
0.473478 -0.422766 -0.512 177 125 101
0.499695 -0.429371 -0.52 160 114 91
0.536277 -0.448363 -0.543 164 151 135
-0.00152286 -0.441121 -0.533 182 146 122
0.000504762 -0.438638 -0.53 190 147 115
0.0110181 -0.416292 -0.503 200 155 126
0.0129086 -0.415465 -0.502 206 161 132
0.0167 -0.414637 -0.501 196 149 119
0.0176543 -0.414637 -0.501 197 150 120
0.0205171 -0.414637 -0.501 202 155 125
0.0214714 -0.414637 -0.501 203 156 126
0.0358571 -0.415465 -0.502 196 151 118
0.05232 -0.41712 -0.504 194 151 119
0.05328 -0.41712 -0.504 193 150 118
0.05424 -0.41712 -0.504 191 148 116
0.0668038 -0.423741 -0.512 176 131 108
0.0733648 -0.427879 -0.517 156 113 94
0.0806533 -0.435328 -0.526 130 98 83
0.436847 -0.446087 -0.539 129 87 65
0.438994 -0.436983 -0.528 152 100 76
0.440659 -0.433672 -0.524 164 110 84
0.443098 -0.43119 -0.521 171 116 86
0.444229 -0.430362 -0.52 173 118 88
0.444363 -0.429534 -0.519 174 119 89
0.453883 -0.424569 -0.513 180 127 96
0.46275 -0.423741 -0.512 177 123 95
0.478354 -0.423741 -0.512 178 126 102
0.47933 -0.423741 -0.512 176 126 101
0.495828 -0.427879 -0.517 162 116 93
0.505567 -0.432845 -0.523 158 113 90
0.00248095 -0.432182 -0.521 187 148 119
0.0063019 -0.422228 -0.509 197 152 121
0.0224257 -0.415591 -0.501 202 155 125
0.0396029 -0.415591 -0.501 198 153 120
0.0646 -0.423057 -0.51 177 133 108
0.0733648 -0.428864 -0.517 155 112 93
0.443238 -0.431352 -0.52 168 112 85
0.447574 -0.428864 -0.517 173 119 91
0.447691 -0.428034 -0.516 175 121 93
0.448674 -0.428034 -0.516 176 122 94
0.453883 -0.425546 -0.513 175 122 91
0.455837 -0.425546 -0.513 176 122 94
0.46282 -0.423887 -0.511 175 121 95
0.464701 -0.424716 -0.512 174 120 94
0.466713 -0.423887 -0.511 182 128 102
0.467687 -0.423887 -0.511 180 126 100
0.472553 -0.423887 -0.511 176 122 96
0.47742 -0.423887 -0.511 175 123 99
0.492929 -0.427205 -0.515 164 118 94
0.49876 -0.429693 -0.518 161 115 91
0.530314 -0.446284 -0.538 160 118 93
0.532327 -0.447113 -0.539 154 119 99
0.534343 -0.447943 -0.54 161 126 106
0.00910191 -0.418209 -0.503 195 154 124
0.0195238 -0.415714 -0.5 196 151 120
0.02338 -0.416546 -0.501 202 156 123
0.0290476 -0.415714 -0.5 198 153 120
0.0348314 -0.416546 -0.501 198 153 120
0.0385714 -0.415714 -0.5 199 154 121
0.0688886 -0.426523 -0.513 169 124 103
0.0832857 -0.440657 -0.53 112 92 91
0.438294 -0.446477 -0.537 130 89 67
0.440814 -0.434837 -0.523 155 104 77
0.443238 -0.432343 -0.52 165 111 85
0.44634 -0.431511 -0.519 169 115 89
0.447453 -0.43068 -0.518 168 114 86
0.451729 -0.428186 -0.515 177 123 95
0.45281 -0.427354 -0.514 178 124 96
0.45486 -0.426523 -0.513 176 122 94
0.45885 -0.425691 -0.512 180 126 98
0.459825 -0.425691 -0.512 180 126 98
0.461847 -0.42486 -0.511 180 126 98
0.470607 -0.42486 -0.511 167 113 87
0.47158 -0.42486 -0.511 171 117 91
0.47742 -0.42486 -0.511 172 121 94
0.48906 -0.426523 -0.513 166 120 94
0.496834 -0.429017 -0.516 163 117 91
0.516434 -0.438994 -0.528 158 116 91
0.986329 -0.469757 -0.565 104 106 101
1.02149 -0.473083 -0.569 99 103 106
0.000497143 -0.435 -0.522 192 150 125
0.00245238 -0.429167 -0.515 190 148 123
0.00626476 -0.421667 -0.506 195 151 124
0.0109524 -0.416667 -0.5 192 148 119
0.0261905 -0.416667 -0.5 200 154 120
0.0357143 -0.416667 -0.5 198 153 120
0.0502 -0.418333 -0.502 198 155 123
0.0677791 -0.426667 -0.512 171 126 105
0.0733648 -0.430833 -0.517 152 109 92
0.0819657 -0.44 -0.528 114 93 92
0.438818 -0.440833 -0.529 145 97 75
0.44181 -0.435833 -0.523 157 105 81
0.44196 -0.435 -0.522 161 110 83
0.447574 -0.430833 -0.517 168 114 88
0.449657 -0.43 -0.516 171 117 91
0.452906 -0.4275 -0.513 176 122 94
0.47742 -0.425833 -0.511 174 124 97
0.491014 -0.4275 -0.513 170 123 95
0.499767 -0.430833 -0.517 163 117 91
0.510548 -0.435833 -0.523 161 119 94
0.519428 -0.440833 -0.529 159 117 92
0.988074 -0.471667 -0.566 102 104 103
0.0119048 -0.417619 -0.5 191 147 118
0.0156829 -0.416784 -0.499 200 155 126
0.0175838 -0.416784 -0.499 197 152 123
0.0185343 -0.416784 -0.499 197 152 121
0.0204352 -0.416784 -0.499 197 152 121
0.0252381 -0.417619 -0.5 202 156 123
0.0309524 -0.417619 -0.5 200 154 121
0.0365933 -0.416784 -0.499 199 154 123
0.0384943 -0.416784 -0.499 199 154 123
0.0394448 -0.416784 -0.499 198 153 120
0.439466 -0.443511 -0.531 146 98 76
0.439648 -0.442676 -0.53 146 98 76
0.44 -0.441006 -0.528 153 103 80
0.441657 -0.437665 -0.524 154 102 78
0.442106 -0.435159 -0.521 162 111 84
0.44621 -0.434324 -0.52 164 113 86
0.452906 -0.428477 -0.513 175 121 93
0.453883 -0.428477 -0.513 174 120 92
0.454949 -0.427642 -0.512 171 117 89
0.455924 -0.427642 -0.512 170 119 90
0.471629 -0.425971 -0.51 171 121 94
0.474543 -0.425971 -0.51 174 124 97
0.478429 -0.425971 -0.51 170 123 97
0.4794 -0.425971 -0.51 172 122 97
0.491032 -0.427642 -0.512 167 122 93
0.86655 -0.469404 -0.562 148 150 137
0.982911 -0.474415 -0.568 101 101 103
-0.00657429 -0.444523 -0.531 183 151 126
-0.00452571 -0.442011 -0.528 188 146 121
-0.00148571 -0.435314 -0.52 191 149 124
0.00338 -0.424431 -0.507 196 152 125
0.0137543 -0.416897 -0.498 198 154 125
0.0194848 -0.417734 -0.499 196 151 120
0.0213857 -0.417734 -0.499 198 153 122
0.0261381 -0.417734 -0.499 198 152 119
0.0289895 -0.417734 -0.499 201 154 124
0.0356429 -0.417734 -0.499 199 152 122
0.0511562 -0.420246 -0.502 197 150 122
0.0677791 -0.428617 -0.512 166 123 104
0.0700019 -0.430291 -0.514 153 115 96
0.469686 -0.426943 -0.51 173 123 96
0.482314 -0.426943 -0.51 173 126 98
0.494923 -0.429454 -0.513 163 119 92
0.502721 -0.432803 -0.517 164 120 95
0.507619 -0.435314 -0.52 164 122 97
0.513536 -0.437826 -0.523 161 119 94
0.523438 -0.443686 -0.53 162 117 88
0.534443 -0.449546 -0.537 154 127 108
0.000488571 -0.430431 -0.513 191 149 124
0.00241905 -0.426236 -0.508 190 149 121
0.0166 -0.417846 -0.498 194 149 118
0.0242371 -0.418685 -0.499 200 154 121
0.0356429 -0.418685 -0.499 197 152 119
0.0365933 -0.418685 -0.499 197 152 119
0.0394448 -0.418685 -0.499 197 152 119
0.0413457 -0.418685 -0.499 195 150 117
0.0422962 -0.418685 -0.499 195 150 117
0.0491457 -0.420363 -0.501 196 151 120
0.0521124 -0.421202 -0.502 195 150 121
0.05712 -0.42288 -0.504 183 142 114
0.0592743 -0.424558 -0.506 185 141 114
0.0624114 -0.426236 -0.508 174 128 104
0.07224 -0.432949 -0.516 145 109 95
0.0746371 -0.435466 -0.519 145 105 95
0.44034 -0.450569 -0.537 135 92 73
0.439719 -0.44889 -0.535 137 94 75
0.448559 -0.433788 -0.517 161 109 85
0.45281 -0.43127 -0.514 171 117 89
0.453973 -0.429592 -0.512 167 113 85
0.475514 -0.427914 -0.51 175 126 96
0.476486 -0.427914 -0.51 175 126 96
0.477457 -0.427914 -0.51 171 124 94
0.478429 -0.427914 -0.51 171 124 94
0.4794 -0.427914 -0.51 172 125 95
0.482314 -0.427914 -0.51 172 125 97
0.483286 -0.427914 -0.51 171 124 96
0.485229 -0.427914 -0.51 172 125 99
0.507631 -0.435466 -0.519 162 121 93
0.541543 -0.453086 -0.54 197 198 192
0.855391 -0.470706 -0.561 119 119 111
0.888333 -0.481613 -0.574 109 109 101
0.00144857 -0.426363 -0.507 191 150 122
0.00619048 -0.420476 -0.5 196 152 123
0.0109086 -0.418794 -0.498 193 149 120
0.0128057 -0.418794 -0.498 194 150 121
0.0194457 -0.418794 -0.498 196 151 120
0.0213429 -0.418794 -0.498 200 155 122
0.0222914 -0.418794 -0.498 201 155 122
0.0251876 -0.419635 -0.499 199 153 120
0.0336743 -0.418794 -0.498 198 154 119
0.0432467 -0.419635 -0.499 193 148 115
0.0501 -0.421317 -0.501 194 149 118
0.05616 -0.42384 -0.504 185 142 110
0.0581952 -0.424681 -0.505 182 141 113
0.0613229 -0.426363 -0.507 175 129 106
0.063379 -0.427204 -0.508 174 127 107
0.440106 -0.448228 -0.533 138 97 75
0.440293 -0.447387 -0.532 143 98 75
0.4425 -0.4415 -0.525 147 99 76
0.44409 -0.438136 -0.521 154 102 78
0.461914 -0.428886 -0.51 174 123 96
0.468765 -0.428045 -0.509 177 128 98
0.472643 -0.428045 -0.509 173 124 94
0.474582 -0.428045 -0.509 175 126 96
0.475551 -0.428045 -0.509 177 128 98
0.47749 -0.428045 -0.509 173 126 96
0.481369 -0.428045 -0.509 171 124 96
0.482338 -0.428045 -0.509 172 125 97
0.514543 -0.438977 -0.522 157 116 84
0.808 -0.470933 -0.56 125 126 118
0.809067 -0.470933 -0.56 126 127 119
0.810133 -0.470933 -0.56 128 129 121
0.815467 -0.470933 -0.56 127 129 118
0.828267 -0.470933 -0.56 121 121 113
0.837226 -0.471774 -0.561 114 116 105
0.846211 -0.472615 -0.562 127 127 119
0.853705 -0.472615 -0.562 116 118 107
0.854775 -0.472615 -0.562 120 122 111
0.855846 -0.472615 -0.562 119 121 110
0.860586 -0.473456 -0.563 122 124 113
0.87426 -0.47682 -0.567 119 119 111
-0.00244762 -0.433229 -0.514 193 152 124
0.0024 -0.4248 -0.504 190 149 121
0.0061781 -0.420586 -0.499 197 153 124
0.00806286 -0.419743 -0.498 197 153 124
0.01278 -0.4189 -0.497 193 150 118
0.0137267 -0.4189 -0.497 192 149 117
0.0165667 -0.4189 -0.497 199 154 123
0.0175486 -0.419743 -0.498 200 155 124
0.0194457 -0.419743 -0.498 198 153 120
0.0441971 -0.420586 -0.499 196 152 117
0.0470486 -0.420586 -0.499 193 150 116
0.0490476 -0.421429 -0.5 193 150 118
0.0644733 -0.429014 -0.509 174 127 107
0.0700019 -0.433229 -0.514 149 109 97
0.440738 -0.450929 -0.535 134 96 73
0.443803 -0.440814 -0.523 148 100 78
0.448559 -0.435757 -0.517 157 107 82
0.456007 -0.4307 -0.511 170 116 90
0.476521 -0.429014 -0.509 176 126 99
0.47846 -0.429014 -0.509 175 128 100
0.481369 -0.429014 -0.509 169 122 94
0.493 -0.429857 -0.51 165 119 93
0.495913 -0.4307 -0.511 163 119 92
0.806237 -0.472843 -0.561 100 100 100
0.807306 -0.472843 -0.561 101 101 101
0.833366 -0.473686 -0.562 122 122 112
0.842355 -0.474529 -0.563 119 119 111
0.8445 -0.474529 -0.563 118 118 110
0.851371 -0.475371 -0.564 124 124 114
0.866871 -0.476214 -0.565 123 123 113
-0.00243333 -0.431673 -0.511 192 151 123
0.00334 -0.423226 -0.501 193 149 120
0.0165667 -0.419847 -0.497 199 154 123
0.0336743 -0.420691 -0.498 197 153 118
0.0480952 -0.422381 -0.5 192 149 115
0.440738 -0.451948 -0.535 134 97 71
0.4425 -0.4435 -0.525 138 93 72
0.442655 -0.442655 -0.524 144 99 78
0.443653 -0.442655 -0.524 148 102 79
0.451729 -0.435052 -0.515 157 105 81
0.453973 -0.432518 -0.512 164 113 86
0.455033 -0.431673 -0.511 169 115 87
0.462038 -0.429139 -0.508 174 125 95
0.463973 -0.429139 -0.508 171 122 92
0.476552 -0.429139 -0.508 179 129 102
0.483308 -0.429984 -0.509 170 123 97
0.486216 -0.429984 -0.509 171 124 98
0.5047 -0.435052 -0.515 163 119 92
0.509613 -0.437587 -0.518 157 118 85
0.538552 -0.452792 -0.536 165 144 127
0.798757 -0.473911 -0.561 102 101 99
0.803031 -0.473911 -0.561 101 100 98
0.820217 -0.476446 -0.564 123 123 113
0.83096 -0.476446 -0.564 117 117 109
0.837406 -0.476446 -0.564 123 123 113
0.860859 -0.478135 -0.566 118 120 109
0.861937 -0.478135 -0.566 120 122 111
0.86886 -0.47898 -0.567 121 121 111
0.87472 -0.479825 -0.568 121 121 111
0.00333333 -0.423333 -0.5 195 151 122
0.00522762 -0.422487 -0.499 196 152 123
0.013699 -0.419947 -0.496 196 152 123
0.0165667 -0.420793 -0.497 197 152 121
0.01846 -0.420793 -0.497 195 150 119
0.0203533 -0.420793 -0.497 198 153 120
0.0317133 -0.420793 -0.497 202 156 123
0.0336067 -0.420793 -0.497 198 152 119
0.0355 -0.420793 -0.497 200 154 120
0.0402333 -0.420793 -0.497 197 152 121
0.0460981 -0.422487 -0.499 195 149 115
0.0470486 -0.422487 -0.499 195 149 116
0.047999 -0.422487 -0.499 194 148 115
0.0679114 -0.43434 -0.513 154 112 96
0.07238 -0.437727 -0.517 137 101 85
0.0747809 -0.440267 -0.52 130 98 85
0.441489 -0.44958 -0.531 138 97 75
0.444943 -0.44196 -0.522 148 102 79
0.451623 -0.43688 -0.516 155 105 80
0.456007 -0.432647 -0.511 167 116 87
0.468854 -0.42926 -0.507 176 125 98
0.47752 -0.430107 -0.508 178 128 103
0.487196 -0.430107 -0.508 168 122 96
0.492034 -0.430107 -0.508 165 121 94
0.494942 -0.430953 -0.509 165 121 94
0.498833 -0.432647 -0.511 162 118 91
0.529495 -0.448733 -0.53 158 118 92
0.535526 -0.45212 -0.534 147 117 93
0.804103 -0.47752 -0.564 104 100 99
0.805177 -0.47752 -0.564 101 97 96
0.823824 -0.478367 -0.565 120 120 112
0.8249 -0.478367 -0.565 119 119 111
0.830672 -0.479213 -0.566 124 124 116
0.838219 -0.479213 -0.566 123 123 115
0.84361 -0.479213 -0.566 114 115 107
0.847922 -0.479213 -0.566 112 112 104
0.85482 -0.48006 -0.567 116 116 108
0.8559 -0.48006 -0.567 115 115 107
0.864983 -0.480907 -0.568 119 120 112
0.875629 -0.4826 -0.57 121 121 113
0.876714 -0.4826 -0.57 121 121 113
-0.00642571 -0.440409 -0.519 184 150 123
0.00332667 -0.423437 -0.499 196 152 123
0.0108648 -0.420891 -0.496 201 155 122
0.0118095 -0.420891 -0.496 201 155 122
0.013699 -0.420891 -0.496 198 153 120
0.0193676 -0.420891 -0.496 198 151 121
0.0288733 -0.42174 -0.497 191 145 112
0.0344838 -0.420891 -0.496 200 153 123
0.0392867 -0.42174 -0.497 196 149 119
0.0450571 -0.422589 -0.498 196 149 119
0.0602381 -0.429377 -0.506 175 133 108
0.0613229 -0.430226 -0.507 174 129 106
0.0679114 -0.435317 -0.513 147 109 90
0.0747809 -0.441257 -0.52 131 99 86
0.442011 -0.448046 -0.528 140 98 74
0.442178 -0.447197 -0.527 137 92 69
0.442341 -0.446349 -0.526 137 92 69
0.443653 -0.444651 -0.524 146 100 77
0.464991 -0.430226 -0.507 175 124 95
0.465957 -0.430226 -0.507 177 126 97
0.46982 -0.430226 -0.507 178 127 100
0.477546 -0.430226 -0.507 173 123 96
0.489134 -0.430226 -0.507 165 120 91
0.49397 -0.431074 -0.508 165 121 94
0.495911 -0.431923 -0.509 163 119 92
0.515543 -0.441257 -0.52 155 114 92
0.532517 -0.450591 -0.531 155 119 87
0.543649 -0.455683 -0.537 198 180 170
0.82458 -0.48114 -0.567 122 122 114
0.831444 -0.481989 -0.568 125 124 120
0.833608 -0.481989 -0.568 123 122 117
0.83322 -0.48114 -0.567 122 121 116
0.84294 -0.48114 -0.567 116 117 111
0.879146 -0.486231 -0.573 115 116 108
0.881329 -0.486231 -0.573 113 114 106
-0.00143429 -0.426939 -0.502 188 147 117
-0.00047619 -0.425238 -0.5 188 147 117
0.00708571 -0.421836 -0.496 198 153 122
0.0108429 -0.420986 -0.495 201 156 123
0.0288733 -0.422687 -0.497 195 149 116
0.0316495 -0.421836 -0.496 196 150 117
0.033539 -0.421836 -0.496 195 148 118
0.0529629 -0.426089 -0.501 187 142 113
0.0549809 -0.426939 -0.502 186 141 112
0.0624114 -0.432042 -0.508 169 123 97
0.441325 -0.468612 -0.551 20 32 48
0.441489 -0.451603 -0.531 136 95 73
0.446075 -0.443098 -0.521 149 103 79
0.4472 -0.442248 -0.52 145 99 76
0.459135 -0.432042 -0.508 171 120 91
0.468893 -0.430341 -0.506 177 126 99
0.471785 -0.430341 -0.506 169 119 92
0.516533 -0.442248 -0.52 153 117 91
0.519514 -0.443949 -0.522 152 116 90
0.522503 -0.44565 -0.524 152 116 82
0.815914 -0.484771 -0.57 68 67 65
0.824237 -0.483921 -0.569 122 123 115
0.831114 -0.484771 -0.57 123 124 119
0.841971 -0.484771 -0.57 110 111 106
0.8626 -0.484771 -0.57 119 120 114
0.871074 -0.486472 -0.572 103 106 99
0.880024 -0.489024 -0.575 104 105 97
0.000474286 -0.424486 -0.498 193 152 122
0.0184229 -0.422781 -0.496 195 149 115
0.0269257 -0.422781 -0.496 194 148 115
0.0278705 -0.422781 -0.496 193 147 114
0.0288152 -0.422781 -0.496 197 151 118
0.0353571 -0.421929 -0.495 197 151 118
0.0363733 -0.422781 -0.496 199 153 120
0.0382629 -0.422781 -0.496 199 153 120
0.0410971 -0.422781 -0.496 198 152 119
0.05712 -0.4296 -0.504 180 136 111
0.0592743 -0.431305 -0.506 176 130 106
0.0635038 -0.433862 -0.509 166 122 97
0.0657 -0.435567 -0.511 159 118 96
0.0749248 -0.44409 -0.521 123 95 81
0.442374 -0.469662 -0.551 60 70 82
0.445795 -0.445795 -0.523 148 103 80
0.446075 -0.44409 -0.521 149 103 79
0.447329 -0.442386 -0.519 145 99 76
0.45281 -0.438124 -0.514 155 108 82
0.464991 -0.432157 -0.507 176 125 94
0.465957 -0.432157 -0.507 176 125 94
0.468893 -0.431305 -0.506 170 120 93
0.47564 -0.431305 -0.506 169 120 90
0.479495 -0.431305 -0.506 169 120 90
0.482387 -0.431305 -0.506 171 122 92
0.48817 -0.431305 -0.506 168 121 93
0.49979 -0.433862 -0.509 159 115 86
0.540611 -0.455171 -0.534 163 126 100
0.823135 -0.487562 -0.572 31 31 33
0.827134 -0.48671 -0.571 116 117 111
0.834748 -0.48671 -0.571 111 112 107
0.841273 -0.48671 -0.571 106 107 102
0.869985 -0.487562 -0.572 101 102 96
0.873689 -0.488414 -0.573 101 102 94
0.886817 -0.492676 -0.578 103 104 98
-0.00238095 -0.427143 -0.5 195 154 124
-0.000474286 -0.425434 -0.498 192 151 121
0.0146143 -0.422871 -0.495 197 153 118
0.0193286 -0.422871 -0.495 194 148 114
0.0231 -0.422871 -0.495 199 153 119
0.0410971 -0.423726 -0.496 197 151 118
0.0489495 -0.426289 -0.499 191 146 117
0.0592743 -0.432269 -0.506 172 128 103
0.0737905 -0.444229 -0.52 125 95 84
0.43319 -0.469857 -0.55 96 103 111
0.442374 -0.470711 -0.551 91 98 108
0.44232 -0.45448 -0.532 136 96 71
0.4472 -0.444229 -0.52 143 99 74
0.45064 -0.440811 -0.516 151 105 79
0.451729 -0.439957 -0.515 151 105 79
0.45406 -0.43654 -0.511 159 112 86
0.4581 -0.434831 -0.509 167 118 88
0.459135 -0.433977 -0.508 169 119 92
0.469857 -0.432269 -0.506 173 123 96
0.480459 -0.432269 -0.506 170 121 91
0.481423 -0.432269 -0.506 172 123 93
0.491061 -0.432269 -0.506 163 120 88
0.52951 -0.450209 -0.527 157 117 91
0.533534 -0.451917 -0.529 156 116 90
0.536563 -0.453626 -0.531 155 118 91
0.5457 -0.457043 -0.535 144 122 111
0.827849 -0.489506 -0.573 110 110 108
0.834397 -0.489506 -0.573 126 127 121
0.849284 -0.488651 -0.572 102 103 97
0.850373 -0.488651 -0.572 103 104 98
0.853642 -0.488651 -0.572 103 104 98
0.854731 -0.488651 -0.572 99 100 94
0.85909 -0.488651 -0.572 98 99 94
0.888781 -0.495486 -0.58 103 104 96
-0.0125238 -0.450356 -0.526 188 151 122
-0.000473333 -0.425527 -0.497 193 152 120
0.0202714 -0.423814 -0.495 198 153 120
0.0287571 -0.423814 -0.495 196 150 117
0.0353571 -0.423814 -0.495 197 150 120
0.0410971 -0.42467 -0.496 195 149 116
0.0540248 -0.429808 -0.502 182 138 113
0.0549809 -0.429808 -0.502 177 133 108
0.0592743 -0.433232 -0.506 171 127 102
0.0603571 -0.434089 -0.507 170 126 101
0.0624114 -0.434945 -0.508 167 123 98
0.078799 -0.451212 -0.527 100 87 79
0.444473 -0.471761 -0.551 94 95 97
0.444651 -0.448644 -0.524 144 99 76
0.447329 -0.444363 -0.519 147 101 78
0.44844 -0.443507 -0.518 150 104 81
0.448559 -0.44265 -0.517 149 103 80
0.451729 -0.440938 -0.515 152 106 80
0.453883 -0.439226 -0.513 154 106 83
0.453973 -0.43837 -0.512 157 109 86
0.46793 -0.433232 -0.506 169 119 92
0.467967 -0.432376 -0.505 171 121 94
0.476624 -0.432376 -0.505 172 125 95
0.477586 -0.432376 -0.505 169 122 92
0.487205 -0.432376 -0.505 169 123 90
0.49686 -0.434089 -0.507 160 115 84
0.501729 -0.435801 -0.509 156 112 83
0.507611 -0.43837 -0.512 156 112 83
0.520495 -0.445219 -0.52 156 115 87
0.532526 -0.452069 -0.528 156 116 90
0.831833 -0.49231 -0.575 117 118 112
0.837671 -0.490597 -0.573 109 110 102
0.840946 -0.490597 -0.573 101 100 95
0.852253 -0.491453 -0.574 99 100 94
0.855533 -0.491453 -0.574 117 118 112
0.85772 -0.491453 -0.574 101 102 96
0.866467 -0.491453 -0.574 123 124 118
0.873027 -0.491453 -0.574 66 67 61
0.886146 -0.495734 -0.579 101 103 92
-0.0114124 -0.447068 -0.521 187 148 117
0.0079819 -0.423041 -0.493 198 155 121
0.0145848 -0.423899 -0.494 196 151 118
0.0165 -0.424757 -0.495 194 149 116
0.0202714 -0.424757 -0.495 201 156 123
0.0230533 -0.423899 -0.494 196 149 119
0.0287571 -0.424757 -0.495 197 150 120
0.0315219 -0.423899 -0.494 197 151 118
0.0353571 -0.424757 -0.495 196 149 119
0.0410143 -0.424757 -0.495 194 147 117
0.0429867 -0.425615 -0.496 194 147 117
0.0459133 -0.426473 -0.497 192 145 115
0.0540248 -0.430764 -0.502 182 138 113
0.0560486 -0.431622 -0.503 174 130 105
0.0624114 -0.435912 -0.508 165 120 97
0.0635038 -0.43677 -0.509 162 120 98
0.0657 -0.438487 -0.511 156 115 97
0.07266 -0.445351 -0.519 124 94 84
0.426905 -0.471952 -0.55 105 109 112
0.429 -0.471952 -0.55 102 107 110
0.430048 -0.471952 -0.55 104 109 112
0.435028 -0.47281 -0.551 101 105 108
0.442676 -0.45479 -0.53 140 98 76
0.443182 -0.452216 -0.527 144 102 80
0.444651 -0.449642 -0.524 145 100 79
0.444799 -0.448784 -0.523 147 101 78
0.445937 -0.447926 -0.522 149 104 81
0.446075 -0.447068 -0.521 148 103 80
0.448559 -0.443635 -0.517 151 105 82
0.45064 -0.442777 -0.516 152 106 82
0.452906 -0.440203 -0.513 149 103 79
0.453883 -0.440203 -0.513 151 105 81
0.45406 -0.438487 -0.511 158 112 88
0.48624 -0.43248 -0.504 170 121 89
0.498791 -0.435054 -0.507 156 113 81
0.507593 -0.438487 -0.511 155 114 84
0.547731 -0.458223 -0.534 76 62 59
0.832529 -0.495121 -0.577 29 31 28
0.8395 -0.493405 -0.575 115 116 111
0.84788 -0.492547 -0.574 62 63 57
0.854833 -0.493405 -0.575 99 100 94
0.862093 -0.492547 -0.574 101 100 96
0.876069 -0.494263 -0.576 60 63 56
-0.0124048 -0.44806 -0.521 187 146 114
-0.00722857 -0.43516 -0.506 192 148 119
0.00328667 -0.42398 -0.493 198 155 121
0.00610381 -0.42398 -0.493 196 153 119
0.010821 -0.42484 -0.494 194 151 117
0.0174076 -0.42484 -0.494 198 153 122
0.0202305 -0.42484 -0.494 201 156 125
0.0211714 -0.42484 -0.494 200 155 124
0.0221124 -0.42484 -0.494 198 151 121
0.0410143 -0.4257 -0.495 195 148 118
0.0499 -0.42914 -0.499 185 139 113
0.05712 -0.43344 -0.504 171 129 107
0.0602381 -0.43516 -0.506 166 124 102
0.424037 -0.47214 -0.549 110 111 113
0.431095 -0.473 -0.55 106 107 109
0.437127 -0.47386 -0.551 104 105 107
0.442126 -0.47472 -0.552 101 103 98
0.443151 -0.45838 -0.533 138 97 75
0.445795 -0.44978 -0.523 149 104 81
0.446075 -0.44806 -0.521 149 104 81
0.450529 -0.44462 -0.517 151 105 81
0.453973 -0.44032 -0.512 154 108 84
0.45406 -0.43946 -0.511 156 110 86
0.45713 -0.43774 -0.509 169 119 94
0.467967 -0.4343 -0.505 175 124 95
0.481433 -0.4343 -0.505 174 123 92
0.51549 -0.4429 -0.515 156 115 85
0.5335 -0.4515 -0.525 150 111 82
0.541609 -0.4558 -0.53 146 115 97
0.551814 -0.4601 -0.535 56 46 47
0.84096 -0.49536 -0.576 122 122 120
0.867976 -0.4945 -0.575 125 126 120
0.872357 -0.4945 -0.575 105 106 100
0.880211 -0.49708 -0.578 40 41 33
-0.0133971 -0.449052 -0.521 184 147 118
-0.0113029 -0.444743 -0.516 186 145 117
-0.0023619 -0.427505 -0.496 190 149 119
0.00140857 -0.424919 -0.493 194 153 121
0.00610381 -0.424919 -0.493 195 152 118
0.00892095 -0.424919 -0.493 201 156 123
0.0136162 -0.424919 -0.493 196 151 120
0.0183486 -0.425781 -0.494 199 154 123
0.0221124 -0.425781 -0.494 196 149 119
0.0249352 -0.425781 -0.494 195 150 119
0.0459133 -0.428367 -0.497 188 143 114
0.0519048 -0.430952 -0.5 185 139 113
0.0539171 -0.431814 -0.501 181 135 111
0.0591571 -0.435262 -0.505 166 123 104
0.353727 -0.471462 -0.547 176 177 182
0.358936 -0.471462 -0.547 173 174 179
0.36102 -0.471462 -0.547 166 167 172
0.395082 -0.472324 -0.548 124 128 129
0.39717 -0.472324 -0.548 123 124 126
0.398213 -0.472324 -0.548 123 124 126
0.407306 -0.473186 -0.549 119 121 118
0.407608 -0.472324 -0.548 117 119 116
0.417763 -0.473186 -0.549 116 116 114
0.43083 -0.47491 -0.551 111 111 111
0.447383 -0.475771 -0.552 108 103 100
0.448317 -0.447329 -0.519 150 104 80
0.458231 -0.436986 -0.507 167 117 90
0.462195 -0.435262 -0.505 169 118 91
0.48624 -0.4344 -0.504 172 121 90
0.530471 -0.450776 -0.523 153 116 90
0.548736 -0.459395 -0.533 64 51 45
0.839123 -0.497319 -0.577 119 119 117
0.845349 -0.496457 -0.576 105 104 100
0.846446 -0.496457 -0.576 104 103 99
0.847543 -0.496457 -0.576 105 104 100
0.854126 -0.496457 -0.576 88 89 84
0.860005 -0.497319 -0.577 112 113 108
0.867291 -0.496457 -0.576 102 103 97
0.870583 -0.496457 -0.576 122 123 117
0.873874 -0.496457 -0.576 102 103 97
0.876069 -0.496457 -0.576 93 94 88
-0.0122857 -0.445726 -0.516 185 146 115
-0.00917429 -0.437951 -0.507 187 148 117
-0.00235714 -0.427586 -0.495 191 150 120
0.00515429 -0.424994 -0.492 196 153 121
0.010799 -0.425858 -0.493 194 151 117
0.0136162 -0.425858 -0.493 196 153 119
0.0145552 -0.425858 -0.493 195 152 118
0.0164667 -0.426722 -0.494 199 156 122
0.0192895 -0.426722 -0.494 196 153 119
0.0258238 -0.425858 -0.493 197 154 120
0.0400714 -0.427586 -0.495 196 150 117
0.0419571 -0.427586 -0.495 195 148 118
0.0508505 -0.431041 -0.499 184 140 115
0.0549809 -0.433632 -0.502 178 132 108
0.05712 -0.43536 -0.504 171 126 107
0.0680438 -0.443998 -0.514 135 102 87
0.346433 -0.472504 -0.547 186 187 191
0.359978 -0.472504 -0.547 169 169 169
0.363104 -0.472504 -0.547 161 162 166
0.373523 -0.472504 -0.547 142 145 152
0.377337 -0.473368 -0.548 142 143 148
0.388483 -0.474231 -0.549 134 134 134
0.405214 -0.474231 -0.549 122 124 123
0.408351 -0.474231 -0.549 121 123 120
0.417476 -0.475095 -0.55 117 117 115
0.423483 -0.475959 -0.551 114 114 114
0.426631 -0.475959 -0.551 115 115 115
0.432929 -0.475959 -0.551 113 111 114
0.445033 -0.477687 -0.553 103 103 105
0.446087 -0.477687 -0.553 99 99 101
0.448434 -0.476823 -0.552 102 91 87
0.443856 -0.456955 -0.529 147 102 81
0.444799 -0.451772 -0.523 149 102 82
0.44844 -0.447453 -0.518 149 105 80
0.451729 -0.444862 -0.515 154 108 85
0.479527 -0.434496 -0.503 173 123 88
0.490066 -0.434496 -0.503 165 119 85
0.505581 -0.438815 -0.508 157 112 83
0.521431 -0.44659 -0.517 154 112 87
0.524437 -0.448317 -0.519 155 113 88
0.532464 -0.451772 -0.523 152 108 81
0.839826 -0.500146 -0.579 105 105 105
0.840577 -0.499282 -0.578 116 115 113
0.842057 -0.497554 -0.576 120 119 117
0.846446 -0.497554 -0.576 106 105 100
0.851212 -0.498418 -0.577 70 71 65
0.860005 -0.498418 -0.577 112 113 107
0.884362 -0.50101 -0.58 79 84 77
-0.00423429 -0.427663 -0.494 191 150 120
0.00420857 -0.425066 -0.491 197 153 124
0.0126514 -0.425931 -0.492 194 151 117
0.0323971 -0.426797 -0.493 194 149 116
0.0362267 -0.427663 -0.494 193 148 115
0.0529629 -0.433723 -0.501 181 137 112
0.0539171 -0.433723 -0.501 179 135 110
0.0669343 -0.444111 -0.513 140 101 84
0.0728 -0.450171 -0.52 113 89 87
0.349154 -0.474411 -0.548 183 183 181
0.357505 -0.474411 -0.548 166 168 165
0.365855 -0.474411 -0.548 160 155 161
0.37525 -0.474411 -0.548 147 146 151
0.380117 -0.475277 -0.549 142 142 142
0.386391 -0.475277 -0.549 138 138 136
0.394429 -0.476143 -0.55 130 130 130
0.414333 -0.476143 -0.55 119 119 119
0.426354 -0.477874 -0.552 108 108 108
0.427406 -0.477874 -0.552 108 108 108
0.431611 -0.477874 -0.552 108 106 107
0.439767 -0.47874 -0.553 101 101 101
0.442927 -0.47874 -0.553 100 98 99
0.44714 -0.47874 -0.553 96 92 93
0.448905 -0.476143 -0.55 89 74 69
0.450529 -0.447574 -0.517 153 107 84
0.45281 -0.444977 -0.514 155 107 84
0.4572 -0.439783 -0.508 142 94 71
0.467071 -0.435454 -0.503 173 122 93
0.471862 -0.435454 -0.503 177 128 98
0.475694 -0.435454 -0.503 172 123 91
0.476652 -0.435454 -0.503 173 124 92
0.480485 -0.435454 -0.503 174 124 89
0.48431 -0.434589 -0.502 168 122 86
0.490066 -0.435454 -0.503 165 119 85
0.491024 -0.435454 -0.503 164 118 84
0.4968 -0.43632 -0.504 162 117 88
0.50359 -0.438051 -0.506 158 112 86
0.514438 -0.443246 -0.512 151 111 86
0.519414 -0.445843 -0.515 155 113 89
0.519385 -0.444977 -0.514 157 113 84
0.527403 -0.449306 -0.519 152 110 88
0.53244 -0.451903 -0.522 148 112 88
0.546657 -0.458829 -0.53 97 71 44
0.842779 -0.500383 -0.578 120 119 115
0.849014 -0.499517 -0.577 102 101 96
0.853789 -0.500383 -0.578 86 87 81
0.85599 -0.500383 -0.578 86 87 81
0.862986 -0.501249 -0.579 111 112 106
0.870706 -0.501249 -0.579 104 105 100
0.871809 -0.501249 -0.579 105 106 101
0.874707 -0.500383 -0.578 110 111 105
0.879943 -0.502114 -0.58 107 108 102
0.890047 -0.504711 -0.583 101 102 96
-0.0154114 -0.452897 -0.522 184 148 114
-0.0132429 -0.446824 -0.515 185 145 110
-0.0121667 -0.443353 -0.511 182 146 114
-0.00517524 -0.428604 -0.494 190 149 119
0.00606667 -0.425133 -0.49 191 148 116
0.0183114 -0.427736 -0.493 198 153 122
0.0258238 -0.427736 -0.493 201 156 123
0.0399905 -0.428604 -0.494 196 151 120
0.0498 -0.432074 -0.498 184 138 112
0.0591571 -0.438148 -0.505 168 121 101
0.319214 -0.472852 -0.545 202 201 207
0.33228 -0.47372 -0.546 192 193 198
0.337056 -0.474588 -0.547 191 191 193
0.343935 -0.475455 -0.548 179 183 186
0.350837 -0.476323 -0.549 182 176 178
0.360249 -0.476323 -0.549 156 165 162
0.361294 -0.476323 -0.549 158 167 164
0.36234 -0.476323 -0.549 157 161 162
0.36966 -0.476323 -0.549 152 151 159
0.372797 -0.476323 -0.549 150 149 155
0.375934 -0.476323 -0.549 144 143 148
0.387095 -0.47719 -0.55 127 127 125
0.409839 -0.478058 -0.551 109 112 119
0.415087 -0.478058 -0.551 105 105 107
0.418994 -0.478926 -0.552 102 100 103
0.421384 -0.478058 -0.551 99 98 96
0.4232 -0.478926 -0.552 99 98 96
0.4445 -0.4555 -0.525 147 104 85
0.445937 -0.452897 -0.522 152 105 85
0.448317 -0.450294 -0.519 150 105 84
0.458168 -0.44075 -0.508 159 112 86
0.460271 -0.438148 -0.505 167 117 92
0.461233 -0.438148 -0.505 167 117 90
0.4632 -0.43728 -0.504 171 121 94
0.468988 -0.436412 -0.503 175 126 94
0.470904 -0.436412 -0.503 179 129 96
0.471862 -0.436412 -0.503 176 126 93
0.482398 -0.435545 -0.502 174 126 90
0.485267 -0.435545 -0.502 171 122 89
0.496772 -0.436412 -0.503 162 117 88
0.49968 -0.43728 -0.504 162 117 88
0.506517 -0.439883 -0.507 158 114 85
0.514407 -0.443353 -0.511 155 111 84
0.52938 -0.450294 -0.519 150 113 87
-0.00611619 -0.429545 -0.494 195 151 122
-0.000467619 -0.426936 -0.491 191 150 118
0.0173371 -0.427806 -0.492 197 152 121
0.02296 -0.427806 -0.492 198 153 122
0.0238971 -0.427806 -0.492 200 155 124
0.0352143 -0.428675 -0.493 193 150 118
0.0380314 -0.428675 -0.493 195 152 120
0.0438429 -0.430414 -0.495 188 143 112
0.05808 -0.43824 -0.504 167 122 99
0.0692914 -0.448674 -0.516 125 96 82
0.294796 -0.473021 -0.544 213 213 215
0.307795 -0.47389 -0.545 207 205 208
0.308833 -0.47389 -0.545 206 204 207
0.31668 -0.47476 -0.546 199 197 200
0.368908 -0.479108 -0.551 139 137 142
0.377989 -0.479977 -0.552 125 125 127
0.383246 -0.479977 -0.552 120 120 122
0.387451 -0.479977 -0.552 116 116 118
0.398687 -0.480847 -0.553 101 100 105
0.399017 -0.479977 -0.552 100 99 104
0.403223 -0.479977 -0.552 98 97 102
0.404274 -0.479977 -0.552 98 97 102
0.405326 -0.479977 -0.552 95 95 97
0.406377 -0.479977 -0.552 94 94 96
0.419753 -0.480847 -0.553 81 80 85
0.423967 -0.480847 -0.553 77 76 81
0.437396 -0.481716 -0.554 68 68 70
0.445838 -0.481716 -0.554 62 63 67
0.4503 -0.480847 -0.553 59 58 53
0.4455 -0.4565 -0.525 150 105 84
0.44565 -0.45563 -0.524 148 105 86
0.455033 -0.444327 -0.511 156 110 87
0.455114 -0.443457 -0.51 153 107 84
0.460219 -0.439979 -0.506 165 115 90
0.465155 -0.43737 -0.503 168 122 89
0.46803 -0.43737 -0.503 171 125 92
0.469946 -0.43737 -0.503 179 130 98
0.49196 -0.436501 -0.502 166 120 86
0.493872 -0.436501 -0.502 166 120 87
0.510419 -0.441718 -0.508 155 111 82
0.521306 -0.446066 -0.513 150 109 81
0.528325 -0.449544 -0.517 152 112 86
0.53947 -0.45563 -0.524 153 116 90
0.856369 -0.503454 -0.579 103 104 99
0.869326 -0.507802 -0.584 112 113 108
-0.012119 -0.443557 -0.509 185 144 112
-0.01004 -0.437457 -0.502 188 152 120
-0.00899333 -0.4331 -0.497 188 153 125
-0.00610381 -0.429614 -0.493 196 151 118
0.00326 -0.426129 -0.489 198 157 125
0.00605429 -0.426129 -0.489 190 149 117
0.007 -0.427 -0.49 192 149 117
0.0154314 -0.427871 -0.491 194 151 117
0.0173019 -0.427871 -0.491 195 152 118
0.0267086 -0.428743 -0.492 199 154 123
0.0313943 -0.428743 -0.492 194 151 119
0.0342752 -0.429614 -0.493 195 152 120
0.0560486 -0.438329 -0.503 166 121 100
0.0625343 -0.443557 -0.509 155 109 94
0.0681762 -0.448786 -0.515 125 97 83
0.0716714 -0.452271 -0.519 110 87 81
0.287543 -0.474057 -0.544 205 205 205
0.292224 -0.474929 -0.545 204 202 205
0.30205 -0.474057 -0.544 198 198 200
0.336197 -0.478414 -0.549 164 164 166
0.338289 -0.478414 -0.549 162 162 164
0.358253 -0.482771 -0.554 132 132 134
0.360364 -0.482771 -0.554 129 129 131
0.361419 -0.482771 -0.554 127 127 129
0.36775 -0.482771 -0.554 115 113 118
0.377248 -0.482771 -0.554 102 101 106
0.388141 -0.484514 -0.556 89 88 93
0.396613 -0.484514 -0.556 78 77 82
0.398014 -0.483643 -0.555 77 76 81
0.405414 -0.483643 -0.555 71 70 75
0.421568 -0.482771 -0.554 64 63 69
0.429729 -0.483643 -0.555 64 63 68
0.433957 -0.483643 -0.555 62 63 67
0.438186 -0.483643 -0.555 63 63 65
0.450871 -0.483643 -0.555 56 58 55
0.451 -0.479286 -0.55 75 64 62
0.446791 -0.455757 -0.523 148 107 87
0.45064 -0.449657 -0.516 152 107 86
0.45713 -0.443557 -0.509 153 105 83
0.458168 -0.442686 -0.508 160 112 89
0.458231 -0.441814 -0.507 162 114 91
0.459197 -0.441814 -0.507 163 115 92
0.462281 -0.438329 -0.503 169 119 92
0.474749 -0.437457 -0.502 173 124 92
0.4843 -0.436586 -0.501 172 123 90
0.487163 -0.436586 -0.501 174 128 94
0.497697 -0.437457 -0.502 163 116 86
0.538406 -0.454886 -0.522 154 120 93
-0.0163114 -0.45326 -0.519 184 149 117
0.00139714 -0.42706 -0.489 193 152 120
0.013561 -0.428807 -0.491 196 153 119
0.0144962 -0.428807 -0.491 198 155 121
0.0182371 -0.428807 -0.491 196 153 119
0.0238971 -0.42968 -0.492 194 149 116
0.02946 -0.428807 -0.491 200 155 124
0.0323314 -0.42968 -0.492 195 152 120
0.0418724 -0.431427 -0.494 188 144 115
0.0498 -0.43492 -0.498 176 132 107
0.0560486 -0.439287 -0.503 165 120 99
0.0603571 -0.44278 -0.507 155 110 91
0.0681762 -0.449767 -0.515 124 96 84
0.0718095 -0.454133 -0.52 105 85 78
0.263226 -0.47422 -0.543 205 205 207
0.285995 -0.475967 -0.545 196 194 197
0.288071 -0.475967 -0.545 193 191 194
0.2938 -0.47684 -0.546 192 190 193
0.29692 -0.47684 -0.546 189 187 190
0.30108 -0.47684 -0.546 183 183 185
0.306841 -0.477713 -0.547 179 179 181
0.308925 -0.477713 -0.547 175 175 177
0.316329 -0.47946 -0.549 167 166 171
0.326333 -0.480333 -0.55 151 150 155
0.338471 -0.481207 -0.551 131 129 134
0.339521 -0.481207 -0.551 131 129 134
0.352557 -0.4847 -0.555 111 110 115
0.363783 -0.485573 -0.556 94 92 97
0.374373 -0.485573 -0.556 79 78 84
0.375432 -0.485573 -0.556 78 77 83
0.403733 -0.489067 -0.56 63 62 67
0.411119 -0.486447 -0.557 64 63 69
0.448252 -0.486447 -0.557 58 59 64
0.449313 -0.486447 -0.557 56 57 62
0.45217 -0.483827 -0.554 55 57 56
0.453883 -0.44802 -0.513 156 109 89
0.475711 -0.43754 -0.501 167 121 88
0.480476 -0.436667 -0.5 170 124 91
0.50544 -0.44016 -0.504 157 113 86
0.515257 -0.443653 -0.508 155 114 84
0.519229 -0.4454 -0.51 153 114 81
0.530251 -0.45064 -0.516 159 113 87
0.542426 -0.456753 -0.523 98 78 53
-0.0183238 -0.455124 -0.52 186 149 122
-0.00326 -0.427991 -0.489 191 152 121
-0.000464762 -0.427116 -0.488 192 151 121
0.00325333 -0.427116 -0.488 197 156 124
0.0107333 -0.428867 -0.49 194 151 119
0.0219781 -0.429742 -0.491 190 145 114
0.025719 -0.429742 -0.491 194 151 119
0.0313943 -0.430617 -0.492 195 152 120
0.0351429 -0.430617 -0.492 193 148 119
0.0399095 -0.431492 -0.493 192 147 118
0.0438429 -0.433243 -0.495 187 143 114
0.0478067 -0.434993 -0.497 180 136 111
0.07308 -0.456874 -0.522 101 83 83
0.256457 -0.47613 -0.544 199 199 199
0.273538 -0.477005 -0.545 187 187 189
0.278729 -0.477005 -0.545 181 179 182
0.293832 -0.47963 -0.548 164 163 168
0.300095 -0.47963 -0.548 158 157 162
0.303227 -0.47963 -0.548 152 151 156
0.309009 -0.480506 -0.549 143 142 147
0.312714 -0.481381 -0.55 138 137 142
0.318057 -0.483131 -0.552 128 127 132
0.32752 -0.483131 -0.552 106 105 110
0.338814 -0.485757 -0.555 93 90 97
0.341986 -0.485757 -0.555 90 89 95
0.3568 -0.490133 -0.56 74 73 79
0.361711 -0.491009 -0.561 73 70 77
0.363849 -0.491009 -0.561 71 70 76
0.37026 -0.491009 -0.561 70 69 77
0.411598 -0.491884 -0.562 62 61 67
0.418546 -0.487508 -0.557 60 59 65
0.419607 -0.487508 -0.557 60 59 65
0.428863 -0.488383 -0.558 60 61 66
0.43815 -0.489258 -0.559 57 58 63
0.449427 -0.453373 -0.518 151 109 85
0.452906 -0.448997 -0.513 152 107 84
0.453973 -0.448122 -0.512 154 108 85
0.484286 -0.437619 -0.5 174 125 93
0.485238 -0.437619 -0.5 175 126 94
0.51821 -0.445496 -0.509 154 115 82
0.525166 -0.448122 -0.512 156 112 85
0.527169 -0.448997 -0.513 163 118 89
0.549451 -0.458625 -0.524 22 21 19
-0.0140029 -0.444711 -0.507 186 147 116
-0.0108867 -0.43594 -0.497 193 154 123
-0.00513333 -0.4298 -0.49 192 151 123
-0.0042 -0.4298 -0.49 192 151 123
0.00325333 -0.428046 -0.488 195 154 124
0.0266543 -0.430677 -0.491 195 154 122
0.0303952 -0.430677 -0.491 196 153 121
0.0389705 -0.432431 -0.493 192 147 118
0.0408486 -0.432431 -0.493 186 140 114
0.0418724 -0.433309 -0.494 184 138 112
0.0438429 -0.434186 -0.495 186 141 112
0.04686 -0.43594 -0.497 179 135 110
0.0626571 -0.447343 -0.51 142 102 90
0.0648533 -0.449097 -0.512 134 96 83
0.0671952 -0.451729 -0.515 127 94 79
0.218976 -0.474534 -0.541 207 207 207
0.229705 -0.475411 -0.542 202 202 202
0.233834 -0.475411 -0.542 198 198 200
0.236334 -0.476289 -0.543 200 198 201
0.238403 -0.476289 -0.543 195 193 196
0.241506 -0.476289 -0.543 195 193 196
0.249204 -0.477166 -0.544 193 191 192
0.25024 -0.477166 -0.544 191 189 190
0.254852 -0.478043 -0.545 187 185 186
0.26676 -0.47892 -0.546 172 171 176
0.27404 -0.47892 -0.546 159 158 163
0.280793 -0.479797 -0.547 155 153 158
0.281835 -0.479797 -0.547 152 151 156
0.290186 -0.481551 -0.549 135 134 139
0.294905 -0.482429 -0.55 126 125 131
0.302788 -0.483306 -0.551 115 114 119
0.309085 -0.483306 -0.551 103 102 108
0.310134 -0.483306 -0.551 98 97 103
0.313851 -0.484183 -0.552 91 90 96
0.342321 -0.490323 -0.559 72 71 77
0.346133 -0.4912 -0.56 72 71 77
0.361701 -0.496463 -0.566 66 67 72
0.364935 -0.496463 -0.566 68 67 73
0.366013 -0.496463 -0.566 69 68 74
0.37206 -0.49734 -0.567 68 67 75
0.421113 -0.490323 -0.559 57 56 62
0.432237 -0.492077 -0.561 51 50 58
0.441854 -0.492077 -0.561 46 45 51
0.450014 -0.478043 -0.545 87 74 81
0.4475 -0.4605 -0.525 147 107 82
0.451729 -0.451729 -0.515 157 113 88
0.451929 -0.449974 -0.513 149 105 80
0.453883 -0.449974 -0.513 148 104 79
0.460219 -0.443834 -0.506 161 115 89
0.461233 -0.442957 -0.505 161 116 87
0.46128 -0.44208 -0.504 160 115 86
0.462281 -0.441203 -0.503 164 119 90
0.463239 -0.441203 -0.503 170 125 96
0.466169 -0.439449 -0.501 165 120 89
0.47094 -0.439449 -0.501 171 124 94
0.477619 -0.438571 -0.5 165 116 84
0.478571 -0.438571 -0.5 171 122 90
0.479524 -0.438571 -0.5 175 126 94
0.495714 -0.438571 -0.5 168 122 89
0.499569 -0.439449 -0.501 163 118 89
0.519128 -0.445589 -0.508 157 113 86
0.539266 -0.455237 -0.519 137 111 88
0.543329 -0.456991 -0.521 57 50 40
-0.0128829 -0.440403 -0.501 189 150 119
-0.00890286 -0.432491 -0.492 191 152 121
0.00324667 -0.428096 -0.487 195 154 124
0.0060419 -0.428975 -0.488 191 150 120
0.0125743 -0.429854 -0.489 199 154 123
0.0191333 -0.430733 -0.49 199 154 123
0.0219333 -0.430733 -0.49 191 144 116
0.0303952 -0.431612 -0.491 196 151 122
0.0389705 -0.43337 -0.493 190 145 116
0.0418724 -0.43425 -0.494 185 141 112
0.0438429 -0.435129 -0.495 182 139 107
0.0488514 -0.437766 -0.498 176 134 109
0.0508505 -0.438645 -0.499 172 130 105
0.0540248 -0.441282 -0.502 164 122 98
0.0550905 -0.442161 -0.503 160 118 96
0.06956 -0.455347 -0.518 110 86 74
0.184629 -0.474686 -0.54 214 209 215
0.213187 -0.476444 -0.542 205 203 206
0.214854 -0.475565 -0.541 203 201 204
0.216284 -0.476444 -0.542 202 200 203
0.219381 -0.476444 -0.542 201 199 202
0.222478 -0.476444 -0.542 199 197 200
0.269332 -0.480839 -0.547 133 132 138
0.2735 -0.480839 -0.547 125 124 130
0.277668 -0.480839 -0.547 114 113 119
0.279219 -0.481718 -0.548 110 109 115
0.282866 -0.482597 -0.549 105 104 110
0.290193 -0.484355 -0.551 92 91 97
0.299673 -0.486113 -0.553 82 79 88
0.304436 -0.486992 -0.554 80 79 85
0.333803 -0.491388 -0.559 66 65 73
0.339271 -0.493146 -0.561 66 65 73
0.342017 -0.494025 -0.562 66 65 71
0.363809 -0.501936 -0.571 64 65 70
0.369893 -0.502815 -0.572 64 63 69
0.380363 -0.503694 -0.573 62 62 70
0.426271 -0.494904 -0.563 33 32 40
0.440212 -0.494904 -0.563 22 21 29
0.451666 -0.480839 -0.547 64 56 67
0.447197 -0.463258 -0.527 145 105 79
0.451929 -0.450951 -0.513 148 106 81
0.455114 -0.448314 -0.51 153 108 85
0.456161 -0.447435 -0.509 154 109 86
0.475714 -0.439524 -0.5 168 119 87
0.521063 -0.446556 -0.508 156 115 85
0.52706 -0.449193 -0.511 159 118 90
0.529067 -0.450072 -0.512 159 118 90
-0.0181124 -0.45281 -0.514 185 148 119
-0.00139143 -0.429024 -0.487 193 154 121
0.00231905 -0.429024 -0.487 195 154 122
0.00883048 -0.429905 -0.488 192 151 119
0.0107114 -0.430786 -0.489 195 152 120
0.0116429 -0.430786 -0.489 196 153 121
0.0399095 -0.43431 -0.493 188 143 114
0.0660857 -0.45281 -0.514 123 95 84
0.070819 -0.458095 -0.52 105 85 78
0.0906914 -0.473952 -0.538 128 122 122
0.15862 -0.474833 -0.539 216 211 215
0.171257 -0.475714 -0.54 214 212 217
0.173314 -0.475714 -0.54 214 211 218
0.190123 -0.476595 -0.541 200 199 204
0.208025 -0.477476 -0.542 199 197 200
0.209057 -0.477476 -0.542 197 195 198
0.21358 -0.478357 -0.543 193 191 196
0.219786 -0.478357 -0.543 186 184 189
0.234697 -0.479238 -0.544 163 161 166
0.236167 -0.480119 -0.545 161 159 164
0.23972 -0.481 -0.546 156 154 159
0.255211 -0.482762 -0.548 126 123 130
0.260906 -0.483643 -0.549 114 111 118
0.262997 -0.483643 -0.549 106 103 110
0.273952 -0.484524 -0.55 89 86 93
0.2755 -0.485405 -0.551 85 82 89
0.30186 -0.492452 -0.559 74 71 80
0.307733 -0.493333 -0.56 72 71 77
0.311489 -0.494214 -0.561 71 70 78
0.313626 -0.494214 -0.561 70 69 77
0.426203 -0.504786 -0.573 18 16 27
0.452491 -0.482762 -0.548 33 31 42
0.451052 -0.480119 -0.545 79 60 53
0.44735 -0.463381 -0.526 143 103 78
0.447646 -0.461619 -0.524 146 106 81
0.447788 -0.460738 -0.523 146 106 81
0.449181 -0.458095 -0.52 145 105 79
0.450413 -0.456333 -0.518 150 108 83
0.45281 -0.45281 -0.514 149 107 82
0.453087 -0.450167 -0.511 155 111 86
0.459255 -0.445762 -0.506 138 92 68
0.46224 -0.444 -0.504 161 114 88
0.467123 -0.441357 -0.501 169 119 92
0.470952 -0.440476 -0.5 173 122 95
0.47381 -0.440476 -0.5 173 124 94
0.475714 -0.440476 -0.5 164 115 85
0.492822 -0.439595 -0.499 173 124 91
