ply
format ascii 1.0
comment Created by Open3D
element vertex 1295
property double x
property double y
property double z
property uchar red
property uchar green
property uchar blue
end_header
0.0638857 -0.386781 -0.52 197 147 120
0.0689705 -0.387525 -0.521 188 133 112
0.0699629 -0.387525 -0.521 186 131 111
0.0742162 -0.389012 -0.523 184 132 108
0.0796514 -0.391244 -0.526 179 127 105
0.0851438 -0.393475 -0.529 174 122 100
0.0946143 -0.399426 -0.537 158 110 96
0.131058 -0.424715 -0.571 161 161 171
0.141934 -0.424715 -0.571 189 194 214
0.313786 -0.426203 -0.573 215 218 235
0.314877 -0.426203 -0.573 218 220 235
0.324694 -0.408351 -0.549 149 98 94
0.329237 -0.402401 -0.541 171 110 105
0.336634 -0.40017 -0.538 179 118 113
0.338054 -0.399426 -0.537 182 121 116
0.34253 -0.398682 -0.536 175 114 109
0.360204 -0.40017 -0.538 137 78 72
0.371116 -0.398682 -0.536 118 76 64
0.378576 -0.397938 -0.535 114 72 60
0.392556 -0.398682 -0.536 117 75 61
0.400724 -0.398682 -0.536 115 71 58
0.402014 -0.397938 -0.535 117 73 60
0.406349 -0.397194 -0.534 126 80 67
0.415191 -0.394963 -0.531 137 86 69
0.422696 -0.393475 -0.529 151 99 78
0.435977 -0.392731 -0.528 165 109 86
0.454637 -0.394963 -0.531 171 121 98
0.4636 -0.395707 -0.532 173 125 103
0.464613 -0.395707 -0.532 173 125 103
0.470563 -0.39645 -0.533 174 126 103
0.495288 -0.407608 -0.548 153 110 93
0.0357029 -0.393737 -0.528 203 159 130
0.0383533 -0.390009 -0.523 206 161 132
0.0431686 -0.388517 -0.521 203 158 127
0.0469571 -0.387026 -0.519 203 160 128
0.0518 -0.38628 -0.518 203 159 130
0.0527867 -0.38628 -0.518 203 159 130
0.0557467 -0.38628 -0.518 202 157 128
0.06068 -0.38628 -0.518 196 149 121
0.0647514 -0.387026 -0.519 191 141 116
0.0688381 -0.387771 -0.52 187 132 111
0.0742162 -0.390009 -0.523 185 131 107
0.0775 -0.3915 -0.525 179 127 103
0.0874886 -0.395974 -0.531 175 123 102
0.0934171 -0.399703 -0.536 161 114 94
0.127795 -0.425803 -0.571 135 132 143
0.137584 -0.425803 -0.571 188 192 201
0.146029 -0.425057 -0.57 105 121 157
0.147114 -0.425057 -0.57 170 186 219
0.325657 -0.414617 -0.556 128 83 78
0.326333 -0.410143 -0.55 142 94 90
0.327234 -0.408651 -0.548 141 94 88
0.32942 -0.404923 -0.543 154 103 99
0.349024 -0.398957 -0.535 170 109 106
0.354781 -0.399703 -0.536 160 99 94
0.356466 -0.400449 -0.537 153 92 87
0.361229 -0.401194 -0.538 131 84 74
0.3745 -0.398957 -0.535 116 77 62
0.375519 -0.398957 -0.535 115 76 61
0.391535 -0.399703 -0.536 118 76 62
0.398682 -0.399703 -0.536 116 74 62
0.400724 -0.399703 -0.536 114 70 59
0.401745 -0.399703 -0.536 116 72 61
0.406349 -0.398211 -0.534 125 79 66
0.412933 -0.39672 -0.532 134 87 71
0.418448 -0.395229 -0.53 149 96 80
0.425113 -0.392991 -0.527 154 102 80
0.426117 -0.392991 -0.527 156 101 80
0.430132 -0.392991 -0.527 160 106 82
0.431136 -0.392991 -0.527 161 107 83
0.450752 -0.395229 -0.53 168 116 94
0.452771 -0.395229 -0.53 168 116 94
0.464613 -0.39672 -0.532 174 124 101
0.4887 -0.404923 -0.543 157 116 94
0.0346971 -0.394743 -0.528 203 159 130
0.0459686 -0.388014 -0.519 204 159 128
0.0874886 -0.396986 -0.531 174 123 102
0.0946143 -0.401471 -0.537 160 112 98
0.119761 -0.425395 -0.569 114 109 106
0.127571 -0.426143 -0.57 163 160 169
0.135171 -0.426143 -0.57 194 194 196
0.139514 -0.426143 -0.57 189 196 212
0.321954 -0.427638 -0.572 164 178 205
0.328877 -0.410443 -0.549 141 92 85
0.338684 -0.402219 -0.538 184 119 117
0.341509 -0.400724 -0.536 181 115 116
0.346986 -0.399976 -0.535 176 111 107
0.348005 -0.399976 -0.535 175 110 106
0.349024 -0.399976 -0.535 172 109 104
0.359534 -0.401471 -0.537 134 82 71
0.363278 -0.402219 -0.538 126 82 69
0.380305 -0.400724 -0.536 114 72 58
0.398403 -0.401471 -0.537 116 72 61
0.417214 -0.396986 -0.531 140 87 71
0.418448 -0.396238 -0.53 153 98 78
0.420681 -0.39549 -0.529 157 101 78
0.435151 -0.393995 -0.527 166 112 88
0.442011 -0.394743 -0.528 164 107 87
0.452925 -0.39549 -0.529 172 120 96
0.467653 -0.397733 -0.532 172 125 97
0.474624 -0.398481 -0.533 170 124 98
0.4869 -0.404462 -0.541 159 117 93
0.491672 -0.406705 -0.544 157 116 96
0.0546543 -0.387504 -0.517 198 155 123
0.0567333 -0.388253 -0.518 197 154 122
0.0647514 -0.389003 -0.519 185 135 110
0.0698286 -0.389752 -0.52 187 132 112
0.0863143 -0.397248 -0.53 173 122 101
0.0898486 -0.399496 -0.533 170 119 100
0.0972 -0.404743 -0.54 147 104 95
0.104238 -0.412238 -0.55 124 98 97
0.121929 -0.426479 -0.569 111 110 115
0.128657 -0.427229 -0.57 162 159 168
0.140353 -0.426479 -0.569 158 170 196
0.146856 -0.426479 -0.569 195 207 229
0.14794 -0.426479 -0.569 202 214 236
0.333557 -0.406991 -0.543 161 106 99
0.33542 -0.405492 -0.541 170 113 106
0.34355 -0.401745 -0.536 172 111 108
0.346986 -0.400995 -0.535 176 111 107
0.366352 -0.403244 -0.538 122 78 65
0.370786 -0.402494 -0.537 117 75 61
0.373854 -0.402494 -0.537 118 76 64
0.376221 -0.401745 -0.536 111 71 59
0.379284 -0.401745 -0.536 116 74 60
0.391243 -0.402494 -0.537 116 74 60
0.392266 -0.402494 -0.537 114 72 58
0.393289 -0.402494 -0.537 113 71 57
0.395334 -0.402494 -0.537 113 73 61
0.399426 -0.402494 -0.537 114 72 58
0.403787 -0.401745 -0.536 118 74 61
0.409148 -0.400995 -0.535 125 79 64
0.410167 -0.400995 -0.535 126 80 65
0.411679 -0.399496 -0.533 133 87 74
0.415973 -0.398747 -0.532 140 88 75
0.427121 -0.394999 -0.527 162 107 86
0.433144 -0.394999 -0.527 163 109 85
0.451917 -0.396498 -0.529 173 119 95
0.464751 -0.397997 -0.531 177 130 104
0.0382067 -0.391494 -0.521 201 157 128
0.0496343 -0.387737 -0.516 204 161 127
0.0576086 -0.388489 -0.517 199 154 125
0.07294 -0.391494 -0.521 186 131 110
0.0828143 -0.396003 -0.527 180 128 107
0.0985924 -0.407274 -0.542 138 100 89
0.121929 -0.427563 -0.569 95 94 100
0.124096 -0.427563 -0.569 126 125 131
0.141189 -0.426811 -0.568 82 96 125
0.332327 -0.41554 -0.553 131 86 91
0.332619 -0.413286 -0.55 134 96 95
0.335208 -0.408777 -0.544 155 105 98
0.335626 -0.408026 -0.543 161 106 101
0.338511 -0.406523 -0.541 171 110 107
0.338914 -0.405771 -0.54 171 110 107
0.374877 -0.403517 -0.537 116 74 62
0.381014 -0.403517 -0.537 114 72 58
0.395046 -0.404269 -0.538 111 72 57
0.39738 -0.403517 -0.537 112 73 58
0.398403 -0.403517 -0.537 113 71 57
0.400449 -0.403517 -0.537 112 70 56
0.40685 -0.402766 -0.536 128 82 67
0.415973 -0.39976 -0.532 140 88 75
0.424914 -0.396754 -0.528 165 108 88
0.431136 -0.396003 -0.527 162 105 85
0.435151 -0.396003 -0.527 162 106 83
0.453932 -0.397506 -0.529 175 124 97
0.45494 -0.397506 -0.529 173 126 100
0.47082 -0.399009 -0.531 169 122 96
0.490897 -0.407274 -0.542 157 116 94
0.0266657 -0.41358 -0.549 192 155 129
0.0372143 -0.392487 -0.521 202 159 127
0.0409467 -0.390227 -0.518 202 159 127
0.04292 -0.390227 -0.518 203 160 126
0.0545486 -0.38872 -0.516 197 154 122
0.08968 -0.400773 -0.532 169 118 99
0.0934171 -0.403787 -0.536 162 114 100
0.137102 -0.428647 -0.569 191 197 209
0.141189 -0.427893 -0.568 99 112 144
0.143352 -0.427893 -0.568 176 190 219
0.35376 -0.403787 -0.536 161 103 92
0.354781 -0.403787 -0.536 160 102 91
0.364303 -0.405293 -0.538 127 79 67
0.368402 -0.405293 -0.538 123 77 64
0.379674 -0.405293 -0.538 116 72 61
0.385106 -0.40454 -0.537 111 69 55
0.388174 -0.40454 -0.537 111 72 57
0.389197 -0.40454 -0.537 111 72 57
0.390947 -0.405293 -0.538 111 72 57
0.395046 -0.405293 -0.538 109 70 55
0.39607 -0.405293 -0.538 109 70 55
0.400449 -0.40454 -0.537 110 68 54
0.403517 -0.40454 -0.537 117 73 60
0.426117 -0.397007 -0.527 165 109 86
0.43214 -0.397007 -0.527 161 105 82
0.441174 -0.397007 -0.527 159 103 78
0.443182 -0.397007 -0.527 168 114 88
0.466905 -0.399267 -0.53 171 124 94
0.4815 -0.403033 -0.535 165 119 95
0.03806 -0.391969 -0.519 203 158 127
0.0408676 -0.390458 -0.517 202 157 126
0.0418524 -0.390458 -0.517 202 159 125
0.0457029 -0.389703 -0.516 206 161 128
0.0476686 -0.389703 -0.516 203 160 126
0.0496343 -0.389703 -0.516 203 160 126
0.0534619 -0.388948 -0.515 199 154 123
0.0565143 -0.389703 -0.516 198 155 121
0.0615476 -0.390458 -0.517 191 144 116
0.0666 -0.391213 -0.518 184 132 108
0.0750686 -0.394234 -0.522 180 125 104
0.0849829 -0.398766 -0.528 178 125 107
0.0908638 -0.402542 -0.533 165 112 94
0.09738 -0.408584 -0.541 137 104 97
0.0987743 -0.410094 -0.543 133 100 93
0.11718 -0.42822 -0.567 111 101 102
0.11934 -0.42822 -0.567 94 87 94
0.134697 -0.428975 -0.568 185 191 205
0.14202 -0.42822 -0.567 185 197 219
0.14418 -0.42822 -0.567 205 212 228
0.33681 -0.415381 -0.55 134 90 89
0.345214 -0.405563 -0.537 170 109 106
0.350697 -0.404808 -0.536 168 103 99
0.357489 -0.405563 -0.537 145 91 79
0.362253 -0.406318 -0.538 133 85 73
0.3766 -0.406318 -0.538 115 73 61
0.409654 -0.405563 -0.537 126 78 64
0.413469 -0.403297 -0.534 131 82 68
0.419013 -0.401787 -0.532 141 90 71
0.422486 -0.400276 -0.53 155 99 76
0.425719 -0.399521 -0.529 160 104 81
0.45897 -0.399521 -0.529 179 129 104
0.465016 -0.399521 -0.529 174 125 95
0.471062 -0.399521 -0.529 168 121 95
0.473971 -0.400276 -0.53 174 124 97
0.48625 -0.406318 -0.538 160 115 92
0.50718 -0.417647 -0.553 159 117 95
0.0255267 -0.414157 -0.547 192 148 123
0.0306162 -0.399014 -0.527 199 155 126
0.0342371 -0.394471 -0.521 201 158 126
0.0351619 -0.393714 -0.52 204 161 129
0.0361524 -0.393714 -0.52 207 163 134
0.0565143 -0.390686 -0.516 198 153 120
0.0666 -0.3922 -0.518 185 133 111
0.0760629 -0.395229 -0.522 188 136 115
0.0805 -0.3975 -0.525 180 128 107
0.0815 -0.3975 -0.525 182 130 109
0.0838181 -0.399014 -0.527 179 126 108
0.116973 -0.428543 -0.566 117 108 111
0.1269 -0.4293 -0.567 153 150 171
0.12906 -0.4293 -0.567 178 176 187
0.1323 -0.4293 -0.567 180 184 193
0.14094 -0.4293 -0.567 177 185 204
0.337593 -0.4187 -0.553 123 85 84
0.340797 -0.411129 -0.543 153 98 95
0.350697 -0.405829 -0.536 166 101 97
0.363953 -0.4081 -0.539 130 84 71
0.369087 -0.4081 -0.539 120 76 63
0.382433 -0.4081 -0.539 114 72 60
0.384487 -0.4081 -0.539 112 70 58
0.412975 -0.405829 -0.536 128 80 66
0.413996 -0.405829 -0.536 128 80 66
0.417537 -0.404314 -0.534 132 83 69
0.41777 -0.403557 -0.533 131 82 68
0.420249 -0.402043 -0.531 146 94 73
0.424505 -0.401286 -0.53 157 101 78
0.428125 -0.399014 -0.527 159 103 78
0.431136 -0.399014 -0.527 160 104 79
0.434148 -0.399014 -0.527 159 103 78
0.44735 -0.398257 -0.526 172 121 94
0.452216 -0.399014 -0.527 177 127 100
0.454224 -0.399014 -0.527 175 124 95
0.455228 -0.399014 -0.527 176 125 98
0.459109 -0.399771 -0.528 179 128 101
0.463131 -0.399771 -0.528 176 127 97
0.473077 -0.400529 -0.529 177 123 95
0.483538 -0.405071 -0.535 163 117 94
0.487274 -0.407343 -0.538 157 112 91
0.0244848 -0.415199 -0.547 192 153 120
0.0564048 -0.39091 -0.515 197 154 120
0.0604457 -0.391669 -0.516 194 144 117
0.0624114 -0.391669 -0.516 191 141 116
0.06956 -0.393187 -0.518 186 131 111
0.0749248 -0.395464 -0.521 185 135 110
0.0815 -0.3985 -0.525 182 128 104
0.0838181 -0.400018 -0.527 180 125 104
0.0922238 -0.40609 -0.535 152 112 102
0.0947905 -0.408368 -0.538 148 110 101
0.12258 -0.43038 -0.567 113 117 144
0.12474 -0.43038 -0.567 64 69 101
0.13014 -0.43038 -0.567 180 178 191
0.353397 -0.407609 -0.537 162 99 92
0.36806 -0.409127 -0.539 119 75 62
0.378 -0.409886 -0.54 110 70 58
0.38346 -0.409127 -0.539 112 70 58
0.38654 -0.409127 -0.539 113 71 59
0.409392 -0.408368 -0.538 122 76 61
0.410417 -0.408368 -0.538 123 77 62
0.412723 -0.407609 -0.537 124 81 64
0.424711 -0.401536 -0.529 154 98 75
0.428937 -0.400777 -0.528 160 104 79
0.433144 -0.400018 -0.527 159 103 78
0.436155 -0.400018 -0.527 158 102 77
0.44017 -0.400018 -0.527 160 106 80
0.448352 -0.399259 -0.526 169 118 91
0.457235 -0.400018 -0.527 178 127 100
0.462254 -0.400018 -0.527 174 125 95
0.0234429 -0.416241 -0.547 194 153 121
0.0252933 -0.412436 -0.542 193 152 122
0.0286629 -0.401783 -0.528 196 155 127
0.0322524 -0.396456 -0.521 203 159 130
0.0379133 -0.393412 -0.517 204 161 129
0.0436524 -0.39189 -0.515 204 161 129
0.0455257 -0.39113 -0.514 202 159 127
0.0514 -0.39113 -0.514 204 159 128
0.0593476 -0.39189 -0.515 194 144 119
0.0614286 -0.392651 -0.516 192 140 116
0.06956 -0.394173 -0.518 188 133 113
0.0737905 -0.395695 -0.52 185 137 114
0.0760629 -0.397217 -0.522 188 136 114
0.0791971 -0.397978 -0.523 183 129 105
0.0961714 -0.410914 -0.54 141 103 94
0.0991381 -0.414719 -0.545 132 98 96
0.123442 -0.430699 -0.566 57 66 97
0.130989 -0.430699 -0.566 171 177 199
0.34224 -0.420046 -0.552 125 87 84
0.343308 -0.416241 -0.547 146 97 92
0.348171 -0.410914 -0.54 161 100 95
0.349956 -0.409392 -0.538 163 100 95
0.352006 -0.409392 -0.538 164 99 93
0.353397 -0.408631 -0.537 158 95 88
0.369771 -0.410914 -0.54 117 75 61
0.372857 -0.410914 -0.54 113 74 59
0.383143 -0.410914 -0.54 110 71 56
0.387257 -0.410914 -0.54 111 71 59
0.390343 -0.410914 -0.54 111 71 59
0.393429 -0.410914 -0.54 107 65 53
0.394457 -0.410914 -0.54 108 66 54
0.400913 -0.410153 -0.539 111 69 55
0.406047 -0.410153 -0.539 118 75 59
0.410417 -0.409392 -0.538 119 76 59
0.415791 -0.408631 -0.537 127 80 64
0.417059 -0.40787 -0.536 129 82 66
0.420589 -0.406349 -0.534 148 96 75
0.425514 -0.403305 -0.53 153 97 74
0.426727 -0.402544 -0.529 156 100 77
0.436155 -0.401022 -0.527 156 100 75
0.446349 -0.400261 -0.526 169 118 89
0.451358 -0.400261 -0.526 180 126 98
0.453362 -0.400261 -0.526 177 125 101
0.456368 -0.400261 -0.526 174 124 97
0.45737 -0.400261 -0.526 174 124 97
0.483651 -0.406349 -0.534 166 118 96
0.494113 -0.411675 -0.541 164 120 95
0.504557 -0.417763 -0.549 163 116 96
0.0277095 -0.403551 -0.529 194 153 125
0.0341057 -0.395923 -0.519 203 162 130
0.03784 -0.393634 -0.516 203 160 128
0.0455257 -0.392109 -0.514 200 157 125
0.0633943 -0.393634 -0.516 187 135 113
0.068441 -0.394397 -0.517 192 137 117
0.0737905 -0.396686 -0.52 188 137 116
0.0815 -0.4005 -0.525 182 127 106
0.122364 -0.431777 -0.566 83 93 128
0.147976 -0.431014 -0.565 171 188 206
0.315375 -0.433303 -0.568 185 194 211
0.344343 -0.421097 -0.552 130 98 101
0.344563 -0.418809 -0.549 142 97 94
0.344979 -0.418046 -0.548 155 95 84
0.346606 -0.414994 -0.544 160 98 101
0.350607 -0.41118 -0.539 164 101 96
0.35303 -0.410417 -0.538 154 95 87
0.35882 -0.41118 -0.539 140 86 76
0.364629 -0.411943 -0.54 117 73 60
0.373206 -0.413469 -0.542 114 72 58
0.397543 -0.411943 -0.54 109 70 55
0.407829 -0.411943 -0.54 116 73 57
0.415541 -0.410417 -0.538 122 79 62
0.415791 -0.409654 -0.537 122 79 60
0.416814 -0.409654 -0.537 124 81 62
0.420589 -0.407366 -0.534 140 90 67
0.425514 -0.404314 -0.53 155 99 76
0.444345 -0.401263 -0.526 165 113 89
0.44735 -0.401263 -0.526 173 119 93
0.4485 -0.4005 -0.525 173 122 95
0.4525 -0.4005 -0.525 180 126 100
0.463381 -0.401263 -0.526 171 122 92
0.464383 -0.401263 -0.526 171 122 92
0.472292 -0.402026 -0.527 168 122 96
0.490349 -0.410417 -0.538 166 121 98
0.491373 -0.410417 -0.538 166 121 98
0.0242162 -0.413736 -0.541 192 153 124
0.0377667 -0.393852 -0.515 202 159 125
0.0387476 -0.393852 -0.515 203 160 126
0.0425886 -0.393088 -0.514 203 160 125
0.0445467 -0.393088 -0.514 203 160 126
0.0493457 -0.392323 -0.513 202 157 126
0.0543371 -0.393088 -0.514 196 149 121
0.0593476 -0.393852 -0.515 193 141 119
0.0825 -0.4015 -0.525 178 127 106
0.0859886 -0.403794 -0.528 169 120 103
0.129681 -0.43209 -0.565 149 161 187
0.3105 -0.43362 -0.567 209 217 220
0.347067 -0.41909 -0.548 151 94 87
0.34788 -0.41756 -0.546 152 98 96
0.350877 -0.413736 -0.541 157 96 91
0.360514 -0.412971 -0.54 137 85 74
0.365304 -0.413736 -0.541 116 74 62
0.3801 -0.415266 -0.543 109 70 55
0.40137 -0.413736 -0.541 113 71 57
0.402401 -0.413736 -0.541 112 70 56
0.409886 -0.412971 -0.54 115 72 56
0.413233 -0.412207 -0.539 119 76 60
0.415287 -0.412207 -0.539 122 79 62
0.425093 -0.406853 -0.532 150 96 72
0.429943 -0.403794 -0.528 152 96 71
0.4535 -0.4015 -0.525 174 122 98
0.4595 -0.4015 -0.525 174 124 97
0.4605 -0.4015 -0.525 174 124 97
0.469392 -0.402265 -0.526 168 120 97
0.478115 -0.404559 -0.529 166 120 96
0.496174 -0.413736 -0.541 165 123 99
0.0222781 -0.417067 -0.544 194 155 126
0.0265505 -0.403267 -0.526 196 155 125
0.0358048 -0.394833 -0.515 203 160 126
0.0415286 -0.3933 -0.513 209 166 131
0.0435676 -0.394067 -0.514 204 161 126
0.0454371 -0.3933 -0.513 201 158 123
0.0562952 -0.394067 -0.514 191 144 116
0.0572743 -0.394067 -0.514 195 143 119
0.0593476 -0.394833 -0.515 192 140 116
0.068441 -0.396367 -0.517 191 139 117
0.0759171 -0.399433 -0.521 188 136 115
0.0791971 -0.400967 -0.523 183 128 107
0.0825 -0.4025 -0.525 179 128 109
0.0848219 -0.404033 -0.527 168 121 103
0.125154 -0.4324 -0.564 106 124 170
0.141269 -0.4324 -0.564 213 217 228
0.144491 -0.4324 -0.564 211 218 226
0.31374 -0.4347 -0.567 207 202 208
0.32022 -0.4347 -0.567 179 191 205
0.3213 -0.4347 -0.567 186 191 211
0.33426 -0.4347 -0.567 131 130 146
0.348333 -0.421667 -0.55 136 88 86
0.358457 -0.414 -0.54 133 83 74
0.379764 -0.417067 -0.544 108 70 59
0.382169 -0.4163 -0.543 106 69 60
0.409339 -0.415533 -0.542 112 70 54
0.411404 -0.415533 -0.542 113 71 55
0.426107 -0.407867 -0.532 154 100 74
0.428742 -0.405567 -0.529 147 93 67
0.42975 -0.405567 -0.529 147 93 67
0.436155 -0.404033 -0.527 156 102 76
0.4465 -0.4025 -0.525 171 120 91
0.465611 -0.401733 -0.524 170 121 91
0.481946 -0.4071 -0.531 164 118 94
0.50677 -0.420133 -0.548 163 118 95
0.0255486 -0.404269 -0.526 202 157 126
0.0532543 -0.394277 -0.513 198 152 119
0.0542314 -0.394277 -0.513 196 150 117
0.0552086 -0.394277 -0.513 193 146 116
0.0562952 -0.395046 -0.514 191 144 114
0.0652333 -0.395814 -0.515 188 136 114
0.0663429 -0.396583 -0.516 188 136 114
0.068441 -0.397351 -0.517 191 139 117
0.0813448 -0.402731 -0.524 180 125 105
0.0965276 -0.416566 -0.542 132 101 99
0.114209 -0.432706 -0.563 40 46 72
0.11656 -0.433474 -0.564 76 78 103
0.129451 -0.433474 -0.564 111 128 156
0.138046 -0.433474 -0.564 207 211 222
0.351643 -0.420409 -0.547 142 92 93
0.352433 -0.418871 -0.545 140 90 89
0.358752 -0.416566 -0.542 128 81 75
0.359785 -0.416566 -0.542 127 80 74
0.369757 -0.417334 -0.543 110 72 61
0.37251 -0.418103 -0.544 109 71 60
0.378386 -0.418871 -0.545 107 69 58
0.3815 -0.418871 -0.545 107 69 58
0.39695 -0.416566 -0.542 110 71 56
0.412163 -0.417334 -0.543 111 69 53
0.419393 -0.41426 -0.539 116 75 57
0.420906 -0.412723 -0.537 126 81 62
0.437331 -0.404269 -0.526 161 107 83
0.441339 -0.404269 -0.526 166 112 86
0.446648 -0.402731 -0.524 171 120 91
0.447646 -0.402731 -0.524 172 121 92
0.459623 -0.402731 -0.524 174 125 95
0.501111 -0.417334 -0.543 154 108 85
0.0453486 -0.394484 -0.512 201 156 123
0.047299 -0.394484 -0.512 199 154 121
0.0482743 -0.394484 -0.512 197 152 119
0.0572743 -0.396025 -0.514 193 141 117
0.0652333 -0.396795 -0.515 188 133 113
0.0663429 -0.397566 -0.516 190 135 115
0.07266 -0.399877 -0.519 189 134 114
0.0747809 -0.400648 -0.52 191 135 118
0.0769095 -0.401418 -0.521 189 134 114
0.0813448 -0.40373 -0.524 177 125 104
0.0861514 -0.407582 -0.529 159 116 99
0.121715 -0.433778 -0.563 38 55 99
0.12386 -0.433778 -0.563 75 96 141
0.127077 -0.433778 -0.563 148 157 186
0.129222 -0.433778 -0.563 127 142 173
0.131367 -0.433778 -0.563 68 87 127
0.139946 -0.433778 -0.563 218 222 231
0.141018 -0.433778 -0.563 214 217 224
0.331514 -0.43609 -0.566 111 119 140
0.337983 -0.43609 -0.566 170 169 185
0.340139 -0.43609 -0.566 168 169 187
0.353571 -0.423762 -0.55 130 89 87
0.3562 -0.42068 -0.546 127 83 80
0.360076 -0.419139 -0.544 122 79 72
0.363185 -0.419139 -0.544 117 72 66
0.366967 -0.41991 -0.545 112 74 63
0.3829 -0.42145 -0.547 107 69 60
0.392919 -0.41991 -0.545 111 73 62
0.396343 -0.419139 -0.544 109 71 58
0.406705 -0.419139 -0.544 107 68 53
0.414994 -0.419139 -0.544 110 68 52
0.41863 -0.417598 -0.542 112 70 56
0.420171 -0.416057 -0.54 112 71 53
0.423185 -0.412975 -0.536 133 81 60
0.42975 -0.407582 -0.529 151 97 73
0.437159 -0.406041 -0.527 162 106 81
0.460738 -0.402959 -0.523 177 126 97
0.468606 -0.40373 -0.524 173 122 95
0.4716 -0.40373 -0.524 175 125 98
0.499266 -0.416828 -0.541 158 111 91
0.0201686 -0.419403 -0.543 197 153 124
0.0366429 -0.396231 -0.513 202 157 124
0.0375467 -0.395459 -0.512 204 158 125
0.0414476 -0.395459 -0.512 200 155 122
0.0502248 -0.395459 -0.512 197 150 120
0.0611905 -0.397004 -0.514 189 137 115
0.0642524 -0.397776 -0.515 190 135 114
0.0780514 -0.403183 -0.522 183 131 110
0.0813448 -0.404728 -0.524 178 125 107
0.0826571 -0.406272 -0.526 172 125 107
0.0849829 -0.407817 -0.528 159 117 101
0.0861514 -0.40859 -0.529 157 115 99
0.0886667 -0.410907 -0.532 145 109 95
0.0912048 -0.413224 -0.535 141 107 97
0.118498 -0.43485 -0.563 119 122 141
0.129222 -0.43485 -0.563 144 158 187
0.373523 -0.422492 -0.547 108 70 61
0.388819 -0.423265 -0.548 103 69 59
0.392277 -0.422492 -0.547 107 71 59
0.40924 -0.42172 -0.546 107 67 55
0.42095 -0.417858 -0.541 108 70 51
0.429351 -0.410134 -0.531 147 93 69
0.437159 -0.407045 -0.527 164 108 83
0.440337 -0.406272 -0.526 174 118 93
0.4445 -0.4055 -0.525 175 121 93
0.444651 -0.404728 -0.524 177 123 95
0.44978 -0.403955 -0.523 178 124 98
0.453891 -0.403183 -0.522 176 125 96
0.458746 -0.403955 -0.523 176 125 96
0.46273 -0.403955 -0.523 175 124 95
0.4716 -0.404728 -0.524 173 123 96
0.506071 -0.420948 -0.545 165 119 96
0.50897 -0.422492 -0.547 161 119 95
0.0200571 -0.418114 -0.54 197 154 122
0.0252571 -0.402629 -0.52 196 156 130
0.031819 -0.397983 -0.514 203 158 125
0.04526 -0.39566 -0.511 201 156 123
0.0462333 -0.39566 -0.511 199 154 121
0.04818 -0.39566 -0.511 195 149 116
0.0683086 -0.399531 -0.516 187 137 114
0.07252 -0.40108 -0.518 185 133 112
0.115281 -0.435923 -0.563 94 101 117
0.118288 -0.435149 -0.562 138 141 158
0.127922 -0.435149 -0.562 160 170 197
0.135415 -0.435149 -0.562 204 212 231
0.137556 -0.435149 -0.562 205 214 231
0.31909 -0.437471 -0.565 199 198 212
0.326624 -0.437471 -0.565 192 196 207
0.3277 -0.437471 -0.565 185 189 200
0.334157 -0.437471 -0.565 52 66 79
0.336905 -0.438246 -0.566 104 117 159
0.363768 -0.424309 -0.548 113 73 65
0.364811 -0.424309 -0.548 112 72 64
0.375934 -0.425083 -0.549 105 68 59
0.401345 -0.424309 -0.548 107 71 59
0.402389 -0.424309 -0.548 105 67 56
0.412073 -0.423534 -0.547 105 65 53
0.41756 -0.42276 -0.546 106 67 52
0.423257 -0.418114 -0.54 116 75 57
0.426248 -0.415017 -0.536 136 83 65
0.430562 -0.410371 -0.53 153 99 75
0.430757 -0.409597 -0.529 150 96 72
0.431765 -0.409597 -0.529 151 97 73
0.434971 -0.408823 -0.528 165 111 87
0.436155 -0.408049 -0.527 164 110 86
0.448784 -0.404951 -0.523 178 125 94
0.450909 -0.404177 -0.522 178 127 98
0.458863 -0.404177 -0.522 175 126 94
0.4755 -0.4065 -0.525 168 122 96
0.481234 -0.408823 -0.528 163 117 93
0.0288819 -0.398962 -0.514 206 161 128
0.0374733 -0.396633 -0.511 206 160 127
0.0433133 -0.396633 -0.511 201 154 124
0.0491533 -0.396633 -0.511 194 147 119
0.0521752 -0.39741 -0.512 195 148 120
0.0570514 -0.39741 -0.512 188 141 113
0.0692914 -0.400514 -0.516 186 136 113
0.0769095 -0.404395 -0.521 179 131 109
0.0826571 -0.408276 -0.526 166 125 105
0.0849829 -0.409829 -0.528 154 118 104
0.114006 -0.436219 -0.562 90 94 105
0.116147 -0.436219 -0.562 121 124 141
0.311006 -0.437771 -0.564 216 216 216
0.31208 -0.437771 -0.564 184 184 184
0.314229 -0.437771 -0.564 165 166 171
0.335233 -0.438548 -0.565 55 67 115
0.340614 -0.438548 -0.565 136 147 165
0.410443 -0.426129 -0.549 104 66 55
0.419367 -0.424576 -0.547 106 66 56
0.422248 -0.422248 -0.544 106 66 54
0.42354 -0.421471 -0.543 112 73 58
0.424286 -0.419143 -0.54 123 76 60
0.427709 -0.414486 -0.534 144 92 68
0.428938 -0.41371 -0.533 143 91 67
0.430363 -0.412157 -0.531 143 91 67
0.446791 -0.405948 -0.523 176 125 96
0.0206952 -0.41239 -0.53 195 152 118
0.0288819 -0.399941 -0.514 207 162 129
0.0541257 -0.398385 -0.512 194 144 117
0.0600943 -0.399163 -0.513 187 140 114
0.0671952 -0.400719 -0.515 188 140 117
0.0888333 -0.414725 -0.533 144 107 98
0.112935 -0.43729 -0.562 91 95 106
0.116147 -0.43729 -0.562 133 135 148
0.125557 -0.436511 -0.561 181 184 199
0.127694 -0.436511 -0.561 181 187 201
0.1309 -0.436511 -0.561 193 201 214
0.134106 -0.436511 -0.561 141 151 178
0.42145 -0.425618 -0.547 100 66 56
0.423284 -0.423284 -0.544 111 71 59
0.428066 -0.417837 -0.537 137 85 63
0.42829 -0.417059 -0.536 142 90 68
0.429953 -0.414725 -0.533 144 92 70
0.431571 -0.41239 -0.53 155 99 74
0.432772 -0.411612 -0.529 164 108 83
0.439335 -0.409278 -0.526 174 119 89
0.4415 -0.4085 -0.525 181 126 96
0.459969 -0.405388 -0.521 175 129 95
0.463834 -0.406166 -0.522 170 124 90
0.464931 -0.405388 -0.521 173 124 94
0.472692 -0.406944 -0.523 166 119 89
0.47659 -0.407722 -0.524 167 122 93
0.4785 -0.4085 -0.525 165 120 91
0.489026 -0.413169 -0.531 166 122 95
0.498643 -0.417837 -0.537 167 122 93
0.508251 -0.423284 -0.544 161 123 102
0.021459 -0.40872 -0.524 194 151 119
0.0223714 -0.40716 -0.522 197 152 121
0.0241267 -0.40326 -0.517 202 158 131
0.0250629 -0.40248 -0.516 202 158 131
0.0278486 -0.40014 -0.513 208 163 132
0.0345533 -0.39858 -0.511 202 155 125
0.0355267 -0.39858 -0.511 202 157 126
0.0364286 -0.3978 -0.51 205 160 129
0.0888333 -0.41574 -0.533 146 108 99
0.0915457 -0.41886 -0.537 139 102 94
0.112935 -0.43836 -0.562 107 110 119
0.34216 -0.43992 -0.564 89 111 158
0.425609 -0.42354 -0.543 116 73 57
0.426102 -0.42198 -0.541 124 77 59
0.426343 -0.4212 -0.54 126 78 56
0.428066 -0.41886 -0.537 133 83 60
0.431173 -0.41496 -0.532 152 98 72
0.437159 -0.41106 -0.527 175 120 90
0.438163 -0.41106 -0.527 175 120 90
0.439167 -0.41106 -0.527 174 119 89
0.444943 -0.40716 -0.522 175 121 93
0.446931 -0.40716 -0.522 179 125 97
0.467908 -0.40638 -0.521 172 123 93
0.472783 -0.40716 -0.522 166 119 91
0.502553 -0.42042 -0.539 167 121 97
0.0160019 -0.423792 -0.542 198 153 124
0.0249657 -0.401899 -0.514 202 157 128
0.0268714 -0.401117 -0.513 205 160 129
0.0278486 -0.401117 -0.513 208 163 132
0.0287695 -0.400335 -0.512 209 164 133
0.0374 -0.398771 -0.51 204 157 129
0.0591171 -0.401117 -0.513 194 144 117
0.0746371 -0.405809 -0.519 185 132 114
0.0815 -0.4105 -0.525 163 118 99
0.0826571 -0.411282 -0.526 157 119 100
0.0863143 -0.41441 -0.53 151 113 100
0.12 -0.437867 -0.56 102 108 122
0.124267 -0.437867 -0.56 158 155 164
0.131733 -0.437867 -0.56 199 205 219
0.426392 -0.425356 -0.544 115 72 56
0.429953 -0.416755 -0.533 142 90 66
0.435977 -0.412846 -0.528 177 120 90
0.4425 -0.4105 -0.525 174 119 89
0.442655 -0.409718 -0.524 170 117 86
0.467908 -0.407372 -0.521 174 125 95
0.472783 -0.408154 -0.522 168 121 93
0.475681 -0.408936 -0.523 168 123 94
0.485342 -0.412064 -0.527 165 121 96
0.497805 -0.418319 -0.535 165 120 97
0.5123 -0.426138 -0.545 170 124 98
0.518151 -0.429266 -0.549 165 124 102
0.0277943 -0.40131 -0.512 206 161 130
0.03066 -0.400527 -0.511 206 161 132
0.0354571 -0.399743 -0.51 202 157 128
0.0490571 -0.399743 -0.51 193 146 118
0.0580267 -0.40131 -0.512 193 146 116
0.0660857 -0.402878 -0.514 188 141 113
0.0692914 -0.404446 -0.516 186 136 111
0.118933 -0.438933 -0.56 155 157 169
0.332974 -0.441285 -0.563 137 141 142
0.428163 -0.424041 -0.541 123 79 54
0.462057 -0.407581 -0.52 177 128 95
0.463048 -0.407581 -0.52 177 128 98
0.471877 -0.408365 -0.521 169 122 94
0.473777 -0.409149 -0.522 169 122 94
0.506571 -0.423257 -0.54 161 121 96
0.516264 -0.428744 -0.547 161 121 96
0.0382962 -0.399929 -0.509 201 154 126
0.0422571 -0.400714 -0.51 195 150 121
0.0735067 -0.407 -0.518 185 137 117
0.0815 -0.4125 -0.525 156 115 95
0.0861514 -0.415643 -0.529 150 114 100
0.119786 -0.439214 -0.559 136 136 144
0.335594 -0.441571 -0.562 78 104 153
0.344158 -0.441571 -0.562 31 58 113
0.429193 -0.425071 -0.541 126 80 54
0.438163 -0.414071 -0.527 178 122 89
0.440337 -0.413286 -0.526 178 122 89
0.44806 -0.409357 -0.521 182 129 98
0.450171 -0.408571 -0.52 183 130 99
0.468 -0.408571 -0.52 175 125 98
0.47287 -0.409357 -0.521 169 123 97
0.475766 -0.410143 -0.522 169 123 97
0.480583 -0.411714 -0.524 166 120 96
0.5076 -0.424286 -0.54 159 122 96
0.0211314 -0.406411 -0.516 200 153 123
0.0258438 -0.403261 -0.512 208 162 129
0.0344857 -0.401686 -0.51 201 156 123
0.0499305 -0.400898 -0.509 194 147 119
0.0539143 -0.401686 -0.51 196 146 119
0.0780514 -0.411137 -0.522 171 126 103
0.0901857 -0.421376 -0.535 141 104 96
0.110203 -0.440279 -0.559 128 119 122
0.334524 -0.442642 -0.562 125 127 139
0.429501 -0.428465 -0.544 119 77 53
0.429429 -0.425314 -0.54 126 82 57
0.430111 -0.422951 -0.537 138 84 58
0.430331 -0.422164 -0.536 141 87 61
0.434971 -0.415863 -0.528 176 120 87
0.442807 -0.411925 -0.523 180 124 91
0.44806 -0.41035 -0.521 181 128 97
0.453143 -0.409562 -0.52 183 132 101
0.46899 -0.409562 -0.52 171 124 96
0.0353876 -0.401868 -0.509 203 158 125
0.0411238 -0.401078 -0.508 198 152 118
0.0630257 -0.405026 -0.513 195 146 116
0.0651067 -0.405815 -0.514 194 144 117
0.07238 -0.408184 -0.517 186 136 113
0.0757714 -0.410552 -0.52 176 126 101
0.0780514 -0.412131 -0.522 172 124 102
0.0825 -0.4145 -0.525 160 115 96
0.0915457 -0.423974 -0.537 126 100 99
0.10788 -0.440554 -0.558 109 101 99
0.115527 -0.441344 -0.559 169 164 171
0.119571 -0.440554 -0.558 178 178 180
0.330723 -0.442923 -0.561 190 188 201
0.343546 -0.442923 -0.561 38 69 124
0.436155 -0.416079 -0.527 178 119 87
0.437159 -0.416079 -0.527 179 120 88
0.452152 -0.410552 -0.52 185 132 101
0.462157 -0.409763 -0.519 175 126 96
0.478749 -0.412131 -0.522 166 120 94
0.5029 -0.422395 -0.535 166 123 91
0.0420914 -0.402046 -0.508 194 150 115
0.052839 -0.402837 -0.509 184 142 104
0.0578 -0.403629 -0.51 192 148 111
0.0608333 -0.40442 -0.511 192 146 113
0.0619276 -0.405211 -0.512 192 146 113
0.0629029 -0.405211 -0.512 192 146 113
0.0681762 -0.407586 -0.515 185 138 110
0.0779019 -0.412334 -0.521 172 124 101
0.0901857 -0.423414 -0.535 133 103 93
0.107687 -0.440826 -0.557 113 104 107
0.110203 -0.442409 -0.559 134 128 130
0.342477 -0.443991 -0.561 37 63 120
0.431019 -0.428954 -0.542 117 79 56
0.449052 -0.412334 -0.521 187 132 102
0.450171 -0.411543 -0.52 186 131 101
0.465213 -0.40996 -0.518 173 123 96
0.4662 -0.40996 -0.518 176 126 99
0.467187 -0.40996 -0.518 176 126 99
0.477831 -0.412334 -0.521 164 119 90
0.50102 -0.421831 -0.533 163 118 95
0.0127619 -0.425227 -0.536 194 149 120
0.01368 -0.422053 -0.532 196 151 122
0.0228733 -0.405393 -0.511 199 148 117
0.0362857 -0.403013 -0.508 199 154 121
0.0420914 -0.403013 -0.508 193 150 115
0.0459619 -0.403013 -0.508 190 147 112
0.0498324 -0.403013 -0.508 192 149 114
0.0547781 -0.403807 -0.509 192 150 112
0.05986 -0.405393 -0.511 192 149 114
0.06498 -0.40698 -0.513 188 143 112
0.0702743 -0.40936 -0.516 182 135 109
0.0713952 -0.410153 -0.517 182 135 107
0.0744933 -0.410947 -0.518 175 129 103
0.0917162 -0.426813 -0.538 124 100 100
0.111069 -0.44268 -0.558 146 142 143
0.118509 -0.44268 -0.558 167 171 182
0.3408 -0.444267 -0.56 66 96 146
0.430687 -0.427607 -0.539 139 95 66
0.431567 -0.424433 -0.535 150 96 70
0.434971 -0.41888 -0.528 176 117 85
0.443803 -0.414913 -0.523 182 127 96
0.454249 -0.41174 -0.519 184 131 100
0.458203 -0.41174 -0.519 182 129 98
0.459293 -0.410947 -0.518 180 126 98
0.467187 -0.410947 -0.518 176 126 99
0.47402 -0.41174 -0.519 169 122 96
0.478824 -0.413327 -0.521 163 116 88
0.481731 -0.41412 -0.522 165 118 92
0.486571 -0.415707 -0.524 165 119 93
0.4885 -0.4165 -0.525 164 118 92
0.508794 -0.426813 -0.538 163 121 96
0.514642 -0.429987 -0.542 161 119 95
0.517577 -0.431573 -0.544 162 120 96
0.0400771 -0.403186 -0.507 195 151 116
0.0498324 -0.403981 -0.508 193 150 115
0.0517676 -0.403981 -0.508 194 151 116
0.0527352 -0.403981 -0.508 192 149 115
0.0547781 -0.404776 -0.509 192 149 115
0.06498 -0.407957 -0.513 184 139 110
0.0691571 -0.409548 -0.515 181 135 109
0.0813448 -0.416705 -0.524 159 116 99
0.0851438 -0.420681 -0.529 148 111 93
0.105375 -0.442152 -0.556 105 96 99
0.107687 -0.442948 -0.557 120 114 116
0.3504 -0.445333 -0.56 119 138 170
0.431329 -0.433405 -0.545 115 78 60
0.431254 -0.430224 -0.541 137 92 63
0.433397 -0.422271 -0.531 167 106 75
0.4425 -0.4175 -0.525 184 128 95
0.449306 -0.412729 -0.519 185 130 99
0.45732 -0.411933 -0.518 180 126 98
0.464227 -0.411933 -0.518 174 123 94
0.464315 -0.411138 -0.517 174 123 94
0.4653 -0.411138 -0.517 175 124 95
0.50305 -0.423862 -0.533 164 120 93
0.515674 -0.431019 -0.542 162 121 93
0.0117629 -0.428066 -0.537 195 150 121
0.0256924 -0.405746 -0.509 202 156 122
0.0275771 -0.404949 -0.508 204 158 124
0.0478029 -0.404151 -0.507 188 145 111
0.0619276 -0.408137 -0.512 187 144 112
0.0733648 -0.412123 -0.517 178 130 107
0.120202 -0.443211 -0.556 156 162 178
0.125497 -0.443211 -0.556 199 198 204
0.432051 -0.432051 -0.542 139 92 64
0.431937 -0.428863 -0.538 147 96 69
0.432586 -0.426471 -0.535 158 101 72
0.432794 -0.425674 -0.534 161 104 75
0.447068 -0.415311 -0.521 189 132 102
0.449181 -0.414514 -0.52 187 130 101
0.451283 -0.413717 -0.519 186 129 100
0.465383 -0.411326 -0.516 175 124 93
0.473107 -0.41292 -0.518 173 124 92
0.479886 -0.414514 -0.52 168 121 93
0.498268 -0.421689 -0.529 165 121 92
0.501163 -0.423283 -0.531 164 120 91
0.510844 -0.428863 -0.538 162 121 91
0.01072 -0.42829 -0.536 194 150 123
0.0208857 -0.407514 -0.51 200 149 118
0.0284886 -0.405117 -0.507 203 157 123
0.0313857 -0.405117 -0.507 199 153 119
0.0333171 -0.405117 -0.507 202 156 122
0.0517676 -0.405916 -0.508 196 152 117
0.0537029 -0.405916 -0.508 194 150 115
0.0597429 -0.407514 -0.51 194 149 116
0.105186 -0.443471 -0.555 108 101 108
0.436803 -0.422696 -0.529 174 120 86
0.4405 -0.4195 -0.525 182 126 93
0.4425 -0.4195 -0.525 186 129 99
0.44819 -0.415505 -0.52 186 129 100
0.449306 -0.414706 -0.519 186 129 100
0.450294 -0.414706 -0.519 186 131 101
0.453373 -0.413907 -0.518 178 125 94
0.455452 -0.413108 -0.517 181 128 97
0.470224 -0.413108 -0.517 173 124 91
0.486703 -0.417103 -0.522 163 118 89
0.49538 -0.421098 -0.527 165 121 92
0.0116314 -0.425306 -0.531 199 150 120
0.0143619 -0.416495 -0.52 199 150 120
0.022739 -0.406884 -0.508 203 152 121
0.0275229 -0.406083 -0.507 204 155 122
0.0390343 -0.405282 -0.506 195 151 116
0.0597429 -0.408486 -0.51 195 151 116
0.0679114 -0.410889 -0.513 181 134 106
0.0828143 -0.422102 -0.527 148 106 90
0.11067 -0.44533 -0.556 144 143 157
0.119986 -0.444529 -0.555 122 128 144
0.128443 -0.444529 -0.555 204 208 219
0.408336 -0.447732 -0.559 57 71 100
0.4272 -0.448533 -0.56 39 43 68
0.436619 -0.424505 -0.53 166 112 78
0.436803 -0.423704 -0.529 172 118 84
0.4405 -0.4205 -0.525 185 128 98
0.443803 -0.418898 -0.523 184 127 98
0.449306 -0.415694 -0.519 186 131 100
0.455452 -0.414092 -0.517 183 130 99
0.457422 -0.414092 -0.517 181 130 99
0.472193 -0.414092 -0.517 175 126 94
0.0115657 -0.423909 -0.528 189 142 114
0.0380705 -0.406246 -0.506 203 154 122
0.0486724 -0.406246 -0.506 197 151 118
0.0648533 -0.411063 -0.512 184 137 109
0.0690229 -0.412669 -0.514 178 131 105
0.07238 -0.415077 -0.517 176 128 105
0.0853048 -0.425514 -0.53 138 101 83
0.104996 -0.444783 -0.554 117 110 117
0.109414 -0.445586 -0.555 137 139 154
0.117871 -0.445586 -0.555 120 127 145
0.119986 -0.445586 -0.555 117 123 137
0.426437 -0.448797 -0.559 47 49 72
0.433543 -0.433543 -0.54 145 98 70
0.436803 -0.424711 -0.529 171 114 84
0.436983 -0.423909 -0.528 171 114 84
0.4405 -0.4215 -0.525 185 130 100
0.442655 -0.420697 -0.524 181 126 96
0.443653 -0.420697 -0.524 181 126 96
0.444943 -0.419091 -0.522 185 130 100
0.446075 -0.418289 -0.521 188 133 103
0.45752 -0.414274 -0.516 179 128 97
0.464481 -0.413471 -0.515 176 125 96
0.476132 -0.415077 -0.517 170 123 93
0.477117 -0.415077 -0.517 170 123 93
0.483848 -0.417486 -0.52 165 118 90
0.487755 -0.418289 -0.521 165 120 91
0.4945 -0.4215 -0.525 165 121 94
0.500343 -0.423909 -0.528 164 120 95
0.00765714 -0.431352 -0.536 192 145 117
0.00960857 -0.427329 -0.531 191 143 120
0.0115 -0.4225 -0.525 189 142 114
0.0179714 -0.410429 -0.51 198 151 121
0.0217714 -0.408819 -0.508 205 156 126
0.0226943 -0.408014 -0.507 204 155 123
0.0265048 -0.40721 -0.506 202 153 121
0.0284324 -0.40721 -0.506 201 152 120
0.0390343 -0.40721 -0.506 200 151 119
0.0506 -0.40721 -0.506 194 148 115
0.0586562 -0.409624 -0.509 194 148 112
0.0616857 -0.410429 -0.51 191 144 114
0.0712571 -0.415257 -0.516 175 127 104
0.0829714 -0.424914 -0.528 146 109 93
0.0868029 -0.428938 -0.533 128 101 94
0.0881476 -0.430548 -0.535 126 99 92
0.0895 -0.432157 -0.537 120 96 92
0.114493 -0.445838 -0.554 139 141 154
0.11977 -0.445838 -0.554 125 131 145
0.401229 -0.449057 -0.558 61 71 96
0.403354 -0.449057 -0.558 61 76 107
0.406543 -0.449057 -0.558 84 100 133
0.43318 -0.432157 -0.537 147 97 74
0.43542 -0.427329 -0.531 162 107 77
0.437989 -0.424914 -0.528 172 115 85
0.442655 -0.421695 -0.524 181 126 96
0.445083 -0.419281 -0.521 188 133 103
0.448317 -0.417671 -0.519 186 131 100
0.452606 -0.415257 -0.516 182 127 96
0.458503 -0.415257 -0.516 182 129 98
0.4955 -0.4225 -0.525 164 120 95
0.519875 -0.435376 -0.541 154 116 93
0.01606 -0.412207 -0.511 199 152 124
0.0217286 -0.40898 -0.507 205 156 124
0.0351095 -0.407367 -0.505 204 155 123
0.0586562 -0.410593 -0.509 194 148 114
0.0607143 -0.4114 -0.51 191 145 112
0.0616857 -0.4114 -0.51 191 144 114
0.0690229 -0.414627 -0.514 168 120 97
0.0712571 -0.41624 -0.516 174 126 104
0.0769095 -0.420273 -0.521 167 119 97
0.1027 -0.446087 -0.553 106 105 101
0.106051 -0.446893 -0.554 132 130 133
0.108162 -0.446893 -0.554 147 144 155
0.120825 -0.446893 -0.554 185 185 197
0.421423 -0.45012 -0.558 122 125 134
0.433114 -0.45012 -0.558 79 84 104
0.434177 -0.45012 -0.558 82 81 89
0.433987 -0.433987 -0.538 140 94 71
0.434014 -0.429953 -0.533 157 103 77
0.436803 -0.426727 -0.529 167 113 85
0.442655 -0.422693 -0.524 180 125 95
0.449427 -0.417853 -0.518 185 130 99
0.495554 -0.422693 -0.524 165 121 92
0.511114 -0.43076 -0.534 155 120 92
0.523866 -0.43802 -0.543 158 121 95
0.00661143 -0.431777 -0.534 193 150 118
0.00856476 -0.427734 -0.529 193 146 116
0.0132171 -0.415606 -0.514 199 152 124
0.0188686 -0.410754 -0.508 203 157 124
0.0283762 -0.408329 -0.505 200 151 119
0.0293962 -0.409137 -0.506 199 150 118
0.0322876 -0.409137 -0.506 202 153 121
0.0515638 -0.409137 -0.506 197 151 118
0.058541 -0.410754 -0.508 193 147 114
0.0596257 -0.411563 -0.509 192 146 113
0.0607143 -0.412371 -0.51 191 145 112
0.0746371 -0.419649 -0.519 175 124 103
0.0793486 -0.423691 -0.524 156 113 96
0.0805 -0.4245 -0.525 153 110 93
0.103753 -0.44714 -0.553 120 119 117
0.108162 -0.447949 -0.554 151 146 153
0.111127 -0.44714 -0.553 160 164 175
0.339425 -0.449566 -0.556 87 108 139
0.340484 -0.449566 -0.556 101 123 162
0.3899 -0.450374 -0.557 131 128 139
0.421423 -0.451183 -0.558 117 120 127
0.425674 -0.451183 -0.558 120 120 130
0.429926 -0.451183 -0.558 42 49 75
0.436431 -0.429351 -0.531 160 104 77
0.444943 -0.422074 -0.522 183 129 95
0.451623 -0.417223 -0.516 187 132 102
0.459663 -0.415606 -0.514 177 127 94
0.462677 -0.414797 -0.513 176 125 94
0.475271 -0.416414 -0.515 168 121 91
0.479143 -0.417223 -0.516 166 120 87
0.500451 -0.425309 -0.526 166 122 95
0.00659905 -0.431984 -0.533 194 151 119
0.0141133 -0.414153 -0.511 201 156 125
0.0293381 -0.40929 -0.505 201 152 119
0.039919 -0.40929 -0.505 199 150 118
0.0408 -0.40848 -0.504 198 149 117
0.0525276 -0.410101 -0.506 200 154 121
0.0648533 -0.414964 -0.512 185 138 108
0.07238 -0.419016 -0.517 176 126 103
0.0793486 -0.42469 -0.524 153 111 95
0.0831286 -0.428742 -0.529 135 101 89
0.101463 -0.447383 -0.552 100 94 96
0.11408 -0.447383 -0.552 170 169 174
0.117447 -0.448193 -0.553 175 176 181
0.371196 -0.450625 -0.556 127 135 156
0.422486 -0.452246 -0.558 118 121 130
0.425674 -0.452246 -0.558 125 125 133
0.435376 -0.438468 -0.541 132 87 64
0.434793 -0.436847 -0.539 135 90 67
0.436431 -0.430363 -0.531 159 103 78
0.438163 -0.427121 -0.527 173 117 90
0.440337 -0.42631 -0.526 174 119 89
0.443803 -0.423879 -0.523 178 124 90
0.460642 -0.416585 -0.514 179 128 97
0.468474 -0.416585 -0.514 176 127 95
0.498549 -0.42469 -0.524 168 122 96
0.0235667 -0.410252 -0.505 203 157 123
0.03792 -0.40944 -0.504 195 146 114
0.04464 -0.40944 -0.504 202 153 121
0.04656 -0.40944 -0.504 202 153 121
0.0505 -0.410252 -0.505 199 152 122
0.0856267 -0.432187 -0.532 125 98 89
0.109874 -0.448434 -0.552 168 166 169
0.116183 -0.448434 -0.552 179 179 181
0.125646 -0.448434 -0.552 207 213 225
0.382846 -0.451684 -0.556 49 66 94
0.393436 -0.451684 -0.556 100 101 106
0.420668 -0.452496 -0.557 125 124 129
0.427033 -0.452496 -0.557 82 93 113
0.435226 -0.436249 -0.537 147 100 74
0.436619 -0.430562 -0.53 162 106 81
0.44181 -0.424875 -0.523 176 121 90
0.44844 -0.420813 -0.518 183 130 98
0.449544 -0.420001 -0.517 186 133 101
0.456633 -0.418376 -0.515 181 128 97
0.463654 -0.416751 -0.513 179 128 97
0.467495 -0.417564 -0.514 174 125 93
0.470432 -0.417564 -0.514 177 128 98
0.47429 -0.418376 -0.515 178 129 99
0.475271 -0.418376 -0.515 177 128 98
0.487907 -0.420813 -0.518 166 121 92
0.504414 -0.428125 -0.527 161 119 94
1.00748 -0.459808 -0.566 158 160 149
1.01645 -0.461432 -0.568 141 142 136
0.00555238 -0.431571 -0.53 187 151 119
0.0168667 -0.412029 -0.506 204 158 125
0.0178305 -0.412029 -0.506 205 159 126
0.0426352 -0.409586 -0.503 200 151 121
0.058541 -0.413657 -0.508 194 148 115
0.0701381 -0.419357 -0.515 176 126 103
0.0793486 -0.426686 -0.524 149 110 95
0.111774 -0.448671 -0.551 178 178 178
0.363129 -0.451929 -0.555 53 64 92
0.401909 -0.452743 -0.556 67 87 112
0.414617 -0.452743 -0.556 112 119 135
0.419912 -0.452743 -0.556 115 113 118
0.427033 -0.453557 -0.557 89 97 118
0.429155 -0.453557 -0.557 44 60 86
0.43446 -0.453557 -0.557 52 66 95
0.435798 -0.452743 -0.556 63 69 93
0.436431 -0.432386 -0.531 158 104 80
0.44621 -0.423429 -0.52 179 125 91
0.448559 -0.420986 -0.517 183 130 98
0.455747 -0.418543 -0.514 182 129 98
0.47337 -0.418543 -0.514 179 130 100
0.48504 -0.420171 -0.516 168 122 96
0.514218 -0.434014 -0.533 160 118 94
0.523087 -0.4389 -0.539 159 113 90
0.919051 -0.459257 -0.564 193 195 181
1.00247 -0.460071 -0.565 128 129 123
1.03626 -0.4617 -0.567 104 106 105
0.0216 -0.41136 -0.504 202 156 122
0.02736 -0.41136 -0.504 202 153 120
0.0282638 -0.410544 -0.503 202 153 120
0.0292219 -0.410544 -0.503 203 154 121
0.0378448 -0.410544 -0.503 198 149 117
0.055419 -0.412992 -0.506 196 149 119
0.05746 -0.413809 -0.507 196 150 117
0.078201 -0.426868 -0.523 152 109 93
0.0832857 -0.432581 -0.53 128 95 86
0.101279 -0.449721 -0.551 90 87 106
0.113873 -0.449721 -0.551 185 184 182
0.124369 -0.449721 -0.551 208 212 221
0.396957 -0.452986 -0.555 98 106 129
0.436457 -0.437478 -0.536 145 95 72
0.4405 -0.4285 -0.525 169 115 87
0.442807 -0.426868 -0.523 174 121 89
0.443803 -0.426868 -0.523 174 121 89
0.451729 -0.420338 -0.515 180 127 95
0.45369 -0.420338 -0.515 184 131 99
0.455652 -0.420338 -0.515 184 131 99
0.459746 -0.418706 -0.513 185 130 100
0.463726 -0.41789 -0.512 177 126 97
0.470494 -0.418706 -0.513 180 131 101
0.472449 -0.418706 -0.513 180 131 101
0.475328 -0.419522 -0.514 174 124 97
0.494743 -0.424419 -0.52 168 121 95
0.526114 -0.440743 -0.54 161 115 92
0.911505 -0.463596 -0.568 193 194 180
0.933171 -0.465229 -0.57 184 184 172
0.932618 -0.464412 -0.569 184 184 172
0.968469 -0.460331 -0.564 125 128 121
0.989557 -0.461148 -0.565 121 123 120
0.995621 -0.461964 -0.566 110 112 109
1.01964 -0.466045 -0.571 101 103 102
1.02799 -0.464412 -0.569 106 106 104
1.03016 -0.464412 -0.569 104 104 104
0.0055 -0.4295 -0.525 192 148 123
0.0074 -0.423773 -0.518 194 150 121
0.014939 -0.413956 -0.506 204 159 126
0.0282638 -0.411502 -0.503 196 150 116
0.0311381 -0.411502 -0.503 204 155 122
0.0320962 -0.411502 -0.503 203 154 122
0.0387257 -0.410684 -0.502 203 154 122
0.0444629 -0.410684 -0.502 198 152 119
0.0504 -0.41232 -0.504 200 151 119
0.0524238 -0.413138 -0.505 200 154 121
0.058541 -0.415592 -0.508 192 146 113
0.0616857 -0.417229 -0.51 186 139 111
0.07238 -0.422955 -0.517 168 117 100
0.0819657 -0.431954 -0.528 129 99 89
0.106333 -0.449952 -0.55 162 158 155
0.112824 -0.45077 -0.551 183 183 183
0.393786 -0.454043 -0.555 128 128 130
0.402243 -0.454043 -0.555 51 75 103
0.413871 -0.454043 -0.555 88 99 119
0.419157 -0.454043 -0.555 105 104 110
0.420214 -0.454043 -0.555 112 113 117
0.437271 -0.439317 -0.537 142 94 71
0.436662 -0.437681 -0.535 145 93 69
0.441657 -0.428682 -0.524 169 115 87
0.443803 -0.427864 -0.523 172 119 88
0.449657 -0.422137 -0.516 179 126 94
0.4608 -0.418865 -0.512 185 131 103
0.479244 -0.420501 -0.514 170 120 93
0.493791 -0.424591 -0.519 166 119 93
0.51528 -0.435227 -0.532 157 109 87
0.879396 -0.45977 -0.562 190 190 178
0.92062 -0.468769 -0.573 181 181 169
0.970186 -0.462224 -0.565 101 103 98
1.03845 -0.471223 -0.576 102 103 107
1.03774 -0.470405 -0.575 101 101 101
0.01018 -0.41738 -0.509 197 159 123
0.0120714 -0.41574 -0.507 199 154 123
0.01584 -0.41328 -0.504 198 153 120
0.0234733 -0.41246 -0.503 197 153 118
0.03018 -0.41246 -0.503 199 153 119
0.0368133 -0.41164 -0.502 195 149 116
0.0504 -0.41328 -0.504 199 150 120
0.0563829 -0.41492 -0.506 196 147 117
0.058541 -0.41656 -0.508 192 146 113
0.0669343 -0.42066 -0.513 178 132 106
0.102143 -0.451 -0.55 78 83 103
0.390966 -0.45428 -0.554 119 118 126
0.392021 -0.45428 -0.554 130 129 135
0.401518 -0.45428 -0.554 47 71 105
0.419157 -0.4551 -0.555 123 122 128
0.430786 -0.4551 -0.555 39 59 84
0.437478 -0.43952 -0.536 143 93 68
0.437681 -0.4387 -0.535 145 95 70
0.439167 -0.43214 -0.527 160 106 82
0.445219 -0.4264 -0.52 172 122 89
0.446467 -0.42476 -0.518 178 125 93
0.447453 -0.42476 -0.518 178 125 93
0.448559 -0.42394 -0.517 178 125 93
0.454768 -0.42148 -0.514 181 128 96
0.456726 -0.42148 -0.514 178 128 95
0.459825 -0.41984 -0.512 185 131 103
0.46275 -0.41984 -0.512 182 131 100
0.481202 -0.42148 -0.514 170 120 93
0.48316 -0.42148 -0.514 172 125 99
0.486062 -0.4223 -0.515 161 113 90
0.879396 -0.46084 -0.562 176 178 165
0.96066 -0.46494 -0.567 113 113 105
0.965881 -0.4633 -0.565 105 106 101
0.9842 -0.4674 -0.57 101 101 101
0.98442 -0.46494 -0.567 102 102 102
1.00049 -0.4674 -0.57 102 102 102
0.0167667 -0.413418 -0.503 195 150 117
0.0215143 -0.412596 -0.502 201 156 123
0.03012 -0.412596 -0.502 198 152 118
0.0387257 -0.412596 -0.502 201 155 122
0.0415114 -0.411774 -0.501 199 153 120
0.05746 -0.416706 -0.507 192 147 114
0.0647267 -0.419993 -0.511 183 137 111
0.0795 -0.4315 -0.525 137 103 91
0.100048 -0.452048 -0.55 43 47 74
0.103003 -0.451226 -0.549 115 121 147
0.113667 -0.452048 -0.55 193 191 196
0.400463 -0.455335 -0.554 59 83 121
0.418402 -0.455335 -0.554 121 120 128
0.422329 -0.456157 -0.555 81 80 76
0.424443 -0.456157 -0.555 105 104 100
0.430786 -0.456157 -0.555 59 79 104
0.442954 -0.429034 -0.522 168 117 86
0.44621 -0.42739 -0.52 173 122 91
0.447453 -0.425747 -0.518 176 123 91
0.447574 -0.424925 -0.517 176 123 91
0.449657 -0.424103 -0.516 174 124 91
0.453789 -0.422459 -0.514 176 126 93
0.456899 -0.420815 -0.512 181 125 98
0.471528 -0.420815 -0.512 171 117 91
0.474453 -0.420815 -0.512 173 122 95
0.479289 -0.421637 -0.513 174 123 96
0.494813 -0.425747 -0.518 161 117 92
0.502611 -0.429034 -0.522 162 118 93
0.993101 -0.47013 -0.572 101 101 103
0.00151143 -0.435795 -0.529 190 152 116
0.00540571 -0.425086 -0.516 192 151 123
0.0073 -0.420967 -0.511 195 151 122
0.0186457 -0.413552 -0.502 199 154 121
0.0320324 -0.413552 -0.502 198 152 119
0.0357857 -0.412729 -0.501 198 152 119
0.0584257 -0.417671 -0.507 191 146 115
0.0657 -0.420967 -0.511 179 133 109
0.0679114 -0.422614 -0.513 173 127 104
0.0712571 -0.425086 -0.516 159 112 92
0.0998657 -0.452271 -0.549 47 53 79
0.103003 -0.452271 -0.549 113 119 151
0.110323 -0.452271 -0.549 183 185 184
0.111369 -0.452271 -0.549 185 187 186
0.39658 -0.455567 -0.553 53 67 94
0.397633 -0.455567 -0.553 50 70 107
0.424733 -0.45639 -0.554 111 114 121
0.438499 -0.441562 -0.536 137 92 69
0.445219 -0.428381 -0.52 174 119 89
0.447453 -0.426733 -0.518 174 121 90
0.46574 -0.420967 -0.511 178 124 96
0.467687 -0.420967 -0.511 183 129 101
0.493858 -0.42591 -0.517 161 115 89
0.528265 -0.44321 -0.538 162 120 95
0.829333 -0.461333 -0.56 182 183 175
0.00727143 -0.420289 -0.509 196 152 123
0.0176895 -0.414509 -0.502 197 152 121
0.0271971 -0.413683 -0.501 198 153 120
0.0329229 -0.413683 -0.501 197 151 118
0.037619 -0.412857 -0.5 198 151 121
0.0395238 -0.412857 -0.5 200 153 123
0.0404762 -0.412857 -0.5 199 152 122
0.0414286 -0.412857 -0.5 200 154 121
0.0463752 -0.414509 -0.502 197 152 119
0.0473314 -0.414509 -0.502 197 152 121
0.0522162 -0.415334 -0.503 195 151 122
0.0759171 -0.430197 -0.521 150 107 88
0.0808067 -0.435151 -0.527 126 96 86
0.0821209 -0.436803 -0.529 119 94 89
0.102815 -0.452491 -0.548 96 105 138
0.417647 -0.45662 -0.553 126 126 136
0.422913 -0.45662 -0.553 89 90 92
0.43212 -0.457446 -0.554 37 52 81
0.433175 -0.457446 -0.554 21 37 70
0.43423 -0.457446 -0.554 21 37 70
0.438267 -0.43928 -0.532 145 95 72
0.440337 -0.434326 -0.526 154 102 78
0.4405 -0.4335 -0.525 154 103 76
0.44634 -0.428546 -0.519 171 117 89
0.447453 -0.42772 -0.518 174 121 90
