ply
format ascii 1.0
comment Created by Open3D
element vertex 1280
property double x
property double y
property double z
property uchar red
property uchar green
property uchar blue
end_header
0.500723 -0.358763 -0.507 183 138 109
0.512393 -0.360178 -0.509 177 128 96
0.513363 -0.360178 -0.509 178 129 97
0.517327 -0.361593 -0.511 174 125 93
0.519314 -0.362301 -0.512 174 125 93
0.04114 -0.398043 -0.561 203 156 138
0.0420581 -0.396624 -0.559 200 153 135
0.0429686 -0.395205 -0.557 200 154 131
0.0580476 -0.376048 -0.53 205 161 136
0.0619686 -0.375338 -0.529 204 158 134
0.0698971 -0.374629 -0.528 203 156 130
0.0780905 -0.375338 -0.529 187 137 110
0.0792476 -0.376048 -0.53 187 137 110
0.0871286 -0.379595 -0.535 176 125 98
0.112131 -0.395914 -0.558 138 95 88
0.133157 -0.415071 -0.585 28 33 63
0.14343 -0.415781 -0.586 138 139 159
0.173271 -0.415071 -0.585 118 142 180
0.383786 -0.423586 -0.597 218 221 236
0.393541 -0.424295 -0.598 89 130 196
0.399236 -0.424295 -0.598 105 147 205
0.402653 -0.424295 -0.598 208 228 255
0.403792 -0.424295 -0.598 208 228 255
0.425714 -0.425714 -0.6 88 140 200
0.443595 -0.426424 -0.601 221 229 232
0.451213 -0.427133 -0.602 205 207 220
0.470748 -0.429262 -0.605 171 188 208
0.474205 -0.429262 -0.605 152 150 164
0.491149 -0.429971 -0.606 68 116 182
0.509617 -0.429971 -0.606 185 187 199
0.511926 -0.429971 -0.606 189 195 209
0.516543 -0.429971 -0.606 172 180 199
0.512914 -0.408686 -0.576 151 127 123
0.497545 -0.393076 -0.554 150 125 120
0.4941 -0.389529 -0.549 150 125 120
0.485686 -0.378886 -0.534 156 128 117
0.48488 -0.377467 -0.532 158 129 115
0.493963 -0.359729 -0.507 188 143 114
0.498791 -0.359729 -0.507 184 139 110
0.514332 -0.361148 -0.509 177 128 96
0.528325 -0.366824 -0.517 166 120 94
0.532381 -0.368952 -0.52 163 118 95
0.0434762 -0.391286 -0.55 197 155 141
0.0511733 -0.37848 -0.532 202 158 133
0.0677571 -0.374923 -0.527 204 158 132
0.0729143 -0.375634 -0.528 202 157 128
0.0802571 -0.377057 -0.53 187 135 111
0.0837571 -0.379191 -0.533 177 127 102
0.0849314 -0.379903 -0.534 178 128 103
0.09792 -0.387017 -0.544 157 108 91
0.105286 -0.391286 -0.55 145 102 93
0.135386 -0.416186 -0.585 41 45 74
0.138729 -0.416186 -0.585 40 47 76
0.140957 -0.416186 -0.585 67 71 98
0.145414 -0.416186 -0.585 148 144 158
0.146529 -0.416186 -0.585 152 148 162
0.150986 -0.416186 -0.585 156 154 165
0.164076 -0.415474 -0.584 99 134 176
0.395157 -0.424723 -0.597 90 131 195
0.396294 -0.424723 -0.597 97 136 201
0.445885 -0.427569 -0.601 195 200 206
0.474571 -0.429703 -0.604 205 209 221
0.482625 -0.429703 -0.604 203 209 223
0.485729 -0.430414 -0.605 130 144 170
0.510771 -0.431126 -0.606 189 189 199
0.516543 -0.431126 -0.606 184 190 204
0.52491 -0.430414 -0.605 35 67 128
0.4959 -0.391997 -0.551 149 126 120
0.486156 -0.364251 -0.512 188 144 119
0.4862 -0.362829 -0.51 187 143 116
0.487186 -0.362117 -0.509 189 143 117
0.489125 -0.362117 -0.509 188 142 116
0.509414 -0.360694 -0.507 178 129 97
0.516271 -0.362117 -0.509 174 125 93
0.52326 -0.364963 -0.513 168 122 96
0.0440381 -0.388053 -0.544 201 156 135
0.0456019 -0.383773 -0.538 204 159 138
0.049239 -0.380207 -0.533 203 158 135
0.0510771 -0.37878 -0.531 200 155 132
0.0549152 -0.377353 -0.529 205 159 136
0.0859486 -0.38092 -0.534 180 125 104
0.09792 -0.388053 -0.544 163 107 92
0.10672 -0.39376 -0.552 141 101 91
0.113803 -0.40018 -0.561 130 92 89
0.144053 -0.416587 -0.584 145 142 163
0.395157 -0.42586 -0.597 102 137 195
0.438286 -0.428 -0.6 227 230 239
0.439429 -0.428 -0.6 230 233 242
0.4623 -0.43014 -0.603 59 104 172
0.474934 -0.43014 -0.603 208 213 233
0.487227 -0.430853 -0.604 84 128 191
0.505319 -0.431567 -0.605 176 195 225
0.515389 -0.43228 -0.606 192 195 200
0.52116 -0.43228 -0.606 65 99 160
0.490897 -0.386627 -0.542 154 127 120
0.486595 -0.381633 -0.535 155 127 116
0.48498 -0.37878 -0.531 158 129 115
0.484174 -0.36594 -0.513 182 136 110
0.502627 -0.360947 -0.506 184 135 103
0.515257 -0.362373 -0.508 176 127 95
0.524237 -0.36594 -0.513 166 122 95
0.0749257 -0.377646 -0.528 194 147 119
0.08142 -0.379791 -0.531 178 128 101
0.0906914 -0.384798 -0.538 172 118 94
0.12782 -0.415553 -0.581 74 66 81
0.131591 -0.416984 -0.583 70 78 99
0.142941 -0.417699 -0.584 112 110 132
0.145166 -0.417699 -0.584 147 144 153
0.162685 -0.416984 -0.583 118 142 178
0.39563 -0.426282 -0.596 120 153 207
0.426573 -0.427712 -0.598 123 163 212
0.42999 -0.427712 -0.598 129 171 221
0.436414 -0.428428 -0.599 212 229 255
0.444 -0.429143 -0.6 226 230 239
0.468413 -0.430573 -0.602 119 135 169
0.472637 -0.431289 -0.603 201 204 219
0.481474 -0.432004 -0.604 210 213 222
0.482625 -0.432004 -0.604 211 214 223
0.486076 -0.432004 -0.604 82 127 186
0.494948 -0.432719 -0.605 89 131 189
0.516843 -0.432719 -0.605 167 176 191
0.5203 -0.432719 -0.605 58 92 155
0.48316 -0.367632 -0.514 184 139 110
0.489125 -0.364056 -0.509 187 142 111
0.513277 -0.362626 -0.507 178 129 97
0.5202 -0.364771 -0.51 166 122 95
0.0617343 -0.377934 -0.527 206 158 135
0.0727762 -0.377934 -0.527 195 147 125
0.112533 -0.4016 -0.56 133 95 94
0.136033 -0.418094 -0.583 68 74 96
0.137144 -0.418094 -0.583 62 68 90
0.147138 -0.418094 -0.583 154 153 161
0.149359 -0.418094 -0.583 154 152 155
0.15269 -0.418094 -0.583 157 154 165
0.161574 -0.418094 -0.583 143 166 200
0.426573 -0.428851 -0.598 153 185 232
0.43113 -0.428851 -0.598 121 154 199
0.438696 -0.429569 -0.599 221 233 249
0.482974 -0.432437 -0.603 192 204 228
0.498731 -0.433154 -0.604 92 132 184
0.509086 -0.433154 -0.604 196 197 192
0.515989 -0.433154 -0.604 127 134 144
0.5004 -0.398731 -0.556 151 124 115
0.489324 -0.385823 -0.538 153 125 113
0.483419 -0.377217 -0.526 162 133 119
0.489125 -0.365026 -0.509 188 143 112
0.503557 -0.362157 -0.505 183 134 104
0.510337 -0.362874 -0.506 180 131 99
0.515209 -0.363591 -0.507 171 127 98
0.529224 -0.369329 -0.515 162 121 93
0.620974 -0.422397 -0.589 202 199 190
0.0385857 -0.399071 -0.555 203 156 136
0.0410048 -0.391881 -0.545 198 156 132
0.04602 -0.381814 -0.531 199 154 131
0.0666267 -0.378219 -0.526 201 153 130
0.0726381 -0.378219 -0.526 193 145 122
0.0905229 -0.386129 -0.537 169 114 94
0.128927 -0.417767 -0.581 60 62 83
0.390433 -0.427833 -0.595 188 209 240
0.3927 -0.427833 -0.595 149 173 209
0.450857 -0.431429 -0.6 100 119 149
0.457332 -0.432148 -0.601 142 179 231
0.459622 -0.432148 -0.601 88 124 174
0.467635 -0.432148 -0.601 89 112 153
0.478733 -0.432867 -0.602 208 215 234
0.487907 -0.432867 -0.602 91 128 172
0.498731 -0.434305 -0.604 95 131 179
0.521741 -0.434305 -0.604 51 88 141
0.485991 -0.381814 -0.531 157 129 118
0.485169 -0.380376 -0.529 159 131 120
0.482726 -0.375343 -0.522 163 130 113
0.482793 -0.374624 -0.521 170 133 114
0.489131 -0.365276 -0.508 190 145 114
0.492997 -0.364557 -0.507 192 145 115
0.498748 -0.363119 -0.505 187 138 106
0.50448 -0.3624 -0.504 184 135 105
0.512265 -0.363838 -0.506 180 131 101
0.527169 -0.368871 -0.513 161 121 95
0.0422905 -0.38571 -0.535 196 156 131
0.0516962 -0.379942 -0.527 206 160 136
0.0635 -0.3785 -0.525 198 152 126
0.0665 -0.3785 -0.525 199 153 127
0.0706343 -0.379221 -0.526 194 148 122
0.0747838 -0.379942 -0.527 185 135 108
0.0881476 -0.38571 -0.535 171 116 95
0.4063 -0.428967 -0.595 228 239 255
0.429271 -0.430409 -0.597 158 184 221
0.447824 -0.43185 -0.599 190 198 221
0.455429 -0.432571 -0.6 153 182 216
0.464571 -0.432571 -0.6 128 146 184
0.468 -0.432571 -0.6 84 107 148
0.489053 -0.434013 -0.602 115 147 186
0.4902 -0.434013 -0.602 130 165 207
0.497906 -0.434734 -0.603 123 154 198
0.508547 -0.434013 -0.602 200 201 206
0.508322 -0.408059 -0.566 149 124 117
0.48772 -0.384989 -0.534 155 127 116
0.483074 -0.372011 -0.516 181 137 112
0.48316 -0.37057 -0.514 183 138 109
0.484206 -0.369128 -0.512 186 141 112
0.50352 -0.36336 -0.504 187 138 106
0.5064 -0.36336 -0.504 185 136 106
0.513176 -0.364081 -0.505 169 127 102
0.514138 -0.364081 -0.505 168 126 101
0.523114 -0.367686 -0.51 163 123 97
0.526141 -0.369128 -0.512 163 123 97
0.0381686 -0.396849 -0.549 202 157 136
0.0545 -0.3795 -0.525 208 162 138
0.0645 -0.3795 -0.525 198 153 124
0.0655 -0.3795 -0.525 199 154 125
0.112734 -0.405523 -0.561 135 97 88
0.1358 -0.420703 -0.582 109 111 124
0.150211 -0.420703 -0.582 179 180 185
0.164623 -0.420703 -0.582 132 161 201
0.418767 -0.4301 -0.595 159 179 212
0.436094 -0.431546 -0.597 230 234 245
0.447076 -0.432269 -0.598 187 197 222
0.462286 -0.433714 -0.6 194 206 230
0.475649 -0.434437 -0.601 207 213 227
0.498227 -0.43516 -0.602 112 141 181
0.502813 -0.43516 -0.602 184 200 223
0.51084 -0.43516 -0.602 199 190 195
0.513133 -0.43516 -0.602 139 138 152
0.51428 -0.43516 -0.602 112 111 125
0.520877 -0.435883 -0.603 105 134 176
0.522026 -0.435883 -0.603 132 161 203
0.524873 -0.434437 -0.601 103 118 137
0.514413 -0.41492 -0.574 152 125 118
0.484257 -0.368657 -0.51 184 140 113
0.4901 -0.366489 -0.507 188 143 112
0.529123 -0.370826 -0.513 160 123 97
0.0387143 -0.392821 -0.542 205 158 138
0.0438314 -0.383399 -0.529 199 154 131
0.0505962 -0.381225 -0.526 211 165 141
0.0645 -0.3805 -0.525 198 151 123
0.0715 -0.3805 -0.525 194 147 121
0.0725 -0.3805 -0.525 189 142 114
0.0846133 -0.385573 -0.532 172 117 97
0.100176 -0.394995 -0.545 153 105 93
0.12738 -0.419637 -0.579 72 66 76
0.138887 -0.421087 -0.581 146 153 163
0.14774 -0.421087 -0.581 174 177 194
0.158807 -0.421087 -0.581 99 130 174
0.159913 -0.421087 -0.581 107 138 182
0.166553 -0.421087 -0.581 115 144 186
0.436094 -0.432683 -0.597 232 234 246
0.447076 -0.433408 -0.598 160 175 198
0.448215 -0.433408 -0.598 116 131 154
0.458092 -0.434132 -0.599 171 188 218
0.476 -0.434857 -0.6 213 214 232
0.491675 -0.435582 -0.601 158 186 223
0.5074 -0.436307 -0.602 200 200 210
0.507702 -0.435582 -0.601 197 199 211
0.485342 -0.38195 -0.527 159 129 119
0.4845 -0.3805 -0.525 161 128 113
0.488164 -0.368179 -0.508 186 141 112
0.493938 -0.366005 -0.505 188 141 111
0.499647 -0.364555 -0.503 184 138 105
0.500605 -0.364555 -0.503 185 139 106
0.50439 -0.36383 -0.502 185 138 108
0.538277 -0.376151 -0.519 155 119 93
0.0475905 -0.382227 -0.526 206 162 137
0.0505 -0.3815 -0.525 210 164 140
0.062381 -0.380773 -0.524 202 155 129
0.0822762 -0.385133 -0.53 171 119 98
0.0929133 -0.391673 -0.539 166 110 93
0.108357 -0.4033 -0.555 131 95 97
0.133124 -0.421467 -0.58 132 131 137
0.147486 -0.421467 -0.58 165 170 192
0.155219 -0.421467 -0.58 129 144 163
0.157429 -0.421467 -0.58 96 131 173
0.164057 -0.421467 -0.58 121 155 200
0.165162 -0.421467 -0.58 111 140 182
0.168476 -0.421467 -0.58 159 183 217
0.475207 -0.435273 -0.599 213 214 234
0.488571 -0.436 -0.6 132 162 198
0.490857 -0.436 -0.6 153 181 218
0.51686 -0.436727 -0.601 119 134 165
0.485342 -0.382953 -0.527 157 128 120
0.496772 -0.365513 -0.503 188 141 111
0.528033 -0.371327 -0.511 157 120 94
0.6201 -0.4251 -0.585 204 192 180
0.0408857 -0.386143 -0.53 199 154 133
0.0475 -0.3825 -0.525 208 162 136
0.0582771 -0.381043 -0.523 203 157 131
0.0592733 -0.381043 -0.523 202 156 130
0.0812667 -0.386143 -0.53 176 121 100
0.0893333 -0.390514 -0.536 169 113 96
0.102815 -0.399257 -0.548 147 103 90
0.42372 -0.432771 -0.594 182 204 241
0.428967 -0.4335 -0.595 146 170 208
0.44104 -0.434229 -0.596 195 206 228
0.444446 -0.434229 -0.596 126 142 167
0.45505 -0.435686 -0.598 214 221 240
0.456189 -0.435686 -0.598 209 218 235
0.457328 -0.435686 -0.598 183 192 209
0.472135 -0.435686 -0.598 166 179 198
0.477489 -0.436414 -0.599 208 217 234
0.5 -0.437143 -0.6 164 186 210
0.502286 -0.437143 -0.6 196 200 211
0.510286 -0.437143 -0.6 176 182 196
0.484257 -0.371571 -0.51 182 138 111
0.487203 -0.369386 -0.507 184 139 110
0.498653 -0.365743 -0.502 186 139 109
0.514976 -0.366471 -0.503 170 126 99
0.529007 -0.3723 -0.511 156 119 93
0.0349676 -0.400301 -0.548 201 156 135
0.0357486 -0.397379 -0.544 199 157 135
0.0408086 -0.386422 -0.529 197 155 131
0.0475 -0.3835 -0.525 208 162 136
0.0822762 -0.387152 -0.53 175 120 99
0.102815 -0.400301 -0.548 147 105 93
0.151643 -0.422946 -0.579 184 189 208
0.152746 -0.422946 -0.579 180 185 204
0.160466 -0.422946 -0.579 130 161 207
0.424851 -0.433903 -0.594 158 181 222
0.439905 -0.435364 -0.596 199 208 239
0.446716 -0.435364 -0.596 212 227 250
0.4577 -0.436094 -0.597 163 162 178
0.459974 -0.436094 -0.597 205 216 236
0.470996 -0.436825 -0.598 103 114 146
0.474413 -0.436825 -0.598 185 198 217
0.49118 -0.437555 -0.599 150 179 219
0.498857 -0.438286 -0.6 126 156 192
0.505714 -0.438286 -0.6 205 201 216
0.509143 -0.438286 -0.6 156 164 183
0.525409 -0.437555 -0.599 171 174 189
0.52655 -0.437555 -0.599 170 173 190
0.483906 -0.379117 -0.519 171 134 116
0.487203 -0.370351 -0.507 185 139 113
0.489133 -0.369621 -0.506 185 140 111
0.491052 -0.36889 -0.505 191 144 116
0.497697 -0.366699 -0.502 188 141 113
0.502431 -0.365969 -0.501 189 140 110
0.505294 -0.365969 -0.501 188 139 109
0.507203 -0.365969 -0.501 185 136 106
0.52998 -0.373273 -0.511 156 119 93
0.039801 -0.38743 -0.529 201 156 127
0.05916 -0.382303 -0.522 204 156 133
0.0745 -0.3845 -0.525 185 130 109
0.0822762 -0.388162 -0.53 174 119 99
0.0879829 -0.391091 -0.534 171 115 98
0.092741 -0.394021 -0.538 167 114 96
0.09394 -0.394753 -0.539 166 113 95
0.143674 -0.423316 -0.578 108 122 148
0.145876 -0.423316 -0.578 82 95 129
0.15028 -0.423316 -0.578 189 196 215
0.15826 -0.424049 -0.579 112 150 197
0.16129 -0.423316 -0.578 116 149 200
0.16239 -0.423316 -0.578 119 150 196
0.423007 -0.434302 -0.593 168 191 232
0.429377 -0.435034 -0.594 168 183 212
0.430509 -0.435034 -0.594 192 207 236
0.451257 -0.436499 -0.596 220 222 234
0.454663 -0.436499 -0.596 214 220 242
0.458069 -0.436499 -0.596 198 202 211
0.459204 -0.436499 -0.596 207 214 232
0.472483 -0.437231 -0.597 99 120 147
0.481248 -0.437964 -0.598 203 213 238
0.485475 -0.438696 -0.599 122 145 179
0.49118 -0.438696 -0.599 136 165 205
0.498026 -0.438696 -0.599 126 155 185
0.50373 -0.438696 -0.599 197 200 215
0.509435 -0.438696 -0.599 80 99 131
0.52655 -0.438696 -0.599 173 176 191
0.486425 -0.385232 -0.526 162 129 114
0.487203 -0.371317 -0.507 185 139 113
0.490097 -0.370585 -0.506 188 142 116
0.49009 -0.369852 -0.505 189 143 117
0.491052 -0.369852 -0.505 192 145 117
0.50434 -0.366923 -0.501 189 140 110
0.510066 -0.366923 -0.501 179 134 105
0.513952 -0.367655 -0.502 172 128 101
0.03288 -0.402389 -0.548 199 153 130
0.0434171 -0.384766 -0.524 202 156 133
0.0540848 -0.382563 -0.521 201 154 128
0.0570619 -0.382563 -0.521 202 155 129
0.0581657 -0.383297 -0.522 203 157 131
0.0621429 -0.383297 -0.522 195 148 122
0.0735 -0.3855 -0.525 179 130 100
0.0756438 -0.386234 -0.526 182 127 107
0.09774 -0.398717 -0.543 162 109 93
0.12716 -0.424417 -0.578 125 122 131
0.130237 -0.423683 -0.577 146 143 150
0.133534 -0.423683 -0.577 160 160 162
0.134867 -0.424417 -0.578 168 166 171
0.144525 -0.423683 -0.577 129 140 170
0.403569 -0.433963 -0.591 197 208 228
0.426395 -0.435431 -0.593 140 166 203
0.427525 -0.435431 -0.593 148 174 211
0.428654 -0.435431 -0.593 170 187 217
0.445967 -0.4369 -0.595 215 233 247
0.4505 -0.4369 -0.595 222 226 235
0.466015 -0.437634 -0.596 210 220 232
0.469421 -0.437634 -0.596 167 182 201
0.483526 -0.439103 -0.598 152 172 205
0.485804 -0.439103 -0.598 122 142 175
0.489221 -0.439103 -0.598 121 154 197
0.52681 -0.439103 -0.598 174 176 191
0.5166 -0.42148 -0.574 155 125 115
0.508845 -0.413403 -0.563 154 122 111
0.4865 -0.3855 -0.525 164 128 112
0.484778 -0.382563 -0.521 170 133 115
0.485261 -0.373017 -0.508 183 139 114
0.496706 -0.367877 -0.501 189 142 114
0.503333 -0.367143 -0.5 189 139 112
0.51 -0.367143 -0.5 179 132 104
0.0327 -0.401224 -0.545 201 155 132
0.0377857 -0.389445 -0.529 205 157 135
0.0386467 -0.387972 -0.527 200 156 131
0.0580543 -0.383555 -0.521 202 156 130
0.0590467 -0.383555 -0.521 203 157 131
0.0672429 -0.385028 -0.523 190 143 113
0.0755 -0.3865 -0.525 179 127 105
0.0776476 -0.387236 -0.526 176 124 102
0.0989562 -0.400488 -0.544 161 110 93
0.12694 -0.424782 -0.577 127 124 135
0.135732 -0.424782 -0.577 154 149 153
0.140129 -0.424782 -0.577 180 183 188
0.154416 -0.424782 -0.577 161 176 207
0.159911 -0.424782 -0.577 114 154 215
0.449367 -0.438033 -0.595 225 230 236
0.4573 -0.438033 -0.595 213 221 232
0.462967 -0.438033 -0.595 213 221 232
0.46488 -0.43877 -0.596 214 222 233
0.466015 -0.43877 -0.596 214 224 234
0.472827 -0.43877 -0.596 103 122 154
0.485804 -0.440242 -0.598 110 139 179
0.50175 -0.440242 -0.598 199 201 224
0.506307 -0.440242 -0.598 93 107 134
0.510863 -0.440242 -0.598 169 190 209
0.512002 -0.440242 -0.598 184 197 206
0.514988 -0.420365 -0.571 151 123 112
0.510652 -0.415948 -0.565 152 122 111
0.5072 -0.412267 -0.56 154 124 113
0.489947 -0.391653 -0.532 155 125 115
0.485709 -0.384291 -0.522 167 131 115
0.490097 -0.372512 -0.506 185 139 113
0.49008 -0.37104 -0.504 191 144 118
0.50619 -0.368095 -0.5 187 137 110
0.517777 -0.369568 -0.502 166 124 99
0.519767 -0.370304 -0.503 165 123 98
0.03252 -0.400048 -0.542 201 154 134
0.0341381 -0.394881 -0.535 202 155 137
0.0385733 -0.388238 -0.526 203 157 133
0.0620238 -0.384548 -0.521 192 147 118
0.101771 -0.404476 -0.548 148 104 91
0.123214 -0.424405 -0.575 116 109 116
0.128914 -0.425143 -0.576 147 145 158
0.143177 -0.425143 -0.576 181 184 199
0.148663 -0.425143 -0.576 128 136 159
0.154416 -0.425881 -0.577 141 156 195
0.405133 -0.435476 -0.59 209 216 235
0.436561 -0.43769 -0.593 146 160 189
0.448611 -0.438429 -0.594 224 228 231
0.454269 -0.438429 -0.594 221 230 237
0.461057 -0.438429 -0.594 219 223 232
0.490677 -0.440643 -0.597 110 151 203
0.525929 -0.440643 -0.597 175 178 187
0.509011 -0.41481 -0.562 153 125 113
0.499463 -0.404476 -0.548 152 125 116
0.49261 -0.395619 -0.536 156 126 116
0.484894 -0.383071 -0.519 170 133 115
0.484057 -0.380857 -0.516 171 130 112
0.4841 -0.380119 -0.515 173 132 114
0.484206 -0.377905 -0.512 181 136 113
0.49008 -0.372 -0.504 190 143 117
0.49104 -0.372 -0.504 191 144 118
0.493898 -0.371262 -0.503 189 142 116
0.530814 -0.37569 -0.509 157 119 96
0.0339467 -0.39368 -0.532 204 157 137
0.0348286 -0.3922 -0.53 204 157 137
0.0357705 -0.39146 -0.529 206 159 139
0.0461457 -0.38554 -0.521 207 161 138
0.052 -0.3848 -0.52 205 157 135
0.0755 -0.3885 -0.525 178 128 105
0.0811133 -0.39146 -0.529 176 125 104
0.09394 -0.39886 -0.539 165 114 97
0.0989562 -0.40256 -0.544 155 109 94
0.10319 -0.407 -0.55 143 106 97
0.121907 -0.42476 -0.574 116 105 111
0.128914 -0.42624 -0.576 150 146 160
0.141833 -0.4255 -0.575 189 191 204
0.145119 -0.4255 -0.575 172 178 194
0.158537 -0.42624 -0.576 84 122 187
0.414124 -0.4366 -0.59 208 223 244
0.429059 -0.43808 -0.592 194 218 252
0.432442 -0.43808 -0.592 224 227 255
0.441079 -0.43882 -0.593 213 221 240
0.452006 -0.43956 -0.594 227 225 230
0.459926 -0.43956 -0.594 200 203 208
0.481909 -0.44104 -0.596 183 198 227
0.487585 -0.44104 -0.596 99 138 193
0.508871 -0.44178 -0.597 188 201 210
0.52138 -0.44178 -0.597 174 178 189
0.516791 -0.42402 -0.573 149 122 111
0.493529 -0.39738 -0.537 158 125 116
0.486571 -0.38776 -0.524 162 130 117
0.484894 -0.38406 -0.519 169 132 116
0.484233 -0.37814 -0.511 178 136 114
0.487206 -0.37444 -0.506 183 139 114
0.515714 -0.37 -0.5 173 129 104
0.0356352 -0.390984 -0.527 205 159 135
0.0557467 -0.384307 -0.518 206 158 135
0.078799 -0.390984 -0.527 179 129 106
0.0878181 -0.395435 -0.533 171 118 100
0.12869 -0.426595 -0.575 141 137 151
0.145119 -0.426595 -0.575 188 194 208
0.1495 -0.426595 -0.575 105 120 149
0.420867 -0.437724 -0.59 152 184 243
0.440335 -0.439208 -0.592 221 227 241
0.445973 -0.439208 -0.592 219 223 222
0.494396 -0.442175 -0.596 89 125 175
0.505749 -0.442175 -0.596 176 181 210
0.508019 -0.442175 -0.596 186 193 201
0.509154 -0.442175 -0.596 192 199 207
0.519106 -0.442917 -0.597 183 190 200
0.510823 -0.418434 -0.564 152 124 113
0.4875 -0.3895 -0.525 163 131 120
0.484057 -0.382823 -0.516 169 130 113
0.4841 -0.382081 -0.515 171 132 115
0.492889 -0.371694 -0.501 187 141 115
0.495714 -0.370952 -0.5 190 143 115
0.50132 -0.369469 -0.498 192 142 115
0.505114 -0.369469 -0.498 188 138 111
0.511754 -0.369469 -0.498 179 133 107
0.519609 -0.371694 -0.501 163 121 96
0.0401914 -0.387525 -0.521 204 158 132
0.0743581 -0.389756 -0.524 181 129 107
0.0755 -0.3905 -0.525 181 129 107
0.0951429 -0.401657 -0.54 157 114 95
0.10036 -0.40612 -0.546 150 108 94
0.104807 -0.411327 -0.553 137 100 92
0.124093 -0.426947 -0.574 98 96 110
0.425362 -0.438848 -0.59 98 133 189
0.444846 -0.440335 -0.592 221 221 221
0.47124 -0.441823 -0.594 204 213 222
0.487585 -0.44331 -0.596 60 101 165
0.5184 -0.428434 -0.576 149 125 113
0.506605 -0.414302 -0.557 153 124 116
0.484257 -0.379343 -0.51 181 136 115
0.492916 -0.373392 -0.502 187 141 117
0.498474 -0.370417 -0.498 187 140 114
0.499423 -0.370417 -0.498 189 142 114
0.507011 -0.370417 -0.498 186 136 109
0.512703 -0.370417 -0.498 177 132 103
0.517534 -0.371161 -0.499 166 125 97
0.0267143 -0.410143 -0.55 198 154 127
0.0326857 -0.393737 -0.528 202 158 131
0.0508133 -0.38628 -0.518 204 158 134
0.0854657 -0.395974 -0.531 174 123 104
0.0965276 -0.404177 -0.542 153 110 93
0.124093 -0.42804 -0.574 84 85 103
0.125187 -0.42804 -0.574 86 88 103
0.153613 -0.42804 -0.574 74 110 162
0.424641 -0.439226 -0.589 78 114 174
0.435476 -0.439971 -0.59 229 234 253
0.451611 -0.441463 -0.592 214 221 237
0.460281 -0.442209 -0.593 199 207 210
0.465929 -0.442209 -0.593 216 219 236
0.475433 -0.4437 -0.595 193 204 222
0.483367 -0.4437 -0.595 96 131 187
0.515966 -0.444446 -0.596 188 192 203
0.51354 -0.42282 -0.567 152 122 114
0.498009 -0.404923 -0.543 160 126 116
0.490066 -0.375094 -0.503 192 144 121
0.49381 -0.372857 -0.5 188 141 115
0.495673 -0.372111 -0.499 191 144 118
0.496577 -0.371366 -0.498 191 144 116
0.509699 -0.369874 -0.496 179 134 105
0.525515 -0.375094 -0.503 161 120 90
0.0256667 -0.41119 -0.55 195 151 124
0.0266171 -0.409695 -0.548 197 153 126
0.0308486 -0.396986 -0.531 200 159 131
0.0325619 -0.393248 -0.526 202 158 131
0.04884 -0.387267 -0.518 200 154 130
0.0607971 -0.388014 -0.519 196 146 121
0.0627743 -0.388014 -0.519 194 144 121
0.0712276 -0.391005 -0.523 182 130 109
0.0878181 -0.398481 -0.533 170 119 102
0.0901857 -0.399976 -0.535 164 113 94
0.0991381 -0.407452 -0.545 147 105 93
0.103378 -0.411938 -0.551 133 102 99
0.1337 -0.428386 -0.573 181 176 182
0.144614 -0.428386 -0.573 196 203 219
0.145706 -0.428386 -0.573 152 171 201
0.428007 -0.440348 -0.589 93 131 193
0.429129 -0.440348 -0.589 99 137 199
0.432494 -0.440348 -0.589 189 202 237
0.44522 -0.441843 -0.591 183 188 184
0.456122 -0.44259 -0.592 183 190 206
0.46176 -0.44259 -0.592 152 159 165
0.500367 -0.444833 -0.595 61 102 148
0.5185 -0.444833 -0.595 174 176 189
0.503247 -0.411938 -0.551 157 124 117
0.497205 -0.404462 -0.541 156 124 111
0.48504 -0.385771 -0.516 169 132 116
0.487206 -0.378295 -0.506 185 140 119
0.487205 -0.377548 -0.505 185 139 115
0.494723 -0.373062 -0.499 190 143 115
0.508754 -0.370819 -0.496 182 137 108
0.0255733 -0.410739 -0.548 192 152 126
0.0307324 -0.396498 -0.529 201 160 132
0.0343686 -0.392001 -0.523 198 154 127
0.0409467 -0.388253 -0.518 202 158 131
0.0468667 -0.388253 -0.518 203 157 131
0.055639 -0.387504 -0.517 199 151 128
0.0576086 -0.387504 -0.517 196 149 123
0.0689705 -0.390502 -0.521 184 132 110
0.08664 -0.398747 -0.532 172 121 102
0.0901857 -0.400995 -0.535 163 115 95
0.0951429 -0.404743 -0.54 156 110 97
0.119094 -0.427978 -0.571 96 89 105
0.42616 -0.44072 -0.588 89 128 187
0.44147 -0.44147 -0.589 192 195 200
0.442591 -0.44147 -0.589 189 193 192
0.454226 -0.442969 -0.591 168 175 193
0.45725 -0.443718 -0.592 177 184 202
0.465929 -0.444468 -0.593 206 210 219
0.469317 -0.444468 -0.593 210 214 225
0.483686 -0.445217 -0.594 39 79 140
0.484817 -0.445217 -0.594 37 82 150
0.493869 -0.445217 -0.594 37 77 139
0.498394 -0.445217 -0.594 51 92 148
0.508577 -0.445217 -0.594 170 170 172
0.509709 -0.445217 -0.594 197 197 199
0.520767 -0.445967 -0.595 130 136 152
0.524167 -0.445967 -0.595 97 101 112
0.524417 -0.445217 -0.594 103 106 115
0.510243 -0.420483 -0.561 152 122 114
0.507666 -0.417485 -0.557 152 122 112
0.486819 -0.389752 -0.52 166 130 116
0.48598 -0.387504 -0.517 169 132 116
0.487206 -0.379259 -0.506 184 139 116
0.48912 -0.37776 -0.504 188 142 118
0.490048 -0.376261 -0.502 189 143 117
0.49098 -0.375511 -0.501 188 141 113
0.496527 -0.372513 -0.497 190 145 114
0.50403 -0.371764 -0.496 186 139 109
0.513478 -0.371764 -0.496 171 130 100
0.516407 -0.372513 -0.497 168 127 97
0.0323762 -0.392997 -0.523 193 152 124
0.0361524 -0.390743 -0.52 200 156 129
0.0496343 -0.387737 -0.516 204 159 130
0.0545486 -0.387737 -0.516 198 152 126
0.0555314 -0.387737 -0.516 198 152 126
0.0699629 -0.391494 -0.521 182 132 109
0.09792 -0.408777 -0.544 144 101 95
0.103566 -0.414789 -0.552 127 98 100
0.119094 -0.429066 -0.571 114 108 122
0.128019 -0.429817 -0.572 134 133 141
0.443713 -0.442591 -0.589 220 225 229
0.446714 -0.443343 -0.59 207 211 222
0.465143 -0.444846 -0.592 193 196 203
0.468526 -0.444846 -0.592 211 211 219
0.477224 -0.445597 -0.593 68 108 159
0.493037 -0.445597 -0.593 44 82 147
0.506314 -0.446349 -0.594 145 140 137
0.509709 -0.446349 -0.594 193 192 197
0.516979 -0.429817 -0.572 150 121 113
0.497314 -0.405771 -0.54 156 126 116
0.486819 -0.390743 -0.52 167 131 117
0.486023 -0.387737 -0.516 171 132 115
0.485261 -0.381726 -0.508 181 136 115
0.486229 -0.381726 -0.508 184 139 118
0.492857 -0.375714 -0.5 186 142 113
0.505843 -0.371957 -0.495 184 139 110
0.507729 -0.371957 -0.495 184 139 110
0.509614 -0.371957 -0.495 182 138 109
0.0341714 -0.391733 -0.52 199 158 128
0.0351619 -0.391733 -0.52 199 158 128
0.0506171 -0.38872 -0.516 202 158 129
0.0516 -0.38872 -0.516 203 159 130
0.0576086 -0.389473 -0.517 195 148 122
0.06068 -0.390227 -0.518 193 146 120
0.0647514 -0.39098 -0.519 186 136 113
0.0667286 -0.39098 -0.519 183 133 110
0.0688381 -0.391733 -0.52 182 132 109
0.0819657 -0.39776 -0.528 174 123 102
0.103753 -0.416593 -0.553 125 99 100
0.122357 -0.430153 -0.571 132 129 140
0.132146 -0.430153 -0.571 182 183 185
0.135409 -0.430153 -0.571 191 193 205
0.138671 -0.430153 -0.571 194 198 210
0.43848 -0.44296 -0.588 191 191 201
0.44184 -0.44296 -0.588 220 224 233
0.451567 -0.443713 -0.589 180 188 209
0.459076 -0.444467 -0.59 192 199 209
0.463231 -0.44522 -0.591 191 194 199
0.475291 -0.445973 -0.592 151 167 192
0.493037 -0.446727 -0.593 92 131 196
0.493731 -0.37516 -0.498 188 143 114
0.501129 -0.3729 -0.495 188 141 111
0.513386 -0.3729 -0.495 174 130 101
0.533469 -0.381187 -0.506 156 119 93
0.0243057 -0.410094 -0.543 188 150 131
0.0260343 -0.404808 -0.536 184 148 122
0.0388981 -0.390458 -0.517 201 158 126
0.0437371 -0.389703 -0.516 202 159 127
0.0605629 -0.390458 -0.517 193 148 119
0.0753562 -0.395745 -0.524 180 129 108
0.0775 -0.3965 -0.525 177 127 104
0.08664 -0.401787 -0.532 170 122 102
0.0878181 -0.402542 -0.533 168 120 100
0.092741 -0.406318 -0.538 160 112 100
0.475291 -0.447101 -0.592 120 144 172
0.484312 -0.447101 -0.592 53 95 155
0.48995 -0.447101 -0.592 45 94 163
0.491078 -0.447101 -0.592 70 111 177
0.486237 -0.382906 -0.507 183 141 117
0.625871 -0.437283 -0.579 205 196 181
0.62914 -0.438793 -0.581 207 198 183
0.0258886 -0.403557 -0.533 187 151 129
0.0302676 -0.394471 -0.521 199 158 128
0.0312 -0.393714 -0.52 198 157 127
0.0698286 -0.393714 -0.52 182 130 108
0.0709552 -0.394471 -0.521 183 131 109
0.092741 -0.407343 -0.538 160 112 102
0.127571 -0.431571 -0.57 169 172 177
0.133 -0.431571 -0.57 194 195 199
0.44632 -0.4452 -0.588 219 227 230
0.44744 -0.4452 -0.588 223 231 234
0.4508 -0.4452 -0.588 205 213 232
0.45304 -0.4452 -0.588 170 177 193
0.484312 -0.448229 -0.592 60 101 155
0.498129 -0.447471 -0.591 80 112 153
0.515886 -0.448229 -0.592 162 173 191
0.519269 -0.448229 -0.592 104 115 135
0.522651 -0.448229 -0.592 158 165 175
0.490432 -0.398257 -0.526 160 128 117
0.489566 -0.396743 -0.524 163 130 115
0.486229 -0.384629 -0.508 181 139 115
0.48815 -0.380843 -0.503 185 141 116
0.491905 -0.378571 -0.5 188 143 112
0.494633 -0.3763 -0.497 190 145 114
0.495528 -0.375543 -0.496 190 145 114
0.03784 -0.391669 -0.516 200 156 127
0.0485571 -0.39091 -0.515 202 159 127
0.05848 -0.391669 -0.516 197 151 125
0.0605629 -0.392428 -0.517 193 146 118
0.0709552 -0.395464 -0.521 179 128 107
0.0742162 -0.396982 -0.523 177 127 104
0.0808067 -0.400018 -0.527 178 125 107
0.0941143 -0.409886 -0.54 154 111 94
0.0967057 -0.412163 -0.543 143 103 95
0.130829 -0.432657 -0.57 188 192 195
0.133 -0.432657 -0.57 195 196 201
0.438105 -0.444802 -0.586 229 233 242
0.447797 -0.445561 -0.587 223 226 235
0.451151 -0.445561 -0.587 205 210 229
0.4564 -0.44632 -0.588 221 225 234
0.45942 -0.447079 -0.589 215 220 226
0.470314 -0.447838 -0.59 203 206 223
0.490249 -0.448597 -0.591 57 110 176
0.493626 -0.448597 -0.591 121 148 191
0.50038 -0.448597 -0.591 94 113 145
0.503757 -0.448597 -0.591 191 198 216
0.504883 -0.448597 -0.591 195 202 220
0.522894 -0.448597 -0.591 172 176 187
0.495767 -0.40609 -0.535 154 124 113
0.489071 -0.380283 -0.501 186 141 112
0.492822 -0.378765 -0.499 187 144 112
0.493687 -0.377247 -0.497 188 145 113
0.511311 -0.37421 -0.493 176 133 101
0.51319 -0.37421 -0.493 173 130 98
0.0339086 -0.392651 -0.516 205 161 132
0.0387476 -0.39189 -0.515 199 155 126
0.0445467 -0.39113 -0.514 202 159 127
0.0785 -0.3995 -0.525 183 128 107
0.0818105 -0.401022 -0.527 180 125 105
0.118677 -0.432982 -0.569 114 102 104
0.443686 -0.445918 -0.586 227 230 249
0.451151 -0.446679 -0.587 221 224 243
0.456742 -0.446679 -0.587 221 224 231
0.486871 -0.449723 -0.591 72 117 185
0.489123 -0.449723 -0.591 69 116 186
0.491667 -0.448962 -0.59 160 184 222
0.49279 -0.448962 -0.59 148 172 210
0.496162 -0.448962 -0.59 195 201 225
0.515014 -0.449723 -0.591 182 181 195
0.514046 -0.429177 -0.564 151 122 114
0.500189 -0.412436 -0.542 153 123 115
0.489628 -0.397978 -0.523 168 132 118
0.486097 -0.39113 -0.514 173 132 110
0.486229 -0.386564 -0.508 180 138 114
0.486237 -0.385803 -0.507 182 140 116
0.48815 -0.382759 -0.503 183 142 114
0.488117 -0.381237 -0.501 185 140 109
0.492822 -0.379715 -0.499 187 144 112
0.493687 -0.378193 -0.497 188 145 113
0.495528 -0.377432 -0.496 190 145 112
0.511211 -0.374389 -0.492 174 131 99
0.512149 -0.374389 -0.492 173 130 98
0.515068 -0.37515 -0.493 170 129 99
0.0228857 -0.407366 -0.534 195 151 122
0.0273429 -0.398211 -0.522 197 153 126
0.0348238 -0.392871 -0.515 206 162 133
0.0387476 -0.392871 -0.515 200 157 125
0.0435676 -0.392109 -0.514 201 158 126
0.0494419 -0.392109 -0.514 202 159 127
0.0752124 -0.398974 -0.523 186 136 111
0.09828 -0.41652 -0.546 129 100 102
0.117387 -0.433303 -0.568 106 90 90
0.12496 -0.433303 -0.568 169 168 182
0.451499 -0.447034 -0.586 214 221 229
0.458978 -0.447797 -0.587 222 221 227
0.462 -0.44856 -0.588 221 221 229
0.46536 -0.44856 -0.588 215 217 232
0.46648 -0.44856 -0.588 195 207 223
0.469517 -0.449323 -0.589 139 143 170
0.49841 -0.450086 -0.59 133 144 172
0.502905 -0.450086 -0.59 148 169 198
0.5074 -0.450086 -0.59 196 194 208
0.508524 -0.450086 -0.59 193 191 205
0.515014 -0.450849 -0.591 189 188 202
0.517514 -0.450086 -0.59 176 177 182
0.523133 -0.450086 -0.59 175 178 185
0.51479 -0.431777 -0.566 151 123 112
0.488748 -0.397449 -0.521 167 130 112
0.485261 -0.387531 -0.508 172 131 109
0.491871 -0.380666 -0.499 185 141 112
0.49274 -0.37914 -0.497 189 146 114
0.495471 -0.377614 -0.495 189 144 111
0.4983 -0.377614 -0.495 188 143 110
0.501921 -0.376089 -0.493 184 141 107
0.506431 -0.374563 -0.491 186 143 111
0.513086 -0.375326 -0.492 174 131 99
0.519876 -0.376851 -0.494 166 125 95
0.52387 -0.378377 -0.496 159 120 91
0.0200943 -0.413736 -0.541 192 155 126
0.0300352 -0.395382 -0.517 199 155 126
0.03102 -0.395382 -0.517 200 156 127
0.0348238 -0.393852 -0.515 204 161 129
0.0367143 -0.393088 -0.514 202 159 127
0.04446 -0.392323 -0.513 198 157 125
0.0464143 -0.392323 -0.513 199 156 124
0.0583667 -0.393852 -0.515 193 143 120
0.0593476 -0.393852 -0.515 191 141 118
0.0603286 -0.393852 -0.515 189 139 116
0.0796514 -0.402265 -0.526 181 129 107
0.0841362 -0.404559 -0.529 174 123 106
0.11718 -0.43362 -0.567 112 103 106
0.453731 -0.44815 -0.586 222 224 237
0.47432 -0.44968 -0.588 196 211 230
0.488295 -0.45121 -0.59 82 128 180
0.489711 -0.450445 -0.589 105 147 195
0.490833 -0.450445 -0.589 160 180 207
0.520003 -0.450445 -0.589 176 179 184
0.508097 -0.423678 -0.554 146 118 107
0.485247 -0.389264 -0.509 171 130 108
0.486242 -0.38697 -0.506 180 138 113
0.489071 -0.383146 -0.501 188 143 114
0.49274 -0.380087 -0.497 188 145 113
0.494529 -0.378557 -0.495 189 144 111
0.499175 -0.377792 -0.494 183 139 104
0.019099 -0.415533 -0.542 193 157 125
0.02002 -0.413233 -0.539 191 155 123
0.0244067 -0.400967 -0.523 201 155 131
0.0366429 -0.3933 -0.513 203 158 125
0.0443733 -0.392533 -0.512 200 157 125
0.0666 -0.397133 -0.518 187 137 112
0.0854657 -0.4071 -0.531 168 121 105
0.08664 -0.407867 -0.532 164 117 101
0.46984 -0.4508 -0.588 120 127 153
0.484102 -0.451567 -0.589 102 140 187
0.487468 -0.451567 -0.589 98 138 187
0.50093 -0.451567 -0.589 90 104 130
0.504296 -0.451567 -0.589 169 177 198
0.499473 -0.413233 -0.539 154 126 114
0.486129 -0.3933 -0.513 173 135 112
0.486233 -0.385633 -0.503 180 138 113
0.488117 -0.3841 -0.501 189 144 115
0.48902 -0.382567 -0.499 187 142 113
0.490886 -0.3818 -0.498 188 143 112
0.499104 -0.377967 -0.493 181 137 102
0.510067 -0.375667 -0.49 177 134 102
0.524815 -0.380267 -0.496 160 121 92
0.0208124 -0.409649 -0.533 198 154 125
0.0270286 -0.396583 -0.516 200 157 125
0.0562952 -0.395046 -0.514 189 142 114
0.0582533 -0.395046 -0.514 188 141 115
0.089 -0.410417 -0.534 153 111 95
0.09724 -0.41964 -0.546 126 101 94
0.11913 -0.435011 -0.566 123 127 138
0.465687 -0.451151 -0.587 151 162 182
0.473513 -0.451151 -0.587 203 209 221
0.5012 -0.45192 -0.588 75 92 122
0.50232 -0.45192 -0.588 71 88 118
0.50456 -0.45192 -0.588 177 187 214
0.507662 -0.452689 -0.589 191 191 203
0.52024 -0.45192 -0.588 175 179 188
0.508233 -0.42502 -0.553 147 121 106
0.486229 -0.390434 -0.508 176 134 109
0.485278 -0.388897 -0.506 179 137 112
0.485281 -0.388129 -0.505 180 138 113
0.491793 -0.38198 -0.497 190 145 114
0.498165 -0.378906 -0.493 184 140 105
0.501755 -0.377369 -0.491 187 142 109
0.507267 -0.3766 -0.49 186 141 110
0.5082 -0.3766 -0.49 181 138 106
0.0269762 -0.396795 -0.515 199 156 124
0.0404724 -0.394484 -0.512 204 159 130
0.0521752 -0.394484 -0.512 196 151 120
0.0561857 -0.395254 -0.513 188 143 112
0.0582533 -0.396025 -0.514 187 140 112
0.0654867 -0.398336 -0.517 187 137 112
0.0806533 -0.40527 -0.526 177 126 107
0.0891667 -0.412205 -0.535 152 110 94
0.453295 -0.449958 -0.584 210 218 237
0.457414 -0.450729 -0.585 221 223 238
0.461545 -0.451499 -0.586 214 213 227
0.467126 -0.451499 -0.586 141 149 172
0.482458 -0.45227 -0.587 127 153 190
0.502584 -0.45227 -0.587 90 99 128
0.50792 -0.45304 -0.588 184 187 204
0.51912 -0.45304 -0.588 173 176 191
0.494237 -0.407582 -0.529 158 126 111
0.48618 -0.393713 -0.511 173 133 108
0.48624 -0.38832 -0.504 184 140 113
0.498165 -0.379845 -0.493 186 142 107
0.50269 -0.378304 -0.491 186 141 108
0.5026 -0.377533 -0.49 187 142 109
0.503533 -0.377533 -0.49 187 142 109
0.508094 -0.376763 -0.489 179 134 103
0.515667 -0.377533 -0.49 172 128 99
0.0232314 -0.400866 -0.519 199 154 125
0.0365714 -0.395459 -0.512 201 158 124
0.0613095 -0.397776 -0.515 181 134 108
0.0841362 -0.40859 -0.529 166 118 98
0.140691 -0.437168 -0.566 209 216 232
0.503702 -0.453388 -0.587 137 145 168
0.51912 -0.45416 -0.588 159 166 185
0.518429 -0.440257 -0.57 149 122 113
0.505726 -0.423265 -0.548 146 121 114
0.503995 -0.420948 -0.545 147 122 115
0.4862 -0.393914 -0.51 173 131 107
0.486233 -0.388508 -0.503 184 140 113
0.488095 -0.38619 -0.5 186 141 110
0.494529 -0.382329 -0.495 188 143 110
0.495411 -0.381556 -0.494 188 144 109
0.5026 -0.378467 -0.49 187 142 109
0.5053 -0.377694 -0.489 184 139 108
0.525643 -0.382329 -0.495 159 119 93
0.0259952 -0.398757 -0.515 200 157 125
0.0288257 -0.397209 -0.513 203 160 128
0.034621 -0.396434 -0.512 203 160 128
0.0365 -0.39566 -0.511 201 158 124
0.0643771 -0.399531 -0.516 182 135 109
0.0718095 -0.402629 -0.52 182 134 111
0.0739324 -0.403403 -0.521 184 137 111
0.0806533 -0.407274 -0.526 175 125 102
0.0854657 -0.411146 -0.531 158 114 101
0.0946371 -0.420437 -0.543 137 104 97
0.114614 -0.437471 -0.565 81 76 96
0.117843 -0.437471 -0.565 113 129 145
0.4719 -0.452957 -0.585 211 218 226
0.483869 -0.453731 -0.586 150 176 209
0.499495 -0.453731 -0.586 194 198 210
0.509292 -0.454506 -0.587 186 188 200
0.511529 -0.454506 -0.587 186 184 197
0.512647 -0.454506 -0.587 184 182 195
0.514883 -0.454506 -0.587 133 139 153
0.520473 -0.454506 -0.587 174 170 184
0.509287 -0.42818 -0.553 138 120 108
0.494309 -0.408823 -0.528 155 125 114
0.488934 -0.400306 -0.517 169 131 110
0.486229 -0.393337 -0.508 175 133 109
0.498014 -0.380174 -0.491 186 141 108
0.50269 -0.380174 -0.491 188 143 110
0.506231 -0.378626 -0.489 185 139 106
0.511703 -0.377851 -0.488 176 131 98
0.630307 -0.44444 -0.574 205 201 192
0.0158838 -0.41759 -0.538 191 152 123
0.0287695 -0.39741 -0.512 204 161 129
0.0412857 -0.395857 -0.51 199 156 124
0.04818 -0.396633 -0.511 194 149 120
0.0706829 -0.402843 -0.519 184 134 111
0.0718095 -0.403619 -0.52 182 134 111
0.0750686 -0.405171 -0.522 182 135 109
0.0819657 -0.409829 -0.528 170 122 100
0.0831286 -0.410605 -0.529 165 120 101
0.0881476 -0.415262 -0.535 147 110 101
0.119783 -0.437771 -0.564 48 66 112
0.123006 -0.437771 -0.564 129 149 199
0.474939 -0.454848 -0.586 217 218 222
0.477171 -0.454848 -0.586 139 150 168
0.479404 -0.454848 -0.586 118 150 189
0.481636 -0.454848 -0.586 146 174 211
0.488333 -0.454848 -0.586 104 142 178
0.49503 -0.454848 -0.586 201 199 213
0.500611 -0.454848 -0.586 201 201 211
0.513449 -0.435443 -0.561 146 119 112
0.507571 -0.426905 -0.55 152 122 111
0.489937 -0.386543 -0.498 187 142 111
0.492693 -0.38499 -0.496 188 143 110
0.503533 -0.380333 -0.49 188 144 109
0.506126 -0.378781 -0.488 185 140 107
0.507055 -0.378781 -0.488 183 138 105
0.524458 -0.382662 -0.493 158 122 90
0.026819 -0.398385 -0.512 205 160 129
0.0296867 -0.397607 -0.511 206 161 128
0.0315714 -0.396829 -0.51 204 159 126
0.0344857 -0.396829 -0.51 205 160 127
0.0571629 -0.399163 -0.513 188 138 113
0.0685733 -0.403053 -0.518 184 137 111
0.0808067 -0.410056 -0.527 169 124 101
0.0819657 -0.410834 -0.528 166 121 98
0.0842952 -0.41239 -0.53 157 116 98
0.0895 -0.417837 -0.537 139 106 97
0.115486 -0.438846 -0.564 88 91 108
0.467756 -0.454408 -0.584 211 217 217
0.473014 -0.455186 -0.585 206 214 217
0.475243 -0.455186 -0.585 172 186 197
0.489729 -0.455186 -0.585 93 128 160
0.493071 -0.455186 -0.585 197 206 215
0.507309 -0.455964 -0.586 121 137 163
0.520703 -0.455964 -0.586 162 170 191
0.507445 -0.42873 -0.551 150 120 109
0.504107 -0.423284 -0.544 152 122 111
0.487131 -0.398385 -0.512 171 133 110
0.486229 -0.395272 -0.508 174 134 109
0.488989 -0.387491 -0.498 189 144 113
0.4899 -0.386713 -0.497 187 142 111
0.490804 -0.385935 -0.496 187 142 111
0.501667 -0.381267 -0.49 187 142 109
0.504369 -0.380489 -0.489 185 142 107
0.510531 -0.378154 -0.486 176 133 99
0.513437 -0.378932 -0.487 172 129 95
0.531553 -0.386713 -0.497 156 120 88
0.0211314 -0.40248 -0.516 197 153 124
0.02394 -0.40014 -0.513 200 156 127
0.0257933 -0.39858 -0.511 206 161 130
0.0315714 -0.3978 -0.51 203 158 125
0.0344857 -0.3978 -0.51 205 160 127
0.0490571 -0.3978 -0.51 195 148 120
0.051 -0.3978 -0.51 193 146 118
0.0530467 -0.39858 -0.511 193 143 116
0.068441 -0.40326 -0.517 183 136 110
0.06956 -0.40404 -0.518 181 133 110
0.0718095 -0.4056 -0.52 180 132 109
0.0895 -0.41886 -0.537 137 107 99
0.113337 -0.43992 -0.564 82 87 107
0.45318 -0.45318 -0.581 190 202 216
0.455069 -0.45396 -0.582 158 176 198
0.457286 -0.45396 -0.582 110 133 164
0.506443 -0.4563 -0.585 77 98 129
0.5109 -0.4563 -0.585 170 181 211
0.505726 -0.42744 -0.548 150 122 110
0.496181 -0.4134 -0.53 156 128 117
0.487131 -0.39936 -0.512 175 134 112
0.485275 -0.39234 -0.503 181 139 114
0.486169 -0.38922 -0.499 183 139 110
0.494409 -0.38454 -0.493 187 142 109
0.5026 -0.3822 -0.49 187 144 109
0.505196 -0.38064 -0.488 185 141 106
0.512383 -0.37908 -0.486 172 129 95
0.51728 -0.38064 -0.488 165 124 92
0.0382962 -0.39799 -0.509 202 155 125
0.0411238 -0.397208 -0.508 193 146 116
0.0479914 -0.39799 -0.509 193 146 118
0.0530467 -0.399553 -0.511 193 143 118
0.0560762 -0.400335 -0.512 192 140 116
0.05814 -0.401117 -0.513 190 140 115
0.0718095 -0.40659 -0.52 178 130 107
0.0739324 -0.407372 -0.521 178 132 108
0.0773524 -0.409718 -0.524 175 129 105
0.0832857 -0.41441 -0.53 159 117 101
0.0895 -0.419883 -0.537 138 108 100
0.455393 -0.454287 -0.581 137 158 185
0.472206 -0.456632 -0.584 210 215 219
0.490004 -0.456632 -0.584 114 149 187
0.493341 -0.456632 -0.584 199 202 207
0.500015 -0.456632 -0.584 193 196 201
0.503352 -0.456632 -0.584 139 145 159
0.510027 -0.456632 -0.584 151 166 197
0.508366 -0.431611 -0.552 148 121 110
0.49444 -0.411282 -0.526 158 128 117
0.489919 -0.404245 -0.517 170 132 113
0.487171 -0.398771 -0.51 175 133 109
0.486229 -0.397208 -0.508 176 134 110
0.48528 -0.39408 -0.504 180 138 113
0.486209 -0.391734 -0.501 185 141 114
0.496217 -0.384697 -0.492 188 143 110
0.0118067 -0.422473 -0.539 195 145 120
0.0200705 -0.402878 -0.514 200 151 121
0.0219429 -0.40131 -0.512 198 153 122
0.0344181 -0.398959 -0.509 203 156 126
0.038221 -0.398175 -0.508 201 154 124
0.043059 -0.398175 -0.508 197 150 122
0.0610714 -0.402094 -0.513 186 136 111
0.0621695 -0.402878 -0.514 186 136 111
0.0773524 -0.410716 -0.524 174 128 105
0.0893333 -0.420122 -0.536 141 108 101
0.110794 -0.440501 -0.562 78 83 105
0.117217 -0.440501 -0.562 106 117 137
0.4524 -0.45461 -0.58 199 211 225
0.458713 -0.455393 -0.581 76 107 151
0.466154 -0.456177 -0.582 190 191 193
0.48333 -0.457745 -0.584 148 175 205
0.489165 -0.456961 -0.583 129 164 204
0.491386 -0.456961 -0.583 159 169 178
0.496938 -0.456961 -0.583 200 200 212
0.505577 -0.457745 -0.584 62 90 127
0.50669 -0.457745 -0.584 62 89 134
0.512251 -0.457745 -0.584 132 147 168
0.515434 -0.440501 -0.562 150 122 111
0.50318 -0.425609 -0.543 147 123 113
0.49444 -0.412284 -0.526 155 127 116
0.491725 -0.408365 -0.521 161 129 114
0.489919 -0.40523 -0.517 168 131 113
0.486143 -0.390337 -0.498 186 142 113
0.490757 -0.387986 -0.495 188 143 112
0.496917 -0.383283 -0.489 187 142 111
0.503126 -0.380931 -0.486 186 141 108
0.63468 -0.449907 -0.574 203 203 193
0.0238 -0.400714 -0.51 203 159 124
0.028601 -0.399929 -0.509 205 158 128
0.0324152 -0.399143 -0.508 201 155 122
0.0440267 -0.399143 -0.508 193 146 118
0.0449943 -0.399143 -0.508 191 144 116
0.0580267 -0.402286 -0.512 192 142 117
0.0610714 -0.403071 -0.513 185 138 112
0.0642524 -0.404643 -0.515 188 138 113
0.0705467 -0.407 -0.518 181 133 110
0.0728 -0.408571 -0.52 182 132 109
0.0868029 -0.418786 -0.533 150 112 103
0.0906914 -0.422714 -0.538 137 104 97
0.0936029 -0.426643 -0.543 131 100 98
0.116147 -0.441571 -0.562 133 140 159
0.46314 -0.4565 -0.581 211 211 219
0.47695 -0.458071 -0.583 102 135 176
0.47806 -0.458071 -0.583 106 134 174
0.483612 -0.458071 -0.583 138 165 195
0.488054 -0.458071 -0.583 103 136 179
0.489165 -0.458071 -0.583 98 131 174
0.492496 -0.458071 -0.583 188 192 193
0.493607 -0.458071 -0.583 191 195 196
0.508043 -0.458071 -0.583 130 144 170
0.513595 -0.458071 -0.583 52 74 113
0.515434 -0.441571 -0.562 151 122 114
0.49899 -0.418786 -0.533 150 125 118
0.487171 -0.400714 -0.51 174 133 111
0.485275 -0.395214 -0.503 180 138 113
0.485238 -0.392857 -0.5 183 139 112
0.488914 -0.389714 -0.496 186 141 112
0.490757 -0.388929 -0.495 187 142 113
0.490707 -0.388143 -0.494 187 142 113
0.492589 -0.388143 -0.494 188 143 112
0.517011 -0.381857 -0.486 167 126 96
0.0144448 -0.411925 -0.523 194 147 117
0.0190543 -0.404049 -0.513 197 150 120
0.0391114 -0.399323 -0.507 197 153 118
0.0539143 -0.401686 -0.51 195 145 120
0.0590019 -0.403261 -0.512 189 142 116
0.0716714 -0.408774 -0.519 187 137 114
0.0818105 -0.415075 -0.527 160 114 99
0.0922276 -0.426102 -0.541 132 101 99
0.10846 -0.441854 -0.561 113 112 126
0.109529 -0.441854 -0.561 111 110 124
0.455714 -0.456819 -0.58 178 197 214
0.491651 -0.458394 -0.582 188 194 194
0.50027 -0.459182 -0.583 200 203 212
0.50138 -0.459182 -0.583 191 193 208
0.50249 -0.459182 -0.583 136 138 153
0.504711 -0.459182 -0.583 83 108 139
0.487171 -0.401686 -0.51 174 133 111
0.485275 -0.396172 -0.503 179 137 112
0.486169 -0.393022 -0.499 190 146 119
0.494273 -0.386721 -0.491 186 141 110
0.495133 -0.385933 -0.49 185 140 109
0.501274 -0.382783 -0.486 186 143 111
0.503938 -0.381995 -0.485 184 141 107
0.504862 -0.381995 -0.485 183 140 108
0.530092 -0.388296 -0.493 162 122 96
0.0180771 -0.405026 -0.513 196 147 117
0.0381457 -0.400289 -0.507 198 153 120
0.0508 -0.401078 -0.508 192 145 117
0.05694 -0.403447 -0.511 192 145 117
0.0599771 -0.404236 -0.512 191 141 116
0.0785 -0.4145 -0.525 165 118 98
0.0844543 -0.419237 -0.531 149 112 103
0.10846 -0.442923 -0.561 119 117 130
0.114871 -0.442923 -0.561 156 154 168
0.46646 -0.458713 -0.581 206 210 219
0.467567 -0.458713 -0.581 206 214 225
0.470589 -0.459503 -0.582 207 216 223
0.476131 -0.459503 -0.582 114 143 175
0.47724 -0.459503 -0.582 125 149 185
0.50052 -0.459503 -0.582 186 186 210
0.502737 -0.459503 -0.582 102 123 150
0.510264 -0.460292 -0.583 168 185 201
0.51205 -0.438975 -0.556 150 122 111
0.489954 -0.407394 -0.516 166 129 110
0.488107 -0.404236 -0.512 170 132 109
0.486242 -0.399499 -0.506 173 132 110
0.486223 -0.396341 -0.502 183 139 112
0.489859 -0.391604 -0.496 189 144 115
0.495901 -0.385288 -0.488 185 142 108
0.504743 -0.38213 -0.484 182 137 106
0.03042 -0.401254 -0.507 206 157 127
0.0508 -0.402046 -0.508 189 142 112
0.05694 -0.40442 -0.511 191 144 116
0.0579133 -0.40442 -0.511 192 145 117
0.0588867 -0.40442 -0.511 194 144 117
0.0641276 -0.406794 -0.514 190 143 117
0.0808067 -0.417083 -0.527 159 114 95
0.0831286 -0.418666 -0.529 151 111 99
0.0869657 -0.422623 -0.534 142 109 104
0.109333 -0.4432 -0.56 130 125 132
0.118933 -0.4432 -0.56 125 128 133
0.458237 -0.458237 -0.579 218 220 233
0.460133 -0.459029 -0.58 185 192 202
0.464552 -0.459029 -0.58 207 211 222
0.467867 -0.459029 -0.58 204 214 226
0.479457 -0.460611 -0.582 145 176 204
0.495233 -0.45982 -0.581 183 184 189
0.49966 -0.45982 -0.581 175 175 203
0.51034 -0.43766 -0.553 145 120 113
0.486113 -0.39334 -0.497 188 143 112
0.48608 -0.392549 -0.496 188 142 109
0.489766 -0.390966 -0.494 189 144 115
0.495133 -0.3878 -0.49 186 141 110
0.498497 -0.384634 -0.486 189 144 113
0.499319 -0.383843 -0.485 189 144 113
0.503821 -0.383051 -0.484 182 137 106
0.0115 -0.4165 -0.525 193 146 118
0.0160914 -0.406187 -0.512 194 147 117
0.0179714 -0.4046 -0.51 197 148 118
0.0428895 -0.401427 -0.506 194 150 115
0.0458714 -0.40222 -0.507 187 142 109
0.0468371 -0.40222 -0.507 188 143 110
0.0478029 -0.40222 -0.507 190 145 112
0.0497343 -0.40222 -0.507 185 140 107
0.0508 -0.403013 -0.508 185 140 107
0.0630257 -0.40698 -0.513 190 143 115
0.0662143 -0.408567 -0.515 184 138 112
0.118933 -0.444267 -0.56 155 156 161
0.1232 -0.444267 -0.56 192 186 186
0.45934 -0.45934 -0.579 184 187 194
0.481953 -0.460927 -0.581 141 166 207
0.511263 -0.439507 -0.554 145 121 111
0.495442 -0.417293 -0.526 154 125 111
0.490867 -0.410947 -0.518 157 128 112
0.486223 -0.398253 -0.502 181 137 110
0.488871 -0.3927 -0.495 187 141 115
0.489814 -0.3927 -0.495 188 142 116
0.491531 -0.39032 -0.492 187 142 113
0.495901 -0.387147 -0.488 186 141 112
0.498395 -0.384767 -0.485 188 143 114
0.500133 -0.383973 -0.484 190 145 114
0.50094 -0.38318 -0.483 186 141 110
0.524716 -0.387147 -0.488 168 125 93
0.63021 -0.450613 -0.568 205 202 193
0.00962667 -0.423067 -0.532 191 151 115
0.0198362 -0.403981 -0.508 197 148 116
0.03036 -0.40239 -0.506 201 155 122
0.0418429 -0.401595 -0.505 191 145 111
0.0428895 -0.40239 -0.506 193 149 114
0.0487686 -0.403186 -0.507 191 147 112
0.0497343 -0.403186 -0.507 187 143 108
0.0527352 -0.403981 -0.508 192 147 114
0.0538086 -0.404776 -0.509 192 147 114
0.0715333 -0.411933 -0.518 179 133 109
0.07266 -0.412729 -0.519 173 127 103
0.0772048 -0.41591 -0.523 169 122 106
0.115527 -0.444538 -0.559 169 166 175
0.117656 -0.444538 -0.559 156 156 164
0.484438 -0.461238 -0.58 129 164 196
0.487752 -0.461238 -0.58 158 176 198
0.49659 -0.461238 -0.58 128 134 150
0.497695 -0.461238 -0.58 83 89 105
0.505193 -0.462033 -0.581 186 195 204
0.517367 -0.462033 -0.581 171 175 184
0.48624 -0.4008 -0.504 177 137 112
0.486209 -0.398414 -0.501 180 138 113
0.487025 -0.394438 -0.496 189 142 114
0.487884 -0.392848 -0.494 187 141 115
0.492403 -0.390462 -0.491 186 141 112
0.493267 -0.389667 -0.49 184 139 108
0.495812 -0.387281 -0.487 186 141 112
