ply
format ascii 1.0
comment Created by Open3D
element vertex 1288
property double x
property double y
property double z
property uchar red
property uchar green
property uchar blue
end_header
0.478411 -0.380949 -0.492 158 129 115
0.471245 -0.370883 -0.479 163 130 113
0.46596 -0.35772 -0.462 173 135 112
0.46998 -0.34146 -0.441 181 136 103
0.48043 -0.337589 -0.436 180 135 96
0.484013 -0.33604 -0.434 172 124 86
0.489496 -0.335266 -0.433 172 122 85
0.490321 -0.335266 -0.433 172 122 85
0.507006 -0.337589 -0.436 144 105 72
0.509001 -0.338363 -0.437 143 107 73
0.509833 -0.338363 -0.437 144 108 74
0.5187 -0.34146 -0.441 136 103 70
0.529163 -0.346106 -0.447 133 100 65
0.0745 -0.4075 -0.525 184 130 106
0.0846133 -0.412933 -0.532 175 125 100
0.09828 -0.4238 -0.546 144 104 94
0.1178 -0.442429 -0.57 91 94 101
0.128431 -0.441652 -0.569 153 159 181
0.134934 -0.441652 -0.569 147 159 185
0.465152 -0.448638 -0.578 208 215 221
0.493529 -0.449414 -0.579 206 207 212
0.514267 -0.45019 -0.58 153 175 199
0.4872 -0.3912 -0.504 159 129 118
0.468757 -0.365586 -0.471 164 131 112
0.465989 -0.353943 -0.456 179 139 113
0.466033 -0.350062 -0.451 179 137 112
0.481261 -0.338419 -0.436 178 133 94
0.481814 -0.337643 -0.435 179 133 97
0.49972 -0.336867 -0.434 162 114 78
0.5022 -0.336867 -0.434 152 109 75
0.527979 -0.346181 -0.446 134 101 66
0.0231 -0.419393 -0.539 195 154 122
0.0239476 -0.416281 -0.535 194 153 121
0.0331171 -0.403831 -0.519 202 159 125
0.0467762 -0.402275 -0.517 199 157 119
0.0537733 -0.403053 -0.518 196 152 117
0.05476 -0.403053 -0.518 194 150 115
0.0609143 -0.40461 -0.52 189 140 110
0.0681086 -0.406166 -0.522 185 133 109
0.0766457 -0.409278 -0.526 184 132 108
0.0906914 -0.418615 -0.538 160 111 97
0.124096 -0.442736 -0.569 106 117 139
0.475061 -0.449739 -0.578 135 167 205
0.476162 -0.449739 -0.578 143 177 205
0.480566 -0.449739 -0.578 146 178 201
0.483869 -0.449739 -0.578 122 146 184
0.48497 -0.449739 -0.578 135 159 197
0.48607 -0.449739 -0.578 169 188 205
0.510071 -0.450517 -0.579 109 131 155
0.51411 -0.416281 -0.535 152 125 114
0.4672 -0.348587 -0.448 181 140 112
0.468736 -0.344696 -0.443 183 139 110
0.470954 -0.340806 -0.438 182 138 103
0.474873 -0.340028 -0.437 178 134 97
0.48043 -0.33925 -0.436 179 133 97
0.485667 -0.337693 -0.434 172 127 88
0.489496 -0.336915 -0.433 170 122 84
0.496919 -0.336915 -0.433 165 117 79
0.503027 -0.337693 -0.434 151 108 74
0.510666 -0.340028 -0.437 143 104 71
0.51954 -0.34314 -0.441 137 102 70
0.5312 -0.348587 -0.448 133 99 64
0.0526848 -0.40326 -0.517 196 152 117
0.11651 -0.44382 -0.569 68 68 80
0.128206 -0.44304 -0.568 115 126 156
0.132533 -0.44304 -0.568 98 121 163
0.149844 -0.44304 -0.568 130 161 189
0.465557 -0.35802 -0.459 171 133 110
0.46914 -0.34398 -0.441 183 140 106
0.480986 -0.3393 -0.435 180 134 98
0.481814 -0.3393 -0.435 181 135 99
0.487022 -0.33774 -0.433 173 125 87
0.511498 -0.34086 -0.437 143 104 73
0.0210857 -0.422229 -0.54 195 155 120
0.0359438 -0.404245 -0.517 203 157 123
0.0398057 -0.403463 -0.516 203 157 121
0.0417714 -0.403463 -0.516 204 158 124
0.0689705 -0.407372 -0.521 184 134 109
0.0722238 -0.408936 -0.523 185 135 112
0.0766457 -0.411282 -0.526 185 135 112
0.0811133 -0.413628 -0.529 177 130 104
0.09724 -0.42692 -0.546 138 101 92
0.11286 -0.44334 -0.567 39 30 35
0.116305 -0.444122 -0.568 64 64 74
0.1431 -0.44334 -0.567 213 216 225
0.466546 -0.451159 -0.577 216 215 229
0.469843 -0.451159 -0.577 193 199 215
0.481932 -0.451159 -0.577 136 165 199
0.48413 -0.451159 -0.577 136 161 191
0.478374 -0.383915 -0.491 159 130 116
0.469937 -0.370623 -0.474 167 132 113
0.46766 -0.366713 -0.469 166 131 111
0.46481 -0.354985 -0.454 174 138 112
0.465857 -0.351857 -0.45 174 137 110
0.467462 -0.347948 -0.445 178 137 109
0.468736 -0.346384 -0.443 179 138 108
0.471789 -0.342474 -0.438 181 138 103
0.480707 -0.339347 -0.434 179 133 97
0.499393 -0.338565 -0.433 158 112 78
0.501043 -0.338565 -0.433 155 112 77
0.506671 -0.340129 -0.435 144 108 74
0.0388229 -0.404446 -0.516 202 156 122
0.0617857 -0.406797 -0.519 186 136 109
0.118469 -0.445204 -0.568 82 88 104
0.120632 -0.445204 -0.568 51 63 85
0.13554 -0.44442 -0.567 196 201 207
0.45696 -0.451474 -0.576 185 187 199
0.461349 -0.451474 -0.576 179 189 201
0.463543 -0.451474 -0.576 205 213 226
0.465737 -0.451474 -0.576 211 213 225
0.471223 -0.451474 -0.576 158 174 197
0.503913 -0.452258 -0.577 199 201 213
0.476381 -0.382499 -0.488 158 129 115
0.471171 -0.374661 -0.478 164 131 114
0.468757 -0.369174 -0.471 168 133 114
0.46512 -0.357417 -0.456 170 136 111
0.464967 -0.356633 -0.455 172 136 112
0.465674 -0.35585 -0.454 173 137 111
0.465511 -0.355066 -0.453 172 136 110
0.467663 -0.349579 -0.446 178 137 109
0.470711 -0.342525 -0.437 181 138 104
0.479053 -0.340173 -0.434 178 132 98
0.47988 -0.340173 -0.434 178 132 98
0.485074 -0.338606 -0.432 174 126 90
0.485897 -0.338606 -0.432 174 126 90
0.492161 -0.337822 -0.431 168 120 80
0.0208514 -0.419571 -0.534 197 152 121
0.0226286 -0.414857 -0.528 195 155 120
0.0426714 -0.404643 -0.515 202 158 123
0.0689705 -0.409357 -0.521 183 131 109
0.0712276 -0.410929 -0.523 184 132 110
0.0722238 -0.410929 -0.523 184 132 110
0.0856267 -0.418 -0.532 169 123 100
0.116305 -0.446286 -0.568 94 94 106
0.1215 -0.4455 -0.567 65 76 98
0.127754 -0.444714 -0.566 131 143 169
0.137457 -0.444714 -0.566 208 208 216
0.483291 -0.452571 -0.576 147 173 198
0.527476 -0.432143 -0.55 151 124 113
0.470107 -0.374 -0.476 163 130 113
0.468757 -0.370071 -0.471 169 134 115
0.465493 -0.352 -0.448 175 136 107
0.465964 -0.350429 -0.446 176 137 106
0.46852 -0.347286 -0.442 181 140 108
0.474357 -0.341786 -0.435 178 134 99
0.488877 -0.338643 -0.431 171 123 87
0.499063 -0.339429 -0.432 162 114 78
0.517184 -0.344929 -0.439 136 100 66
0.524428 -0.348071 -0.443 131 97 62
0.0189933 -0.424527 -0.539 197 154 122
0.03096 -0.406411 -0.516 207 161 127
0.0456143 -0.405624 -0.515 197 152 119
0.0485571 -0.405624 -0.515 197 151 117
0.0495381 -0.405624 -0.515 195 149 116
0.0879829 -0.420589 -0.534 158 113 94
0.112661 -0.445792 -0.566 60 57 64
0.130989 -0.445792 -0.566 103 121 145
0.135062 -0.445005 -0.565 195 202 212
0.472595 -0.452881 -0.575 132 156 184
0.499749 -0.453669 -0.576 200 203 212
0.465674 -0.357579 -0.454 172 135 108
0.465857 -0.354429 -0.45 175 134 104
0.471295 -0.343402 -0.436 179 136 102
0.475747 -0.341827 -0.434 178 134 99
0.505507 -0.341827 -0.434 149 106 72
0.510328 -0.343402 -0.436 148 105 73
0.51802 -0.345765 -0.439 135 102 69
0.0436524 -0.406605 -0.515 201 155 121
0.0576086 -0.408184 -0.517 192 140 116
0.0647514 -0.409763 -0.519 187 137 112
0.0689705 -0.411342 -0.521 183 133 108
0.0844543 -0.419237 -0.531 168 123 100
0.114817 -0.44687 -0.566 101 100 105
0.115895 -0.44687 -0.566 109 111 124
0.118051 -0.44687 -0.566 99 106 124
0.130757 -0.446081 -0.565 150 166 182
0.13291 -0.446081 -0.565 161 172 194
0.136138 -0.446081 -0.565 198 204 216
0.143671 -0.446081 -0.565 214 216 229
0.462738 -0.453976 -0.575 126 142 175
0.472595 -0.453976 -0.575 136 160 188
0.4959 -0.405026 -0.513 152 125 114
0.477357 -0.386077 -0.489 160 128 115
0.47432 -0.38213 -0.484 159 130 114
0.472229 -0.378971 -0.48 162 129 112
0.467093 -0.366339 -0.464 172 134 111
0.46481 -0.358444 -0.454 175 136 107
0.466813 -0.352128 -0.446 176 135 105
0.472126 -0.344232 -0.436 180 136 101
0.475186 -0.343443 -0.435 180 134 98
0.475747 -0.342653 -0.434 179 133 99
0.481783 -0.341074 -0.432 174 126 88
0.488562 -0.339495 -0.43 169 124 85
0.496266 -0.340285 -0.431 158 114 79
0.0455257 -0.406794 -0.514 198 152 118
0.0615476 -0.409169 -0.517 188 138 111
0.0668571 -0.411543 -0.52 185 135 110
0.0689705 -0.412334 -0.521 184 134 109
0.0920571 -0.427371 -0.54 147 105 93
0.471773 -0.45428 -0.574 146 170 194
0.480323 -0.390174 -0.493 155 127 116
0.467554 -0.370389 -0.468 168 133 111
0.464399 -0.361683 -0.457 172 135 109
0.46512 -0.360891 -0.456 172 135 109
0.466157 -0.353769 -0.447 177 136 108
0.466411 -0.351394 -0.444 176 135 105
0.467049 -0.350603 -0.443 177 136 106
0.47012 -0.346646 -0.438 177 134 100
0.502354 -0.341897 -0.432 151 111 76
0.507987 -0.34348 -0.434 150 105 76
0.0204219 -0.414913 -0.523 191 148 116
0.0357352 -0.407773 -0.514 200 156 121
0.0435676 -0.407773 -0.514 200 154 120
0.0554238 -0.408567 -0.515 193 143 116
0.0574971 -0.40936 -0.516 190 139 112
0.05848 -0.40936 -0.516 191 140 113
0.0625324 -0.410153 -0.517 190 139 112
0.0710914 -0.41412 -0.522 183 133 108
0.07308 -0.41412 -0.522 181 131 106
0.112661 -0.449027 -0.566 104 100 101
0.11569 -0.448233 -0.565 117 122 128
0.14664 -0.44744 -0.564 158 170 192
0.469587 -0.455373 -0.574 179 191 205
0.48052 -0.455373 -0.574 126 164 203
0.49231 -0.456167 -0.575 140 152 176
0.465557 -0.36414 -0.459 170 133 107
0.464649 -0.35938 -0.453 174 134 108
0.464315 -0.357793 -0.451 174 134 108
0.466347 -0.355413 -0.448 176 135 107
0.4763 -0.343513 -0.433 179 133 97
0.477669 -0.34272 -0.432 178 130 90
0.48906 -0.34034 -0.429 168 123 82
0.505991 -0.343513 -0.433 150 107 73
0.517674 -0.34748 -0.438 137 101 67
0.520876 -0.349067 -0.44 136 100 66
0.0279029 -0.408752 -0.514 203 157 123
0.029861 -0.408752 -0.514 207 161 127
0.03084 -0.408752 -0.514 207 161 127
0.0327981 -0.408752 -0.514 206 160 126
0.0366429 -0.407957 -0.513 201 155 121
0.0464143 -0.407957 -0.513 193 147 114
0.0474838 -0.408752 -0.514 195 146 114
0.0574971 -0.410343 -0.516 191 140 111
0.0742162 -0.41591 -0.523 179 129 104
0.0786495 -0.418295 -0.526 178 128 103
0.0936029 -0.431814 -0.543 137 100 92
0.116767 -0.44931 -0.565 132 133 137
0.130294 -0.447719 -0.563 193 197 206
0.134584 -0.447719 -0.563 110 119 150
0.452397 -0.455671 -0.573 204 204 204
0.457854 -0.455671 -0.573 214 214 224
0.466586 -0.455671 -0.573 195 211 237
0.495827 -0.456467 -0.574 163 168 171
0.4753 -0.38569 -0.485 159 127 116
0.468853 -0.375352 -0.472 164 131 114
0.467762 -0.373762 -0.47 165 130 111
0.464649 -0.360243 -0.453 172 135 109
0.467892 -0.35229 -0.443 177 136 104
0.473529 -0.345929 -0.435 180 136 101
0.473267 -0.345133 -0.434 181 135 99
0.47492 -0.345133 -0.434 180 134 98
0.516492 -0.347519 -0.437 136 100 64
0.0185 -0.4185 -0.525 193 150 116
0.0317571 -0.408934 -0.513 206 157 124
0.0395743 -0.408934 -0.513 202 153 120
0.0645019 -0.412123 -0.517 188 137 110
0.0742162 -0.416906 -0.523 180 130 105
0.0798029 -0.420094 -0.527 174 127 101
0.0821209 -0.421689 -0.529 166 122 97
0.0883124 -0.427269 -0.536 147 109 96
0.12386 -0.448791 -0.563 163 161 164
0.138873 -0.448791 -0.563 198 204 220
0.470951 -0.456763 -0.573 129 158 200
0.481866 -0.456763 -0.573 134 161 204
0.493871 -0.456763 -0.573 201 205 208
0.512289 -0.423283 -0.531 153 123 112
0.467445 -0.372266 -0.467 165 130 111
0.465493 -0.35712 -0.448 175 134 106
0.465114 -0.355526 -0.446 176 135 107
0.47465 -0.345163 -0.433 179 133 97
0.477125 -0.345163 -0.433 179 134 95
0.477669 -0.344366 -0.432 178 133 91
0.501191 -0.343569 -0.431 152 109 75
0.507641 -0.345163 -0.433 146 105 73
0.52577 -0.352337 -0.442 136 102 75
0.014859 -0.429888 -0.538 189 146 114
0.0193143 -0.415505 -0.52 193 148 115
0.0250143 -0.41151 -0.515 203 151 112
0.0365714 -0.409112 -0.512 200 154 120
0.0394971 -0.409112 -0.512 201 153 117
0.0424229 -0.409112 -0.512 201 152 120
0.0454371 -0.409911 -0.513 195 146 116
0.0564048 -0.41151 -0.515 193 141 117
0.0573857 -0.41151 -0.515 194 143 116
0.0624114 -0.412309 -0.516 192 141 114
0.0645019 -0.413108 -0.517 189 138 111
0.0687057 -0.414706 -0.519 191 139 115
0.107583 -0.449065 -0.562 94 80 79
0.11957 -0.449864 -0.563 146 145 143
0.121715 -0.449864 -0.563 148 144 143
0.47628 -0.388337 -0.486 160 128 115
0.464967 -0.363567 -0.455 167 131 105
0.465767 -0.355576 -0.445 176 135 107
0.467257 -0.354777 -0.444 178 134 107
0.46746 -0.35238 -0.441 177 133 104
0.47465 -0.345988 -0.433 180 134 98
0.4763 -0.345988 -0.433 178 133 94
0.478491 -0.345189 -0.432 177 132 91
0.479847 -0.34439 -0.431 178 130 90
0.493963 -0.342791 -0.429 161 117 80
0.0221143 -0.413291 -0.516 195 150 119
0.0375467 -0.410088 -0.512 201 155 119
0.0522771 -0.410889 -0.513 192 140 116
0.0624114 -0.413291 -0.516 192 141 114
0.0654867 -0.414092 -0.517 191 140 113
0.0666 -0.414893 -0.518 191 140 113
0.0871286 -0.42851 -0.535 144 111 96
0.109919 -0.450936 -0.563 110 98 98
0.117426 -0.450936 -0.563 159 157 158
0.471219 -0.458145 -0.572 90 129 188
0.485383 -0.458145 -0.572 65 97 146
0.487562 -0.458145 -0.572 152 173 200
0.489741 -0.458145 -0.572 182 191 196
0.47426 -0.38686 -0.483 158 126 111
0.466329 -0.372443 -0.465 166 131 109
0.465306 -0.358026 -0.447 173 134 105
0.467257 -0.355623 -0.444 177 136 106
0.477669 -0.346011 -0.432 177 132 93
0.485474 -0.342808 -0.428 168 123 84
0.507291 -0.346011 -0.432 143 107 75
0.50929 -0.346812 -0.433 141 105 73
0.511293 -0.347613 -0.434 137 103 68
0.5133 -0.348414 -0.435 137 103 68
0.014721 -0.427923 -0.533 193 149 114
0.0239867 -0.412669 -0.514 197 149 113
0.0268714 -0.411866 -0.513 199 154 115
0.0404724 -0.411063 -0.512 199 153 119
0.0463238 -0.411063 -0.512 194 145 113
0.0572743 -0.412669 -0.514 194 142 118
0.0675867 -0.41588 -0.518 191 140 113
0.0846133 -0.42712 -0.532 150 113 94
0.0910286 -0.433543 -0.54 133 102 97
0.108653 -0.451206 -0.562 102 90 90
0.121283 -0.450403 -0.561 177 172 168
0.124489 -0.450403 -0.561 164 160 157
0.446771 -0.457629 -0.57 175 187 201
0.46387 -0.458431 -0.571 104 132 180
0.485383 -0.459234 -0.572 64 97 148
0.489741 -0.459234 -0.572 176 181 184
0.491061 -0.406246 -0.506 153 125 114
0.46766 -0.37654 -0.469 162 130 109
0.465557 -0.368511 -0.459 168 132 108
0.468685 -0.352454 -0.439 178 135 103
0.468451 -0.351651 -0.438 178 135 103
0.475475 -0.347637 -0.433 181 135 99
0.476846 -0.346834 -0.432 177 133 96
0.477669 -0.346834 -0.432 176 130 94
0.48334 -0.344426 -0.429 175 127 91
0.0278486 -0.412843 -0.513 205 157 121
0.04234 -0.411233 -0.511 198 149 117
0.0442867 -0.411233 -0.511 196 145 118
0.0521752 -0.412038 -0.512 190 140 113
0.0592324 -0.413648 -0.514 195 144 115
0.0763543 -0.421695 -0.524 177 127 102
0.0834429 -0.427329 -0.531 159 114 93
0.115076 -0.452276 -0.562 156 154 165
0.116147 -0.452276 -0.562 160 158 169
0.471483 -0.459519 -0.571 55 92 160
0.494323 -0.459519 -0.571 201 201 199
0.493002 -0.408819 -0.508 150 124 111
0.479267 -0.394333 -0.49 154 128 103
0.46621 -0.37341 -0.464 165 131 106
0.464967 -0.366167 -0.455 169 131 108
0.465994 -0.355705 -0.442 174 133 103
0.466836 -0.355705 -0.442 174 133 103
0.468076 -0.354095 -0.44 176 133 99
0.467849 -0.35329 -0.439 177 134 100
0.468451 -0.352486 -0.438 179 136 102
0.470711 -0.351681 -0.437 182 139 107
0.473826 -0.348462 -0.433 181 137 100
0.48678 -0.343633 -0.427 169 125 88
0.496072 -0.344438 -0.428 152 112 76
0.512947 -0.349267 -0.434 138 102 70
0.0238933 -0.413013 -0.512 197 147 112
0.0326067 -0.412207 -0.511 203 155 119
0.0355267 -0.412207 -0.511 202 154 118
0.09 -0.4356 -0.54 133 104 96
0.464143 -0.4598 -0.57 80 108 145
0.466314 -0.4598 -0.57 70 112 162
0.485194 -0.40172 -0.498 157 124 105
0.482238 -0.398493 -0.494 156 125 105
0.47726 -0.392847 -0.487 156 128 114
0.472082 -0.385587 -0.478 160 129 108
0.464967 -0.367033 -0.455 170 133 106
0.465566 -0.35816 -0.444 171 132 103
0.466205 -0.357353 -0.443 172 131 101
0.46746 -0.35574 -0.441 173 132 100
0.467238 -0.354933 -0.44 173 132 100
0.472176 -0.349287 -0.433 180 136 101
0.0181476 -0.416414 -0.515 196 146 113
0.0229181 -0.413989 -0.512 199 146 112
0.0258438 -0.413989 -0.512 204 152 115
0.0403143 -0.412371 -0.51 197 153 116
0.0654867 -0.418031 -0.517 188 138 111
0.0664714 -0.418031 -0.517 189 139 112
0.08096 -0.426926 -0.528 164 118 94
0.0834429 -0.429351 -0.531 159 114 91
0.0886419 -0.435011 -0.538 138 105 90
0.107391 -0.453609 -0.561 107 98 99
0.450323 -0.460077 -0.569 219 222 229
0.46658 -0.460077 -0.569 94 134 186
0.481514 -0.460886 -0.57 107 144 189
0.475242 -0.391349 -0.484 154 128 111
0.473143 -0.388114 -0.48 159 128 107
0.469937 -0.383263 -0.474 163 131 110
0.467093 -0.375177 -0.464 165 129 105
0.46464 -0.36224 -0.448 170 129 101
0.466205 -0.358197 -0.443 171 130 102
0.470465 -0.352537 -0.436 179 136 101
0.477384 -0.348494 -0.431 179 134 95
0.477095 -0.347686 -0.43 178 133 94
0.479254 -0.346877 -0.429 178 130 92
0.50976 -0.349303 -0.432 139 103 69
0.0181124 -0.416585 -0.514 195 144 113
0.0432286 -0.413343 -0.51 197 148 115
0.0611905 -0.416585 -0.514 192 143 113
0.0622905 -0.417395 -0.515 192 143 113
0.06536 -0.418206 -0.516 188 139 109
0.0765 -0.4255 -0.525 172 126 102
0.0822762 -0.429552 -0.53 158 116 94
0.109529 -0.454677 -0.561 122 117 121
0.112734 -0.454677 -0.561 139 137 151
0.451407 -0.461161 -0.569 219 222 227
0.479343 -0.461971 -0.57 113 149 199
0.483214 -0.401186 -0.495 155 127 105
0.465557 -0.372009 -0.459 167 131 105
0.480583 -0.346884 -0.428 178 130 92
0.483527 -0.346073 -0.427 173 125 87
0.49654 -0.346073 -0.427 152 109 74
0.499333 -0.346884 -0.428 148 108 72
0.504943 -0.348505 -0.43 144 105 72
0.505762 -0.348505 -0.43 143 104 71
0.510583 -0.350126 -0.432 138 102 70
0.0247714 -0.414314 -0.51 207 154 122
0.0480857 -0.414314 -0.51 193 144 112
0.0530467 -0.415127 -0.511 193 144 112
0.05814 -0.416751 -0.513 193 144 112
0.0753562 -0.425688 -0.524 172 127 104
0.0901667 -0.439498 -0.541 129 102 95
0.112533 -0.454933 -0.56 127 126 140
0.459269 -0.461432 -0.568 156 171 190
0.466842 -0.461432 -0.568 143 168 199
0.47525 -0.462245 -0.569 79 124 181
0.488256 -0.462245 -0.569 158 169 187
0.474196 -0.391568 -0.482 157 126 106
0.467331 -0.37857 -0.466 163 128 106
0.464315 -0.366384 -0.451 169 132 105
0.46662 -0.35826 -0.441 171 132 101
0.469286 -0.355823 -0.438 174 134 99
0.490976 -0.345262 -0.425 160 116 79
0.500149 -0.347699 -0.428 150 107 73
0.681497 -0.451684 -0.556 200 202 189
0.0124048 -0.424243 -0.521 191 144 114
0.0238 -0.415286 -0.51 204 154 121
0.0247714 -0.415286 -0.51 205 155 122
0.0479914 -0.414471 -0.509 195 146 114
0.0740743 -0.425057 -0.522 175 125 100
0.0849314 -0.434829 -0.534 143 106 90
0.121915 -0.455186 -0.559 151 149 160
0.131263 -0.454371 -0.558 207 210 219
0.44874 -0.4617 -0.567 220 221 225
0.488117 -0.407957 -0.501 152 125 106
0.464454 -0.363986 -0.447 167 130 101
0.464071 -0.362357 -0.445 167 130 101
0.467238 -0.358286 -0.44 171 132 99
0.482394 -0.346886 -0.426 173 127 91
0.488548 -0.346071 -0.425 166 121 82
0.517443 -0.354214 -0.435 134 99 71
0.00767143 -0.438294 -0.537 191 142 125
0.0114343 -0.426051 -0.522 188 143 112
0.0256924 -0.415441 -0.509 204 155 123
0.0276314 -0.415441 -0.509 201 155 119
0.051 -0.416257 -0.51 194 148 115
0.0529429 -0.416257 -0.51 191 147 112
0.0591171 -0.418706 -0.513 194 148 115
0.0632714 -0.420338 -0.515 188 142 109
0.0642524 -0.420338 -0.515 187 140 110
0.0740743 -0.426051 -0.522 170 123 97
0.0752124 -0.426868 -0.523 170 124 101
0.0776476 -0.429316 -0.526 166 121 98
0.0824314 -0.433397 -0.531 150 109 89
0.0849314 -0.435846 -0.534 143 106 90
0.104691 -0.455434 -0.558 101 91 89
0.107009 -0.45625 -0.559 118 112 112
0.108073 -0.45625 -0.559 119 116 123
0.116383 -0.455434 -0.558 116 117 135
0.120634 -0.455434 -0.558 145 143 154
0.123823 -0.455434 -0.558 180 179 187
0.125949 -0.455434 -0.558 199 198 204
0.45198 -0.46278 -0.567 216 219 226
0.494942 -0.415441 -0.509 149 122 105
0.47824 -0.398301 -0.488 154 128 111
0.463786 -0.369734 -0.453 166 132 105
0.464071 -0.363205 -0.445 167 130 103
0.477322 -0.34933 -0.428 179 131 93
0.480273 -0.348513 -0.427 178 130 92
0.484168 -0.346065 -0.424 169 121 81
0.48659 -0.346065 -0.424 166 121 82
0.488206 -0.346065 -0.424 164 120 81
0.518271 -0.355043 -0.435 132 97 67
0.0095181 -0.430318 -0.526 188 149 118
0.0113905 -0.42541 -0.52 190 143 113
0.0256924 -0.41641 -0.509 204 154 121
0.0276314 -0.41641 -0.509 203 155 119
0.032479 -0.41641 -0.509 199 150 117
0.0353876 -0.41641 -0.509 200 151 118
0.0373267 -0.41641 -0.509 200 151 118
0.0411238 -0.415592 -0.508 198 149 117
0.0559667 -0.418047 -0.511 193 149 114
0.0718095 -0.42541 -0.52 167 120 92
0.0765 -0.4295 -0.525 168 122 98
0.116383 -0.456497 -0.558 119 121 134
0.135271 -0.455679 -0.557 192 205 224
0.44148 -0.463042 -0.566 224 225 230
0.442558 -0.463042 -0.566 222 223 227
0.531584 -0.45077 -0.551 144 122 111
0.471013 -0.389413 -0.476 156 128 107
0.46596 -0.37796 -0.462 162 130 107
0.464967 -0.372233 -0.455 166 130 104
0.464919 -0.364052 -0.445 166 129 100
0.4664 -0.359962 -0.44 172 133 102
0.466176 -0.359144 -0.439 173 134 103
0.474921 -0.352599 -0.431 179 136 94
0.476276 -0.351781 -0.43 179 134 95
0.477833 -0.349327 -0.427 175 130 91
0.478647 -0.349327 -0.427 178 130 92
0.47946 -0.349327 -0.427 178 130 92
0.516253 -0.355053 -0.434 131 98 65
0.00561524 -0.43952 -0.536 189 148 118
0.00661143 -0.43788 -0.534 189 148 118
0.0169667 -0.41738 -0.509 201 155 122
0.0247229 -0.41738 -0.509 204 155 122
0.0314476 -0.41656 -0.508 198 149 116
0.0411238 -0.41656 -0.508 194 145 112
0.0509 -0.41738 -0.509 194 145 112
0.078799 -0.43214 -0.527 163 117 91
0.112991 -0.45674 -0.557 150 149 163
0.115113 -0.45674 -0.557 125 128 145
0.12254 -0.45674 -0.557 196 196 204
0.124662 -0.45674 -0.557 204 204 212
0.447949 -0.46412 -0.566 220 221 226
0.49842 -0.46494 -0.567 202 203 208
0.50058 -0.46494 -0.567 201 201 209
0.477206 -0.39852 -0.486 154 127 110
0.469847 -0.38786 -0.473 155 127 106
0.464315 -0.36982 -0.451 167 130 104
0.464143 -0.369 -0.45 167 130 104
0.464919 -0.3649 -0.445 168 128 102
0.471351 -0.35506 -0.433 181 137 100
0.476803 -0.35178 -0.429 178 133 92
0.481583 -0.34932 -0.426 174 126 86
0.495833 -0.3485 -0.425 154 110 71
0.502233 -0.35014 -0.427 143 105 69
0.507037 -0.35178 -0.429 135 102 71
0.0159971 -0.41835 -0.509 201 156 123
0.0188686 -0.417528 -0.508 200 154 121
0.0256419 -0.417528 -0.508 202 153 120
0.0401562 -0.417528 -0.508 193 144 111
0.0440267 -0.417528 -0.508 195 146 113
0.106626 -0.457801 -0.557 130 126 123
0.107687 -0.457801 -0.557 144 140 137
0.127615 -0.456979 -0.556 208 212 223
0.451462 -0.464376 -0.565 186 195 202
0.46412 -0.465198 -0.566 187 203 218
0.467554 -0.384651 -0.468 162 127 105
0.467214 -0.382186 -0.465 165 129 107
0.465511 -0.372323 -0.453 167 130 104
0.467973 -0.35835 -0.436 174 134 99
0.494667 -0.348488 -0.424 155 110 71
0.509038 -0.353419 -0.43 134 100 72
0.526743 -0.361638 -0.44 126 95 66
0.0246257 -0.417671 -0.507 202 153 120
0.03048 -0.418495 -0.508 199 150 117
0.0343505 -0.418495 -0.508 197 148 115
0.0559667 -0.420967 -0.511 195 150 117
0.0599771 -0.42179 -0.512 191 145 112
0.07294 -0.429205 -0.521 168 120 97
0.1221 -0.457214 -0.555 205 206 211
0.125271 -0.457214 -0.555 206 210 221
0.448233 -0.465452 -0.565 221 220 225
0.451462 -0.465452 -0.565 177 185 196
0.458995 -0.465452 -0.565 163 167 176
0.465452 -0.465452 -0.565 137 158 187
0.469757 -0.465452 -0.565 129 167 206
0.495385 -0.466276 -0.566 202 201 209
0.497541 -0.466276 -0.566 203 203 211
0.467554 -0.385543 -0.468 161 126 104
0.467445 -0.384719 -0.467 161 126 104
0.46512 -0.375657 -0.456 166 128 105
0.464649 -0.373186 -0.453 167 130 104
0.465306 -0.368243 -0.447 169 129 103
0.468877 -0.35671 -0.433 174 131 96
0.475986 -0.353414 -0.429 180 135 96
0.480937 -0.349295 -0.424 169 124 83
0.486249 -0.348471 -0.423 163 120 78
0.517907 -0.357533 -0.434 130 97 66
0.523151 -0.360005 -0.437 124 93 62
0.0323514 -0.418637 -0.507 200 151 118
0.0498324 -0.419463 -0.508 196 150 117
0.0789486 -0.435977 -0.528 156 111 88
0.0801057 -0.436803 -0.529 151 110 88
0.0812667 -0.437629 -0.53 149 108 86
0.104504 -0.459923 -0.557 122 121 119
0.11067 -0.459097 -0.556 162 158 157
0.484824 -0.466529 -0.565 208 212 215
0.4859 -0.466529 -0.565 203 207 218
0.469752 -0.389737 -0.472 164 129 109
0.468657 -0.388086 -0.47 163 128 108
0.465557 -0.379003 -0.459 165 127 104
0.465174 -0.372397 -0.451 164 127 101
0.464822 -0.370746 -0.449 166 126 100
0.4664 -0.363314 -0.44 173 132 102
0.465949 -0.361663 -0.438 174 133 101
0.468804 -0.360011 -0.436 178 135 101
0.469133 -0.35836 -0.434 176 133 99
0.480452 -0.350929 -0.425 170 125 84
0.480937 -0.350103 -0.424 170 125 86
0.496282 -0.350103 -0.424 153 109 72
0.0284324 -0.418775 -0.506 200 151 118
0.0558571 -0.422086 -0.51 193 148 117
0.0776476 -0.435328 -0.526 159 114 91
0.1073 -0.459329 -0.555 157 149 146
0.108357 -0.459329 -0.555 157 149 146
0.111529 -0.459329 -0.555 158 156 159
0.118714 -0.458501 -0.554 196 198 197
0.11977 -0.458501 -0.554 195 199 198
0.452811 -0.466777 -0.564 153 166 185
0.463554 -0.466777 -0.564 166 178 192
0.491281 -0.467605 -0.565 106 125 140
0.500967 -0.467605 -0.565 188 194 208
0.525867 -0.450225 -0.544 147 119 105
0.498834 -0.423741 -0.512 151 123 109
0.468553 -0.388153 -0.469 164 129 109
0.467093 -0.384015 -0.464 164 128 106
0.465566 -0.367463 -0.444 170 131 102
0.467382 -0.36167 -0.437 175 134 102
0.469133 -0.359187 -0.434 175 132 98
0.468877 -0.358359 -0.433 176 133 99
0.471637 -0.356704 -0.431 178 134 97
0.503491 -0.352566 -0.426 134 103 74
0.509489 -0.355049 -0.429 129 98 69
0.00924667 -0.423887 -0.511 195 151 122
0.014939 -0.419739 -0.506 200 155 122
0.0187571 -0.41891 -0.505 200 154 120
0.019719 -0.41891 -0.505 200 154 120
0.0284324 -0.419739 -0.506 201 152 119
0.040881 -0.41891 -0.505 197 148 116
0.0419257 -0.419739 -0.506 194 148 115
0.0428895 -0.419739 -0.506 193 147 114
0.0527352 -0.421398 -0.508 196 151 118
0.0590019 -0.424716 -0.512 194 148 115
0.070819 -0.431352 -0.52 173 125 102
0.0718095 -0.431352 -0.52 172 124 101
0.0753562 -0.43467 -0.524 164 119 98
0.0839143 -0.442966 -0.534 131 100 82
0.101139 -0.461215 -0.556 90 88 91
0.447719 -0.467022 -0.563 189 195 211
0.448791 -0.467022 -0.563 172 188 211
0.449864 -0.467022 -0.563 172 188 211
0.463554 -0.467851 -0.564 173 185 201
0.488263 -0.467851 -0.564 198 202 213
0.493433 -0.468681 -0.565 119 138 155
0.47917 -0.404808 -0.488 151 125 110
0.477148 -0.402319 -0.485 155 124 106
0.465695 -0.381581 -0.46 165 129 105
0.464484 -0.374945 -0.452 166 129 103
0.469995 -0.357525 -0.431 176 133 98
0.473534 -0.355866 -0.429 174 130 93
0.475903 -0.353377 -0.426 176 132 95
0.478514 -0.351718 -0.424 173 127 91
0.522785 -0.361672 -0.436 125 94 63
0.00152 -0.44232 -0.532 188 145 110
0.0293962 -0.420703 -0.506 201 152 119
0.0322876 -0.420703 -0.506 200 151 118
0.0674562 -0.429849 -0.517 177 131 105
0.0753562 -0.435669 -0.524 160 115 96
0.100957 -0.461443 -0.555 83 82 87
0.112383 -0.460611 -0.554 179 175 174
0.11977 -0.460611 -0.554 199 204 208
0.459515 -0.468094 -0.563 211 214 221
0.471311 -0.468094 -0.563 175 196 217
0.49256 -0.468926 -0.564 108 127 144
0.50008 -0.468926 -0.564 177 188 206
0.474057 -0.399086 -0.48 156 128 107
0.464649 -0.376637 -0.453 165 128 102
0.464143 -0.374143 -0.45 165 128 101
0.46472 -0.369154 -0.444 168 129 100
0.465361 -0.368323 -0.443 169 130 101
0.46655 -0.363334 -0.437 176 133 99
0.471362 -0.357514 -0.43 179 135 100
0.476405 -0.353357 -0.425 176 132 95
0.487959 -0.350031 -0.421 157 117 81
0.493941 -0.350863 -0.422 149 114 76
0.513133 -0.357514 -0.43 127 98 66
0.00444857 -0.4325 -0.519 191 150 120
0.0557476 -0.424167 -0.509 193 148 115
0.102014 -0.4625 -0.555 106 106 114
0.10902 -0.460833 -0.553 158 156 157
0.113233 -0.460833 -0.553 174 176 175
0.11534 -0.460833 -0.553 185 186 190
0.442642 -0.468333 -0.562 185 194 211
0.447994 -0.468333 -0.562 137 158 185
0.451206 -0.468333 -0.562 205 215 225
0.529733 -0.456667 -0.548 144 118 103
0.48314 -0.410833 -0.493 151 124 107
0.4761 -0.4025 -0.483 153 124 106
0.467093 -0.386667 -0.464 159 125 100
0.46481 -0.378333 -0.454 164 128 102
0.464484 -0.376667 -0.452 166 129 103
0.464143 -0.375 -0.45 165 128 101
0.46578 -0.3675 -0.441 170 129 99
0.466783 -0.365 -0.438 174 131 99
0.4669 -0.3625 -0.435 174 134 99
0.473767 -0.355833 -0.427 175 131 94
0.480276 -0.351667 -0.422 171 125 89
0.4836 -0.35 -0.42 164 121 87
0.491167 -0.350833 -0.421 148 114 79
0.491969 -0.350833 -0.421 148 114 79
0.503929 -0.354167 -0.425 129 100 70
0.0303 -0.421795 -0.505 197 151 117
0.0331857 -0.421795 -0.505 198 152 118
0.0428048 -0.421795 -0.505 195 150 117
0.0456905 -0.421795 -0.505 195 150 119
0.11408 -0.461051 -0.552 172 176 177
0.449065 -0.469404 -0.562 160 185 215
0.46191 -0.469404 -0.562 167 178 196
0.467263 -0.469404 -0.562 163 191 212
0.494904 -0.470239 -0.563 72 105 150
0.499193 -0.470239 -0.563 156 180 216
0.49786 -0.426807 -0.511 146 123 109
0.488095 -0.417619 -0.5 146 123 109
0.468617 -0.360823 -0.432 175 132 98
0.469174 -0.359988 -0.431 174 131 97
0.471083 -0.358317 -0.429 177 132 99
0.476899 -0.354141 -0.424 173 129 92
0.47994 -0.351635 -0.421 170 124 88
0.4916 -0.3508 -0.42 144 109 77
0.505548 -0.354976 -0.425 127 97 69
0.00535333 -0.42778 -0.511 189 148 118
0.0138924 -0.421083 -0.503 201 156 125
0.0186829 -0.421083 -0.503 194 149 116
0.0322238 -0.422757 -0.505 197 151 117
0.03504 -0.42192 -0.504 195 150 117
0.0546705 -0.425269 -0.508 192 147 116
0.0609524 -0.428617 -0.512 186 140 107
0.0651067 -0.430291 -0.514 180 135 106
0.0753562 -0.438663 -0.524 152 110 86
0.0765 -0.4395 -0.525 150 108 84
0.116183 -0.462103 -0.552 186 192 204
0.118286 -0.462103 -0.552 193 200 216
0.453609 -0.469637 -0.561 191 192 196
0.491687 -0.471311 -0.563 152 162 172
0.492759 -0.471311 -0.563 112 136 172
0.526903 -0.455406 -0.544 143 116 105
0.485135 -0.415223 -0.496 149 121 100
0.4761 -0.40434 -0.483 152 124 103
0.467445 -0.390946 -0.467 158 126 105
0.464649 -0.379226 -0.453 165 128 102
0.464454 -0.374203 -0.447 166 124 99
0.468905 -0.359971 -0.43 174 131 96
0.475284 -0.354949 -0.424 176 132 95
0.4788 -0.3516 -0.42 165 122 87
0.4916 -0.3516 -0.42 135 104 76
0.49678 -0.352437 -0.421 125 95 69
0.501557 -0.354111 -0.423 118 90 66
0.00533238 -0.427075 -0.509 191 150 122
0.0119762 -0.422041 -0.503 202 157 126
0.0264 -0.42288 -0.504 199 153 119
0.03696 -0.42288 -0.504 195 150 117
0.0388029 -0.422041 -0.503 194 151 117
0.0466524 -0.423719 -0.505 193 148 115
0.0587714 -0.427914 -0.51 188 141 111
0.0673257 -0.432949 -0.516 171 125 99
0.435733 -0.469867 -0.56 135 165 199
0.449334 -0.470706 -0.561 188 196 199
0.450403 -0.470706 -0.561 194 202 205
0.458951 -0.470706 -0.561 208 214 214
0.462157 -0.470706 -0.561 122 155 188
0.488672 -0.471545 -0.562 204 208 217
0.494025 -0.471545 -0.562 70 104 149
0.466329 -0.390157 -0.465 158 126 101
0.464504 -0.368342 -0.439 169 128 98
0.465949 -0.367503 -0.438 171 130 98
0.465482 -0.365825 -0.436 173 132 100
0.471034 -0.357434 -0.426 176 132 97
0.471846 -0.357434 -0.426 176 132 97
0.474969 -0.354917 -0.423 172 129 94
0.47658 -0.354917 -0.423 169 126 91
0.477534 -0.353239 -0.421 161 121 86
0.488035 -0.351561 -0.419 128 98 74
0.513192 -0.359112 -0.428 110 84 67
0.00341333 -0.430568 -0.512 192 148 119
0.00531143 -0.426363 -0.507 193 152 124
0.0167333 -0.422158 -0.502 196 151 118
0.0253895 -0.422999 -0.503 198 152 119
0.0263476 -0.422999 -0.503 200 154 120
0.0273057 -0.422999 -0.503 199 153 119
0.03504 -0.42384 -0.504 194 149 116
0.0359286 -0.422999 -0.503 194 151 117
0.04272 -0.42384 -0.504 196 151 118
0.0587714 -0.428886 -0.51 186 141 110
0.130666 -0.463365 -0.551 216 222 234
0.44 -0.470933 -0.56 105 138 189
0.450667 -0.470933 -0.56 204 204 204
0.4675 -0.471774 -0.561 156 186 214
0.488871 -0.471774 -0.561 193 202 211
0.477086 -0.407021 -0.484 152 124 103
0.475045 -0.404498 -0.481 152 124 103
0.469654 -0.396089 -0.471 158 127 106
0.466329 -0.391043 -0.465 160 126 101
0.463967 -0.377588 -0.449 165 126 97
0.46431 -0.371701 -0.442 168 127 97
0.467794 -0.363291 -0.432 172 132 97
0.475774 -0.355723 -0.423 168 125 91
0.47593 -0.354041 -0.421 163 122 90
0.4772 -0.3532 -0.42 156 119 90
0.480054 -0.352359 -0.419 147 112 84
0.501979 -0.354882 -0.422 88 69 55
0.503974 -0.355723 -0.423 89 70 56
0.000490476 -0.434071 -0.515 191 150 122
0.040719 -0.423957 -0.503 195 152 118
0.105286 -0.463571 -0.55 111 119 140
0.43815 -0.471157 -0.559 88 124 182
0.4624 -0.472 -0.56 111 147 183
0.4656 -0.472 -0.56 122 157 197
0.493146 -0.472843 -0.561 103 135 173
0.46621 -0.391086 -0.464 161 127 102
0.46583 -0.388557 -0.461 163 127 103
0.463603 -0.376757 -0.447 164 125 96
0.464071 -0.375071 -0.445 165 126 97
0.4641 -0.3717 -0.441 168 127 97
0.467532 -0.363271 -0.431 170 130 95
0.468905 -0.362429 -0.43 170 130 95
0.470223 -0.359057 -0.426 174 131 96
0.470738 -0.358214 -0.425 174 131 96
0.4772 -0.354 -0.42 144 110 85
0.47766 -0.353157 -0.419 142 107 85
0.486074 -0.352314 -0.418 99 73 56
0.493622 -0.353157 -0.419 80 60 49
0.507589 -0.357371 -0.424 71 53 49
0.0215143 -0.42407 -0.502 196 151 118
0.025339 -0.42407 -0.502 198 153 120
0.0320962 -0.424915 -0.503 196 153 118
0.0330543 -0.424915 -0.503 195 152 117
0.0546705 -0.429139 -0.508 187 142 111
0.0640029 -0.433363 -0.513 173 129 100
0.06956 -0.437587 -0.518 165 121 96
0.0935914 -0.463774 -0.549 95 86 87
0.101279 -0.465464 -0.551 68 75 93
0.106333 -0.464619 -0.55 110 121 143
0.107381 -0.464619 -0.55 128 139 161
0.523141 -0.454482 -0.538 146 117 101
0.491004 -0.42407 -0.502 148 121 104
0.463415 -0.376764 -0.446 162 125 98
0.464517 -0.37423 -0.443 165 126 95
0.4641 -0.37254 -0.441 166 127 96
0.46917 -0.361558 -0.428 170 130 95
0.470223 -0.359869 -0.426 174 131 97
0.4756 -0.3548 -0.42 140 102 83
0.476064 -0.353955 -0.419 125 96 80
0.482529 -0.352266 -0.417 91 69 56
0.484117 -0.352266 -0.417 85 63 52
0.4865 -0.352266 -0.417 70 51 45
0.498 -0.3548 -0.42 55 41 38
0.0526314 -0.42926 -0.507 190 147 113
0.0630257 -0.43434 -0.513 177 132 103
0.0641276 -0.435187 -0.514 172 128 99
0.0662143 -0.436033 -0.515 169 125 98
0.0790981 -0.447887 -0.529 128 95 76
0.109277 -0.46482 -0.549 137 148 176
0.11346 -0.46482 -0.549 158 178 205
0.46051 -0.473287 -0.559 99 136 181
0.467963 -0.473287 -0.559 102 140 177
0.467331 -0.394547 -0.466 159 124 104
0.46621 -0.392853 -0.464 159 124 104
0.465695 -0.389467 -0.46 161 126 104
0.46428 -0.37084 -0.438 166 127 96
0.465114 -0.37084 -0.438 167 128 97
0.480146 -0.35306 -0.417 78 60 50
0.48094 -0.35306 -0.417 73 55 45
0.4988 -0.3556 -0.42 39 30 31
0.01 -0.424286 -0.5 192 149 117
0.0128571 -0.424286 -0.5 194 151 117
0.0214714 -0.425134 -0.501 194 151 119
0.0435933 -0.426831 -0.503 197 152 119
0.0925457 -0.465866 -0.549 92 82 83
0.11346 -0.465866 -0.549 148 171 203
0.436303 -0.473503 -0.558 59 101 161
0.439491 -0.473503 -0.558 60 99 158
0.447994 -0.473503 -0.558 203 204 209
0.452246 -0.473503 -0.558 215 221 217
0.461574 -0.474351 -0.559 89 125 173
0.481805 -0.474351 -0.559 158 160 157
0.48287 -0.474351 -0.559 164 166 163
0.478131 -0.412406 -0.486 149 120 102
0.467331 -0.395434 -0.466 158 123 103
0.463623 -0.383554 -0.452 163 127 103
0.463886 -0.373371 -0.44 165 128 101
0.465326 -0.366583 -0.432 168 129 100
0.469329 -0.358946 -0.423 152 118 90
0.48094 -0.353854 -0.417 57 43 40
0.4865 -0.353854 -0.417 38 30 28
0.491266 -0.353854 -0.417 35 29 29
0.512024 -0.360643 -0.425 38 36 37
-0.00244286 -0.436294 -0.513 192 151 121
0.00809524 -0.425238 -0.5 194 151 119
0.0214286 -0.425238 -0.5 196 151 118
0.02338 -0.426089 -0.501 198 153 120
0.0281514 -0.426089 -0.501 197 152 119
0.0464676 -0.42779 -0.503 193 148 115
0.0948095 -0.467762 -0.55 99 85 85
0.105947 -0.466061 -0.548 71 89 129
0.114297 -0.466061 -0.548 130 156 193
0.116385 -0.466061 -0.548 100 128 175
0.122648 -0.466061 -0.548 172 185 204
0.462874 -0.474566 -0.558 84 129 184
0.465415 -0.389518 -0.458 161 124 105
0.463286 -0.382714 -0.45 165 129 105
0.462831 -0.373359 -0.439 168 131 102
0.463446 -0.372509 -0.438 167 130 101
0.46589 -0.366555 -0.431 170 131 100
0.471275 -0.35635 -0.419 88 65 59
0.479351 -0.354649 -0.417 45 35 34
0.49841 -0.35635 -0.419 27 27 29
0.503997 -0.35805 -0.421 32 30 31
0.504799 -0.35805 -0.421 31 29 30
-0.00854857 -0.450057 -0.528 193 147 121
0.022381 -0.42619 -0.5 197 152 119
0.0319686 -0.427043 -0.501 198 153 120
0.0376943 -0.427043 -0.501 193 148 115
0.0455095 -0.428748 -0.503 193 148 115
0.0495381 -0.430452 -0.505 190 145 112
0.0743581 -0.446648 -0.524 137 100 81
0.114297 -0.467105 -0.548 88 113 153
0.115341 -0.467105 -0.548 82 107 147
0.440826 -0.474776 -0.557 94 137 205
0.472992 -0.407438 -0.478 151 122 106
0.463224 -0.37931 -0.445 161 126 98
0.46242 -0.3759 -0.441 165 130 102
0.474586 -0.355443 -0.417 41 32 33
0.476617 -0.35459 -0.416 36 30 32
0.478202 -0.35459 -0.416 32 26 28
0.482956 -0.35459 -0.416 26 24 27
0.483749 -0.35459 -0.416 26 24 27
0.48771 -0.35459 -0.416 25 24 29
0.491672 -0.35459 -0.416 24 23 28
-0.00241905 -0.433977 -0.508 194 153 123
0.00143143 -0.427997 -0.501 191 150 118
0.0242857 -0.427143 -0.5 195 151 116
0.0474257 -0.429706 -0.503 191 146 113
0.0608333 -0.43654 -0.511 176 131 100
0.0769371 -0.451063 -0.528 129 95 83
0.0911667 -0.467294 -0.547 94 80 77
0.0967286 -0.469003 -0.549 117 111 111
0.10367 -0.467294 -0.547 46 75 117
0.105753 -0.467294 -0.547 45 76 123
0.431562 -0.474983 -0.556 54 102 168
0.43368 -0.474983 -0.556 55 95 157
0.457801 -0.475837 -0.557 153 173 197
0.460984 -0.475837 -0.557 79 122 177
0.518357 -0.453626 -0.531 137 114 106
0.466444 -0.398097 -0.466 155 124 104
0.46596 -0.39468 -0.462 157 125 104
0.463945 -0.387846 -0.454 159 124 104
0.461995 -0.375031 -0.439 161 125 99
0.472539 -0.357091 -0.418 37 31 35
0.481005 -0.354529 -0.415 25 25 27
0.48891 -0.354529 -0.415 24 25 29
0.920143 -0.486943 -0.57 204 209 187
0.932633 -0.487797 -0.571 204 207 188
0.0137543 -0.426383 -0.498 193 150 116
0.0261905 -0.428095 -0.5 196 151 118
0.0328571 -0.428095 -0.5 197 152 119
0.0347619 -0.428095 -0.5 195 150 117
0.0630257 -0.439226 -0.513 169 123 97
0.0782381 -0.453781 -0.53 116 93 85
0.113047 -0.468336 -0.547 54 84 134
0.44427 -0.476042 -0.556 117 136 169
0.447448 -0.476042 -0.556 126 153 180
0.452743 -0.476042 -0.556 201 210 219
0.482203 -0.476898 -0.557 179 183 194
0.485386 -0.476898 -0.557 111 124 141
0.48997 -0.427239 -0.499 146 119 102
0.466555 -0.399841 -0.467 152 123 105
0.464683 -0.392991 -0.459 155 123 102
0.462762 -0.386998 -0.452 156 124 103
0.461337 -0.380149 -0.444 154 120 93
0.462857 -0.369874 -0.432 152 116 94
0.469679 -0.358744 -0.419 46 37 38
0.469354 -0.357888 -0.418 31 25 29
0.475471 -0.355319 -0.415 24 22 25
0.477052 -0.355319 -0.415 26 24 27
0.488119 -0.355319 -0.415 24 25 29
0.494842 -0.356175 -0.416 25 26 31
0.49961 -0.357888 -0.418 25 25 33
0.680471 -0.466624 -0.545 197 199 186
0.888041 -0.488885 -0.571 205 208 191
0.935314 -0.493166 -0.576 201 204 183
0.99876 -0.491453 -0.574 196 199 178
1.01707 -0.489741 -0.572 191 194 177
-0.0024 -0.43248 -0.504 192 151 119
0.00332 -0.427331 -0.498 195 152 118
0.00996 -0.427331 -0.498 197 154 120
0.0289895 -0.42819 -0.499 195 150 117
0.04944 -0.43248 -0.504 190 145 112
0.0544552 -0.434196 -0.506 185 140 107
0.0934209 -0.470236 -0.548 100 89 87
0.117 -0.46852 -0.546 121 154 197
0.437129 -0.476243 -0.555 56 97 161
0.446389 -0.477101 -0.556 81 122 174
0.458038 -0.477101 -0.556 92 123 169
0.482203 -0.477959 -0.557 169 175 187
0.50176 -0.439345 -0.512 138 113 106
0.484034 -0.422183 -0.492 144 117 100
0.465326 -0.398156 -0.464 153 122 102
0.461986 -0.380136 -0.443 150 114 92
0.46158 -0.37842 -0.441 151 115 93
0.461371 -0.377562 -0.44 152 117 95
0.461777 -0.375846 -0.438 150 115 93
0.46399 -0.368981 -0.43 119 91 77
0.466911 -0.362974 -0.423 58 44 44
0.468881 -0.359542 -0.419 35 29 33
0.485748 -0.35611 -0.415 23 23 25
0.486538 -0.35611 -0.415 24 24 26
0.512031 -0.362974 -0.423 34 33 39
0.89052 -0.492547 -0.574 199 202 183
0.8938 -0.492547 -0.574 200 203 184
0.959229 -0.489114 -0.57 189 190 174
0.980027 -0.49083 -0.572 192 195 178
1.00508 -0.495121 -0.577 183 186 169
1.02719 -0.492547 -0.574 177 181 166
-0.00632667 -0.43946 -0.511 188 149 120
-0.00239048 -0.43172 -0.502 190 149 117
0.00331333 -0.42742 -0.497 195 152 118
0.0166 -0.42828 -0.498 197 153 118
0.0289895 -0.42914 -0.499 192 147 114
0.0346924 -0.42914 -0.499 196 151 118
0.0483838 -0.43258 -0.503 191 146 113
0.0514619 -0.4343 -0.505 190 145 112
0.11804 -0.46956 -0.546 166 191 213
0.459097 -0.47816 -0.556 96 129 172
0.485386 -0.47902 -0.557 103 120 138
0.465443 -0.3999 -0.465 154 121 102
0.463233 -0.3913 -0.455 154 122 101
0.46206 -0.38958 -0.453 153 121 100
0.460197 -0.38442 -0.447 154 117 99
0.460533 -0.3784 -0.44 138 105 86
0.46482 -0.36722 -0.427 74 53 50
0.466106 -0.36378 -0.423 40 31 34
0.4668 -0.3612 -0.42 30 25 29
0.469486 -0.35776 -0.416 19 20 24
0.47107 -0.35776 -0.416 20 21 26
0.47748 -0.35604 -0.414 21 21 29
0.483 -0.35604 -0.414 23 24 28
0.499209 -0.35862 -0.417 27 26 31
0.50961 -0.36206 -0.421 34 35 40
0.676726 -0.46612 -0.542 197 199 185
0.955546 -0.49278 -0.573 177 180 163
0.96646 -0.49278 -0.573 170 173 156
0.984686 -0.49536 -0.576 160 162 149
0.98688 -0.49536 -0.576 177 179 165
0.987357 -0.4945 -0.575 177 179 165
0.988452 -0.4945 -0.575 177 179 165
1.00288 -0.49622 -0.577 167 169 155
1.01537 -0.49966 -0.581 164 166 153
1.01758 -0.49966 -0.581 161 163 150
1.02728 -0.50224 -0.584 156 160 146
1.02967 -0.49536 -0.576 157 161 147
-0.000475238 -0.43009 -0.499 192 149 115
0.00142 -0.428367 -0.497 196 153 119
0.00899333 -0.428367 -0.497 196 153 118
0.0279829 -0.429229 -0.498 195 150 117
0.05136 -0.4344 -0.504 187 144 110
0.0586562 -0.43871 -0.509 175 134 104
0.0942924 -0.471462 -0.547 111 102 105
0.0962 -0.4706 -0.546 129 127 132
0.0991381 -0.469738 -0.545 132 145 161
0.457214 -0.478357 -0.555 117 151 188
0.49069 -0.480081 -0.557 175 192 200
0.496164 -0.479219 -0.556 38 84 136
0.478008 -0.417162 -0.484 147 118 104
0.466555 -0.40251 -0.467 150 119 101
0.459833 -0.383548 -0.445 144 111 96
0.460109 -0.377514 -0.438 118 90 76
0.46133 -0.37579 -0.436 104 80 68
0.463463 -0.368895 -0.428 57 45 45
0.464262 -0.36631 -0.425 41 30 34
0.47748 -0.356829 -0.414 18 23 27
0.487731 -0.356829 -0.414 22 25 30
0.820595 -0.486976 -0.565 196 199 180
0.825282 -0.487838 -0.566 198 200 179
0.84726 -0.4887 -0.567 193 198 178
0.84834 -0.4887 -0.567 194 199 177
0.962743 -0.496457 -0.576 159 160 146
0.987494 -0.497319 -0.577 159 161 148
1.00492 -0.501629 -0.582 155 157 144
0.00519619 -0.42845 -0.496 196 153 119
0.01846 -0.429313 -0.497 191 147 112
0.0203533 -0.429313 -0.497 194 148 114
0.0260857 -0.430177 -0.498 195 150 117
0.0404762 -0.431905 -0.5 196 150 117
0.0608333 -0.441407 -0.511 170 126 99
0.0720857 -0.450909 -0.522 127 94 77
0.0970619 -0.470776 -0.545 131 135 146
0.446893 -0.47855 -0.554 186 203 211
0.453225 -0.47855 -0.554 205 214 221
0.483455 -0.480278 -0.556 191 200 205
0.495995 -0.481142 -0.557 61 102 158
0.501459 -0.480278 -0.556 33 75 135
0.474971 -0.414629 -0.48 148 119 103
0.45952 -0.386987 -0.448 143 111 96
0.459646 -0.383531 -0.444 127 97 86
0.459669 -0.376621 -0.436 89 67 56
0.464704 -0.363664 -0.421 23 18 25
0.46617 -0.361072 -0.418 20 18 23
0.467109 -0.359345 -0.416 22 23 28
0.470383 -0.357617 -0.414 22 25 32
0.471171 -0.357617 -0.414 21 24 31
0.48262 -0.356753 -0.413 20 24 27
0.496024 -0.358481 -0.415 23 23 31
0.500797 -0.360209 -0.417 26 26 28
0.504387 -0.361072 -0.418 32 32 34
0.682548 -0.470776 -0.545 199 201 187
0.830362 -0.490644 -0.568 187 188 170
0.831444 -0.490644 -0.568 186 187 169
0.851332 -0.491508 -0.569 183 188 168
0.990917 -0.500146 -0.579 141 142 134
1.00049 -0.502737 -0.582 135 136 128
1.00899 -0.505329 -0.585 134 135 127
-0.0113686 -0.449306 -0.519 190 151 118
-0.00824095 -0.440649 -0.509 190 146 117
-0.00237619 -0.431991 -0.499 191 150 118
0.0127543 -0.429394 -0.496 195 152 117
0.0317771 -0.431126 -0.498 194 149 116
0.11139 -0.470949 -0.544 47 80 125
0.482396 -0.481337 -0.556 200 205 211
0.483455 -0.481337 -0.556 194 203 210
0.484514 -0.481337 -0.556 193 202 209
0.487691 -0.481337 -0.556 190 203 212
0.501459 -0.481337 -0.556 30 75 132
0.459318 -0.391303 -0.452 150 121 103
0.458835 -0.388706 -0.449 140 111 95
0.46238 -0.36966 -0.427 31 26 32
0.463689 -0.366197 -0.423 25 23 28
0.468357 -0.359271 -0.415 20 24 27
0.474753 -0.35754 -0.413 21 21 29
0.483407 -0.35754 -0.413 20 23 28
0.50719 -0.362734 -0.419 30 31 35
0.796583 -0.488263 -0.564 186 187 171
0.81091 -0.489129 -0.565 186 188 174
0.814138 -0.489129 -0.565 186 188 174
0.817367 -0.489129 -0.565 186 189 172
0.82242 -0.49086 -0.567 170 171 157
0.829656 -0.492591 -0.569 172 173 157
0.847799 -0.494323 -0.571 171 172 156
0.850657 -0.493457 -0.57 170 173 156
0.853914 -0.493457 -0.57 170 173 156
0.863254 -0.492591 -0.569 168 169 155
-0.00819238 -0.439015 -0.506 188 144 115
0.00518571 -0.429471 -0.495 196 153 118
0.0127543 -0.430339 -0.496 194 151 116
0.0279267 -0.431207 -0.497 193 148 115
0.0885943 -0.471985 -0.544 90 79 77
0.0968838 -0.471985 -0.544 65 88 122
0.09774 -0.471117 -0.543 66 89 123
0.44082 -0.479793 -0.553 173 196 214
0.504786 -0.481529 -0.555 82 111 145
0.505843 -0.481529 -0.555 107 136 170
0.522757 -0.481529 -0.555 107 126 140
0.484971 -0.426869 -0.492 139 115 103
0.457813 -0.388693 -0.448 124 98 85
0.457767 -0.384355 -0.443 99 75 71
0.4636 -0.3644 -0.42 22 21 27
0.4652 -0.3644 -0.42 23 24 29
0.466776 -0.360062 -0.415 22 23 28
0.469148 -0.360062 -0.415 22 23 28
0.470729 -0.360062 -0.415 21 22 27
0.493251 -0.359194 -0.414 23 23 31
0.500389 -0.36093 -0.416 24 28 31
0.505183 -0.362665 -0.418 26 30 33
0.795843 -0.490205 -0.565 172 172 160
0.806954 -0.491072 -0.566 171 172 158
0.827857 -0.494543 -0.57 154 154 142
0.831114 -0.494543 -0.57 154 155 141
0.844926 -0.496278 -0.572 153 154 140
0.855821 -0.496278 -0.572 153 155 141
0.861938 -0.49541 -0.571 149 151 138
-0.011259 -0.446935 -0.514 185 147 110
-0.00141714 -0.431284 -0.496 192 152 117
0.00517524 -0.429545 -0.494 198 154 117
0.0174781 -0.431284 -0.496 193 149 114
0.0269257 -0.431284 -0.496 193 147 114
0.0473314 -0.436501 -0.502 188 141 111
0.0504 -0.43824 -0.504 183 138 107
0.0566057 -0.441718 -0.508 172 127 98
0.0630257 -0.446066 -0.513 161 115 92
0.0698286 -0.452152 -0.52 133 97 81
0.0897952 -0.47389 -0.545 88 78 77
0.0956714 -0.472151 -0.543 40 63 95
0.0967057 -0.472151 -0.543 35 66 110
0.111186 -0.472151 -0.543 38 80 130
0.351476 -0.478238 -0.55 219 229 231
0.353571 -0.478238 -0.55 213 225 237
0.436607 -0.480847 -0.553 65 100 156
0.442927 -0.480847 -0.553 209 219 229
0.44398 -0.480847 -0.553 212 222 232
0.451114 -0.481716 -0.554 207 221 222
0.468843 -0.482586 -0.555 84 136 183
0.479219 -0.483455 -0.556 200 211 217
0.49069 -0.484325 -0.557 178 183 186
0.491751 -0.484325 -0.557 163 173 182
0.495995 -0.484325 -0.557 69 101 142
0.500239 -0.484325 -0.557 64 103 146
0.502518 -0.483455 -0.556 65 103 142
0.511129 -0.482586 -0.555 166 169 178
0.52038 -0.461717 -0.531 120 102 100
0.459909 -0.396503 -0.456 133 111 98
0.458019 -0.38259 -0.44 54 42 42
0.459895 -0.373895 -0.43 24 23 29
0.477113 -0.359113 -0.413 19 22 29
0.488913 -0.359113 -0.413 22 23 28
0.505183 -0.363461 -0.418 26 30 33
0.845693 -0.499107 -0.574 135 135 123
0.84788 -0.499107 -0.574 135 135 123
0.863187 -0.499107 -0.574 132 134 121
0.862774 -0.498237 -0.573 132 134 121
-0.0061781 -0.434843 -0.499 192 151 119
-0.00426 -0.4331 -0.497 194 151 117
0.00235238 -0.430486 -0.494 197 154 119
0.0250362 -0.432229 -0.496 193 147 113
0.02976 -0.432229 -0.496 195 149 116
0.0403143 -0.433971 -0.498 191 146 113
0.0422962 -0.434843 -0.499 191 145 112
0.0687057 -0.452271 -0.519 133 100 83
0.0863629 -0.473186 -0.543 91 77 76
0.0885943 -0.474057 -0.544 85 75 76
0.0937752 -0.474057 -0.544 50 56 70
0.0956714 -0.473186 -0.543 41 64 95
0.117391 -0.473186 -0.543 80 118 165
0.121529 -0.473186 -0.543 82 120 165
0.354619 -0.479286 -0.55 216 225 230
0.366143 -0.479286 -0.55 74 123 182
0.375571 -0.479286 -0.55 193 213 224
0.397245 -0.480157 -0.551 110 153 195
0.402492 -0.480157 -0.551 110 158 204
0.430287 -0.4819 -0.553 62 104 164
0.439767 -0.4819 -0.553 105 137 175
0.447949 -0.482771 -0.554 204 216 216
0.45428 -0.482771 -0.554 201 208 218
0.456157 -0.483643 -0.555 194 201 211
0.464614 -0.483643 -0.555 101 137 173
0.468629 -0.484514 -0.556 88 126 165
0.471806 -0.484514 -0.556 114 148 185
0.473924 -0.484514 -0.556 113 142 172
0.492634 -0.486257 -0.558 164 171 177
0.511129 -0.483643 -0.555 160 161 165
0.514429 -0.482771 -0.554 162 163 165
0.4557 -0.3843 -0.441 50 40 41
0.458226 -0.380814 -0.437 27 22 26
0.459674 -0.371229 -0.426 23 24 29
0.469938 -0.361643 -0.415 20 20 28
0.469594 -0.360771 -0.414 20 20 28
0.47196 -0.360771 -0.414 21 22 26
0.48734 -0.3599 -0.413 22 23 28
0.49404 -0.360771 -0.414 22 25 30
0.498395 -0.361643 -0.415 23 26 33
0.818086 -0.496714 -0.57 134 134 122
0.824959 -0.497586 -0.571 130 132 119
0.835853 -0.5002 -0.574 124 126 113
0.855223 -0.501943 -0.576 125 125 113
0.858514 -0.501943 -0.576 126 126 114
-0.0133457 -0.45326 -0.519 184 145 112
0.00610381 -0.430553 -0.493 197 153 116
0.0079981 -0.431427 -0.494 197 153 116
0.0174429 -0.4323 -0.495 198 154 117
0.0183857 -0.4323 -0.495 198 154 117
0.0221571 -0.4323 -0.495 196 150 114
0.0240429 -0.4323 -0.495 194 148 114
