ply
format ascii 1.0
comment Created by Open3D
element vertex 1294
property double x
property double y
property double z
property uchar red
property uchar green
property uchar blue
end_header
0.127338 -0.293281 -0.605 185 132 124
0.127216 -0.290372 -0.599 187 133 123
0.1337 -0.277769 -0.573 195 136 130
0.136496 -0.276799 -0.571 187 128 122
0.144748 -0.27389 -0.565 189 129 121
0.147714 -0.273406 -0.564 193 130 125
0.149597 -0.272921 -0.563 189 128 123
0.166271 -0.27389 -0.565 175 110 104
0.168424 -0.27389 -0.565 169 106 101
0.183133 -0.278253 -0.574 147 91 92
0.184548 -0.278738 -0.575 147 91 90
0.186289 -0.279708 -0.577 147 91 90
0.23788 -0.303461 -0.626 187 125 126
0.254851 -0.299583 -0.618 127 87 88
0.262146 -0.303946 -0.627 160 131 136
0.454671 -0.249652 -0.515 173 139 129
0.450427 -0.246259 -0.508 174 142 129
0.4446 -0.239472 -0.494 184 147 129
0.45496 -0.234625 -0.484 198 152 129
0.456804 -0.234625 -0.484 197 151 128
0.475114 -0.233655 -0.482 184 137 109
0.48254 -0.23414 -0.483 175 129 103
0.491005 -0.23511 -0.485 167 122 99
-0.109103 -0.304653 -0.626 110 111 115
-0.0754743 -0.30368 -0.624 61 61 69
0.131336 -0.280807 -0.577 189 132 123
0.13284 -0.279347 -0.574 195 136 130
0.155234 -0.27448 -0.564 172 109 104
0.1698 -0.275453 -0.566 161 100 95
0.170878 -0.275453 -0.566 154 96 92
0.176119 -0.276913 -0.569 144 91 87
0.178913 -0.277887 -0.571 142 88 86
0.195108 -0.285673 -0.587 144 96 96
0.222996 -0.310493 -0.638 105 104 136
0.240386 -0.31098 -0.639 170 111 117
0.239828 -0.292487 -0.601 177 116 113
0.252032 -0.298813 -0.614 126 87 88
0.444777 -0.237493 -0.488 194 151 132
0.454052 -0.236033 -0.485 197 152 129
0.475045 -0.234087 -0.481 189 142 116
0.480623 -0.234573 -0.482 175 129 105
0.487227 -0.235547 -0.484 172 127 104
0.490081 -0.236033 -0.485 168 123 100
-0.37488 -0.30096 -0.616 246 248 237
-0.0806343 -0.301937 -0.618 70 71 76
-0.0754743 -0.304869 -0.624 64 65 70
0.126286 -0.293143 -0.6 189 134 127
0.139025 -0.277509 -0.568 185 126 118
0.140691 -0.276531 -0.566 190 130 122
0.149863 -0.275554 -0.564 187 124 119
0.159531 -0.275554 -0.564 180 115 111
0.160606 -0.275554 -0.564 175 110 106
0.167348 -0.276043 -0.565 164 101 94
0.191229 -0.284349 -0.582 144 90 88
0.447143 -0.244286 -0.5 186 143 127
0.444777 -0.238423 -0.488 196 151 132
0.454038 -0.236469 -0.484 195 150 127
0.457726 -0.236469 -0.484 196 150 126
0.464097 -0.235491 -0.482 192 146 122
0.468571 -0.234514 -0.48 188 140 117
0.477793 -0.235003 -0.481 184 137 111
-0.361973 -0.302133 -0.616 244 246 233
-0.0766629 -0.306057 -0.624 69 70 74
0.126989 -0.307038 -0.626 192 137 130
0.126154 -0.291343 -0.594 195 138 131
0.133467 -0.280552 -0.572 198 139 133
0.14177 -0.27761 -0.566 194 134 126
0.143671 -0.277119 -0.565 194 134 126
0.151742 -0.276138 -0.563 177 114 109
0.1698 -0.27761 -0.566 157 99 88
0.189467 -0.284476 -0.58 138 86 90
0.445721 -0.238862 -0.487 193 148 129
0.449433 -0.237881 -0.485 192 147 126
0.45678 -0.2369 -0.483 199 151 129
0.481458 -0.235919 -0.481 178 132 108
-0.0989276 -0.306261 -0.622 117 116 122
-0.08976 -0.303307 -0.616 107 108 112
-0.0798429 -0.305769 -0.621 83 84 86
-0.0766629 -0.307246 -0.624 84 85 87
0.12586 -0.29986 -0.609 189 132 125
0.130237 -0.284104 -0.577 190 131 123
0.142595 -0.278195 -0.565 195 135 127
0.147714 -0.277703 -0.564 190 129 124
0.154959 -0.27721 -0.563 178 115 110
0.16168 -0.277703 -0.564 180 115 111
0.1786 -0.280657 -0.57 134 85 78
0.180001 -0.28115 -0.571 132 83 76
0.184548 -0.283119 -0.575 129 75 73
0.233285 -0.303799 -0.617 195 134 133
0.260535 -0.30823 -0.626 141 118 126
0.26502 -0.310692 -0.631 185 174 188
0.27039 -0.314139 -0.638 193 191 213
0.562217 -0.319063 -0.648 159 135 131
0.451394 -0.25013 -0.508 172 142 132
0.44969 -0.248652 -0.505 181 143 132
0.4455 -0.243729 -0.495 193 150 134
0.446657 -0.239297 -0.486 196 149 129
0.454038 -0.238312 -0.484 194 147 127
0.460386 -0.236835 -0.481 191 145 122
0.468571 -0.236343 -0.48 193 145 122
0.472229 -0.236343 -0.48 189 141 119
0.473143 -0.236343 -0.48 187 139 117
0.4768 -0.236343 -0.48 181 135 111
0.493776 -0.238805 -0.485 153 121 98
-0.354357 -0.303986 -0.615 245 247 234
-0.0888743 -0.305469 -0.618 108 109 114
-0.085619 -0.306457 -0.62 103 104 108
0.126 -0.29064 -0.588 191 134 127
0.143671 -0.279271 -0.565 183 123 115
0.185966 -0.284709 -0.576 131 80 77
0.237207 -0.31486 -0.637 182 123 129
0.23482 -0.295089 -0.597 174 113 110
0.244881 -0.299043 -0.605 148 90 88
0.252032 -0.303491 -0.614 121 88 95
0.563085 -0.320791 -0.649 160 136 134
0.555626 -0.315849 -0.639 163 135 132
0.457422 -0.255546 -0.517 172 139 132
0.450581 -0.250109 -0.506 178 141 133
0.444733 -0.2422 -0.49 189 147 131
0.444777 -0.241211 -0.488 191 148 131
0.445721 -0.240717 -0.487 193 148 129
0.447586 -0.239729 -0.485 192 147 128
0.461302 -0.237751 -0.481 188 140 120
0.474894 -0.236763 -0.479 185 139 115
0.475807 -0.236763 -0.479 182 136 112
-0.373054 -0.304165 -0.613 245 247 234
-0.370719 -0.304165 -0.613 244 246 233
-0.352611 -0.304661 -0.614 245 247 234
-0.0979 -0.309127 -0.623 190 190 190
-0.0953733 -0.30863 -0.622 173 175 174
-0.0941886 -0.30863 -0.622 170 172 171
-0.087981 -0.307638 -0.62 106 107 111
0.134934 -0.282332 -0.569 193 134 126
0.136018 -0.282332 -0.569 191 132 124
0.139613 -0.280844 -0.566 193 133 125
0.143671 -0.280348 -0.565 184 124 116
0.158176 -0.279355 -0.563 183 115 112
0.160321 -0.279355 -0.563 184 116 113
0.161393 -0.279355 -0.563 184 116 113
0.1786 -0.282829 -0.57 134 87 79
0.198352 -0.292752 -0.59 136 89 83
0.241373 -0.298707 -0.602 150 89 86
0.45034 -0.23966 -0.483 192 145 125
0.464858 -0.237675 -0.479 194 146 126
-0.0802286 -0.310811 -0.624 203 203 205
0.124803 -0.312306 -0.627 197 146 129
0.125571 -0.291884 -0.586 195 136 130
0.135779 -0.282918 -0.568 191 131 123
0.156031 -0.280428 -0.563 181 118 113
0.170878 -0.281922 -0.566 154 99 92
0.171956 -0.281922 -0.566 148 93 86
0.180001 -0.284412 -0.571 132 85 79
0.187388 -0.287401 -0.577 141 90 89
0.18914 -0.288397 -0.579 147 96 95
0.230271 -0.297363 -0.597 195 135 125
0.239828 -0.299355 -0.601 158 99 95
0.452362 -0.253032 -0.508 176 139 131
0.45034 -0.24058 -0.483 194 149 130
0.45218 -0.24058 -0.483 193 148 127
0.45767 -0.240082 -0.482 195 148 128
0.457637 -0.239584 -0.481 194 147 127
0.45947 -0.239584 -0.481 193 146 126
0.463033 -0.238588 -0.479 193 145 125
0.472082 -0.23809 -0.478 189 142 116
0.475724 -0.23809 -0.478 179 133 109
0.479366 -0.23809 -0.478 183 139 114
0.484018 -0.238588 -0.479 170 128 104
-0.35554 -0.3065 -0.613 245 247 234
-0.333899 -0.307 -0.614 247 249 238
0.130426 -0.2865 -0.573 193 133 125
0.140691 -0.283 -0.566 187 127 119
0.145566 -0.282 -0.564 177 114 105
0.151742 -0.2815 -0.563 179 116 109
0.17442 -0.2835 -0.567 143 93 86
0.228748 -0.3025 -0.605 198 140 136
0.46273 -0.2615 -0.523 171 139 128
0.448931 -0.251 -0.502 179 142 126
0.444777 -0.244 -0.488 186 145 127
0.45034 -0.2415 -0.483 194 152 130
0.455805 -0.2405 -0.481 194 147 127
0.458514 -0.24 -0.48 191 145 122
0.462977 -0.239 -0.478 192 146 123
0.46844 -0.239 -0.478 192 146 123
0.476634 -0.239 -0.478 178 132 109
0.477545 -0.239 -0.478 176 130 106
0.488686 -0.24 -0.48 166 124 102
0.124455 -0.294116 -0.586 192 135 128
0.132767 -0.285584 -0.569 193 134 126
0.13662 -0.28458 -0.567 185 126 118
0.138535 -0.284078 -0.566 186 126 118
0.140691 -0.284078 -0.566 192 132 124
0.14664 -0.283074 -0.564 175 112 103
0.16168 -0.283074 -0.564 176 111 105
0.163829 -0.283074 -0.564 174 109 103
0.164903 -0.283074 -0.564 172 107 101
0.182814 -0.287591 -0.573 143 94 89
0.22875 -0.299135 -0.596 196 131 129
0.233291 -0.299135 -0.596 186 120 108
0.241774 -0.302649 -0.603 138 87 83
0.246095 -0.305158 -0.608 125 79 81
0.256089 -0.311683 -0.621 108 78 88
0.453998 -0.241918 -0.482 193 148 127
0.454889 -0.241416 -0.481 194 149 130
0.466619 -0.23991 -0.478 190 144 121
0.470186 -0.239409 -0.477 190 144 121
0.12997 -0.287675 -0.571 192 135 126
0.138535 -0.285156 -0.566 188 128 120
0.140443 -0.284652 -0.565 195 135 127
0.148789 -0.284149 -0.564 179 116 109
0.159531 -0.284149 -0.564 179 114 108
0.179686 -0.287171 -0.57 142 93 86
0.185643 -0.28969 -0.575 147 94 90
0.188813 -0.291202 -0.578 143 94 90
0.199814 -0.297751 -0.591 122 77 80
0.557714 -0.322438 -0.64 162 131 128
0.455033 -0.257447 -0.511 174 141 136
0.444777 -0.245859 -0.488 186 144 128
0.445731 -0.244851 -0.486 192 149 132
0.45126 -0.24334 -0.483 194 152 130
0.456686 -0.241829 -0.48 198 151 131
0.463826 -0.240317 -0.477 186 140 117
0.468369 -0.240317 -0.477 192 146 123
0.477454 -0.240317 -0.477 178 133 110
0.4896 -0.241829 -0.48 170 125 104
0.49542 -0.24334 -0.483 156 121 101
0.690238 -0.327476 -0.65 216 216 218
-0.333977 -0.309497 -0.612 247 249 238
0.163829 -0.285223 -0.564 176 111 105
0.17581 -0.287246 -0.568 139 91 79
0.177203 -0.287751 -0.569 143 95 83
0.188487 -0.291797 -0.577 142 94 90
0.20162 -0.299889 -0.593 119 77 81
0.204117 -0.301911 -0.597 122 80 84
0.219643 -0.316071 -0.625 69 55 88
0.229695 -0.313543 -0.62 186 130 129
0.2634 -0.3186 -0.63 163 158 178
0.45072 -0.25488 -0.504 178 140 129
0.453972 -0.243249 -0.481 196 149 129
0.455771 -0.242743 -0.48 199 152 132
0.461156 -0.241731 -0.478 194 146 126
0.473733 -0.24072 -0.476 179 131 109
-0.335759 -0.310155 -0.611 246 248 235
0.12672 -0.292389 -0.576 187 130 121
0.13446 -0.28782 -0.567 188 128 120
0.144491 -0.286297 -0.564 181 117 108
0.148789 -0.286297 -0.564 185 122 115
0.152011 -0.286297 -0.564 191 126 120
0.154959 -0.28579 -0.563 183 118 112
0.158457 -0.286297 -0.564 177 112 106
0.159531 -0.286297 -0.564 177 112 106
0.17581 -0.288328 -0.568 140 92 80
0.181089 -0.28985 -0.571 141 91 84
0.187063 -0.292389 -0.576 141 94 88
0.252497 -0.313709 -0.618 109 76 85
0.264236 -0.320815 -0.632 170 168 190
0.449888 -0.254825 -0.502 180 144 130
0.449408 -0.244672 -0.482 196 150 134
0.450326 -0.244672 -0.482 194 148 132
0.453029 -0.243657 -0.48 200 154 131
0.458471 -0.24315 -0.479 195 146 129
0.459384 -0.24315 -0.479 193 144 127
0.459335 -0.242642 -0.478 197 148 131
0.465643 -0.242134 -0.477 189 141 121
0.4692 -0.241627 -0.476 194 146 126
0.471833 -0.241119 -0.475 184 136 114
0.479071 -0.241119 -0.475 173 131 109
0.48858 -0.24315 -0.479 168 130 111
0.134223 -0.28839 -0.566 185 125 117
0.137214 -0.287881 -0.565 185 125 117
0.13829 -0.287881 -0.565 184 124 116
0.155234 -0.287371 -0.564 182 118 109
0.159531 -0.287371 -0.564 174 110 101
0.164903 -0.287371 -0.564 170 106 97
0.170878 -0.28839 -0.566 157 98 90
0.17581 -0.28941 -0.568 142 92 83
0.212048 -0.31081 -0.61 116 76 87
0.227333 -0.315905 -0.62 174 124 127
0.224967 -0.303167 -0.595 198 138 140
0.238683 -0.306224 -0.601 142 87 80
0.560329 -0.327624 -0.643 163 133 131
0.456814 -0.261386 -0.513 171 138 133
0.445721 -0.248138 -0.487 189 148 130
0.445731 -0.247629 -0.486 190 149 131
0.450308 -0.245081 -0.481 193 148 129
0.480881 -0.242024 -0.475 167 124 105
0.48654 -0.243043 -0.477 167 128 111
0.500243 -0.247119 -0.485 158 121 105
0.122918 -0.298674 -0.584 192 138 128
0.124958 -0.295606 -0.578 193 136 127
0.1265 -0.294071 -0.575 191 134 125
0.135301 -0.289469 -0.566 184 124 116
0.160606 -0.288446 -0.564 173 109 100
0.170576 -0.288957 -0.565 158 99 93
0.188487 -0.295094 -0.577 146 94 83
0.216129 -0.314529 -0.615 128 94 110
0.224405 -0.319643 -0.625 102 75 92
0.22534 -0.303277 -0.593 189 129 131
0.245743 -0.311971 -0.61 116 79 86
0.256137 -0.319131 -0.624 165 156 177
0.457559 -0.244974 -0.479 194 147 127
0.459335 -0.244463 -0.478 196 149 129
0.461947 -0.24344 -0.476 193 146 126
0.462853 -0.24344 -0.476 189 142 122
0.466405 -0.242929 -0.475 195 148 128
0.469034 -0.242417 -0.474 195 148 130
0.480771 -0.242417 -0.474 164 123 105
0.13037 -0.291573 -0.568 192 131 126
0.133145 -0.290547 -0.566 186 127 119
0.163538 -0.289007 -0.563 174 109 103
0.171956 -0.290547 -0.566 157 96 91
0.205254 -0.30646 -0.597 135 87 87
0.21031 -0.310567 -0.605 116 71 78
0.223234 -0.31416 -0.612 171 121 122
0.232156 -0.305947 -0.596 158 97 92
0.235607 -0.307487 -0.599 147 90 83
0.445721 -0.249993 -0.487 191 148 131
0.452114 -0.2464 -0.48 200 155 136
0.455693 -0.245373 -0.478 193 148 127
0.46376 -0.244347 -0.476 185 139 116
0.467229 -0.24332 -0.474 197 151 127
0.477054 -0.242807 -0.473 171 128 109
0.480771 -0.24332 -0.474 168 125 108
0.491202 -0.245373 -0.478 159 121 100
0.127571 -0.293686 -0.57 194 137 128
0.13912 -0.290594 -0.564 190 130 122
0.142343 -0.290594 -0.564 184 124 116
0.221046 -0.312234 -0.606 177 125 127
0.222705 -0.305021 -0.592 189 128 127
0.223832 -0.305021 -0.592 191 130 129
0.252133 -0.319448 -0.62 114 101 129
0.44849 -0.248345 -0.482 195 152 135
0.449391 -0.24783 -0.481 191 148 131
0.450308 -0.24783 -0.481 193 148 129
0.462786 -0.244738 -0.475 183 137 114
0.464595 -0.244738 -0.475 193 147 124
0.4655 -0.244738 -0.475 192 146 123
0.466326 -0.244223 -0.474 197 151 128
0.469847 -0.243708 -0.473 190 143 123
-0.336427 -0.314423 -0.608 246 248 235
0.127348 -0.294254 -0.569 194 137 128
0.13291 -0.292186 -0.565 185 125 117
0.133986 -0.292186 -0.565 184 124 116
0.144235 -0.291151 -0.563 185 122 115
0.14638 -0.291151 -0.563 184 121 114
0.168424 -0.292186 -0.565 169 104 100
0.171652 -0.292186 -0.565 160 99 96
0.18816 -0.297874 -0.576 143 95 85
0.202066 -0.305631 -0.591 127 79 79
0.217143 -0.314423 -0.608 140 89 88
0.219098 -0.313906 -0.607 170 118 120
0.219633 -0.309769 -0.599 188 134 134
0.227599 -0.306666 -0.593 171 103 100
0.230633 -0.3077 -0.595 159 96 89
0.247354 -0.317526 -0.614 108 75 82
0.552275 -0.326317 -0.631 161 133 129
0.456899 -0.264777 -0.512 171 138 131
0.45168 -0.26064 -0.504 174 142 131
0.448475 -0.248746 -0.481 195 149 133
0.452114 -0.248229 -0.48 200 155 136
0.465423 -0.245126 -0.474 197 149 127
0.467144 -0.244609 -0.473 197 149 129
0.468045 -0.244609 -0.473 194 146 126
0.468946 -0.244609 -0.473 193 145 125
0.474248 -0.244091 -0.472 185 138 118
0.475147 -0.244091 -0.472 183 138 117
0.485286 -0.245126 -0.474 166 123 106
0.487214 -0.245643 -0.475 164 121 104
0.489147 -0.24616 -0.476 164 121 104
0.491083 -0.246677 -0.477 162 123 108
0.11868 -0.312467 -0.602 195 138 127
0.12906 -0.2943 -0.567 191 132 124
0.133986 -0.293262 -0.565 184 124 116
0.138046 -0.292743 -0.564 188 128 120
0.13912 -0.292743 -0.564 186 126 118
0.142343 -0.292743 -0.564 191 128 121
0.145308 -0.292224 -0.563 186 123 116
0.154684 -0.291705 -0.562 176 113 104
0.167348 -0.293262 -0.565 172 107 103
0.179686 -0.295857 -0.57 145 92 88
0.18532 -0.297933 -0.574 144 90 88
0.207876 -0.31039 -0.598 114 64 67
0.210857 -0.311429 -0.6 120 70 73
0.212707 -0.312467 -0.602 119 69 72
0.222329 -0.306757 -0.591 190 126 124
0.245383 -0.317657 -0.612 119 79 80
0.4944 -0.290667 -0.56 167 136 131
0.481311 -0.282362 -0.544 169 138 133
0.467389 -0.273019 -0.526 173 138 132
0.458684 -0.26679 -0.514 171 137 128
0.449946 -0.260043 -0.501 173 139 129
0.444793 -0.252776 -0.487 191 148 132
0.444814 -0.251738 -0.485 190 149 131
0.44574 -0.2507 -0.483 185 147 128
0.462714 -0.246029 -0.474 196 148 126
0.464441 -0.24551 -0.473 196 148 126
0.467954 -0.24499 -0.472 193 145 125
0.473349 -0.24499 -0.472 186 138 118
0.477844 -0.24499 -0.472 181 134 114
0.48144 -0.24499 -0.472 168 130 111
0.11792 -0.320907 -0.616 193 140 136
0.118089 -0.31205 -0.599 193 139 127
0.126264 -0.296422 -0.569 191 132 124
0.154684 -0.292775 -0.562 175 112 105
0.163538 -0.293296 -0.563 173 105 102
0.173034 -0.294859 -0.566 153 98 93
0.176891 -0.295901 -0.568 147 94 88
0.214286 -0.312571 -0.6 164 106 105
0.215128 -0.310488 -0.596 183 125 124
0.217433 -0.308925 -0.593 193 133 133
0.22496 -0.308404 -0.592 174 110 108
0.445721 -0.253704 -0.487 188 146 130
0.444814 -0.252662 -0.485 186 145 127
0.448457 -0.250057 -0.48 194 148 132
0.45474 -0.248494 -0.477 194 147 127
0.456557 -0.248494 -0.477 197 152 129
0.461811 -0.246931 -0.474 194 148 125
0.465342 -0.24641 -0.473 196 148 126
0.469654 -0.245369 -0.471 193 145 123
0.472346 -0.245369 -0.471 190 143 123
0.117315 -0.323649 -0.619 191 140 136
0.117694 -0.312146 -0.597 193 141 128
0.119077 -0.306917 -0.587 189 135 125
0.12028 -0.304303 -0.582 190 136 126
0.12798 -0.29646 -0.567 177 117 109
0.12991 -0.295937 -0.566 184 125 117
0.14638 -0.294369 -0.563 178 118 110
0.153613 -0.293846 -0.562 179 116 111
0.1695 -0.295414 -0.565 158 97 92
0.186738 -0.300643 -0.575 149 91 90
0.194554 -0.304303 -0.582 136 80 79
0.204663 -0.309531 -0.592 120 66 64
0.2091 -0.3111 -0.595 126 72 70
0.210587 -0.311623 -0.596 145 91 89
0.211722 -0.311623 -0.596 158 104 102
0.223454 -0.309009 -0.591 177 116 113
0.44574 -0.25254 -0.483 188 151 132
0.452962 -0.249926 -0.478 194 147 127
0.45474 -0.249403 -0.477 193 146 126
0.459167 -0.248357 -0.475 195 149 126
0.460071 -0.248357 -0.475 196 150 127
0.120073 -0.304887 -0.581 188 133 126
0.123877 -0.300689 -0.573 192 135 126
0.127124 -0.298065 -0.568 179 118 113
0.219705 -0.30961 -0.59 178 117 114
0.22458 -0.310134 -0.591 168 105 100
0.22647 -0.311184 -0.593 158 95 90
0.250174 -0.325877 -0.621 144 126 142
0.4675 -0.2755 -0.525 170 137 132
0.445731 -0.255034 -0.486 181 142 125
0.456452 -0.249262 -0.475 197 150 130
0.463459 -0.247688 -0.472 197 151 128
0.464358 -0.247688 -0.472 194 148 125
0.465169 -0.247163 -0.471 191 145 121
0.466066 -0.247163 -0.471 192 146 122
0.468757 -0.247163 -0.471 190 144 121
0.471343 -0.246638 -0.47 192 147 124
0.475819 -0.246638 -0.47 180 135 114
0.494717 -0.250311 -0.477 161 123 110
0.1254 -0.3002 -0.57 179 120 114
0.142909 -0.295987 -0.562 190 127 120
0.149331 -0.295987 -0.562 187 127 119
0.183906 -0.30178 -0.573 154 90 91
0.192781 -0.305467 -0.58 136 80 79
0.20882 -0.31126 -0.591 157 103 101
0.21784 -0.30968 -0.588 178 114 114
0.221952 -0.310733 -0.59 174 111 104
0.22496 -0.311787 -0.592 159 96 89
0.245813 -0.324427 -0.616 106 84 87
0.253381 -0.329693 -0.626 188 173 192
0.46839 -0.277027 -0.526 170 137 132
0.453538 -0.265967 -0.505 173 140 131
0.445731 -0.25596 -0.486 181 144 126
0.446643 -0.253327 -0.481 199 152 136
0.450197 -0.25122 -0.477 196 149 131
0.472238 -0.247533 -0.47 190 148 124
0.477487 -0.247007 -0.469 183 135 113
0.484009 -0.24806 -0.471 173 132 114
0.116167 -0.3145 -0.595 185 141 130
0.116314 -0.311857 -0.59 190 137 131
0.12518 -0.300757 -0.569 179 120 114
0.135656 -0.297586 -0.563 192 129 122
0.157895 -0.297057 -0.562 172 107 103
0.162466 -0.297586 -0.563 166 103 96
0.167051 -0.298114 -0.564 167 102 96
0.168126 -0.298114 -0.564 160 99 94
0.4518 -0.265343 -0.502 170 136 127
0.448329 -0.261643 -0.495 183 143 133
0.457297 -0.250543 -0.474 193 148 127
0.4582 -0.250543 -0.474 192 147 126
0.460837 -0.250014 -0.473 196 150 127
0.489668 -0.250014 -0.473 167 128 111
0.114771 -0.327834 -0.618 193 143 136
0.116642 -0.310859 -0.586 191 136 131
0.130526 -0.299189 -0.564 185 125 115
0.17581 -0.30131 -0.568 150 91 87
0.201472 -0.310859 -0.586 116 58 57
0.212634 -0.310859 -0.586 182 116 117
0.445738 -0.257281 -0.485 188 147 129
0.445727 -0.255159 -0.481 192 149 130
0.447543 -0.254629 -0.48 197 152 133
0.451067 -0.252507 -0.476 196 149 133
0.483876 -0.249324 -0.47 172 131 113
0.114635 -0.325285 -0.611 191 138 132
0.129681 -0.300795 -0.565 188 125 118
0.137556 -0.299198 -0.562 191 131 123
0.165977 -0.300263 -0.564 168 103 101
0.181406 -0.304522 -0.572 144 86 82
0.195663 -0.309846 -0.582 132 79 75
0.201129 -0.311443 -0.585 116 58 56
0.216351 -0.312508 -0.587 180 110 112
0.242281 -0.32635 -0.613 110 80 92
0.450952 -0.26619 -0.5 174 140 131
0.448364 -0.262996 -0.494 180 144 132
0.445735 -0.256608 -0.482 184 141 125
0.44661 -0.25501 -0.479 196 150 135
0.44841 -0.254478 -0.478 195 149 133
0.458065 -0.251284 -0.472 196 151 130
0.459786 -0.250751 -0.471 197 150 130
0.460683 -0.250751 -0.471 195 148 128
0.463193 -0.249687 -0.469 191 144 124
0.505411 -0.256608 -0.482 155 119 105
0.113594 -0.330189 -0.618 191 140 136
0.114995 -0.314694 -0.589 188 134 132
0.137311 -0.299734 -0.561 188 128 120
0.150402 -0.300269 -0.562 177 117 109
0.152543 -0.300269 -0.562 184 121 116
0.156825 -0.300269 -0.562 176 113 108
0.1786 -0.304543 -0.57 144 86 82
0.19711 -0.311489 -0.583 122 69 63
0.199672 -0.312023 -0.584 113 58 53
0.204471 -0.312557 -0.585 172 108 108
0.207459 -0.312023 -0.584 177 109 108
0.449234 -0.265006 -0.496 179 143 131
0.448364 -0.263937 -0.494 178 142 130
0.445698 -0.255923 -0.479 193 147 132
0.44661 -0.255923 -0.479 195 149 134
0.451024 -0.253786 -0.475 197 150 130
0.452833 -0.253786 -0.475 195 150 129
0.453686 -0.253251 -0.474 199 154 133
0.457166 -0.252183 -0.472 194 149 128
0.458964 -0.252183 -0.472 197 152 131
0.468553 -0.25058 -0.469 196 149 129
0.47634 -0.249511 -0.467 179 136 117
0.48374 -0.25058 -0.469 168 126 110
0.50738 -0.25806 -0.483 157 124 109
0.11904 -0.308846 -0.576 188 134 124
0.137311 -0.300803 -0.561 187 127 117
0.142654 -0.300803 -0.561 191 128 121
0.152543 -0.301339 -0.562 180 120 112
0.153613 -0.301339 -0.562 179 119 111
0.168424 -0.302948 -0.565 169 105 103
0.170576 -0.302948 -0.565 152 88 86
0.17334 -0.30402 -0.567 153 92 89
0.181406 -0.306701 -0.572 138 83 78
0.184227 -0.307773 -0.574 134 79 76
0.200785 -0.313135 -0.584 131 76 73
0.231429 -0.321714 -0.6 116 76 77
0.366067 -0.346379 -0.646 222 228 252
0.378957 -0.346915 -0.647 156 173 219
0.420274 -0.347451 -0.648 209 216 242
0.430812 -0.347988 -0.649 154 164 191
0.473571 -0.348524 -0.65 133 159 208
0.451001 -0.267559 -0.499 174 141 132
0.445698 -0.256835 -0.479 190 147 130
0.451067 -0.255227 -0.476 197 150 130
0.4623 -0.251473 -0.469 189 142 122
0.472011 -0.250937 -0.468 190 145 124
0.47545 -0.250401 -0.467 183 138 119
0.484633 -0.251473 -0.469 162 123 108
0.494172 -0.253618 -0.473 157 121 109
0.503178 -0.256835 -0.479 151 119 104
0.1131 -0.3277 -0.609 194 143 139
0.11904 -0.309943 -0.576 188 134 124
0.132439 -0.302948 -0.563 187 129 118
0.134345 -0.30241 -0.562 189 131 120
0.14586 -0.301871 -0.561 186 126 118
0.160321 -0.302948 -0.563 166 103 98
0.162466 -0.302948 -0.563 169 106 101
0.176119 -0.306176 -0.569 148 90 86
0.23451 -0.325548 -0.605 114 78 82
0.2419 -0.330929 -0.615 115 83 88
0.383293 -0.34761 -0.646 115 138 190
0.425211 -0.348686 -0.648 209 217 230
0.431383 -0.348686 -0.648 101 120 162
0.448119 -0.349224 -0.649 80 107 162
0.4563 -0.272814 -0.507 167 138 132
0.45456 -0.2712 -0.504 170 137 130
0.451905 -0.269048 -0.5 171 138 131
0.45188 -0.255057 -0.474 196 151 128
0.45363 -0.254519 -0.473 191 146 123
0.455368 -0.253981 -0.472 198 153 130
0.457094 -0.253443 -0.471 199 154 133
0.46488 -0.251829 -0.468 193 146 126
0.471892 -0.25129 -0.467 181 136 115
0.47532 -0.250752 -0.466 185 140 121
0.489248 -0.252905 -0.47 157 119 108
0.50409 -0.257748 -0.479 152 116 104
0.128377 -0.30456 -0.564 189 129 119
0.136243 -0.30294 -0.561 183 125 114
0.152543 -0.30348 -0.562 178 118 110
0.168424 -0.3051 -0.565 160 99 96
0.170878 -0.30564 -0.566 150 89 86
0.211909 -0.31536 -0.584 179 112 106
0.2261 -0.3213 -0.595 123 78 75
0.42702 -0.34938 -0.647 207 215 234
0.429485 -0.34938 -0.647 183 191 210
0.4536 -0.34992 -0.648 197 206 221
0.490491 -0.29808 -0.552 158 130 129
0.451046 -0.26892 -0.498 173 139 129
0.447511 -0.26514 -0.491 180 143 127
0.445741 -0.26136 -0.484 192 149 132
0.445698 -0.25866 -0.479 190 149 129
0.446589 -0.25812 -0.478 189 148 128
0.45881 -0.2538 -0.47 196 151 128
0.47532 -0.25164 -0.466 187 142 123
0.476208 -0.25164 -0.466 185 140 121
0.497023 -0.25596 -0.474 150 117 100
0.112571 -0.325143 -0.6 195 146 141
0.115448 -0.314305 -0.58 189 142 134
0.125376 -0.306176 -0.565 189 131 120
0.127529 -0.306176 -0.565 189 131 120
0.133274 -0.30455 -0.562 191 133 122
0.136243 -0.304009 -0.561 185 127 116
0.143723 -0.304009 -0.561 186 126 118
0.146929 -0.304009 -0.561 182 123 115
0.156825 -0.30455 -0.562 180 120 112
0.176119 -0.308344 -0.569 147 89 87
0.200097 -0.315389 -0.582 132 77 74
0.211909 -0.316472 -0.584 173 108 102
0.213386 -0.317014 -0.585 169 104 100
0.220829 -0.319724 -0.59 147 83 83
0.386386 -0.349529 -0.645 211 225 255
0.42209 -0.350612 -0.647 208 220 234
0.434414 -0.350612 -0.647 69 95 152
0.441809 -0.350612 -0.647 65 100 168
0.446738 -0.350612 -0.647 69 106 176
0.461006 -0.351154 -0.648 198 201 218
0.473349 -0.351154 -0.648 76 111 167
0.465123 -0.281249 -0.519 166 135 130
0.460723 -0.277997 -0.513 166 136 128
0.447533 -0.265533 -0.49 180 143 125
0.44661 -0.259572 -0.479 192 151 131
0.449171 -0.256863 -0.474 195 153 131
0.452729 -0.256321 -0.473 195 150 131
0.4553 -0.255237 -0.471 198 153 134
0.460423 -0.253611 -0.468 194 149 128
0.47177 -0.252528 -0.466 183 138 119
0.4743 -0.251986 -0.465 187 141 125
0.475186 -0.251986 -0.465 184 139 120
0.482567 -0.25307 -0.467 165 127 114
0.4891 -0.254153 -0.469 160 124 112
0.499881 -0.257405 -0.475 149 117 106
0.133274 -0.305621 -0.562 190 130 122
0.1698 -0.307796 -0.566 150 89 86
0.210435 -0.317041 -0.583 167 104 97
0.211909 -0.317585 -0.584 167 104 97
0.223081 -0.322479 -0.593 132 82 73
0.37352 -0.350213 -0.644 114 136 193
0.42636 -0.351301 -0.646 211 217 239
0.434973 -0.351301 -0.646 46 84 149
0.460294 -0.351845 -0.647 192 198 220
0.494934 -0.302902 -0.557 161 133 129
0.459 -0.277343 -0.51 166 136 128
0.445714 -0.261029 -0.48 189 148 126
0.461314 -0.254503 -0.468 195 148 128
0.475186 -0.252871 -0.465 183 140 123
0.478729 -0.252871 -0.465 172 130 116
1.16016 -0.352932 -0.649 205 209 194
0.122364 -0.308874 -0.566 190 133 124
0.1243 -0.308329 -0.565 192 133 125
0.125376 -0.308329 -0.565 190 131 123
0.13838 -0.306146 -0.561 188 128 120
0.141586 -0.306146 -0.561 191 131 123
0.162754 -0.307783 -0.564 161 100 97
0.166271 -0.308329 -0.565 162 103 97
0.17118 -0.30942 -0.567 147 88 84
0.173646 -0.309966 -0.568 144 85 81
0.178913 -0.311603 -0.571 141 83 79
0.191015 -0.315423 -0.578 130 75 70
0.196095 -0.316514 -0.58 128 75 69
0.199753 -0.31706 -0.581 133 80 74
0.207104 -0.318151 -0.583 157 96 93
0.21672 -0.32088 -0.588 148 87 84
0.223081 -0.323609 -0.593 123 77 77
0.225345 -0.325246 -0.596 115 69 69
0.22724 -0.326337 -0.598 113 73 74
0.371715 -0.350894 -0.643 125 146 201
0.37539 -0.350894 -0.643 113 134 191
0.423243 -0.351986 -0.645 214 219 238
0.424471 -0.351986 -0.645 214 219 238
0.444817 -0.352531 -0.646 76 112 174
0.446048 -0.352531 -0.646 111 147 209
0.454616 -0.274494 -0.503 172 139 130
0.452857 -0.272857 -0.5 177 140 132
0.445727 -0.262489 -0.481 190 147 131
0.449214 -0.259214 -0.475 199 154 135
0.45267 -0.257577 -0.472 198 153 132
0.458727 -0.25594 -0.469 190 143 123
0.467214 -0.253757 -0.465 188 141 123
0.468986 -0.253757 -0.465 191 144 126
0.470757 -0.253757 -0.465 185 138 120
0.476071 -0.253757 -0.465 184 138 122
0.111429 -0.328571 -0.6 197 147 138
0.125376 -0.309405 -0.565 190 133 124
0.130294 -0.30831 -0.563 186 128 117
0.159249 -0.30831 -0.563 158 95 90
0.194654 -0.317071 -0.579 124 71 65
0.19754 -0.318167 -0.581 131 78 72
0.210796 -0.31981 -0.584 163 99 90
0.221577 -0.32419 -0.592 133 82 79
0.40664 -0.352667 -0.644 91 135 200
0.407867 -0.352667 -0.644 94 137 205
0.441671 -0.353214 -0.645 38 81 159
0.462044 -0.353762 -0.646 178 185 211
0.464505 -0.353762 -0.646 94 118 162
0.453763 -0.274357 -0.501 178 141 133
0.446657 -0.266143 -0.486 183 144 129
0.477699 -0.254095 -0.464 178 135 119
0.485084 -0.25519 -0.466 162 124 113
0.487014 -0.255738 -0.467 162 124 113
0.493724 -0.257381 -0.47 162 123 108
0.111243 -0.329165 -0.599 189 148 142
0.111986 -0.321471 -0.585 196 144 133
0.11955 -0.31213 -0.568 190 135 128
0.159531 -0.309931 -0.564 155 94 89
0.160606 -0.309931 -0.564 154 93 88
0.17118 -0.31158 -0.567 141 82 78
0.177826 -0.313778 -0.571 141 83 79
0.203423 -0.319823 -0.582 148 87 84
0.212634 -0.322021 -0.586 156 93 86
0.39866 -0.353344 -0.643 162 175 209
0.408458 -0.353344 -0.643 87 130 199
0.47681 -0.354992 -0.646 91 136 195
0.445678 -0.262672 -0.478 195 153 137
0.445654 -0.262123 -0.477 195 153 137
0.452609 -0.258826 -0.471 198 151 133
0.459343 -0.256078 -0.466 191 144 124
0.11016 -0.337474 -0.612 199 141 137
0.118677 -0.313763 -0.569 191 137 127
0.13838 -0.309351 -0.561 185 127 116
0.142654 -0.309351 -0.561 177 119 108
0.146929 -0.309351 -0.561 175 117 106
0.153613 -0.309903 -0.562 169 111 100
0.182814 -0.315969 -0.573 134 79 74
0.1972 -0.319829 -0.58 129 74 69
0.211518 -0.323137 -0.586 153 92 87
0.217457 -0.325343 -0.59 133 82 79
0.429279 -0.354569 -0.643 77 105 168
0.449573 -0.35512 -0.644 95 109 156
0.479757 -0.355671 -0.645 129 156 201
0.482214 -0.355671 -0.645 172 184 210
0.492269 -0.305491 -0.554 164 132 133
0.454669 -0.276817 -0.502 173 139 130
0.449125 -0.260826 -0.473 192 146 130
0.461118 -0.256966 -0.466 192 145 127
0.462006 -0.256966 -0.466 192 145 127
0.468861 -0.255863 -0.464 190 143 127
0.471378 -0.255311 -0.463 187 141 118
0.489683 -0.257517 -0.467 166 124 110
0.49641 -0.259171 -0.47 153 119 110
0.115831 -0.315953 -0.571 194 142 131
0.118469 -0.314293 -0.568 191 137 127
0.132204 -0.310973 -0.562 185 127 116
0.14586 -0.31042 -0.561 176 118 107
0.163043 -0.312633 -0.565 149 92 85
0.22914 -0.33366 -0.603 115 75 76
0.410269 -0.35524 -0.642 74 119 186
0.431729 -0.355793 -0.643 73 100 147
0.46184 -0.356347 -0.644 82 110 158
0.46552 -0.356347 -0.644 56 95 162
0.467973 -0.356347 -0.644 49 91 165
0.492043 -0.3569 -0.645 93 109 158
0.4945 -0.3569 -0.645 95 111 160
0.495823 -0.30876 -0.558 163 132 130
0.478443 -0.296033 -0.535 165 134 129
0.44936 -0.27224 -0.492 178 140 129
0.44574 -0.26726 -0.483 185 146 131
0.444746 -0.26394 -0.477 191 148 132
0.447366 -0.26228 -0.474 195 149 133
0.450814 -0.26062 -0.471 195 149 133
0.455074 -0.25896 -0.468 193 148 129
0.455966 -0.25896 -0.468 191 146 127
0.456857 -0.25896 -0.468 192 147 128
0.457749 -0.25896 -0.468 192 147 128
0.458455 -0.257853 -0.466 196 151 132
0.462786 -0.2573 -0.465 193 146 128
0.47226 -0.256193 -0.463 190 142 119
0.477551 -0.256193 -0.463 177 134 117
0.482118 -0.256747 -0.464 167 129 110
0.513674 -0.266707 -0.482 153 116 107
0.115629 -0.316486 -0.57 193 138 131
0.121071 -0.31371 -0.565 190 136 126
0.133274 -0.312044 -0.562 186 126 116
0.156031 -0.312599 -0.563 165 106 98
0.171482 -0.315375 -0.568 140 88 77
0.210402 -0.32537 -0.586 147 85 86
0.211879 -0.325925 -0.587 136 80 79
0.219692 -0.329256 -0.593 112 72 70
0.234508 -0.33925 -0.611 111 75 75
0.380952 -0.355352 -0.64 178 206 255
0.482693 -0.357573 -0.644 153 168 197
0.48392 -0.357573 -0.644 183 187 212
0.486373 -0.357573 -0.644 112 125 159
0.4876 -0.357573 -0.644 83 96 130
0.4945 -0.358129 -0.645 77 91 140
0.551476 -0.347579 -0.626 161 133 132
0.446422 -0.262628 -0.473 195 149 133
0.450872 -0.262072 -0.472 193 150 133
0.451648 -0.260962 -0.47 192 149 132
0.455074 -0.259851 -0.468 194 149 130
0.45677 -0.259296 -0.467 194 149 130
0.465205 -0.257075 -0.463 190 143 127
0.466087 -0.257075 -0.463 190 143 127
0.480197 -0.257075 -0.463 172 130 114
0.488634 -0.258741 -0.466 166 124 110
0.491462 -0.259296 -0.467 161 122 105
0.509411 -0.265404 -0.478 151 113 104
0.6894 -0.3498 -0.63 212 212 212
0.10987 -0.336514 -0.604 196 147 142
0.111029 -0.323143 -0.58 195 148 140
0.115629 -0.317571 -0.57 192 139 131
0.122148 -0.314786 -0.565 192 135 126
0.1392 -0.312 -0.56 180 122 111
0.163331 -0.315343 -0.566 148 93 86
0.172868 -0.317014 -0.569 140 88 77
0.382171 -0.356571 -0.64 200 220 253
0.38339 -0.356571 -0.64 221 241 255
0.38461 -0.356571 -0.64 222 234 255
0.394362 -0.356571 -0.64 232 233 253
0.50232 -0.3588 -0.644 46 76 138
0.489762 -0.306429 -0.55 163 132 127
0.463579 -0.286371 -0.514 171 138 133
0.44574 -0.2691 -0.483 185 148 132
0.444768 -0.266314 -0.478 192 148 135
0.450814 -0.262414 -0.471 196 150 134
0.45766 -0.260186 -0.467 194 149 130
0.459243 -0.259071 -0.465 194 147 131
0.472854 -0.256843 -0.461 182 137 116
0.494297 -0.260743 -0.468 160 123 105
0.500157 -0.262414 -0.471 155 119 107
0.109918 -0.33431 -0.598 188 154 145
0.115426 -0.318098 -0.569 192 139 133
0.11826 -0.31698 -0.567 189 135 123
0.122148 -0.315862 -0.565 190 136 126
0.151472 -0.314185 -0.562 164 112 98
0.167154 -0.317539 -0.568 142 90 79
0.172086 -0.318657 -0.57 141 89 78
0.187063 -0.322011 -0.576 132 79 73
0.189586 -0.32257 -0.577 130 80 73
0.1972 -0.324248 -0.58 128 81 73
0.198647 -0.324807 -0.581 124 77 69
0.222684 -0.33431 -0.598 119 73 76
0.47767 -0.297972 -0.533 164 135 131
0.452069 -0.277288 -0.496 170 136 126
0.450273 -0.27561 -0.493 174 136 125
0.4448 -0.268343 -0.48 181 141 129
0.444786 -0.267784 -0.479 188 146 132
0.44472 -0.266107 -0.476 188 146 130
0.45426 -0.262193 -0.469 194 148 132
0.454183 -0.261634 -0.468 195 149 133
0.457568 -0.260516 -0.466 199 152 136
0.475489 -0.257721 -0.461 174 131 112
0.48092 -0.25828 -0.462 168 127 109
0.124932 -0.315816 -0.563 189 135 123
0.143723 -0.314694 -0.561 171 115 100
0.14586 -0.314694 -0.561 169 113 100
0.152543 -0.315255 -0.562 163 106 95
0.16089 -0.316938 -0.565 144 92 81
0.172086 -0.319743 -0.57 141 88 80
0.173475 -0.320304 -0.571 140 87 79
0.180631 -0.321426 -0.573 136 83 75
0.188487 -0.32367 -0.577 130 75 70
0.191015 -0.32423 -0.578 128 75 71
0.47508 -0.360131 -0.642 62 111 187
0.48364 -0.360131 -0.642 190 195 217
0.450273 -0.27655 -0.493 170 136 126
0.447576 -0.273184 -0.487 178 144 132
0.44469 -0.266452 -0.475 190 147 131
0.445521 -0.26533 -0.473 195 152 135
0.44902 -0.264209 -0.471 199 150 133
0.45677 -0.261965 -0.467 194 149 130
0.4686 -0.25916 -0.462 185 139 123
0.468464 -0.258599 -0.461 185 139 123
0.470952 -0.258038 -0.46 182 139 120
0.479001 -0.258599 -0.461 171 128 111
0.484607 -0.259721 -0.463 173 132 114
0.1089 -0.340529 -0.605 189 149 141
0.112569 -0.321391 -0.571 191 144 136
0.124932 -0.316889 -0.563 186 132 120
0.13838 -0.315763 -0.561 178 122 107
0.142654 -0.315763 -0.561 171 115 100
0.144791 -0.315763 -0.561 171 115 100
0.149331 -0.316326 -0.562 167 111 98
0.162253 -0.318577 -0.566 144 91 83
0.178137 -0.321954 -0.572 132 82 75
0.192116 -0.325331 -0.578 126 75 74
0.201897 -0.328709 -0.584 124 76 76
0.204471 -0.329271 -0.585 122 74 74
0.214811 -0.333211 -0.592 112 72 70
0.223801 -0.338277 -0.601 113 72 68
0.439467 -0.360229 -0.64 43 91 155
0.471898 -0.360791 -0.641 69 116 186
0.503206 -0.361354 -0.642 49 82 149
0.461847 -0.28762 -0.511 167 137 127
0.450687 -0.26398 -0.469 196 153 134
0.467586 -0.259477 -0.461 185 139 123
0.479879 -0.259477 -0.461 176 133 116
0.108104 -0.34281 -0.607 191 148 141
0.124932 -0.317961 -0.563 183 129 117
0.129222 -0.317961 -0.563 181 127 115
0.136243 -0.316831 -0.561 182 126 113
0.13838 -0.316831 -0.561 183 127 114
0.140517 -0.316831 -0.561 173 117 102
0.150402 -0.317396 -0.562 162 105 94
0.157383 -0.318526 -0.564 149 95 85
0.16362 -0.32022 -0.567 145 92 84
0.209235 -0.332645 -0.589 114 70 69
0.2189 -0.337163 -0.597 111 72 73
0.253803 -0.357494 -0.633 161 167 199
0.381593 -0.359753 -0.637 136 157 200
0.390087 -0.359753 -0.637 238 238 250
0.432694 -0.360883 -0.639 65 108 176
0.437563 -0.360883 -0.639 57 102 167
0.441214 -0.360883 -0.639 61 106 174
0.532887 -0.339422 -0.601 162 135 126
0.467187 -0.292547 -0.518 167 137 129
0.454102 -0.263744 -0.467 191 148 129
0.470803 -0.259226 -0.459 187 144 127
0.479879 -0.260355 -0.461 179 136 119
0.48637 -0.261485 -0.463 169 127 111
0.4929 -0.262614 -0.465 160 120 108
0.115895 -0.320733 -0.566 187 135 124
0.120857 -0.3196 -0.564 187 135 124
0.133037 -0.3179 -0.561 181 128 112
0.14586 -0.3179 -0.561 171 115 102
0.151472 -0.318467 -0.562 167 111 98
0.153887 -0.319033 -0.563 155 101 89
0.157662 -0.320167 -0.565 150 96 86
0.177357 -0.3247 -0.573 131 80 76
0.18204 -0.325267 -0.574 128 79 75
0.19422 -0.329233 -0.581 119 74 68
0.195327 -0.329233 -0.581 119 74 68
0.202243 -0.3315 -0.585 117 73 70
0.203705 -0.332067 -0.586 116 72 69
0.25581 -0.358133 -0.632 167 172 202
0.379783 -0.3604 -0.636 130 149 189
0.432017 -0.361533 -0.638 126 165 222
0.45582 -0.3621 -0.639 209 207 218
0.489448 -0.362667 -0.64 108 116 137
0.461009 -0.288433 -0.509 169 136 129
0.456581 -0.284467 -0.502 170 136 126
0.444657 -0.2686 -0.474 192 151 133
0.445478 -0.267467 -0.472 197 152 133
0.447226 -0.2669 -0.471 192 149 130
0.449726 -0.2652 -0.468 195 153 131
0.454102 -0.264633 -0.467 193 150 131
0.458255 -0.262933 -0.464 186 141 122
0.46244 -0.2618 -0.462 192 147 128
0.46332 -0.2618 -0.462 195 150 131
0.469929 -0.2601 -0.459 187 144 125
0.490072 -0.262933 -0.464 160 123 107
0.4929 -0.2635 -0.465 158 120 107
0.114817 -0.321811 -0.566 188 136 123
0.115895 -0.321811 -0.566 187 135 124
0.121931 -0.320674 -0.564 189 136 122
0.123006 -0.320674 -0.564 189 136 122
0.128992 -0.319537 -0.562 183 125 113
0.15067 -0.320106 -0.563 162 106 93
0.157662 -0.321243 -0.565 149 95 85
0.160097 -0.321811 -0.566 150 95 88
0.16146 -0.32238 -0.567 148 93 86
0.181262 -0.326929 -0.575 129 82 76
0.190243 -0.329203 -0.579 121 77 68
0.202589 -0.333183 -0.586 114 73 67
0.209946 -0.336026 -0.591 114 73 69
0.22 -0.341143 -0.6 110 72 71
0.255405 -0.358769 -0.631 137 141 176
0.344775 -0.360474 -0.634 200 218 254
0.477729 -0.363317 -0.639 199 203 214
0.539093 -0.345691 -0.608 162 133 129
0.445735 -0.274051 -0.482 184 141 124
0.44462 -0.268934 -0.473 193 150 131
0.454905 -0.264954 -0.466 193 148 129
0.4557 -0.264386 -0.465 192 147 128
0.46244 -0.26268 -0.462 194 149 130
0.483391 -0.262111 -0.461 176 130 115
0.107688 -0.337722 -0.592 191 148 132
0.108256 -0.329165 -0.577 190 140 129
0.108976 -0.328024 -0.575 190 137 129
0.115895 -0.32289 -0.566 187 135 124
0.125781 -0.320608 -0.562 185 129 116
0.127922 -0.320608 -0.562 191 133 121
0.16146 -0.32346 -0.567 147 93 83
0.180167 -0.328024 -0.575 130 83 77
0.19856 -0.333158 -0.584 117 74 68
0.200014 -0.333729 -0.585 117 74 68
0.201472 -0.334299 -0.586 116 73 67
0.2044 -0.33544 -0.588 114 73 67
0.381605 -0.362252 -0.635 166 174 210
0.458752 -0.363964 -0.638 175 183 196
0.459968 -0.363964 -0.638 129 154 195
0.474077 -0.364534 -0.639 100 136 184
0.482597 -0.364534 -0.639 198 199 204
0.509352 -0.326312 -0.572 163 132 127
0.469892 -0.297218 -0.521 162 133 125
0.453013 -0.282956 -0.496 171 137 125
0.445521 -0.269835 -0.473 193 150 133
0.448007 -0.267553 -0.469 194 151 132
0.45472 -0.264701 -0.464 191 145 129
0.462559 -0.26413 -0.463 195 150 131
0.469054 -0.261849 -0.459 190 145 126
0.469777 -0.261278 -0.458 186 141 122
0.476049 -0.261849 -0.459 175 132 115
0.476923 -0.261849 -0.459 176 133 116
0.485148 -0.26299 -0.461 171 129 113
0.500537 -0.266983 -0.468 153 119 109
0.108787 -0.328547 -0.574 185 132 124
0.1102 -0.326257 -0.57 183 131 120
0.118709 -0.322823 -0.564 189 137 124
0.122788 -0.32225 -0.563 192 136 123
0.126851 -0.321678 -0.562 188 132 119
0.139449 -0.321106 -0.561 177 121 108
0.169125 -0.32683 -0.571 137 87 80
0.1716 -0.327402 -0.572 130 81 74
0.172991 -0.327974 -0.573 130 81 74
0.179071 -0.329119 -0.575 132 83 78
0.18914 -0.331409 -0.579 123 78 73
0.374966 -0.36289 -0.634 223 235 251
0.381605 -0.363462 -0.635 192 198 230
0.390071 -0.363462 -0.635 232 237 255
0.400957 -0.363462 -0.635 180 202 239
0.459247 -0.364607 -0.637 156 172 206
0.451212 -0.282184 -0.493 171 139 126
0.446276 -0.269019 -0.47 195 149 133
0.44622 -0.268447 -0.469 195 150 131
0.447113 -0.268447 -0.469 195 150 131
0.447051 -0.267874 -0.468 194 151 132
0.46068 -0.26444 -0.462 195 150 131
0.5025 -0.268447 -0.469 151 118 109
0.506613 -0.270164 -0.472 152 119 110
0.106419 -0.346869 -0.604 192 154 143
0.109114 -0.327343 -0.57 184 127 118
0.128763 -0.322174 -0.561 189 133 118
0.1392 -0.3216 -0.56 173 120 106
0.14586 -0.322174 -0.561 167 113 101
0.174387 -0.32964 -0.574 132 83 78
0.188037 -0.332511 -0.579 121 76 71
0.211011 -0.341126 -0.594 112 73 68
0.253397 -0.361226 -0.629 112 112 148
0.46727 -0.296906 -0.517 164 137 130
0.445431 -0.270489 -0.471 195 152 135
0.447875 -0.268191 -0.467 192 150 128
0.451354 -0.267617 -0.466 192 150 128
0.451271 -0.267043 -0.465 194 152 130
0.452952 -0.266469 -0.464 191 148 129
0.474139 -0.263023 -0.458 175 132 116
0.477629 -0.263023 -0.458 173 130 114
0.487782 -0.264746 -0.461 161 123 110
0.498398 -0.267617 -0.466 157 121 107
1.16104 -0.36984 -0.644 202 204 190
0.114614 -0.325548 -0.565 193 139 127
0.11656 -0.324971 -0.564 192 138 126
0.1309 -0.323243 -0.561 188 131 120
0.143723 -0.323243 -0.561 173 116 105
0.16203 -0.327852 -0.569 136 86 79
0.164486 -0.328429 -0.57 137 88 81
0.169421 -0.329581 -0.572 139 90 83
0.174387 -0.330733 -0.574 131 82 75
0.181892 -0.332462 -0.577 123 76 70
0.18441 -0.333038 -0.578 123 78 72
0.1909 -0.334767 -0.581 122 79 72
0.20988 -0.342257 -0.594 112 73 68
0.379197 -0.364729 -0.633 246 245 253
0.464583 -0.366457 -0.636 143 174 221
0.49322 -0.367033 -0.637 166 176 211
0.448504 -0.280605 -0.487 175 142 127
0.44472 -0.274267 -0.476 183 144 127
0.452952 -0.267352 -0.464 191 146 127
0.460561 -0.265624 -0.461 190 144 128
0.465557 -0.264471 -0.459 190 144 128
0.478501 -0.263895 -0.458 173 130 113
0.485848 -0.265048 -0.46 163 124 109
0.490416 -0.265624 -0.461 157 121 107
0.499286 -0.268505 -0.466 155 122 107
0.114614 -0.326624 -0.565 194 140 128
0.12364 -0.32489 -0.562 190 134 121
0.149597 -0.325468 -0.563 164 107 96
0.1634 -0.329514 -0.57 138 87 83
0.178286 -0.332983 -0.576 127 80 72
0.205443 -0.341654 -0.591 114 75 70
0.245817 -0.363044 -0.628 163 161 175
0.249803 -0.363622 -0.629 174 172 196
0.388843 -0.365934 -0.633 210 216 242
0.4716 -0.302922 -0.524 163 135 123
0.444433 -0.271127 -0.469 192 151 131
0.45374 -0.267658 -0.463 190 145 126
0.45628 -0.26708 -0.462 191 145 129
0.468905 -0.264768 -0.458 187 142 123
0.471363 -0.26419 -0.457 183 140 123
0.480246 -0.264768 -0.458 176 134 118
0.485666 -0.265346 -0.459 165 126 111
0.489352 -0.265924 -0.46 159 123 109
0.49519 -0.267658 -0.463 154 121 106
1.15924 -0.371715 -0.643 201 203 190
0.105141 -0.33524 -0.578 196 143 135
0.121499 -0.32596 -0.562 189 136 122
0.128763 -0.32538 -0.561 186 130 117
0.1328 -0.3248 -0.56 184 131 117
0.137067 -0.3248 -0.56 178 122 107
0.141333 -0.3248 -0.56 175 119 104
0.217293 -0.34916 -0.602 112 75 69
0.219166 -0.35032 -0.604 111 74 68
0.247013 -0.36424 -0.628 173 169 184
0.395451 -0.36656 -0.632 167 181 210
0.468089 -0.30102 -0.519 164 134 124
0.450317 -0.28478 -0.491 171 139 124
0.44462 -0.27434 -0.473 184 146 127
0.444486 -0.2726 -0.47 191 153 132
0.4554 -0.26796 -0.462 202 156 140
0.459683 -0.26738 -0.461 191 145 129
0.46206 -0.26622 -0.459 193 147 131
0.468032 -0.26564 -0.458 186 143 124
0.477456 -0.26506 -0.457 177 131 115
0.105507 -0.334013 -0.574 194 140 130
0.121499 -0.32703 -0.562 193 137 124
0.126626 -0.326449 -0.561 189 133 120
0.132563 -0.325285 -0.559 188 135 121
0.138133 -0.325867 -0.56 176 120 105
0.149597 -0.327612 -0.563 151 102 88
0.162314 -0.331686 -0.57 140 91 84
0.179694 -0.335759 -0.577 125 80 74
0.183626 -0.336923 -0.579 127 82 76
0.212432 -0.347979 -0.598 114 75 70
0.269311 -0.364854 -0.627 138 157 213
0.384009 -0.367182 -0.631 198 201 234
0.387025 -0.367764 -0.632 170 176 208
0.453461 -0.368928 -0.634 155 155 179
0.463852 -0.36951 -0.635 123 158 212
0.49454 -0.321793 -0.553 162 134 123
0.4734 -0.306082 -0.526 164 134 124
0.444433 -0.272913 -0.469 192 149 130
0.447875 -0.27175 -0.467 193 152 132
0.451976 -0.269422 -0.463 194 149 130
0.454622 -0.269422 -0.463 195 149 133
0.466288 -0.266512 -0.458 186 143 126
0.488289 -0.267094 -0.459 162 125 109
0.103256 -0.349702 -0.599 193 146 136
0.111386 -0.329852 -0.565 194 145 131
0.115281 -0.328685 -0.563 194 140 128
0.116353 -0.328685 -0.563 193 139 127
0.121283 -0.327517 -0.561 196 140 127
0.1264 -0.326933 -0.56 191 133 121
0.132563 -0.32635 -0.559 184 128 115
0.133628 -0.32635 -0.559 184 128 113
0.140267 -0.326933 -0.56 178 120 106
0.159862 -0.332188 -0.569 141 91 82
0.160946 -0.332188 -0.569 140 91 84
0.163687 -0.333355 -0.571 138 89 82
0.174994 -0.336274 -0.576 128 81 75
0.180006 -0.337442 -0.578 125 80 74
0.202066 -0.345031 -0.591 118 79 74
0.208666 -0.348534 -0.597 116 76 74
0.211293 -0.349118 -0.598 115 76 71
0.218737 -0.353789 -0.606 108 78 76
0.250203 -0.366049 -0.627 178 174 189
0.254573 -0.365465 -0.626 185 187 208
0.25815 -0.365465 -0.626 105 114 155
0.369 -0.3678 -0.63 241 245 254
0.386412 -0.368384 -0.631 171 178 207
0.459499 -0.370135 -0.634 146 168 217
0.460707 -0.370135 -0.634 116 138 187
0.46433 -0.370135 -0.634 127 163 223
0.470368 -0.370135 -0.634 159 181 228
0.460219 -0.295408 -0.506 166 136 125
0.445207 -0.272639 -0.467 193 147 131
0.446916 -0.272055 -0.466 192 151 133
0.489163 -0.267969 -0.459 161 124 106
0.102456 -0.352014 -0.601 199 151 141
0.106568 -0.332686 -0.568 198 141 132
0.11031 -0.330929 -0.565 197 145 132
0.119358 -0.329171 -0.562 196 139 128
0.121283 -0.328586 -0.561 197 141 128
0.141586 -0.328586 -0.561 178 120 106
0.142654 -0.328586 -0.561 179 121 107
0.153629 -0.331514 -0.566 148 94 82
0.178905 -0.338543 -0.578 125 80 75
0.208666 -0.349671 -0.597 116 76 74
0.260535 -0.366657 -0.626 90 104 153
0.366018 -0.368414 -0.629 233 235 247
0.387 -0.369 -0.63 184 190 214
0.3894 -0.369 -0.63 174 185 215
0.448419 -0.370171 -0.632 142 155 187
0.463597 -0.370757 -0.633 125 163 226
0.46842 -0.370757 -0.633 144 167 211
0.463793 -0.2993 -0.511 164 136 124
0.461129 -0.296957 -0.507 166 136 125
0.455753 -0.292271 -0.499 168 138 127
0.443637 -0.275871 -0.471 189 150 133
0.46527 -0.267671 -0.457 190 144 128
0.46614 -0.267671 -0.457 191 145 129
0.499794 -0.271771 -0.464 154 118 102
0.104231 -0.336706 -0.573 196 139 130
0.114209 -0.33083 -0.563 197 143 131
0.140267 -0.329067 -0.56 176 118 106
0.162599 -0.33553 -0.571 145 92 84
0.163973 -0.336118 -0.572 141 88 82
0.165063 -0.336118 -0.572 139 86 80
0.173897 -0.338469 -0.576 128 81 75
0.179214 -0.340231 -0.579 125 80 75
0.185686 -0.341994 -0.582 121 78 72
0.212707 -0.353747 -0.602 117 79 76
0.214209 -0.354334 -0.603 118 80 77
0.243452 -0.367262 -0.625 153 152 168
0.245034 -0.36785 -0.626 167 164 181
0.2625 -0.367262 -0.625 83 104 161
0.373207 -0.369612 -0.629 244 247 255
0.455642 -0.371375 -0.632 171 185 222
0.536067 -0.353747 -0.602 158 133 126
0.454414 -0.270892 -0.461 192 146 130
0.473457 -0.266779 -0.454 180 137 120
0.48529 -0.268542 -0.457 166 124 108
0.488097 -0.26913 -0.458 164 122 106
1.15146 -0.373726 -0.636 202 204 193
1.14905 -0.37255 -0.634 202 204 193
0.101877 -0.348409 -0.591 198 146 135
0.103868 -0.336618 -0.571 199 142 133
0.1053 -0.33426 -0.567 200 143 132
0.115076 -0.331312 -0.562 200 143 132
0.128304 -0.329544 -0.559 185 129 116
0.148789 -0.332491 -0.564 156 99 88
0.166733 -0.338387 -0.574 134 85 78
0.16892 -0.338387 -0.574 130 83 77
0.209714 -0.353714 -0.6 118 80 77
0.213413 -0.356072 -0.604 118 83 79
0.247024 -0.368452 -0.625 176 175 189
0.44771 -0.37199 -0.631 159 165 187
0.452517 -0.37199 -0.631 107 124 170
0.453719 -0.37199 -0.631 127 144 190
0.480922 -0.372579 -0.632 199 207 220
0.477 -0.312448 -0.53 162 133 125
0.443637 -0.277666 -0.471 182 143 126
0.444377 -0.275897 -0.468 192 151 133
0.478833 -0.268233 -0.455 170 128 112
0.484229 -0.268823 -0.456 162 120 106
0.48897 -0.270002 -0.458 163 124 109
0.10904 -0.333566 -0.564 202 145 134
0.115076 -0.332383 -0.562 198 144 134
0.12511 -0.330609 -0.559 188 130 118
0.154171 -0.335931 -0.568 147 93 81
0.159057 -0.337114 -0.57 147 94 86
0.247817 -0.369051 -0.624 177 173 187
0.248607 -0.36846 -0.623 186 182 196
0.249793 -0.36846 -0.623 190 185 205
0.252167 -0.36846 -0.623 190 185 215
0.265646 -0.369051 -0.624 84 113 169
0.390556 -0.371417 -0.628 121 142 197
0.493801 -0.325877 -0.551 162 132 124
0.45936 -0.29808 -0.504 166 134 123
0.453986 -0.292757 -0.495 172 138 126
0.450346 -0.289209 -0.489 171 137 125
0.445269 -0.276789 -0.468 193 150 133
0.446843 -0.275014 -0.465 188 147 129
0.465833 -0.2691 -0.455 191 148 129
0.469998 -0.268509 -0.454 187 141 125
0.470863 -0.268509 -0.454 183 137 121
0.485097 -0.269691 -0.456 164 122 106
0.490714 -0.270874 -0.458 157 120 102
0.502446 -0.274423 -0.464 151 118 101
0.0999629 -0.351847 -0.593 191 146 140
0.111865 -0.333453 -0.562 202 145 134
0.112935 -0.333453 -0.562 202 146 133
0.12298 -0.331673 -0.559 194 136 122
0.135757 -0.331673 -0.559 174 115 99
0.137887 -0.331673 -0.559 174 116 102
0.142909 -0.333453 -0.562 164 108 95
0.14638 -0.334047 -0.563 157 100 89
0.147714 -0.33464 -0.564 156 99 88
0.149052 -0.335233 -0.565 158 100 88
0.161794 -0.339387 -0.572 139 91 81
0.172001 -0.342353 -0.577 123 78 73
0.1734 -0.342947 -0.578 126 81 76
0.184894 -0.345913 -0.583 121 80 76
0.194981 -0.350067 -0.59 116 77 72
0.241487 -0.369647 -0.623 177 169 190
0.256913 -0.369647 -0.623 125 132 161
0.26522 -0.369647 -0.623 93 119 176
0.267593 -0.369647 -0.623 102 132 194
0.4542 -0.3738 -0.63 60 101 167
0.546471 -0.3649 -0.615 156 131 126
0.45758 -0.29726 -0.501 166 134 123
0.44368 -0.280053 -0.472 186 144 130
0.450212 -0.274713 -0.463 194 151 134
0.45178 -0.273527 -0.461 193 150 131
0.453317 -0.27234 -0.459 194 149 128
