ply
format ascii 1.0
comment Created by Open3D
element vertex 1278
property double x
property double y
property double z
property uchar red
property uchar green
property uchar blue
end_header
0.169638 -0.412137 -0.584 78 90 114
0.178231 -0.411431 -0.583 108 144 196
0.208214 -0.411431 -0.583 111 144 185
0.450874 -0.419194 -0.594 236 239 246
0.458794 -0.419194 -0.594 191 190 198
0.465583 -0.419194 -0.594 84 123 192
0.475433 -0.4199 -0.595 73 112 179
0.487585 -0.420606 -0.596 214 218 229
0.490677 -0.421311 -0.597 209 213 224
0.495586 -0.398729 -0.565 175 138 130
0.48367 -0.382497 -0.542 175 138 122
0.476652 -0.354974 -0.503 191 149 127
0.478565 -0.352151 -0.499 196 154 130
0.490532 -0.346506 -0.491 178 134 105
0.496144 -0.346506 -0.491 179 136 102
0.498014 -0.346506 -0.491 178 133 100
0.11284 -0.38636 -0.546 151 104 96
0.119553 -0.391313 -0.553 148 99 94
0.167127 -0.412542 -0.583 108 109 114
0.177121 -0.412542 -0.583 117 148 194
0.19012 -0.411834 -0.582 198 208 220
0.193446 -0.411834 -0.582 202 209 219
0.20564 -0.411834 -0.582 143 176 221
0.34664 -0.41608 -0.588 122 152 202
0.34776 -0.41608 -0.588 112 142 192
0.454633 -0.419618 -0.593 240 244 255
0.467846 -0.420326 -0.594 105 146 202
0.470109 -0.420326 -0.594 145 185 237
0.47124 -0.420326 -0.594 88 127 186
0.474634 -0.420326 -0.594 84 120 178
0.497802 -0.421741 -0.596 99 137 186
0.500072 -0.421741 -0.596 79 121 171
0.501208 -0.421741 -0.596 102 142 194
0.507167 -0.421033 -0.595 86 121 175
0.494214 -0.396974 -0.561 174 137 129
0.491043 -0.392729 -0.555 171 137 127
0.473862 -0.36867 -0.521 184 146 127
0.473107 -0.366547 -0.518 186 148 127
0.478554 -0.352394 -0.498 193 151 126
0.489533 -0.346733 -0.49 180 136 107
0.498014 -0.347441 -0.491 174 131 97
0.0613067 -0.377467 -0.532 202 157 134
0.0658743 -0.374629 -0.528 206 161 138
0.0776476 -0.37321 -0.526 203 157 133
0.0858257 -0.373919 -0.527 192 145 119
0.0911895 -0.375338 -0.529 185 133 112
0.106457 -0.383143 -0.54 167 111 98
0.108916 -0.384562 -0.542 162 106 93
0.11284 -0.3874 -0.546 150 103 95
0.15269 -0.413652 -0.583 47 58 88
0.153537 -0.412943 -0.582 54 65 95
0.19754 -0.412233 -0.581 120 137 167
0.223377 -0.412943 -0.582 230 232 245
0.427209 -0.419329 -0.591 200 216 241
0.444846 -0.420038 -0.592 180 200 225
0.445973 -0.420038 -0.592 213 233 255
0.456892 -0.420748 -0.593 230 232 244
0.4947 -0.422167 -0.595 154 166 180
0.481254 -0.381014 -0.537 176 138 125
0.475592 -0.37179 -0.524 182 143 126
0.472553 -0.362567 -0.511 191 150 128
0.47568 -0.3576 -0.504 188 146 122
0.477606 -0.353343 -0.498 193 151 126
0.485856 -0.348376 -0.491 191 147 118
0.489533 -0.347667 -0.49 185 142 110
0.0576838 -0.381326 -0.536 205 159 136
0.0593914 -0.379191 -0.533 202 160 136
0.0706343 -0.374211 -0.526 208 162 139
0.0765 -0.3735 -0.525 197 153 126
0.0911895 -0.376346 -0.529 180 128 107
0.0993571 -0.380614 -0.535 178 123 103
0.101774 -0.382037 -0.537 172 116 101
0.108916 -0.385594 -0.542 163 105 91
0.111595 -0.387729 -0.545 151 104 96
0.140857 -0.412629 -0.58 65 68 87
0.152429 -0.414051 -0.582 51 66 95
0.182838 -0.412629 -0.58 136 154 190
0.206393 -0.41334 -0.581 202 223 252
0.211927 -0.41334 -0.581 181 196 225
0.21414 -0.41334 -0.581 148 167 199
0.34605 -0.417609 -0.587 151 175 219
0.352759 -0.417609 -0.587 216 214 228
0.46627 -0.421166 -0.592 176 206 244
0.4947 -0.4233 -0.595 176 188 202
0.498394 -0.422589 -0.594 114 149 189
0.5049 -0.4233 -0.595 118 150 188
0.501071 -0.409071 -0.575 172 140 129
0.486937 -0.389863 -0.548 169 137 126
0.482914 -0.384171 -0.54 173 135 124
0.475592 -0.372789 -0.524 182 143 126
0.472263 -0.367097 -0.516 187 146 128
0.472643 -0.362117 -0.509 192 149 130
0.472717 -0.360694 -0.507 194 152 130
0.47854 -0.35358 -0.497 193 151 126
0.478522 -0.352869 -0.496 194 152 127
0.486733 -0.3486 -0.49 184 140 111
0.490397 -0.347889 -0.489 185 142 110
0.501755 -0.349311 -0.491 177 130 100
0.05928 -0.379493 -0.532 203 156 136
0.0795 -0.3745 -0.525 200 156 131
0.0901819 -0.377353 -0.529 175 128 98
0.100564 -0.382347 -0.536 173 117 100
0.104207 -0.384487 -0.539 167 114 96
0.139511 -0.41302 -0.579 89 92 111
0.14356 -0.41516 -0.582 84 86 109
0.16102 -0.414447 -0.581 164 159 166
0.16434 -0.414447 -0.581 162 157 161
0.177314 -0.413733 -0.58 150 170 205
0.191676 -0.413733 -0.58 209 216 232
0.203829 -0.413733 -0.58 191 208 236
0.449723 -0.42158 -0.591 236 240 251
0.46627 -0.422293 -0.592 207 228 255
0.480481 -0.381633 -0.535 175 137 126
0.472329 -0.367367 -0.515 188 145 128
0.472503 -0.365227 -0.512 189 147 125
0.4726 -0.3638 -0.51 193 150 131
0.472749 -0.360947 -0.506 193 151 129
0.481223 -0.35096 -0.492 193 149 124
0.482115 -0.350247 -0.491 192 148 123
0.509526 -0.352387 -0.494 169 123 99
0.517534 -0.355953 -0.499 160 119 97
0.0550286 -0.386229 -0.54 199 155 130
0.0582667 -0.380507 -0.532 203 156 138
0.0618514 -0.377646 -0.528 204 158 132
0.0628571 -0.377646 -0.528 204 158 132
0.09576 -0.380507 -0.532 178 122 105
0.0969552 -0.381222 -0.533 177 121 104
0.100564 -0.383368 -0.536 170 117 101
0.143313 -0.415553 -0.581 91 92 112
0.211562 -0.414838 -0.58 216 223 251
0.212667 -0.414838 -0.58 186 196 223
0.441095 -0.42199 -0.59 154 177 208
0.492737 -0.424851 -0.594 203 215 229
0.497555 -0.424136 -0.593 130 159 193
0.482914 -0.386229 -0.54 172 136 124
0.478911 -0.379791 -0.531 178 140 127
0.474854 -0.372639 -0.521 185 144 126
0.47402 -0.371209 -0.519 186 145 127
0.472449 -0.366917 -0.513 190 147 128
0.472503 -0.366202 -0.512 190 147 128
0.472553 -0.365487 -0.511 191 148 129
0.472682 -0.363341 -0.508 197 155 133
0.477593 -0.355473 -0.497 190 145 122
0.482067 -0.350467 -0.49 193 151 126
0.493112 -0.349036 -0.488 183 140 106
0.494042 -0.349036 -0.488 182 139 105
0.500643 -0.349751 -0.489 172 127 98
0.618114 -0.414838 -0.58 206 205 200
0.0563457 -0.382237 -0.533 201 153 130
0.0599533 -0.379369 -0.529 204 158 132
0.0693676 -0.375783 -0.524 206 159 131
0.0703657 -0.375783 -0.524 206 159 131
0.07336 -0.375783 -0.524 197 150 124
0.0803467 -0.375783 -0.524 195 147 124
0.0813448 -0.375783 -0.524 195 147 124
0.0845 -0.3765 -0.525 190 140 113
0.0890057 -0.378651 -0.528 181 129 108
0.104207 -0.38654 -0.539 167 114 100
0.12276 -0.400166 -0.558 136 98 95
0.141962 -0.415943 -0.58 72 73 93
0.149953 -0.41666 -0.581 96 103 121
0.162671 -0.415226 -0.579 173 175 188
0.169581 -0.415943 -0.58 89 113 157
0.174803 -0.415226 -0.579 153 171 207
0.178111 -0.415226 -0.579 124 152 191
0.2204 -0.415943 -0.58 205 215 240
0.442219 -0.423114 -0.59 175 200 231
0.478674 -0.424549 -0.592 150 166 189
0.502073 -0.425266 -0.593 153 177 213
0.504332 -0.425266 -0.593 125 147 184
0.492452 -0.400883 -0.559 170 137 128
0.48944 -0.395863 -0.552 170 138 127
0.47402 -0.372197 -0.519 187 146 128
0.473792 -0.360006 -0.502 198 153 130
0.476632 -0.355703 -0.496 190 145 122
0.478474 -0.354269 -0.494 197 152 129
0.484809 -0.350683 -0.489 190 148 123
0.490247 -0.349249 -0.487 185 142 110
0.49303 -0.349249 -0.487 183 140 108
0.0570381 -0.381095 -0.53 200 155 134
0.0579381 -0.380376 -0.529 201 156 135
0.0673714 -0.376781 -0.524 209 162 136
0.0683695 -0.376781 -0.524 207 160 134
0.0723619 -0.376781 -0.524 202 154 131
0.07336 -0.376781 -0.524 198 150 127
0.0911895 -0.380376 -0.529 182 126 109
0.0969552 -0.383252 -0.533 175 119 104
0.0981543 -0.383971 -0.534 172 119 103
0.0993571 -0.38469 -0.535 171 118 102
0.146381 -0.417048 -0.58 112 114 127
0.1508 -0.417048 -0.58 123 129 143
0.153849 -0.416329 -0.579 95 105 130
0.157157 -0.416329 -0.579 111 122 154
0.160466 -0.416329 -0.579 174 176 191
0.161569 -0.416329 -0.579 179 181 196
0.191015 -0.41561 -0.578 162 172 199
0.193217 -0.41561 -0.578 125 135 162
0.218917 -0.416329 -0.579 176 186 211
0.464695 -0.424238 -0.59 212 225 244
0.474854 -0.374624 -0.521 183 145 126
0.479384 -0.35449 -0.493 196 152 127
0.481223 -0.353771 -0.492 196 152 127
0.484747 -0.350895 -0.488 189 148 120
0.491174 -0.350176 -0.487 184 140 111
0.49303 -0.350176 -0.487 183 140 108
0.5084 -0.353771 -0.492 170 125 102
0.521429 -0.359524 -0.5 152 117 97
0.525515 -0.361681 -0.503 151 116 96
0.0499429 -0.397966 -0.552 202 156 132
0.0911895 -0.381384 -0.529 183 127 110
0.0945686 -0.382826 -0.531 176 120 103
0.121261 -0.40085 -0.556 135 99 99
0.164592 -0.41671 -0.578 180 188 207
0.172299 -0.41671 -0.578 109 144 186
0.174501 -0.41671 -0.578 130 159 199
0.186289 -0.41599 -0.577 212 218 244
0.200924 -0.41671 -0.578 223 228 250
0.345394 -0.421036 -0.584 233 241 252
0.4396 -0.42392 -0.588 146 172 205
0.458298 -0.424641 -0.589 224 231 250
0.460542 -0.424641 -0.589 223 230 248
0.462786 -0.424641 -0.589 222 230 249
0.47481 -0.425362 -0.59 206 212 228
0.490249 -0.426083 -0.591 211 218 234
0.4925 -0.426083 -0.591 175 191 214
0.494461 -0.426804 -0.592 154 170 193
0.494904 -0.405896 -0.563 170 137 128
0.473778 -0.362639 -0.503 190 148 124
0.478445 -0.35543 -0.493 194 150 125
0.481133 -0.353267 -0.49 188 144 119
0.484747 -0.351825 -0.488 191 147 122
0.503437 -0.352546 -0.489 172 128 101
0.516312 -0.357592 -0.496 156 120 96
0.0497619 -0.397571 -0.55 204 156 133
0.055019 -0.383114 -0.53 202 156 130
0.0558171 -0.381669 -0.528 202 156 130
0.0652505 -0.378054 -0.523 206 160 134
0.0672429 -0.378054 -0.523 204 158 132
0.0742162 -0.378054 -0.523 198 151 121
0.078201 -0.378054 -0.523 198 149 119
0.0945686 -0.383837 -0.531 175 119 102
0.111595 -0.393957 -0.545 155 105 94
0.11284 -0.39468 -0.546 151 104 94
0.136594 -0.416366 -0.576 109 100 101
0.165693 -0.417811 -0.578 170 178 199
0.178595 -0.417089 -0.577 115 145 183
0.186289 -0.417089 -0.577 209 216 242
0.423199 -0.424317 -0.587 232 236 248
0.454932 -0.425763 -0.589 193 205 231
0.493626 -0.427209 -0.591 159 174 195
0.499254 -0.427209 -0.591 122 151 191
0.501506 -0.427209 -0.591 120 149 191
0.503757 -0.427209 -0.591 86 113 156
0.496463 -0.409137 -0.566 165 136 128
0.493333 -0.4048 -0.56 169 137 126
0.4765 -0.3795 -0.525 178 141 125
0.47402 -0.375163 -0.519 183 144 127
0.472682 -0.367211 -0.508 193 150 131
0.472717 -0.366489 -0.507 193 150 131
0.475688 -0.358537 -0.496 193 148 125
0.475671 -0.357814 -0.495 191 146 123
0.475651 -0.357091 -0.494 192 147 124
0.481958 -0.352754 -0.488 194 150 125
0.502408 -0.352754 -0.488 173 128 97
0.0501629 -0.393546 -0.543 207 159 139
0.0522848 -0.386298 -0.533 201 155 132
0.0593867 -0.379775 -0.524 209 163 137
0.0603848 -0.379775 -0.524 211 165 141
0.0691029 -0.378326 -0.522 203 156 130
0.0710914 -0.378326 -0.522 202 155 129
0.0969552 -0.386298 -0.533 173 120 102
0.104013 -0.389922 -0.538 166 113 97
0.106457 -0.391371 -0.54 165 112 96
0.107685 -0.392096 -0.541 163 112 95
0.109117 -0.393546 -0.543 161 110 93
0.13793 -0.418188 -0.577 111 103 101
0.149179 -0.418912 -0.578 156 155 163
0.156886 -0.418912 -0.578 73 91 127
0.157987 -0.418912 -0.578 70 88 126
0.166506 -0.418188 -0.577 141 165 193
0.170902 -0.418188 -0.577 105 142 187
0.181577 -0.417463 -0.576 204 213 230
0.44408 -0.42616 -0.588 237 239 254
0.4452 -0.42616 -0.588 232 234 249
0.4508 -0.42616 -0.588 131 150 183
0.45192 -0.42616 -0.588 127 146 179
0.45976 -0.42616 -0.588 231 234 251
0.476249 -0.426885 -0.589 221 224 233
0.482676 -0.42761 -0.59 101 118 148
0.484924 -0.42761 -0.59 144 159 188
0.495038 -0.42761 -0.59 112 132 159
0.49841 -0.42761 -0.59 110 141 185
0.504029 -0.42761 -0.59 90 118 165
0.498886 -0.413114 -0.57 164 136 125
0.494904 -0.408041 -0.563 169 137 124
0.488553 -0.399344 -0.551 169 136 131
0.47158 -0.370353 -0.511 189 146 127
0.47282 -0.364555 -0.503 188 146 124
0.484611 -0.352234 -0.486 189 145 120
0.503337 -0.353684 -0.488 170 125 94
0.504267 -0.353684 -0.488 171 126 95
0.506231 -0.354409 -0.489 170 126 97
0.0632581 -0.380047 -0.523 208 161 135
0.0720857 -0.37932 -0.522 197 150 122
0.07308 -0.37932 -0.522 198 151 123
0.0760629 -0.37932 -0.522 195 148 118
0.0865 -0.3815 -0.525 180 129 108
0.107685 -0.393127 -0.541 163 112 93
0.11284 -0.39676 -0.546 149 105 92
0.13903 -0.419287 -0.577 111 109 114
0.142573 -0.420013 -0.578 124 124 132
0.157713 -0.419287 -0.577 74 93 126
0.168411 -0.41856 -0.576 100 138 183
0.184869 -0.41856 -0.576 171 179 202
0.196937 -0.41856 -0.576 232 233 251
0.206071 -0.419287 -0.577 224 227 242
0.20827 -0.419287 -0.577 234 237 252
0.445561 -0.426553 -0.587 224 229 249
0.451151 -0.426553 -0.587 153 172 204
0.4676 -0.42728 -0.588 223 229 241
0.47737 -0.428007 -0.589 215 221 233
0.500657 -0.428733 -0.59 111 145 193
0.488553 -0.400393 -0.551 170 137 132
0.483943 -0.3924 -0.54 174 142 131
0.482277 -0.39022 -0.537 174 142 131
0.4815 -0.388767 -0.535 175 141 129
0.471751 -0.36842 -0.507 189 148 128
0.471814 -0.366967 -0.505 190 148 126
0.472857 -0.363333 -0.5 195 150 129
0.472863 -0.36188 -0.498 198 153 130
0.478374 -0.356793 -0.491 196 152 127
0.485462 -0.352433 -0.485 190 146 119
0.485383 -0.351707 -0.484 189 145 118
0.490081 -0.352433 -0.485 184 139 108
0.4947 -0.352433 -0.485 184 136 100
0.500349 -0.35316 -0.486 173 124 94
0.502306 -0.353887 -0.487 172 125 97
0.503233 -0.353887 -0.487 172 125 97
0.0456543 -0.401443 -0.551 199 154 131
0.0601543 -0.380314 -0.522 209 163 139
0.0749248 -0.379586 -0.521 198 151 123
0.0780514 -0.380314 -0.522 191 144 118
0.0811895 -0.381043 -0.523 186 139 113
0.0831819 -0.381043 -0.523 185 135 110
0.101395 -0.389786 -0.535 171 118 102
0.115762 -0.400714 -0.55 146 104 92
0.133933 -0.4182 -0.574 107 96 90
0.136594 -0.419657 -0.576 115 109 109
0.141228 -0.420386 -0.577 124 123 131
0.143426 -0.420386 -0.577 137 137 147
0.147822 -0.420386 -0.577 162 156 160
0.151119 -0.420386 -0.577 164 160 175
0.158812 -0.420386 -0.577 101 116 149
0.166217 -0.419657 -0.576 168 190 213
0.185643 -0.418929 -0.575 150 166 199
0.196937 -0.419657 -0.576 235 236 254
0.2112 -0.419657 -0.576 234 233 239
0.419529 -0.426214 -0.585 150 167 193
0.428059 -0.426943 -0.586 168 187 227
0.435872 -0.426943 -0.586 147 175 222
0.438105 -0.426943 -0.586 163 187 225
0.466805 -0.427671 -0.587 220 228 241
0.46984 -0.4284 -0.588 223 227 238
0.47544 -0.4284 -0.588 220 224 235
0.489711 -0.429129 -0.589 204 216 240
0.493077 -0.429129 -0.589 165 180 209
0.494199 -0.429129 -0.589 142 157 186
0.49841 -0.429857 -0.59 104 140 190
0.501781 -0.429857 -0.59 105 141 193
0.483175 -0.391971 -0.538 173 141 130
0.479019 -0.386143 -0.53 175 142 127
0.475766 -0.380314 -0.522 179 142 124
0.47239 -0.374486 -0.514 183 145 126
0.47158 -0.3723 -0.511 187 149 128
0.471629 -0.371571 -0.51 185 147 126
0.479115 -0.354814 -0.487 192 150 126
0.492758 -0.352629 -0.484 177 137 102
0.507055 -0.355543 -0.488 164 123 91
0.517053 -0.359914 -0.494 153 117 93
0.0535 -0.3835 -0.525 202 156 132
0.0853371 -0.38277 -0.524 183 133 108
0.0920229 -0.385691 -0.528 177 120 101
0.0977867 -0.388613 -0.532 172 116 99
0.140129 -0.421485 -0.577 124 120 134
0.141228 -0.421485 -0.577 129 125 139
0.143426 -0.421485 -0.577 147 141 153
0.155246 -0.420754 -0.576 172 179 197
0.163738 -0.420024 -0.575 192 190 212
0.17548 -0.419293 -0.574 93 135 185
0.177667 -0.419293 -0.574 180 210 246
0.194405 -0.420024 -0.575 230 233 248
0.200976 -0.420024 -0.575 240 240 252
0.426214 -0.427329 -0.585 209 221 245
0.4732 -0.42952 -0.588 223 232 241
0.4844 -0.42952 -0.588 131 147 173
0.486346 -0.43025 -0.589 118 139 166
0.493077 -0.43025 -0.589 177 192 225
0.495321 -0.43025 -0.589 107 134 177
0.491751 -0.406875 -0.557 167 138 124
0.474093 -0.378387 -0.518 178 139 122
0.471894 -0.365969 -0.501 196 154 132
0.4774 -0.357933 -0.49 196 151 128
0.479057 -0.355011 -0.486 194 152 127
0.482617 -0.35355 -0.484 187 146 118
0.495524 -0.35355 -0.484 181 137 102
0.501167 -0.354281 -0.485 176 130 96
0.509957 -0.357203 -0.489 160 121 92
0.0474743 -0.392556 -0.536 202 157 134
0.0600391 -0.38157 -0.521 204 158 134
0.0965914 -0.388894 -0.531 175 120 99
0.102606 -0.392556 -0.536 166 115 96
0.105038 -0.394021 -0.538 167 116 97
0.11139 -0.398415 -0.544 152 111 89
0.148405 -0.421119 -0.575 116 114 117
0.171107 -0.420387 -0.574 117 151 215
0.19188 -0.420387 -0.574 233 235 248
0.202071 -0.421119 -0.575 237 239 254
0.205357 -0.421119 -0.575 233 236 251
0.447386 -0.428443 -0.585 193 208 239
0.461545 -0.429175 -0.586 234 234 242
0.464893 -0.429175 -0.586 229 228 242
0.48216 -0.43064 -0.588 202 208 222
0.4844 -0.43064 -0.588 164 175 193
0.50344 -0.43064 -0.588 107 134 179
0.490158 -0.405739 -0.554 164 134 123
0.474093 -0.379373 -0.518 176 139 123
0.473786 -0.362529 -0.495 196 154 130
0.47377 -0.361796 -0.494 198 156 132
0.479057 -0.355937 -0.486 194 152 127
0.479919 -0.355205 -0.485 189 147 122
0.481695 -0.354472 -0.484 187 146 118
0.482617 -0.354472 -0.484 189 148 120
0.486131 -0.353008 -0.482 188 144 117
0.512867 -0.358867 -0.49 156 119 93
0.0514019 -0.384766 -0.524 200 154 131
0.0551829 -0.383297 -0.522 205 159 135
0.0706829 -0.381094 -0.519 198 150 127
0.0757714 -0.381829 -0.52 196 149 123
0.0954 -0.389171 -0.53 174 122 100
0.0965914 -0.389906 -0.531 173 121 99
0.101395 -0.392843 -0.535 170 118 97
0.108916 -0.397983 -0.542 163 112 93
0.11139 -0.399451 -0.544 152 109 90
0.132377 -0.420011 -0.572 103 91 93
0.139886 -0.422949 -0.576 114 110 127
0.145119 -0.422214 -0.575 164 159 166
0.163453 -0.42148 -0.574 151 161 197
0.175174 -0.420746 -0.573 80 120 181
0.17954 -0.420746 -0.573 154 180 229
0.433272 -0.428823 -0.584 129 162 213
0.457414 -0.429557 -0.585 214 212 215
0.474631 -0.431026 -0.587 225 225 233
0.488049 -0.431026 -0.587 167 187 220
0.489167 -0.431026 -0.587 184 201 229
0.49896 -0.43176 -0.588 87 125 190
0.471714 -0.373017 -0.508 186 148 129
0.471894 -0.367877 -0.501 189 149 124
0.475451 -0.358331 -0.488 196 152 127
0.478071 -0.356129 -0.485 193 151 126
0.47893 -0.355394 -0.484 187 145 120
0.49174 -0.35466 -0.483 179 138 106
0.492558 -0.353926 -0.482 179 136 101
0.505903 -0.356863 -0.486 165 121 92
0.509844 -0.358331 -0.488 163 122 92
0.51182 -0.359066 -0.489 157 117 91
0.0541886 -0.384291 -0.522 205 159 135
0.0550771 -0.383555 -0.521 206 160 136
0.0569524 -0.382819 -0.52 207 159 136
0.0598086 -0.382083 -0.519 203 157 131
0.0607971 -0.382083 -0.519 204 158 132
0.07266 -0.382083 -0.519 194 147 121
0.0757714 -0.382819 -0.52 195 148 122
0.0777524 -0.382819 -0.52 190 143 117
0.0788943 -0.383555 -0.521 190 143 117
0.141833 -0.42331 -0.575 135 131 146
0.150333 -0.422573 -0.574 185 183 184
0.151427 -0.422573 -0.574 188 186 187
0.154707 -0.422573 -0.574 191 195 206
0.189363 -0.421837 -0.573 233 235 250
0.448846 -0.429935 -0.584 230 234 243
0.460757 -0.430671 -0.585 234 234 242
0.477986 -0.432144 -0.587 223 222 230
0.480222 -0.432144 -0.587 217 217 227
0.475766 -0.384291 -0.522 176 141 122
0.471673 -0.374721 -0.509 187 149 130
0.471714 -0.373985 -0.508 187 149 130
0.471785 -0.372512 -0.506 188 150 131
0.471914 -0.366623 -0.498 189 149 123
0.478071 -0.357052 -0.485 192 151 123
0.47978 -0.35558 -0.483 189 148 120
0.485123 -0.354108 -0.481 186 142 115
0.50094 -0.35558 -0.483 175 128 98
0.0443286 -0.394881 -0.535 202 158 131
0.0461067 -0.392667 -0.532 204 160 135
0.0485924 -0.388238 -0.526 205 159 135
0.0495 -0.3875 -0.525 204 158 134
0.0578314 -0.383071 -0.519 206 160 134
0.07266 -0.383071 -0.519 197 150 124
0.0828638 -0.384548 -0.521 182 130 108
0.0896705 -0.388238 -0.526 184 129 109
0.0988 -0.392667 -0.532 175 123 102
0.11284 -0.403 -0.546 144 106 93
0.155529 -0.422929 -0.573 189 193 202
0.158803 -0.422929 -0.573 165 175 200
0.182495 -0.42219 -0.572 188 202 237
0.19482 -0.422929 -0.573 233 236 253
0.199186 -0.422929 -0.573 222 225 240
0.433641 -0.43031 -0.583 74 112 177
0.461871 -0.431786 -0.585 215 219 231
0.484985 -0.432524 -0.586 200 206 220
0.488333 -0.432524 -0.586 81 102 155
0.48945 -0.432524 -0.586 95 116 169
0.496662 -0.417024 -0.565 165 137 126
0.484703 -0.400048 -0.542 169 137 122
0.483047 -0.397833 -0.539 170 138 123
0.479923 -0.391929 -0.531 176 143 126
0.478315 -0.388976 -0.527 179 144 125
0.475766 -0.385286 -0.522 177 140 122
0.47402 -0.383071 -0.519 178 141 123
0.471751 -0.374214 -0.507 187 149 128
0.470966 -0.367571 -0.498 189 150 121
0.473698 -0.362405 -0.491 192 150 125
0.490514 -0.354286 -0.48 181 136 105
0.494285 -0.355024 -0.481 182 133 100
0.498067 -0.355762 -0.482 182 133 101
0.0494057 -0.38776 -0.524 206 160 134
0.0512057 -0.38628 -0.522 205 159 133
0.0587067 -0.38332 -0.518 202 157 128
0.0850114 -0.38628 -0.522 183 128 108
0.0942124 -0.39146 -0.529 176 124 103
0.0976029 -0.39294 -0.531 173 122 101
0.102414 -0.3959 -0.535 167 119 99
0.10626 -0.39886 -0.539 163 114 97
0.13612 -0.42476 -0.574 88 86 99
0.160705 -0.42328 -0.572 93 112 152
0.169421 -0.42328 -0.572 68 99 163
0.185764 -0.42328 -0.572 221 223 238
0.205734 -0.42402 -0.573 184 187 206
0.426246 -0.43068 -0.582 81 118 171
0.445856 -0.43142 -0.583 219 226 244
0.449188 -0.43142 -0.583 231 234 241
0.463307 -0.43216 -0.584 180 188 209
0.465531 -0.43216 -0.584 198 202 214
0.4719 -0.4329 -0.585 173 173 181
0.479404 -0.43364 -0.586 218 218 226
0.482752 -0.43364 -0.586 210 213 222
0.483869 -0.43364 -0.586 205 209 218
0.484073 -0.39886 -0.539 168 136 121
0.479923 -0.39294 -0.531 176 143 126
0.47088 -0.37296 -0.504 190 150 125
0.470924 -0.37148 -0.502 190 150 124
0.470957 -0.3663 -0.495 192 151 123
0.471888 -0.36556 -0.494 191 151 125
0.474522 -0.36112 -0.488 196 152 125
0.477086 -0.35816 -0.484 190 146 119
0.47794 -0.35742 -0.483 189 145 116
0.478787 -0.35668 -0.482 189 145 116
0.479705 -0.35668 -0.482 187 143 114
0.485029 -0.3552 -0.48 187 142 113
0.4896 -0.3552 -0.48 185 140 109
0.491429 -0.3552 -0.48 182 136 103
0.492343 -0.3552 -0.48 182 136 103
0.5037 -0.35742 -0.483 167 123 98
0.04576 -0.391726 -0.528 205 159 133
0.05772 -0.384307 -0.518 201 156 125
0.0615476 -0.383565 -0.517 204 158 132
0.0744933 -0.384307 -0.518 194 144 119
0.0766143 -0.385049 -0.519 189 139 114
0.0906724 -0.390242 -0.526 184 129 109
0.114506 -0.407306 -0.549 135 102 93
0.115972 -0.40879 -0.551 127 102 98
0.133467 -0.42437 -0.572 78 77 83
0.139157 -0.425111 -0.573 93 90 111
0.140249 -0.425111 -0.573 105 102 123
0.150899 -0.42437 -0.572 190 190 200
0.157436 -0.42437 -0.572 184 191 210
0.16695 -0.423628 -0.571 90 124 185
0.176738 -0.423628 -0.571 97 131 192
0.19448 -0.42437 -0.572 225 228 245
0.197749 -0.42437 -0.572 187 190 207
0.435114 -0.431789 -0.582 100 136 198
0.437331 -0.431789 -0.582 93 132 189
0.443635 -0.43253 -0.583 161 185 231
0.466644 -0.433272 -0.584 186 194 207
0.468869 -0.433272 -0.584 181 187 199
0.480814 -0.434014 -0.585 210 213 218
0.486386 -0.434014 -0.585 112 132 159
0.490843 -0.434014 -0.585 51 86 154
0.4833 -0.398403 -0.537 171 139 124
0.474093 -0.384307 -0.518 181 144 126
0.470821 -0.375404 -0.506 185 147 124
0.470924 -0.372436 -0.502 191 151 125
0.470947 -0.366501 -0.494 192 153 124
0.471888 -0.366501 -0.494 189 150 121
0.471851 -0.365017 -0.492 189 148 120
0.473592 -0.36205 -0.488 193 152 124
0.474429 -0.360566 -0.486 193 152 124
0.4896 -0.356114 -0.48 184 139 108
0.502657 -0.357598 -0.482 168 124 97
0.50462 -0.35834 -0.483 164 120 93
0.53 -0.370952 -0.5 149 116 83
0.0414257 -0.399426 -0.537 199 155 130
0.068441 -0.38455 -0.517 198 151 123
0.0694257 -0.38455 -0.517 197 147 120
0.0713952 -0.38455 -0.517 193 146 118
0.0785914 -0.386037 -0.519 186 134 112
0.0807238 -0.386781 -0.52 186 131 110
0.103627 -0.398682 -0.536 163 116 100
0.108715 -0.402401 -0.541 156 109 91
0.110151 -0.403889 -0.543 150 110 98
0.14763 -0.425459 -0.572 183 182 188
0.156073 -0.424715 -0.571 196 201 223
0.165862 -0.424715 -0.571 115 139 185
0.173171 -0.423971 -0.57 110 151 213
0.42662 -0.432153 -0.581 107 145 208
0.450634 -0.432897 -0.582 199 198 203
0.495095 -0.418021 -0.562 170 137 128
0.47659 -0.389756 -0.524 175 142 125
0.474933 -0.386781 -0.52 178 143 124
0.473592 -0.362979 -0.488 193 152 124
0.476224 -0.360748 -0.485 191 150 120
0.477869 -0.358516 -0.482 189 148 120
0.479543 -0.357029 -0.48 190 146 117
0.487668 -0.356285 -0.479 184 139 106
0.490405 -0.356285 -0.479 184 139 106
0.504493 -0.358516 -0.482 160 123 96
0.522699 -0.367442 -0.494 152 118 91
0.0428238 -0.394483 -0.529 204 160 135
0.0566238 -0.385534 -0.517 204 157 131
0.0594629 -0.384789 -0.516 202 155 127
0.068441 -0.385534 -0.517 199 152 124
0.0694257 -0.385534 -0.517 196 146 119
0.0895 -0.3915 -0.525 184 129 109
0.0916743 -0.392246 -0.526 182 126 103
0.09522 -0.394483 -0.529 176 124 102
0.129288 -0.423566 -0.568 99 93 105
0.130599 -0.424311 -0.569 97 91 103
0.137825 -0.426549 -0.572 92 86 98
0.14411 -0.425803 -0.571 167 168 172
0.180771 -0.425057 -0.57 129 160 207
0.206104 -0.425803 -0.571 213 211 233
0.43326 -0.43326 -0.581 97 138 194
0.456177 -0.434006 -0.582 218 220 233
0.470287 -0.434751 -0.583 212 215 230
0.47443 -0.435497 -0.584 186 185 190
0.47888 -0.435497 -0.584 219 220 225
0.495566 -0.435497 -0.584 30 74 137
0.501128 -0.435497 -0.584 77 117 178
0.496662 -0.421329 -0.565 168 135 126
0.472449 -0.382551 -0.513 179 142 124
0.471828 -0.366146 -0.491 189 148 120
0.47695 -0.359434 -0.482 190 146 117
0.487668 -0.357197 -0.479 185 140 109
0.490291 -0.356451 -0.478 184 139 108
0.50843 -0.360926 -0.484 161 121 95
0.04104 -0.397733 -0.532 200 154 128
0.0454133 -0.391752 -0.524 201 155 129
0.0472286 -0.390257 -0.522 201 155 129
0.0481305 -0.38951 -0.521 202 156 130
0.0632714 -0.385024 -0.515 203 158 129
0.07238 -0.386519 -0.517 192 145 117
0.0774533 -0.387267 -0.518 188 136 114
0.104843 -0.401471 -0.537 159 111 97
0.14411 -0.42689 -0.571 175 176 181
0.147372 -0.42689 -0.571 183 186 195
0.160143 -0.426143 -0.57 161 181 216
0.1938 -0.426143 -0.57 236 239 255
0.44654 -0.434367 -0.581 220 222 235
0.454287 -0.434367 -0.581 230 230 242
0.476655 -0.43661 -0.584 207 208 210
0.483612 -0.435862 -0.583 111 133 170
0.490275 -0.435862 -0.583 102 139 192
0.489603 -0.411938 -0.551 166 139 122
0.479123 -0.39549 -0.529 172 139 122
0.470932 -0.368576 -0.493 190 150 124
0.471769 -0.365586 -0.489 192 151 123
0.4727 -0.365586 -0.489 192 151 123
0.476877 -0.359605 -0.481 189 145 116
0.477714 -0.358857 -0.48 189 145 116
0.483008 -0.357362 -0.478 188 143 114
0.485739 -0.357362 -0.478 185 141 112
0.495754 -0.357362 -0.478 177 132 101
0.5024 -0.358857 -0.48 162 122 96
0.518467 -0.366333 -0.49 151 115 89
0.621573 -0.427638 -0.572 204 204 202
0.0376819 -0.406242 -0.542 194 152 130
0.0416581 -0.394999 -0.527 203 157 133
0.04524 -0.391251 -0.522 199 155 128
0.0555314 -0.386754 -0.516 203 156 126
0.0573857 -0.386005 -0.515 203 160 126
0.0603286 -0.386005 -0.515 204 159 126
0.0613095 -0.386005 -0.515 204 159 128
0.0671952 -0.386005 -0.515 201 154 124
0.0732229 -0.386754 -0.516 190 138 116
0.0774533 -0.388253 -0.518 189 137 115
0.0905 -0.3935 -0.525 182 127 106
0.097419 -0.397248 -0.53 171 120 101
0.104843 -0.402494 -0.537 158 112 97
0.108916 -0.406242 -0.542 147 101 86
0.130599 -0.426479 -0.569 113 106 113
0.135409 -0.427978 -0.571 131 128 137
0.137584 -0.427978 -0.571 107 104 115
0.155527 -0.426479 -0.569 77 97 134
0.16203 -0.426479 -0.569 162 179 205
0.17937 -0.426479 -0.569 200 216 250
0.181538 -0.426479 -0.569 106 124 160
0.200314 -0.427229 -0.57 224 227 244
0.206829 -0.427229 -0.57 239 238 252
0.209 -0.427229 -0.57 243 241 255
0.444667 -0.434724 -0.58 195 201 217
0.468371 -0.436223 -0.582 222 220 231
0.47695 -0.436972 -0.583 180 181 183
0.496938 -0.436972 -0.583 44 92 154
0.499159 -0.436972 -0.583 59 102 157
0.470892 -0.368016 -0.491 187 147 122
0.4718 -0.367267 -0.49 188 148 123
0.47432 -0.36277 -0.484 189 148 120
0.476877 -0.360521 -0.481 190 146 119
0.487449 -0.357523 -0.477 184 139 108
0.4929 -0.357523 -0.477 180 135 104
0.500441 -0.359022 -0.479 161 118 86
0.0499229 -0.389991 -0.519 202 157 126
0.0517 -0.388489 -0.517 203 158 127
0.0545486 -0.387737 -0.516 203 158 127
0.0555314 -0.387737 -0.516 203 158 127
0.0611905 -0.386234 -0.514 201 158 126
0.0621695 -0.386234 -0.514 199 156 124
0.07844 -0.38924 -0.518 184 132 110
0.0838562 -0.391494 -0.521 185 133 111
0.0905 -0.3945 -0.525 182 130 108
0.10626 -0.40502 -0.539 155 109 94
0.107685 -0.406523 -0.541 149 103 88
0.131683 -0.427563 -0.569 125 119 123
0.142521 -0.427563 -0.569 173 176 181
0.158778 -0.427563 -0.569 201 216 249
0.159862 -0.427563 -0.569 203 214 236
0.17581 -0.426811 -0.568 198 213 244
0.192376 -0.427563 -0.569 237 240 255
0.427357 -0.435077 -0.579 120 161 207
0.46646 -0.43658 -0.581 225 225 237
0.467567 -0.43658 -0.581 223 223 233
0.495828 -0.438083 -0.583 57 107 168
0.498303 -0.437331 -0.582 60 100 159
0.46906 -0.374963 -0.499 186 148 125
0.469977 -0.369703 -0.492 188 148 123
0.471694 -0.365946 -0.487 191 150 122
0.473398 -0.363691 -0.484 190 149 121
0.475114 -0.362189 -0.482 189 145 118
0.476032 -0.362189 -0.482 191 147 118
0.476877 -0.361437 -0.481 191 147 118
0.477631 -0.359934 -0.479 191 147 118
0.044161 -0.392487 -0.521 195 151 124
0.0631486 -0.387213 -0.514 199 154 125
0.0742057 -0.38872 -0.516 190 140 117
0.0763191 -0.389473 -0.517 186 136 113
0.0782886 -0.389473 -0.517 181 129 107
0.0915 -0.3955 -0.525 181 129 107
0.0926762 -0.396253 -0.526 178 127 106
0.160663 -0.427893 -0.568 187 196 213
0.182301 -0.427893 -0.568 110 129 162
0.49276 -0.43844 -0.582 82 116 164
0.478315 -0.397007 -0.527 176 143 126
0.47659 -0.394747 -0.524 175 142 125
0.469011 -0.378173 -0.502 185 147 124
0.469054 -0.371393 -0.493 191 151 126
0.469933 -0.369133 -0.49 189 147 122
0.471694 -0.366873 -0.487 191 150 120
0.477631 -0.360847 -0.479 191 147 118
0.48018 -0.35934 -0.477 185 140 111
0.48008 -0.358587 -0.476 186 141 112
0.486427 -0.358587 -0.476 183 138 109
0.488119 -0.357833 -0.475 181 136 105
0.496534 -0.35934 -0.477 171 126 95
0.508166 -0.363107 -0.482 159 119 93
0.0440762 -0.392724 -0.52 199 155 128
0.0506171 -0.389703 -0.516 201 157 128
0.0562952 -0.388192 -0.514 203 158 129
0.0640029 -0.387437 -0.513 200 155 126
0.0761714 -0.389703 -0.516 185 135 112
0.0903276 -0.395745 -0.524 184 132 110
0.107685 -0.408584 -0.541 148 104 91
0.126676 -0.427465 -0.566 100 88 90
0.131451 -0.428975 -0.568 116 110 114
0.13385 -0.42973 -0.569 101 98 105
0.144434 -0.428975 -0.568 185 190 196
0.15822 -0.42822 -0.567 201 213 235
0.16686 -0.42822 -0.567 128 154 189
0.18771 -0.428975 -0.568 213 224 252
0.197448 -0.428975 -0.568 238 238 246
0.450517 -0.437283 -0.579 228 230 243
0.477527 -0.438793 -0.581 181 188 207
0.482783 -0.439549 -0.582 110 130 157
0.495233 -0.438793 -0.581 64 107 160
0.495976 -0.425199 -0.563 163 137 124
0.483943 -0.407829 -0.54 164 136 124
0.480715 -0.402542 -0.533 170 138 125
0.472329 -0.388948 -0.515 178 143 124
0.470704 -0.384416 -0.509 182 146 124
0.469048 -0.377619 -0.5 185 147 124
0.476719 -0.361759 -0.479 192 148 119
0.483595 -0.358738 -0.475 184 139 110
0.49368 -0.359493 -0.476 172 127 98
0.517148 -0.367801 -0.487 154 114 88
0.531674 -0.376109 -0.498 146 110 84
0.0430857 -0.393714 -0.52 199 158 126
0.04588 -0.3922 -0.518 205 161 132
0.0496343 -0.390686 -0.516 199 156 124
0.0751886 -0.390686 -0.516 184 134 111
0.0846857 -0.393714 -0.52 183 131 110
0.0879943 -0.395229 -0.522 185 133 112
0.0903276 -0.396743 -0.524 186 131 110
0.0915 -0.3975 -0.525 183 128 107
0.14227 -0.430057 -0.568 181 186 190
0.143352 -0.430057 -0.568 181 186 190
0.146598 -0.430057 -0.568 188 194 206
0.148762 -0.430057 -0.568 180 186 202
0.15498 -0.4293 -0.567 186 196 223
0.447537 -0.437629 -0.578 213 221 240
0.474207 -0.4399 -0.581 220 224 236
0.495233 -0.4399 -0.581 79 117 166
0.485597 -0.411129 -0.543 165 135 124
0.470747 -0.384629 -0.508 184 147 128
0.46992 -0.3816 -0.504 183 145 124
0.470726 -0.367971 -0.486 192 151 121
0.471554 -0.366457 -0.484 194 150 121
0.47242 -0.3657 -0.483 190 147 115
0.473278 -0.364943 -0.482 188 145 113
0.478267 -0.3604 -0.476 188 143 114
0.479173 -0.3604 -0.476 184 139 110
0.479071 -0.359643 -0.475 185 140 111
0.48269 -0.359643 -0.475 186 142 113
0.493548 -0.359643 -0.475 173 129 100
0.520203 -0.370243 -0.489 152 112 86
0.0383533 -0.396982 -0.523 198 154 125
0.0392743 -0.396223 -0.522 199 155 126
0.0690229 -0.39015 -0.514 192 147 118
0.089159 -0.396982 -0.523 179 129 106
0.0972352 -0.401536 -0.529 171 120 101
0.0986143 -0.403054 -0.531 171 120 101
0.0998133 -0.403813 -0.532 168 119 104
0.134697 -0.431139 -0.568 109 111 126
0.13662 -0.43038 -0.567 151 152 172
0.20034 -0.43038 -0.567 179 184 204
0.461546 -0.439489 -0.579 182 188 200
0.485273 -0.441007 -0.581 203 212 221
0.48638 -0.441007 -0.581 206 213 229
0.491913 -0.441007 -0.581 116 144 181
0.494381 -0.440248 -0.58 98 129 175
0.489603 -0.418235 -0.551 165 135 124
0.468129 -0.375729 -0.495 190 150 125
0.469874 -0.370415 -0.488 188 149 120
0.470726 -0.368897 -0.486 190 148 123
0.471605 -0.368138 -0.485 191 149 124
0.47242 -0.36662 -0.483 188 147 119
0.472296 -0.365102 -0.481 190 149 119
0.485286 -0.359789 -0.474 179 138 110
0.485163 -0.35903 -0.473 185 139 106
0.495357 -0.360548 -0.475 176 128 92
0.0334286 -0.410914 -0.54 194 150 123
0.0350257 -0.405588 -0.533 193 156 127
0.03828 -0.397217 -0.522 198 154 125
0.0476686 -0.392651 -0.516 204 160 131
0.0485571 -0.39189 -0.515 203 159 130
0.0868333 -0.396456 -0.521 185 135 112
0.0998133 -0.404827 -0.532 164 118 103
0.13338 -0.43146 -0.567 125 128 147
0.13554 -0.43146 -0.567 89 97 120
0.13662 -0.43146 -0.567 141 149 172
0.13878 -0.43146 -0.567 175 177 202
0.15255 -0.430699 -0.566 190 201 219
0.16089 -0.429938 -0.565 158 183 213
0.184893 -0.430699 -0.566 161 170 187
0.185971 -0.430699 -0.566 145 152 180
0.18738 -0.43146 -0.567 192 207 238
0.445664 -0.43907 -0.577 103 115 139
0.460749 -0.43983 -0.578 151 159 172
0.483333 -0.441352 -0.58 208 212 223
0.486648 -0.441352 -0.58 191 199 212
0.47239 -0.39113 -0.514 180 145 126
0.469857 -0.385042 -0.506 183 147 125
0.470632 -0.368301 -0.484 189 149 123
0.471442 -0.366779 -0.482 190 149 121
0.47236 -0.366779 -0.482 192 151 121
0.475724 -0.363735 -0.478 193 150 118
0.476546 -0.362974 -0.477 193 150 116
0.479869 -0.360691 -0.474 184 141 106
0.488767 -0.35993 -0.473 180 136 101
0.504859 -0.363735 -0.478 161 120 90
0.03996 -0.39516 -0.518 202 155 125
0.0428371 -0.394397 -0.517 200 159 127
0.0438219 -0.394397 -0.517 204 161 129
0.0513 -0.391346 -0.513 203 160 128
0.055101 -0.390583 -0.512 201 157 128
0.0629029 -0.390583 -0.512 197 152 123
0.0638781 -0.390583 -0.512 196 151 122
0.07196 -0.392109 -0.514 186 138 115
0.105233 -0.41118 -0.539 142 105 97
0.158738 -0.431014 -0.565 194 211 229
0.193518 -0.431777 -0.566 232 245 254
0.194596 -0.431777 -0.566 238 239 255
0.455244 -0.440931 -0.578 229 228 244
0.458547 -0.440931 -0.578 208 218 227
0.46185 -0.440931 -0.578 177 195 231
0.46295 -0.440931 -0.578 206 210 222
0.473677 -0.441694 -0.579 179 184 204
0.489117 -0.441694 -0.579 124 146 187
0.49794 -0.441694 -0.579 119 135 161
0.492812 -0.424911 -0.557 164 136 125
0.485597 -0.414231 -0.543 164 134 123
0.483175 -0.410417 -0.538 163 134 120
0.46812 -0.379903 -0.498 187 149 128
0.468974 -0.373037 -0.489 189 149 124
0.474057 -0.366171 -0.48 190 146 119
0.478063 -0.361594 -0.474 188 145 113
0.493271 -0.360831 -0.473 171 127 92
0.49612 -0.361594 -0.474 168 125 93
0.0531505 -0.391558 -0.512 206 162 133
0.0846857 -0.397676 -0.52 183 135 112
0.0889886 -0.399206 -0.522 179 131 108
0.102606 -0.409912 -0.536 140 108 97
0.127529 -0.43209 -0.565 118 115 126
0.131833 -0.43209 -0.565 120 126 142
0.147976 -0.43209 -0.565 187 195 218
0.158457 -0.431326 -0.564 194 211 231
0.168126 -0.431326 -0.564 183 203 230
0.184567 -0.43209 -0.565 233 239 253
0.186719 -0.43209 -0.565 186 192 218
0.454456 -0.441268 -0.577 224 223 239
0.465152 -0.442032 -0.578 221 220 236
0.480294 -0.442797 -0.579 205 212 220
0.483603 -0.442797 -0.579 207 211 220
0.491323 -0.442797 -0.579 139 164 204
0.493777 -0.442032 -0.578 143 168 198
0.470704 -0.389264 -0.509 182 144 125
0.468911 -0.372439 -0.487 189 149 123
0.46971 -0.370145 -0.484 189 150 121
0.473903 -0.365556 -0.478 193 149 122
0.476453 -0.364027 -0.476 191 147 118
0.478063 -0.362497 -0.474 187 142 113
0.478856 -0.361732 -0.473 181 136 105
0.479757 -0.361732 -0.473 184 139 106
0.495974 -0.361732 -0.473 167 123 94
0.497926 -0.362497 -0.474 167 123 94
0.030399 -0.414767 -0.541 199 155 128
0.0352971 -0.4002 -0.522 196 155 123
0.0697295 -0.392533 -0.512 189 139 114
0.07182 -0.3933 -0.513 186 136 113
0.0802581 -0.396367 -0.517 187 137 114
0.0823867 -0.397133 -0.518 187 137 114
0.105038 -0.412467 -0.538 140 108 97
0.12386 -0.431633 -0.563 76 75 91
0.13829 -0.433167 -0.565 169 179 206
0.142595 -0.433167 -0.565 146 161 182
0.1469 -0.433167 -0.565 173 178 200
0.469843 -0.442367 -0.577 199 205 221
0.493777 -0.443133 -0.578 139 166 195
0.49708 -0.443133 -0.578 106 125 155
0.493697 -0.4278 -0.558 163 135 124
0.475009 -0.3979 -0.519 176 141 122
0.467166 -0.3772 -0.492 190 149 127
0.468043 -0.3749 -0.489 189 149 123
0.471314 -0.368 -0.48 191 150 122
0.47382 -0.3657 -0.477 193 149 122
0.474729 -0.3657 -0.477 190 146 117
0.475547 -0.364933 -0.476 189 145 116
0.484009 -0.3611 -0.471 185 141 112
0.495974 -0.362633 -0.473 167 123 94
0.516728 -0.371067 -0.484 157 116 88
0.616083 -0.431633 -0.563 200 201 195
0.031081 -0.411186 -0.535 195 156 127
0.0397286 -0.395814 -0.515 205 156 123
0.0407095 -0.395814 -0.515 205 156 123
0.0511 -0.39274 -0.511 207 160 132
0.0530467 -0.39274 -0.511 204 157 129
0.0739181 -0.395046 -0.514 187 137 114
0.0814 -0.39812 -0.518 189 139 116
0.106654 -0.415797 -0.541 134 105 99
0.108083 -0.417334 -0.543 132 103 97
0.126229 -0.433474 -0.564 81 82 102
0.161393 -0.432706 -0.563 126 156 194
0.165683 -0.432706 -0.563 179 198 228
0.467931 -0.442697 -0.576 156 168 190
0.470942 -0.443466 -0.577 94 107 141
0.474239 -0.443466 -0.577 209 221 233
0.481667 -0.444234 -0.578 188 192 195
0.48724 -0.41964 -0.546 163 135 124
0.478217 -0.405806 -0.528 168 136 123
0.469486 -0.368914 -0.48 195 154 126
0.478743 -0.362766 -0.472 184 139 110
0.479642 -0.362766 -0.472 184 139 110
0.48144 -0.362766 -0.472 187 142 111
0.485803 -0.361997 -0.471 185 142 110
0.494027 -0.362766 -0.472 172 127 96
0.50169 -0.365071 -0.475 164 120 93
0.03784 -0.397566 -0.516 201 156 123
0.0425886 -0.396025 -0.514 203 158 127
0.0435676 -0.396025 -0.514 202 157 128
0.0814 -0.399107 -0.518 187 140 114
0.0868333 -0.401418 -0.521 182 134 111
0.134584 -0.433778 -0.563 77 98 145
0.148789 -0.434549 -0.564 205 212 220
0.455071 -0.443024 -0.575 211 221 246
0.457262 -0.443024 -0.575 147 163 188
0.458357 -0.443024 -0.575 77 114 167
0.483031 -0.444565 -0.577 206 211 214
0.490491 -0.425303 -0.552 161 131 120
0.478217 -0.406811 -0.528 165 133 120
0.473178 -0.398336 -0.517 175 139 125
0.469857 -0.389861 -0.506 181 144 125
0.46942 -0.369058 -0.479 195 151 124
0.483876 -0.362124 -0.47 184 141 107
0.488352 -0.362124 -0.47 177 133 98
0.494926 -0.363665 -0.472 171 126 93
0.497776 -0.364435 -0.473 167 124 92
0.0377667 -0.397776 -0.515 205 160 131
0.0414476 -0.395459 -0.512 202 159 125
0.0443733 -0.395459 -0.512 199 155 126
0.04818 -0.394687 -0.511 204 159 128
0.0491533 -0.394687 -0.511 207 162 131
0.0770048 -0.397776 -0.515 187 139 116
0.0802581 -0.399321 -0.517 187 140 114
0.0938562 -0.407045 -0.527 163 120 104
0.101206 -0.412451 -0.534 148 108 96
0.144491 -0.435623 -0.564 127 143 203
0.152543 -0.434078 -0.562 213 220 228
0.451 -0.443347 -0.574 150 164 199
0.463543 -0.444891 -0.576 205 216 234
0.468214 -0.444119 -0.575 83 113 147
0.47232 -0.444891 -0.576 210 218 229
0.473417 -0.444891 -0.576 208 216 227
0.494582 -0.431761 -0.559 164 134 124
0.492987 -0.429444 -0.556 161 132 118
0.475681 -0.403955 -0.523 169 136 121
0.468988 -0.388508 -0.503 184 146 125
0.46718 -0.383873 -0.497 188 147 125
0.467186 -0.382329 -0.495 187 146 124
0.468043 -0.377694 -0.489 190 148 124
0.468631 -0.371515 -0.481 179 135 108
0.470261 -0.369198 -0.478 195 151 122
0.485667 -0.363019 -0.47 181 138 103
0.0280762 -0.415017 -0.536 194 153 125
0.0297248 -0.409597 -0.529 192 151 121
0.0367143 -0.397983 -0.514 204 160 131
0.0385971 -0.397209 -0.513 206 161 132
0.0433981 -0.396434 -0.512 200 155 124
0.04526 -0.39566 -0.511 201 156 125
0.0568286 -0.394886 -0.51 197 150 124
0.0626571 -0.394886 -0.51 195 148 122
0.0676467 -0.39566 -0.511 192 141 120
0.0727971 -0.397209 -0.513 190 138 114
0.0986143 -0.411146 -0.531 151 111 99
0.12257 -0.435149 -0.562 36 41 61
0.134345 -0.435149 -0.562 83 103 153
0.14638 -0.435923 -0.563 197 204 222
0.156546 -0.434374 -0.561 204 211 229
0.4715 -0.445214 -0.575 206 215 224
0.486583 -0.445989 -0.576 116 138 177
0.490971 -0.445989 -0.576 132 162 198
0.493166 -0.445989 -0.576 138 164 199
0.488132 -0.423534 -0.547 160 132 121
0.4833 -0.415791 -0.537 163 135 124
0.47158 -0.39566 -0.511 182 144 123
0.468095 -0.387143 -0.5 186 145 123
0.46844 -0.370109 -0.478 193 149 120
0.46935 -0.370109 -0.478 194 150 121
0.472827 -0.36856 -0.476 193 148 117
0.48042 -0.364689 -0.471 182 141 109
0.485527 -0.36314 -0.469 181 138 104
0.487313 -0.36314 -0.469 177 134 99
0.4891 -0.36314 -0.469 176 133 98
0.490887 -0.36314 -0.469 173 130 96
0.498522 -0.365463 -0.472 166 125 95
0.0433133 -0.396633 -0.511 201 156 125
0.0442867 -0.396633 -0.511 201 156 125
0.0567171 -0.395081 -0.509 196 149 123
0.0626571 -0.395857 -0.51 194 147 121
0.0676467 -0.396633 -0.511 189 141 118
0.07168 -0.39741 -0.512 190 140 117
0.0846857 -0.403619 -0.52 180 132 109
0.0938562 -0.409052 -0.527 162 119 100
0.147997 -0.435443 -0.561 207 209 208
0.449123 -0.444757 -0.573 120 142 179
0.462738 -0.44631 -0.575 207 214 230
0.463833 -0.44631 -0.575 200 207 223
0.464929 -0.44631 -0.575 170 179 210
0.479167 -0.44631 -0.575 211 210 215
0.489024 -0.44631 -0.575 125 154 198
0.490119 -0.44631 -0.575 131 163 201
0.472329 -0.399738 -0.515 178 138 126
0.468095 -0.388095 -0.5 188 147 125
0.467023 -0.377229 -0.486 189 148 120
0.46777 -0.374124 -0.482 188 144 117
0.468508 -0.371795 -0.479 192 148 119
0.472738 -0.36869 -0.475 191 146 115
0.6193 -0.436995 -0.563 203 203 193
0.0302095 -0.40461 -0.52 191 147 118
0.0319429 -0.401497 -0.516 196 152 123
0.0479914 -0.39605 -0.509 200 155 126
0.0567171 -0.39605 -0.509 194 147 119
0.0615648 -0.39605 -0.509 194 147 121
0.07168 -0.398385 -0.512 187 140 114
0.0760238 -0.400719 -0.515 189 139 114
0.0801029 -0.401497 -0.516 181 133 110
0.0915 -0.4085 -0.525 170 123 103
0.097419 -0.41239 -0.53 148 109 92
0.102989 -0.418615 -0.538 138 105 96
0.104207 -0.419393 -0.539 133 104 96
0.143979 -0.43729 -0.562 110 130 165
0.14505 -0.43729 -0.562 179 190 210
0.146929 -0.436511 -0.561 208 212 215
0.453489 -0.445849 -0.573 213 221 240
0.45458 -0.445849 -0.573 204 218 229
0.475881 -0.447405 -0.575 207 214 222
0.487929 -0.447405 -0.575 96 128 167
0.490119 -0.447405 -0.575 137 168 197
0.479123 -0.411612 -0.529 162 133 119
0.475766 -0.406166 -0.522 168 136 121
0.470607 -0.397607 -0.511 181 143 124
0.46718 -0.386713 -0.497 187 146 124
0.467183 -0.384379 -0.494 187 145 121
0.467166 -0.382823 -0.492 186 144 120
0.4669 -0.37582 -0.483 186 144 119
0.474451 -0.368817 -0.474 191 146 115
0.475147 -0.367261 -0.472 188 143 110
0.493567 -0.364927 -0.469 170 124 98
0.495353 -0.364927 -0.469 170 125 96
0.0251067 -0.41964 -0.538 188 151 124
0.0284457 -0.40872 -0.524 193 148 119
0.0451714 -0.3978 -0.51 203 156 130
0.0470219 -0.39702 -0.509 204 157 129
0.0499305 -0.39702 -0.509 202 155 127
0.0527352 -0.39624 -0.508 196 149 121
0.0727971 -0.40014 -0.513 186 139 113
0.0748971 -0.40092 -0.514 187 140 114
0.0801029 -0.40248 -0.516 182 134 111
0.0856762 -0.4056 -0.52 176 128 106
0.100189 -0.41652 -0.534 145 109 97
0.133037 -0.43758 -0.561 102 118 144
0.136 -0.4368 -0.56 176 184 205
0.139449 -0.43758 -0.561 167 174 193
0.140517 -0.43758 -0.561 160 170 197
0.149867 -0.4368 -0.56 211 219 230
0.154133 -0.4368 -0.56 218 225 233
0.465494 -0.44694 -0.573 172 187 206
0.489024 -0.4485 -0.575 122 152 188
0.49036 -0.44772 -0.574 151 180 210
0.494733 -0.44772 -0.574 89 118 160
0.476677 -0.40794 -0.523 168 136 121
0.467176 -0.38454 -0.493 185 143 119
0.467166 -0.38376 -0.492 184 144 119
0.467056 -0.37986 -0.487 187 147 121
0.467023 -0.37908 -0.486 188 148 122
0.466945 -0.37752 -0.484 186 144 119
0.46777 -0.37596 -0.482 188 147 119
0.470929 -0.3705 -0.475 190 147 115
0.471833 -0.3705 -0.475 190 147 115
0.475147 -0.36816 -0.472 189 144 111
0.485084 -0.36348 -0.466 182 139 105
0.03358 -0.399553 -0.511 202 155 127
0.0354571 -0.398771 -0.51 205 158 130
0.0450829 -0.39799 -0.509 204 157 131
0.048961 -0.39799 -0.509 204 157 131
0.0575733 -0.397208 -0.508 194 144 117
0.0595086 -0.397208 -0.508 195 145 120
0.0635038 -0.39799 -0.509 192 145 119
0.0665429 -0.398771 -0.51 195 148 120
0.0684857 -0.398771 -0.51 192 145 119
0.0695933 -0.399553 -0.511 190 143 117
0.0705667 -0.399553 -0.511 187 140 114
0.0770048 -0.402681 -0.515 185 135 112
0.0856762 -0.40659 -0.52 173 125 103
0.0989857 -0.416755 -0.533 143 109 97
0.131733 -0.437867 -0.56 77 85 104
0.147733 -0.437867 -0.56 204 207 224
0.157052 -0.437085 -0.559 163 173 200
0.453489 -0.448031 -0.573 222 222 234
0.465494 -0.448031 -0.573 199 207 218
0.479427 -0.448813 -0.574 207 209 221
0.491453 -0.448813 -0.574 139 165 202
0.468854 -0.396426 -0.507 179 141 122
0.466986 -0.379224 -0.485 188 148 122
0.466851 -0.376878 -0.482 187 146 118
0.466799 -0.376096 -0.481 187 146 118
0.468369 -0.372969 -0.477 191 147 118
0.470024 -0.371405 -0.475 192 148 119
0.476714 -0.367495 -0.47 189 144 113
0.484929 -0.363586 -0.465 180 137 105
0.0239924 -0.420122 -0.536 195 145 122
0.0373267 -0.398959 -0.509 207 157 130
0.0566057 -0.398175 -0.508 193 146 120
0.0575733 -0.398175 -0.508 195 148 122
0.063379 -0.398175 -0.508 195 145 122
0.0684857 -0.399743 -0.51 195 145 122
0.0694571 -0.399743 -0.51 192 142 119
0.07168 -0.40131 -0.512 189 139 116
0.0822276 -0.40523 -0.517 186 138 115
0.118933 -0.438933 -0.56 83 80 89
0.132563 -0.43815 -0.559 131 133 145
0.133628 -0.43815 -0.559 161 167 183
0.150664 -0.43815 -0.559 218 222 233
0.46986 -0.449123 -0.573 177 180 185
0.478333 -0.449907 -0.574 208 210 223
0.48052 -0.449907 -0.574 208 210 222
0.480827 -0.416987 -0.532 161 135 120
0.473246 -0.404446 -0.516 178 139 122
0.47239 -0.402878 -0.514 177 138 121
0.468854 -0.397391 -0.507 180 142 123
0.468077 -0.392689 -0.501 186 145 125
0.466242 -0.387202 -0.494 185 144 122
0.466229 -0.385634 -0.492 184 144 119
0.467657 -0.376229 -0.48 193 149 122
0.474248 -0.369958 -0.472 189 144 113
0.476469 -0.366823 -0.468 184 139 108
0.478119 -0.366039 -0.467 188 143 112
0.47887 -0.365255 -0.466 187 142 111
0.479614 -0.364471 -0.465 185 140 109
0.498927 -0.367607 -0.469 163 123 98
0.0229714 -0.421143 -0.536 196 146 121
0.0335143 -0.400714 -0.51 204 155 125
0.0459619 -0.399143 -0.508 202 157 126
0.0516657 -0.398357 -0.507 198 151 121
0.0535971 -0.398357 -0.507 195 148 118
0.0768552 -0.403857 -0.514 186 136 113
0.116383 -0.438429 -0.558 42 33 38
0.130433 -0.439214 -0.559 89 95 107
0.137887 -0.439214 -0.559 200 203 218
0.142146 -0.439214 -0.559 195 206 224
0.14534 -0.439214 -0.559 93 105 129
0.148534 -0.439214 -0.559 205 212 231
0.149599 -0.439214 -0.559 210 217 236
0.151457 -0.438429 -0.558 219 223 232
0.450818 -0.448643 -0.571 221 227 239
0.459234 -0.449429 -0.572 201 217 233
0.466861 -0.449429 -0.572 214 220 220
0.480774 -0.450214 -0.573 204 206 218
0.497146 -0.450214 -0.573 142 157 176
0.486631 -0.426643 -0.543 161 133 122
0.480827 -0.418 -0.532 160 134 119
0.469779 -0.399143 -0.508 179 141 122
0.468988 -0.395214 -0.503 182 144 123
0.46718 -0.3905 -0.497 182 141 119
0.466216 -0.385786 -0.491 186 144 120
0.469034 -0.372429 -0.474 193 149 120
0.470748 -0.371643 -0.473 193 149 120
0.474924 -0.369286 -0.47 195 150 119
0.476469 -0.367714 -0.468 186 141 112
0.487586 -0.365357 -0.465 177 132 99
0.509833 -0.373214 -0.475 154 115 86
0.0245 -0.4135 -0.525 189 150 121
0.0279029 -0.404836 -0.514 195 148 120
0.0372533 -0.40011 -0.508 208 159 127
0.0449943 -0.40011 -0.508 203 158 125
0.0469295 -0.40011 -0.508 203 156 126
0.0653143 -0.40011 -0.508 195 148 120
0.07154 -0.402473 -0.511 194 144 117
0.09522 -0.41665 -0.529 150 111 96
0.0977867 -0.419013 -0.532 145 107 96
0.0991714 -0.420589 -0.534 137 104 95
0.100564 -0.422164 -0.536 132 99 90
0.135757 -0.440279 -0.559 202 197 203
0.138703 -0.439491 -0.558 204 207 216
0.151457 -0.439491 -0.558 216 223 233
0.458431 -0.44973 -0.571 211 221 231
0.47013 -0.450518 -0.572 188 186 189
0.479683 -0.451306 -0.573 207 211 223
0.489741 -0.450518 -0.572 110 134 178
0.48173 -0.419801 -0.533 160 134 119
0.468988 -0.396172 -0.503 180 142 123
0.46718 -0.391447 -0.497 182 141 121
0.466216 -0.386721 -0.491 185 145 120
0.4662 -0.385933 -0.49 184 144 119
0.46753 -0.376482 -0.478 191 150 122
0.468131 -0.373331 -0.474 191 147 118
0.488305 -0.365455 -0.464 175 129 96
0.0219095 -0.422395 -0.535 193 148 119
0.0449943 -0.401078 -0.508 202 156 123
0.0534914 -0.399499 -0.506 193 148 115
0.0704286 -0.402657 -0.51 189 144 113
