ply
format ascii 1.0
comment Created by Open3D
element vertex 1302
property double x
property double y
property double z
property uchar red
property uchar green
property uchar blue
end_header
0.4059 -0.144729 -0.495 162 109 103
0.415714 -0.14619 -0.5 152 101 98
-0.29578 -0.189226 -0.643 254 255 250
-0.291197 -0.188637 -0.641 251 254 247
-0.271762 -0.191286 -0.65 252 253 247
-0.122053 -0.18952 -0.644 192 192 184
-0.119971 -0.190109 -0.646 193 193 185
0.408534 -0.190403 -0.647 77 63 76
0.361857 -0.150086 -0.51 172 114 110
0.357 -0.1442 -0.49 188 130 119
0.38064 -0.143611 -0.488 180 124 111
0.399565 -0.145083 -0.493 174 116 104
0.402257 -0.145377 -0.494 169 112 103
-0.27255 -0.191339 -0.646 251 252 246
0.411667 -0.192524 -0.65 75 61 76
0.362829 -0.151057 -0.51 168 113 108
0.360947 -0.149872 -0.506 170 115 110
0.359289 -0.148391 -0.501 180 123 116
0.357592 -0.14691 -0.496 181 124 117
0.357091 -0.146318 -0.494 185 128 121
0.402257 -0.146318 -0.494 165 111 101
0.409433 -0.147207 -0.497 151 104 98
0.415714 -0.148095 -0.5 149 101 97
-0.282543 -0.190185 -0.638 230 231 226
-0.151433 -0.193464 -0.649 182 179 174
-0.140688 -0.188992 -0.634 185 182 177
-0.13948 -0.188992 -0.634 185 182 177
0.378932 -0.145172 -0.487 178 120 108
0.383283 -0.145769 -0.489 179 121 109
0.394069 -0.146663 -0.492 176 116 105
0.395809 -0.146961 -0.493 176 116 105
0.399434 -0.147259 -0.494 172 115 104
0.400375 -0.147259 -0.494 170 113 102
0.423719 -0.150538 -0.505 142 99 92
0.426486 -0.150836 -0.506 142 99 92
0.436294 -0.152923 -0.513 139 99 91
-0.28938 -0.1911 -0.637 175 176 171
-0.284527 -0.1911 -0.637 173 174 169
-0.280887 -0.1911 -0.637 191 192 187
-0.274895 -0.192 -0.64 253 254 249
-0.274104 -0.1923 -0.641 251 252 247
-0.27006 -0.1929 -0.643 253 254 249
-0.148809 -0.1929 -0.643 182 179 172
-0.144766 -0.1908 -0.636 181 178 171
-0.130638 -0.1914 -0.638 190 187 180
-0.12139 -0.1941 -0.647 189 189 179
0.360962 -0.1506 -0.502 180 122 118
0.359186 -0.1479 -0.493 188 130 118
0.371833 -0.1455 -0.485 184 125 111
0.378005 -0.1461 -0.487 175 117 105
0.37986 -0.1461 -0.487 175 117 105
0.38157 -0.1464 -0.488 173 115 103
0.384214 -0.1467 -0.489 175 117 105
0.391257 -0.1476 -0.492 173 115 103
0.393131 -0.1476 -0.492 174 116 104
0.43362 -0.1533 -0.511 136 96 88
-0.306803 -0.194125 -0.643 252 253 247
-0.273676 -0.193219 -0.64 255 255 251
-0.12139 -0.195332 -0.647 189 189 179
0.359599 -0.148235 -0.491 188 128 117
0.363163 -0.147028 -0.487 186 128 116
0.368138 -0.146424 -0.485 186 126 115
0.390462 -0.148235 -0.491 171 114 103
0.399434 -0.149141 -0.494 168 111 100
0.412982 -0.15065 -0.499 142 94 90
-0.279234 -0.193223 -0.636 128 129 123
-0.274036 -0.19383 -0.638 221 220 216
-0.272031 -0.194134 -0.639 252 251 247
-0.120529 -0.197172 -0.649 190 190 178
0.367971 -0.147651 -0.486 187 127 116
0.369986 -0.147348 -0.485 182 122 111
0.373681 -0.147348 -0.485 181 123 111
0.375377 -0.147651 -0.486 178 120 108
0.386077 -0.148563 -0.489 167 110 99
0.401186 -0.150386 -0.495 165 108 97
0.40483 -0.15069 -0.496 152 102 93
0.430953 -0.154639 -0.509 137 94 87
0.436294 -0.155854 -0.513 135 95 87
-0.141895 -0.193823 -0.634 186 183 176
-0.134073 -0.19474 -0.637 189 186 179
-0.129829 -0.195657 -0.64 190 187 180
-0.12881 -0.195963 -0.641 190 187 180
0.364081 -0.154386 -0.505 180 121 115
0.360125 -0.150717 -0.493 188 128 120
0.371833 -0.148271 -0.485 178 118 107
0.389667 -0.1498 -0.49 168 110 99
0.415714 -0.152857 -0.5 135 92 85
0.424681 -0.154386 -0.505 138 95 89
-0.30781 -0.196876 -0.64 251 254 247
-0.300093 -0.19503 -0.634 199 201 196
-0.288017 -0.19503 -0.634 144 146 143
-0.263113 -0.19903 -0.647 250 253 246
-0.141671 -0.194723 -0.633 183 184 178
-0.127789 -0.197491 -0.642 189 189 179
0.363597 -0.154732 -0.503 184 125 119
0.360855 -0.151964 -0.494 190 130 122
0.366873 -0.14981 -0.487 184 124 114
0.367971 -0.149503 -0.486 183 123 113
0.378005 -0.14981 -0.487 169 109 98
0.385146 -0.150426 -0.489 166 108 96
0.408487 -0.152887 -0.497 141 94 88
0.416667 -0.15381 -0.5 133 93 85
0.432771 -0.156886 -0.51 130 92 83
-0.309029 -0.198095 -0.64 251 254 247
-0.302986 -0.196548 -0.635 217 220 213
-0.264347 -0.199333 -0.644 251 254 247
-0.154664 -0.200262 -0.647 181 180 175
-0.141671 -0.195929 -0.633 184 184 176
-0.133277 -0.197786 -0.639 187 187 177
0.367801 -0.150738 -0.487 182 122 112
0.40754 -0.153833 -0.497 141 92 85
0.4248 -0.156 -0.504 139 94 89
0.434593 -0.158167 -0.511 134 91 85
0.443507 -0.160333 -0.518 138 93 88
-0.31244 -0.199937 -0.642 252 255 248
-0.293591 -0.197134 -0.633 152 154 149
-0.263936 -0.200249 -0.643 251 254 247
-0.154186 -0.200871 -0.645 182 181 176
-0.142877 -0.197134 -0.633 185 185 177
-0.13948 -0.197446 -0.634 185 185 177
0.369128 -0.159451 -0.512 180 121 113
0.363723 -0.152289 -0.489 186 126 116
0.363909 -0.151977 -0.488 185 125 115
0.365946 -0.151666 -0.487 182 122 114
0.369656 -0.151666 -0.487 179 119 109
0.385146 -0.152289 -0.489 162 104 92
0.3878 -0.1526 -0.49 163 105 93
0.396748 -0.153534 -0.493 163 105 94
0.426605 -0.157271 -0.505 135 92 86
0.437271 -0.159763 -0.513 134 91 85
-0.312197 -0.20022 -0.639 253 255 249
-0.296739 -0.198027 -0.632 154 156 151
-0.29118 -0.19834 -0.633 149 151 148
-0.13948 -0.198653 -0.634 186 186 178
-0.129212 -0.201473 -0.643 191 188 179
-0.128187 -0.201787 -0.644 190 188 176
0.362829 -0.15604 -0.498 189 129 121
0.363533 -0.153533 -0.49 190 127 120
0.370415 -0.152907 -0.488 179 116 107
0.418454 -0.15698 -0.501 135 90 85
0.4248 -0.15792 -0.504 138 93 88
0.437271 -0.16074 -0.513 132 89 83
-0.306131 -0.199861 -0.634 242 244 239
-0.295535 -0.19923 -0.632 149 151 148
-0.264336 -0.202068 -0.641 253 254 249
-0.261071 -0.203329 -0.645 250 252 247
-0.259817 -0.204274 -0.648 251 252 247
-0.152751 -0.201437 -0.639 183 182 177
-0.137497 -0.200491 -0.636 186 186 178
-0.127551 -0.203959 -0.647 189 187 175
0.363723 -0.154151 -0.489 188 125 116
0.364838 -0.153836 -0.488 184 121 112
0.375992 -0.153836 -0.488 170 110 100
0.378781 -0.153836 -0.488 161 103 92
0.37971 -0.153836 -0.488 161 103 92
0.388733 -0.154467 -0.49 160 103 92
0.391397 -0.154782 -0.491 160 103 92
0.428413 -0.15951 -0.506 133 90 84
0.433743 -0.160771 -0.51 132 89 83
-0.306854 -0.200751 -0.633 249 252 245
-0.266745 -0.202337 -0.638 223 222 220
-0.259843 -0.204557 -0.645 252 253 248
-0.140688 -0.201069 -0.634 185 185 177
0.362206 -0.156034 -0.492 190 127 118
0.379557 -0.155083 -0.489 158 100 89
0.382351 -0.155083 -0.489 158 100 89
0.400375 -0.156669 -0.494 148 94 84
0.406593 -0.15762 -0.497 139 92 84
0.414883 -0.158254 -0.499 129 86 80
0.421202 -0.159206 -0.502 131 90 84
0.450776 -0.165866 -0.523 135 96 89
-0.315616 -0.20451 -0.641 252 253 248
-0.29627 -0.201319 -0.631 144 146 143
-0.263115 -0.20451 -0.641 252 253 247
-0.131662 -0.205148 -0.643 189 186 177
0.370415 -0.155695 -0.488 178 115 106
0.376763 -0.156014 -0.489 166 108 97
0.377694 -0.156014 -0.489 162 104 93
0.378626 -0.156014 -0.489 158 100 89
0.385 -0.156333 -0.49 154 97 86
0.385933 -0.156333 -0.49 155 98 87
0.386867 -0.156333 -0.49 155 98 87
0.418454 -0.159843 -0.501 128 91 83
0.419409 -0.159843 -0.501 127 90 82
0.437394 -0.163352 -0.512 125 91 82
-0.257349 -0.207977 -0.648 252 253 248
-0.147467 -0.202842 -0.632 187 184 175
0.362942 -0.15823 -0.493 186 128 117
0.36334 -0.157588 -0.491 184 124 116
0.378626 -0.156946 -0.489 156 97 89
0.385933 -0.157267 -0.49 155 98 89
0.409433 -0.159513 -0.497 128 87 81
-0.302519 -0.203077 -0.629 158 163 157
-0.261894 -0.206951 -0.641 252 253 248
-0.258614 -0.208243 -0.645 252 253 248
-0.143855 -0.204046 -0.632 187 184 177
-0.13992 -0.205337 -0.636 186 186 178
-0.133903 -0.207274 -0.642 190 188 176
-0.130843 -0.208243 -0.645 189 187 175
-0.128983 -0.209211 -0.648 188 186 173
-0.126905 -0.209857 -0.65 184 184 172
0.365586 -0.157877 -0.489 176 117 109
0.372274 -0.157554 -0.488 168 110 99
0.373204 -0.157554 -0.488 166 108 96
0.386077 -0.157877 -0.489 156 99 92
0.401316 -0.159491 -0.494 138 91 83
-0.308289 -0.204925 -0.631 252 255 250
-0.302519 -0.204275 -0.629 155 160 154
-0.142877 -0.205574 -0.633 185 185 175
-0.142119 -0.206224 -0.635 185 185 175
-0.138146 -0.207523 -0.639 186 186 176
0.3672 -0.16368 -0.504 190 127 120
0.36334 -0.159458 -0.491 183 123 115
0.395943 -0.159783 -0.492 142 91 87
0.403071 -0.160757 -0.495 135 88 82
0.404014 -0.160757 -0.495 134 89 83
0.40672 -0.161082 -0.496 134 89 84
0.409433 -0.161407 -0.497 130 85 80
0.417619 -0.162381 -0.5 129 89 81
0.423957 -0.163355 -0.503 130 90 82
0.456368 -0.170825 -0.526 139 98 92
-0.3066 -0.2058 -0.63 252 255 251
-0.304915 -0.205473 -0.629 242 247 241
-0.154943 -0.208413 -0.638 183 183 175
-0.133093 -0.210373 -0.644 187 187 175
0.36408 -0.16072 -0.492 182 122 114
0.36521 -0.160393 -0.491 181 121 113
0.366333 -0.160067 -0.49 176 116 108
0.373037 -0.15974 -0.489 167 108 100
0.373969 -0.15974 -0.489 164 107 98
0.381267 -0.160067 -0.49 149 95 85
0.407665 -0.162027 -0.496 131 86 80
0.409433 -0.162353 -0.497 129 86 80
0.421202 -0.163987 -0.502 128 90 81
0.427567 -0.164967 -0.505 130 91 84
0.44376 -0.16856 -0.516 128 91 83
-0.308289 -0.207329 -0.631 252 255 251
-0.256905 -0.213571 -0.65 251 252 247
-0.154943 -0.209629 -0.638 183 183 175
-0.142343 -0.208971 -0.636 189 186 177
-0.139363 -0.209957 -0.639 189 186 177
-0.137357 -0.210614 -0.641 189 187 175
-0.128143 -0.213571 -0.65 186 187 173
0.334541 -0.180057 -0.548 159 114 134
0.365759 -0.161986 -0.493 183 120 115
0.369311 -0.160671 -0.489 170 111 103
0.389527 -0.161329 -0.491 145 97 87
0.398626 -0.161986 -0.493 137 90 84
0.421202 -0.164943 -0.502 128 90 81
0.429377 -0.166257 -0.506 130 91 84
0.451037 -0.171186 -0.521 132 95 87
0.46636 -0.175457 -0.534 144 101 95
-0.3066 -0.2082 -0.63 253 255 250
-0.260267 -0.211505 -0.64 251 254 247
-0.259452 -0.211835 -0.641 250 253 246
-0.257386 -0.213157 -0.645 252 253 248
-0.1547 -0.210513 -0.637 183 183 175
-0.146031 -0.20853 -0.631 189 186 177
-0.141575 -0.210844 -0.638 189 186 177
-0.128143 -0.21481 -0.65 185 186 172
0.366146 -0.162264 -0.491 178 117 112
0.366333 -0.161933 -0.49 175 114 109
0.3794 -0.161933 -0.49 146 93 85
0.38485 -0.162264 -0.491 142 94 84
0.391257 -0.162594 -0.492 142 95 87
0.413932 -0.164908 -0.499 128 85 79
0.440203 -0.169534 -0.513 129 92 83
0.4429 -0.170195 -0.515 130 93 85
0.464613 -0.175813 -0.532 143 100 94
-0.303234 -0.208735 -0.628 225 227 222
-0.263099 -0.212059 -0.638 253 254 248
-0.259452 -0.213056 -0.641 250 253 246
-0.257386 -0.214386 -0.645 251 252 247
-0.143329 -0.211062 -0.635 189 186 177
-0.139581 -0.212724 -0.64 190 188 176
-0.132481 -0.21505 -0.647 186 187 173
0.369386 -0.168517 -0.507 185 124 121
0.365674 -0.165526 -0.498 184 121 116
0.3682 -0.162867 -0.49 173 112 107
0.369133 -0.162867 -0.49 171 110 105
0.375667 -0.162867 -0.49 161 102 96
0.387656 -0.163199 -0.491 143 96 88
0.389527 -0.163199 -0.491 143 96 88
0.421202 -0.166855 -0.502 128 88 80
0.422999 -0.167188 -0.503 127 87 79
0.427567 -0.167852 -0.505 127 87 79
0.452897 -0.173503 -0.522 138 98 90
-0.320043 -0.215614 -0.645 252 252 250
-0.263099 -0.213274 -0.638 253 254 248
-0.1547 -0.21294 -0.637 184 184 176
-0.146263 -0.211269 -0.632 190 187 178
-0.139799 -0.214277 -0.641 188 188 176
-0.039 -0.217286 -0.65 68 66 80
0.329846 -0.181183 -0.542 166 115 130
0.371 -0.1638 -0.49 164 105 99
0.3766 -0.1638 -0.49 156 103 95
0.385786 -0.164134 -0.491 141 94 86
0.394069 -0.164469 -0.492 140 93 85
0.429377 -0.169149 -0.506 128 88 80
0.462867 -0.177171 -0.53 144 101 94
-0.320539 -0.217179 -0.646 252 252 250
-0.258213 -0.216507 -0.644 252 253 248
-0.156403 -0.214826 -0.639 184 184 176
-0.153246 -0.213817 -0.636 187 187 179
-0.135757 -0.216843 -0.645 191 189 177
-0.0298667 -0.215162 -0.64 74 72 83
0.326605 -0.179862 -0.535 167 114 130
0.326186 -0.178517 -0.531 166 118 130
0.371571 -0.171457 -0.51 183 125 121
0.365674 -0.167423 -0.498 182 121 116
0.375667 -0.164733 -0.49 156 99 92
0.386721 -0.16507 -0.491 141 94 86
0.387656 -0.16507 -0.491 141 94 86
0.444743 -0.173474 -0.516 131 93 84
0.458371 -0.176836 -0.526 141 98 92
0.461993 -0.177845 -0.529 143 100 94
-0.298691 -0.211648 -0.626 198 200 195
-0.293922 -0.211648 -0.626 127 129 124
-0.264281 -0.21469 -0.635 252 253 248
-0.145289 -0.214014 -0.633 187 187 179
-0.144538 -0.21469 -0.635 187 187 179
0.333667 -0.185952 -0.55 169 119 131
0.327624 -0.180881 -0.535 169 116 132
0.366923 -0.169386 -0.501 183 124 118
0.365954 -0.166343 -0.492 173 115 111
0.366146 -0.166005 -0.491 170 112 108
0.3766 -0.165667 -0.49 150 100 93
0.38485 -0.166005 -0.491 140 93 85
0.398626 -0.166681 -0.493 132 88 79
0.402257 -0.167019 -0.494 132 88 79
0.404014 -0.167357 -0.495 130 87 80
0.428529 -0.170738 -0.505 130 90 80
0.434831 -0.17209 -0.509 129 91 82
0.44659 -0.174795 -0.517 129 92 84
0.46112 -0.178514 -0.528 141 98 92
-0.30443 -0.21352 -0.628 250 250 248
-0.264281 -0.2159 -0.635 253 254 249
-0.263099 -0.21692 -0.638 253 254 248
-0.258614 -0.2193 -0.645 252 253 248
-0.149141 -0.21556 -0.634 189 186 177
-0.03858 -0.21862 -0.643 70 69 77
-0.0241057 -0.22066 -0.649 82 80 91
0.325256 -0.17782 -0.523 169 122 132
0.366698 -0.16762 -0.493 172 114 112
0.3822 -0.1666 -0.49 139 90 83
0.388446 -0.16728 -0.492 139 92 86
0.402257 -0.16796 -0.494 132 88 79
0.430341 -0.17204 -0.506 128 90 79
0.43301 -0.17272 -0.508 129 91 82
0.437513 -0.17374 -0.511 128 90 81
-0.302751 -0.214374 -0.627 251 251 249
-0.297499 -0.214032 -0.626 248 250 245
-0.289614 -0.214374 -0.627 132 137 130
-0.268271 -0.216426 -0.633 244 243 239
-0.26628 -0.216768 -0.634 255 255 251
-0.26549 -0.21711 -0.635 255 255 251
-0.1547 -0.217793 -0.637 186 186 176
-0.142019 -0.218819 -0.64 190 188 176
-0.139227 -0.220187 -0.644 191 189 177
-0.0370067 -0.217793 -0.637 69 67 80
0.326605 -0.182919 -0.535 174 122 134
0.323882 -0.179158 -0.524 175 124 139
0.32426 -0.178816 -0.523 176 125 140
0.365357 -0.169243 -0.495 176 116 116
0.36556 -0.168901 -0.494 175 113 114
0.367081 -0.167875 -0.491 165 105 105
0.371 -0.167533 -0.49 155 102 96
0.3794 -0.167533 -0.49 140 91 84
0.380333 -0.167533 -0.49 139 90 83
0.387509 -0.168217 -0.492 139 92 84
0.393131 -0.168217 -0.492 135 88 80
0.399565 -0.168559 -0.493 133 89 80
0.401316 -0.168901 -0.494 131 88 79
0.467517 -0.182235 -0.533 147 98 93
-0.301557 -0.215569 -0.627 250 250 248
-0.267488 -0.217975 -0.634 255 255 253
-0.0344714 -0.218319 -0.635 72 70 84
-0.0321533 -0.219007 -0.637 75 73 87
0.369621 -0.173968 -0.506 183 121 122
0.3738 -0.168467 -0.49 149 96 88
0.380174 -0.16881 -0.491 139 91 81
0.383915 -0.16881 -0.491 139 90 83
0.392052 -0.169498 -0.493 137 90 82
0.39487 -0.169498 -0.493 132 88 79
0.402257 -0.169842 -0.494 130 87 78
0.406843 -0.170186 -0.495 131 88 81
0.41038 -0.170873 -0.497 127 84 77
0.422999 -0.172936 -0.503 128 90 79
0.467517 -0.18325 -0.533 146 97 92
-0.1547 -0.22022 -0.637 185 185 173
-0.142241 -0.221603 -0.641 191 188 179
-0.0405829 -0.219874 -0.636 64 62 73
0.323882 -0.181154 -0.524 184 134 146
0.367655 -0.173549 -0.502 180 120 120
0.367637 -0.170437 -0.493 163 105 104
0.370067 -0.1694 -0.49 155 102 96
0.372106 -0.169054 -0.489 146 96 87
0.38298 -0.169746 -0.491 139 91 81
0.388446 -0.170091 -0.492 137 90 82
0.39487 -0.170437 -0.493 131 87 78
0.422158 -0.173549 -0.502 129 89 79
0.459373 -0.181846 -0.526 142 95 89
-0.2742 -0.219 -0.63 255 255 253
-0.267488 -0.22039 -0.634 204 204 202
-0.2667 -0.220738 -0.635 240 240 238
-0.263486 -0.221086 -0.636 253 254 249
-0.261487 -0.223519 -0.643 252 255 248
-0.0343629 -0.220043 -0.633 74 72 83
-0.0321029 -0.221086 -0.636 75 73 84
0.329461 -0.187019 -0.538 182 131 140
0.322769 -0.180414 -0.519 183 133 145
0.375667 -0.170333 -0.49 142 92 81
0.377533 -0.170333 -0.49 139 91 81
0.383915 -0.170681 -0.491 138 89 82
0.385786 -0.170681 -0.491 136 89 81
0.387509 -0.171029 -0.492 136 89 81
0.389383 -0.171029 -0.492 137 90 82
0.39032 -0.171029 -0.492 136 89 81
0.396611 -0.171724 -0.494 129 85 76
0.399434 -0.171724 -0.494 131 87 78
0.400375 -0.171724 -0.494 134 90 81
0.419409 -0.174157 -0.501 128 88 78
0.42672 -0.1752 -0.504 129 89 79
0.4585 -0.1825 -0.525 139 96 89
-0.300842 -0.219501 -0.628 252 253 248
-0.262705 -0.223695 -0.64 251 253 248
-0.144006 -0.222996 -0.638 194 192 180
-0.140453 -0.225093 -0.644 193 190 181
-0.134127 -0.226841 -0.649 191 189 177
-0.0276 -0.225093 -0.644 76 74 87
-0.0264552 -0.225792 -0.646 77 75 88
0.373037 -0.170917 -0.489 142 92 83
0.382045 -0.171616 -0.491 136 87 80
0.430341 -0.176859 -0.506 129 89 81
0.44032 -0.178956 -0.512 130 90 82
0.447574 -0.180704 -0.517 132 92 84
-0.319063 -0.227726 -0.648 253 254 249
-0.3042 -0.2214 -0.63 253 253 251
-0.2778 -0.2214 -0.63 253 253 251
-0.139659 -0.227023 -0.646 194 192 180
-0.0469333 -0.224914 -0.64 67 65 79
-0.0378 -0.2214 -0.63 71 69 82
-0.0355124 -0.222103 -0.632 72 70 81
-0.0276429 -0.226671 -0.645 76 74 87
0.321525 -0.181689 -0.517 186 136 148
0.367655 -0.176417 -0.502 180 118 119
0.368951 -0.172551 -0.491 154 100 98
0.3766 -0.1722 -0.49 139 90 83
0.386571 -0.172903 -0.492 135 88 82
0.407665 -0.174309 -0.496 131 88 79
0.414883 -0.175363 -0.499 128 85 78
0.430341 -0.177823 -0.506 130 90 82
0.44032 -0.179931 -0.512 129 89 81
-0.297253 -0.221893 -0.628 253 253 251
-0.2802 -0.2226 -0.63 253 254 249
-0.273867 -0.223307 -0.632 253 254 249
-0.269119 -0.224367 -0.635 146 148 145
-0.14124 -0.22684 -0.642 192 192 180
-0.138643 -0.228607 -0.647 191 191 179
-0.0426676 -0.222953 -0.631 67 65 79
-0.0414 -0.2226 -0.63 66 64 78
-0.0355124 -0.223307 -0.632 72 70 83
-0.0332619 -0.224367 -0.635 73 71 84
0.320638 -0.181613 -0.514 187 135 147
0.323291 -0.180907 -0.512 180 125 131
0.3738 -0.173133 -0.49 138 91 83
0.378467 -0.173133 -0.49 137 88 81
0.404957 -0.1749 -0.495 132 88 79
0.414883 -0.176313 -0.499 128 85 76
0.462254 -0.186207 -0.527 141 94 88
-0.31244 -0.228063 -0.642 253 253 251
-0.282151 -0.223445 -0.629 253 254 249
-0.2802 -0.2238 -0.63 253 254 249
-0.157137 -0.228063 -0.642 187 187 179
-0.152034 -0.225931 -0.636 190 187 178
-0.0550952 -0.230905 -0.65 78 78 80
-0.0400724 -0.22309 -0.628 69 69 79
-0.0333143 -0.225931 -0.636 72 72 82
-0.0310857 -0.227352 -0.64 74 74 84
0.320903 -0.183303 -0.516 190 136 149
0.366923 -0.177974 -0.501 175 116 118
0.368383 -0.175488 -0.494 156 102 100
0.377533 -0.174067 -0.49 138 91 83
0.379239 -0.174422 -0.491 137 88 81
0.384697 -0.174777 -0.492 136 89 81
0.388296 -0.175132 -0.493 135 88 80
0.389235 -0.175132 -0.493 135 88 80
0.392052 -0.175132 -0.493 133 86 78
0.39567 -0.175488 -0.494 129 82 74
0.398493 -0.175488 -0.494 130 86 77
0.441295 -0.181882 -0.512 131 88 82
-0.291736 -0.224643 -0.629 253 253 251
-0.2874 -0.225 -0.63 253 254 249
-0.2862 -0.225 -0.63 253 254 249
-0.2838 -0.225 -0.63 253 254 249
-0.266745 -0.227857 -0.638 154 154 152
-0.136599 -0.231786 -0.649 191 191 179
-0.0448571 -0.224286 -0.628 67 67 77
-0.0344714 -0.226786 -0.635 71 71 81
0.320903 -0.184286 -0.516 194 139 144
0.321341 -0.182857 -0.512 189 136 142
0.366623 -0.177857 -0.498 170 115 118
0.377369 -0.175357 -0.491 136 87 80
0.402129 -0.176786 -0.495 132 88 79
0.42949 -0.180357 -0.505 128 88 78
0.445843 -0.183929 -0.515 132 92 84
0.447691 -0.184286 -0.516 136 93 84
-0.278356 -0.227636 -0.634 253 253 251
-0.273607 -0.228713 -0.637 252 254 251
-0.265573 -0.231227 -0.644 191 191 189
-0.151795 -0.227995 -0.635 190 190 182
-0.147933 -0.227636 -0.634 193 191 179
-0.135363 -0.233022 -0.649 189 189 177
-0.0423295 -0.224764 -0.626 69 69 79
0.324943 -0.183114 -0.51 175 113 114
0.390966 -0.17737 -0.494 131 87 78
0.423957 -0.180601 -0.503 129 89 79
0.434945 -0.182396 -0.508 129 89 81
-0.309733 -0.232453 -0.644 253 253 251
-0.307549 -0.231731 -0.642 253 253 251
-0.293591 -0.228483 -0.633 253 253 251
-0.285905 -0.228122 -0.632 253 253 251
-0.140017 -0.231731 -0.642 197 195 183
-0.0400086 -0.226317 -0.627 69 69 79
-0.0323048 -0.23101 -0.64 72 72 82
0.32266 -0.184447 -0.511 185 130 136
0.323 -0.184086 -0.51 183 124 128
0.377369 -0.177228 -0.491 139 90 83
0.38376 -0.177589 -0.492 136 89 81
0.390966 -0.17831 -0.494 130 86 77
0.402129 -0.178671 -0.495 131 87 78
0.416667 -0.180476 -0.5 127 87 77
0.455999 -0.188056 -0.521 133 94 87
0.464262 -0.190222 -0.527 135 98 90
-0.285602 -0.230051 -0.634 253 253 251
-0.280446 -0.230777 -0.636 253 253 251
-0.145748 -0.230414 -0.635 196 194 182
-0.138794 -0.232954 -0.642 195 195 183
-0.130619 -0.235857 -0.65 192 190 178
-0.129381 -0.235857 -0.65 199 197 185
-0.06072 -0.23368 -0.644 66 65 73
-0.025381 -0.235857 -0.65 76 74 87
0.322646 -0.189411 -0.522 192 137 142
0.32266 -0.18542 -0.511 186 131 136
0.324943 -0.185057 -0.51 180 119 118
0.3927 -0.179614 -0.495 129 85 76
0.397414 -0.179614 -0.495 130 83 73
0.419409 -0.181791 -0.501 128 88 78
0.42949 -0.183243 -0.505 130 90 82
0.457869 -0.189411 -0.522 132 93 86
0.465266 -0.191226 -0.527 133 96 90
-0.310902 -0.23673 -0.649 253 253 251
-0.308711 -0.236001 -0.647 253 253 251
-0.277767 -0.233812 -0.641 253 253 251
-0.148906 -0.230894 -0.633 198 195 186
-0.135757 -0.235271 -0.645 196 194 182
-0.132686 -0.236366 -0.648 194 192 180
-0.0587543 -0.231989 -0.636 63 62 70
-0.0468733 -0.227247 -0.623 68 68 78
-0.0445 -0.227247 -0.623 67 67 77
-0.0411371 -0.228341 -0.626 69 69 79
0.321341 -0.186758 -0.512 193 141 145
0.325914 -0.186029 -0.51 177 116 115
0.37129 -0.187852 -0.515 178 123 126
0.367693 -0.18457 -0.506 177 122 125
0.370071 -0.180557 -0.495 151 100 97
0.373451 -0.179463 -0.492 137 88 81
0.3772 -0.179463 -0.492 135 87 77
0.390025 -0.180192 -0.494 130 83 75
0.398357 -0.180557 -0.495 131 84 74
0.409433 -0.181287 -0.497 128 85 76
0.422158 -0.18311 -0.502 128 88 78
0.42949 -0.184205 -0.505 132 89 82
0.433123 -0.184934 -0.507 130 87 80
0.439571 -0.186029 -0.51 130 87 81
0.445956 -0.187488 -0.514 133 90 84
-0.302843 -0.2365 -0.645 253 253 251
-0.291962 -0.234667 -0.64 253 253 251
-0.274586 -0.2365 -0.645 255 255 255
-0.146494 -0.2321 -0.633 195 192 183
-0.14431 -0.232467 -0.634 197 197 189
-0.143103 -0.232467 -0.634 195 195 183
-0.0668533 -0.236133 -0.644 114 112 113
-0.0528067 -0.228433 -0.623 67 66 80
-0.0445 -0.228433 -0.623 67 67 77
0.328029 -0.1958 -0.534 184 133 138
0.366409 -0.182967 -0.499 168 111 117
0.366623 -0.1826 -0.498 162 108 108
0.368186 -0.1815 -0.495 152 101 98
0.372332 -0.180767 -0.493 142 92 85
0.373451 -0.1804 -0.492 137 88 81
0.389084 -0.181133 -0.494 130 83 75
0.408487 -0.182233 -0.497 130 87 78
0.409433 -0.182233 -0.497 128 85 76
0.418454 -0.1837 -0.501 130 87 80
-0.305957 -0.239203 -0.649 253 253 251
-0.300851 -0.238097 -0.646 253 253 251
-0.29624 -0.23736 -0.644 253 253 251
-0.287653 -0.23736 -0.644 252 252 250
-0.282394 -0.238097 -0.646 253 253 253
-0.281164 -0.238097 -0.646 253 253 253
-0.141895 -0.233674 -0.634 198 196 184
-0.13992 -0.234411 -0.636 199 199 191
-0.0706429 -0.237729 -0.645 157 156 154
-0.0648114 -0.234411 -0.636 65 64 70
-0.0576457 -0.229989 -0.624 59 57 70
-0.0526371 -0.228883 -0.621 67 69 82
-0.03792 -0.232937 -0.632 70 70 80
-0.0323552 -0.236254 -0.641 73 73 83
-0.0300533 -0.23736 -0.644 74 72 83
0.328643 -0.197186 -0.535 183 130 136
0.321969 -0.189077 -0.513 191 139 143
0.322316 -0.188709 -0.512 190 135 140
0.327214 -0.187603 -0.509 183 120 115
0.374785 -0.193131 -0.524 177 125 127
0.371029 -0.190183 -0.516 177 127 128
0.368657 -0.187971 -0.51 176 125 124
0.37421 -0.181706 -0.493 137 89 79
0.42672 -0.18576 -0.504 131 88 81
-0.303485 -0.240439 -0.649 253 253 251
-0.0714257 -0.237475 -0.641 128 128 126
-0.057461 -0.230436 -0.622 69 67 80
-0.0265371 -0.240069 -0.648 77 75 86
0.321617 -0.190425 -0.514 195 140 145
0.373354 -0.193389 -0.522 174 124 125
0.372147 -0.183015 -0.494 139 90 83
0.388143 -0.183015 -0.494 131 84 76
0.3993 -0.183386 -0.495 129 85 74
0.405775 -0.183756 -0.496 132 88 79
0.443246 -0.189684 -0.512 133 90 81
0.448786 -0.190795 -0.515 134 91 84
-0.294377 -0.241303 -0.648 253 253 251
-0.293143 -0.241303 -0.648 253 253 251
-0.146494 -0.235717 -0.633 221 222 217
-0.0834429 -0.241675 -0.649 255 247 236
-0.0752057 -0.239069 -0.642 157 157 155
-0.0446429 -0.232738 -0.625 68 68 78
-0.0323552 -0.238696 -0.641 69 71 83
-0.0241429 -0.242048 -0.65 78 76 87
0.324943 -0.189914 -0.51 183 122 121
0.367143 -0.18619 -0.5 160 108 110
0.36852 -0.185446 -0.498 155 102 98
0.371764 -0.184701 -0.496 145 95 88
0.381723 -0.183584 -0.493 137 90 82
0.38532 -0.183956 -0.494 135 88 78
0.389084 -0.183956 -0.494 131 84 74
0.390814 -0.184329 -0.495 131 84 74
0.398357 -0.184329 -0.495 129 85 74
0.408487 -0.185073 -0.497 129 86 77
0.413103 -0.185446 -0.498 129 84 78
0.42672 -0.18768 -0.504 133 90 83
0.42949 -0.188052 -0.505 133 90 83
0.434089 -0.188797 -0.507 131 88 81
0.452498 -0.192521 -0.517 132 92 84
0.461734 -0.194755 -0.523 134 95 88
-0.140776 -0.235426 -0.629 203 202 197
-0.137836 -0.236549 -0.632 200 200 190
-0.134862 -0.237671 -0.635 202 200 188
-0.124507 -0.24104 -0.644 225 219 203
-0.117692 -0.242163 -0.647 224 219 200
-0.0871514 -0.242911 -0.649 251 245 231
-0.0414 -0.2358 -0.63 69 69 81
-0.0391857 -0.236923 -0.633 69 69 81
-0.03804 -0.237297 -0.634 71 71 83
0.330486 -0.201366 -0.538 186 127 133
0.321617 -0.192383 -0.514 195 136 142
0.323633 -0.19126 -0.511 185 129 132
0.325914 -0.190886 -0.51 179 121 120
0.326245 -0.190511 -0.509 181 121 120
0.37591 -0.184897 -0.494 131 84 74
0.3927 -0.185271 -0.495 127 83 72
0.44238 -0.19126 -0.511 137 88 83
0.452498 -0.193506 -0.517 131 91 83
0.476405 -0.200243 -0.535 147 100 94
-0.152905 -0.244524 -0.65 223 223 225
-0.133231 -0.238129 -0.633 200 200 190
-0.12922 -0.239633 -0.637 205 203 190
-0.128208 -0.24001 -0.638 217 215 202
-0.126171 -0.240762 -0.64 224 222 207
-0.117329 -0.242643 -0.645 226 221 202
-0.0795981 -0.24001 -0.638 148 148 148
-0.0781371 -0.239257 -0.636 118 118 118
-0.0696429 -0.235119 -0.625 70 70 80
-0.0682333 -0.234367 -0.623 65 67 79
-0.0546486 -0.23211 -0.617 70 68 79
-0.0425324 -0.236624 -0.629 68 68 78
-0.0357933 -0.239633 -0.637 71 71 81
0.188992 -0.238505 -0.634 195 142 138
0.328184 -0.191481 -0.509 174 119 122
0.377057 -0.199381 -0.53 169 122 132
0.371647 -0.195995 -0.521 174 124 133
0.370493 -0.194867 -0.518 182 132 141
0.368871 -0.192986 -0.513 181 130 139
0.374786 -0.186214 -0.495 136 87 80
0.387202 -0.185838 -0.494 130 83 73
0.397414 -0.186214 -0.495 127 83 72
0.40672 -0.18659 -0.496 131 89 77
0.458976 -0.195995 -0.521 133 90 84
0.470054 -0.199005 -0.529 139 98 94
-0.136746 -0.237066 -0.627 227 226 221
-0.0953619 -0.24425 -0.646 246 240 226
-0.0913867 -0.243493 -0.644 244 238 226
-0.09002 -0.243115 -0.643 241 235 223
-0.0860771 -0.242359 -0.641 207 206 202
-0.0832438 -0.241225 -0.638 163 164 159
-0.0745238 -0.236688 -0.626 76 75 81
-0.0676857 -0.233663 -0.618 66 69 78
-0.0626714 -0.232529 -0.615 72 71 79
-0.0568143 -0.232529 -0.615 72 70 81
0.188666 -0.234797 -0.621 195 142 138
0.323224 -0.194719 -0.515 191 132 138
0.36743 -0.190182 -0.503 167 111 114
0.411206 -0.188291 -0.498 125 83 71
0.423114 -0.189804 -0.502 131 88 81
0.444221 -0.193585 -0.512 136 91 85
-0.147584 -0.24434 -0.643 202 202 204
-0.12194 -0.24206 -0.637 226 222 210
-0.118006 -0.24396 -0.642 227 224 207
-0.116783 -0.24396 -0.642 227 224 207
-0.113643 -0.2451 -0.645 229 226 207
-0.107667 -0.24548 -0.646 237 230 214
-0.105206 -0.24548 -0.646 238 231 215
-0.101357 -0.2451 -0.645 244 236 223
-0.0989 -0.2451 -0.645 247 241 229
-0.0866171 -0.24168 -0.636 171 171 173
-0.0568143 -0.2337 -0.615 72 71 79
-0.0437305 -0.23902 -0.629 70 68 79
-0.0392476 -0.24092 -0.634 72 72 82
-0.0335238 -0.2432 -0.64 73 73 81
-0.0276857 -0.24548 -0.646 76 74 85
0.196744 -0.23294 -0.613 166 110 109
0.213338 -0.23978 -0.631 163 107 106
0.220566 -0.24244 -0.638 158 104 104
0.332062 -0.19342 -0.509 174 123 128
0.36673 -0.19228 -0.506 177 123 123
0.366967 -0.1919 -0.505 174 120 120
0.36831 -0.18962 -0.499 151 97 95
0.374598 -0.18848 -0.496 136 87 80
0.380615 -0.18772 -0.494 134 87 77
0.397272 -0.18848 -0.496 128 84 75
0.40754 -0.18886 -0.497 130 87 78
0.408487 -0.18886 -0.497 128 85 76
0.419409 -0.19038 -0.501 131 88 79
0.423114 -0.19076 -0.502 131 88 79
0.459969 -0.19798 -0.521 134 93 87
-0.129373 -0.239072 -0.626 239 236 229
-0.127394 -0.239836 -0.628 236 233 228
-0.120727 -0.243273 -0.637 227 223 211
-0.113114 -0.245183 -0.642 231 227 215
-0.109616 -0.245565 -0.643 234 230 218
-0.0969143 -0.244419 -0.64 239 234 230
-0.0955457 -0.244037 -0.639 232 227 223
-0.08862 -0.241746 -0.633 156 152 153
-0.059061 -0.23449 -0.614 72 71 79
-0.0526371 -0.237163 -0.621 72 71 79
-0.0482143 -0.23869 -0.625 72 71 79
-0.0381 -0.24251 -0.635 71 71 81
-0.0253419 -0.247856 -0.649 78 76 89
0.175089 -0.236399 -0.619 183 129 117
0.180103 -0.233726 -0.612 194 141 137
0.189567 -0.231052 -0.605 172 117 114
0.19843 -0.233344 -0.611 171 111 110
0.325629 -0.199354 -0.522 183 131 133
0.327857 -0.194771 -0.51 174 120 120
0.330771 -0.194771 -0.51 179 123 124
0.334001 -0.19439 -0.509 182 131 136
0.367632 -0.196299 -0.514 178 142 156
0.366489 -0.193626 -0.507 170 124 127
0.3672 -0.19248 -0.504 172 117 114
0.367877 -0.191334 -0.501 158 103 98
0.368831 -0.191334 -0.501 155 102 98
0.370417 -0.190189 -0.498 144 93 89
0.372314 -0.190189 -0.498 141 90 86
0.380615 -0.188661 -0.494 134 87 79
0.398217 -0.189425 -0.496 129 85 76
0.399162 -0.189425 -0.496 129 85 76
0.41038 -0.189807 -0.497 125 82 73
0.459086 -0.19859 -0.52 134 93 87
-0.14727 -0.248325 -0.647 112 112 114
-0.13631 -0.239881 -0.625 206 206 208
-0.123609 -0.240649 -0.627 245 246 238
-0.113803 -0.245254 -0.639 236 233 226
-0.0950971 -0.244103 -0.636 181 181 181
-0.0894 -0.2418 -0.63 102 101 106
-0.085119 -0.239881 -0.625 71 74 79
-0.0635314 -0.234891 -0.612 72 70 81
-0.0613 -0.235275 -0.613 73 72 80
-0.0426676 -0.242184 -0.631 72 70 81
-0.0276857 -0.247941 -0.646 75 73 84
0.169547 -0.236427 -0.616 188 125 118
0.179751 -0.231437 -0.603 199 146 142
0.208267 -0.236427 -0.616 153 94 96
0.235494 -0.249092 -0.649 138 87 86
0.326854 -0.196894 -0.513 175 119 118
0.366653 -0.197278 -0.514 179 138 154
0.366244 -0.194975 -0.508 176 127 131
0.366967 -0.193824 -0.505 171 119 121
0.372111 -0.191521 -0.499 144 93 89
0.377432 -0.19037 -0.496 131 84 76
0.381386 -0.189986 -0.495 134 87 79
0.391604 -0.19037 -0.496 128 81 73
0.394438 -0.19037 -0.496 126 82 73
0.396328 -0.19037 -0.496 127 83 74
0.398217 -0.19037 -0.496 128 86 74
0.41038 -0.190753 -0.497 125 82 73
0.413932 -0.191521 -0.499 128 85 76
0.4296 -0.19344 -0.504 132 89 80
0.445196 -0.19651 -0.512 133 93 85
-0.129523 -0.239529 -0.621 210 210 212
-0.12834 -0.239529 -0.621 218 218 218
-0.0900248 -0.241457 -0.626 78 76 87
-0.0858952 -0.239914 -0.622 79 77 88
-0.0844381 -0.239143 -0.62 78 76 87
-0.0831229 -0.238757 -0.619 77 75 86
-0.0803733 -0.2376 -0.616 78 76 87
-0.0777733 -0.236829 -0.614 77 75 86
-0.0692467 -0.235671 -0.611 75 74 82
-0.0646971 -0.236057 -0.612 74 73 81
-0.0592533 -0.2376 -0.616 71 70 78
-0.0241057 -0.250329 -0.649 76 76 88
0.164353 -0.2403 -0.623 197 146 145
0.167895 -0.235286 -0.61 184 115 108
0.172566 -0.233743 -0.606 197 139 135
0.178559 -0.231043 -0.599 202 149 143
0.187373 -0.230657 -0.598 172 114 110
0.198786 -0.233357 -0.605 159 100 102
0.20842 -0.236443 -0.613 150 94 97
0.328988 -0.204043 -0.529 179 127 129
0.3275 -0.2025 -0.525 182 130 132
0.326512 -0.198257 -0.514 172 117 120
0.368831 -0.193243 -0.501 149 98 95
0.372111 -0.192471 -0.499 144 93 89
0.384214 -0.190929 -0.495 131 84 76
0.396328 -0.191314 -0.496 127 83 72
-0.0904886 -0.240711 -0.621 80 78 89
-0.0852048 -0.239161 -0.617 75 73 86
-0.0825857 -0.238386 -0.615 77 75 86
-0.073781 -0.236448 -0.61 75 74 82
-0.072619 -0.236448 -0.61 75 74 82
-0.0593495 -0.239161 -0.617 73 72 80
-0.0539933 -0.241487 -0.623 73 72 80
-0.0517029 -0.241874 -0.624 73 71 82
-0.0449286 -0.243812 -0.629 72 70 81
-0.0427352 -0.244975 -0.632 74 72 83
-0.0404552 -0.24575 -0.634 74 73 81
-0.0335238 -0.248076 -0.64 76 75 83
0.16414 -0.23606 -0.609 198 135 130
0.169103 -0.234897 -0.606 167 99 86
0.174286 -0.232571 -0.6 201 147 147
0.175983 -0.231796 -0.598 207 149 145
0.184476 -0.231021 -0.596 174 125 110
0.194857 -0.232571 -0.6 159 100 96
0.327433 -0.200399 -0.517 170 115 118
0.37516 -0.193034 -0.498 136 87 82
0.390659 -0.192259 -0.496 125 78 68
0.391604 -0.192259 -0.496 125 78 68
0.394287 -0.192647 -0.497 126 82 71
0.395383 -0.192259 -0.496 126 82 71
0.402941 -0.192259 -0.496 130 88 76
0.405775 -0.192259 -0.496 130 88 76
0.411206 -0.193034 -0.498 127 84 75
0.420363 -0.194197 -0.501 132 89 80
0.452606 -0.200011 -0.516 132 92 84
-0.110119 -0.243452 -0.625 173 172 177
-0.105357 -0.243452 -0.625 118 117 123
-0.104 -0.243063 -0.624 104 105 110
-0.07946 -0.23722 -0.609 78 76 87
-0.073539 -0.23683 -0.608 75 74 82
-0.0648029 -0.238778 -0.613 74 72 83
-0.0404552 -0.246958 -0.634 72 71 79
-0.0300533 -0.250853 -0.644 73 72 80
0.170857 -0.233714 -0.6 201 148 144
0.194208 -0.232935 -0.598 156 97 91
0.329751 -0.205279 -0.527 179 123 126
0.334657 -0.198657 -0.51 182 128 128
0.366967 -0.19671 -0.505 167 112 115
0.3672 -0.19632 -0.504 164 108 109
0.372857 -0.194762 -0.5 143 92 88
0.39334 -0.193593 -0.497 125 81 72
0.39618 -0.193593 -0.497 126 82 73
0.396328 -0.193204 -0.496 128 84 75
0.402941 -0.193204 -0.496 131 89 77
0.43602 -0.197489 -0.507 132 89 82
0.439679 -0.198268 -0.509 134 91 84
0.452606 -0.200994 -0.516 132 92 84
-0.133163 -0.245426 -0.627 113 113 115
-0.130916 -0.243469 -0.622 113 112 117
-0.122414 -0.240729 -0.615 113 114 119
-0.120267 -0.24112 -0.616 119 119 121
-0.104346 -0.242294 -0.619 75 74 82
-0.0928257 -0.239946 -0.613 71 71 81
-0.0746971 -0.237989 -0.608 75 74 82
-0.073539 -0.237989 -0.608 76 75 83
-0.07134 -0.23838 -0.609 77 76 84
-0.0649086 -0.240337 -0.614 75 73 84
-0.0461267 -0.246209 -0.629 74 73 81
-0.0347429 -0.250514 -0.64 76 74 85
0.162253 -0.23564 -0.602 195 128 122
0.16829 -0.234466 -0.599 202 147 140
0.183548 -0.232117 -0.593 177 123 111
0.200093 -0.23564 -0.602 169 111 107
0.330388 -0.202369 -0.517 166 116 119
0.361406 -0.198846 -0.508 174 131 141
0.370524 -0.196497 -0.502 147 96 92
0.37914 -0.19454 -0.497 130 83 77
0.380087 -0.19454 -0.497 130 83 75
0.3905 -0.19454 -0.497 122 78 69
0.39618 -0.19454 -0.497 125 82 73
0.401051 -0.194149 -0.496 130 87 78
0.40754 -0.19454 -0.497 130 87 78
0.412154 -0.194931 -0.498 126 83 74
0.440649 -0.199237 -0.509 133 93 85
0.46284 -0.204326 -0.522 135 94 88
-0.119876 -0.241507 -0.614 95 94 99
-0.118707 -0.241507 -0.614 96 95 100
-0.104502 -0.241113 -0.613 71 69 80
-0.09454 -0.23954 -0.609 66 64 75
-0.0745743 -0.238753 -0.607 76 75 83
-0.0671381 -0.241113 -0.613 74 73 81
-0.0484457 -0.247013 -0.628 73 72 78
-0.0461267 -0.247407 -0.629 74 72 83
-0.0312314 -0.252913 -0.643 72 70 81
0.15602 -0.23954 -0.609 201 156 153
0.180677 -0.23246 -0.591 178 124 112
0.181803 -0.23246 -0.591 174 117 106
0.184366 -0.232853 -0.592 167 107 99
0.214723 -0.240327 -0.611 167 111 110
0.220714 -0.24308 -0.618 174 118 117
0.235517 -0.25134 -0.639 173 115 114
0.241303 -0.25488 -0.648 171 111 113
0.33597 -0.201387 -0.512 176 121 124
0.338543 -0.2006 -0.51 182 135 143
0.360178 -0.200207 -0.509 174 131 140
0.36166 -0.19942 -0.507 177 130 138
0.37381 -0.196667 -0.5 140 89 85
0.383873 -0.195487 -0.497 131 84 76
0.393183 -0.19588 -0.498 123 80 73
0.419524 -0.196667 -0.5 131 88 79
0.438815 -0.199813 -0.508 131 91 83
0.473971 -0.208467 -0.53 122 102 103
-0.114448 -0.241095 -0.61 74 73 79
-0.0855686 -0.238329 -0.603 75 74 82
-0.0812429 -0.239119 -0.605 77 76 84
-0.0780429 -0.23991 -0.607 76 75 83
-0.0704105 -0.24149 -0.611 78 77 83
-0.063079 -0.244652 -0.619 74 73 81
-0.0575533 -0.246233 -0.623 74 73 81
-0.0507571 -0.247814 -0.627 73 72 78
-0.0335762 -0.253348 -0.641 77 75 86
-0.0241057 -0.25651 -0.649 74 74 84
0.179248 -0.23319 -0.59 182 128 116
0.181803 -0.233586 -0.591 174 117 106
0.184366 -0.233981 -0.592 167 107 99
0.194693 -0.235562 -0.596 152 92 82
0.197294 -0.235957 -0.597 200 140 132
0.209962 -0.238724 -0.604 173 119 117
0.217761 -0.242281 -0.613 167 113 113
0.332697 -0.203943 -0.516 170 114 117
0.356727 -0.201967 -0.511 171 143 158
0.35947 -0.200781 -0.508 176 130 140
0.364802 -0.19999 -0.506 172 122 125
0.36816 -0.1992 -0.504 159 105 105
0.376864 -0.197224 -0.499 134 85 80
0.378006 -0.196829 -0.498 130 83 75
0.382927 -0.196433 -0.497 131 84 76
0.391447 -0.196433 -0.497 122 79 72
0.397127 -0.196433 -0.497 126 83 76
0.398874 -0.196829 -0.498 127 84 75
0.407411 -0.196829 -0.498 129 86 77
0.411206 -0.196829 -0.498 125 82 73
0.422271 -0.198014 -0.501 132 89 80
0.423226 -0.198014 -0.501 130 87 78
0.425027 -0.19841 -0.502 132 89 82
0.428748 -0.198805 -0.503 130 87 80
0.436986 -0.200386 -0.507 133 90 83
0.453589 -0.203943 -0.516 134 94 86
0.460076 -0.205524 -0.52 133 92 86
-0.1189 -0.24186 -0.609 91 92 97
-0.10148 -0.23908 -0.602 55 55 65
-0.0978771 -0.238683 -0.601 61 61 71
-0.0898638 -0.238683 -0.601 70 70 78
-0.0832714 -0.239477 -0.603 74 75 80
-0.0813771 -0.240669 -0.606 78 77 85
-0.07714 -0.24186 -0.609 78 77 85
-0.0706409 -0.243449 -0.613 77 76 82
-0.063181 -0.246229 -0.62 74 73 81
-0.0609171 -0.246626 -0.621 75 74 82
-0.0576457 -0.247817 -0.624 74 73 81
-0.053061 -0.248611 -0.626 74 73 81
-0.0496419 -0.249406 -0.628 74 73 81
-0.0428029 -0.251391 -0.633 76 74 85
-0.0276857 -0.256554 -0.646 74 72 85
0.153448 -0.241463 -0.608 203 160 153
0.154857 -0.238286 -0.6 198 154 153
0.160906 -0.237094 -0.597 176 113 108
0.175578 -0.233917 -0.589 192 139 133
0.177822 -0.233917 -0.589 183 129 117
0.181495 -0.234314 -0.59 175 115 104
0.188066 -0.235506 -0.593 159 96 87
0.199234 -0.236697 -0.596 199 140 134
0.208919 -0.238683 -0.601 174 120 118
0.218571 -0.243051 -0.612 165 114 113
0.33477 -0.209294 -0.527 164 109 114
0.3345 -0.2085 -0.525 165 110 113
0.334222 -0.207706 -0.523 167 112 115
0.354632 -0.201749 -0.508 180 149 165
0.357535 -0.201749 -0.508 175 127 139
0.359983 -0.200954 -0.506 175 128 136
0.361195 -0.200557 -0.505 177 128 134
0.369346 -0.199763 -0.503 154 96 95
0.376864 -0.198174 -0.499 133 86 78
0.378006 -0.197777 -0.498 130 83 75
0.392393 -0.19738 -0.497 122 79 72
0.396977 -0.197777 -0.498 126 83 76
0.400771 -0.197777 -0.498 128 85 76
0.416667 -0.198571 -0.5 130 87 78
0.421317 -0.198969 -0.501 130 87 78
0.422271 -0.198969 -0.501 132 89 80
0.423226 -0.198969 -0.501 131 88 79
0.440649 -0.202146 -0.509 134 91 82
0.449872 -0.204131 -0.514 136 93 86
0.461953 -0.206911 -0.521 137 94 88
-0.113134 -0.240626 -0.603 64 64 72
-0.106857 -0.239429 -0.6 61 61 71
-0.082259 -0.241025 -0.604 77 76 84
-0.0610152 -0.248208 -0.622 75 74 82
-0.0335762 -0.25579 -0.641 130 129 137
0.17416 -0.23464 -0.588 192 140 129
0.177822 -0.235039 -0.589 182 126 113
0.182619 -0.235438 -0.59 171 109 98
0.336411 -0.210697 -0.528 159 109 110
0.335646 -0.205909 -0.516 167 115 119
0.335976 -0.20551 -0.515 172 117 122
0.34018 -0.203913 -0.511 178 133 140
0.341757 -0.203115 -0.509 186 143 152
0.358055 -0.201918 -0.506 175 128 136
0.360947 -0.201918 -0.506 176 127 133
0.362157 -0.201519 -0.505 176 123 129
0.364802 -0.201918 -0.506 173 118 121
0.372857 -0.199524 -0.5 136 87 82
0.378954 -0.198726 -0.498 126 82 73
0.382749 -0.198726 -0.498 129 82 74
0.383697 -0.198726 -0.498 129 82 74
0.390337 -0.198726 -0.498 121 77 68
0.39508 -0.198726 -0.498 124 81 74
0.400771 -0.198726 -0.498 125 85 75
0.403617 -0.198726 -0.498 127 87 77
0.42779 -0.200721 -0.503 130 87 80
0.428748 -0.200721 -0.503 130 87 80
0.433338 -0.201519 -0.505 132 89 82
0.43516 -0.201918 -0.506 133 90 83
0.449872 -0.20511 -0.514 135 92 85
0.460076 -0.207505 -0.52 135 92 85
-0.128795 -0.252199 -0.629 109 110 112
-0.116967 -0.242576 -0.605 79 79 87
-0.0965743 -0.237765 -0.593 64 64 72
-0.0763543 -0.245383 -0.612 78 77 83
-0.0753114 -0.245784 -0.613 78 77 83
-0.0566381 -0.250996 -0.626 73 73 81
-0.0474752 -0.253001 -0.631 75 73 86
-0.0405829 -0.255006 -0.636 98 96 109
-0.0253419 -0.260218 -0.649 74 74 86
0.1547 -0.238567 -0.595 195 140 137
0.161771 -0.238968 -0.596 191 132 128
0.17528 -0.23576 -0.588 182 128 116
0.178944 -0.236161 -0.589 175 111 101
0.187431 -0.236963 -0.591 151 91 80
0.194514 -0.237364 -0.592 197 140 133
0.20162 -0.237765 -0.593 186 131 126
0.204567 -0.238567 -0.595 182 127 122
0.3542 -0.202882 -0.506 180 139 155
0.362157 -0.202481 -0.505 174 122 126
0.368388 -0.201679 -0.503 158 98 97
0.372436 -0.201278 -0.502 142 91 87
0.380851 -0.199674 -0.498 127 83 74
0.399675 -0.200075 -0.499 125 82 75
0.401576 -0.200075 -0.499 126 83 76
0.40836 -0.199674 -0.498 125 85 77
0.414883 -0.200075 -0.499 127 84 75
0.417619 -0.200476 -0.5 129 86 77
0.42407 -0.201278 -0.502 129 86 77
0.446171 -0.205288 -0.512 135 92 85
0.453589 -0.206891 -0.516 135 92 85
0.45732 -0.207693 -0.518 133 93 85
0.474981 -0.212505 -0.53 140 112 108
-0.134529 -0.259843 -0.645 118 120 119
-0.108597 -0.240506 -0.597 71 71 79
-0.0985 -0.238089 -0.591 65 66 71
-0.0964114 -0.238491 -0.592 60 61 66
-0.0807524 -0.245743 -0.61 77 76 82
-0.0689743 -0.249369 -0.619 77 76 82
-0.0679048 -0.249771 -0.62 76 75 81
-0.0566381 -0.252189 -0.626 74 73 81
-0.0532305 -0.252994 -0.628 73 73 81
-0.0486771 -0.254203 -0.631 74 72 83
-0.0253419 -0.261454 -0.649 73 73 85
0.147029 -0.249771 -0.62 199 150 146
0.148987 -0.243326 -0.604 207 157 156
0.153309 -0.239297 -0.594 193 145 135
0.159233 -0.2397 -0.595 177 119 115
0.164346 -0.238894 -0.593 202 151 147
0.171628 -0.236477 -0.587 193 138 131
0.181188 -0.237283 -0.589 168 101 92
0.189362 -0.237686 -0.59 196 137 133
0.197229 -0.237686 -0.59 187 130 123
0.198352 -0.237686 -0.59 185 130 125
0.206833 -0.2397 -0.595 179 122 115
0.208666 -0.240506 -0.597 175 118 111
0.220542 -0.246146 -0.611 154 106 106
0.341509 -0.215931 -0.536 155 113 114
0.339064 -0.213111 -0.529 156 111 118
0.3399 -0.207471 -0.515 170 119 118
0.342429 -0.205457 -0.51 181 132 135
0.349381 -0.203846 -0.506 198 166 177
0.356386 -0.203443 -0.505 173 127 137
0.360233 -0.203443 -0.505 177 128 132
0.372649 -0.201831 -0.501 139 90 83
0.376667 -0.201429 -0.5 133 86 78
0.378765 -0.201026 -0.499 131 84 76
0.39017 -0.201026 -0.499 118 75 68
0.436986 -0.204249 -0.507 131 88 81
0.4453 -0.20586 -0.511 135 92 85
0.44802 -0.206666 -0.513 135 92 85
0.455452 -0.208277 -0.517 135 92 85
-0.11658 -0.2465 -0.609 76 77 82
-0.101705 -0.23881 -0.59 62 60 71
-0.0949619 -0.23881 -0.59 68 69 74
-0.0884238 -0.242452 -0.599 65 64 72
-0.0857105 -0.244476 -0.604 71 70 78
-0.0810171 -0.247714 -0.612 75 74 80
-0.0734524 -0.249738 -0.617 78 77 83
-0.0701533 -0.250548 -0.619 78 77 83
-0.0690857 -0.250952 -0.62 77 76 82
-0.0612114 -0.252571 -0.624 73 74 79
-0.0567286 -0.253786 -0.627 74 73 81
-0.0370648 -0.258238 -0.638 106 104 115
0.152433 -0.240833 -0.595 196 147 143
0.155571 -0.240429 -0.594 188 135 121
0.190486 -0.23881 -0.59 197 145 132
0.19768 -0.238 -0.588 187 133 123
0.201724 -0.23881 -0.59 187 132 125
0.229989 -0.252571 -0.624 138 88 87
0.232289 -0.253786 -0.627 138 88 87
0.341198 -0.208048 -0.514 172 123 126
0.3431 -0.206833 -0.511 179 128 125
0.34814 -0.205214 -0.507 192 160 165
0.370524 -0.20319 -0.502 145 94 90
0.378765 -0.201976 -0.499 128 81 75
0.382749 -0.201571 -0.498 127 82 76
0.392071 -0.201976 -0.499 119 76 67
0.402527 -0.201976 -0.499 124 84 74
0.404428 -0.201976 -0.499 125 85 75
0.425027 -0.20319 -0.502 129 86 77
0.447147 -0.207238 -0.512 133 93 83
0.448997 -0.207643 -0.513 134 94 84
-0.102829 -0.239933 -0.59 74 74 82
-0.0875743 -0.244407 -0.601 65 64 72
-0.0867171 -0.24522 -0.603 66 65 73
-0.0858524 -0.246033 -0.605 68 67 75
-0.0839619 -0.247253 -0.608 70 69 77
-0.0758029 -0.250913 -0.617 75 74 82
-0.0735714 -0.25132 -0.618 77 76 84
-0.066939 -0.252947 -0.622 77 76 84
-0.0612114 -0.25376 -0.624 73 73 81
-0.0533152 -0.255793 -0.629 73 73 81
-0.0440781 -0.257827 -0.634 73 71 82
-0.0336286 -0.26108 -0.642 74 72 83
0.145776 -0.246033 -0.605 208 155 151
0.15531 -0.241153 -0.593 185 131 119
0.157569 -0.241153 -0.593 186 131 124
0.213498 -0.244407 -0.601 159 108 107
0.234972 -0.256607 -0.631 138 88 89
0.33989 -0.211873 -0.521 159 114 119
0.340229 -0.211467 -0.52 162 117 122
0.343771 -0.208213 -0.512 172 124 122
0.345635 -0.206993 -0.509 184 142 146
0.354462 -0.205367 -0.505 178 129 132
0.363119 -0.205367 -0.505 169 117 119
0.385418 -0.202927 -0.499 123 78 72
0.400476 -0.203333 -0.5 123 83 71
0.422271 -0.20374 -0.501 130 87 78
0.447147 -0.208213 -0.512 134 94 84
0.466715 -0.212687 -0.523 134 94 84
-0.129212 -0.262711 -0.643 111 115 116
-0.0841 -0.24882 -0.609 68 66 77
-0.0812819 -0.250863 -0.614 71 70 78
-0.0714476 -0.253314 -0.62 78 77 85
-0.0647771 -0.254949 -0.624 75 75 83
-0.0522 -0.2574 -0.63 74 74 84
-0.0394333 -0.26026 -0.637 94 92 103
-0.03128 -0.26312 -0.644 73 71 82
-0.0277714 -0.264754 -0.648 74 72 85
0.138589 -0.250863 -0.614 199 142 135
0.174684 -0.239423 -0.586 166 107 93
0.1758 -0.239423 -0.586 172 108 98
0.176916 -0.239423 -0.586 167 103 93
0.18648 -0.24024 -0.588 200 146 136
0.188399 -0.239831 -0.587 198 146 135
0.191427 -0.239423 -0.586 200 143 134
0.207967 -0.2431 -0.595 164 109 102
0.220181 -0.249229 -0.61 142 92 93
0.237297 -0.259034 -0.634 133 87 90
0.344443 -0.209597 -0.513 166 122 123
0.346605 -0.207963 -0.509 191 150 156
0.37148 -0.205103 -0.502 141 90 86
0.379524 -0.204286 -0.5 129 82 76
0.384286 -0.204286 -0.5 126 79 73
0.395714 -0.204286 -0.5 121 79 67
0.41381 -0.204286 -0.5 125 82 73
0.416667 -0.204286 -0.5 128 85 76
0.433338 -0.206329 -0.505 129 86 77
0.4453 -0.20878 -0.511 134 92 80
0.446273 -0.20878 -0.511 135 93 81
0.462057 -0.212457 -0.52 132 92 80
0.466715 -0.213683 -0.523 133 93 81
-0.394333 -0.26681 -0.65 247 248 240
-0.130016 -0.265578 -0.647 116 120 123
-0.123586 -0.259831 -0.633 112 117 120
-0.0976667 -0.240539 -0.586 118 118 126
-0.0842381 -0.25039 -0.61 64 64 74
-0.0704933 -0.255316 -0.622 78 77 85
-0.0636905 -0.256548 -0.625 75 75 83
-0.0452857 -0.260242 -0.634 75 73 86
-0.0440781 -0.260242 -0.634 73 71 84
0.147013 -0.244644 -0.596 206 151 146
0.149662 -0.243412 -0.593 198 143 138
0.152534 -0.242591 -0.591 191 134 123
0.15366 -0.242591 -0.591 180 123 112
0.178032 -0.240539 -0.586 164 97 88
0.179454 -0.24095 -0.587 163 96 87
0.3425 -0.2155 -0.525 159 113 116
0.349106 -0.208111 -0.507 183 141 145
0.352538 -0.20729 -0.505 177 128 132
0.361195 -0.20729 -0.505 175 120 125
0.391905 -0.205238 -0.5 119 76 67
0.426831 -0.20647 -0.503 130 87 78
0.461169 -0.213037 -0.519 132 92 80
0.463938 -0.213858 -0.521 132 92 80
0.4705 -0.2155 -0.525 134 96 85
-0.388143 -0.268048 -0.65 250 251 245
-0.0975 -0.241243 -0.585 114 117 124
-0.0930286 -0.24413 -0.592 60 60 68
-0.0912333 -0.245367 -0.595 58 58 66
-0.088719 -0.247841 -0.601 59 59 67
-0.0870048 -0.24949 -0.605 61 61 69
-0.08526 -0.25114 -0.609 62 62 70
-0.0784067 -0.255264 -0.619 71 70 78
-0.0728629 -0.256501 -0.622 76 75 83
-0.0569095 -0.259388 -0.629 73 73 81
-0.0511619 -0.260625 -0.632 74 72 83
-0.0417943 -0.262274 -0.636 74 72 83
0.14276 -0.248253 -0.602 204 149 142
0.156506 -0.242892 -0.589 210 155 150
0.167127 -0.240418 -0.583 186 133 119
0.1755 -0.241243 -0.585 166 102 92
0.178032 -0.241655 -0.586 158 94 84
0.204663 -0.24413 -0.592 168 111 102
0.239257 -0.262274 -0.636 128 82 85
0.24396 -0.264749 -0.642 132 85 91
0.355164 -0.208665 -0.506 174 124 127
0.3672 -0.20784 -0.504 156 101 94
0.39078 -0.206603 -0.501 118 75 66
0.393643 -0.206603 -0.501 118 76 64
0.399369 -0.206603 -0.501 121 81 69
0.407957 -0.206603 -0.501 124 82 70
0.412857 -0.20619 -0.5 126 83 74
0.41381 -0.20619 -0.5 126 83 74
0.438815 -0.20949 -0.508 131 88 79
0.448122 -0.211139 -0.512 133 93 83
0.461169 -0.214026 -0.519 132 92 82
-0.391254 -0.268871 -0.649 249 250 242
-0.375184 -0.268871 -0.649 250 251 243
-0.101957 -0.242357 -0.585 121 124 129
-0.0616038 -0.260171 -0.628 75 73 84
-0.0464933 -0.262657 -0.634 73 72 80
-0.026619 -0.269286 -0.65 73 73 83
0.155974 -0.243186 -0.587 207 152 147
0.1755 -0.242357 -0.585 167 105 94
0.178843 -0.242357 -0.585 180 117 108
0.184099 -0.241943 -0.584 204 145 137
0.187115 -0.241529 -0.583 203 146 137
0.204663 -0.245257 -0.592 165 108 99
0.353236 -0.209629 -0.506 174 124 127
0.356128 -0.209629 -0.506 175 125 128
0.359271 -0.209214 -0.505 176 121 126
0.37913 -0.207971 -0.502 128 83 77
0.388691 -0.207971 -0.502 118 75 66
0.441618 -0.210871 -0.509 131 88 79
0.449097 -0.212114 -0.512 134 94 84
0.454671 -0.213357 -0.515 131 91 81
0.477 -0.219571 -0.53 143 113 105
-0.391886 -0.269691 -0.648 249 250 242
-0.378892 -0.270108 -0.649 251 252 244
-0.373948 -0.270108 -0.649 250 251 245
-0.368333 -0.270524 -0.65 251 252 246
-0.104542 -0.244304 -0.587 118 118 126
-0.0938381 -0.245552 -0.59 65 66 71
-0.0854 -0.253876 -0.61 60 60 70
-0.0394952 -0.26553 -0.638 72 71 79
-0.03834 -0.265946 -0.639 73 72 80
-0.0290057 -0.269691 -0.648 74 72 83
-0.0278143 -0.270108 -0.649 73 71 82
