ply
format ascii 1.0
comment Created by Open3D
element vertex 1291
property double x
property double y
property double z
property uchar red
property uchar green
property uchar blue
end_header
0.259034 -0.353229 -0.634 169 170 190
0.269051 -0.352114 -0.632 126 135 176
0.302031 -0.352671 -0.633 156 169 214
0.305649 -0.352671 -0.633 182 196 231
0.324246 -0.353229 -0.634 252 251 255
0.333224 -0.353786 -0.635 196 205 214
0.336852 -0.353786 -0.635 177 198 241
0.34169 -0.353786 -0.635 183 203 253
0.356766 -0.354343 -0.636 249 255 255
0.38038 -0.3549 -0.637 134 160 209
0.396775 -0.355457 -0.638 220 226 248
0.401007 -0.3549 -0.637 157 185 235
0.415654 -0.356014 -0.639 219 230 255
0.429043 -0.356014 -0.639 145 164 194
0.43026 -0.356014 -0.639 114 145 199
0.439997 -0.356014 -0.639 53 93 165
0.443649 -0.356014 -0.639 82 121 198
0.446781 -0.356571 -0.64 158 183 239
0.450438 -0.356571 -0.64 196 203 219
0.467014 -0.357129 -0.641 83 131 197
0.487309 -0.357686 -0.642 183 186 195
0.493423 -0.357686 -0.642 190 198 219
0.501983 -0.357686 -0.642 45 74 150
0.517073 -0.357129 -0.641 189 197 220
0.528886 -0.357686 -0.642 108 125 177
0.541492 -0.357129 -0.641 99 127 174
0.535057 -0.342086 -0.614 166 137 133
0.459391 -0.288043 -0.517 163 139 127
0.444757 -0.272443 -0.489 182 146 132
0.44388 -0.270771 -0.486 189 150 133
0.443899 -0.268543 -0.482 195 154 134
0.447499 -0.266314 -0.478 195 154 132
0.450197 -0.265757 -0.477 198 156 132
0.45363 -0.263529 -0.473 193 151 129
0.4606 -0.261857 -0.47 196 151 130
0.463286 -0.261857 -0.47 193 148 127
0.466663 -0.260743 -0.468 185 141 116
0.50738 -0.2691 -0.483 150 117 102
0.111572 -0.339342 -0.607 191 147 144
0.117593 -0.318098 -0.569 188 138 129
0.130294 -0.314744 -0.563 183 127 112
0.14719 -0.314185 -0.562 172 114 103
0.149331 -0.314185 -0.562 173 117 104
0.152814 -0.314744 -0.563 164 106 95
0.167449 -0.318098 -0.569 143 93 82
0.169914 -0.318657 -0.57 140 90 79
0.180947 -0.320893 -0.574 130 82 72
0.191015 -0.32313 -0.578 124 75 68
0.21 -0.32872 -0.588 116 72 73
0.289516 -0.353318 -0.632 235 241 253
0.295535 -0.353318 -0.632 220 224 249
0.408287 -0.356113 -0.637 131 161 211
0.4095 -0.356113 -0.637 126 156 206
0.441739 -0.356672 -0.638 68 107 176
0.446083 -0.357231 -0.639 111 140 196
0.4473 -0.357231 -0.639 144 171 201
0.46141 -0.35779 -0.64 144 165 196
0.471898 -0.35835 -0.641 73 114 178
0.481666 -0.35835 -0.641 200 202 217
0.514631 -0.35835 -0.641 150 163 182
0.515852 -0.35835 -0.641 164 177 196
0.533333 -0.35779 -0.64 109 141 192
0.447386 -0.276729 -0.495 180 146 134
0.444757 -0.273374 -0.489 186 149 133
0.443899 -0.269461 -0.482 191 154 138
0.4448 -0.268343 -0.48 196 155 133
0.45188 -0.264989 -0.474 196 154 132
0.465076 -0.262752 -0.47 193 149 124
0.467445 -0.261075 -0.467 188 146 124
0.497307 -0.266107 -0.476 156 120 104
0.114945 -0.320865 -0.572 194 146 136
0.127303 -0.316377 -0.564 181 125 112
0.13838 -0.314694 -0.561 185 129 116
0.141586 -0.314694 -0.561 174 116 104
0.224946 -0.337132 -0.601 113 69 70
0.330969 -0.355083 -0.633 246 251 254
0.335791 -0.355083 -0.633 194 210 246
0.346643 -0.355083 -0.633 197 210 252
0.349054 -0.355083 -0.633 244 252 255
0.354436 -0.355644 -0.634 254 255 255
0.36951 -0.356205 -0.635 212 231 255
0.371929 -0.356205 -0.635 172 192 229
0.373138 -0.356205 -0.635 152 172 209
0.380994 -0.356766 -0.636 135 158 202
0.38584 -0.356766 -0.636 226 229 255
0.400377 -0.356766 -0.636 155 178 222
0.4095 -0.357327 -0.637 141 166 206
0.441739 -0.357888 -0.638 84 119 183
0.442954 -0.357888 -0.638 80 115 179
0.471162 -0.35901 -0.64 96 134 196
0.474819 -0.35901 -0.64 84 131 185
0.483352 -0.35901 -0.64 196 195 203
0.48655 -0.35957 -0.641 193 194 199
0.509748 -0.35957 -0.641 93 116 160
0.51219 -0.35957 -0.641 135 143 189
0.521143 -0.35901 -0.64 197 199 214
0.5248 -0.35901 -0.64 147 160 179
0.474977 -0.301792 -0.538 165 137 134
0.458595 -0.28889 -0.515 164 141 127
0.44838 -0.267574 -0.477 196 155 133
0.450977 -0.265891 -0.474 195 154 132
0.451828 -0.26533 -0.473 193 151 129
0.457019 -0.263648 -0.47 195 153 129
0.480926 -0.262526 -0.468 175 137 118
0.49237 -0.26533 -0.473 164 128 114
0.12815 -0.316889 -0.563 184 128 115
0.151742 -0.316889 -0.563 162 106 93
0.157662 -0.318014 -0.565 147 95 82
0.177357 -0.322517 -0.573 136 86 79
0.187063 -0.324206 -0.576 128 79 74
0.195327 -0.32702 -0.581 124 76 72
0.216669 -0.334337 -0.594 111 74 68
0.259831 -0.356289 -0.633 171 174 209
0.286654 -0.355163 -0.631 230 233 252
0.337669 -0.355726 -0.632 211 226 255
0.353877 -0.356289 -0.633 249 252 255
0.402167 -0.357414 -0.635 177 201 245
0.422295 -0.359103 -0.638 212 210 223
0.43498 -0.35854 -0.637 120 150 200
0.450246 -0.359103 -0.638 204 207 224
0.459471 -0.359666 -0.639 216 218 230
0.4736 -0.360229 -0.64 107 136 194
0.48701 -0.360229 -0.64 203 202 207
0.507733 -0.360229 -0.64 60 95 149
0.51139 -0.360229 -0.64 87 108 155
0.544671 -0.359666 -0.639 179 185 199
0.519891 -0.334337 -0.594 165 136 130
0.505234 -0.324206 -0.576 163 135 131
0.4439 -0.27186 -0.483 191 150 132
0.444786 -0.269609 -0.479 195 154 132
0.450026 -0.266231 -0.473 194 153 131
0.45267 -0.265669 -0.472 194 152 128
0.456124 -0.264543 -0.47 195 153 129
0.461407 -0.26398 -0.469 194 152 128
0.463193 -0.26398 -0.469 190 148 126
0.464087 -0.26398 -0.469 189 147 125
0.473545 -0.262291 -0.466 179 136 117
0.479009 -0.262854 -0.467 178 137 119
0.487457 -0.264543 -0.47 166 128 115
0.132439 -0.317961 -0.563 179 121 109
0.134345 -0.317396 -0.562 183 125 113
0.135415 -0.317396 -0.562 183 125 113
0.13838 -0.316831 -0.561 179 121 107
0.142654 -0.316831 -0.561 181 123 109
0.14505 -0.317396 -0.562 178 120 106
0.214045 -0.334904 -0.593 109 69 67
0.228348 -0.34281 -0.607 113 74 77
0.256214 -0.357494 -0.633 77 85 124
0.2742 -0.3558 -0.63 178 191 223
0.279 -0.3558 -0.63 160 170 206
0.352114 -0.35693 -0.632 252 253 255
0.353318 -0.35693 -0.632 249 250 254
0.36772 -0.358059 -0.634 219 231 255
0.37255 -0.358059 -0.634 195 206 234
0.374966 -0.358059 -0.634 230 242 255
0.390071 -0.358624 -0.635 244 245 255
0.405795 -0.358624 -0.635 167 199 240
0.407005 -0.358624 -0.635 157 175 223
0.43498 -0.359753 -0.637 154 177 221
0.455107 -0.360318 -0.638 163 167 176
0.478946 -0.360883 -0.639 197 208 228
0.494324 -0.361448 -0.64 61 88 141
0.4992 -0.361448 -0.64 138 166 216
0.519924 -0.361448 -0.64 200 198 212
0.5325 -0.360883 -0.639 160 177 220
0.540173 -0.360318 -0.638 137 157 192
0.471578 -0.301018 -0.533 166 139 132
0.45005 -0.281816 -0.499 178 146 135
0.445667 -0.276733 -0.49 179 143 127
0.457833 -0.264873 -0.469 195 153 129
0.4681 -0.262614 -0.465 189 146 127
0.488352 -0.265438 -0.47 165 127 114
0.110686 -0.337733 -0.596 189 146 140
0.114543 -0.323 -0.57 189 136 128
0.127077 -0.319033 -0.563 181 124 113
0.140517 -0.3179 -0.561 181 125 110
0.144791 -0.3179 -0.561 172 116 101
0.162827 -0.321867 -0.568 146 93 85
0.166365 -0.322433 -0.569 147 94 86
0.219633 -0.339433 -0.599 106 71 69
0.22529 -0.342833 -0.605 111 72 73
0.266576 -0.356433 -0.629 155 167 205
0.271369 -0.356433 -0.629 136 155 188
0.273765 -0.356433 -0.629 165 184 217
0.274963 -0.356433 -0.629 150 169 202
0.285 -0.357 -0.63 227 232 254
0.2862 -0.357 -0.63 232 237 255
0.2946 -0.357 -0.63 207 212 232
0.381004 -0.359267 -0.634 218 226 249
0.395495 -0.359267 -0.634 237 241 250
0.408214 -0.359833 -0.635 163 181 227
0.429451 -0.3604 -0.636 172 185 229
0.430663 -0.3604 -0.636 176 192 226
0.441566 -0.3604 -0.636 166 185 218
0.4459 -0.360967 -0.637 86 104 144
0.463613 -0.361533 -0.638 111 135 179
0.468474 -0.361533 -0.638 138 166 213
0.47212 -0.361533 -0.638 133 156 208
0.480163 -0.3621 -0.639 199 203 215
0.488683 -0.3621 -0.639 185 183 204
0.540173 -0.361533 -0.638 139 158 190
0.445667 -0.277667 -0.49 177 141 127
0.44389 -0.274833 -0.485 186 149 131
0.443899 -0.273133 -0.482 190 152 133
0.44831 -0.269167 -0.475 195 153 131
0.449074 -0.267467 -0.472 195 153 131
0.463989 -0.2652 -0.468 189 144 121
0.463887 -0.264633 -0.467 190 145 122
0.468986 -0.2635 -0.465 187 146 126
0.469871 -0.2635 -0.465 185 144 124
0.471643 -0.2635 -0.465 183 142 122
0.111167 -0.326929 -0.575 189 132 123
0.113457 -0.324086 -0.57 187 130 123
0.123006 -0.320674 -0.564 187 133 123
0.136243 -0.318969 -0.561 181 124 113
0.142654 -0.318969 -0.561 178 122 109
0.14719 -0.319537 -0.562 166 110 95
0.159019 -0.321811 -0.566 152 98 88
0.166657 -0.324086 -0.57 144 91 83
0.181577 -0.327497 -0.576 131 82 78
0.193113 -0.33034 -0.581 126 81 78
0.194554 -0.330909 -0.582 124 79 76
0.195663 -0.330909 -0.582 124 79 76
0.207343 -0.335457 -0.59 114 72 73
0.254606 -0.359337 -0.632 151 153 178
0.257013 -0.359337 -0.632 69 75 111
0.2634 -0.3582 -0.63 193 194 222
0.2898 -0.3582 -0.63 190 194 223
0.2958 -0.3582 -0.63 239 241 255
0.331125 -0.358769 -0.631 225 228 235
0.337134 -0.358769 -0.631 193 205 243
0.34074 -0.358769 -0.631 179 192 227
0.341942 -0.358769 -0.631 187 197 233
0.344346 -0.358769 -0.631 196 210 245
0.383419 -0.360474 -0.634 200 204 229
0.402741 -0.360474 -0.634 191 207 243
0.425148 -0.361043 -0.635 190 205 236
0.427567 -0.361043 -0.635 190 200 235
0.452469 -0.361611 -0.636 206 214 235
0.455607 -0.36218 -0.637 206 214 235
0.466527 -0.36218 -0.637 148 175 220
0.491564 -0.362749 -0.638 90 109 151
0.50007 -0.362749 -0.638 131 151 188
0.503716 -0.362749 -0.638 174 193 233
0.539327 -0.36218 -0.637 152 167 196
0.457791 -0.291677 -0.513 168 138 130
0.447366 -0.269503 -0.474 194 151 132
0.449074 -0.268366 -0.472 197 154 135
0.463097 -0.266091 -0.468 191 146 125
0.467214 -0.264386 -0.465 188 145 126
0.468861 -0.263817 -0.464 184 143 123
0.474164 -0.263817 -0.464 179 136 117
0.485383 -0.266091 -0.468 167 130 114
0.494926 -0.268366 -0.472 153 119 109
0.109757 -0.333729 -0.585 188 143 138
0.112371 -0.325171 -0.57 186 131 126
0.11718 -0.32346 -0.567 189 136 128
0.124932 -0.321178 -0.563 195 138 129
0.12815 -0.321178 -0.563 188 130 119
0.131969 -0.320037 -0.561 187 130 119
0.142654 -0.320037 -0.561 176 120 107
0.168037 -0.325742 -0.571 143 90 82
0.224509 -0.345709 -0.606 110 71 72
0.251799 -0.35997 -0.631 166 167 187
0.254203 -0.35997 -0.631 161 162 182
0.2598 -0.3594 -0.63 113 121 158
0.273765 -0.35883 -0.629 145 159 198
0.274963 -0.35883 -0.629 147 161 200
0.284548 -0.35883 -0.629 226 232 255
0.294132 -0.35883 -0.629 198 200 221
0.327 -0.3594 -0.63 249 252 255
0.3306 -0.3594 -0.63 228 231 238
0.3522 -0.3594 -0.63 212 216 228
0.35997 -0.35997 -0.631 247 252 255
0.37619 -0.360541 -0.632 246 249 255
0.38402 -0.361111 -0.633 171 176 196
0.385226 -0.361111 -0.633 158 168 193
0.41361 -0.361682 -0.634 227 233 249
0.462887 -0.363393 -0.637 125 144 176
0.470167 -0.363393 -0.637 124 156 197
0.47138 -0.363393 -0.637 119 142 192
0.476233 -0.363393 -0.637 186 192 208
0.492007 -0.363393 -0.637 167 182 213
0.498073 -0.363393 -0.637 170 184 219
0.508993 -0.363393 -0.637 148 164 198
0.450952 -0.285238 -0.5 170 140 130
0.449193 -0.283527 -0.497 172 142 132
0.444777 -0.278392 -0.488 180 144 130
0.443894 -0.274399 -0.481 190 152 133
0.444746 -0.272117 -0.477 187 145 129
0.448224 -0.269835 -0.473 196 153 136
0.451648 -0.268124 -0.47 193 150 131
0.461218 -0.266412 -0.467 189 147 125
0.469745 -0.264701 -0.464 184 143 123
0.483456 -0.266412 -0.467 169 130 115
0.4891 -0.267553 -0.469 163 126 110
0.491038 -0.268124 -0.47 163 125 112
0.500786 -0.270976 -0.475 156 119 110
0.128992 -0.321678 -0.562 186 126 116
0.134106 -0.321106 -0.561 184 127 116
0.137311 -0.321106 -0.561 183 127 114
0.152011 -0.322823 -0.564 169 113 100
0.195999 -0.333698 -0.583 124 79 76
0.20328 -0.33656 -0.588 116 74 75
0.2125 -0.340567 -0.595 111 73 70
0.21585 -0.342284 -0.598 109 74 72
0.245817 -0.359455 -0.628 160 152 167
0.259388 -0.360028 -0.629 92 100 137
0.274526 -0.359455 -0.628 154 167 212
0.292934 -0.360028 -0.629 221 225 250
0.296057 -0.359455 -0.628 236 238 251
0.328877 -0.360028 -0.629 242 246 255
0.340858 -0.360028 -0.629 174 187 221
0.3498 -0.3606 -0.63 236 236 244
0.371375 -0.361745 -0.632 238 241 248
0.411751 -0.362317 -0.633 218 226 249
0.414817 -0.36289 -0.634 203 210 229
0.41844 -0.36289 -0.634 128 138 173
0.44571 -0.363462 -0.635 199 208 237
0.474274 -0.364034 -0.636 137 168 214
0.500926 -0.364034 -0.636 164 171 200
0.527577 -0.364034 -0.636 121 139 175
0.530376 -0.363462 -0.635 147 170 204
0.532795 -0.363462 -0.635 130 152 193
0.536424 -0.363462 -0.635 121 142 173
0.542471 -0.363462 -0.635 198 195 212
0.521023 -0.339994 -0.594 165 138 129
0.443886 -0.274743 -0.48 193 152 134
0.446422 -0.270736 -0.473 193 152 134
0.447323 -0.270736 -0.473 194 153 135
0.469745 -0.265585 -0.464 185 142 123
0.482421 -0.26673 -0.466 173 131 117
0.496724 -0.270164 -0.472 157 120 111
0.116973 -0.325046 -0.566 191 141 132
0.120857 -0.323897 -0.564 187 133 123
0.121931 -0.323897 -0.564 188 131 120
0.1309 -0.322174 -0.561 185 132 118
0.140517 -0.322174 -0.561 176 120 107
0.142654 -0.322174 -0.561 175 117 105
0.143723 -0.322174 -0.561 175 117 105
0.152011 -0.323897 -0.564 167 111 98
0.153086 -0.323897 -0.564 155 98 87
0.177976 -0.330214 -0.575 127 79 75
0.18048 -0.330789 -0.576 130 82 80
0.182991 -0.331363 -0.577 125 77 75
0.186934 -0.332511 -0.579 127 82 79
0.188362 -0.333086 -0.58 123 78 73
0.197786 -0.335957 -0.585 120 79 75
0.221833 -0.347443 -0.605 111 72 73
0.255 -0.3618 -0.63 169 171 194
0.274526 -0.360651 -0.628 137 153 204
0.281703 -0.360651 -0.628 224 230 255
0.290076 -0.360651 -0.628 212 218 244
0.321177 -0.360651 -0.628 195 201 223
0.349245 -0.361226 -0.629 205 207 222
0.350443 -0.361226 -0.629 179 184 213
0.373191 -0.362374 -0.631 243 249 245
0.376797 -0.362374 -0.631 251 255 255
0.38521 -0.362374 -0.631 163 175 201
0.396028 -0.362374 -0.631 199 207 226
0.399633 -0.362374 -0.631 171 189 235
0.415369 -0.363523 -0.633 155 164 195
0.421397 -0.363523 -0.633 190 199 228
0.422603 -0.363523 -0.633 215 224 253
0.449838 -0.364097 -0.634 112 124 162
0.479576 -0.364671 -0.635 202 207 236
0.499714 -0.365246 -0.636 141 148 174
0.500926 -0.365246 -0.636 174 180 204
0.525154 -0.365246 -0.636 115 134 174
0.526366 -0.365246 -0.636 120 139 179
0.526748 -0.364671 -0.635 128 150 191
0.530376 -0.364671 -0.635 147 170 204
0.463938 -0.299203 -0.521 171 138 133
0.444777 -0.280251 -0.488 179 143 129
0.4439 -0.27738 -0.483 186 149 131
0.46023 -0.267617 -0.466 192 149 130
0.462786 -0.267043 -0.465 188 145 126
0.46785 -0.265894 -0.463 187 144 125
0.478583 -0.266469 -0.464 162 122 110
0.488949 -0.268766 -0.468 161 123 112
0.495671 -0.270489 -0.471 158 125 110
0.134933 -0.322667 -0.56 187 131 116
0.141333 -0.322667 -0.56 177 121 106
0.1424 -0.322667 -0.56 176 120 105
0.15067 -0.324395 -0.563 165 108 99
0.159581 -0.327276 -0.568 143 88 83
0.1719 -0.330157 -0.573 143 90 86
0.180793 -0.332462 -0.577 130 82 80
0.19958 -0.338224 -0.587 120 76 73
0.220681 -0.348595 -0.605 106 74 77
0.276918 -0.361848 -0.628 165 183 233
0.281703 -0.361848 -0.628 218 224 255
0.37199 -0.363576 -0.631 247 253 243
0.38521 -0.363576 -0.631 196 208 232
0.393 -0.363 -0.63 239 249 251
0.408693 -0.364152 -0.632 210 227 255
0.411101 -0.364152 -0.632 224 236 255
0.413509 -0.364152 -0.632 153 162 191
0.429158 -0.364152 -0.632 222 227 255
0.44863 -0.365305 -0.634 118 131 166
0.459014 -0.365881 -0.635 183 190 219
0.476406 -0.365305 -0.634 149 153 178
0.506186 -0.365881 -0.635 191 201 228
0.525538 -0.365881 -0.635 113 135 176
0.530749 -0.365305 -0.634 139 165 202
0.539202 -0.365305 -0.634 191 197 209
0.509848 -0.33419 -0.58 163 136 127
0.450952 -0.288095 -0.5 170 140 130
0.448329 -0.285214 -0.495 174 140 130
0.446549 -0.283486 -0.492 175 141 131
0.443813 -0.274267 -0.476 193 152 134
0.45855 -0.269081 -0.467 193 153 128
0.468732 -0.266776 -0.463 185 142 123
0.471378 -0.266776 -0.463 181 139 125
0.47226 -0.266776 -0.463 181 139 125
0.479467 -0.267352 -0.464 167 128 113
0.5035 -0.27369 -0.475 157 117 107
0.107529 -0.338186 -0.585 194 144 133
0.117634 -0.326046 -0.564 193 139 127
0.121715 -0.325468 -0.563 191 134 123
0.12364 -0.32489 -0.562 192 136 123
0.12471 -0.32489 -0.562 190 134 121
0.127694 -0.324311 -0.561 193 137 124
0.140267 -0.323733 -0.56 178 122 109
0.1424 -0.323733 -0.56 176 120 105
0.159862 -0.328936 -0.569 145 91 81
0.198462 -0.339342 -0.587 119 78 76
0.201382 -0.340498 -0.589 119 79 77
0.219529 -0.349748 -0.605 105 71 70
0.255387 -0.363044 -0.628 185 184 200
0.26376 -0.363044 -0.628 143 155 203
0.266923 -0.362466 -0.627 122 134 184
0.283643 -0.362466 -0.627 164 174 210
0.28842 -0.362466 -0.627 230 235 255
0.290809 -0.362466 -0.627 238 240 252
0.291537 -0.361888 -0.626 240 242 254
0.336191 -0.362466 -0.627 189 204 255
0.351082 -0.363044 -0.628 229 233 255
0.3666 -0.3642 -0.63 252 251 255
0.3894 -0.3642 -0.63 179 184 214
0.402037 -0.364778 -0.631 151 178 231
0.41712 -0.365356 -0.632 205 215 240
0.421935 -0.365356 -0.632 222 229 248
0.43277 -0.365356 -0.632 223 225 246
0.437585 -0.365356 -0.632 217 223 245
0.439992 -0.365356 -0.632 216 224 247
0.463122 -0.366512 -0.634 114 141 184
0.46916 -0.366512 -0.634 104 140 200
0.471575 -0.366512 -0.634 153 181 228
0.482444 -0.366512 -0.634 115 129 164
0.489252 -0.36709 -0.635 196 209 228
0.490462 -0.36709 -0.635 196 205 222
0.523119 -0.36709 -0.635 168 176 199
0.533164 -0.366512 -0.634 119 138 181
0.540763 -0.365934 -0.633 196 201 221
0.535646 -0.353794 -0.612 156 131 126
0.448329 -0.286157 -0.495 173 141 130
0.44388 -0.280954 -0.486 182 145 129
0.446377 -0.272861 -0.472 195 152 133
0.462786 -0.268814 -0.465 190 147 128
0.466087 -0.267658 -0.463 191 148 129
0.4686 -0.26708 -0.462 186 143 124
0.48035 -0.268236 -0.464 170 131 114
0.1296 -0.3248 -0.56 191 134 123
0.1424 -0.3248 -0.56 179 123 108
0.144791 -0.32538 -0.561 178 122 105
0.148525 -0.32654 -0.563 164 108 95
0.176091 -0.33408 -0.576 128 81 75
0.182208 -0.33524 -0.578 129 81 77
0.190447 -0.33814 -0.583 126 82 81
0.197344 -0.34046 -0.587 119 78 76
0.201724 -0.3422 -0.59 117 77 77
0.241457 -0.36308 -0.626 143 135 156
0.250602 -0.36424 -0.628 170 167 178
0.269311 -0.36366 -0.627 84 97 152
0.270506 -0.36366 -0.627 90 109 168
0.34694 -0.36366 -0.627 186 196 223
0.4062 -0.3654 -0.63 202 217 255
0.4074 -0.3654 -0.63 206 221 255
0.432085 -0.36598 -0.631 223 225 246
0.441196 -0.36656 -0.632 216 224 245
0.445511 -0.36714 -0.633 217 223 237
0.449129 -0.36714 -0.633 192 200 221
0.455157 -0.36714 -0.633 175 182 211
0.457569 -0.36714 -0.633 206 212 246
0.471575 -0.36772 -0.634 164 191 236
0.487274 -0.36772 -0.634 193 204 222
0.490897 -0.36772 -0.634 198 207 224
0.492105 -0.36772 -0.634 200 207 225
0.510219 -0.36772 -0.634 190 197 216
0.517465 -0.36772 -0.634 130 142 166
0.528333 -0.36772 -0.634 131 148 192
0.538351 -0.36714 -0.633 162 168 184
0.481311 -0.31552 -0.544 162 137 132
0.445667 -0.2842 -0.49 179 145 133
0.44388 -0.28188 -0.486 180 144 130
0.45677 -0.27086 -0.467 198 156 134
0.457568 -0.27028 -0.466 194 152 130
0.46179 -0.26912 -0.464 189 146 127
0.47564 -0.26796 -0.462 175 133 117
0.492514 -0.27144 -0.468 161 125 113
0.107693 -0.334013 -0.574 189 139 130
0.119358 -0.32703 -0.562 192 138 126
0.125557 -0.326449 -0.561 194 137 126
0.1328 -0.325867 -0.56 184 127 116
0.1392 -0.325867 -0.56 181 125 110
0.144791 -0.326449 -0.561 177 121 104
0.14586 -0.326449 -0.561 177 120 103
0.177496 -0.335759 -0.577 128 81 75
0.192214 -0.340414 -0.585 120 79 77
0.203879 -0.34507 -0.593 116 76 76
0.215 -0.350307 -0.602 105 74 72
0.26334 -0.364854 -0.627 85 102 158
0.265729 -0.364854 -0.627 89 104 161
0.294643 -0.36369 -0.625 248 246 255
0.310119 -0.36369 -0.625 252 254 255
0.335655 -0.364272 -0.626 142 167 223
0.341617 -0.364272 -0.626 175 194 236
0.37081 -0.366018 -0.629 236 240 251
0.4278 -0.3666 -0.63 226 232 254
0.43569 -0.367182 -0.631 223 225 248
0.446011 -0.367764 -0.632 220 222 234
0.463597 -0.368346 -0.633 83 119 179
0.507003 -0.368346 -0.633 195 204 221
0.5275 -0.368346 -0.633 119 137 185
0.534734 -0.368346 -0.633 132 160 207
0.450097 -0.289789 -0.498 172 142 134
0.445521 -0.275241 -0.473 190 147 130
0.460907 -0.270004 -0.464 189 147 125
0.464323 -0.269422 -0.463 193 150 131
0.46772 -0.26884 -0.462 190 147 128
0.473 -0.26884 -0.462 184 139 120
0.4774 -0.26884 -0.462 176 134 118
0.4867 -0.270586 -0.465 157 119 106
0.488634 -0.271168 -0.466 156 119 103
0.504246 -0.275823 -0.474 151 115 99
0.508346 -0.277569 -0.477 148 112 96
0.119358 -0.328101 -0.562 192 138 128
0.121283 -0.327517 -0.561 192 138 128
0.14612 -0.328101 -0.562 174 117 100
0.160143 -0.332771 -0.57 147 93 83
0.162599 -0.333355 -0.571 149 95 85
0.182523 -0.338026 -0.579 126 81 76
0.207529 -0.348534 -0.597 119 81 78
0.213853 -0.351453 -0.602 117 79 78
0.256958 -0.365465 -0.626 173 171 193
0.261728 -0.365465 -0.626 83 91 138
0.26292 -0.365465 -0.626 97 113 172
0.279167 -0.364881 -0.625 125 143 193
0.28704 -0.364297 -0.624 225 228 245
0.344002 -0.365465 -0.626 154 167 220
0.363044 -0.366632 -0.628 231 234 243
0.369025 -0.366632 -0.628 219 222 241
0.412744 -0.367216 -0.629 226 234 255
0.413942 -0.367216 -0.629 232 240 255
0.430715 -0.367216 -0.629 195 199 224
0.442902 -0.368384 -0.631 219 224 243
0.449623 -0.368968 -0.632 165 171 193
0.453234 -0.368968 -0.632 148 157 196
0.464069 -0.368968 -0.632 84 123 190
0.468884 -0.368968 -0.632 59 96 166
0.486941 -0.368968 -0.632 200 207 223
0.509414 -0.369551 -0.633 195 200 219
0.48485 -0.319928 -0.548 163 136 129
0.463146 -0.302997 -0.519 166 137 131
0.44389 -0.283148 -0.485 181 145 133
0.442971 -0.280229 -0.48 184 146 133
0.445478 -0.275558 -0.472 194 151 134
0.448834 -0.273223 -0.468 194 151 132
0.454905 -0.272055 -0.466 179 137 115
0.460795 -0.270304 -0.463 189 147 125
0.46583 -0.269136 -0.461 190 147 128
0.10512 -0.342057 -0.584 194 139 132
0.10962 -0.3321 -0.567 198 145 141
0.113337 -0.330343 -0.564 200 145 138
0.122133 -0.328 -0.56 191 137 127
0.127467 -0.328 -0.56 193 136 125
0.140267 -0.328 -0.56 180 122 108
0.144791 -0.328586 -0.561 172 115 98
0.149863 -0.330343 -0.564 158 101 92
0.165351 -0.335614 -0.573 141 88 80
0.1725 -0.336786 -0.575 131 84 76
0.180317 -0.339129 -0.579 127 82 76
0.198352 -0.345571 -0.59 118 77 73
0.209365 -0.350843 -0.599 118 80 77
0.238309 -0.365486 -0.624 90 85 108
0.252189 -0.366657 -0.626 183 181 203
0.270833 -0.366071 -0.625 96 117 180
0.30368 -0.365486 -0.624 204 208 233
0.372613 -0.367829 -0.628 220 226 240
0.374409 -0.367243 -0.627 221 225 234
0.379186 -0.367243 -0.627 252 251 255
0.385157 -0.367243 -0.627 245 248 255
0.386351 -0.367243 -0.627 228 231 238
0.3971 -0.367243 -0.627 112 138 195
0.403714 -0.367829 -0.628 115 146 201
0.44771 -0.369586 -0.631 183 184 202
0.465738 -0.369586 -0.631 42 81 158
0.468142 -0.369586 -0.631 47 85 156
0.475353 -0.369586 -0.631 106 127 184
0.478959 -0.369586 -0.631 158 162 187
0.480161 -0.369586 -0.631 164 168 193
0.48617 -0.369586 -0.631 199 205 221
0.49296 -0.370171 -0.632 194 200 222
0.494164 -0.370171 -0.632 196 202 224
0.505797 -0.370757 -0.633 193 198 217
0.520648 -0.370171 -0.632 146 163 206
0.524259 -0.370171 -0.632 86 113 166
0.529074 -0.370171 -0.632 100 131 186
0.543862 -0.369586 -0.631 187 199 215
0.449234 -0.290514 -0.496 175 143 132
0.446329 -0.275871 -0.471 197 156 138
0.447226 -0.275871 -0.471 197 156 138
0.448834 -0.274114 -0.468 196 153 134
0.459139 -0.271771 -0.464 190 148 126
0.46068 -0.2706 -0.462 193 150 131
0.473732 -0.270014 -0.461 180 137 118
0.47916 -0.2706 -0.462 174 132 116
0.483725 -0.271186 -0.463 173 131 115
0.486537 -0.271771 -0.464 164 124 112
0.501054 -0.275871 -0.471 152 117 98
0.10512 -0.34317 -0.584 194 139 132
0.120214 -0.329654 -0.561 193 139 129
0.131498 -0.328479 -0.559 184 128 115
0.171703 -0.338469 -0.576 131 84 76
0.179214 -0.340231 -0.579 126 81 75
0.188871 -0.343757 -0.585 125 82 76
0.243452 -0.367262 -0.625 157 154 175
0.251786 -0.367262 -0.625 187 183 206
0.257738 -0.367262 -0.625 135 140 172
0.26369 -0.367262 -0.625 107 119 167
0.27872 -0.366674 -0.624 119 140 185
0.302007 -0.366087 -0.623 187 190 209
0.348214 -0.367262 -0.625 245 252 255
0.381574 -0.368437 -0.627 247 247 255
0.386928 -0.36785 -0.626 197 205 224
0.418069 -0.369025 -0.628 232 234 246
0.420461 -0.369025 -0.628 183 188 194
0.426442 -0.369025 -0.628 197 200 217
0.435508 -0.369612 -0.629 185 190 212
0.476555 -0.370788 -0.631 187 201 240
0.478959 -0.370788 -0.631 203 208 227
0.490978 -0.370788 -0.631 181 186 206
0.509813 -0.371375 -0.632 174 177 186
0.516218 -0.370788 -0.631 127 141 178
0.51742 -0.370788 -0.631 88 102 139
0.534247 -0.370788 -0.631 121 143 193
0.452242 -0.27383 -0.466 194 152 130
0.4598 -0.27148 -0.462 191 146 125
0.463195 -0.270892 -0.461 195 150 131
0.463943 -0.270305 -0.46 193 148 127
0.466571 -0.270305 -0.46 187 142 123
0.477245 -0.270892 -0.461 173 130 113
0.48092 -0.27148 -0.462 174 132 116
0.111189 -0.332491 -0.564 196 148 138
0.132563 -0.329544 -0.559 172 116 101
0.136822 -0.329544 -0.559 175 117 103
0.150129 -0.333081 -0.565 157 100 89
0.171703 -0.339566 -0.576 130 83 73
0.180629 -0.341924 -0.58 126 81 75
0.189194 -0.345461 -0.586 122 81 75
0.197563 -0.348409 -0.591 119 78 76
0.210413 -0.354893 -0.602 117 82 80
0.241071 -0.368452 -0.625 105 106 124
0.244251 -0.367863 -0.624 169 166 183
0.249006 -0.367863 -0.624 180 176 193
0.256137 -0.367863 -0.624 130 134 163
0.260891 -0.367863 -0.624 152 157 195
0.26208 -0.367863 -0.624 145 150 188
0.287305 -0.366684 -0.622 231 235 255
0.30438 -0.367273 -0.623 236 237 255
0.305567 -0.367273 -0.623 239 241 255
0.371427 -0.369042 -0.626 225 231 245
0.375004 -0.369042 -0.626 248 252 255
0.38335 -0.369042 -0.626 211 215 227
0.385735 -0.369042 -0.626 199 203 215
0.390505 -0.369042 -0.626 123 141 177
0.403071 -0.369631 -0.627 145 170 227
0.4542 -0.3714 -0.63 82 108 169
0.4698 -0.3714 -0.63 59 96 166
0.4806 -0.3714 -0.63 175 178 183
0.4878 -0.3714 -0.63 202 202 212
0.49218 -0.37199 -0.631 161 163 186
0.5202 -0.3714 -0.63 78 104 163
0.531 -0.3714 -0.63 73 98 154
0.5358 -0.3714 -0.63 88 109 164
0.450952 -0.294762 -0.5 166 138 134
0.448364 -0.291225 -0.494 172 142 134
0.445689 -0.288277 -0.489 176 144 133
0.445478 -0.278255 -0.472 196 153 136
0.456488 -0.273539 -0.464 192 147 126
0.4598 -0.27236 -0.462 193 148 127
0.463943 -0.271181 -0.46 194 149 128
0.469054 -0.270591 -0.459 183 140 121
0.48268 -0.27236 -0.462 168 129 114
0.502849 -0.277666 -0.471 152 119 104
0.12 -0.3312 -0.56 191 134 123
0.151472 -0.334749 -0.566 156 99 90
0.174501 -0.341846 -0.578 123 78 72
0.176703 -0.341846 -0.578 127 82 77
0.183784 -0.344803 -0.583 127 83 80
0.19208 -0.34776 -0.588 120 76 75
0.232806 -0.367869 -0.622 170 159 175
0.245047 -0.36846 -0.623 174 171 188
0.26166 -0.36846 -0.623 177 178 208
0.268023 -0.369051 -0.624 99 130 185
0.279011 -0.367869 -0.622 185 198 232
0.338793 -0.36846 -0.623 183 207 251
0.351223 -0.369051 -0.624 247 250 255
0.358354 -0.369051 -0.624 251 253 248
0.366071 -0.369643 -0.625 202 203 223
0.373214 -0.369643 -0.625 247 250 255
0.377976 -0.369643 -0.625 252 251 255
0.382158 -0.370234 -0.626 234 237 246
0.399405 -0.369643 -0.625 130 157 202
0.406006 -0.370234 -0.626 129 152 196
0.407198 -0.370234 -0.626 135 158 202
0.41316 -0.370234 -0.626 239 241 255
0.414352 -0.370234 -0.626 238 240 255
0.431734 -0.370826 -0.627 191 197 221
0.432929 -0.370826 -0.627 196 202 226
0.4746 -0.3726 -0.63 95 124 194
0.477 -0.3726 -0.63 193 205 247
0.495786 -0.373191 -0.631 144 148 177
0.499391 -0.373191 -0.631 151 162 184
0.5334 -0.3726 -0.63 75 95 156
0.516238 -0.346577 -0.586 165 135 125
0.489273 -0.32706 -0.553 165 138 131
0.45885 -0.302811 -0.512 165 138 131
0.449726 -0.276789 -0.468 194 153 133
0.453929 -0.275014 -0.465 193 151 129
0.459683 -0.272649 -0.461 193 148 129
0.490956 -0.274423 -0.464 164 125 108
0.102829 -0.350067 -0.59 195 145 138
0.125949 -0.33108 -0.558 196 139 128
0.137887 -0.331673 -0.559 171 113 99
0.163453 -0.340573 -0.574 137 88 81
0.164547 -0.340573 -0.574 136 87 82
0.167024 -0.341167 -0.575 132 85 77
0.168119 -0.341167 -0.575 133 86 78
0.184099 -0.346507 -0.584 127 83 80
0.19096 -0.34888 -0.588 118 77 75
0.199697 -0.35244 -0.594 117 77 69
0.204801 -0.355407 -0.599 115 74 78
0.234367 -0.369647 -0.623 163 160 171
0.242673 -0.369647 -0.623 182 170 184
0.257686 -0.369053 -0.622 172 173 201
0.269967 -0.369647 -0.623 120 150 200
0.284477 -0.36846 -0.621 188 193 231
0.286843 -0.36846 -0.621 224 228 255
0.352411 -0.37024 -0.624 247 251 255
0.372617 -0.37024 -0.624 255 253 255
0.374994 -0.37024 -0.624 255 255 255
0.381548 -0.370833 -0.625 196 198 210
0.408929 -0.370833 -0.625 139 157 197
0.445581 -0.372613 -0.628 230 224 238
0.448687 -0.373207 -0.629 199 202 219
0.451083 -0.373207 -0.629 116 139 183
0.476243 -0.373207 -0.629 179 195 246
0.483431 -0.373207 -0.629 153 155 167
0.48463 -0.373207 -0.629 200 202 217
0.4974 -0.3738 -0.63 148 155 181
0.5022 -0.3738 -0.63 176 183 201
0.5094 -0.3738 -0.63 201 198 215
0.514582 -0.373207 -0.629 161 176 219
0.524167 -0.373207 -0.629 69 95 156
0.531355 -0.373207 -0.629 90 119 177
0.477163 -0.31862 -0.537 163 135 131
0.442851 -0.28124 -0.474 188 150 131
0.449654 -0.277087 -0.467 199 156 137
0.45313 -0.276493 -0.466 190 147 128
0.468032 -0.271747 -0.458 181 138 121
0.4743 -0.27234 -0.459 171 129 113
0.49184 -0.275307 -0.464 164 125 108
0.495735 -0.276493 -0.466 162 125 109
0.102131 -0.34881 -0.586 197 144 136
0.10278 -0.339881 -0.571 196 143 135
0.106891 -0.335714 -0.564 196 141 134
0.134692 -0.332738 -0.559 180 124 107
0.142654 -0.333929 -0.561 166 110 97
0.1558 -0.339286 -0.57 150 96 86
0.177314 -0.345238 -0.58 128 84 81
0.228514 -0.369048 -0.62 169 158 172
0.244653 -0.370238 -0.622 177 176 192
0.267164 -0.370238 -0.622 134 156 197
0.279295 -0.369048 -0.62 189 194 224
0.35778 -0.370833 -0.623 251 255 255
0.362527 -0.370833 -0.623 244 247 254
0.367273 -0.370833 -0.623 252 255 255
0.376767 -0.370833 -0.623 252 255 255
0.385691 -0.371429 -0.624 142 146 171
0.40352 -0.371429 -0.624 210 224 255
0.416071 -0.372024 -0.625 238 237 253
0.44917 -0.37381 -0.628 92 114 155
0.452281 -0.374405 -0.629 94 116 157
0.453479 -0.374405 -0.629 165 192 237
0.48463 -0.374405 -0.629 178 180 193
0.493016 -0.374405 -0.629 191 194 213
0.4962 -0.375 -0.63 132 136 161
0.516156 -0.37381 -0.628 77 99 156
0.517352 -0.37381 -0.628 78 100 157
0.527761 -0.374405 -0.629 65 95 159
0.529314 -0.37381 -0.628 79 109 169
0.538884 -0.37381 -0.628 168 179 211
0.504111 -0.339881 -0.571 164 136 125
0.451854 -0.298214 -0.501 170 140 132
0.442961 -0.285119 -0.479 185 146 129
0.44368 -0.280952 -0.472 193 151 135
0.447051 -0.278571 -0.468 193 152 132
0.448765 -0.277976 -0.467 197 156 136
0.457268 -0.275595 -0.463 192 147 126
0.460438 -0.27381 -0.46 198 153 132
0.479714 -0.27381 -0.46 175 134 116
0.101092 -0.354106 -0.593 201 151 142
0.10314 -0.33858 -0.567 195 142 134
0.104743 -0.336789 -0.564 198 143 136
0.119571 -0.333206 -0.558 192 138 128
0.128074 -0.333206 -0.558 192 135 124
0.131263 -0.333206 -0.558 187 131 118
0.1392 -0.3344 -0.56 173 117 102
0.181874 -0.348731 -0.584 123 82 80
0.19306 -0.352911 -0.591 117 75 77
0.197767 -0.3553 -0.595 119 79 79
0.201042 -0.357091 -0.598 118 80 79
0.202519 -0.357689 -0.599 118 80 79
0.263186 -0.370826 -0.621 167 176 205
0.354836 -0.371423 -0.622 255 255 255
0.356021 -0.371423 -0.622 251 251 253
0.35839 -0.371423 -0.622 250 255 255
0.387447 -0.37202 -0.623 246 248 255
0.392193 -0.37202 -0.623 214 229 252
0.404709 -0.372617 -0.624 234 244 255
0.440585 -0.373811 -0.626 223 220 239
0.461591 -0.374409 -0.627 90 135 203
0.469505 -0.375006 -0.628 156 178 217
0.482233 -0.375603 -0.629 211 209 233
0.48463 -0.375603 -0.629 160 162 175
0.485828 -0.375603 -0.629 162 164 177
0.511371 -0.375006 -0.628 185 192 221
0.512568 -0.375006 -0.628 132 139 168
0.529314 -0.375006 -0.628 75 109 170
0.542803 -0.374409 -0.627 172 169 180
0.520643 -0.352911 -0.591 165 136 128
0.447456 -0.294391 -0.493 177 140 131
0.442881 -0.283643 -0.475 187 148 131
0.444486 -0.280657 -0.47 196 153 136
0.447051 -0.279463 -0.468 193 152 132
0.462934 -0.274089 -0.459 193 148 129
0.46614 -0.272894 -0.457 183 140 124
0.104557 -0.337264 -0.563 195 142 134
0.105442 -0.336665 -0.562 195 142 134
0.10846 -0.336066 -0.561 196 141 134
0.117446 -0.334269 -0.558 188 134 124
0.125723 -0.33367 -0.557 194 137 126
0.126784 -0.33367 -0.557 195 138 127
0.142909 -0.336665 -0.562 161 105 92
0.158803 -0.343254 -0.573 141 91 84
0.164023 -0.345051 -0.576 131 86 81
0.171494 -0.346849 -0.579 127 83 80
0.176817 -0.348646 -0.582 126 82 79
0.182186 -0.350443 -0.585 122 81 77
0.221532 -0.369612 -0.617 147 143 170
0.246626 -0.372009 -0.621 173 175 200
0.342437 -0.372009 -0.621 249 253 254
0.345986 -0.372009 -0.621 201 206 236
0.356631 -0.372009 -0.621 244 250 250
0.364314 -0.372608 -0.622 235 238 243
0.406433 -0.373207 -0.623 226 232 254
0.413029 -0.373806 -0.624 215 225 255
0.430357 -0.374405 -0.625 235 234 250
0.432738 -0.374405 -0.625 230 232 253
0.473534 -0.375603 -0.627 139 154 193
0.482663 -0.376202 -0.628 208 209 230
0.487448 -0.376202 -0.628 197 202 208
0.51496 -0.376202 -0.628 124 143 185
0.519745 -0.376202 -0.628 147 168 197
0.541609 -0.375603 -0.627 191 196 216
0.520643 -0.354037 -0.591 167 138 130
0.451001 -0.298925 -0.499 175 141 131
0.442971 -0.287543 -0.48 184 147 131
0.44616 -0.280354 -0.468 195 152 135
0.452157 -0.278557 -0.465 194 151 132
0.462934 -0.274963 -0.459 193 147 131
0.124662 -0.33473 -0.557 197 140 129
0.154986 -0.343144 -0.571 144 94 85
0.169289 -0.347951 -0.579 121 80 76
0.179957 -0.351557 -0.585 124 83 79
0.18648 -0.35336 -0.588 120 80 78
0.221532 -0.370788 -0.617 133 130 159
0.245048 -0.37259 -0.62 174 172 194
0.246229 -0.37259 -0.62 183 184 215
0.269412 -0.37199 -0.619 164 180 216
0.270591 -0.37199 -0.619 157 173 209
0.307142 -0.37199 -0.619 246 245 250
0.374374 -0.373191 -0.621 250 250 252
0.38327 -0.373792 -0.622 185 192 211
0.386825 -0.373792 -0.622 247 253 253
0.38801 -0.373792 -0.622 248 254 254
0.40762 -0.374393 -0.623 216 219 234
0.409993 -0.374393 -0.623 156 162 194
0.455357 -0.375595 -0.625 186 202 235
0.458929 -0.375595 -0.625 117 142 196
0.477117 -0.376797 -0.627 102 114 156
0.485055 -0.377398 -0.628 208 211 220
0.495821 -0.377398 -0.628 207 206 220
0.50539 -0.377398 -0.628 203 203 213
0.527277 -0.376797 -0.627 85 121 181
0.447456 -0.29627 -0.493 179 143 129
0.444814 -0.291462 -0.485 177 140 124
0.443899 -0.289659 -0.482 180 143 125
0.451185 -0.278842 -0.464 196 150 134
0.452952 -0.278842 -0.464 194 149 130
0.452858 -0.278241 -0.463 195 150 131
0.45452 -0.27764 -0.462 195 150 131
0.459437 -0.275837 -0.459 194 148 132
0.46367 -0.275236 -0.458 193 147 131
0.473974 -0.274635 -0.457 175 134 116
0.482169 -0.275837 -0.459 168 125 106
0.0990467 -0.35026 -0.581 197 149 139
0.103117 -0.338203 -0.561 193 143 132
0.111268 -0.336997 -0.559 196 144 133
0.121261 -0.335189 -0.556 192 139 125
0.125723 -0.335791 -0.557 193 140 126
0.148238 -0.341217 -0.566 149 94 87
0.162926 -0.347246 -0.576 129 86 80
0.169581 -0.349657 -0.58 124 83 79
0.180265 -0.353274 -0.586 122 83 78
0.188557 -0.356289 -0.591 119 79 77
0.189683 -0.356289 -0.591 119 79 77
0.192909 -0.358097 -0.594 119 81 78
0.239936 -0.373169 -0.619 171 166 186
0.243473 -0.373169 -0.619 159 156 183
0.258801 -0.373169 -0.619 200 196 211
0.263517 -0.373169 -0.619 160 166 198
0.271331 -0.372566 -0.618 153 163 198
0.272509 -0.372566 -0.618 178 188 223
0.353695 -0.373771 -0.62 252 255 255
0.36846 -0.374374 -0.621 251 250 255
0.417113 -0.37558 -0.623 204 206 219
0.4183 -0.37558 -0.623 188 190 203
0.43254 -0.37558 -0.623 230 233 250
0.448214 -0.376786 -0.625 207 221 250
0.454167 -0.376786 -0.625 193 204 232
0.456548 -0.376786 -0.625 170 185 218
0.464881 -0.376786 -0.625 160 187 230
0.477549 -0.377389 -0.626 103 116 160
0.521667 -0.377389 -0.626 109 136 181
0.462434 -0.311074 -0.516 171 138 129
0.444814 -0.292386 -0.485 177 140 124
0.45364 -0.27852 -0.462 195 149 133
0.460181 -0.276109 -0.458 194 148 132
0.468594 -0.274903 -0.456 184 141 124
0.503211 -0.282137 -0.468 151 114 96
0.098 -0.3556 -0.588 198 147 144
0.110203 -0.338062 -0.559 196 147 133
0.124438 -0.336248 -0.556 193 140 122
0.131028 -0.336852 -0.557 181 125 110
0.141838 -0.339876 -0.562 158 105 89
0.143163 -0.340481 -0.563 155 102 86
0.17379 -0.352576 -0.583 123 82 78
0.176312 -0.353181 -0.584 122 82 80
0.18599 -0.35681 -0.59 120 80 80
0.225788 -0.374348 -0.619 111 117 153
0.236399 -0.374348 -0.619 142 151 194
0.24308 -0.373743 -0.618 126 130 165
0.257206 -0.373743 -0.618 211 206 228
0.360781 -0.374952 -0.62 234 240 255
0.378495 -0.374952 -0.62 208 210 225
0.387386 -0.375557 -0.621 253 254 255
0.394483 -0.375557 -0.621 206 218 255
0.411705 -0.376162 -0.622 153 159 175
0.447497 -0.377371 -0.624 215 223 246
0.467262 -0.377976 -0.625 176 192 225
0.470833 -0.377976 -0.625 209 217 236
0.482318 -0.378581 -0.626 200 199 213
0.496627 -0.378581 -0.626 206 208 229
0.512128 -0.378581 -0.626 164 178 204
0.446636 -0.295124 -0.488 175 139 123
0.44354 -0.283633 -0.469 192 149 133
0.446029 -0.281819 -0.466 195 152 135
0.446843 -0.281214 -0.465 192 149 132
0.460181 -0.276981 -0.458 193 148 129
0.466857 -0.275771 -0.456 185 140 121
0.467726 -0.275771 -0.456 184 141 122
0.489352 -0.27819 -0.46 159 120 103
0.497143 -0.28061 -0.464 155 118 102
0.0999114 -0.34034 -0.561 193 145 135
0.11193 -0.337913 -0.557 192 140 126
0.125497 -0.337307 -0.556 191 138 124
0.144491 -0.34216 -0.564 154 101 85
0.178336 -0.356113 -0.587 123 84 77
0.231683 -0.375527 -0.619 122 122 148
0.236399 -0.375527 -0.619 129 141 191
0.253264 -0.374313 -0.617 202 201 219
0.266191 -0.374313 -0.617 167 183 219
0.267367 -0.374313 -0.617 161 177 213
0.382038 -0.376133 -0.62 246 252 255
0.400397 -0.37674 -0.621 198 207 240
0.407494 -0.37674 -0.621 241 241 239
0.416957 -0.37674 -0.621 235 235 255
0.41814 -0.37674 -0.621 226 227 255
0.437287 -0.377953 -0.623 227 231 255
0.471269 -0.37856 -0.624 215 215 227
0.48869 -0.379167 -0.625 208 212 223
0.519643 -0.379167 -0.625 153 168 199
0.50166 -0.34398 -0.567 168 137 132
0.4466 -0.297267 -0.49 174 138 124
0.442 -0.288773 -0.476 185 146 131
0.441949 -0.28756 -0.474 186 147 130
0.44274 -0.28574 -0.471 190 146 133
0.445269 -0.28392 -0.468 199 153 137
0.445207 -0.283313 -0.467 199 153 137
0.451976 -0.280887 -0.463 197 152 133
0.461646 -0.27664 -0.456 188 143 124
0.472937 -0.27664 -0.456 180 137 118
0.490229 -0.279067 -0.46 159 120 103
0.0965 -0.352363 -0.579 193 149 138
0.09676 -0.34932 -0.574 193 149 138
0.105565 -0.338974 -0.557 201 152 138
0.115757 -0.337757 -0.555 192 141 124
0.119986 -0.337757 -0.555 192 141 124
0.1392 -0.3408 -0.56 162 110 96
0.151457 -0.346886 -0.57 140 90 79
0.155529 -0.348711 -0.573 134 86 76
0.170458 -0.354797 -0.583 126 81 75
0.171569 -0.354797 -0.583 124 81 75
0.22 -0.37488 -0.616 144 146 169
0.230131 -0.376097 -0.618 136 138 163
0.236017 -0.376097 -0.618 131 144 188
0.237194 -0.376097 -0.618 150 158 194
0.245037 -0.375489 -0.617 100 113 157
0.268107 -0.37488 -0.616 144 159 198
0.35902 -0.376706 -0.619 246 251 255
0.379064 -0.376706 -0.619 248 247 255
0.380243 -0.376706 -0.619 248 247 255
0.417467 -0.377314 -0.62 206 212 234
0.429969 -0.377923 -0.621 231 231 255
0.431151 -0.377923 -0.621 227 227 251
0.45034 -0.37914 -0.623 224 229 251
0.497024 -0.380357 -0.625 202 203 223
0.500595 -0.380357 -0.625 197 200 219
0.501786 -0.380357 -0.625 201 204 219
0.510119 -0.380357 -0.625 192 193 221
0.51369 -0.380357 -0.625 202 203 224
0.53664 -0.379749 -0.624 204 209 228
0.457689 -0.279334 -0.459 194 148 132
0.4641 -0.2769 -0.455 181 140 118
0.491981 -0.279943 -0.46 155 117 104
0.0941562 -0.361402 -0.592 193 151 137
0.102382 -0.340035 -0.557 196 148 134
0.151457 -0.347971 -0.57 136 88 78
0.166553 -0.354687 -0.581 126 81 75
0.228584 -0.376664 -0.617 139 144 173
0.230934 -0.376664 -0.617 91 95 122
0.24464 -0.376053 -0.616 110 123 167
0.2552 -0.376053 -0.616 204 205 226
0.270014 -0.375443 -0.615 164 174 210
0.365503 -0.377274 -0.618 224 233 255
0.38378 -0.377885 -0.619 255 255 255
0.384959 -0.377885 -0.619 245 244 250
0.400933 -0.378495 -0.62 213 228 255
0.416286 -0.378495 -0.62 161 173 199
0.440139 -0.379716 -0.622 223 225 248
0.461465 -0.379716 -0.622 150 179 221
0.466204 -0.379716 -0.622 182 207 247
0.474073 -0.380327 -0.623 193 195 207
0.480777 -0.380937 -0.624 173 175 196
0.507738 -0.381548 -0.625 179 185 207
0.510119 -0.381548 -0.625 205 206 224
0.4581 -0.310732 -0.509 169 136 127
0.441071 -0.289976 -0.475 187 145 129
0.442647 -0.286313 -0.469 185 144 124
0.448614 -0.283871 -0.465 189 144 125
0.45188 -0.28204 -0.462 197 152 133
0.454305 -0.280819 -0.46 192 146 130
0.4693 -0.277767 -0.455 182 139 120
0.472767 -0.277767 -0.455 178 135 118
0.481623 -0.278377 -0.456 169 128 106
0.0981381 -0.341096 -0.557 197 151 138
0.102198 -0.340484 -0.556 197 149 135
0.110471 -0.339871 -0.555 193 144 127
0.122935 -0.339259 -0.554 195 143 121
0.146082 -0.346608 -0.566 142 92 83
0.151723 -0.34967 -0.571 132 85 75
0.214608 -0.376002 -0.614 155 152 173
0.225867 -0.377227 -0.616 113 119 155
0.245414 -0.376614 -0.615 169 182 226
0.247757 -0.376614 -0.615 186 193 219
0.2501 -0.376614 -0.615 196 197 215
0.255957 -0.376614 -0.615 206 209 224
0.261814 -0.376614 -0.615 149 167 203
0.364326 -0.378451 -0.618 184 194 230
0.38316 -0.378451 -0.618 252 252 252
0.409719 -0.379064 -0.619 242 237 243
0.410898 -0.379064 -0.619 243 247 255
0.422689 -0.379064 -0.619 201 208 234
0.439431 -0.380289 -0.621 226 227 247
0.454809 -0.380289 -0.621 123 155 196
0.500983 -0.382126 -0.624 157 170 205
0.52866 -0.381513 -0.623 125 149 185
0.53578 -0.381513 -0.623 176 179 188
0.479076 -0.329461 -0.538 168 137 132
0.451951 -0.305578 -0.499 169 136 127
0.441843 -0.288431 -0.471 188 146 130
0.443428 -0.285982 -0.467 190 149 129
0.448533 -0.284145 -0.464 192 147 128
0.451 -0.28292 -0.462 196 151 132
0.460777 -0.279246 -0.456 188 142 126
0.472592 -0.278021 -0.454 180 134 118
0.487225 -0.28047 -0.458 164 126 107
0.0933171 -0.351986 -0.573 193 149 138
0.0979619 -0.341543 -0.556 197 151 138
0.10008 -0.341543 -0.556 196 150 135
0.12399 -0.340314 -0.554 196 142 118
0.125046 -0.340314 -0.554 194 142 118
0.127386 -0.340929 -0.555 188 136 112
0.128443 -0.340929 -0.555 186 134 110
0.218471 -0.377786 -0.615 159 152 183
0.231357 -0.377786 -0.615 65 88 142
0.261389 -0.377171 -0.614 144 162 198
0.269575 -0.377171 -0.614 154 162 198
0.271914 -0.377171 -0.614 224 228 255
0.354334 -0.379014 -0.617 183 192 233
0.359035 -0.379014 -0.617 218 227 255
0.363149 -0.379629 -0.618 135 151 202
0.36668 -0.379629 -0.618 227 235 248
0.373138 -0.379014 -0.617 202 209 237
0.38316 -0.379629 -0.618 252 252 252
0.387869 -0.379629 -0.618 204 208 219
0.389046 -0.379629 -0.618 190 200 236
0.398463 -0.379629 -0.618 187 205 243
0.402645 -0.380243 -0.619 248 253 255
0.414435 -0.380243 -0.619 172 184 224
0.434 -0.380857 -0.62 120 137 183
0.437543 -0.380857 -0.62 199 221 255
0.445346 -0.381471 -0.621 221 221 233
0.490687 -0.3827 -0.623 108 134 185
0.474747 -0.3268 -0.532 166 137 131
0.444819 -0.297314 -0.484 179 141 130
0.444186 -0.285643 -0.465 191 148 129
0.452552 -0.282571 -0.46 196 151 132
0.4615 -0.2795 -0.455 183 138 119
0.46308 -0.278886 -0.454 181 139 117
0.467404 -0.278886 -0.454 182 140 118
0.470863 -0.278886 -0.454 179 134 115
0.475187 -0.278886 -0.454 177 132 113
0.476051 -0.278886 -0.454 179 133 109
0.0952962 -0.34445 -0.559 195 149 134
0.11218 -0.340753 -0.553 198 147 128
0.113233 -0.340753 -0.553 198 147 128
0.120607 -0.340753 -0.553 197 145 123
0.14634 -0.34938 -0.567 131 84 74
0.166016 -0.359239 -0.583 123 82 80
0.210755 -0.377725 -0.613 149 150 170
0.221986 -0.378957 -0.615 133 133 161
0.2255 -0.378957 -0.615 157 157 181
0.237214 -0.378957 -0.615 167 177 204
0.247354 -0.378341 -0.614 191 200 229
0.253957 -0.377725 -0.613 209 207 228
0.263298 -0.377725 -0.613 167 183 216
0.265633 -0.377725 -0.613 163 179 212
0.347893 -0.379573 -0.616 225 226 228
0.359035 -0.38019 -0.617 226 233 255
0.384337 -0.380806 -0.618 250 249 254
0.387241 -0.38019 -0.617 201 205 214
0.403824 -0.381422 -0.619 250 253 255
0.40788 -0.380806 -0.618 250 246 247
0.434479 -0.381422 -0.619 112 129 175
0.457619 -0.382038 -0.62 146 177 221
0.475682 -0.38327 -0.622 214 216 229
0.480421 -0.38327 -0.622 94 117 161
0.483975 -0.38327 -0.622 128 151 185
0.492269 -0.38327 -0.622 72 107 165
0.506113 -0.383887 -0.623 196 208 220
0.51798 -0.383887 -0.623 116 144 184
0.530181 -0.38327 -0.622 124 146 185
0.466915 -0.321035 -0.521 165 135 127
0.443899 -0.297004 -0.482 180 140 128
0.441753 -0.288993 -0.469 188 147 129
0.443366 -0.287145 -0.466 192 151 131
0.447567 -0.285296 -0.463 190 148 126
0.448449 -0.285296 -0.463 190 148 126
0.44924 -0.28468 -0.462 189 147 125
0.451676 -0.283448 -0.46 195 150 129
0.452443 -0.282831 -0.459 193 148 127
0.454191 -0.282831 -0.459 192 147 126
0.474322 -0.27975 -0.454 179 134 115
0.149286 -0.352314 -0.57 127 82 77
0.164906 -0.36035 -0.583 124 84 82
0.176174 -0.365294 -0.591 120 82 81
0.214608 -0.37951 -0.614 140 140 168
0.218116 -0.37951 -0.614 93 92 126
0.219286 -0.37951 -0.614 143 142 173
0.235659 -0.37951 -0.614 174 181 207
0.240337 -0.37951 -0.614 171 177 201
0.250454 -0.378892 -0.613 203 201 222
0.38192 -0.380747 -0.616 249 248 246
0.404349 -0.381983 -0.618 239 242 247
0.406703 -0.381983 -0.618 212 217 221
0.414943 -0.381983 -0.618 130 142 182
0.436837 -0.382601 -0.619 192 212 247
0.440374 -0.382601 -0.619 226 231 253
0.443911 -0.382601 -0.619 237 238 255
0.459239 -0.382601 -0.619 145 176 222
0.461597 -0.382601 -0.619 122 150 197
0.47061 -0.383219 -0.62 219 219 229
0.497008 -0.384455 -0.622 132 145 180
0.516793 -0.385073 -0.623 143 168 208
0.523414 -0.383837 -0.621 157 176 219
0.514047 -0.359113 -0.581 165 134 129
0.445721 -0.301012 -0.487 178 140 129
0.442 -0.294213 -0.476 184 145 130
0.44924 -0.28556 -0.462 189 147 125
0.450024 -0.284942 -0.461 193 151 129
0.4508 -0.284324 -0.46 197 152 131
0.453953 -0.28247 -0.457 194 149 128
0.460486 -0.280615 -0.454 185 140 119
0.490513 -0.28247 -0.457 156 119 103
0.496362 -0.284324 -0.46 147 114 97
0.0938943 -0.34534 -0.557 197 155 139
0.119337 -0.34224 -0.552 199 148 129
0.134451 -0.34596 -0.558 158 106 85
0.135757 -0.34658 -0.559 153 101 80
0.150899 -0.35464 -0.572 127 87 79
0.200429 -0.3782 -0.61 94 91 118
0.215426 -0.38006 -0.613 69 70 101
0.216947 -0.38068 -0.614 60 62 100
0.218116 -0.38068 -0.614 113 115 153
0.221625 -0.38068 -0.614 142 138 155
0.23215 -0.38068 -0.614 131 143 183
0.246951 -0.38006 -0.613 131 145 172
0.25704 -0.37944 -0.612 157 170 205
0.369013 -0.38192 -0.616 209 217 236
0.377227 -0.38192 -0.616 250 250 255
0.390133 -0.38192 -0.616 179 192 226
0.426024 -0.38254 -0.617 199 218 255
0.439195 -0.38378 -0.619 231 233 255
0.440374 -0.38378 -0.619 229 233 255
0.450257 -0.38316 -0.618 150 171 202
0.453789 -0.38316 -0.618 136 167 214
0.459239 -0.38378 -0.619 145 174 218
0.465134 -0.38378 -0.619 212 215 232
0.466313 -0.38378 -0.619 191 194 211
0.4761 -0.38502 -0.621 216 217 235
0.478466 -0.38502 -0.621 124 146 187
0.48438 -0.38502 -0.621 160 179 211
0.495026 -0.38502 -0.621 189 203 230
0.51004 -0.38564 -0.622 157 166 163
0.442 -0.29512 -0.476 185 146 129
0.4418 -0.2914 -0.47 188 147 129
0.442538 -0.28954 -0.467 192 149 130
0.445071 -0.2883 -0.465 192 149 130
0.449924 -0.2852 -0.46 196 154 132
0.451569 -0.28458 -0.459 193 148 125
0.457891 -0.28148 -0.454 185 140 119
0.458756 -0.28148 -0.454 183 138 117
0.467067 -0.28024 -0.452 184 139 120
0.468789 -0.28024 -0.452 182 137 116
0.482105 -0.28148 -0.454 165 124 106
0.486834 -0.28272 -0.456 159 121 108
0.495283 -0.28458 -0.459 155 117 108
0.0935571 -0.345157 -0.555 195 158 140
0.111774 -0.34267 -0.551 192 145 127
0.112824 -0.34267 -0.551 192 145 129
0.115972 -0.34267 -0.551 193 146 128
0.136 -0.348267 -0.56 151 99 78
0.162406 -0.361949 -0.582 123 85 82
0.229437 -0.381228 -0.613 134 132 153
0.231772 -0.381228 -0.613 153 163 198
0.235275 -0.381228 -0.613 180 187 203
0.251211 -0.380606 -0.612 204 206 231
0.3649 -0.382471 -0.615 252 251 255
0.366071 -0.382471 -0.615 248 247 253
0.370757 -0.382471 -0.615 231 238 254
0.375443 -0.382471 -0.615 244 251 255
0.380129 -0.382471 -0.615 248 250 247
0.3895 -0.382471 -0.615 190 201 233
0.404213 -0.383093 -0.616 242 245 250
0.426024 -0.383715 -0.617 199 218 255
0.4319 -0.383715 -0.617 202 210 233
0.437309 -0.384337 -0.618 204 206 229
0.445549 -0.384337 -0.618 229 236 254
0.456143 -0.384337 -0.618 168 196 236
0.505301 -0.386825 -0.622 195 205 230
0.514779 -0.386825 -0.622 199 199 211
0.518683 -0.386203 -0.621 114 137 178
0.441016 -0.294161 -0.473 187 148 131
0.449924 -0.286076 -0.46 197 152 131
0.457891 -0.282345 -0.454 186 141 120
0.459471 -0.281723 -0.453 186 141 120
0.468789 -0.281101 -0.452 182 137 118
