ply
format ascii 1.0
comment Created by Open3D
element vertex 1289
property double x
property double y
property double z
property uchar red
property uchar green
property uchar blue
end_header
0.524631 -0.39723 -0.631 175 179 190
0.500767 -0.365753 -0.581 163 134 128
0.488672 -0.353792 -0.562 167 137 127
0.479462 -0.336795 -0.535 191 148 129
0.493372 -0.331759 -0.527 188 144 115
0.496444 -0.33113 -0.526 185 141 114
0.528119 -0.340572 -0.541 160 121 104
1.13564 -0.401636 -0.638 201 205 188
0.0804343 -0.348549 -0.552 198 150 136
0.104903 -0.346023 -0.548 195 142 124
0.107186 -0.346654 -0.549 192 139 121
0.109476 -0.347286 -0.55 190 138 117
0.113873 -0.347917 -0.551 183 128 108
0.154911 -0.368123 -0.583 125 86 89
0.3502 -0.390223 -0.618 236 243 255
0.4183 -0.39338 -0.623 165 178 210
0.430857 -0.394011 -0.624 212 216 227
0.477441 -0.397169 -0.629 54 90 148
0.482233 -0.397169 -0.629 184 192 211
0.48463 -0.397169 -0.629 152 168 204
0.502997 -0.398431 -0.631 193 193 205
0.512612 -0.398431 -0.631 131 159 199
0.519444 -0.399063 -0.632 108 107 121
0.520648 -0.399063 -0.632 169 168 182
0.5262 -0.3978 -0.63 175 174 179
0.527761 -0.397169 -0.629 175 174 182
0.480426 -0.342866 -0.543 186 145 127
0.481946 -0.335289 -0.531 191 149 125
0.484251 -0.333394 -0.528 191 149 124
0.485257 -0.333394 -0.528 190 148 123
0.48735 -0.332763 -0.527 189 150 121
0.492436 -0.332131 -0.526 187 146 116
0.497446 -0.332131 -0.526 186 143 111
0.498448 -0.332131 -0.526 187 144 112
0.501453 -0.332131 -0.526 181 138 106
0.514311 -0.335289 -0.531 171 126 105
0.0894086 -0.3477 -0.549 196 145 128
0.0925457 -0.3477 -0.549 195 144 125
0.107186 -0.3477 -0.549 192 140 119
0.111571 -0.348333 -0.55 191 135 118
0.116183 -0.3496 -0.552 171 116 96
0.126626 -0.3553 -0.561 142 92 81
0.155177 -0.369867 -0.584 125 86 89
0.197266 -0.386967 -0.611 93 99 125
0.204583 -0.3876 -0.612 160 157 178
0.211577 -0.3876 -0.612 116 124 161
0.359617 -0.3914 -0.618 250 253 255
0.380243 -0.392033 -0.619 183 199 235
0.40815 -0.393933 -0.622 149 168 208
0.41474 -0.394567 -0.623 221 226 245
0.442262 -0.395833 -0.625 152 184 225
0.469505 -0.397733 -0.628 180 191 221
0.47429 -0.397733 -0.628 173 188 217
0.482663 -0.397733 -0.628 185 191 205
0.501 -0.399 -0.63 192 192 204
0.5082 -0.399 -0.63 120 148 188
0.522228 -0.399633 -0.631 181 177 191
0.518851 -0.3838 -0.606 159 134 129
0.483476 -0.348333 -0.55 173 140 125
0.48204 -0.3458 -0.546 182 145 127
0.479829 -0.342 -0.54 186 148 127
0.480101 -0.340733 -0.538 188 148 123
0.479462 -0.338833 -0.535 191 149 125
0.483246 -0.3344 -0.528 193 152 124
0.486346 -0.333767 -0.527 192 153 124
0.495442 -0.333133 -0.526 185 144 114
0.511367 -0.335033 -0.529 176 131 110
0.0747971 -0.353828 -0.557 197 150 130
0.102815 -0.34811 -0.548 198 146 125
0.109476 -0.349381 -0.55 189 137 115
0.118714 -0.351922 -0.554 149 98 81
0.130989 -0.359545 -0.566 130 81 76
0.141833 -0.365262 -0.575 132 88 85
0.149953 -0.369073 -0.581 125 85 85
0.156825 -0.37225 -0.586 124 84 85
0.193457 -0.387495 -0.61 147 147 173
0.206576 -0.38813 -0.611 175 174 192
0.2244 -0.388766 -0.612 190 196 218
0.229063 -0.388766 -0.612 138 144 180
0.234891 -0.388766 -0.612 197 203 219
0.338507 -0.391307 -0.616 250 248 253
0.398571 -0.393848 -0.62 230 234 245
0.402114 -0.393848 -0.62 247 251 255
0.437989 -0.396389 -0.624 138 162 206
0.441554 -0.396389 -0.624 163 192 234
0.450595 -0.397024 -0.625 191 211 238
0.451786 -0.397024 -0.625 184 186 199
0.466817 -0.397659 -0.626 187 198 220
0.46801 -0.397659 -0.626 193 199 225
0.473534 -0.398294 -0.627 184 195 217
0.474729 -0.398294 -0.627 142 153 175
0.48027 -0.39893 -0.628 184 199 218
0.482663 -0.39893 -0.628 197 200 219
0.507393 -0.399565 -0.629 130 157 200
0.49302 -0.36018 -0.567 164 137 128
0.48146 -0.344934 -0.543 184 147 128
0.480715 -0.338582 -0.533 191 149 124
0.482048 -0.336676 -0.53 190 149 121
0.483057 -0.336676 -0.53 192 151 123
0.492436 -0.334135 -0.526 188 147 117
0.5005 -0.3335 -0.525 183 139 110
0.504459 -0.334135 -0.526 183 138 107
0.5104 -0.335406 -0.528 175 130 109
0.513382 -0.336041 -0.529 169 126 107
1.1392 -0.406552 -0.64 202 204 191
1.13629 -0.404647 -0.637 211 213 199
0.077 -0.350429 -0.55 200 153 133
0.081939 -0.349154 -0.548 200 153 135
0.0913333 -0.349154 -0.548 197 146 127
0.0995019 -0.348517 -0.547 196 145 126
0.100544 -0.348517 -0.547 196 145 126
0.101586 -0.348517 -0.547 199 148 127
0.111571 -0.350429 -0.55 188 136 115
0.130989 -0.360623 -0.566 129 84 78
0.140738 -0.366357 -0.575 128 87 83
0.155709 -0.373366 -0.586 125 86 89
0.183558 -0.387383 -0.608 106 104 128
0.1885 -0.38802 -0.609 150 147 166
0.211231 -0.389294 -0.611 145 143 164
0.229852 -0.389294 -0.611 151 158 186
0.231016 -0.389294 -0.611 173 180 208
0.3432 -0.39248 -0.616 170 181 203
0.344373 -0.39248 -0.616 210 221 243
0.379629 -0.393754 -0.618 186 201 232
0.381983 -0.393754 -0.618 216 225 242
0.398571 -0.395029 -0.62 243 247 248
0.412226 -0.395666 -0.621 246 246 254
0.418813 -0.396303 -0.622 233 236 251
0.427107 -0.396303 -0.622 237 239 255
0.451786 -0.398214 -0.625 221 224 239
0.46324 -0.398851 -0.626 160 165 194
0.493429 -0.400126 -0.628 168 169 190
0.494625 -0.400126 -0.628 187 191 203
0.485234 -0.351703 -0.552 168 139 125
0.482923 -0.348517 -0.547 176 143 126
0.480101 -0.342783 -0.538 187 148 119
0.484338 -0.335774 -0.527 193 152 122
0.5035 -0.3345 -0.525 182 137 108
0.521325 -0.339597 -0.533 164 123 103
1.1392 -0.407771 -0.64 203 205 192
0.06806 -0.371287 -0.581 207 160 140
0.0688095 -0.36937 -0.578 204 157 137
0.072 -0.357867 -0.56 200 158 142
0.0807476 -0.349559 -0.547 202 155 135
0.0828314 -0.349559 -0.547 200 152 132
0.0849152 -0.349559 -0.547 203 152 133
0.0934209 -0.350198 -0.548 195 144 123
0.0974181 -0.349559 -0.547 197 146 127
0.101586 -0.349559 -0.547 200 148 126
0.124267 -0.357867 -0.56 142 93 78
0.13385 -0.363618 -0.569 130 85 79
0.136735 -0.365535 -0.572 128 85 79
0.19894 -0.38918 -0.609 163 160 177
0.220181 -0.389819 -0.61 180 187 203
0.223667 -0.389819 -0.61 186 193 212
0.231016 -0.390458 -0.611 144 159 190
0.238771 -0.389819 -0.61 182 193 221
0.243419 -0.389819 -0.61 146 158 198
0.349067 -0.393653 -0.616 255 251 255
0.359627 -0.393653 -0.616 164 171 190
0.368437 -0.394292 -0.617 231 233 245
0.369612 -0.394292 -0.617 214 216 228
0.405003 -0.39557 -0.619 240 240 250
0.4092 -0.39621 -0.62 225 229 255
0.428786 -0.396849 -0.621 236 238 255
0.43303 -0.397488 -0.622 197 207 216
0.442033 -0.398127 -0.623 174 196 237
0.455817 -0.398766 -0.624 224 222 236
0.457006 -0.398766 -0.624 209 215 229
0.4625 -0.399405 -0.625 181 185 214
0.465625 -0.400044 -0.626 211 213 234
0.473971 -0.400044 -0.626 196 202 224
0.476356 -0.400044 -0.626 149 153 178
0.478311 -0.400683 -0.627 201 204 219
0.4807 -0.400683 -0.627 207 210 227
0.514582 -0.401961 -0.629 118 138 173
0.526083 -0.400683 -0.627 68 73 103
0.48308 -0.34892 -0.546 175 144 126
0.482347 -0.347642 -0.544 178 147 129
0.4875 -0.3355 -0.525 190 149 119
0.4895 -0.3355 -0.525 189 148 118
0.4955 -0.3355 -0.525 185 144 114
0.4975 -0.3355 -0.525 185 144 114
0.516405 -0.338056 -0.529 166 125 103
1.13864 -0.408351 -0.639 203 205 192
0.0669533 -0.372393 -0.581 199 160 145
0.0922086 -0.350601 -0.547 194 143 122
0.101586 -0.350601 -0.547 200 148 126
0.110524 -0.352524 -0.55 181 129 105
0.11534 -0.354447 -0.553 159 104 84
0.136735 -0.366625 -0.572 128 85 79
0.2001 -0.39034 -0.609 166 164 178
0.20938 -0.39034 -0.609 175 173 184
0.210886 -0.390981 -0.61 168 172 183
0.224829 -0.390981 -0.61 184 194 219
0.227152 -0.390981 -0.61 144 158 187
0.2407 -0.39034 -0.609 147 158 190
0.36784 -0.394827 -0.616 223 221 242
0.386066 -0.395468 -0.617 231 231 241
0.417467 -0.39739 -0.62 242 240 253
0.425733 -0.39739 -0.62 196 206 231
0.440139 -0.398672 -0.622 163 186 218
0.4625 -0.400595 -0.625 191 197 221
0.469643 -0.400595 -0.625 207 214 232
0.484703 -0.401236 -0.626 203 207 218
0.491857 -0.401236 -0.626 80 83 102
0.504194 -0.402518 -0.628 143 163 198
0.508979 -0.402518 -0.628 93 124 168
0.513764 -0.402518 -0.628 121 141 176
0.523333 -0.402518 -0.628 154 158 185
0.495843 -0.364702 -0.569 160 133 122
0.491009 -0.359574 -0.561 164 137 126
0.486286 -0.353806 -0.552 168 138 128
0.4855 -0.3365 -0.525 190 149 119
0.48757 -0.335859 -0.524 189 148 118
0.488568 -0.335859 -0.524 190 149 119
0.523355 -0.341628 -0.533 166 124 102
0.0682171 -0.362571 -0.564 204 157 139
0.0858 -0.351 -0.546 197 149 129
0.09516 -0.351 -0.546 196 145 126
0.09724 -0.351 -0.546 198 147 126
0.104711 -0.351643 -0.547 194 142 121
0.10699 -0.352286 -0.548 190 138 116
0.108231 -0.352929 -0.549 184 132 110
0.126005 -0.361929 -0.563 136 88 76
0.135646 -0.367714 -0.572 129 85 82
0.149871 -0.376071 -0.585 122 84 83
0.192823 -0.390857 -0.608 54 62 99
0.193981 -0.390857 -0.608 103 109 141
0.202088 -0.390857 -0.608 168 168 180
0.20706 -0.3915 -0.609 153 151 162
0.21866 -0.3915 -0.609 183 189 203
0.22098 -0.3915 -0.609 183 189 205
0.345594 -0.394714 -0.614 248 252 255
0.38192 -0.396 -0.616 232 242 255
0.394292 -0.396643 -0.617 244 248 255
0.404349 -0.397286 -0.618 248 252 255
0.40788 -0.397286 -0.618 246 250 255
0.42033 -0.397929 -0.619 240 242 254
0.440139 -0.399857 -0.622 152 180 219
0.446063 -0.399857 -0.622 180 202 241
0.483929 -0.401786 -0.625 209 209 219
0.496226 -0.403071 -0.627 124 126 147
0.503391 -0.403071 -0.627 163 181 217
0.509363 -0.403071 -0.627 73 106 160
0.518549 -0.403714 -0.628 144 146 159
0.527131 -0.401143 -0.624 173 172 186
0.491562 -0.336857 -0.524 190 149 119
0.07956 -0.35204 -0.546 201 154 136
0.0806 -0.35204 -0.546 201 154 134
0.08788 -0.35204 -0.546 192 143 126
0.08892 -0.35204 -0.546 196 145 126
0.0908333 -0.351395 -0.545 198 147 126
0.104711 -0.352685 -0.547 192 141 122
0.10699 -0.35333 -0.548 187 136 115
0.110524 -0.354619 -0.55 168 118 95
0.122133 -0.361067 -0.56 141 93 81
0.128832 -0.364935 -0.566 131 86 80
0.136974 -0.369449 -0.573 130 87 81
0.150128 -0.37783 -0.586 119 81 80
0.198613 -0.392015 -0.608 167 166 180
0.202088 -0.392015 -0.608 166 165 179
0.204404 -0.392015 -0.608 168 170 182
0.22525 -0.392015 -0.608 191 200 215
0.376614 -0.396529 -0.615 211 228 254
0.397818 -0.397818 -0.617 249 252 255
0.409057 -0.398463 -0.618 246 251 255
0.426226 -0.399108 -0.619 159 163 188
0.432819 -0.399752 -0.62 204 211 229
0.450802 -0.401042 -0.622 220 223 242
0.455541 -0.401042 -0.622 117 126 155
0.46102 -0.401687 -0.623 208 213 235
0.473646 -0.402331 -0.624 203 204 225
0.48631 -0.402976 -0.625 206 206 218
0.489881 -0.402976 -0.625 166 168 183
0.501396 -0.403621 -0.626 162 176 202
0.509743 -0.403621 -0.626 57 97 158
0.512946 -0.404266 -0.627 116 143 186
0.521306 -0.404266 -0.627 131 133 154
0.527131 -0.402331 -0.624 176 174 188
0.517143 -0.386857 -0.6 163 134 130
0.492077 -0.361711 -0.561 162 135 128
0.485734 -0.353974 -0.549 172 139 124
0.482778 -0.348816 -0.541 185 146 117
0.4815 -0.344948 -0.535 188 149 120
0.481138 -0.341079 -0.529 187 148 119
0.481234 -0.340434 -0.528 188 149 120
0.485573 -0.337855 -0.524 188 147 117
0.492616 -0.33721 -0.523 192 148 119
0.49755 -0.337855 -0.524 187 143 114
0.50853 -0.337855 -0.524 174 132 108
0.0683086 -0.359547 -0.556 208 163 144
0.0794143 -0.352433 -0.545 201 154 138
0.0814905 -0.352433 -0.545 197 150 132
0.0856429 -0.352433 -0.545 195 146 129
0.0897952 -0.352433 -0.545 198 147 130
0.12085 -0.361487 -0.559 139 89 78
0.126229 -0.36472 -0.564 132 85 75
0.13014 -0.36666 -0.567 128 83 80
0.178043 -0.391233 -0.605 27 45 93
0.180646 -0.39188 -0.606 65 82 134
0.186417 -0.39188 -0.606 79 95 144
0.19135 -0.392527 -0.607 83 93 129
0.221775 -0.393173 -0.608 190 196 212
0.227566 -0.393173 -0.608 182 190 209
0.352037 -0.396407 -0.613 253 253 255
0.366646 -0.397053 -0.614 212 217 239
0.388329 -0.3977 -0.615 212 217 237
0.400693 -0.398347 -0.616 245 249 252
0.403694 -0.398993 -0.617 244 247 252
0.419651 -0.39964 -0.618 241 246 252
0.422689 -0.400287 -0.619 227 231 240
0.425047 -0.400287 -0.619 155 161 177
0.428584 -0.400287 -0.619 217 224 243
0.4333 -0.400287 -0.619 195 209 236
0.447711 -0.40158 -0.621 194 210 236
0.452443 -0.40158 -0.621 193 195 218
0.46458 -0.402873 -0.623 217 222 241
0.471269 -0.40352 -0.624 212 214 229
0.4784 -0.40352 -0.624 209 212 231
0.481966 -0.40352 -0.624 210 212 227
0.507358 -0.404813 -0.626 61 106 174
0.50855 -0.404813 -0.626 49 94 162
0.527131 -0.40352 -0.624 178 176 189
0.504324 -0.375067 -0.58 158 134 122
0.483419 -0.340147 -0.526 191 152 121
0.497597 -0.338207 -0.523 187 143 114
0.518446 -0.34144 -0.528 169 126 107
0.523414 -0.34338 -0.531 167 129 110
0.527389 -0.34532 -0.534 162 124 105
0.535371 -0.3492 -0.54 160 122 103
0.0834133 -0.352823 -0.544 198 151 133
0.10244 -0.35412 -0.546 194 143 124
0.113233 -0.35866 -0.553 149 96 78
0.124932 -0.365146 -0.563 133 86 76
0.126229 -0.365794 -0.564 132 85 75
0.127754 -0.367091 -0.566 130 85 79
0.192189 -0.393034 -0.606 149 160 190
0.226035 -0.393683 -0.607 194 201 219
0.23991 -0.393683 -0.607 114 136 186
0.370154 -0.398223 -0.614 187 203 239
0.378341 -0.398223 -0.614 190 208 246
0.38068 -0.398223 -0.614 208 223 255
0.390671 -0.398871 -0.615 211 210 226
0.391843 -0.398871 -0.615 220 218 221
0.40304 -0.39952 -0.616 242 245 254
0.413096 -0.400169 -0.617 245 251 249
0.431423 -0.400817 -0.618 192 210 232
0.434479 -0.401466 -0.619 192 210 246
0.439195 -0.401466 -0.619 113 152 207
0.440374 -0.401466 -0.619 108 149 203
0.441553 -0.401466 -0.619 101 142 196
0.444629 -0.402114 -0.62 170 204 249
0.463834 -0.403411 -0.622 215 221 235
0.46814 -0.40406 -0.623 215 219 230
0.502976 -0.405357 -0.625 153 172 212
0.518452 -0.405357 -0.625 124 134 169
0.502578 -0.339203 -0.523 186 140 114
0.0654829 -0.363616 -0.559 203 160 143
0.0853286 -0.353209 -0.543 196 149 129
0.0863629 -0.353209 -0.543 194 146 126
0.124932 -0.366218 -0.563 130 86 75
0.183805 -0.393538 -0.605 43 65 122
0.216429 -0.394189 -0.606 169 167 188
0.218737 -0.394189 -0.606 187 190 205
0.23028 -0.394189 -0.606 174 180 202
0.232589 -0.394189 -0.606 89 103 138
0.385358 -0.399392 -0.614 174 188 225
0.396529 -0.400043 -0.615 251 255 255
0.40304 -0.400693 -0.616 233 235 250
0.411921 -0.401344 -0.617 244 249 252
0.434954 -0.401994 -0.618 133 168 222
0.440374 -0.402645 -0.619 96 136 195
0.450533 -0.403295 -0.62 180 198 238
0.457619 -0.403295 -0.62 204 202 223
0.464271 -0.403946 -0.621 219 223 235
0.487127 -0.405247 -0.623 156 156 156
0.510119 -0.406548 -0.625 40 87 155
0.524754 -0.405897 -0.624 179 181 196
0.526287 -0.405247 -0.623 178 185 195
0.498886 -0.370771 -0.57 156 133 125
0.4824 -0.348655 -0.536 185 145 120
0.48184 -0.346053 -0.532 187 147 122
0.4825 -0.3415 -0.525 189 148 120
0.510548 -0.340199 -0.523 175 133 109
0.0667657 -0.360114 -0.552 206 161 142
0.0702 -0.3562 -0.546 201 159 137
0.0822257 -0.354243 -0.543 195 148 130
0.0937752 -0.354895 -0.544 199 151 139
0.111977 -0.360114 -0.552 146 98 86
0.115757 -0.362071 -0.555 145 97 87
0.131914 -0.371857 -0.57 124 83 79
0.191871 -0.39469 -0.605 143 149 171
0.198786 -0.39469 -0.605 166 167 187
0.201423 -0.395343 -0.606 157 158 176
0.202577 -0.395343 -0.606 134 138 150
0.209503 -0.395343 -0.606 93 96 111
0.212614 -0.39469 -0.605 160 157 176
0.217224 -0.39469 -0.605 190 188 210
0.222986 -0.39469 -0.605 189 195 211
0.346233 -0.398605 -0.611 221 224 239
0.36312 -0.399257 -0.612 131 143 185
0.364286 -0.399257 -0.612 135 147 189
0.385898 -0.39991 -0.613 241 248 255
0.42768 -0.401867 -0.616 119 139 176
0.436131 -0.403171 -0.618 98 135 190
0.437309 -0.403171 -0.618 87 127 188
0.442017 -0.403171 -0.618 130 166 224
0.4588 -0.404476 -0.62 190 188 191
0.490687 -0.406433 -0.623 200 207 215
0.491873 -0.406433 -0.623 204 211 219
0.506926 -0.407086 -0.624 24 71 141
0.483809 -0.352938 -0.541 178 140 119
0.48184 -0.347067 -0.532 186 145 123
0.485643 -0.341195 -0.523 194 150 123
0.488631 -0.341195 -0.523 193 149 122
0.489686 -0.340543 -0.522 193 149 122
0.521463 -0.344457 -0.528 169 129 104
0.0851714 -0.354623 -0.542 197 151 127
0.104711 -0.357894 -0.547 176 124 100
0.129288 -0.371634 -0.568 130 87 81
0.16684 -0.39388 -0.602 41 56 89
0.167987 -0.39388 -0.602 44 59 98
0.177749 -0.395189 -0.604 15 44 88
0.18005 -0.395189 -0.604 16 45 89
0.199938 -0.395843 -0.605 170 167 186
0.364286 -0.400423 -0.612 137 150 194
0.365451 -0.400423 -0.612 136 156 206
0.408243 -0.402386 -0.615 216 222 246
0.425333 -0.40304 -0.616 219 228 233
0.44084 -0.404349 -0.618 101 139 202
0.443194 -0.404349 -0.618 135 171 233
0.461162 -0.405657 -0.62 227 223 224
0.477283 -0.406311 -0.621 193 198 217
0.478466 -0.406311 -0.621 196 198 211
0.488313 -0.40762 -0.623 200 200 200
0.495433 -0.40762 -0.623 147 160 195
0.499794 -0.408274 -0.624 49 87 152
0.513233 -0.40762 -0.623 50 88 153
0.525442 -0.406966 -0.622 184 181 188
0.526963 -0.406311 -0.621 177 181 184
0.483175 -0.352006 -0.538 181 145 123
0.4824 -0.350697 -0.536 180 144 122
0.482519 -0.350043 -0.535 181 145 123
0.486703 -0.341537 -0.522 191 150 120
0.488691 -0.341537 -0.522 193 149 122
0.503633 -0.340883 -0.521 181 139 114
0.617984 -0.397151 -0.607 204 199 196
0.0609971 -0.378622 -0.577 191 155 133
0.0700714 -0.357624 -0.545 203 158 137
0.084139 -0.355655 -0.542 197 152 123
0.0991381 -0.357624 -0.545 194 144 119
0.115966 -0.364842 -0.556 148 96 83
0.118509 -0.366154 -0.558 145 93 80
0.121067 -0.367467 -0.56 140 88 74
0.126452 -0.370748 -0.565 134 90 81
0.129288 -0.372716 -0.568 126 85 79
0.135027 -0.376653 -0.574 124 87 79
0.136357 -0.37731 -0.575 122 85 79
0.1411 -0.381247 -0.581 117 82 80
0.164273 -0.39437 -0.601 45 53 72
0.190404 -0.396339 -0.604 159 163 188
0.196156 -0.396339 -0.604 174 172 196
0.203395 -0.396995 -0.605 168 165 182
0.215714 -0.396339 -0.604 196 197 215
0.218015 -0.396339 -0.604 197 198 216
0.223768 -0.396339 -0.604 201 203 218
0.22952 -0.396339 -0.604 148 155 171
0.3876 -0.401589 -0.612 244 244 244
0.394071 -0.402245 -0.613 190 191 183
0.402901 -0.402901 -0.614 208 209 229
0.411757 -0.403557 -0.615 203 209 223
0.4305 -0.403557 -0.615 109 141 198
0.432373 -0.404213 -0.616 101 133 190
0.442477 -0.40487 -0.617 90 121 188
0.462776 -0.406182 -0.619 227 223 224
0.467492 -0.406182 -0.619 190 202 218
0.477283 -0.407494 -0.621 181 193 209
0.480831 -0.407494 -0.621 205 199 199
0.48516 -0.40815 -0.622 156 143 134
0.488714 -0.40815 -0.622 209 209 221
0.493453 -0.40815 -0.622 173 183 195
0.506113 -0.408807 -0.623 24 66 138
0.522727 -0.408807 -0.623 120 115 112
0.497541 -0.371404 -0.566 162 131 126
0.491928 -0.364842 -0.556 164 134 124
0.481946 -0.348437 -0.531 187 146 124
0.4835 -0.3445 -0.525 193 147 124
0.484647 -0.343188 -0.523 193 152 124
0.490732 -0.341875 -0.521 195 151 122
0.496724 -0.341219 -0.52 187 146 118
0.497714 -0.341219 -0.52 188 147 119
0.501676 -0.341219 -0.52 188 144 117
0.505638 -0.341219 -0.52 182 136 110
0.509588 -0.341875 -0.521 181 134 108
0.512554 -0.342531 -0.522 177 129 106
0.0679952 -0.358662 -0.545 203 158 137
0.0788314 -0.35603 -0.541 198 152 129
0.0808924 -0.35603 -0.541 194 148 124
0.100176 -0.358662 -0.545 186 136 109
0.113438 -0.364585 -0.554 146 96 85
0.132146 -0.375772 -0.571 124 85 80
0.136594 -0.379063 -0.576 119 84 82
0.139752 -0.381695 -0.58 116 82 81
0.16684 -0.396173 -0.602 71 75 102
0.190089 -0.396831 -0.603 134 137 168
0.191237 -0.396831 -0.603 161 164 195
0.203059 -0.39749 -0.604 177 176 192
0.20421 -0.39749 -0.604 181 180 196
0.223768 -0.39749 -0.604 202 203 221
0.40458 -0.403412 -0.613 215 216 236
0.426291 -0.40407 -0.614 129 147 187
0.442477 -0.406045 -0.617 76 111 177
0.447178 -0.406045 -0.617 90 125 189
0.459674 -0.406703 -0.618 162 156 160
0.46985 -0.407361 -0.619 177 189 211
0.474152 -0.408019 -0.62 175 185 210
0.480057 -0.408019 -0.62 175 169 169
0.489899 -0.409335 -0.622 197 195 206
0.502553 -0.409993 -0.623 32 74 146
0.51004 -0.409335 -0.622 29 71 145
0.515964 -0.409335 -0.622 52 84 145
0.523414 -0.408677 -0.621 157 155 156
0.505012 -0.379721 -0.577 161 131 123
0.502603 -0.377089 -0.573 163 134 128
0.491213 -0.364585 -0.554 164 136 125
0.482634 -0.351423 -0.534 183 145 124
0.482048 -0.34879 -0.53 188 146 124
0.484714 -0.343526 -0.522 193 151 126
0.492762 -0.34221 -0.52 195 151 122
0.61404 -0.396173 -0.602 205 202 195
0.0597943 -0.38016 -0.576 194 147 131
0.0669571 -0.3597 -0.545 204 159 140
0.0717505 -0.35772 -0.542 203 158 137
0.07574 -0.35706 -0.541 203 157 134
0.0850143 -0.35706 -0.541 199 153 130
0.0901667 -0.35706 -0.541 202 155 127
0.0913657 -0.35772 -0.542 203 156 128
0.0923981 -0.35772 -0.542 203 156 128
0.105947 -0.36168 -0.548 159 106 88
0.109675 -0.36366 -0.551 157 100 89
0.12798 -0.37422 -0.567 128 87 83
0.130829 -0.3762 -0.57 120 80 78
0.159429 -0.396 -0.6 73 73 97
0.193534 -0.39798 -0.603 169 171 196
0.194683 -0.39798 -0.603 172 169 188
0.199277 -0.39798 -0.603 174 173 189
0.203871 -0.39798 -0.603 180 179 193
0.35438 -0.40194 -0.609 205 204 210
0.361933 -0.4026 -0.61 141 159 199
0.365419 -0.4026 -0.61 179 203 241
0.37239 -0.4026 -0.61 119 144 200
0.398091 -0.40392 -0.612 237 238 243
0.40458 -0.40458 -0.613 222 223 243
0.44176 -0.40656 -0.616 89 127 192
0.44528 -0.40656 -0.616 98 130 191
0.460106 -0.40722 -0.617 168 161 168
0.463206 -0.40788 -0.618 220 218 223
0.475746 -0.40854 -0.619 188 198 210
0.481238 -0.4092 -0.62 155 150 147
0.494638 -0.41052 -0.622 165 183 219
0.495823 -0.41052 -0.622 93 111 147
0.502931 -0.41052 -0.622 39 80 146
0.522571 -0.4092 -0.62 109 107 110
0.496166 -0.37092 -0.562 160 133 126
0.493697 -0.36828 -0.558 162 134 123
0.488871 -0.36234 -0.549 165 136 122
0.486491 -0.35904 -0.544 173 140 123
0.481415 -0.34716 -0.526 191 147 122
0.484714 -0.34452 -0.522 192 151 123
0.5017 -0.34254 -0.519 190 143 117
0.50468 -0.34188 -0.518 186 136 111
0.50862 -0.34254 -0.519 181 131 106
0.0627867 -0.366695 -0.554 200 155 134
0.065119 -0.362062 -0.547 202 157 136
0.0891362 -0.35809 -0.541 200 154 128
0.0944629 -0.358752 -0.542 196 149 123
0.115966 -0.368019 -0.556 145 95 84
0.12257 -0.37199 -0.562 140 92 82
0.159429 -0.397143 -0.6 72 72 100
0.162857 -0.397143 -0.6 117 120 139
0.179155 -0.397805 -0.601 62 89 144
0.19698 -0.399129 -0.603 174 173 189
0.198129 -0.399129 -0.603 173 172 188
0.215 -0.398467 -0.602 193 198 217
0.36598 -0.4031 -0.609 186 212 249
0.401589 -0.405086 -0.612 238 240 253
0.419759 -0.405748 -0.613 246 246 255
0.420927 -0.405748 -0.613 245 245 255
0.42863 -0.40641 -0.614 176 200 238
0.435186 -0.407071 -0.615 122 157 211
0.4488 -0.407733 -0.616 122 144 181
0.451147 -0.407733 -0.616 190 206 232
0.45936 -0.407733 -0.616 197 192 198
0.461281 -0.408395 -0.617 178 176 179
0.4836 -0.410381 -0.62 219 215 212
0.484781 -0.410381 -0.62 222 219 226
0.49266 -0.411043 -0.621 197 206 223
0.499757 -0.411043 -0.621 139 167 207
0.513951 -0.411043 -0.621 120 147 194
0.515134 -0.411043 -0.621 86 117 164
0.52021 -0.410381 -0.62 191 194 211
0.524933 -0.410381 -0.62 175 169 171
0.526771 -0.409057 -0.618 181 181 193
0.519106 -0.395157 -0.597 159 130 124
0.489762 -0.364048 -0.55 163 134 120
0.4842 -0.356105 -0.538 173 137 121
0.482634 -0.353457 -0.534 177 140 121
0.481327 -0.348824 -0.527 184 144 119
0.481581 -0.346838 -0.524 191 147 120
0.486763 -0.344852 -0.521 194 150 121
0.0585952 -0.38169 -0.575 198 153 134
0.0640771 -0.363104 -0.547 203 158 135
0.0795667 -0.357793 -0.539 201 157 132
0.0954952 -0.359785 -0.542 190 140 115
0.100176 -0.361776 -0.545 174 123 96
0.12 -0.371733 -0.56 143 93 82
0.131058 -0.379035 -0.571 123 83 81
0.15548 -0.396958 -0.598 74 76 101
0.173431 -0.39895 -0.601 53 81 131
0.203533 -0.399613 -0.602 179 179 191
0.216932 -0.39895 -0.601 193 199 215
0.357272 -0.403596 -0.608 192 194 215
0.394467 -0.404924 -0.61 233 233 235
0.395629 -0.404924 -0.61 213 212 217
0.399769 -0.405588 -0.611 253 252 255
0.409749 -0.406251 -0.612 249 248 253
0.419759 -0.406915 -0.613 238 244 255
0.437987 -0.407579 -0.614 110 145 201
0.442214 -0.408243 -0.615 179 210 255
0.468332 -0.40957 -0.617 222 224 237
0.519029 -0.411562 -0.62 154 159 179
0.524087 -0.410898 -0.619 153 151 156
0.525266 -0.410898 -0.619 186 186 194
0.49476 -0.370406 -0.558 162 134 123
0.490652 -0.365759 -0.551 165 136 122
0.489025 -0.363768 -0.548 170 138 127
0.48587 -0.359121 -0.541 171 137 125
0.4851 -0.357793 -0.539 172 139 124
0.481581 -0.347836 -0.524 188 147 119
0.482579 -0.347836 -0.524 188 147 119
0.51852 -0.346509 -0.522 171 127 102
0.0657981 -0.362149 -0.544 203 159 134
0.0745714 -0.359486 -0.54 201 158 126
0.0756 -0.359486 -0.54 203 157 133
0.0775133 -0.35882 -0.539 199 155 130
0.08162 -0.35882 -0.539 200 155 124
0.09756 -0.360817 -0.542 180 129 102
0.10244 -0.36348 -0.546 173 119 93
0.115966 -0.370137 -0.556 144 94 83
0.12408 -0.375463 -0.564 141 91 80
0.132609 -0.381454 -0.573 125 85 83
0.162586 -0.398763 -0.599 129 132 151
0.170857 -0.399429 -0.6 80 95 138
0.18259 -0.400094 -0.601 143 150 179
0.195182 -0.400094 -0.601 164 171 197
0.20663 -0.400094 -0.601 134 134 146
0.22609 -0.400094 -0.601 156 165 194
0.227235 -0.400094 -0.601 185 192 208
0.359589 -0.404754 -0.608 220 220 246
0.364221 -0.404754 -0.608 224 233 248
0.392143 -0.406086 -0.61 249 247 250
0.399769 -0.406751 -0.611 251 248 255
0.405588 -0.406751 -0.611 250 249 254
0.414411 -0.407417 -0.612 244 244 244
0.440326 -0.408749 -0.614 142 178 228
0.445004 -0.408749 -0.614 213 233 255
0.446173 -0.408749 -0.614 223 238 255
0.4633 -0.409414 -0.615 229 229 237
0.485178 -0.412077 -0.619 216 219 228
0.497236 -0.374131 -0.562 162 134 123
0.493157 -0.369471 -0.555 163 135 121
0.489917 -0.365477 -0.549 170 136 126
0.4815 -0.3495 -0.525 186 147 118
0.481581 -0.348834 -0.524 189 148 118
0.490781 -0.346171 -0.52 196 152 123
0.4958 -0.34484 -0.518 192 147 114
0.511587 -0.34484 -0.518 181 132 102
0.519514 -0.347503 -0.522 170 127 95
0.531514 -0.352829 -0.53 162 122 97
0.0574 -0.383213 -0.574 192 154 135
0.0615086 -0.368526 -0.552 198 156 131
0.08778 -0.359847 -0.539 200 155 126
0.11218 -0.369193 -0.553 149 101 89
0.113438 -0.369861 -0.554 145 97 85
0.128206 -0.379208 -0.568 128 87 85
0.154083 -0.398569 -0.597 50 50 74
0.158897 -0.399236 -0.598 105 104 135
0.16829 -0.399904 -0.599 72 79 105
0.18 -0.400571 -0.6 91 104 146
0.189143 -0.400571 -0.6 78 96 134
0.192571 -0.400571 -0.6 70 88 126
0.193714 -0.400571 -0.6 130 144 171
0.196 -0.400571 -0.6 173 170 187
0.38802 -0.40658 -0.609 231 232 250
0.395629 -0.407248 -0.61 253 252 255
0.419074 -0.408583 -0.612 196 203 219
0.422571 -0.408583 -0.612 161 168 196
0.436106 -0.40925 -0.613 170 201 248
0.441944 -0.40925 -0.613 200 228 255
0.520886 -0.412589 -0.618 163 168 188
0.52324 -0.412589 -0.618 182 189 205
0.49081 -0.36719 -0.55 169 135 125
0.482048 -0.353838 -0.53 182 144 121
0.489837 -0.346494 -0.519 196 150 124
0.49876 -0.345827 -0.518 190 145 114
0.501736 -0.345159 -0.517 189 142 112
0.503706 -0.345159 -0.517 188 141 113
0.50469 -0.345159 -0.517 188 141 113
0.505675 -0.345159 -0.517 185 138 110
0.506663 -0.344491 -0.516 181 136 103
0.0587562 -0.37895 -0.566 198 151 131
0.0704571 -0.361543 -0.54 202 158 133
0.0843857 -0.359534 -0.537 199 153 127
0.10244 -0.36556 -0.546 173 116 96
0.121283 -0.375603 -0.561 144 94 83
0.154083 -0.399706 -0.597 48 48 74
0.158897 -0.400375 -0.598 124 121 148
0.170572 -0.401045 -0.599 88 100 138
0.1797 -0.401045 -0.599 85 106 149
0.180841 -0.401045 -0.599 107 128 171
0.181982 -0.401045 -0.599 141 157 182
0.209365 -0.401045 -0.599 190 198 219
0.213929 -0.401045 -0.599 186 190 215
0.21507 -0.401045 -0.599 194 198 223
0.352634 -0.405731 -0.606 162 173 195
0.36709 -0.406401 -0.607 176 197 228
0.390857 -0.40707 -0.608 214 208 218
0.39266 -0.40774 -0.609 203 202 208
0.413734 -0.409079 -0.611 247 250 255
0.417226 -0.409079 -0.611 185 187 202
0.419553 -0.409079 -0.611 159 166 182
0.420717 -0.409079 -0.611 168 174 198
0.447782 -0.410418 -0.613 227 235 246
0.459038 -0.411088 -0.614 221 224 233
0.461377 -0.411088 -0.614 226 230 241
0.475787 -0.412427 -0.616 223 225 238
0.49028 -0.413766 -0.618 103 123 160
0.491457 -0.413766 -0.618 117 134 164
0.505222 -0.414435 -0.619 99 138 195
0.511117 -0.414435 -0.619 151 171 204
0.493324 -0.370916 -0.554 159 134 129
0.491814 -0.347483 -0.519 196 151 122
0.510594 -0.345474 -0.516 178 134 107
0.512569 -0.346144 -0.517 175 131 104
0.52951 -0.352839 -0.527 159 123 101
0.05778 -0.3807 -0.567 200 155 134
0.0593057 -0.376671 -0.561 195 154 132
0.0664657 -0.363243 -0.541 200 155 132
0.0694286 -0.362571 -0.54 203 157 134
0.09756 -0.363914 -0.542 183 127 102
0.121283 -0.376671 -0.561 144 94 83
0.156357 -0.400843 -0.597 111 116 138
0.159769 -0.400843 -0.597 134 135 156
0.173705 -0.401514 -0.598 105 119 158
0.178261 -0.401514 -0.598 69 87 133
0.186234 -0.401514 -0.598 167 172 194
0.197955 -0.402186 -0.599 174 173 191
0.205598 -0.401514 -0.598 109 113 125
0.364177 -0.406886 -0.606 180 195 228
0.42119 -0.409571 -0.61 229 237 255
0.431191 -0.410243 -0.611 158 174 208
0.434229 -0.410914 -0.612 177 200 241
0.45362 -0.411586 -0.613 136 144 167
0.457123 -0.411586 -0.613 194 197 214
0.466055 -0.412257 -0.614 224 228 240
0.48361 -0.414271 -0.617 166 173 189
0.484442 -0.359886 -0.536 176 141 122
0.4815 -0.3525 -0.525 190 146 121
0.485829 -0.349143 -0.52 189 145 120
0.494843 -0.347129 -0.517 193 148 119
0.495851 -0.346457 -0.516 190 145 116
0.51652 -0.3478 -0.518 166 126 101
0.518506 -0.348471 -0.519 167 127 102
0.0561105 -0.385147 -0.572 198 156 132
0.0589886 -0.37572 -0.558 195 154 134
0.0772257 -0.36158 -0.537 200 155 132
0.0813171 -0.36158 -0.537 200 155 132
0.08234 -0.36158 -0.537 200 154 131
0.0864314 -0.36158 -0.537 199 151 128
0.0941143 -0.3636 -0.54 184 133 106
0.108429 -0.370333 -0.55 159 105 93
0.131747 -0.386493 -0.574 116 84 87
0.156357 -0.40198 -0.597 121 123 148
0.157494 -0.40198 -0.597 129 131 154
0.160906 -0.40198 -0.597 139 137 159
0.166591 -0.40198 -0.597 70 84 113
0.174844 -0.402653 -0.598 98 112 157
0.181678 -0.402653 -0.598 148 158 183
0.199903 -0.402653 -0.598 162 162 186
0.201042 -0.402653 -0.598 138 138 162
0.218128 -0.402653 -0.598 161 170 199
0.352052 -0.407367 -0.605 165 171 193
0.389058 -0.408713 -0.607 204 208 220
0.392527 -0.408713 -0.607 244 244 246
0.394331 -0.409387 -0.608 255 249 255
0.397806 -0.409387 -0.608 250 251 255
0.398964 -0.409387 -0.608 235 238 253
0.40194 -0.41006 -0.609 215 219 230
0.40658 -0.41006 -0.609 253 252 255
0.418867 -0.410733 -0.61 193 200 219
0.438174 -0.411407 -0.611 148 177 209
0.451714 -0.41208 -0.612 156 166 191
0.489487 -0.415447 -0.617 170 189 221
0.494989 -0.41612 -0.618 208 216 235
0.502051 -0.41612 -0.618 115 149 195
0.52272 -0.414773 -0.616 184 192 205
0.518141 -0.398613 -0.592 161 134 127
0.50008 -0.37976 -0.564 160 132 121
0.496834 -0.34744 -0.516 191 146 117
0.616794 -0.402653 -0.598 200 197 190
0.0672467 -0.363953 -0.539 201 156 133
0.0832076 -0.361928 -0.536 200 154 130
0.107186 -0.370706 -0.549 158 104 92
0.1243 -0.38151 -0.565 134 89 83
0.15269 -0.402442 -0.596 114 116 139
0.15723 -0.402442 -0.596 128 130 155
0.160636 -0.402442 -0.596 143 140 161
0.189334 -0.403117 -0.597 172 170 191
0.193883 -0.403117 -0.597 79 88 127
0.215489 -0.403117 -0.597 120 133 165
0.34917 -0.407844 -0.604 181 186 215
0.356662 -0.408519 -0.605 242 242 252
0.394839 -0.40987 -0.607 248 246 255
0.398964 -0.410545 -0.608 225 227 248
0.40426 -0.41122 -0.609 242 242 254
0.440502 -0.41257 -0.611 175 193 229
0.47775 -0.414596 -0.614 218 220 235
0.48752 -0.415947 -0.616 203 215 241
0.491837 -0.416622 -0.617 211 216 235
0.516853 -0.415947 -0.616 164 162 173
0.519529 -0.415271 -0.615 81 94 113
0.5207 -0.415271 -0.615 81 94 113
0.492751 -0.372056 -0.551 160 132 120
0.483761 -0.359902 -0.533 177 139 120
0.481658 -0.35315 -0.523 192 146 123
0.482654 -0.35315 -0.523 190 144 121
0.485829 -0.351124 -0.52 188 144 119
0.490867 -0.349773 -0.518 193 149 122
0.491853 -0.349773 -0.518 194 150 123
0.49489 -0.347748 -0.515 191 147 118
0.510573 -0.347072 -0.514 175 131 104
0.05846 -0.37446 -0.553 198 155 136
0.0721114 -0.363626 -0.537 202 158 131
0.0963495 -0.366334 -0.541 187 133 109
0.149914 -0.402223 -0.594 78 82 107
0.162633 -0.4029 -0.595 111 111 135
0.175394 -0.403577 -0.596 102 116 153
0.190471 -0.404254 -0.597 170 172 193
0.342849 -0.408317 -0.603 213 220 246
0.358373 -0.408994 -0.604 205 209 220
0.405912 -0.411703 -0.608 228 230 243
0.409387 -0.411703 -0.608 216 221 240
0.42282 -0.41238 -0.609 250 249 255
0.437457 -0.413057 -0.61 168 192 220
0.439781 -0.413057 -0.61 172 190 226
0.442105 -0.413057 -0.61 221 232 255
0.44559 -0.413057 -0.61 237 243 255
0.447914 -0.413057 -0.61 242 244 255
0.468799 -0.415089 -0.613 168 175 194
0.471134 -0.415089 -0.613 218 221 236
0.518357 -0.416443 -0.615 177 180 197
0.521023 -0.415766 -0.614 119 129 156
0.514243 -0.396129 -0.585 160 131 123
0.487029 -0.365657 -0.54 168 136 123
0.490867 -0.35076 -0.518 194 150 123
0.491853 -0.35076 -0.518 194 150 123
0.493886 -0.349406 -0.516 192 148 119
0.495888 -0.348051 -0.514 189 145 116
0.499809 -0.347374 -0.513 191 146 117
0.0769381 -0.36329 -0.535 204 158 132
0.0789762 -0.36329 -0.535 201 154 128
0.0830524 -0.36329 -0.535 199 152 124
0.0941143 -0.366686 -0.54 188 136 112
0.108429 -0.373476 -0.55 159 105 93
0.117446 -0.378909 -0.558 144 94 87
0.18107 -0.404712 -0.596 148 155 184
0.194693 -0.404712 -0.596 70 89 132
0.199234 -0.404712 -0.596 134 144 180
0.352037 -0.409466 -0.603 246 251 255
0.40062 -0.412182 -0.607 192 200 221
0.416335 -0.412861 -0.608 238 245 255
0.41981 -0.412861 -0.608 211 218 226
0.453724 -0.414219 -0.61 204 212 233
0.454886 -0.414219 -0.61 172 180 201
0.468034 -0.415577 -0.612 177 189 211
0.471134 -0.416256 -0.613 214 220 236
0.492213 -0.418293 -0.616 216 218 231
0.508526 -0.391131 -0.576 155 130 123
0.49036 -0.37076 -0.546 164 136 124
0.4887 -0.368723 -0.543 166 137 123
0.484894 -0.352426 -0.519 191 147 122
0.48786 -0.352426 -0.519 186 142 117
0.48988 -0.351747 -0.518 193 149 122
0.490867 -0.351747 -0.518 193 149 122
0.498834 -0.347672 -0.512 190 145 116
0.504686 -0.347672 -0.512 188 143 112
0.507626 -0.348351 -0.513 183 138 107
0.510557 -0.348351 -0.513 177 133 104
0.51351 -0.34903 -0.514 168 126 101
0.0579314 -0.373162 -0.548 204 153 132
0.0830524 -0.36431 -0.535 197 150 122
0.0895 -0.365671 -0.537 191 141 114
0.113438 -0.377248 -0.554 151 96 91
0.114907 -0.37861 -0.556 147 94 88
0.116174 -0.37929 -0.557 146 93 87
0.129109 -0.389505 -0.572 113 85 84
0.166033 -0.405167 -0.595 72 90 130
0.169433 -0.405167 -0.595 113 128 169
0.179633 -0.405167 -0.595 107 120 164
0.1955 -0.405167 -0.595 74 94 129
0.204567 -0.405167 -0.595 93 116 168
0.344573 -0.409933 -0.602 140 160 193
0.346867 -0.409933 -0.602 186 208 247
0.356631 -0.410614 -0.603 247 248 253
0.35778 -0.410614 -0.603 252 255 255
0.390081 -0.411976 -0.605 142 158 191
0.420275 -0.413338 -0.607 239 238 246
0.43442 -0.4147 -0.609 196 215 245
0.44718 -0.4147 -0.609 240 239 247
0.475805 -0.417424 -0.613 170 183 215
0.503947 -0.419467 -0.616 179 201 238
0.5125 -0.418786 -0.615 168 175 185
0.513671 -0.418786 -0.615 192 199 209
0.516345 -0.418105 -0.614 195 201 215
0.484838 -0.354095 -0.52 191 146 123
0.496877 -0.349329 -0.513 191 145 119
0.503711 -0.348648 -0.512 190 145 116
0.0558 -0.381034 -0.558 201 154 134
0.0808629 -0.364646 -0.534 199 152 126
0.0871286 -0.365329 -0.535 191 141 116
0.09394 -0.36806 -0.539 188 134 110
0.09756 -0.370109 -0.542 180 123 103
0.109675 -0.376254 -0.551 155 106 89
0.114907 -0.379669 -0.556 148 96 85
0.126264 -0.388546 -0.569 115 87 84
0.147154 -0.404251 -0.592 44 56 82
0.164623 -0.405617 -0.594 70 87 133
0.165754 -0.405617 -0.594 70 87 133
0.184989 -0.405617 -0.594 172 176 185
0.18612 -0.405617 -0.594 175 179 188
0.187251 -0.405617 -0.594 175 185 194
0.354893 -0.41108 -0.602 251 252 255
0.390587 -0.412446 -0.604 132 155 189
0.401114 -0.413811 -0.606 190 208 244
0.40804 -0.413811 -0.606 145 162 206
0.427212 -0.414494 -0.607 159 181 218
0.471531 -0.417909 -0.612 198 214 247
0.473863 -0.417909 -0.612 159 181 222
0.47814 -0.418591 -0.613 104 131 178
0.485937 -0.419274 -0.614 215 214 219
0.494929 -0.419957 -0.615 177 180 195
0.497271 -0.419957 -0.615 119 142 183
0.501957 -0.419957 -0.615 175 193 233
0.482579 -0.357817 -0.524 187 145 123
0.484778 -0.355769 -0.521 192 147 124
0.488934 -0.353037 -0.517 192 146 122
0.489954 -0.352354 -0.516 194 148 124
0.490937 -0.352354 -0.516 193 147 123
0.499807 -0.34894 -0.511 191 146 117
0.505647 -0.34894 -0.511 187 142 111
0.50662 -0.34894 -0.511 186 141 110
0.054639 -0.381412 -0.557 199 157 132
0.0567838 -0.374565 -0.547 200 159 139
0.0601714 -0.369771 -0.54 205 161 136
0.0639286 -0.367717 -0.537 199 155 130
0.0756352 -0.364978 -0.533 198 152 128
0.0776657 -0.364978 -0.533 199 153 127
0.0828971 -0.365663 -0.534 197 151 125
0.0951429 -0.369771 -0.54 184 130 106
0.0998086 -0.371826 -0.543 176 117 99
0.10348 -0.37388 -0.546 173 114 98
0.118933 -0.383467 -0.56 142 91 87
0.15305 -0.406064 -0.593 134 133 149
0.166605 -0.406064 -0.593 88 102 147
0.172543 -0.406749 -0.594 87 106 148
0.183857 -0.406749 -0.594 169 176 194
0.20196 -0.406749 -0.594 65 99 163
0.368653 -0.412227 -0.602 175 197 238
0.380751 -0.412911 -0.603 213 210 219
0.411503 -0.414966 -0.606 189 209 244
0.43415 -0.41565 -0.607 187 211 239
0.514336 -0.419759 -0.613 200 204 216
0.520491 -0.419074 -0.612 140 142 163
0.50382 -0.38826 -0.567 160 132 121
0.501338 -0.385521 -0.563 161 133 122
0.485576 -0.366348 -0.535 172 136 122
0.482654 -0.35813 -0.523 187 142 123
0.483786 -0.356761 -0.521 188 143 122
0.484894 -0.355391 -0.519 191 144 124
0.489954 -0.353337 -0.516 194 148 124
0.494923 -0.351283 -0.513 192 146 122
0.49786 -0.349913 -0.511 186 140 116
0.504657 -0.349229 -0.51 186 142 117
0.0521952 -0.387967 -0.565 197 156 136
0.06006 -0.370113 -0.539 207 163 138
0.0737429 -0.36668 -0.534 203 155 132
0.07462 -0.365993 -0.533 200 152 129
0.0859486 -0.36668 -0.534 191 141 116
0.112383 -0.380413 -0.554 152 100 89
0.156439 -0.407193 -0.593 149 142 160
0.163216 -0.407193 -0.593 71 88 132
0.174511 -0.407193 -0.593 79 97 145
0.184677 -0.407193 -0.593 179 182 201
0.197102 -0.407193 -0.593 60 85 139
0.34 -0.412 -0.6 131 159 209
0.353159 -0.412687 -0.601 252 253 255
0.378973 -0.413373 -0.602 199 202 207
0.388791 -0.41406 -0.603 157 175 211
0.39864 -0.414747 -0.604 141 169 219
0.39979 -0.414747 -0.604 141 169 219
0.417738 -0.415433 -0.605 248 248 250
0.421195 -0.415433 -0.605 196 200 211
0.422348 -0.415433 -0.605 193 197 208
0.441087 -0.416807 -0.607 198 214 240
0.464181 -0.418867 -0.61 161 191 245
0.466505 -0.418867 -0.61 96 132 190
0.514663 -0.42024 -0.612 200 202 214
0.505597 -0.390713 -0.569 161 131 123
0.482654 -0.359127 -0.523 187 142 123
0.488934 -0.355007 -0.517 193 147 123
0.489954 -0.35432 -0.516 193 147 123
0.49393 -0.352947 -0.514 191 145 121
0.49786 -0.350887 -0.511 187 141 117
0.513433 -0.350887 -0.511 170 130 105
0.515413 -0.351573 -0.512 167 127 102
0.542631 -0.36462 -0.531 151 119 98
0.0564724 -0.374583 -0.544 202 157 134
0.0599486 -0.370451 -0.538 206 162 137
0.0917162 -0.370451 -0.538 185 135 108
0.0951429 -0.371829 -0.54 181 129 107
0.09756 -0.373206 -0.542 177 120 101
0.104711 -0.376649 -0.547 167 111 98
0.112383 -0.381469 -0.554 147 97 88
0.122148 -0.389043 -0.565 132 88 85
0.144654 -0.406946 -0.591 75 81 115
0.152792 -0.407634 -0.592 136 133 150
0.169707 -0.407634 -0.592 51 76 132
0.346857 -0.413143 -0.6 250 249 255
0.360028 -0.413831 -0.601 175 189 218
0.38356 -0.41452 -0.602 245 245 253
0.385853 -0.41452 -0.602 237 246 255
0.387 -0.41452 -0.602 214 223 238
0.406214 -0.416586 -0.605 140 170 222
0.424652 -0.416586 -0.605 173 187 216
0.444977 -0.417274 -0.606 247 245 250
0.448024 -0.417963 -0.607 244 244 255
0.458027 -0.418651 -0.608 124 146 185
0.46342 -0.41934 -0.609 116 151 207
0.46458 -0.41934 -0.609 113 153 212
0.473476 -0.420029 -0.61 89 125 187
0.480071 -0.420717 -0.611 221 225 237
0.514706 -0.401437 -0.583 162 129 122
0.485686 -0.367697 -0.534 176 138 125
0.484067 -0.364943 -0.53 177 138 123
0.482654 -0.360123 -0.523 185 142 123
0.483786 -0.358746 -0.521 187 144 125
0.488934 -0.355991 -0.517 193 149 124
0.489919 -0.355991 -0.517 193 149 124
0.491948 -0.354614 -0.515 194 148 122
0.493946 -0.353237 -0.513 191 145 121
0.493958 -0.352549 -0.512 193 147 121
0.494933 -0.352549 -0.512 193 147 121
0.0530971 -0.381143 -0.552 201 156 135
0.0706914 -0.368714 -0.534 205 158 132
0.0725895 -0.368024 -0.533 204 157 131
0.07752 -0.367333 -0.532 202 156 132
0.12518 -0.392881 -0.569 117 86 83
0.158163 -0.408071 -0.591 136 145 174
0.162941 -0.408762 -0.592 71 89 135
0.188876 -0.408762 -0.592 182 183 204
0.190004 -0.408762 -0.592 180 181 202
0.194514 -0.408762 -0.592 158 165 181
0.244954 -0.410143 -0.594 213 223 248
0.361714 -0.414286 -0.6 171 193 232
0.364 -0.414286 -0.6 150 174 212
0.381778 -0.414976 -0.601 246 246 248
0.410145 -0.417048 -0.604 227 242 255
0.414747 -0.417048 -0.604 251 250 255
0.42165 -0.417048 -0.604 211 220 229
0.432719 -0.417738 -0.605 138 172 218
0.44036 -0.418429 -0.606 167 190 222
0.447286 -0.418429 -0.606 244 243 255
0.453805 -0.419119 -0.607 226 235 252
0.46342 -0.4205 -0.609 86 124 186
0.471152 -0.42119 -0.61 64 103 172
0.476962 -0.42119 -0.61 191 211 235
0.478124 -0.42119 -0.61 206 226 250
0.498343 -0.422571 -0.612 134 162 209
0.506503 -0.422571 -0.612 104 135 179
0.508834 -0.422571 -0.612 130 150 183
0.517313 -0.421881 -0.611 195 197 209
0.4932 -0.378381 -0.548 165 131 119
0.486595 -0.369405 -0.535 175 139 125
0.49494 -0.352833 -0.511 193 148 119
0.495913 -0.352833 -0.511 193 148 119
0.49882 -0.351452 -0.509 190 145 116
0.49979 -0.351452 -0.509 194 149 120
0.535478 -0.36181 -0.524 154 119 99
0.05214 -0.382887 -0.553 205 159 136
0.0695438 -0.369039 -0.533 208 161 135
0.070559 -0.369039 -0.533 205 158 132
0.0827419 -0.369039 -0.533 196 149 123
0.0963495 -0.374578 -0.541 175 123 101
0.10348 -0.37804 -0.546 166 108 96
0.119358 -0.389118 -0.562 130 90 82
0.148031 -0.409197 -0.591 97 105 141
0.15366 -0.409197 -0.591 140 138 160
0.154786 -0.409197 -0.591 145 143 165
0.167169 -0.409197 -0.591 62 89 142
0.189683 -0.409197 -0.591 161 167 191
0.343997 -0.414736 -0.599 234 248 255
0.356548 -0.414736 -0.599 236 236 248
0.367429 -0.415429 -0.6 157 185 232
0.368571 -0.415429 -0.6 157 185 232
0.384068 -0.416121 -0.601 248 247 252
0.388647 -0.416121 -0.601 214 230 245
0.392733 -0.416813 -0.602 120 149 205
0.398467 -0.416813 -0.602 109 140 204
0.412911 -0.417506 -0.603 247 244 251
0.4221 -0.417506 -0.603 175 188 220
0.428552 -0.418198 -0.604 146 178 225
0.445395 -0.41889 -0.605 242 241 255
0.457273 -0.420275 -0.607 185 199 225
0.464975 -0.420968 -0.608 84 127 196
0.47038 -0.42166 -0.609 60 104 179
0.489382 -0.423045 -0.611 213 212 226
0.490546 -0.423045 -0.611 205 208 227
0.514143 -0.422352 -0.61 202 204 219
0.525196 -0.420968 -0.608 38 73 127
0.489865 -0.37527 -0.542 169 135 123
0.485791 -0.369039 -0.533 175 139 125
0.4835 -0.3635 -0.525 183 146 130
0.506549 -0.35173 -0.508 184 140 113
0.0664981 -0.370054 -0.533 204 158 132
0.0704267 -0.36936 -0.532 205 158 132
0.0734667 -0.36936 -0.532 203 156 130
0.0869657 -0.370749 -0.534 193 143 118
0.0917162 -0.373526 -0.538 182 130 106
0.09738 -0.375609 -0.541 175 118 101
0.102252 -0.378386 -0.545 165 107 95
0.141921 -0.408934 -0.589 50 62 100
0.163514 -0.409629 -0.59 64 91 144
0.343423 -0.415183 -0.598 227 241 254
0.365675 -0.415877 -0.599 142 174 223
0.393226 -0.417266 -0.601 112 143 200
0.405347 -0.41796 -0.602 179 206 251
0.41108 -0.41796 -0.602 233 237 249
0.423249 -0.418654 -0.603 157 172 205
0.436606 -0.419349 -0.604 157 186 230
0.454211 -0.420737 -0.606 225 232 242
0.462659 -0.422126 -0.608 71 110 175
0.47386 -0.42282 -0.609 156 180 224
0.488581 -0.423514 -0.61 219 221 236
0.50184 -0.424903 -0.612 72 114 172
0.506839 -0.424209 -0.611 109 141 182
0.51562 -0.42282 -0.609 200 202 215
0.483786 -0.361723 -0.521 185 142 123
0.484778 -0.361723 -0.521 187 145 123
0.484838 -0.361029 -0.52 188 146 124
0.48692 -0.35964 -0.518 191 146 123
0.48795 -0.358946 -0.517 192 148 123
0.489954 -0.358251 -0.516 194 150 123
0.491971 -0.356863 -0.514 193 148 119
0.496886 -0.354086 -0.51 192 147 118
0.498808 -0.352697 -0.508 193 148 119
0.506517 -0.352003 -0.507 183 139 112
0.506482 -0.351309 -0.506 182 141 113
0.512354 -0.352697 -0.508 170 130 104
0.0544 -0.378728 -0.544 202 156 132
0.0552324 -0.377335 -0.542 202 156 132
0.0684 -0.370373 -0.532 208 162 136
0.0772286 -0.368981 -0.53 198 152 126
0.0804086 -0.369677 -0.531 196 149 123
0.0869657 -0.371766 -0.534 191 141 116
0.112586 -0.386386 -0.555 146 95 91
0.144165 -0.410056 -0.589 43 57 96
0.145287 -0.410056 -0.589 51 65 104
0.156771 -0.410752 -0.59 102 109 138
0.169133 -0.410752 -0.59 42 73 138
0.187114 -0.410752 -0.59 81 96 129
0.218951 -0.411449 -0.591 217 219 242
0.35823 -0.416322 -0.598 156 175 208
0.373662 -0.417018 -0.599 184 213 253
0.384571 -0.417714 -0.6 213 222 253
0.388 -0.417714 -0.6 204 221 247
0.392081 -0.41841 -0.601 131 163 220
0.395515 -0.41841 -0.601 97 130 201
0.411542 -0.41841 -0.601 226 231 251
0.413831 -0.41841 -0.601 242 244 255
0.417266 -0.41841 -0.601 232 234 249
0.423693 -0.419107 -0.602 160 193 234
0.438907 -0.420499 -0.604 141 172 216
0.457674 -0.421891 -0.606 184 216 255
0.470766 -0.423284 -0.608 100 137 205
0.48003 -0.423284 -0.608 216 221 241
0.4843 -0.42398 -0.609 216 222 244
0.492067 -0.424676 -0.61 106 140 186
0.502184 -0.425372 -0.611 74 124 185
0.52258 -0.42398 -0.609 156 172 198
0.496647 -0.384993 -0.553 164 134 126
0.489986 -0.358538 -0.515 191 147 120
0.493967 -0.355753 -0.511 194 149 120
0.494943 -0.355057 -0.51 195 150 121
0.499757 -0.352969 -0.507 193 146 116
0.501689 -0.352969 -0.507 192 145 117
0.502627 -0.352272 -0.506 189 143 117
0.0542 -0.378368 -0.542 203 157 133
0.06052 -0.372783 -0.534 199 153 130
0.0634524 -0.372085 -0.533 203 157 133
0.0644676 -0.372085 -0.533 203 157 133
0.0723171 -0.370689 -0.531 204 157 131
0.0869657 -0.372783 -0.534 188 138 115
0.0951429 -0.376971 -0.54 177 120 103
0.101029 -0.379764 -0.544 163 110 96
0.119995 -0.394424 -0.565 125 92 83
0.144165 -0.411178 -0.589 30 46 82
0.15314 -0.411178 -0.589 130 128 152
0.155384 -0.411178 -0.589 67 76 105
0.157628 -0.411178 -0.589 77 86 115
0.165481 -0.411178 -0.589 33 64 121
0.168847 -0.411178 -0.589 29 63 127
0.180066 -0.411178 -0.589 82 102 137
0.393714 -0.418857 -0.6 91 128 199
0.434734 -0.420951 -0.603 130 171 223
0.453462 -0.422348 -0.605 183 199 233
0.469991 -0.423744 -0.607 83 120 188
0.49126 -0.42514 -0.609 98 135 187
0.51446 -0.42514 -0.609 202 208 222
0.523176 -0.423744 -0.607 67 97 159
0.514267 -0.404895 -0.58 157 132 127
0.487614 -0.373481 -0.535 174 136 123
0.483786 -0.363708 -0.521 184 143 123
0.486965 -0.360915 -0.517 189 147 123
0.492993 -0.356727 -0.511 192 147 116
0.496881 -0.35533 -0.509 193 148 117
0.505518 -0.353236 -0.506 187 142 113
0.509329 -0.352538 -0.505 178 135 103
0.0682714 -0.3717 -0.531 207 160 134
0.0772286 -0.371 -0.53 200 153 125
0.0963495 -0.3787 -0.541 177 120 101
0.108626 -0.3857 -0.551 151 101 92
0.1428 -0.4116 -0.588 40 54 91
0.15875 -0.4123 -0.589 77 90 132
0.175578 -0.4123 -0.589 50 86 144
0.18536 -0.4116 -0.588 111 125 151
0.198016 -0.4123 -0.589 61 98 153
0.217457 -0.413 -0.59 159 175 201
0.219705 -0.413 -0.59 214 216 237
0.359906 -0.4179 -0.597 118 152 198
0.377594 -0.4186 -0.598 208 219 237
0.385071 -0.4193 -0.599 139 158 200
0.386212 -0.4193 -0.599 133 160 207
0.424134 -0.4207 -0.601 119 160 206
0.427569 -0.4207 -0.601 107 149 209
0.435883 -0.4221 -0.603 119 160 216
0.450411 -0.4228 -0.604 136 145 178
0.461137 -0.4242 -0.606 71 107 169
0.465754 -0.4242 -0.606 56 109 177
0.472304 -0.4249 -0.607 97 127 189
0.488137 -0.4256 -0.608 165 180 209
0.491611 -0.4256 -0.608 110 151 205
0.49474 -0.4263 -0.609 92 133 189
0.4959 -0.4263 -0.609 74 123 189
0.50518 -0.4263 -0.609 95 137 197
0.50634 -0.4263 -0.609 82 124 184
0.51709 -0.4256 -0.608 80 101 132
0.51604 -0.4074 -0.582 157 128 120
0.506872 -0.3976 -0.568 158 129 121
0.504377 -0.3948 -0.564 163 134 126
0.501867 -0.392 -0.56 166 136 128
0.49348 -0.3822 -0.546 163 131 118
0.492983 -0.3584 -0.512 191 148 116
0.496881 -0.3563 -0.509 195 152 120
0.499735 -0.3542 -0.506 190 145 114
0.506443 -0.3535 -0.505 185 142 110
0.0604067 -0.374115 -0.533 206 160 134
0.0963495 -0.37973 -0.541 176 121 101
0.112789 -0.390259 -0.556 146 97 90
0.114257 -0.391663 -0.558 145 96 89
0.1764 -0.41272 -0.588 101 130 174
0.18536 -0.41272 -0.588 168 179 201
0.18984 -0.41272 -0.588 157 175 211
0.214845 -0.413422 -0.589 151 166 197
0.351356 -0.418335 -0.596 231 244 253
0.375316 -0.419739 -0.598 170 183 215
0.379872 -0.419739 -0.598 194 199 218
0.386707 -0.419739 -0.598 127 156 196
0.39534 -0.420441 -0.599 92 132 201
