ply
format ascii 1.0
comment Created by Open3D
element vertex 1300
property double x
property double y
property double z
property uchar red
property uchar green
property uchar blue
end_header
0.176738 -0.290938 -0.571 142 91 90
0.183309 -0.294505 -0.578 147 97 98
0.184729 -0.295014 -0.579 146 96 97
0.194186 -0.301129 -0.591 107 58 62
0.212634 -0.298581 -0.586 182 121 116
0.239168 -0.312848 -0.614 106 82 95
0.242294 -0.315395 -0.619 105 95 119
0.247814 -0.319471 -0.627 154 155 185
0.3366 -0.259857 -0.51 188 156 157
0.33691 -0.259348 -0.509 185 145 143
0.35905 -0.255781 -0.502 188 148 149
0.364555 -0.25629 -0.503 210 189 198
0.365513 -0.25629 -0.503 196 175 184
0.373751 -0.259348 -0.509 182 165 183
0.106704 -0.316574 -0.619 192 144 140
0.110646 -0.295606 -0.578 190 143 133
0.11569 -0.288957 -0.565 191 138 130
0.121283 -0.286911 -0.561 185 130 123
0.130433 -0.285889 -0.559 184 125 117
0.137887 -0.285889 -0.559 187 127 119
0.142146 -0.285889 -0.559 180 119 114
0.14747 -0.285889 -0.559 174 114 106
0.153067 -0.2864 -0.56 167 105 94
0.154133 -0.2864 -0.56 166 104 93
0.17118 -0.28998 -0.567 149 96 92
0.198099 -0.304811 -0.596 120 74 77
0.229525 -0.307369 -0.601 124 83 89
0.331092 -0.260317 -0.509 224 197 202
0.34814 -0.259294 -0.507 186 137 130
0.350345 -0.258783 -0.506 188 139 134
0.35472 -0.25776 -0.504 185 131 131
0.361197 -0.256226 -0.501 206 170 170
0.36743 -0.257249 -0.503 186 166 178
0.105866 -0.31878 -0.621 194 145 140
0.114141 -0.291573 -0.568 192 137 132
0.13764 -0.28644 -0.558 190 131 123
0.138703 -0.28644 -0.558 188 129 121
0.153858 -0.286953 -0.559 164 105 99
0.165683 -0.289007 -0.563 148 95 89
0.167051 -0.28952 -0.564 149 96 90
0.172564 -0.291573 -0.568 146 95 92
0.175343 -0.2926 -0.57 146 92 90
0.191427 -0.300813 -0.586 124 67 73
0.193529 -0.302353 -0.589 110 61 65
0.195642 -0.303893 -0.592 115 66 70
0.206289 -0.301327 -0.587 193 134 130
0.221577 -0.303893 -0.592 140 84 83
0.228 -0.308 -0.6 121 82 87
0.32784 -0.25872 -0.504 208 178 180
0.328451 -0.257693 -0.502 186 152 151
0.334477 -0.25718 -0.501 187 138 134
0.338687 -0.258207 -0.503 184 137 127
0.343881 -0.259233 -0.505 184 137 129
0.35376 -0.25872 -0.504 184 133 129
0.35689 -0.258207 -0.503 181 133 133
0.358093 -0.257693 -0.502 179 134 129
0.358334 -0.25718 -0.501 180 135 130
0.361197 -0.25718 -0.501 198 157 153
0.37104 -0.25872 -0.504 165 147 161
0.10728 -0.307082 -0.596 190 139 135
0.117217 -0.289564 -0.562 189 134 129
0.121067 -0.288533 -0.56 184 127 120
0.1232 -0.288533 -0.56 189 132 125
0.127239 -0.288018 -0.559 187 130 123
0.132326 -0.287503 -0.558 182 123 117
0.134451 -0.287503 -0.558 182 123 117
0.138703 -0.287503 -0.558 189 130 122
0.151729 -0.288018 -0.559 169 109 101
0.152793 -0.288018 -0.559 167 106 101
0.156267 -0.288533 -0.56 160 101 95
0.1584 -0.288533 -0.56 151 96 89
0.165683 -0.290079 -0.563 149 94 87
0.168424 -0.29111 -0.565 148 95 89
0.182674 -0.296777 -0.576 137 86 82
0.18758 -0.299353 -0.581 136 85 84
0.194981 -0.30399 -0.59 118 68 67
0.20216 -0.30296 -0.588 193 133 132
0.21821 -0.303475 -0.589 147 94 88
0.220077 -0.304506 -0.591 130 84 87
0.23067 -0.311204 -0.604 119 82 89
0.236057 -0.315326 -0.612 146 116 124
0.241505 -0.319448 -0.62 178 166 178
0.244251 -0.321509 -0.624 175 165 176
0.328168 -0.263802 -0.512 190 162 174
0.325273 -0.259165 -0.503 209 179 187
0.324886 -0.256589 -0.498 194 150 147
0.336667 -0.257619 -0.5 185 135 128
0.351576 -0.260195 -0.505 186 137 130
0.358093 -0.25865 -0.502 180 129 125
0.361197 -0.258134 -0.501 188 148 146
0.109545 -0.298909 -0.578 189 134 129
0.112371 -0.294771 -0.57 191 134 127
0.114614 -0.292186 -0.565 187 132 127
0.115486 -0.291669 -0.564 187 132 127
0.116353 -0.291151 -0.563 186 131 126
0.117217 -0.290634 -0.562 188 130 126
0.12298 -0.289083 -0.559 193 134 128
0.128304 -0.289083 -0.559 187 128 122
0.132563 -0.289083 -0.559 183 126 119
0.134692 -0.289083 -0.559 181 124 117
0.136577 -0.288566 -0.558 186 127 119
0.142954 -0.288566 -0.558 172 112 104
0.153858 -0.289083 -0.559 164 103 98
0.16461 -0.291151 -0.563 153 96 89
0.181262 -0.297357 -0.575 142 89 85
0.195108 -0.303563 -0.587 139 83 82
0.19958 -0.303563 -0.587 190 129 128
0.203357 -0.302529 -0.585 193 133 132
0.208571 -0.302011 -0.584 180 120 119
0.21375 -0.303046 -0.586 162 100 87
0.218581 -0.305114 -0.59 141 91 84
0.226479 -0.309769 -0.599 123 81 85
0.324 -0.26064 -0.504 189 156 163
0.327643 -0.255986 -0.495 189 140 133
0.330471 -0.255986 -0.495 185 136 129
0.336269 -0.257537 -0.498 182 133 126
0.337894 -0.258054 -0.499 182 133 126
0.340476 -0.258571 -0.5 183 134 127
0.34375 -0.259606 -0.502 185 136 129
0.34992 -0.26064 -0.504 186 137 130
0.35184 -0.26064 -0.504 184 135 128
0.35689 -0.260123 -0.503 182 132 125
0.359289 -0.259089 -0.501 176 127 122
0.362607 -0.258054 -0.499 194 158 160
0.382257 -0.263743 -0.51 216 200 211
0.4938 -0.3258 -0.63 236 246 255
0.10589 -0.311948 -0.601 192 142 135
0.1079 -0.301567 -0.581 191 138 132
0.116353 -0.292224 -0.563 182 127 120
0.127239 -0.290148 -0.559 188 129 123
0.131498 -0.290148 -0.559 186 129 122
0.14508 -0.289629 -0.558 170 110 100
0.148269 -0.289629 -0.558 167 104 99
0.152793 -0.290148 -0.559 167 106 101
0.153858 -0.290148 -0.559 163 102 97
0.168424 -0.293262 -0.565 152 95 86
0.1698 -0.293781 -0.566 152 95 86
0.179853 -0.297933 -0.574 142 87 82
0.185831 -0.300529 -0.579 144 89 84
0.196671 -0.303643 -0.585 182 121 120
0.1989 -0.303643 -0.585 193 129 129
0.200785 -0.303124 -0.584 191 130 129
0.321691 -0.257448 -0.496 190 146 143
0.32538 -0.25589 -0.493 188 138 129
0.359524 -0.259524 -0.5 176 127 122
0.361656 -0.259005 -0.499 185 137 135
0.370952 -0.259524 -0.5 172 146 157
0.105432 -0.308404 -0.592 191 142 135
0.118288 -0.292775 -0.562 183 129 119
0.141081 -0.291212 -0.559 178 118 110
0.142146 -0.291212 -0.559 176 113 106
0.147206 -0.290691 -0.558 168 105 100
0.150664 -0.291212 -0.559 171 108 101
0.165977 -0.293817 -0.564 150 93 86
0.193778 -0.303715 -0.583 166 106 105
0.19822 -0.303715 -0.583 192 128 128
0.2156 -0.30632 -0.588 147 89 78
0.235659 -0.319865 -0.614 148 133 140
0.395274 -0.326116 -0.626 201 174 181
0.320786 -0.259955 -0.499 189 144 141
0.321335 -0.25735 -0.494 188 141 135
0.321624 -0.25683 -0.493 190 141 134
0.322846 -0.256309 -0.492 190 140 133
0.326866 -0.255788 -0.491 185 135 128
0.331953 -0.25683 -0.493 181 131 122
0.340327 -0.258913 -0.497 183 133 124
0.347837 -0.260997 -0.501 185 135 128
0.355225 -0.261518 -0.502 186 132 122
0.358571 -0.260476 -0.5 179 130 125
0.360476 -0.260476 -0.5 181 130 126
0.363993 -0.258913 -0.497 192 157 161
0.385171 -0.265686 -0.51 194 185 204
0.388414 -0.267249 -0.513 173 164 183
0.110393 -0.298551 -0.571 188 138 131
0.111977 -0.296983 -0.568 181 128 122
0.126174 -0.292277 -0.559 186 127 119
0.14534 -0.292277 -0.559 172 109 102
0.155988 -0.292277 -0.559 159 100 92
0.157333 -0.2928 -0.56 158 99 91
0.163248 -0.293846 -0.562 149 92 83
0.173951 -0.297506 -0.569 142 85 76
0.176738 -0.298551 -0.571 142 84 80
0.186611 -0.302211 -0.578 128 71 64
0.196433 -0.30378 -0.581 190 126 126
0.20086 -0.30378 -0.581 188 124 122
0.208214 -0.304826 -0.583 172 107 103
0.321441 -0.262997 -0.503 189 140 136
0.320143 -0.260383 -0.498 190 140 133
0.346449 -0.260906 -0.499 186 133 127
0.366095 -0.259337 -0.496 194 161 168
0.104463 -0.318006 -0.606 194 146 142
0.104481 -0.311184 -0.593 188 141 135
0.104898 -0.309085 -0.589 187 138 133
0.10548 -0.30751 -0.586 188 139 134
0.10661 -0.304362 -0.58 190 141 136
0.109497 -0.300164 -0.572 184 134 127
0.110393 -0.299639 -0.571 188 135 129
0.11178 -0.29754 -0.567 181 128 122
0.113538 -0.29649 -0.565 180 123 116
0.115281 -0.295441 -0.563 182 125 118
0.122133 -0.293867 -0.56 188 131 122
0.128304 -0.293342 -0.559 181 122 114
0.134451 -0.292817 -0.558 189 130 122
0.135514 -0.292817 -0.558 187 126 121
0.146405 -0.293342 -0.559 172 105 99
0.155988 -0.293342 -0.559 160 100 92
0.182674 -0.302263 -0.576 143 88 83
0.19499 -0.304362 -0.58 189 125 125
0.1972 -0.304362 -0.58 183 118 116
0.201619 -0.304362 -0.58 180 116 114
0.20418 -0.304887 -0.581 176 112 110
0.206749 -0.305411 -0.582 173 112 109
0.209684 -0.306461 -0.584 163 98 94
0.226467 -0.315907 -0.602 118 82 82
0.228748 -0.317481 -0.605 119 83 83
0.326167 -0.270252 -0.515 186 137 132
0.319746 -0.258708 -0.493 189 138 134
0.32274 -0.256609 -0.489 187 137 130
0.323671 -0.256609 -0.489 187 137 130
0.325798 -0.256084 -0.488 184 131 123
0.356904 -0.261856 -0.499 185 128 121
0.359755 -0.261856 -0.499 180 130 123
0.374211 -0.261331 -0.498 183 150 157
0.388086 -0.267629 -0.51 176 161 182
0.103671 -0.3239 -0.615 191 136 139
0.10382 -0.32074 -0.609 194 145 141
0.107881 -0.302833 -0.575 183 132 128
0.112462 -0.297567 -0.565 179 124 119
0.116147 -0.295987 -0.562 181 124 117
0.126174 -0.294407 -0.559 185 126 118
0.1302 -0.29388 -0.558 184 125 117
0.138951 -0.294407 -0.559 184 125 119
0.14534 -0.294407 -0.559 168 107 102
0.150664 -0.294407 -0.559 172 105 99
0.154923 -0.294407 -0.559 166 103 96
0.159751 -0.29546 -0.561 156 95 90
0.1698 -0.298093 -0.566 145 88 81
0.178137 -0.301253 -0.572 138 83 78
0.183771 -0.30336 -0.576 136 81 76
0.190243 -0.30494 -0.579 157 99 97
0.200514 -0.305467 -0.58 187 119 116
0.218194 -0.311787 -0.592 121 81 82
0.320163 -0.26386 -0.501 181 132 125
0.320685 -0.259647 -0.493 190 139 135
0.323671 -0.25754 -0.489 189 139 132
0.326058 -0.256487 -0.487 188 131 120
0.33784 -0.25912 -0.492 181 126 119
0.352394 -0.26228 -0.498 181 128 124
0.357137 -0.26228 -0.498 185 128 119
0.360207 -0.261753 -0.497 180 132 128
0.3621 -0.261753 -0.497 181 135 135
0.364206 -0.261227 -0.496 185 137 135
0.110007 -0.300757 -0.569 189 130 124
0.120214 -0.296529 -0.561 184 125 117
0.144275 -0.295471 -0.559 172 109 102
0.152793 -0.295471 -0.559 167 104 99
0.189914 -0.305514 -0.578 171 111 110
0.192116 -0.305514 -0.578 177 113 111
0.193217 -0.305514 -0.578 184 120 118
0.194318 -0.305514 -0.578 179 113 114
0.19652 -0.305514 -0.578 180 112 111
0.20564 -0.307629 -0.582 173 108 104
0.206749 -0.307629 -0.582 170 105 101
0.323 -0.269571 -0.51 179 128 124
0.320971 -0.260057 -0.492 189 141 137
0.324869 -0.257943 -0.488 193 136 127
0.326058 -0.257414 -0.487 190 132 120
0.347443 -0.261643 -0.495 181 128 120
0.35358 -0.2627 -0.497 180 127 123
0.354527 -0.2627 -0.497 182 127 122
0.358537 -0.262171 -0.496 186 129 120
0.362529 -0.261643 -0.495 185 137 133
0.364414 -0.261643 -0.495 182 137 134
0.103424 -0.31139 -0.587 184 135 131
0.112263 -0.299189 -0.564 184 129 122
0.115076 -0.298128 -0.562 189 131 127
0.126174 -0.296536 -0.559 185 126 120
0.14534 -0.296536 -0.559 168 105 100
0.148534 -0.296536 -0.559 170 105 99
0.161107 -0.298128 -0.562 154 93 90
0.163538 -0.298658 -0.563 150 89 84
0.175343 -0.302371 -0.57 136 81 76
0.200169 -0.307146 -0.579 186 122 120
0.228724 -0.32253 -0.608 114 93 102
0.319846 -0.266299 -0.502 179 132 126
0.319802 -0.263116 -0.496 187 136 132
0.32274 -0.259403 -0.489 195 142 136
0.32513 -0.258342 -0.487 193 140 132
0.335093 -0.258872 -0.488 183 129 117
0.354043 -0.262586 -0.495 183 126 117
0.358757 -0.262586 -0.495 184 136 126
0.3597 -0.262586 -0.495 187 139 129
0.364619 -0.262055 -0.494 187 136 135
0.10569 -0.306119 -0.575 190 139 135
0.1066 -0.305587 -0.574 187 137 130
0.112064 -0.29973 -0.563 182 127 120
0.122133 -0.298133 -0.56 189 131 127
0.128074 -0.297069 -0.558 191 132 126
0.129137 -0.297069 -0.558 189 130 126
0.138703 -0.297069 -0.558 178 117 112
0.150664 -0.297601 -0.559 166 101 97
0.156267 -0.298133 -0.56 165 102 97
0.163538 -0.29973 -0.563 150 89 84
0.172564 -0.302392 -0.568 139 82 75
0.18204 -0.305587 -0.574 136 81 76
0.187063 -0.306651 -0.576 149 88 85
0.324834 -0.274709 -0.516 183 132 128
0.319835 -0.265658 -0.499 180 129 125
0.3195 -0.264593 -0.497 182 131 127
0.32274 -0.260334 -0.489 194 141 135
0.324869 -0.259802 -0.488 194 141 135
0.349086 -0.261931 -0.492 183 125 114
0.353551 -0.262464 -0.493 180 126 116
0.365759 -0.262464 -0.493 184 134 125
0.37914 -0.264593 -0.497 169 133 137
0.114006 -0.300269 -0.562 187 132 127
0.12 -0.2992 -0.56 189 131 127
0.136577 -0.298131 -0.558 180 121 115
0.171482 -0.303474 -0.568 138 81 74
0.172868 -0.304009 -0.569 139 82 75
0.176738 -0.305077 -0.571 138 83 78
0.194743 -0.307749 -0.576 177 107 109
0.20418 -0.31042 -0.581 162 96 97
0.207104 -0.311489 -0.583 156 92 92
0.222286 -0.320571 -0.6 115 79 79
0.227191 -0.324311 -0.607 110 83 88
0.3195 -0.26554 -0.497 182 131 127
0.3234 -0.2618 -0.49 192 142 133
0.32749 -0.259129 -0.485 189 137 124
0.349533 -0.2618 -0.49 183 126 115
0.352117 -0.262334 -0.491 180 126 116
0.366891 -0.262869 -0.492 180 132 122
0.371393 -0.263403 -0.493 181 132 128
0.372332 -0.263403 -0.493 179 132 126
0.384286 -0.267143 -0.5 154 131 149
1.14657 -0.346751 -0.649 203 205 191
0.101774 -0.320106 -0.597 191 140 136
0.106229 -0.306701 -0.572 189 134 129
0.109427 -0.303484 -0.566 188 131 124
0.112935 -0.301339 -0.562 189 132 125
0.114871 -0.300803 -0.561 190 133 126
0.118933 -0.300267 -0.56 190 133 126
0.140829 -0.299194 -0.558 175 115 104
0.141891 -0.299194 -0.558 176 117 103
0.14747 -0.29973 -0.559 168 103 99
0.150664 -0.29973 -0.559 172 107 101
0.151729 -0.29973 -0.559 165 100 96
0.174257 -0.305629 -0.57 139 82 75
0.180631 -0.307237 -0.573 134 79 74
0.200169 -0.310454 -0.579 177 109 108
0.201619 -0.31099 -0.58 174 106 105
0.205993 -0.312599 -0.583 159 94 92
0.208929 -0.313671 -0.585 142 84 80
0.319503 -0.271312 -0.506 181 130 126
0.319833 -0.270776 -0.505 179 128 125
0.320747 -0.26595 -0.496 186 135 131
0.321624 -0.264342 -0.493 188 138 131
0.32513 -0.261125 -0.487 193 143 134
0.326314 -0.260589 -0.486 191 141 132
0.330503 -0.259516 -0.484 187 135 122
0.331425 -0.259516 -0.484 186 132 120
0.332347 -0.259516 -0.484 185 131 119
0.335112 -0.259516 -0.484 185 128 117
0.343683 -0.261125 -0.487 182 124 112
0.349751 -0.262197 -0.489 182 126 113
0.377614 -0.265414 -0.495 160 125 132
0.378557 -0.265414 -0.495 160 125 132
0.392563 -0.271849 -0.507 159 141 163
1.14796 -0.346915 -0.647 202 204 190
0.100505 -0.328238 -0.61 196 145 144
0.102543 -0.313171 -0.582 191 142 137
0.10368 -0.309943 -0.576 191 142 137
0.106755 -0.306176 -0.569 190 137 131
0.114006 -0.30241 -0.562 189 132 125
0.11594 -0.301871 -0.561 188 131 122
0.118933 -0.301333 -0.56 190 133 126
0.128074 -0.300257 -0.558 187 128 120
0.132089 -0.299719 -0.557 188 131 120
0.148534 -0.300795 -0.559 170 105 99
0.149599 -0.300795 -0.559 170 105 99
0.165195 -0.304024 -0.565 146 88 84
0.166566 -0.304562 -0.566 145 86 80
0.16902 -0.3051 -0.567 143 86 79
0.209286 -0.315324 -0.586 144 85 81
0.212601 -0.316938 -0.589 127 82 87
0.228689 -0.328776 -0.611 95 76 82
0.318567 -0.270662 -0.503 178 127 123
0.32219 -0.264205 -0.491 190 138 127
0.32749 -0.260976 -0.485 189 137 124
0.330262 -0.260976 -0.485 188 136 123
0.330503 -0.260438 -0.484 187 135 122
0.331425 -0.260438 -0.484 186 132 120
0.333269 -0.260438 -0.484 185 131 119
0.351825 -0.26259 -0.488 188 135 127
0.386963 -0.269586 -0.501 148 127 144
1.1485 -0.348686 -0.648 202 204 190
1.1492 -0.348148 -0.647 201 205 191
0.101092 -0.32022 -0.593 194 145 141
0.1035 -0.3105 -0.575 192 143 138
0.126174 -0.30186 -0.559 186 129 118
0.13315 -0.30078 -0.557 187 129 117
0.134451 -0.30132 -0.558 182 124 112
0.136577 -0.30132 -0.558 178 122 109
0.140829 -0.30132 -0.558 174 116 104
0.148534 -0.30186 -0.559 166 103 96
0.171784 -0.30726 -0.569 137 82 75
0.191119 -0.3105 -0.575 161 97 95
0.193646 -0.31104 -0.576 167 102 100
0.194743 -0.31104 -0.576 173 108 106
0.19618 -0.31158 -0.577 170 105 103
0.203423 -0.31428 -0.582 155 91 89
0.217033 -0.3213 -0.595 116 79 87
0.231733 -0.33264 -0.616 107 107 131
0.31883 -0.27432 -0.508 180 130 123
0.317619 -0.27 -0.5 177 127 118
0.318571 -0.27 -0.5 178 128 117
0.318885 -0.26946 -0.499 178 128 117
0.321043 -0.2673 -0.495 186 134 123
0.329338 -0.2619 -0.485 189 137 124
0.3388 -0.26136 -0.484 184 127 116
0.349662 -0.2619 -0.485 190 135 128
0.352234 -0.26244 -0.486 192 137 130
0.354814 -0.26298 -0.487 192 137 132
0.358331 -0.26352 -0.488 186 133 127
1.14342 -0.34614 -0.641 206 210 196
0.101434 -0.315389 -0.582 192 143 138
0.10727 -0.306718 -0.566 193 140 132
0.114006 -0.30455 -0.562 188 131 124
0.118933 -0.303467 -0.56 190 133 124
0.129137 -0.302383 -0.558 183 129 117
0.163043 -0.306176 -0.565 148 89 85
0.18204 -0.311053 -0.574 125 72 66
0.188929 -0.311595 -0.575 154 95 91
0.190024 -0.311595 -0.575 154 95 91
0.191119 -0.311595 -0.575 158 94 92
0.20817 -0.317556 -0.586 139 81 79
0.217763 -0.323517 -0.597 117 78 83
0.31632 -0.27312 -0.504 182 129 123
0.316984 -0.27041 -0.499 177 127 118
0.32406 -0.266075 -0.491 190 136 124
0.329581 -0.262282 -0.484 190 138 125
0.34086 -0.26174 -0.483 178 125 111
0.349863 -0.262282 -0.484 193 138 131
0.355937 -0.263366 -0.486 187 132 129
0.36112 -0.26445 -0.488 184 132 121
0.363723 -0.264991 -0.489 181 131 122
0.37515 -0.267159 -0.493 168 119 112
0.386369 -0.27041 -0.499 163 137 148
0.39702 -0.27583 -0.509 193 191 205
1.14657 -0.351696 -0.649 203 206 189
1.1481 -0.349529 -0.645 202 206 192
1.14464 -0.347361 -0.641 209 213 198
0.0998457 -0.329549 -0.606 197 147 140
0.100333 -0.327373 -0.602 190 150 140
0.111865 -0.305621 -0.562 189 131 127
0.142954 -0.303446 -0.558 175 115 105
0.149867 -0.304533 -0.56 164 101 94
0.15334 -0.305077 -0.561 159 96 91
0.154409 -0.305077 -0.561 151 90 87
0.169318 -0.308884 -0.568 141 83 79
0.178137 -0.311059 -0.572 133 75 71
0.18204 -0.312147 -0.574 128 73 66
0.199066 -0.314866 -0.579 154 93 92
0.201967 -0.315953 -0.581 152 91 90
0.32406 -0.26701 -0.491 189 135 125
0.325798 -0.265379 -0.488 191 137 125
0.32724 -0.264291 -0.486 187 135 124
0.330262 -0.263748 -0.485 189 137 126
0.33166 -0.26266 -0.483 190 136 124
0.3374 -0.262116 -0.482 186 132 120
0.364838 -0.265379 -0.488 185 130 125
0.36838 -0.265923 -0.489 184 125 117
0.371 -0.266467 -0.49 174 120 108
0.376089 -0.268098 -0.493 162 116 118
0.398771 -0.277343 -0.51 200 198 209
0.402878 -0.279518 -0.514 206 203 220
1.14865 -0.351301 -0.646 202 204 191
0.1 -0.327429 -0.6 190 149 143
0.100131 -0.324154 -0.594 188 147 141
0.10041 -0.321426 -0.589 191 144 138
0.101086 -0.316514 -0.58 193 144 139
0.105486 -0.309966 -0.568 192 139 133
0.114871 -0.306146 -0.561 187 132 125
0.1168 -0.3056 -0.56 189 132 125
0.12 -0.3056 -0.56 184 127 118
0.136332 -0.303963 -0.557 179 120 112
0.13764 -0.304509 -0.558 176 119 108
0.177048 -0.312149 -0.572 130 75 68
0.183133 -0.31324 -0.574 129 74 69
0.20086 -0.31706 -0.581 149 91 89
0.214406 -0.324154 -0.594 119 81 78
0.317271 -0.270129 -0.495 185 132 126
0.318214 -0.270129 -0.495 184 131 125
0.331425 -0.264126 -0.484 191 137 125
0.33258 -0.26358 -0.483 193 139 127
0.338532 -0.262489 -0.481 181 132 117
0.340365 -0.262489 -0.481 181 129 116
0.346581 -0.263034 -0.482 193 140 132
0.379674 -0.269583 -0.494 153 116 110
0.38482 -0.27122 -0.497 176 144 147
1.1492 -0.353077 -0.647 203 206 189
0.10296 -0.313238 -0.572 186 137 132
0.131028 -0.305024 -0.557 178 119 111
0.13421 -0.305024 -0.557 177 118 110
0.144275 -0.306119 -0.559 156 99 90
0.151203 -0.307214 -0.561 151 92 84
0.155754 -0.307762 -0.562 145 86 80
0.16089 -0.309405 -0.565 145 88 81
0.161967 -0.309405 -0.565 144 87 80
0.17565 -0.31269 -0.571 128 73 66
0.184227 -0.314333 -0.574 128 75 67
0.19686 -0.317071 -0.579 153 92 91
0.19941 -0.317619 -0.58 150 89 88
0.202662 -0.319262 -0.583 139 85 83
0.214767 -0.325833 -0.595 117 82 78
0.219222 -0.329119 -0.601 120 85 83
0.30941 -0.271619 -0.496 184 126 122
0.31505 -0.269976 -0.493 183 125 121
0.325534 -0.267786 -0.489 189 137 124
0.326986 -0.26669 -0.487 185 133 122
0.329091 -0.266143 -0.486 186 134 123
0.3367 -0.263405 -0.481 187 135 124
0.359824 -0.265595 -0.485 187 130 121
0.365946 -0.26669 -0.487 181 128 122
0.368556 -0.267238 -0.488 173 123 116
0.3772 -0.269429 -0.492 153 110 103
0.378906 -0.269976 -0.493 146 107 100
0.380615 -0.270524 -0.494 153 114 107
0.398959 -0.278738 -0.509 197 191 193
0.407987 -0.283667 -0.518 206 204 205
1.14765 -0.351571 -0.642 209 214 194
0.0991867 -0.330813 -0.602 197 146 142
0.107774 -0.309382 -0.563 191 138 130
0.111666 -0.308283 -0.561 190 136 124
0.140829 -0.306634 -0.558 172 113 105
0.156031 -0.309382 -0.563 143 89 79
0.158457 -0.309931 -0.564 140 86 76
0.159814 -0.310481 -0.565 140 88 77
0.163331 -0.31103 -0.566 137 85 74
0.17565 -0.313778 -0.571 128 76 65
0.183133 -0.315427 -0.574 126 73 65
0.193217 -0.317625 -0.578 154 93 92
0.20776 -0.32312 -0.588 119 81 78
0.22446 -0.33466 -0.609 98 80 94
0.308162 -0.271465 -0.494 185 128 121
0.329091 -0.267069 -0.486 185 133 122
0.331186 -0.266519 -0.485 187 135 124
0.3335 -0.26542 -0.483 189 135 125
0.345336 -0.263222 -0.479 191 136 129
0.347886 -0.263771 -0.48 191 137 127
0.366873 -0.267618 -0.487 179 126 120
0.404836 -0.282455 -0.514 206 201 198
0.112734 -0.309351 -0.561 191 134 125
0.117867 -0.3088 -0.56 183 126 117
0.12085 -0.308249 -0.559 188 131 120
0.121915 -0.308249 -0.559 187 130 119
0.124662 -0.307146 -0.557 186 130 117
0.1456 -0.3088 -0.56 154 97 88
0.157383 -0.311006 -0.564 142 90 79
0.16089 -0.311557 -0.565 138 88 77
0.163331 -0.312109 -0.566 136 86 75
0.167154 -0.313211 -0.568 138 86 75
0.168236 -0.313211 -0.568 135 83 72
0.183133 -0.31652 -0.574 132 77 70
0.18816 -0.317623 -0.576 143 90 82
0.193551 -0.319277 -0.579 145 87 83
0.201551 -0.321483 -0.583 123 79 76
0.30563 -0.273509 -0.496 177 131 131
0.305977 -0.271303 -0.492 184 127 118
0.322467 -0.2702 -0.49 187 133 123
0.328166 -0.267994 -0.486 184 132 121
0.33442 -0.26634 -0.483 188 134 124
0.3367 -0.265237 -0.481 187 133 123
0.337829 -0.264686 -0.48 187 133 123
0.339657 -0.264686 -0.48 186 132 120
0.344424 -0.264134 -0.479 191 137 127
0.351543 -0.264686 -0.48 187 132 125
0.35926 -0.26634 -0.483 183 126 117
0.360926 -0.266891 -0.484 185 128 119
0.365194 -0.267994 -0.486 180 127 119
0.100957 -0.31706 -0.573 194 147 139
0.118721 -0.309313 -0.559 182 125 114
0.126784 -0.308207 -0.557 179 123 110
0.132089 -0.308207 -0.557 172 119 105
0.139766 -0.30876 -0.558 162 108 96
0.158738 -0.312633 -0.565 143 91 80
0.17565 -0.315953 -0.571 135 82 74
0.193551 -0.32038 -0.579 137 84 80
0.221046 -0.33532 -0.606 108 82 91
0.307824 -0.281647 -0.509 190 161 166
0.303407 -0.275007 -0.497 177 137 137
0.303129 -0.2739 -0.495 181 134 128
0.305043 -0.27058 -0.489 184 127 116
0.310926 -0.270027 -0.488 184 130 120
0.311855 -0.270027 -0.488 185 131 121
0.326986 -0.269473 -0.487 185 131 121
0.329338 -0.268367 -0.485 184 132 121
0.35081 -0.265047 -0.479 188 133 126
0.35594 -0.266153 -0.481 186 132 122
0.3611 -0.26726 -0.483 183 128 121
0.36612 -0.26892 -0.486 174 121 113
0.375498 -0.271687 -0.491 150 107 98
0.378137 -0.27224 -0.492 149 104 98
0.383271 -0.2739 -0.495 148 106 94
0.386713 -0.275007 -0.497 153 114 107
1.14765 -0.35524 -0.642 205 207 194
0.101514 -0.316486 -0.57 191 144 136
0.107583 -0.312044 -0.562 188 136 125
0.115733 -0.310933 -0.56 189 132 121
0.117656 -0.310378 -0.559 178 121 110
0.140829 -0.309823 -0.558 166 113 99
0.141891 -0.309823 -0.558 162 109 95
0.144275 -0.310378 -0.559 146 93 79
0.151472 -0.312044 -0.562 149 95 85
0.158738 -0.31371 -0.565 143 91 80
0.161175 -0.314265 -0.566 141 91 80
0.17565 -0.317041 -0.571 133 80 72
0.17954 -0.318151 -0.573 130 77 69
0.19788 -0.323149 -0.582 121 73 69
0.200785 -0.324259 -0.584 120 75 72
0.224033 -0.33925 -0.611 121 99 111
0.30318 -0.271511 -0.489 185 131 119
0.30565 -0.270401 -0.487 181 127 117
0.320492 -0.270401 -0.487 186 132 122
0.326314 -0.269846 -0.486 184 130 120
0.328414 -0.26929 -0.485 183 131 118
0.33258 -0.26818 -0.483 186 132 120
0.335564 -0.267625 -0.482 185 128 117
0.357772 -0.26707 -0.481 182 127 120
0.400289 -0.281506 -0.507 165 151 151
0.40936 -0.286503 -0.516 207 201 205
0.101514 -0.317571 -0.57 193 146 138
0.1136 -0.312 -0.56 186 134 121
0.119786 -0.311443 -0.559 184 130 118
0.128674 -0.309771 -0.556 167 113 101
0.136332 -0.310329 -0.557 172 119 105
0.14534 -0.311443 -0.559 145 93 79
0.149066 -0.312557 -0.561 148 94 84
0.16254 -0.3159 -0.567 138 88 79
0.168532 -0.317014 -0.569 137 84 78
0.171 -0.317571 -0.57 135 82 76
0.177048 -0.318686 -0.572 130 79 75
0.187388 -0.321471 -0.577 130 83 77
0.218015 -0.336514 -0.604 111 77 78
0.22214 -0.3393 -0.609 118 100 112
0.301513 -0.2769 -0.497 178 133 140
0.301 -0.273 -0.49 185 132 124
0.302249 -0.272443 -0.489 183 131 120
0.304395 -0.270214 -0.485 180 125 118
0.309299 -0.269657 -0.484 184 131 117
0.316405 -0.270214 -0.485 186 132 120
0.341687 -0.266871 -0.479 188 131 122
0.35372 -0.266314 -0.478 186 131 124
0.357943 -0.267429 -0.48 181 126 119
0.371345 -0.271886 -0.488 155 111 102
0.09804 -0.336547 -0.602 193 150 144
0.0988762 -0.324248 -0.58 192 152 144
0.100605 -0.319216 -0.571 189 149 141
0.114667 -0.313067 -0.56 186 132 122
0.118721 -0.312508 -0.559 182 128 116
0.135271 -0.31139 -0.557 165 111 99
0.136577 -0.311949 -0.558 165 111 99
0.14321 -0.312508 -0.559 145 93 80
0.155234 -0.315303 -0.564 143 90 82
0.157662 -0.315862 -0.565 141 91 82
0.166072 -0.317539 -0.568 135 85 78
0.177357 -0.320334 -0.573 128 79 74
0.187712 -0.32313 -0.578 126 78 74
0.191676 -0.324248 -0.58 120 75 72
0.206569 -0.330397 -0.591 120 74 74
0.210233 -0.332633 -0.595 119 75 74
0.212077 -0.333751 -0.597 120 76 75
0.22098 -0.34046 -0.609 122 87 91
0.299744 -0.274492 -0.491 189 131 127
0.299454 -0.273374 -0.489 186 133 125
0.30194 -0.272256 -0.487 185 133 122
0.30774 -0.27002 -0.483 187 131 116
0.31142 -0.27002 -0.483 186 132 122
0.31418 -0.27002 -0.483 186 132 122
0.32246 -0.27002 -0.483 184 130 118
0.334868 -0.268902 -0.481 183 126 115
0.335784 -0.268902 -0.481 182 125 114
0.337616 -0.268902 -0.481 185 128 117
0.35372 -0.267225 -0.478 184 132 121
0.356285 -0.267784 -0.479 183 129 119
0.358857 -0.268343 -0.48 180 126 116
0.383271 -0.276729 -0.495 147 105 93
0.38844 -0.278406 -0.498 150 115 113
0.396172 -0.281201 -0.503 189 170 174
0.0977143 -0.336571 -0.6 192 149 143
0.104743 -0.316377 -0.564 186 136 129
0.111467 -0.314133 -0.56 189 130 124
0.115527 -0.313572 -0.559 185 130 123
0.14321 -0.313572 -0.559 148 96 83
0.156586 -0.316938 -0.565 143 90 82
0.16146 -0.31806 -0.567 137 87 80
0.182357 -0.322548 -0.575 126 78 74
0.193113 -0.325913 -0.581 115 71 68
0.308298 -0.269818 -0.481 189 132 121
0.311963 -0.269818 -0.481 187 130 119
0.326383 -0.270379 -0.482 187 130 119
0.332119 -0.269818 -0.481 186 129 118
0.335784 -0.269818 -0.481 183 126 115
0.348613 -0.267013 -0.476 189 132 121
0.377369 -0.275428 -0.491 146 99 89
0.383271 -0.277671 -0.495 141 98 89
1.14699 -0.360692 -0.643 203 206 189
0.0989467 -0.32308 -0.574 191 146 140
0.102776 -0.318014 -0.565 188 139 132
0.109333 -0.3152 -0.56 189 134 129
0.1104 -0.3152 -0.56 191 136 131
0.111467 -0.3152 -0.56 189 134 129
0.1136 -0.3152 -0.56 183 129 119
0.127615 -0.312949 -0.556 179 123 110
0.128674 -0.312949 -0.556 178 125 111
0.13421 -0.313511 -0.557 166 113 99
0.13764 -0.314074 -0.558 167 113 103
0.138703 -0.314074 -0.558 168 114 104
0.1456 -0.3152 -0.56 149 96 88
0.156863 -0.318577 -0.566 143 90 82
0.172086 -0.320829 -0.57 132 81 77
0.179853 -0.32308 -0.574 126 77 73
0.18519 -0.324769 -0.577 124 76 72
0.189467 -0.326457 -0.58 122 74 70
0.195223 -0.328709 -0.584 116 72 69
0.213498 -0.338277 -0.601 120 79 75
0.21982 -0.34278 -0.609 121 96 102
0.307382 -0.270734 -0.481 189 132 123
0.314057 -0.270171 -0.48 187 130 121
0.315886 -0.270171 -0.48 188 131 120
0.321371 -0.270171 -0.48 186 129 118
0.324114 -0.270171 -0.48 186 129 120
0.335086 -0.270171 -0.48 183 126 117
0.342599 -0.269609 -0.479 192 135 126
0.344803 -0.268483 -0.477 192 135 124
0.34662 -0.268483 -0.477 192 135 124
0.351333 -0.26792 -0.476 185 131 121
0.376433 -0.276363 -0.491 139 102 93
0.380784 -0.277489 -0.493 140 102 93
0.394597 -0.281991 -0.501 168 142 145
0.0983648 -0.325868 -0.577 189 142 134
0.10846 -0.316831 -0.561 187 134 128
0.11532 -0.315137 -0.558 190 136 126
0.116383 -0.315137 -0.558 186 132 122
0.157941 -0.319655 -0.566 141 91 84
0.163909 -0.320785 -0.568 135 84 80
0.174869 -0.323044 -0.572 130 81 77
0.196671 -0.330386 -0.585 118 74 71
0.198124 -0.33095 -0.586 119 74 71
0.19992 -0.33208 -0.588 118 73 70
0.202848 -0.33321 -0.59 120 76 73
0.206486 -0.335469 -0.594 115 74 70
0.301077 -0.282946 -0.501 186 136 129
0.298752 -0.278992 -0.494 186 133 127
0.30132 -0.274474 -0.486 189 135 125
0.310017 -0.269956 -0.478 187 133 123
0.311838 -0.269956 -0.478 186 132 122
0.31457 -0.269956 -0.478 187 130 119
0.317301 -0.269956 -0.478 184 127 116
0.326857 -0.271086 -0.48 187 130 121
0.327771 -0.271086 -0.48 188 131 122
0.338037 -0.270521 -0.479 188 131 122
0.359934 -0.270521 -0.479 168 116 105
0.384214 -0.279557 -0.495 143 98 92
0.388607 -0.280687 -0.497 149 104 98
0.0973333 -0.330933 -0.584 194 144 135
0.0976029 -0.3281 -0.579 191 141 132
0.0980238 -0.325833 -0.575 189 139 132
0.113397 -0.316767 -0.559 187 133 123
0.118296 -0.315633 -0.557 183 129 119
0.13421 -0.315633 -0.557 167 114 100
0.149597 -0.319033 -0.563 146 91 84
0.153357 -0.320167 -0.565 147 92 85
0.1593 -0.3213 -0.567 136 86 79
0.169914 -0.323 -0.57 129 80 75
0.18409 -0.326967 -0.577 125 77 75
0.205009 -0.336033 -0.593 115 74 70
0.208666 -0.3383 -0.597 118 80 77
0.299771 -0.276533 -0.488 191 134 125
0.30314 -0.2737 -0.483 191 134 123
0.305191 -0.271433 -0.479 191 134 123
0.306104 -0.271433 -0.479 188 131 120
0.313003 -0.2703 -0.477 188 131 122
0.320271 -0.2703 -0.477 189 132 123
0.326176 -0.271433 -0.479 186 129 120
0.330738 -0.271433 -0.479 182 125 116
0.34952 -0.269733 -0.476 188 134 122
0.353147 -0.269733 -0.476 184 127 116
0.355706 -0.2703 -0.477 179 121 109
0.36327 -0.272567 -0.481 164 114 105
0.393022 -0.282767 -0.499 146 112 111
0.0965743 -0.337163 -0.593 194 147 141
0.10098 -0.32238 -0.567 192 137 130
0.104371 -0.319537 -0.562 191 138 130
0.108267 -0.3184 -0.56 189 134 127
0.112332 -0.317831 -0.559 187 135 124
0.114257 -0.317263 -0.558 185 133 122
0.126556 -0.316126 -0.556 179 125 113
0.144791 -0.318969 -0.561 150 95 88
0.14719 -0.319537 -0.562 148 93 86
0.152281 -0.321243 -0.565 145 90 83
0.161745 -0.322949 -0.568 135 85 78
0.165571 -0.324086 -0.57 133 84 77
0.170212 -0.324654 -0.571 129 80 75
0.17269 -0.325223 -0.572 129 80 75
0.173779 -0.325223 -0.572 129 80 75
0.189011 -0.330909 -0.582 118 77 71
0.197344 -0.333751 -0.587 119 74 71
0.209365 -0.340574 -0.599 114 79 77
0.299017 -0.282011 -0.496 189 131 120
0.326406 -0.271777 -0.478 186 132 122
0.329137 -0.271777 -0.478 183 126 117
0.331869 -0.271777 -0.478 182 125 116
0.33551 -0.271777 -0.478 190 133 124
0.343894 -0.271209 -0.477 193 136 125
0.344987 -0.27064 -0.476 192 138 126
0.34952 -0.27064 -0.476 188 134 122
0.350427 -0.27064 -0.476 185 131 121
0.35224 -0.27064 -0.476 184 127 116
0.356614 -0.271209 -0.477 172 116 103
0.374133 -0.277463 -0.488 144 97 91
0.377533 -0.2786 -0.49 143 96 90
0.396506 -0.284854 -0.501 153 123 123
0.0965 -0.330306 -0.579 189 135 125
0.0975124 -0.326312 -0.572 187 132 127
0.0982571 -0.325171 -0.57 185 130 125
0.112332 -0.318896 -0.559 191 136 129
0.12232 -0.317185 -0.556 181 127 115
0.138951 -0.318896 -0.559 157 103 91
0.140016 -0.318896 -0.559 157 103 91
0.154707 -0.32289 -0.566 144 89 82
0.160663 -0.32403 -0.568 133 83 76
0.163113 -0.324601 -0.569 135 85 78
0.164486 -0.325171 -0.57 133 83 76
0.17051 -0.326312 -0.572 129 80 75
0.18048 -0.328594 -0.576 125 80 75
0.183309 -0.329735 -0.578 122 77 72
0.186152 -0.330876 -0.58 123 78 73
0.207876 -0.341145 -0.598 116 77 78
0.240265 -0.357118 -0.626 162 166 193
0.302846 -0.27611 -0.484 191 137 125
0.30343 -0.27497 -0.482 194 140 128
0.307551 -0.272117 -0.477 190 136 124
0.30872 -0.271547 -0.476 189 135 123
0.314646 -0.270406 -0.474 184 130 120
0.319833 -0.270976 -0.475 183 129 119
0.32776 -0.271547 -0.476 182 128 118
0.328667 -0.271547 -0.476 182 128 118
0.331174 -0.272117 -0.477 182 125 116
0.332083 -0.272117 -0.477 185 128 119
0.347881 -0.270976 -0.475 187 133 121
0.376763 -0.278963 -0.489 142 94 90
0.382662 -0.281245 -0.493 142 97 92
0.384379 -0.281815 -0.494 143 98 93
0.393972 -0.284668 -0.499 149 110 105
0.0961667 -0.330264 -0.577 186 132 122
0.0980848 -0.325685 -0.569 187 132 129
0.103485 -0.32225 -0.563 193 140 134
0.105254 -0.321106 -0.561 191 138 130
0.121261 -0.318244 -0.556 182 128 118
0.12232 -0.318244 -0.556 180 126 114
0.123379 -0.318244 -0.556 179 125 113
0.128674 -0.318244 -0.556 173 117 104
0.1424 -0.320533 -0.56 151 97 87
0.169421 -0.327402 -0.572 128 80 76
0.185048 -0.331981 -0.58 123 78 73
0.1911 -0.334843 -0.585 117 80 72
0.195772 -0.337132 -0.589 120 74 74
0.205254 -0.341711 -0.597 115 76 79
0.299274 -0.285046 -0.498 180 126 114
0.302846 -0.277032 -0.484 191 137 127
0.303717 -0.275315 -0.481 195 141 129
0.305734 -0.273026 -0.477 195 141 129
0.306643 -0.273026 -0.477 194 140 128
0.307813 -0.272453 -0.476 192 138 126
0.30872 -0.272453 -0.476 191 137 125
0.309881 -0.271881 -0.475 188 134 122
0.313081 -0.270736 -0.473 186 132 122
0.315784 -0.270736 -0.473 186 132 122
0.327976 -0.271881 -0.475 183 129 119
0.344262 -0.271881 -0.475 192 139 125
0.345167 -0.271881 -0.475 191 138 124
0.356614 -0.273026 -0.477 169 113 100
0.358272 -0.273598 -0.478 167 111 98
0.360847 -0.27417 -0.479 159 105 93
0.365861 -0.275888 -0.482 145 100 94
0.387043 -0.283329 -0.495 144 101 94
0.0964229 -0.328491 -0.572 177 129 119
0.0971714 -0.327343 -0.57 183 130 124
0.105254 -0.322174 -0.561 192 137 130
0.106133 -0.3216 -0.56 190 135 128
0.1072 -0.3216 -0.56 190 135 128
0.111268 -0.321026 -0.559 189 137 126
0.119143 -0.319303 -0.556 187 132 125
0.123379 -0.319303 -0.556 179 125 113
0.151205 -0.324471 -0.565 141 86 79
0.159862 -0.326769 -0.569 134 81 75
0.16695 -0.327917 -0.571 135 82 78
0.192871 -0.337106 -0.587 119 78 74
0.247024 -0.358929 -0.625 99 113 158
0.248214 -0.358929 -0.625 130 144 189
0.250595 -0.358929 -0.625 134 148 193
0.35961 -0.350314 -0.61 180 132 132
0.297873 -0.281974 -0.491 183 129 119
0.298842 -0.280251 -0.488 187 132 125
0.302548 -0.278529 -0.485 189 134 127
0.30343 -0.276806 -0.482 194 140 130
0.304914 -0.275657 -0.48 195 141 131
0.307813 -0.27336 -0.476 194 140 130
0.319388 -0.271637 -0.473 185 131 121
0.322991 -0.271637 -0.473 184 130 120
0.328189 -0.272211 -0.474 183 129 119
0.3318 -0.272211 -0.474 185 131 121
0.337929 -0.272786 -0.475 191 137 125
0.346976 -0.272786 -0.475 189 136 122
0.376763 -0.280826 -0.489 141 93 91
0.394131 -0.285994 -0.498 148 109 104
0.401122 -0.288291 -0.502 170 147 153
0.10223 -0.323819 -0.562 195 142 134
0.116174 -0.320938 -0.557 187 132 125
0.118084 -0.320362 -0.556 180 126 116
0.127615 -0.320362 -0.556 177 120 109
0.157417 -0.327276 -0.568 139 88 84
0.162314 -0.328429 -0.57 129 80 75
0.1634 -0.328429 -0.57 129 81 77
0.170809 -0.330157 -0.573 130 82 80
0.187115 -0.335919 -0.583 120 79 77
0.188549 -0.336495 -0.584 122 81 79
0.1932 -0.3388 -0.588 115 75 73
0.20663 -0.34629 -0.601 117 79 76
0.239497 -0.359543 -0.624 178 186 207
0.298842 -0.281181 -0.488 185 130 123
0.300394 -0.280029 -0.486 187 132 125
0.302548 -0.279452 -0.485 190 135 128
0.307813 -0.274267 -0.476 196 142 132
0.312419 -0.271962 -0.472 191 137 125
0.32141 -0.271962 -0.472 185 131 121
0.333803 -0.272538 -0.473 192 135 128
0.352405 -0.27369 -0.475 176 120 107
0.356614 -0.274843 -0.477 168 110 96
0.364186 -0.277148 -0.481 142 94 84
0.375831 -0.281757 -0.489 139 94 91
0.381886 -0.283486 -0.492 144 97 87
0.39334 -0.286367 -0.497 145 106 101
0.398571 -0.288095 -0.5 153 113 111
0.405443 -0.290976 -0.505 151 135 148
0.10116 -0.32489 -0.562 196 143 137
0.108073 -0.323155 -0.559 190 135 128
0.110006 -0.322577 -0.558 190 136 126
0.113194 -0.322577 -0.558 191 139 128
0.117235 -0.321999 -0.557 186 134 123
0.126329 -0.320843 -0.555 179 123 110
0.129733 -0.321421 -0.556 177 121 108
0.140267 -0.323733 -0.56 150 96 84
0.147714 -0.326046 -0.564 144 92 81
0.15282 -0.32778 -0.567 141 87 75
0.157694 -0.328936 -0.569 137 87 78
0.162599 -0.330092 -0.571 131 83 73
0.164774 -0.330092 -0.571 132 83 76
0.166152 -0.33067 -0.572 131 84 78
0.167242 -0.33067 -0.572 131 84 78
0.177496 -0.333561 -0.577 125 80 77
0.182838 -0.335295 -0.58 120 79 75
0.188871 -0.338186 -0.585 121 80 78
0.196437 -0.341654 -0.591 119 79 77
0.201843 -0.345123 -0.597 120 80 78
0.238309 -0.360731 -0.624 181 177 200
0.304349 -0.278642 -0.482 191 136 129
0.305191 -0.276908 -0.479 194 140 130
0.306907 -0.275173 -0.476 196 142 132
0.312419 -0.272861 -0.472 192 138 126
0.314217 -0.272861 -0.472 190 136 124
0.321626 -0.272283 -0.471 185 128 117
0.326111 -0.272283 -0.471 183 129 117
0.337592 -0.272861 -0.472 192 138 128
0.341189 -0.272861 -0.472 192 138 126
0.344614 -0.273439 -0.473 189 135 123
0.363429 -0.277486 -0.48 138 95 86
0.36754 -0.27922 -0.483 137 94 87
0.3794 -0.283267 -0.49 139 96 89
0.0991952 -0.32654 -0.563 198 145 137
0.125271 -0.3219 -0.555 177 124 110
0.132089 -0.32306 -0.557 169 116 100
0.15174 -0.32886 -0.567 145 89 76
0.19677 -0.34336 -0.592 122 83 78
0.205827 -0.34916 -0.602 110 84 87
0.246233 -0.36134 -0.623 84 97 150
0.298072 -0.28768 -0.496 174 119 112
0.298148 -0.28594 -0.493 178 120 109
0.29848 -0.28536 -0.492 179 121 110
0.298523 -0.28362 -0.489 181 126 119
0.300701 -0.28304 -0.488 183 128 121
0.302846 -0.28072 -0.484 188 134 124
0.305191 -0.27782 -0.479 191 137 127
0.318037 -0.27318 -0.471 187 130 119
0.322523 -0.27318 -0.471 184 127 116
0.343886 -0.27376 -0.472 188 134 122
0.344785 -0.27376 -0.472 186 132 120
0.354053 -0.27608 -0.476 170 112 101
0.35496 -0.27608 -0.476 167 109 98
0.359183 -0.27724 -0.478 147 99 89
0.363429 -0.2784 -0.48 137 94 85
0.366779 -0.27956 -0.482 136 93 86
0.38111 -0.28478 -0.491 139 96 89
0.382045 -0.28478 -0.491 139 96 89
0.401277 -0.29058 -0.501 148 109 112
0.403034 -0.29116 -0.502 145 114 120
0.425057 -0.30276 -0.522 109 117 153
1.14419 -0.36888 -0.636 202 206 191
0.102049 -0.326449 -0.561 197 144 136
0.103117 -0.326449 -0.561 197 144 136
0.104 -0.325867 -0.56 194 141 133
0.118084 -0.323539 -0.556 189 135 125
0.119986 -0.322957 -0.555 183 129 117
0.147976 -0.328776 -0.565 151 93 81
0.149316 -0.329358 -0.566 147 90 79
0.15309 -0.330522 -0.568 144 87 76
0.178111 -0.336923 -0.579 122 79 72
0.183784 -0.33925 -0.583 120 79 75
0.201042 -0.347979 -0.598 126 89 83
0.202857 -0.349143 -0.6 118 88 86
0.228067 -0.361945 -0.622 140 139 157
0.23399 -0.361945 -0.622 178 176 197
0.297727 -0.289207 -0.497 170 117 109
0.298523 -0.284551 -0.489 179 122 115
0.300386 -0.284551 -0.489 182 125 118
0.304349 -0.280478 -0.482 191 137 127
0.306375 -0.27815 -0.478 192 138 126
0.318934 -0.274077 -0.471 186 133 119
0.329383 -0.272331 -0.468 192 135 126
0.335447 -0.272913 -0.469 190 136 124
0.349119 -0.275241 -0.473 177 121 106
0.360093 -0.27815 -0.478 145 97 87
0.36846 -0.28106 -0.483 135 88 82
0.392549 -0.288625 -0.496 146 105 101
0.409946 -0.295026 -0.507 150 126 142
0.110006 -0.325766 -0.558 196 141 134
0.113848 -0.324598 -0.556 191 136 129
0.132089 -0.325182 -0.557 166 108 96
0.135514 -0.325766 -0.558 158 100 88
0.144235 -0.328685 -0.563 150 90 79
0.167827 -0.335107 -0.574 127 82 76
0.169214 -0.33569 -0.575 128 84 75
0.177009 -0.338026 -0.579 120 77 70
0.190163 -0.343864 -0.589 123 84 79
0.196303 -0.346783 -0.594 121 83 74
0.245838 -0.36313 -0.622 124 132 169
0.305267 -0.281396 -0.482 189 135 123
0.30555 -0.280812 -0.481 190 136 124
0.308071 -0.27731 -0.475 192 138 126
0.308326 -0.276726 -0.474 192 138 126
0.308576 -0.276142 -0.473 191 139 126
0.312654 -0.274974 -0.471 189 137 123
0.314449 -0.274974 -0.471 191 139 125
0.32601 -0.272639 -0.467 192 135 124
0.359183 -0.279061 -0.478 142 95 85
0.365102 -0.280812 -0.481 133 90 83
0.0919038 -0.334443 -0.571 193 145 133
0.0925029 -0.332686 -0.568 195 142 134
0.0958076 -0.329171 -0.562 197 147 140
0.0977743 -0.328586 -0.561 199 149 140
0.105944 -0.327414 -0.559 193 141 130
0.112789 -0.325657 -0.556 193 136 129
0.115757 -0.325071 -0.555 189 132 123
0.116814 -0.325071 -0.555 185 128 119
0.121043 -0.325071 -0.555 183 126 115
0.127615 -0.325657 -0.556 175 117 105
0.152008 -0.332686 -0.568 141 88 80
0.158249 -0.334443 -0.571 133 85 75
0.159615 -0.335029 -0.572 130 83 75
0.166733 -0.3362 -0.574 125 80 74
0.23598 -0.363729 -0.621 180 181 202
0.241099 -0.364314 -0.622 103 108 138
0.295833 -0.2911 -0.497 171 117 107
0.296938 -0.287586 -0.491 171 116 109
0.30406 -0.2829 -0.483 184 130 118
0.30555 -0.281729 -0.481 187 135 122
0.31152 -0.276457 -0.472 190 138 124
0.311757 -0.275871 -0.471 190 138 124
0.316243 -0.275871 -0.471 188 136 122
0.328679 -0.273529 -0.467 192 135 124
0.332413 -0.272943 -0.466 194 137 126
0.352566 -0.277629 -0.474 161 103 91
0.372757 -0.284071 -0.485 137 93 82
0.375377 -0.284657 -0.486 139 95 84
0.377077 -0.285243 -0.487 140 96 85
0.393493 -0.290514 -0.496 146 103 97
0.413502 -0.298129 -0.509 139 122 141
0.0892657 -0.350809 -0.597 193 148 143
0.0903133 -0.346108 -0.589 191 140 136
0.0905038 -0.342582 -0.583 192 144 134
0.129967 -0.327304 -0.557 170 114 99
0.150926 -0.333768 -0.568 139 89 78
0.154443 -0.334355 -0.569 134 86 76
0.17621 -0.340819 -0.58 121 78 72
0.229695 -0.364324 -0.62 177 175 189
0.295123 -0.293222 -0.499 173 116 105
0.301012 -0.28617 -0.487 175 121 111
0.302548 -0.284995 -0.485 180 126 116
0.30406 -0.28382 -0.483 183 129 117
0.30555 -0.282645 -0.481 185 133 119
0.307016 -0.28147 -0.479 188 134 122
0.307551 -0.280294 -0.477 188 134 122
0.310378 -0.277944 -0.473 189 135 123
0.316243 -0.276769 -0.471 187 135 121
0.318037 -0.276769 -0.471 188 136 122
0.322047 -0.275593 -0.469 189 136 122
0.324231 -0.274418 -0.467 189 135 123
0.325312 -0.27383 -0.466 191 137 125
0.333471 -0.273243 -0.465 193 137 124
0.342754 -0.275006 -0.468 183 127 114
0.34438 -0.275593 -0.469 178 122 109
0.353469 -0.278531 -0.474 158 102 89
0.358431 -0.280294 -0.477 139 95 84
0.360093 -0.280882 -0.478 135 91 80
0.37971 -0.286758 -0.488 141 97 86
0.386571 -0.289109 -0.492 145 101 92
0.398874 -0.292634 -0.498 148 105 98
0.415286 -0.299686 -0.51 135 128 144
1.14301 -0.37255 -0.634 201 205 191
1.14241 -0.371963 -0.633 202 206 192
0.0889667 -0.350767 -0.595 196 146 145
0.0954667 -0.330133 -0.56 197 142 139
0.106817 -0.328954 -0.558 192 140 129
0.109809 -0.328365 -0.557 194 140 130
0.1147 -0.327186 -0.555 190 136 124
0.137067 -0.330133 -0.56 156 100 87
0.142343 -0.332491 -0.564 148 94 82
0.153629 -0.336029 -0.57 134 85 78
0.157161 -0.336618 -0.571 128 81 73
0.163453 -0.338387 -0.574 129 84 79
0.167314 -0.339566 -0.576 127 84 78
0.174 -0.341924 -0.58 124 81 75
0.17965 -0.344282 -0.584 120 79 75
0.18536 -0.34664 -0.588 122 83 78
0.227333 -0.365505 -0.62 170 166 181
0.233238 -0.365505 -0.62 173 175 196
0.295572 -0.29653 -0.503 173 119 109
0.294132 -0.289456 -0.491 172 115 106
0.2954 -0.288867 -0.49 173 116 109
0.29666 -0.288277 -0.489 174 116 112
0.306743 -0.282971 -0.48 187 133 121
0.307551 -0.281203 -0.477 187 133 121
0.30872 -0.280613 -0.476 189 135 123
0.309229 -0.279434 -0.474 188 136 122
0.311757 -0.277666 -0.471 188 136 122
0.318257 -0.277076 -0.47 189 136 122
0.319152 -0.277076 -0.47 189 136 122
0.329929 -0.274129 -0.465 192 136 123
0.333471 -0.274129 -0.465 191 135 122
0.336129 -0.274129 -0.465 193 137 124
0.339514 -0.274718 -0.466 183 130 116
0.343646 -0.275897 -0.468 173 120 106
0.371989 -0.28533 -0.484 140 93 83
0.378932 -0.287098 -0.487 141 97 86
0.385786 -0.289456 -0.491 144 100 91
0.389235 -0.290635 -0.493 145 100 94
0.3927 -0.291814 -0.495 145 102 95
0.396328 -0.292404 -0.496 144 104 96
0.398874 -0.293583 -0.498 145 105 97
0.0995552 -0.330609 -0.559 199 144 139
0.101503 -0.330017 -0.558 198 143 138
0.106626 -0.329426 -0.557 192 137 130
0.107687 -0.329426 -0.557 190 135 128
0.109611 -0.328834 -0.556 192 137 130
0.11067 -0.328834 -0.556 193 138 131
0.1147 -0.328243 -0.555 192 135 126
0.115549 -0.327651 -0.554 192 135 126
0.116604 -0.327651 -0.554 189 132 123
0.127615 -0.328834 -0.556 177 119 107
0.128906 -0.329426 -0.557 169 113 100
0.129967 -0.329426 -0.557 163 107 94
0.160173 -0.33948 -0.574 123 78 72
0.162643 -0.340071 -0.575 126 83 77
0.1743 -0.34362 -0.581 119 80 73
0.177121 -0.344803 -0.583 122 79 72
0.22343 -0.366094 -0.619 148 141 157
0.228514 -0.366686 -0.62 178 176 197
0.293197 -0.290391 -0.491 174 115 107
0.293866 -0.289209 -0.489 174 115 107
0.309881 -0.280929 -0.475 185 133 119
0.312654 -0.278563 -0.471 186 135 118
0.318257 -0.277971 -0.47 189 136 122
0.330987 -0.274423 -0.464 190 134 121
0.34129 -0.275606 -0.466 177 124 110
0.3478 -0.277971 -0.47 166 110 97
0.37122 -0.28566 -0.483 139 95 84
0.384067 -0.2898 -0.49 142 97 91
0.398073 -0.29394 -0.497 142 104 95
0.0898619 -0.335233 -0.565 194 146 134
0.0952962 -0.331673 -0.559 196 143 137
0.0984905 -0.331673 -0.559 197 144 138
0.110471 -0.3293 -0.555 190 135 128
0.127615 -0.329893 -0.556 173 115 103
0.136 -0.332267 -0.56 155 97 85
0.145004 -0.335827 -0.566 146 94 83
0.157711 -0.33998 -0.573 126 81 76
0.172087 -0.344727 -0.581 120 82 81
0.177425 -0.346507 -0.584 121 80 74
0.183743 -0.350067 -0.59 123 79 76
0.189833 -0.353033 -0.595 122 83 84
0.234041 -0.367273 -0.619 154 154 178
0.30222 -0.28658 -0.483 177 119 108
0.30406 -0.28658 -0.483 179 121 109
0.304349 -0.285987 -0.482 180 122 110
0.318473 -0.278273 -0.469 190 136 124
0.323537 -0.276493 -0.466 187 134 120
0.323729 -0.2759 -0.465 189 136 122
0.326386 -0.2759 -0.465 188 135 121
0.332754 -0.275307 -0.464 191 133 121
0.339671 -0.2759 -0.465 183 126 115
0.394586 -0.2937 -0.495 147 102 97
0.398073 -0.294887 -0.497 143 102 100
0.104504 -0.331548 -0.557 196 141 134
0.115549 -0.329762 -0.554 190 133 124
0.1221 -0.330357 -0.555 177 119 108
0.125497 -0.330952 -0.556 173 115 104
0.132563 -0.332738 -0.559 164 104 93
0.17379 -0.347024 -0.583 120 80 78
0.232486 -0.367857 -0.618 172 172 198
0.288521 -0.292262 -0.491 175 118 107
0.289881 -0.289881 -0.487 174 117 108
0.290809 -0.289881 -0.487 175 116 108
0.291137 -0.289286 -0.486 175 116 108
0.30314 -0.2875 -0.483 176 118 106
0.310786 -0.282738 -0.475 186 133 119
0.315571 -0.279762 -0.47 184 131 117
0.31758 -0.279167 -0.469 186 134 121
0.339671 -0.276786 -0.465 180 126 114
0.361914 -0.284524 -0.478 134 89 83
0.363584 -0.285119 -0.479 136 89 81
0.36785 -0.28631 -0.481 138 91 83
0.370451 -0.286905 -0.482 138 94 85
0.373832 -0.288095 -0.484 140 96 87
0.374754 -0.288095 -0.484 140 96 87
0.385786 -0.292262 -0.491 142 97 91
0.396328 -0.295238 -0.496 144 100 97
0.397272 -0.295238 -0.496 143 99 96
0.400771 -0.296429 -0.498 146 101 95
0.406049 -0.298214 -0.501 148 108 100
0.429205 -0.310119 -0.521 167 165 179
0.434326 -0.313095 -0.526 175 174 188
1.14238 -0.374405 -0.629 205 207 194
0.0865543 -0.354703 -0.594 193 152 146
0.0931667 -0.333803 -0.559 198 140 136
0.108357 -0.331414 -0.555 194 139 132
0.113438 -0.330817 -0.554 190 136 126
0.120825 -0.330817 -0.554 178 121 110
0.14526 -0.33858 -0.567 141 92 85
0.146598 -0.339177 -0.568 137 88 81
0.159357 -0.343357 -0.575 126 83 77
0.160731 -0.343954 -0.576 127 84 78
0.164592 -0.345149 -0.578 125 81 78
0.167371 -0.346343 -0.58 123 82 78
0.189651 -0.357091 -0.598 118 84 85
0.221532 -0.368437 -0.617 121 121 147
0.287234 -0.293794 -0.492 171 121 112
0.28836 -0.290211 -0.486 175 117 106
0.291783 -0.289017 -0.484 176 118 107
0.303717 -0.287226 -0.481 177 119 107
0.311034 -0.283046 -0.474 187 131 118
0.311279 -0.282449 -0.473 185 129 116
0.31152 -0.281851 -0.472 184 131 117
0.315571 -0.280657 -0.47 182 129 115
0.330987 -0.277074 -0.464 190 134 121
0.33629 -0.277074 -0.464 181 128 114
0.340557 -0.277671 -0.465 172 119 105
0.34706 -0.28006 -0.469 156 104 90
0.388446 -0.293794 -0.492 142 99 90
0.39902 -0.29678 -0.497 146 99 91
0.4182 -0.304543 -0.51 159 142 148
0.0883143 -0.336665 -0.562 193 145 133
0.0949552 -0.33367 -0.557 196 143 135
0.10008 -0.33307 -0.556 197 144 136
0.102014 -0.332471 -0.555 195 142 134
0.108162 -0.331872 -0.554 195 140 133
0.11977 -0.331872 -0.554 181 125 112
0.127615 -0.33307 -0.556 165 107 93
0.133867 -0.335467 -0.56 154 98 85
0.138873 -0.337264 -0.563 149 97 86
0.14418 -0.33966 -0.567 140 91 84
0.158537 -0.345051 -0.576 128 85 79
0.159634 -0.345051 -0.576 128 85 79
0.169057 -0.348646 -0.582 123 82 78
0.173271 -0.350443 -0.585 122 81 77
0.18211 -0.354636 -0.592 123 84 79
0.185611 -0.357032 -0.596 122 84 81
0.221532 -0.369612 -0.617 109 112 145
0.28826 -0.297727 -0.497 180 132 128
0.29486 -0.28934 -0.483 176 118 107
0.321762 -0.279156 -0.466 187 134 120
0.32265 -0.279156 -0.466 189 133 120
0.327271 -0.278557 -0.465 189 131 117
0.328157 -0.278557 -0.465 189 131 117
0.333638 -0.277958 -0.464 187 129 117
0.340557 -0.278557 -0.465 171 118 104
0.34469 -0.279755 -0.467 161 108 92
0.358587 -0.285147 -0.476 134 91 84
0.37306 -0.28934 -0.483 141 97 88
0.38157 -0.292335 -0.488 142 98 89
