ply
format ascii 1.0
comment Created by Open3D
element vertex 1285
property double x
property double y
property double z
property uchar red
property uchar green
property uchar blue
end_header
0.46244 -0.35332 -0.462 177 139 116
0.46308 -0.347202 -0.454 178 139 110
0.464143 -0.344143 -0.45 182 141 111
0.467049 -0.33879 -0.443 181 138 106
0.475374 -0.33573 -0.439 175 130 97
0.475126 -0.334966 -0.438 176 131 98
0.490396 -0.333436 -0.436 171 123 85
0.496515 -0.334201 -0.437 166 118 80
0.49818 -0.334201 -0.437 159 114 81
0.0277114 -0.4209 -0.549 196 152 123
0.0355 -0.4025 -0.525 202 157 126
0.0490286 -0.398667 -0.52 202 159 125
0.0607971 -0.3979 -0.519 194 151 117
0.0658667 -0.398667 -0.52 192 146 112
0.08096 -0.4048 -0.528 176 125 98
0.0912048 -0.410167 -0.535 172 120 96
0.0935914 -0.4117 -0.537 165 119 96
0.0987743 -0.4163 -0.543 155 109 93
0.100176 -0.417833 -0.545 150 108 96
0.123661 -0.438533 -0.572 91 87 88
0.130198 -0.438533 -0.572 157 156 162
0.138671 -0.437767 -0.571 177 183 197
0.465046 -0.4462 -0.582 188 193 213
0.48335 -0.387933 -0.506 158 130 118
0.461439 -0.353433 -0.461 178 141 115
0.46219 -0.352667 -0.46 178 141 114
0.461926 -0.351133 -0.458 176 139 112
0.464454 -0.3427 -0.447 179 138 108
0.465306 -0.3427 -0.447 179 138 108
0.46914 -0.3381 -0.441 181 138 106
0.473702 -0.336567 -0.439 176 131 98
0.474538 -0.336567 -0.439 174 129 96
0.476538 -0.335033 -0.437 179 135 100
0.479035 -0.335033 -0.437 178 132 98
0.492057 -0.334267 -0.436 170 122 84
0.506313 -0.336567 -0.439 142 106 74
0.50715 -0.336567 -0.439 143 107 75
0.51198 -0.3381 -0.441 138 104 76
0.51599 -0.339633 -0.443 137 104 73
0.02926 -0.41426 -0.539 191 150 120
0.03174 -0.406574 -0.529 193 152 122
0.0460571 -0.399657 -0.52 202 157 124
0.0499229 -0.398889 -0.519 202 159 125
0.0617857 -0.398889 -0.519 195 151 116
0.0668571 -0.399657 -0.52 189 143 109
0.0700971 -0.401194 -0.522 179 129 102
0.12475 -0.439623 -0.572 107 105 110
0.139514 -0.438086 -0.57 144 150 166
0.155257 -0.439623 -0.572 162 179 205
0.477606 -0.382749 -0.498 158 129 115
0.472763 -0.377369 -0.491 159 130 114
0.463623 -0.347394 -0.452 180 141 112
0.463286 -0.345857 -0.45 183 142 114
0.467049 -0.340477 -0.443 181 138 106
0.467678 -0.339709 -0.442 179 136 104
0.47877 -0.335097 -0.436 179 133 99
0.482643 -0.334329 -0.435 173 127 91
0.4901 -0.334329 -0.435 170 122 84
0.493414 -0.334329 -0.435 167 119 81
0.503491 -0.336634 -0.438 147 109 73
0.529916 -0.347394 -0.452 133 100 69
0.0334362 -0.40373 -0.524 198 155 123
0.04498 -0.399877 -0.519 202 157 124
0.0537733 -0.399107 -0.518 201 157 122
0.0598086 -0.399877 -0.519 194 149 116
0.0679781 -0.401418 -0.521 186 137 107
0.0765 -0.4045 -0.525 179 130 100
0.0776476 -0.40527 -0.526 178 129 99
0.0821209 -0.407582 -0.529 182 132 105
0.123661 -0.440712 -0.572 109 106 117
0.135409 -0.439942 -0.571 180 183 192
0.150635 -0.439942 -0.571 200 204 213
0.156886 -0.439171 -0.57 173 193 220
0.467715 -0.370599 -0.481 161 128 109
0.465643 -0.367517 -0.477 165 133 112
0.46179 -0.357501 -0.464 171 135 109
0.46219 -0.354419 -0.46 177 140 113
0.461926 -0.352878 -0.458 180 141 112
0.461646 -0.351337 -0.456 178 139 110
0.464454 -0.344403 -0.447 178 137 107
0.469752 -0.33901 -0.44 182 137 104
0.473702 -0.338239 -0.439 177 132 99
0.473457 -0.337469 -0.438 177 132 99
0.494243 -0.335157 -0.435 166 118 82
0.50516 -0.337469 -0.438 147 109 73
0.0298371 -0.410134 -0.531 194 153 125
0.0362219 -0.40241 -0.521 201 157 130
0.0410257 -0.400866 -0.519 205 162 130
0.0587067 -0.400093 -0.518 196 151 122
0.0786495 -0.406272 -0.526 180 131 101
0.0900171 -0.412451 -0.534 170 120 95
0.0912048 -0.413224 -0.535 170 120 95
0.0923962 -0.413996 -0.536 164 117 97
0.119971 -0.440257 -0.57 102 92 91
0.135171 -0.440257 -0.57 177 181 193
0.152543 -0.440257 -0.57 155 167 193
0.156886 -0.440257 -0.57 174 195 224
0.478565 -0.385418 -0.499 158 129 113
0.461646 -0.352206 -0.456 176 139 112
0.462367 -0.351433 -0.455 180 140 115
0.464919 -0.34371 -0.445 177 136 106
0.467238 -0.339848 -0.44 179 136 104
0.471193 -0.339075 -0.439 181 136 103
0.474291 -0.338303 -0.438 179 134 101
0.476278 -0.336758 -0.436 179 134 101
0.48236 -0.335213 -0.434 176 127 94
0.48484 -0.335213 -0.434 174 125 92
0.486493 -0.335213 -0.434 171 122 89
0.499531 -0.336758 -0.436 151 110 78
0.500362 -0.336758 -0.436 149 108 76
0.502342 -0.33753 -0.437 149 108 76
0.51282 -0.34062 -0.441 136 101 71
0.530777 -0.349116 -0.452 135 100 68
0.0262771 -0.418889 -0.541 193 152 122
0.0371429 -0.402629 -0.52 201 157 128
0.05772 -0.40108 -0.518 198 152 118
0.09774 -0.420437 -0.543 144 106 95
0.13385 -0.440569 -0.569 159 165 181
0.491067 -0.449086 -0.58 148 167 184
0.473726 -0.380949 -0.492 158 129 113
0.471769 -0.378626 -0.489 160 129 111
0.468789 -0.374754 -0.484 161 130 110
0.461677 -0.358494 -0.463 171 135 113
0.46156 -0.35772 -0.462 171 135 111
0.461314 -0.356171 -0.46 173 137 113
0.462762 -0.349977 -0.452 180 140 114
0.463456 -0.349203 -0.451 178 139 110
0.467678 -0.342234 -0.442 180 136 107
0.471789 -0.339137 -0.438 179 134 101
0.473457 -0.339137 -0.438 178 133 100
0.474041 -0.338363 -0.437 180 135 102
0.497557 -0.336814 -0.435 156 113 79
0.500362 -0.337589 -0.436 151 111 76
0.502023 -0.337589 -0.436 149 109 74
0.504007 -0.338363 -0.437 148 109 76
0.504839 -0.338363 -0.437 148 109 76
0.515667 -0.342234 -0.442 135 99 67
0.673734 -0.434374 -0.561 204 204 194
0.0278143 -0.412157 -0.531 196 153 121
0.0286629 -0.409829 -0.528 198 155 123
0.0351619 -0.403619 -0.52 201 158 124
0.03996 -0.402067 -0.518 203 158 125
0.0487457 -0.40129 -0.517 202 159 125
0.06068 -0.402067 -0.518 192 146 113
0.0710914 -0.405171 -0.522 185 138 110
0.0765 -0.4075 -0.525 184 135 105
0.0864771 -0.412157 -0.531 172 125 99
0.0876533 -0.412933 -0.532 170 122 99
0.0900171 -0.414486 -0.534 166 118 95
0.101586 -0.424576 -0.547 131 102 96
0.137102 -0.441652 -0.569 118 131 165
0.142521 -0.441652 -0.569 202 209 215
0.469266 -0.449414 -0.579 207 203 200
0.472574 -0.449414 -0.579 211 211 221
0.46777 -0.374124 -0.482 163 132 112
0.463374 -0.365586 -0.471 168 133 111
0.46156 -0.3586 -0.462 173 137 111
0.461926 -0.355495 -0.458 173 136 109
0.462215 -0.35239 -0.454 181 141 115
0.462762 -0.350838 -0.452 179 139 113
0.463967 -0.34851 -0.449 179 140 111
0.463787 -0.347733 -0.448 179 140 111
0.465994 -0.343076 -0.442 180 139 109
0.472376 -0.339195 -0.437 176 133 101
0.473209 -0.339195 -0.437 179 134 103
0.476014 -0.337643 -0.435 178 132 99
0.49228 -0.336867 -0.434 165 120 81
0.498386 -0.337643 -0.435 156 113 78
0.502023 -0.338419 -0.436 151 108 73
0.0295 -0.4085 -0.525 199 156 124
0.0753562 -0.407722 -0.524 186 137 105
0.12518 -0.442736 -0.569 55 69 95
0.126264 -0.442736 -0.569 74 88 114
0.137943 -0.441958 -0.568 182 190 211
0.143352 -0.441958 -0.568 208 213 219
0.152008 -0.441958 -0.568 133 154 183
0.154171 -0.441958 -0.568 152 177 208
0.157417 -0.441958 -0.568 178 195 221
0.475883 -0.450517 -0.579 133 149 174
0.476986 -0.450517 -0.579 114 146 184
0.468789 -0.376598 -0.484 161 130 110
0.46452 -0.368817 -0.474 168 136 113
0.462597 -0.350921 -0.451 178 139 110
0.462933 -0.348587 -0.448 179 138 110
0.463787 -0.348587 -0.448 179 138 110
0.467238 -0.342362 -0.44 177 134 102
0.469521 -0.341584 -0.439 183 140 106
0.470954 -0.340806 -0.438 181 136 105
0.470711 -0.340028 -0.437 180 135 104
0.482898 -0.336915 -0.433 174 126 90
0.489496 -0.336915 -0.433 165 120 79
0.49476 -0.337693 -0.434 162 117 76
0.5017 -0.338471 -0.435 152 112 76
0.519691 -0.345474 -0.444 134 101 70
0.52608 -0.348587 -0.448 134 101 70
0.03126 -0.40638 -0.521 200 155 124
0.0321905 -0.4056 -0.52 200 155 124
0.0341057 -0.40482 -0.519 201 155 122
0.0496343 -0.40248 -0.516 202 157 124
0.06574 -0.40482 -0.519 184 135 105
0.0720857 -0.40716 -0.522 185 135 108
0.0785 -0.4095 -0.525 185 136 106
0.0796514 -0.41028 -0.526 183 134 104
0.0922238 -0.4173 -0.535 160 112 89
0.1161 -0.44226 -0.567 44 43 51
0.121929 -0.44382 -0.569 97 98 116
0.123012 -0.44382 -0.569 77 89 115
0.131451 -0.44304 -0.568 106 125 158
0.132533 -0.44304 -0.568 91 110 143
0.136861 -0.44304 -0.568 159 178 211
0.145516 -0.44304 -0.568 209 214 220
0.14768 -0.44304 -0.568 210 215 221
0.462108 -0.36426 -0.467 169 134 114
0.462429 -0.351 -0.45 178 138 112
0.462933 -0.34944 -0.448 177 136 108
0.462751 -0.34866 -0.447 178 137 109
0.471544 -0.34086 -0.437 178 135 103
0.472956 -0.34008 -0.436 178 133 102
0.484548 -0.33774 -0.433 172 126 90
0.0248733 -0.416755 -0.533 195 154 122
0.0292752 -0.407372 -0.521 197 152 121
0.03114 -0.405809 -0.519 200 155 124
0.03404 -0.405027 -0.518 202 156 123
0.0417714 -0.403463 -0.516 202 156 123
0.0495381 -0.402681 -0.515 200 155 122
0.0516 -0.403463 -0.516 199 154 121
0.0545486 -0.403463 -0.516 194 149 116
0.0605629 -0.404245 -0.517 191 144 114
0.0961714 -0.422229 -0.54 146 106 98
0.123878 -0.444122 -0.568 52 64 88
0.126042 -0.444122 -0.568 71 88 114
0.1377 -0.44334 -0.567 191 198 214
0.14526 -0.44334 -0.567 212 215 222
0.468744 -0.451159 -0.577 210 216 228
0.478364 -0.451941 -0.578 140 170 206
0.48497 -0.451941 -0.578 128 157 189
0.488127 -0.399553 -0.511 155 126 110
0.46156 -0.36124 -0.462 171 135 111
0.461314 -0.359676 -0.46 171 135 111
0.461646 -0.356549 -0.456 173 137 111
0.462751 -0.349511 -0.447 177 136 108
0.463415 -0.34873 -0.446 178 137 107
0.47012 -0.342474 -0.438 183 138 107
0.476573 -0.339347 -0.434 178 130 94
0.488671 -0.338565 -0.433 168 123 84
0.49197 -0.338565 -0.433 163 118 79
0.49527 -0.338565 -0.433 157 113 78
0.496094 -0.338565 -0.433 155 110 77
0.500547 -0.339347 -0.434 151 112 81
0.51735 -0.345602 -0.442 137 103 75
0.0339743 -0.40523 -0.517 203 158 127
0.0388229 -0.404446 -0.516 201 156 123
0.0554238 -0.403662 -0.515 191 144 114
0.0699629 -0.408365 -0.521 184 135 105
0.0949667 -0.422473 -0.539 151 107 94
0.114614 -0.442852 -0.565 36 28 41
0.115895 -0.443636 -0.566 42 42 54
0.12582 -0.44442 -0.567 82 98 124
0.12798 -0.44442 -0.567 144 158 184
0.13554 -0.44442 -0.567 130 153 184
0.455863 -0.451474 -0.576 207 206 220
0.46105 -0.452258 -0.577 148 161 170
0.465447 -0.452258 -0.577 208 212 223
0.490037 -0.402094 -0.513 155 126 112
0.464358 -0.369958 -0.472 169 134 114
0.461677 -0.362904 -0.463 171 135 111
0.469634 -0.341741 -0.436 182 137 104
0.471295 -0.341741 -0.436 180 135 102
0.494126 -0.338606 -0.432 159 113 80
0.501373 -0.340173 -0.434 152 111 81
0.524581 -0.349579 -0.446 136 103 72
0.052481 -0.404643 -0.515 194 147 117
0.0573857 -0.404643 -0.515 193 144 114
0.0698286 -0.408571 -0.52 185 135 110
0.0785 -0.4125 -0.525 180 133 107
0.0808067 -0.414071 -0.527 180 132 109
0.0829714 -0.414857 -0.528 175 127 104
0.0898486 -0.418786 -0.533 162 116 93
0.0912048 -0.420357 -0.535 157 111 88
0.113337 -0.443143 -0.564 38 32 42
0.12042 -0.4455 -0.567 106 112 124
0.12474 -0.4455 -0.567 68 84 110
0.476614 -0.388929 -0.495 155 128 111
0.471733 -0.383429 -0.488 155 126 110
0.467715 -0.377929 -0.481 161 130 112
0.460777 -0.358286 -0.456 175 138 112
0.463787 -0.352 -0.448 176 137 108
0.464265 -0.350429 -0.446 178 137 107
0.465562 -0.345714 -0.44 179 136 104
0.471295 -0.342571 -0.436 182 136 103
0.474357 -0.341786 -0.435 179 133 99
0.497744 -0.340214 -0.433 153 110 76
0.501373 -0.341 -0.434 152 111 79
0.0210467 -0.424527 -0.539 193 152 120
0.0228 -0.419013 -0.532 191 155 123
0.0245 -0.4135 -0.525 188 152 126
0.02812 -0.407987 -0.518 201 158 126
0.0291067 -0.407987 -0.518 200 157 125
0.0367857 -0.405624 -0.515 201 157 122
0.052379 -0.404836 -0.514 194 147 117
0.0614286 -0.406411 -0.516 187 137 110
0.0763543 -0.412712 -0.524 180 132 109
0.0937657 -0.423739 -0.538 147 105 93
0.13291 -0.445005 -0.565 123 138 161
0.133986 -0.445005 -0.565 101 116 139
0.13829 -0.445005 -0.565 200 207 223
0.140443 -0.445005 -0.565 215 218 225
0.153357 -0.445005 -0.565 159 180 209
0.463543 -0.453669 -0.576 125 132 148
0.478903 -0.453669 -0.576 136 159 191
0.530546 -0.441854 -0.561 152 125 116
0.5005 -0.4135 -0.525 154 126 114
0.466619 -0.376482 -0.478 162 131 111
0.46104 -0.356004 -0.452 175 135 109
0.46431 -0.348128 -0.442 178 134 105
0.471871 -0.342614 -0.435 182 136 103
0.47492 -0.341827 -0.434 180 134 100
0.476023 -0.340251 -0.432 175 129 95
0.476846 -0.340251 -0.432 175 129 95
0.477669 -0.340251 -0.432 176 131 92
0.478491 -0.340251 -0.432 175 130 91
0.480137 -0.340251 -0.432 169 124 85
0.481489 -0.339464 -0.431 171 126 87
0.483951 -0.339464 -0.431 172 127 86
0.488366 -0.340251 -0.432 167 122 81
0.490011 -0.340251 -0.432 166 121 80
0.0253057 -0.411342 -0.521 189 150 121
0.0338429 -0.406605 -0.515 207 162 129
0.0348238 -0.406605 -0.515 206 161 128
0.0367857 -0.406605 -0.515 203 158 125
0.0386724 -0.405815 -0.514 201 157 122
0.0654867 -0.408184 -0.517 185 138 108
0.0687057 -0.409763 -0.519 184 134 109
0.0719476 -0.411342 -0.521 184 137 107
0.0828143 -0.416079 -0.527 175 124 97
0.0874886 -0.419237 -0.531 169 122 102
0.112064 -0.444502 -0.563 69 58 64
0.114614 -0.446081 -0.565 77 70 78
0.122364 -0.44687 -0.566 83 91 110
0.136138 -0.446081 -0.565 166 178 200
0.147976 -0.446081 -0.565 187 195 214
0.459452 -0.453976 -0.575 188 188 190
0.463833 -0.453976 -0.575 128 141 160
0.474786 -0.453976 -0.575 142 163 190
0.504137 -0.454766 -0.576 204 201 208
0.463193 -0.370287 -0.469 165 133 112
0.462751 -0.352917 -0.447 176 135 107
0.46431 -0.34897 -0.442 179 135 106
0.46494 -0.34818 -0.441 178 135 103
0.465562 -0.34739 -0.44 177 136 104
0.466783 -0.345811 -0.438 179 134 103
0.469047 -0.345022 -0.437 181 138 104
0.469634 -0.344232 -0.436 181 136 103
0.471043 -0.343443 -0.435 181 136 103
0.479847 -0.340285 -0.431 170 124 90
0.0261467 -0.40996 -0.518 198 152 119
0.027081 -0.409169 -0.517 199 153 120
0.0289381 -0.407586 -0.515 200 154 121
0.0367143 -0.406794 -0.514 204 158 125
0.0376933 -0.406794 -0.514 202 156 123
0.0464143 -0.406003 -0.513 199 153 119
0.0562952 -0.406794 -0.514 192 145 115
0.0614286 -0.408377 -0.516 190 140 115
0.0645019 -0.409169 -0.517 188 141 113
0.0783505 -0.414709 -0.524 179 129 104
0.0839771 -0.417874 -0.528 173 125 102
0.13912 -0.446366 -0.564 192 198 212
0.145566 -0.446366 -0.564 214 221 231
0.147714 -0.446366 -0.564 191 200 215
0.464929 -0.455071 -0.575 122 139 167
0.468214 -0.455071 -0.575 201 215 224
0.486833 -0.455071 -0.575 160 184 210
0.467657 -0.379886 -0.48 161 132 114
0.460777 -0.360891 -0.456 170 134 108
0.460486 -0.359309 -0.454 171 135 109
0.461197 -0.358517 -0.453 173 136 110
0.460546 -0.355351 -0.449 173 136 109
0.467973 -0.345063 -0.436 182 139 105
0.47465 -0.342689 -0.433 177 131 95
0.478205 -0.341106 -0.431 176 130 96
0.479026 -0.341106 -0.431 174 128 94
0.481489 -0.341106 -0.431 171 125 89
0.489698 -0.341106 -0.431 162 118 79
0.492982 -0.341106 -0.431 159 116 81
0.0189581 -0.426813 -0.538 197 150 122
0.0206562 -0.419673 -0.529 194 149 116
0.0270286 -0.40936 -0.516 200 154 121
0.0405514 -0.40698 -0.513 201 156 123
0.0533581 -0.407773 -0.514 190 140 113
0.0666 -0.410947 -0.518 183 136 108
0.142343 -0.44744 -0.564 210 217 225
0.147714 -0.44744 -0.564 191 201 211
0.149863 -0.44744 -0.564 163 176 195
0.46412 -0.455373 -0.574 82 101 134
0.4674 -0.455373 -0.574 188 205 231
0.47068 -0.455373 -0.574 199 207 218
0.47396 -0.455373 -0.574 174 188 214
0.475628 -0.391113 -0.493 157 128 112
0.463097 -0.37128 -0.468 166 131 111
0.460179 -0.358587 -0.452 173 136 110
0.463886 -0.349067 -0.44 177 136 106
0.476846 -0.34272 -0.432 176 130 94
0.0188524 -0.425452 -0.535 195 148 122
0.029861 -0.408752 -0.514 204 158 124
0.03078 -0.407957 -0.513 204 158 124
0.0317571 -0.407957 -0.513 204 158 124
0.06956 -0.411933 -0.518 188 138 113
0.0954952 -0.431019 -0.542 137 104 99
0.116767 -0.44931 -0.565 126 122 121
0.123006 -0.448514 -0.564 104 105 110
0.127303 -0.448514 -0.564 183 178 182
0.145308 -0.447719 -0.563 216 219 224
0.148525 -0.447719 -0.563 169 180 186
0.47396 -0.456467 -0.574 175 187 211
0.476147 -0.456467 -0.574 106 140 177
0.525087 -0.439767 -0.553 155 128 111
0.491971 -0.408752 -0.514 154 127 110
0.475628 -0.392052 -0.493 157 128 110
0.467657 -0.381714 -0.48 163 132 112
0.466619 -0.380124 -0.478 162 131 111
0.460777 -0.362629 -0.456 170 134 108
0.460373 -0.356267 -0.448 172 135 108
0.461716 -0.354676 -0.446 174 135 106
0.461529 -0.353881 -0.445 176 135 107
0.462376 -0.353881 -0.445 176 135 107
0.463469 -0.351495 -0.442 177 136 106
0.46534 -0.34911 -0.439 179 136 104
0.46655 -0.347519 -0.437 182 139 105
0.469386 -0.345929 -0.435 182 139 104
0.46996 -0.345133 -0.434 184 140 105
0.48119 -0.341952 -0.43 171 125 89
0.482829 -0.341952 -0.43 170 124 88
0.486924 -0.341952 -0.43 165 121 84
0.497087 -0.342748 -0.431 150 110 75
0.0250629 -0.411326 -0.516 199 150 118
0.0404724 -0.408137 -0.512 201 155 121
0.0493457 -0.408934 -0.513 190 143 115
0.0522771 -0.408934 -0.513 191 144 116
0.0863143 -0.422486 -0.53 158 115 96
0.0941143 -0.430457 -0.54 137 104 99
0.135656 -0.448791 -0.563 159 166 182
0.142909 -0.447994 -0.562 218 218 226
0.14612 -0.447994 -0.562 197 201 204
0.149331 -0.447994 -0.562 157 172 195
0.464403 -0.456763 -0.573 95 115 140
0.481613 -0.45756 -0.574 67 113 175
0.466551 -0.380237 -0.477 161 130 110
0.463097 -0.373063 -0.468 166 134 113
0.46002 -0.359511 -0.451 172 135 108
0.462627 -0.352337 -0.442 177 136 106
0.463886 -0.350743 -0.44 177 136 106
0.474093 -0.34596 -0.434 178 134 99
0.477384 -0.343569 -0.431 176 130 94
0.478733 -0.342771 -0.43 175 130 91
0.479552 -0.342771 -0.43 174 129 90
0.491838 -0.342771 -0.43 157 113 76
0.0187467 -0.425093 -0.532 190 140 113
0.0326705 -0.409112 -0.512 206 157 124
0.04234 -0.408313 -0.511 200 154 120
0.0643771 -0.412309 -0.516 193 143 118
0.0705467 -0.413907 -0.518 189 142 114
0.0739324 -0.416304 -0.521 183 133 108
0.0942886 -0.432285 -0.541 136 105 100
0.12471 -0.449065 -0.562 140 136 135
0.141838 -0.449065 -0.562 194 204 229
0.454876 -0.457055 -0.572 209 208 206
0.484049 -0.457854 -0.573 132 166 204
0.489506 -0.457854 -0.573 164 184 209
0.521383 -0.437878 -0.548 155 126 112
0.4958 -0.413907 -0.518 155 126 112
0.483359 -0.401921 -0.503 154 125 111
0.47854 -0.397127 -0.497 155 126 112
0.464181 -0.375552 -0.47 166 131 111
0.459621 -0.362768 -0.454 171 134 108
0.461529 -0.355576 -0.445 173 134 105
0.46655 -0.349184 -0.437 182 139 105
0.469386 -0.347586 -0.435 182 139 104
0.477914 -0.34359 -0.43 175 130 89
0.480889 -0.342791 -0.429 169 124 83
0.491511 -0.342791 -0.429 155 113 75
0.0326705 -0.410088 -0.512 205 156 123
0.0442867 -0.409287 -0.511 200 154 120
0.0591171 -0.410889 -0.513 193 142 115
0.0760629 -0.418097 -0.522 179 133 109
0.089 -0.427709 -0.534 148 109 94
0.0901857 -0.42851 -0.535 145 106 91
0.140517 -0.449334 -0.561 150 164 190
0.152271 -0.449334 -0.561 103 141 188
0.460324 -0.458145 -0.572 216 221 224
0.473398 -0.458145 -0.572 119 156 208
0.477756 -0.458145 -0.572 56 101 168
0.523286 -0.440524 -0.55 153 125 113
0.515753 -0.433315 -0.541 155 127 113
0.490073 -0.409287 -0.511 155 126 112
0.48432 -0.40368 -0.504 155 126 112
0.464271 -0.377249 -0.471 165 130 110
0.46002 -0.36123 -0.451 169 134 106
0.460681 -0.356424 -0.445 172 133 104
0.461529 -0.356424 -0.445 172 133 104
0.4741 -0.34521 -0.431 177 133 96
0.475742 -0.34521 -0.431 178 133 94
0.484659 -0.342808 -0.428 167 124 82
0.501531 -0.346011 -0.432 146 107 74
0.516348 -0.351618 -0.439 133 99 62
0.0149143 -0.433543 -0.54 195 148 118
0.0202657 -0.416683 -0.519 192 146 113
0.0212133 -0.41588 -0.518 195 146 114
0.0277943 -0.411063 -0.512 199 149 114
0.0326067 -0.41026 -0.511 205 157 121
0.0403933 -0.41026 -0.511 201 152 119
0.0600943 -0.411866 -0.513 193 144 112
0.0642524 -0.413471 -0.515 192 141 112
0.0673257 -0.414274 -0.516 191 142 112
0.0917162 -0.431937 -0.538 140 104 90
0.110794 -0.451206 -0.562 102 93 94
0.124489 -0.450403 -0.561 175 169 169
0.125557 -0.450403 -0.561 170 165 162
0.136243 -0.450403 -0.561 181 192 210
0.159751 -0.450403 -0.561 190 210 237
0.473398 -0.459234 -0.572 115 152 207
0.479935 -0.459234 -0.572 58 102 163
0.485281 -0.405443 -0.505 157 125 110
0.464271 -0.378146 -0.471 166 131 111
0.462893 -0.374131 -0.466 164 132 111
0.462674 -0.372526 -0.464 164 129 107
0.462317 -0.370117 -0.461 167 131 107
0.460714 -0.361286 -0.45 169 134 106
0.460197 -0.358877 -0.447 171 132 103
0.462183 -0.356469 -0.444 172 131 101
0.465114 -0.351651 -0.438 177 134 102
0.467729 -0.349243 -0.435 180 136 101
0.46996 -0.34844 -0.434 183 139 104
0.483029 -0.343623 -0.428 169 125 86
0.516348 -0.352454 -0.439 134 101 70
0.0277943 -0.412038 -0.512 200 150 115
0.0364286 -0.410429 -0.51 203 154 122
0.0422571 -0.410429 -0.51 201 152 119
0.0471143 -0.410429 -0.51 196 150 116
0.05402 -0.411233 -0.511 187 145 107
0.0570514 -0.412038 -0.512 188 144 107
0.0652333 -0.414452 -0.515 188 142 109
0.0737905 -0.418476 -0.52 179 132 104
0.120214 -0.451471 -0.561 165 163 174
0.127694 -0.451471 -0.561 159 157 158
0.140267 -0.450667 -0.56 102 120 144
0.150933 -0.450667 -0.56 97 140 195
0.47257 -0.459519 -0.571 102 138 196
0.476921 -0.459519 -0.571 45 85 155
0.481271 -0.459519 -0.571 65 109 174
0.470681 -0.39031 -0.485 157 126 108
0.46966 -0.3887 -0.483 160 127 108
0.462893 -0.375019 -0.466 164 132 111
0.462674 -0.37341 -0.464 164 129 107
0.46002 -0.362948 -0.451 169 133 107
0.460491 -0.357314 -0.444 170 131 102
0.464885 -0.351681 -0.437 175 134 102
0.468557 -0.350071 -0.435 179 136 102
0.46996 -0.349267 -0.434 180 137 103
0.477095 -0.346048 -0.43 179 134 95
0.476803 -0.345243 -0.429 178 133 94
0.478437 -0.345243 -0.429 173 128 89
0.49839 -0.346048 -0.43 147 108 75
0.0201486 -0.41624 -0.516 198 149 119
0.0219857 -0.41382 -0.513 197 146 115
0.0229629 -0.41382 -0.513 199 146 115
0.0549933 -0.412207 -0.511 190 146 111
0.0590019 -0.413013 -0.512 191 145 109
0.068441 -0.417047 -0.517 187 140 110
0.0795 -0.4235 -0.525 173 128 99
0.110597 -0.45254 -0.561 105 99 101
0.117009 -0.45254 -0.561 156 153 164
0.1264 -0.451733 -0.56 174 170 171
0.130667 -0.451733 -0.56 211 206 212
0.135757 -0.450927 -0.559 202 209 219
0.138951 -0.450927 -0.559 126 132 154
0.4674 -0.4598 -0.57 62 97 153
0.525189 -0.44528 -0.552 145 123 112
0.503457 -0.424307 -0.526 153 126 109
0.472663 -0.393653 -0.488 158 127 109
0.462997 -0.376713 -0.467 164 131 112
0.460486 -0.366227 -0.454 170 133 107
0.46002 -0.363807 -0.451 170 133 107
0.45969 -0.362193 -0.449 170 133 107
0.459833 -0.358967 -0.445 170 130 104
0.460681 -0.358967 -0.445 170 130 104
0.463668 -0.354127 -0.439 175 134 104
0.478437 -0.34606 -0.429 174 129 90
0.479768 -0.345253 -0.428 173 127 91
0.492811 -0.345253 -0.428 154 111 76
0.515171 -0.35332 -0.438 134 99 67
0.0164371 -0.422883 -0.523 198 149 117
0.0229181 -0.413989 -0.512 201 148 117
0.0402352 -0.411563 -0.509 202 153 120
0.0461429 -0.412371 -0.51 195 149 115
0.0471143 -0.412371 -0.51 194 148 114
0.0559667 -0.41318 -0.511 193 147 114
0.0600943 -0.414797 -0.513 191 145 111
0.068441 -0.418031 -0.517 184 139 108
0.0932581 -0.437437 -0.541 132 100 89
0.12 -0.4528 -0.56 124 123 137
0.125333 -0.4528 -0.56 185 185 187
0.136822 -0.451991 -0.559 205 209 221
0.138951 -0.451991 -0.559 157 164 183
0.151729 -0.451991 -0.559 81 120 177
0.449239 -0.460077 -0.569 181 189 200
0.476086 -0.460886 -0.57 36 79 148
0.477171 -0.460886 -0.57 39 82 151
0.481514 -0.460886 -0.57 44 82 145
0.483686 -0.460886 -0.57 58 94 154
0.465342 -0.382454 -0.473 163 130 111
0.462674 -0.375177 -0.464 162 130 109
0.460633 -0.3679 -0.455 169 133 109
0.460334 -0.366283 -0.453 170 132 109
0.459833 -0.359814 -0.445 169 129 103
0.460681 -0.359814 -0.445 169 129 103
0.464651 -0.352537 -0.436 179 136 104
0.465482 -0.352537 -0.436 179 136 104
0.46748 -0.35092 -0.434 180 137 102
0.468052 -0.350111 -0.433 180 137 102
0.470527 -0.350111 -0.433 181 137 100
0.482713 -0.34526 -0.427 167 123 84
0.48434 -0.34526 -0.427 167 123 84
0.505991 -0.350111 -0.433 141 102 69
0.5192 -0.355771 -0.44 133 98 66
0.0136286 -0.429552 -0.53 194 145 113
0.0228733 -0.414153 -0.511 203 148 117
0.032479 -0.412532 -0.509 207 154 122
0.0363571 -0.412532 -0.509 203 153 118
0.0412048 -0.412532 -0.509 201 152 119
0.0500286 -0.413343 -0.51 192 146 112
0.0529429 -0.413343 -0.51 189 143 110
0.0559667 -0.414153 -0.511 193 147 114
0.0651067 -0.416585 -0.514 192 146 113
0.0783505 -0.42469 -0.524 172 127 98
0.113803 -0.454677 -0.561 129 128 134
0.45791 -0.461161 -0.569 208 206 209
0.467664 -0.461161 -0.569 80 114 160
0.473083 -0.461161 -0.569 45 89 150
0.497746 -0.420637 -0.519 151 122 106
0.473631 -0.396323 -0.489 156 127 109
0.471651 -0.393891 -0.486 156 127 109
0.463097 -0.379303 -0.468 162 130 109
0.462674 -0.376061 -0.464 164 129 107
0.461186 -0.372009 -0.459 165 131 106
0.460917 -0.370388 -0.457 167 133 108
0.460486 -0.367956 -0.454 168 132 108
0.46242 -0.35742 -0.441 173 132 104
0.463048 -0.35661 -0.44 173 132 102
0.465243 -0.352557 -0.435 180 137 103
0.470263 -0.350126 -0.432 180 136 99
0.475986 -0.347694 -0.429 178 133 94
0.490033 -0.346073 -0.427 157 115 77
0.497231 -0.347694 -0.429 152 109 75
0.504823 -0.350126 -0.432 139 102 73
0.0153819 -0.42325 -0.521 193 144 112
0.01628 -0.420813 -0.518 195 146 114
0.0218571 -0.414314 -0.51 201 148 116
0.0276314 -0.413502 -0.509 206 153 119
0.028601 -0.413502 -0.509 207 154 120
0.0641276 -0.417564 -0.514 193 147 114
0.0749248 -0.42325 -0.521 177 130 102
0.0920571 -0.438686 -0.54 127 100 91
0.107009 -0.454121 -0.559 96 82 81
0.112533 -0.454933 -0.56 123 124 129
0.12085 -0.454121 -0.559 120 122 135
0.129137 -0.453309 -0.558 206 205 211
0.131263 -0.453309 -0.558 211 211 219
0.140829 -0.453309 -0.558 113 138 168
0.524333 -0.44681 -0.55 150 121 107
0.490086 -0.414314 -0.51 152 123 107
0.484317 -0.408628 -0.503 154 125 109
0.464271 -0.382631 -0.471 162 130 109
0.462893 -0.37857 -0.466 162 130 109
0.462559 -0.376132 -0.463 164 129 107
0.461053 -0.37207 -0.458 166 132 107
0.45952 -0.363947 -0.448 168 133 105
0.462831 -0.356635 -0.439 173 134 103
0.468877 -0.351761 -0.433 180 138 100
0.473 -0.349324 -0.43 181 136 95
0.490847 -0.346887 -0.427 156 114 76
0.498049 -0.348511 -0.429 150 107 73
0.51365 -0.354198 -0.436 133 100 69
0.526457 -0.360697 -0.444 126 97 67
0.0162171 -0.420171 -0.516 193 147 114
0.0256924 -0.414471 -0.509 206 153 121
0.0559667 -0.4161 -0.511 192 146 112
0.0641276 -0.418543 -0.514 194 145 113
0.474415 -0.462514 -0.568 61 105 168
0.460017 -0.363171 -0.446 167 130 103
0.475169 -0.349329 -0.429 176 131 92
0.477322 -0.348514 -0.428 174 129 90
0.479149 -0.346886 -0.426 171 128 86
0.480771 -0.346886 -0.426 169 126 84
0.488074 -0.346886 -0.426 160 115 76
0.492473 -0.3477 -0.427 156 113 78
0.501667 -0.350143 -0.43 135 104 76
0.51566 -0.355843 -0.437 132 99 68
0.0199533 -0.417073 -0.511 201 152 119
0.0314476 -0.414625 -0.508 201 153 117
0.0362857 -0.414625 -0.508 201 152 119
0.0431438 -0.415441 -0.509 199 148 117
0.0440267 -0.414625 -0.508 198 147 116
0.0641276 -0.419522 -0.514 190 144 111
0.0662143 -0.420338 -0.515 185 138 108
0.0705467 -0.422787 -0.518 180 133 103
0.0868029 -0.43503 -0.533 137 105 90
0.11532 -0.455434 -0.558 118 122 134
0.125949 -0.455434 -0.558 172 176 179
0.135271 -0.454618 -0.557 204 206 218
0.45522 -0.46278 -0.567 217 217 217
0.52052 -0.44564 -0.546 148 120 106
0.46156 -0.37708 -0.462 163 128 106
0.460179 -0.368918 -0.452 167 131 105
0.459454 -0.361572 -0.443 170 131 102
0.46221 -0.359124 -0.44 174 135 104
0.462611 -0.357491 -0.438 176 135 103
0.462388 -0.356675 -0.437 175 134 102
0.465827 -0.354227 -0.434 179 136 102
0.471086 -0.352594 -0.432 179 135 98
0.474351 -0.350146 -0.429 180 135 96
0.476207 -0.348513 -0.427 174 129 90
0.478337 -0.347697 -0.426 170 125 84
0.482881 -0.346881 -0.425 166 121 80
0.486929 -0.346881 -0.425 161 116 77
0.5005 -0.350146 -0.429 136 105 77
0.524086 -0.360756 -0.442 126 96 62
0.0208448 -0.41641 -0.509 202 153 121
0.022739 -0.415592 -0.508 204 155 122
0.0295124 -0.415592 -0.508 202 153 120
0.0420914 -0.415592 -0.508 198 149 117
0.0459619 -0.415592 -0.508 193 142 111
0.0568286 -0.417229 -0.51 189 145 110
0.0619276 -0.418865 -0.512 192 146 112
0.0662143 -0.421319 -0.515 184 137 107
0.0737905 -0.42541 -0.52 164 117 89
0.0842952 -0.43359 -0.53 149 112 93
0.0869657 -0.436863 -0.534 137 105 90
0.0881476 -0.437681 -0.535 133 101 86
0.114257 -0.456497 -0.558 123 127 138
0.13291 -0.454861 -0.556 212 216 225
0.140324 -0.454861 -0.556 103 126 160
0.4671 -0.46386 -0.567 184 200 223
0.47574 -0.46386 -0.567 96 147 202
0.487206 -0.413956 -0.506 152 123 107
0.465342 -0.386959 -0.473 163 128 108
0.462786 -0.380414 -0.465 165 129 107
0.46156 -0.37796 -0.462 166 128 105
0.461314 -0.376324 -0.46 166 128 105
0.460917 -0.37387 -0.457 167 130 104
0.45969 -0.367325 -0.449 169 129 104
0.459833 -0.364052 -0.445 171 129 104
0.461142 -0.362416 -0.443 171 130 102
0.461777 -0.358326 -0.438 176 135 105
0.473534 -0.350963 -0.429 181 135 99
0.47702 -0.349327 -0.427 172 127 88
0.477526 -0.348509 -0.426 169 124 85
0.498518 -0.350145 -0.428 147 107 72
0.507291 -0.353417 -0.432 131 97 69
0.520876 -0.359962 -0.44 123 99 65
0.0132686 -0.42312 -0.516 188 143 112
0.0198752 -0.41738 -0.509 202 156 123
0.022739 -0.41656 -0.508 205 156 123
0.0391886 -0.41656 -0.508 200 151 118
0.0469295 -0.41656 -0.508 193 147 114
0.05986 -0.41902 -0.511 194 148 115
0.0716714 -0.42558 -0.519 169 123 97
0.0737905 -0.4264 -0.52 165 119 93
0.0869657 -0.43788 -0.534 134 105 91
0.107687 -0.45674 -0.557 122 113 116
0.112131 -0.45756 -0.558 141 144 153
0.120418 -0.45674 -0.557 158 160 172
0.126556 -0.45592 -0.556 205 206 210
0.461964 -0.46412 -0.566 149 166 176
0.52338 -0.45018 -0.549 147 120 103
0.495828 -0.42394 -0.517 150 123 106
0.4746 -0.4018 -0.49 155 124 106
0.472622 -0.39934 -0.487 156 125 107
0.464271 -0.38622 -0.471 164 127 108
0.45969 -0.36818 -0.449 170 128 104
0.45952 -0.36736 -0.448 168 128 102
0.460017 -0.36572 -0.446 170 130 104
0.459454 -0.36326 -0.443 171 132 101
0.466403 -0.35506 -0.433 177 133 98
0.473767 -0.35014 -0.427 179 133 97
0.48013 -0.34768 -0.424 167 122 83
0.485783 -0.34768 -0.424 162 117 78
0.490167 -0.3485 -0.425 156 113 78
0.492595 -0.3485 -0.425 151 111 75
0.51531 -0.35752 -0.436 125 99 64
0.0113686 -0.426569 -0.519 192 147 118
0.014141 -0.420815 -0.512 191 146 115
0.0198362 -0.417528 -0.508 203 157 124
0.03042 -0.416706 -0.507 201 152 119
0.0343505 -0.417528 -0.508 200 151 118
0.0362857 -0.417528 -0.508 199 150 117
0.0372533 -0.417528 -0.508 199 150 117
0.0410429 -0.416706 -0.507 196 147 114
0.0517676 -0.417528 -0.508 196 147 115
0.052839 -0.41835 -0.509 194 145 113
0.0660857 -0.422459 -0.514 186 139 109
0.0683086 -0.424103 -0.516 185 140 111
0.0760629 -0.429034 -0.522 169 123 99
0.104316 -0.456979 -0.556 102 88 85
0.119143 -0.456979 -0.556 163 164 168
0.12232 -0.456979 -0.556 192 195 200
0.129733 -0.456979 -0.556 207 212 218
0.525287 -0.45287 -0.551 144 123 102
0.497746 -0.426569 -0.519 153 122 104
0.466405 -0.390405 -0.475 169 127 111
0.460334 -0.372323 -0.453 167 127 102
0.45969 -0.369035 -0.449 169 129 103
0.459346 -0.367391 -0.447 167 127 101
0.479322 -0.348488 -0.424 168 124 87
0.484975 -0.348488 -0.424 163 119 82
0.489013 -0.348488 -0.424 155 115 80
0.502951 -0.352597 -0.429 129 100 68
0.519343 -0.359994 -0.438 132 99 66
0.00853238 -0.434148 -0.527 191 146 113
0.02366 -0.417671 -0.507 205 156 123
0.0275229 -0.417671 -0.507 202 153 120
0.0352486 -0.417671 -0.507 200 151 118
0.0410429 -0.417671 -0.507 196 147 114
0.0508 -0.418495 -0.508 199 150 118
0.0760629 -0.430029 -0.522 169 123 100
0.102014 -0.457214 -0.555 93 79 76
0.45469 -0.465452 -0.565 187 200 209
0.48431 -0.413552 -0.502 154 123 105
0.45969 -0.36989 -0.449 168 129 100
0.45952 -0.369067 -0.448 167 128 99
0.46158 -0.3633 -0.441 173 132 100
0.466971 -0.355886 -0.432 178 135 100
0.470543 -0.354238 -0.43 176 132 95
0.47243 -0.35259 -0.428 179 135 98
0.47214 -0.351767 -0.427 180 134 98
0.492244 -0.349295 -0.424 146 110 78
0.0121905 -0.422766 -0.512 197 152 121
0.0207219 -0.417811 -0.506 202 156 122
0.0313238 -0.417811 -0.506 201 152 119
0.0322876 -0.417811 -0.506 201 152 119
0.0371067 -0.417811 -0.506 201 152 120
0.0399981 -0.417811 -0.506 197 148 116
0.0567171 -0.420289 -0.509 197 148 116
0.0715333 -0.42772 -0.518 175 128 102
0.0772048 -0.431849 -0.523 165 120 97
0.0808067 -0.435151 -0.527 155 110 89
0.136653 -0.457446 -0.554 151 166 185
0.138764 -0.457446 -0.554 206 215 230
0.139819 -0.457446 -0.554 216 225 240
0.4633 -0.466529 -0.565 203 210 216
0.505418 -0.435151 -0.527 148 121 104
0.4756 -0.406251 -0.492 152 125 106
0.46219 -0.379829 -0.46 165 128 102
0.459857 -0.371571 -0.45 169 130 101
0.461995 -0.362489 -0.439 172 131 99
0.462388 -0.360837 -0.437 174 133 101
0.463347 -0.35836 -0.434 177 134 100
0.464173 -0.35836 -0.434 175 132 98
0.470513 -0.35258 -0.427 176 132 95
0.479322 -0.350103 -0.424 167 125 87
0.482688 -0.348451 -0.422 158 118 82
0.488666 -0.349277 -0.423 147 111 79
0.492244 -0.350103 -0.424 144 108 76
0.0103 -0.426224 -0.515 190 151 120
0.0274686 -0.418775 -0.506 199 150 117
0.0313238 -0.418775 -0.506 201 152 120
0.035179 -0.418775 -0.506 201 152 120
0.0527352 -0.42043 -0.508 196 150 117
0.0537029 -0.42043 -0.508 195 149 116
0.0608333 -0.422913 -0.511 192 148 113
0.0772048 -0.432845 -0.523 164 119 96
0.0832857 -0.438638 -0.53 144 103 83
0.0846133 -0.440293 -0.532 136 103 86
0.09936 -0.456846 -0.552 105 91 90
0.466405 -0.393119 -0.475 160 127 110
0.463441 -0.383188 -0.463 165 129 105
0.4615 -0.376567 -0.455 166 129 102
0.460334 -0.374911 -0.453 166 129 102
0.459454 -0.366635 -0.443 169 128 96
0.460101 -0.365808 -0.442 171 130 98
0.463586 -0.360014 -0.435 178 135 101
0.463929 -0.358359 -0.433 175 132 98
0.465326 -0.357531 -0.432 176 133 99
0.468086 -0.355876 -0.43 177 134 99
0.468631 -0.355049 -0.429 177 134 99
0.470266 -0.355049 -0.429 177 134 99
0.489118 -0.349255 -0.422 145 109 77
0.00838667 -0.429693 -0.518 192 149 117
0.0111933 -0.423887 -0.511 195 150 117
0.0322876 -0.419739 -0.506 200 151 119
0.0351095 -0.41891 -0.505 200 151 119
0.040881 -0.41891 -0.505 197 148 116
0.0418429 -0.41891 -0.505 195 149 116
0.0437667 -0.41891 -0.505 194 148 115
0.0619276 -0.424716 -0.512 192 146 113
0.0671952 -0.427205 -0.515 179 134 105
0.0704105 -0.428864 -0.517 176 129 103
0.0747809 -0.431352 -0.52 170 125 102
0.0832857 -0.439648 -0.53 140 102 81
0.130322 -0.459556 -0.554 192 199 218
0.45496 -0.467851 -0.564 131 144 161
0.466405 -0.394024 -0.475 160 129 109
0.464181 -0.389876 -0.47 163 128 108
0.461926 -0.379922 -0.458 165 129 103
0.461788 -0.379092 -0.457 165 129 103
0.46104 -0.374945 -0.452 167 130 103
0.460373 -0.371627 -0.448 166 129 100
0.461555 -0.362502 -0.437 174 133 101
0.46299 -0.361672 -0.436 175 135 100
0.463104 -0.359184 -0.433 178 135 101
0.463929 -0.359184 -0.433 176 133 99
0.46507 -0.357525 -0.431 176 133 99
0.469449 -0.355866 -0.429 176 133 98
0.4697 -0.354207 -0.427 177 134 99
0.472657 -0.353377 -0.426 176 132 95
0.473469 -0.353377 -0.426 174 130 93
0.473669 -0.351718 -0.424 169 125 88
0.475284 -0.351718 -0.424 169 125 88
0.489118 -0.350059 -0.422 140 105 77
0.00453429 -0.439826 -0.529 198 149 109
0.0158714 -0.419871 -0.505 197 152 119
0.0168333 -0.419871 -0.505 199 154 121
0.0216429 -0.419871 -0.505 197 151 117
0.0264524 -0.419871 -0.505 200 151 118
0.0379952 -0.419871 -0.505 199 150 118
0.0526314 -0.421534 -0.507 197 151 118
0.07266 -0.431511 -0.519 171 125 101
0.0760629 -0.434006 -0.522 161 116 93
0.0832857 -0.440657 -0.53 138 100 81
0.120607 -0.45978 -0.553 200 201 203
0.129033 -0.45978 -0.553 190 197 205
0.132193 -0.45978 -0.553 122 137 160
0.1343 -0.45978 -0.553 143 158 177
0.46166 -0.468094 -0.563 209 212 219
0.515968 -0.447309 -0.538 146 118 107
0.4746 -0.4074 -0.49 149 123 108
0.46135 -0.377469 -0.454 166 131 103
0.460491 -0.369154 -0.444 167 128 99
0.46507 -0.358346 -0.431 174 134 99
0.466997 -0.356683 -0.429 175 132 97
0.473167 -0.353357 -0.425 173 129 94
0.486355 -0.350031 -0.421 135 101 76
0.488761 -0.350031 -0.421 127 95 70
0.00450857 -0.438333 -0.526 193 148 115
0.02064 -0.42 -0.504 193 149 114
0.02352 -0.42 -0.504 200 156 121
0.0293381 -0.420833 -0.505 198 152 119
0.0341476 -0.420833 -0.505 195 149 116
0.0526314 -0.4225 -0.507 198 149 117
0.0535971 -0.4225 -0.507 197 148 116
0.0681762 -0.429167 -0.515 179 132 102
0.07266 -0.4325 -0.519 170 124 100
0.0785 -0.4375 -0.525 150 109 89
0.0821209 -0.440833 -0.529 139 102 83
0.11218 -0.460833 -0.553 159 154 150
0.131954 -0.46 -0.552 115 131 154
0.45737 -0.469167 -0.563 210 213 222
0.47989 -0.469167 -0.563 160 181 200
0.46648 -0.396667 -0.476 159 126 107
0.4615 -0.379167 -0.455 166 129 103
0.461777 -0.365 -0.438 171 130 98
0.46216 -0.363333 -0.436 172 132 97
0.469119 -0.354167 -0.425 175 133 95
0.471548 -0.354167 -0.425 173 130 95
0.473669 -0.353333 -0.424 167 127 92
0.482449 -0.349167 -0.419 128 99 81
0.52268 -0.365 -0.438 103 87 72
0.00448286 -0.43683 -0.523 190 147 115
0.0129857 -0.421795 -0.505 197 152 119
0.0168 -0.42096 -0.504 201 156 123
0.02064 -0.42096 -0.504 193 149 114
0.02256 -0.42096 -0.504 199 155 120
0.03792 -0.42096 -0.504 196 150 117
0.04272 -0.42096 -0.504 197 151 118
0.0659571 -0.428477 -0.513 184 137 107
0.0969048 -0.459381 -0.55 101 82 88
0.127749 -0.461051 -0.552 183 189 201
0.451206 -0.469404 -0.562 152 166 195
0.456558 -0.469404 -0.562 206 211 214
0.457629 -0.469404 -0.562 209 214 217
0.472622 -0.406761 -0.487 148 126 105
0.465342 -0.395068 -0.473 160 127 108
0.462674 -0.38755 -0.464 163 128 106
0.46206 -0.383374 -0.459 166 128 105
0.460867 -0.372516 -0.446 165 125 99
0.465629 -0.359152 -0.43 177 134 100
0.468073 -0.356647 -0.427 176 136 100
0.4748 -0.3508 -0.42 151 115 89
0.4772 -0.3508 -0.42 141 106 86
0.47766 -0.349965 -0.419 136 101 81
0.484843 -0.349965 -0.419 96 73 59
0.4884 -0.3508 -0.42 89 71 61
0.503491 -0.355811 -0.426 83 66 56
0.510306 -0.358317 -0.429 88 76 64
0.01296 -0.42192 -0.504 197 154 120
0.01392 -0.42192 -0.504 199 156 122
0.020599 -0.421083 -0.503 194 150 115
0.0525276 -0.423594 -0.506 196 151 120
0.0566057 -0.425269 -0.508 194 147 119
0.0586562 -0.426106 -0.509 191 145 111
0.0618067 -0.42778 -0.511 187 141 108
0.06278 -0.42778 -0.511 186 140 107
0.0638781 -0.428617 -0.512 183 138 107
0.0704105 -0.432803 -0.517 173 127 101
0.0785 -0.4395 -0.525 150 108 86
0.0822762 -0.443686 -0.53 133 100 85
0.111977 -0.462103 -0.552 176 178 175
0.124369 -0.461266 -0.551 200 202 215
0.135913 -0.461266 -0.551 225 225 235
0.136963 -0.461266 -0.551 222 222 232
0.44506 -0.469637 -0.561 173 190 208
0.460917 -0.382574 -0.457 167 129 106
0.460777 -0.381737 -0.456 167 129 106
0.460298 -0.370854 -0.443 166 127 98
0.462279 -0.362483 -0.433 173 132 102
0.465633 -0.35746 -0.427 174 134 99
0.4675 -0.355786 -0.425 176 133 99
0.468015 -0.354949 -0.424 173 133 97
0.00150571 -0.442178 -0.527 189 148 116
0.00347333 -0.437144 -0.521 191 150 120
0.00822476 -0.426236 -0.508 196 151 120
0.0177248 -0.422041 -0.503 198 153 120
0.03216 -0.42288 -0.504 198 152 119
0.03504 -0.42288 -0.504 195 149 116
0.0426352 -0.422041 -0.503 198 152 119
0.0545629 -0.425397 -0.507 193 148 119
0.0586562 -0.427075 -0.509 190 144 111
0.06278 -0.428753 -0.511 183 138 107
0.0659571 -0.430431 -0.513 182 137 108
0.0785 -0.4405 -0.525 149 107 85
0.08096 -0.443017 -0.528 141 103 84
0.0822762 -0.444695 -0.53 132 99 84
0.0979524 -0.461476 -0.55 96 83 92
0.104617 -0.463154 -0.552 96 102 116
0.10672 -0.463154 -0.552 131 137 149
0.117022 -0.462315 -0.551 166 166 178
0.131476 -0.461476 -0.55 201 213 227
0.457883 -0.470706 -0.561 193 196 187
0.458951 -0.470706 -0.561 203 206 197
0.522681 -0.457281 -0.545 142 118 108
0.466551 -0.400226 -0.477 152 126 103
0.460917 -0.383445 -0.457 166 130 106
0.460546 -0.376732 -0.449 164 127 100
0.460197 -0.375054 -0.447 165 128 99
0.462911 -0.359951 -0.429 173 130 98
0.469329 -0.354917 -0.423 164 125 96
0.472871 -0.351561 -0.419 110 87 73
0.493572 -0.353239 -0.421 46 30 31
-0.000502857 -0.444023 -0.528 192 146 113
0.00345333 -0.435613 -0.518 192 151 123
0.0186457 -0.422158 -0.502 199 153 120
0.0205581 -0.422158 -0.502 199 153 120
0.0320962 -0.422999 -0.503 199 153 120
0.0359286 -0.422999 -0.503 196 150 117
0.039761 -0.422999 -0.503 196 150 117
0.0435933 -0.422999 -0.503 198 152 118
0.0456 -0.42384 -0.504 196 150 117
0.0495381 -0.424681 -0.505 194 148 115
0.0534914 -0.425522 -0.506 194 149 116
0.08096 -0.444023 -0.528 139 102 84
0.114923 -0.463365 -0.551 135 137 152
0.128333 -0.462524 -0.55 190 203 212
0.456814 -0.471774 -0.561 187 189 186
0.484597 -0.471774 -0.561 201 203 215
0.475533 -0.412067 -0.49 150 123 106
0.461186 -0.385997 -0.459 163 129 104
0.460373 -0.376747 -0.448 163 126 99
0.460197 -0.375906 -0.447 163 126 97
0.460491 -0.373383 -0.444 166 129 100
0.460298 -0.372542 -0.443 167 130 101
0.46074 -0.37086 -0.441 167 130 101
0.460323 -0.369178 -0.439 167 130 101
0.460499 -0.366655 -0.436 169 130 101
0.463729 -0.360769 -0.429 170 129 99
0.465633 -0.359087 -0.427 166 127 98
0.471921 -0.354041 -0.421 124 97 78
0.47652 -0.351518 -0.418 61 47 44
0.0147914 -0.422271 -0.501 195 148 118
0.0157457 -0.422271 -0.501 197 150 120
0.0292219 -0.423957 -0.503 199 153 120
0.0435933 -0.423957 -0.503 198 152 119
0.0474257 -0.423957 -0.503 194 149 116
0.0555286 -0.427329 -0.507 190 145 112
0.0586562 -0.429014 -0.509 187 142 111
0.0596257 -0.429014 -0.509 186 141 110
0.0704105 -0.435757 -0.517 169 125 98
0.131237 -0.462729 -0.549 214 221 231
0.445333 -0.472 -0.56 107 138 184
0.454933 -0.472 -0.56 190 191 193
0.458133 -0.472 -0.56 210 212 207
0.4624 -0.472 -0.56 188 193 197
0.48994 -0.472843 -0.561 199 202 209
0.460681 -0.375071 -0.445 165 128 99
0.462607 -0.363271 -0.431 169 128 98
0.466611 -0.355686 -0.422 135 105 81
0.472871 -0.353157 -0.419 59 44 41
0.477316 -0.352314 -0.418 37 27 28
0.486074 -0.352314 -0.418 34 25 26
0.491228 -0.353157 -0.419 29 27 28
0.49796 -0.355686 -0.422 30 26 27
0.00437143 -0.430829 -0.51 190 149 121
0.0195629 -0.423226 -0.501 197 151 118
0.0396819 -0.42407 -0.502 198 152 119
0.0425505 -0.42407 -0.502 196 152 117
0.0555286 -0.428294 -0.507 189 144 113
0.0659571 -0.433363 -0.513 176 131 102
0.0670648 -0.434208 -0.514 174 129 100
0.0681762 -0.435052 -0.515 173 129 100
0.0786495 -0.444345 -0.526 139 103 81
0.105286 -0.464619 -0.55 50 64 91
0.108429 -0.464619 -0.55 97 106 135
0.110323 -0.463774 -0.549 138 144 166
0.113667 -0.464619 -0.55 139 151 163
0.13542 -0.463774 -0.549 223 226 233
0.14274 -0.463774 -0.549 156 178 202
0.50843 -0.44519 -0.527 141 118 104
0.466551 -0.402951 -0.477 152 124 103
0.462006 -0.393659 -0.466 158 126 105
0.4619 -0.392814 -0.465 159 127 106
0.46179 -0.39197 -0.464 158 126 103
0.4599 -0.37254 -0.441 166 129 102
0.476174 -0.352266 -0.417 28 23 27
0.481734 -0.352266 -0.417 27 23 24
-0.0025 -0.4445 -0.525 190 146 119
0.00530095 -0.428413 -0.506 195 149 116
0.0147619 -0.423333 -0.5 195 148 118
0.0166667 -0.423333 -0.5 198 153 120
0.0339448 -0.425027 -0.502 198 153 120
0.0377695 -0.425027 -0.502 197 152 119
0.0425505 -0.425027 -0.502 195 151 116
0.055419 -0.428413 -0.506 189 144 113
0.0704105 -0.437727 -0.517 162 118 93
0.0737905 -0.440267 -0.52 155 110 87
0.0750686 -0.44196 -0.522 146 108 89
0.105094 -0.46482 -0.549 47 64 94
0.119734 -0.46482 -0.549 144 161 191
0.127054 -0.46482 -0.549 203 209 221
0.439491 -0.47244 -0.558 111 152 204
0.499767 -0.437727 -0.517 145 118 99
0.46004 -0.367453 -0.434 165 128 101
0.461277 -0.36322 -0.429 156 120 98
0.465004 -0.357293 -0.422 92 73 59
0.4684 -0.3556 -0.42 67 52 47
0.470477 -0.354753 -0.419 46 32 31
0.4865 -0.35306 -0.417 20 24 25
0.489259 -0.353907 -0.418 19 23 24
0.493622 -0.354753 -0.419 24 25 29
0.50836 -0.36068 -0.426 31 28 35
0.0109524 -0.424286 -0.5 195 150 119
0.0224257 -0.425134 -0.501 198 152 119
0.034901 -0.425983 -0.502 199 154 121
0.0358571 -0.425983 -0.502 198 153 120
0.055419 -0.429377 -0.506 189 144 113
0.0660857 -0.436166 -0.514 172 128 103
0.0715333 -0.43956 -0.518 157 115 90
0.07266 -0.440409 -0.519 153 111 87
0.0786495 -0.446349 -0.526 137 100 82
0.0942924 -0.464169 -0.547 90 84 86
0.0998657 -0.465866 -0.549 107 102 106
0.101957 -0.465866 -0.549 90 97 113
0.10699 -0.465017 -0.548 55 78 119
0.114506 -0.465866 -0.549 104 125 156
0.119516 -0.465017 -0.548 119 141 180
0.132042 -0.465017 -0.548 220 225 231
0.135173 -0.465017 -0.548 224 231 239
0.441617 -0.473503 -0.558 61 103 163
0.444806 -0.473503 -0.558 94 136 184
0.447994 -0.473503 -0.558 160 183 215
0.484999 -0.474351 -0.559 175 175 177
0.466551 -0.404769 -0.477 154 121 104
0.458417 -0.375069 -0.442 161 125 101
0.46046 -0.364037 -0.429 146 110 84
0.4653 -0.358946 -0.423 68 53 46
0.485706 -0.353854 -0.417 24 25 27
0.4865 -0.353854 -0.417 24 25 29
0.487294 -0.353854 -0.417 23 24 28
0.49442 -0.355551 -0.419 25 26 30
0.4972 -0.3564 -0.42 26 25 30
0.00526952 -0.42779 -0.503 189 146 114
0.0243343 -0.426089 -0.501 198 152 119
0.0329229 -0.426089 -0.501 198 152 118
0.0474257 -0.42779 -0.503 194 148 114
0.04944 -0.42864 -0.504 193 149 114
0.05136 -0.42864 -0.504 192 148 113
0.122424 -0.46521 -0.547 83 115 162
0.123466 -0.46521 -0.547 107 139 186
0.438704 -0.473715 -0.557 63 112 171
0.452246 -0.474566 -0.558 210 216 214
0.460795 -0.39377 -0.463 156 125 105
0.460438 -0.391219 -0.46 157 126 106
0.460047 -0.388668 -0.457 155 120 100
0.458417 -0.37591 -0.442 160 124 100
0.458019 -0.37421 -0.44 160 126 101
0.4684 -0.3572 -0.42 32 26 28
0.468083 -0.35635 -0.419 31 26 30
0.468558 -0.355499 -0.418 30 28 31
0.469354 -0.355499 -0.418 30 28 31
0.49324 -0.355499 -0.418 24 25 29
-0.00551048 -0.448352 -0.526 190 146 117
-0.0024619 -0.440681 -0.517 190 149 119
-0.00146857 -0.438124 -0.514 191 150 120
0.03006 -0.427043 -0.501 198 152 118
0.0338771 -0.427043 -0.501 200 154 121
0.0463752 -0.427895 -0.502 191 145 112
0.05136 -0.4296 -0.504 192 147 114
0.0605952 -0.433862 -0.509 180 133 103
0.0616857 -0.434714 -0.51 181 136 107
0.0715333 -0.441533 -0.518 156 114 90
0.09882 -0.467957 -0.549 114 108 108
0.101771 -0.467105 -0.548 102 114 128
0.106795 -0.466252 -0.547 45 73 113
0.107837 -0.466252 -0.547 48 79 126
0.123466 -0.466252 -0.547 121 145 181
0.447191 -0.474776 -0.557 174 192 204
0.455679 -0.474776 -0.557 211 215 216
0.478817 -0.475629 -0.558 134 165 193
0.520007 -0.459433 -0.539 134 116 104
0.461314 -0.398914 -0.468 153 122 102
0.461218 -0.398062 -0.467 153 122 102
0.4589 -0.387833 -0.455 150 119 101
0.456923 -0.377605 -0.443 155 120 100
0.458614 -0.370786 -0.435 139 107 92
0.459323 -0.367376 -0.431 125 97 83
0.458826 -0.365671 -0.429 115 89 76
0.462643 -0.362262 -0.425 48 34 31
0.474681 -0.353738 -0.415 22 22 24
0.475471 -0.353738 -0.415 22 22 24
0.476262 -0.353738 -0.415 21 22 26
0.48771 -0.35459 -0.416 26 27 31
0.496016 -0.357148 -0.419 26 27 31
0.4996 -0.358 -0.42 29 28 33
0.506781 -0.36141 -0.424 31 30 35
-0.00548952 -0.447646 -0.524 190 145 116
0.00619048 -0.427143 -0.5 193 150 118
0.10764 -0.46644 -0.546 40 73 124
0.114089 -0.467294 -0.547 90 119 163
0.12116 -0.46644 -0.546 91 120 162
0.447191 -0.475837 -0.557 168 184 199
0.449313 -0.475837 -0.557 193 193 193
0.5162 -0.456189 -0.534 139 115 103
0.4623 -0.40066 -0.469 152 121 101
0.458457 -0.386137 -0.452 160 125 103
0.45729 -0.380157 -0.445 147 114 95
0.45898 -0.369906 -0.433 108 85 77
0.458502 -0.368197 -0.431 100 80 73
0.4642 -0.360509 -0.422 29 26 33
0.466 -0.3588 -0.42 28 23 27
0.470278 -0.355383 -0.416 24 24 26
0.474681 -0.354529 -0.415 22 23 27
0.475471 -0.354529 -0.415 22 23 27
0.47748 -0.353674 -0.414 22 23 27
0.494036 -0.357091 -0.418 27 28 32
0.494832 -0.357091 -0.418 27 28 32
0.00238571 -0.428951 -0.501 194 149 116
0.00901143 -0.426383 -0.498 197 153 118
0.0704105 -0.44265 -0.517 154 113 91
0.0728 -0.445219 -0.52 144 103 81
0.100544 -0.468336 -0.547 131 134 139
0.108481 -0.466624 -0.545 33 70 123
0.113047 -0.468336 -0.547 88 115 162
0.12532 -0.46748 -0.546 208 220 234
0.1274 -0.46748 -0.546 217 220 235
0.449566 -0.476042 -0.556 196 199 204
0.45674 -0.476898 -0.557 203 210 218
0.482203 -0.476898 -0.557 199 203 206
0.485386 -0.476898 -0.557 182 187 190
0.486447 -0.476898 -0.557 147 152 155
0.487508 -0.476898 -0.557 145 154 161
0.45892 -0.39556 -0.462 155 124 104
0.45577 -0.381861 -0.446 146 113 94
0.456343 -0.376724 -0.44 122 95 84
0.456129 -0.372443 -0.435 100 77 71
0.456733 -0.371587 -0.434 92 72 65
0.461024 -0.363881 -0.425 32 26 30
0.461554 -0.363025 -0.424 29 24 28
0.462077 -0.362169 -0.423 27 22 26
0.46489 -0.358744 -0.419 25 23 26
0.467437 -0.357031 -0.417 22 21 26
0.467901 -0.356175 -0.416 24 23 28
0.468693 -0.356175 -0.416 24 23 28
0.47231 -0.355319 -0.415 21 22 26
0.481423 -0.354463 -0.414 23 24 29
0.495629 -0.357888 -0.418 26 27 32
0.502393 -0.360456 -0.421 28 29 34
0.516026 -0.367306 -0.429 34 34 36
-0.00242381 -0.43677 -0.509 193 150 118
