ply
format ascii 1.0
comment Created by Open3D
element vertex 1283
property double x
property double y
property double z
property uchar red
property uchar green
property uchar blue
end_header
0.0864771 -0.367654 -0.531 201 151 126
0.16856 -0.40712 -0.588 68 88 123
0.18169 -0.406428 -0.587 37 69 120
0.185045 -0.406428 -0.587 54 86 143
0.198462 -0.406428 -0.587 62 95 162
0.20328 -0.40712 -0.588 77 107 159
0.36879 -0.410582 -0.593 132 163 210
0.38412 -0.411274 -0.594 192 208 233
0.3859 -0.411967 -0.595 208 213 232
0.404033 -0.411967 -0.595 94 131 202
0.4097 -0.411967 -0.595 94 128 192
0.41947 -0.412659 -0.596 149 169 202
0.422876 -0.412659 -0.596 224 230 242
0.426282 -0.412659 -0.596 182 201 234
0.437231 -0.413351 -0.597 101 148 202
0.456951 -0.414736 -0.599 171 184 203
0.460374 -0.414736 -0.599 165 184 216
0.462656 -0.414736 -0.599 153 174 217
0.466857 -0.415429 -0.6 88 122 183
0.468 -0.415429 -0.6 76 110 171
0.489053 -0.416813 -0.602 172 181 210
0.5025 -0.417506 -0.603 83 123 192
0.499094 -0.393965 -0.569 168 139 131
0.480481 -0.370424 -0.535 179 146 131
0.475009 -0.359346 -0.519 193 152 132
0.47846 -0.352422 -0.509 198 156 132
0.480443 -0.351037 -0.507 192 150 126
0.48619 -0.34619 -0.5 195 151 126
0.49274 -0.344113 -0.497 188 144 115
0.493687 -0.344113 -0.497 185 141 114
0.497473 -0.344113 -0.497 180 139 109
0.60922 -0.402273 -0.581 206 205 201
0.0696743 -0.370749 -0.534 203 156 130
0.0724533 -0.36936 -0.532 206 159 133
0.0734667 -0.36936 -0.532 207 160 134
0.0853048 -0.367971 -0.53 201 151 126
0.0973191 -0.371443 -0.535 184 134 107
0.106654 -0.375609 -0.541 174 117 100
0.110354 -0.377691 -0.544 161 109 96
0.12815 -0.390883 -0.563 126 91 85
0.15288 -0.40824 -0.588 38 48 83
0.177218 -0.407546 -0.587 32 64 121
0.179454 -0.407546 -0.587 25 58 112
0.183613 -0.406851 -0.586 45 77 134
0.20517 -0.407546 -0.587 54 88 152
0.206289 -0.407546 -0.587 56 90 154
0.24248 -0.40824 -0.588 96 136 188
0.24808 -0.40824 -0.588 110 145 199
0.25816 -0.40824 -0.588 221 229 248
0.333774 -0.410323 -0.591 126 151 192
0.371049 -0.411711 -0.593 105 144 201
0.38412 -0.412406 -0.594 171 188 214
0.390433 -0.4131 -0.595 148 160 186
0.391567 -0.4131 -0.595 142 154 180
0.400633 -0.4131 -0.595 93 133 195
0.433093 -0.413794 -0.596 107 147 208
0.434229 -0.413794 -0.596 104 144 205
0.44974 -0.414489 -0.597 157 171 197
0.450877 -0.414489 -0.597 181 180 194
0.471429 -0.416571 -0.6 68 107 182
0.477938 -0.417266 -0.601 67 112 179
0.482173 -0.41796 -0.602 86 122 182
0.49708 -0.41796 -0.602 99 132 183
0.491928 -0.386023 -0.556 169 139 128
0.478115 -0.367277 -0.529 184 147 128
0.477311 -0.365889 -0.527 186 149 130
0.475847 -0.361723 -0.521 189 151 130
0.47508 -0.35964 -0.518 191 150 128
0.475271 -0.357557 -0.515 193 151 129
0.494633 -0.34506 -0.497 182 138 109
0.50126 -0.34506 -0.497 171 130 102
0.0617667 -0.379424 -0.545 201 155 129
0.0723171 -0.369677 -0.531 206 159 133
0.0733286 -0.369677 -0.531 207 160 134
0.0770829 -0.368285 -0.529 207 161 137
0.0842952 -0.368981 -0.53 201 154 128
0.1044 -0.375943 -0.54 171 116 95
0.109117 -0.378031 -0.543 167 108 94
0.118286 -0.384297 -0.552 144 99 93
0.146779 -0.407968 -0.586 23 29 61
0.149266 -0.408664 -0.587 22 35 70
0.155974 -0.408664 -0.587 78 91 123
0.170219 -0.407968 -0.586 55 78 122
0.171335 -0.407968 -0.586 44 73 129
0.180265 -0.407968 -0.586 38 76 138
0.182497 -0.407968 -0.586 37 75 138
0.19031 -0.407968 -0.586 184 196 218
0.192543 -0.407968 -0.586 187 199 225
0.193659 -0.407968 -0.586 178 183 202
0.205937 -0.407968 -0.586 67 96 162
0.210402 -0.407968 -0.586 76 102 163
0.224178 -0.408664 -0.587 145 161 197
0.26712 -0.40936 -0.588 161 176 209
0.348998 -0.412145 -0.592 140 168 218
0.353509 -0.412145 -0.592 175 191 225
0.409011 -0.413537 -0.594 89 127 190
0.422876 -0.41493 -0.596 204 212 225
0.440643 -0.415626 -0.597 82 130 192
0.46722 -0.417018 -0.599 76 108 169
0.493965 -0.41841 -0.601 111 127 152
0.498544 -0.41841 -0.601 69 112 165
0.499689 -0.41841 -0.601 56 99 152
0.5074 -0.419107 -0.602 33 82 151
0.508 -0.417714 -0.6 36 79 147
0.508294 -0.417018 -0.599 31 78 146
0.499547 -0.398221 -0.572 166 139 130
0.47538 -0.357146 -0.513 198 156 134
0.47749 -0.354361 -0.509 196 154 130
0.483346 -0.348791 -0.501 196 151 128
0.0630229 -0.375575 -0.538 202 156 132
0.0685286 -0.372085 -0.533 208 161 135
0.0702943 -0.370689 -0.531 207 160 134
0.0723171 -0.370689 -0.531 207 160 134
0.102153 -0.376273 -0.539 169 115 89
0.117022 -0.38465 -0.551 149 100 93
0.120825 -0.386745 -0.554 142 99 93
0.145414 -0.408386 -0.585 22 30 66
0.153476 -0.409084 -0.586 106 115 154
0.179957 -0.408386 -0.585 53 96 164
0.208929 -0.408386 -0.585 69 97 160
0.215983 -0.409084 -0.586 98 126 189
0.233842 -0.409084 -0.586 149 168 200
0.259957 -0.409782 -0.587 217 226 243
0.334333 -0.411876 -0.59 140 165 219
0.345031 -0.412574 -0.591 95 133 198
0.351253 -0.413272 -0.592 204 221 247
0.351786 -0.412574 -0.591 203 220 246
0.369295 -0.413272 -0.592 130 166 216
0.372678 -0.413272 -0.592 104 149 208
0.377189 -0.413272 -0.592 132 170 219
0.387991 -0.41397 -0.593 223 227 239
0.402223 -0.414669 -0.594 91 126 194
0.409011 -0.414669 -0.594 89 129 190
0.411274 -0.414669 -0.594 133 169 217
0.419194 -0.414669 -0.594 209 216 234
0.4233 -0.415367 -0.595 235 241 253
0.4335 -0.415367 -0.595 104 150 209
0.44104 -0.416065 -0.596 104 151 207
0.452392 -0.416065 -0.596 232 231 245
0.467579 -0.417461 -0.598 78 113 181
0.472925 -0.418159 -0.599 69 108 177
0.491675 -0.419555 -0.601 204 216 230
0.482398 -0.350444 -0.502 199 154 131
0.48804 -0.347651 -0.498 197 153 128
0.4983 -0.345557 -0.495 179 138 106
0.503086 -0.346255 -0.496 171 130 98
0.518948 -0.352538 -0.505 160 123 97
0.0654829 -0.3731 -0.533 207 161 137
0.0730524 -0.3703 -0.529 207 160 134
0.09612 -0.3738 -0.534 184 133 106
0.0973191 -0.3745 -0.535 183 132 105
0.0997286 -0.3759 -0.537 180 126 98
0.106654 -0.3787 -0.541 168 115 97
0.118286 -0.3864 -0.552 147 100 94
0.123823 -0.3906 -0.558 135 94 90
0.156557 -0.4095 -0.585 125 130 152
0.171043 -0.4095 -0.585 53 81 128
0.174386 -0.4095 -0.585 44 73 129
0.193329 -0.4095 -0.585 196 205 222
0.195557 -0.4095 -0.585 191 202 220
0.196671 -0.4095 -0.585 189 200 218
0.215614 -0.4095 -0.585 117 150 217
0.230493 -0.4102 -0.586 212 225 244
0.234958 -0.4102 -0.586 135 164 206
0.236074 -0.4102 -0.586 128 157 199
0.245004 -0.4102 -0.586 129 170 226
0.337705 -0.413 -0.59 101 135 198
0.352911 -0.4137 -0.591 227 233 247
0.365294 -0.4137 -0.591 146 175 215
0.372049 -0.4137 -0.591 111 156 213
0.389121 -0.4151 -0.593 229 236 246
0.39251 -0.4151 -0.593 220 227 245
0.404486 -0.4158 -0.594 93 128 196
0.411274 -0.4158 -0.594 161 195 240
0.422589 -0.4158 -0.594 236 244 255
0.447851 -0.4172 -0.596 204 222 246
0.448987 -0.4172 -0.596 210 228 252
0.451257 -0.4172 -0.596 239 242 249
0.486286 -0.42 -0.6 180 183 188
0.487429 -0.42 -0.6 200 203 208
0.499689 -0.4207 -0.601 76 121 180
0.503123 -0.4207 -0.601 46 95 161
0.508294 -0.4193 -0.599 53 101 167
0.497541 -0.3962 -0.566 170 140 130
0.4944 -0.392 -0.56 168 139 131
0.4862 -0.3822 -0.546 168 140 126
0.484563 -0.3801 -0.543 174 141 126
0.474854 -0.3647 -0.521 189 151 132
0.478511 -0.3549 -0.507 193 151 126
0.484246 -0.3486 -0.498 198 157 129
0.488953 -0.3479 -0.497 192 151 123
0.0759314 -0.370606 -0.528 205 159 133
0.0819657 -0.370606 -0.528 203 156 130
0.1752 -0.409912 -0.584 42 75 126
0.213021 -0.409912 -0.584 72 102 166
0.2223 -0.410614 -0.585 217 226 241
0.225643 -0.410614 -0.585 226 228 249
0.227871 -0.410614 -0.585 228 233 253
0.232329 -0.410614 -0.585 167 185 209
0.2379 -0.410614 -0.585 121 162 216
0.265548 -0.412018 -0.587 204 220 254
0.338254 -0.413422 -0.589 102 132 202
0.347819 -0.414124 -0.59 185 208 240
0.357933 -0.414124 -0.59 203 202 210
0.383306 -0.414826 -0.591 242 246 255
0.388465 -0.415528 -0.592 247 247 255
0.39072 -0.415528 -0.592 205 203 216
0.41397 -0.41623 -0.593 226 244 255
0.429377 -0.416931 -0.594 127 167 216
0.441433 -0.417633 -0.595 120 162 220
0.466797 -0.419037 -0.597 70 110 180
0.494286 -0.421143 -0.6 201 205 217
0.502286 -0.421143 -0.6 62 113 178
0.495976 -0.395172 -0.563 170 140 130
0.489603 -0.38675 -0.551 170 142 128
0.48215 -0.377625 -0.538 177 141 125
0.4797 -0.374115 -0.533 180 144 128
0.47429 -0.361481 -0.515 191 153 134
0.474453 -0.359375 -0.512 199 156 137
0.480485 -0.353058 -0.503 199 157 133
0.492643 -0.347443 -0.495 183 142 112
0.509857 -0.349549 -0.498 162 123 94
0.0591429 -0.380057 -0.54 199 158 138
0.0616524 -0.376538 -0.535 203 157 134
0.0662486 -0.373723 -0.531 208 162 138
0.110354 -0.382872 -0.544 158 109 94
0.115551 -0.386391 -0.549 150 100 89
0.143807 -0.410321 -0.583 28 34 60
0.15184 -0.411025 -0.584 97 106 139
0.152952 -0.411025 -0.584 97 106 139
0.15629 -0.411025 -0.584 140 141 161
0.157402 -0.411025 -0.584 141 143 156
0.158514 -0.411025 -0.584 142 144 157
0.181563 -0.410321 -0.583 83 118 174
0.216358 -0.411025 -0.584 153 181 220
0.2223 -0.411729 -0.585 221 229 242
0.2457 -0.411729 -0.585 139 175 225
0.343864 -0.414544 -0.589 98 134 192
0.347819 -0.415248 -0.59 186 210 244
0.350067 -0.415248 -0.59 222 237 255
0.3658 -0.415248 -0.59 139 164 204
0.375914 -0.415248 -0.59 134 175 219
0.393437 -0.415951 -0.591 201 209 230
0.412145 -0.416655 -0.592 208 226 250
0.428654 -0.417359 -0.593 123 161 208
0.463745 -0.41947 -0.596 108 139 203
0.492321 -0.421582 -0.599 205 212 222
0.496885 -0.421582 -0.599 86 132 192
0.50042 -0.403283 -0.573 169 137 124
0.492812 -0.392022 -0.557 171 141 130
0.48215 -0.37865 -0.538 176 143 128
0.474933 -0.365981 -0.52 189 151 132
0.47952 -0.35472 -0.504 195 153 131
0.486113 -0.349793 -0.497 195 151 126
0.48706 -0.349793 -0.497 195 151 126
0.488914 -0.34909 -0.496 191 150 122
0.490757 -0.348386 -0.495 183 142 112
0.49353 -0.347682 -0.494 183 142 114
0.0606333 -0.377557 -0.535 206 160 137
0.0615371 -0.376851 -0.534 205 159 135
0.0690219 -0.373323 -0.529 204 158 134
0.0818105 -0.371911 -0.527 204 157 131
0.0839771 -0.372617 -0.528 203 156 130
0.0997286 -0.378969 -0.537 174 123 96
0.1044 -0.381086 -0.54 169 117 96
0.118286 -0.389554 -0.552 148 100 90
0.143807 -0.411431 -0.583 31 38 67
0.15047 -0.411431 -0.583 70 76 108
0.15158 -0.411431 -0.583 81 91 126
0.158243 -0.411431 -0.583 148 150 165
0.168526 -0.412137 -0.584 67 91 135
0.170458 -0.411431 -0.583 79 108 152
0.177121 -0.411431 -0.583 90 131 183
0.185686 -0.410726 -0.582 187 190 207
0.196335 -0.412137 -0.584 186 195 212
0.215988 -0.411431 -0.583 149 174 214
0.22192 -0.412137 -0.584 226 232 246
0.263529 -0.412843 -0.585 203 213 238
0.267986 -0.412843 -0.585 115 143 190
0.34104 -0.41496 -0.588 105 134 192
0.346108 -0.415666 -0.589 131 164 217
0.361814 -0.415666 -0.589 230 239 248
0.36518 -0.415666 -0.589 144 168 206
0.366302 -0.415666 -0.589 154 190 238
0.372543 -0.416371 -0.59 141 177 227
0.37479 -0.416371 -0.59 153 194 238
0.379286 -0.416371 -0.59 190 217 247
0.402443 -0.417077 -0.591 125 159 220
0.40582 -0.417077 -0.591 98 134 196
0.406946 -0.417077 -0.591 98 136 201
0.415528 -0.417783 -0.592 200 203 218
0.41891 -0.417783 -0.592 239 242 255
0.435431 -0.418489 -0.593 101 148 204
0.44748 -0.419194 -0.594 231 239 255
0.472483 -0.421311 -0.597 64 104 173
0.500308 -0.422723 -0.599 80 126 185
0.50042 -0.404374 -0.573 170 138 125
0.49734 -0.40014 -0.567 173 139 129
0.487981 -0.386731 -0.548 171 143 129
0.481379 -0.378263 -0.536 176 142 130
0.475681 -0.369089 -0.523 183 146 128
0.474543 -0.359914 -0.51 191 150 128
0.481416 -0.352151 -0.499 191 149 125
0.48608 -0.350034 -0.496 193 149 124
0.494409 -0.347917 -0.493 182 141 111
0.505843 -0.349329 -0.495 172 128 101
0.054541 -0.393436 -0.556 201 156 133
0.0558438 -0.387775 -0.548 198 156 132
0.0905229 -0.375746 -0.531 184 137 111
0.100751 -0.379991 -0.537 173 121 99
0.101964 -0.380699 -0.538 169 117 95
0.10318 -0.381407 -0.539 169 117 96
0.115551 -0.388483 -0.549 150 100 91
0.124267 -0.396267 -0.56 133 94 89
0.142451 -0.411834 -0.582 49 58 89
0.155754 -0.411834 -0.582 143 141 165
0.15908 -0.411834 -0.582 152 150 163
0.167127 -0.412542 -0.583 88 91 106
0.194889 -0.412542 -0.583 201 212 230
0.19788 -0.411834 -0.582 95 115 148
0.198989 -0.411834 -0.582 89 119 169
0.20564 -0.411834 -0.582 108 140 189
0.207857 -0.411834 -0.582 140 169 209
0.208966 -0.411834 -0.582 132 158 207
0.219319 -0.412542 -0.583 193 207 242
0.280243 -0.413957 -0.585 126 157 204
0.34552 -0.41608 -0.588 117 149 198
0.373033 -0.416788 -0.589 146 183 225
0.379286 -0.417495 -0.59 200 224 252
0.391648 -0.417495 -0.59 168 182 208
0.395689 -0.418203 -0.591 121 137 170
0.401317 -0.418203 -0.591 118 154 204
0.412574 -0.418203 -0.591 163 180 206
0.415528 -0.41891 -0.592 219 227 240
0.430187 -0.41891 -0.592 140 182 230
0.449743 -0.420326 -0.594 237 240 245
0.457663 -0.420326 -0.594 188 192 203
0.466367 -0.421033 -0.595 74 119 178
0.478169 -0.422449 -0.597 136 153 179
0.479306 -0.422449 -0.597 143 160 186
0.492638 -0.423156 -0.598 207 211 220
0.493777 -0.423156 -0.598 185 192 208
0.50175 -0.423156 -0.598 104 144 196
0.478115 -0.37433 -0.529 181 144 128
0.484246 -0.352394 -0.498 197 153 128
0.489713 -0.348856 -0.493 184 140 111
0.494343 -0.348149 -0.492 184 140 111
0.0593914 -0.378176 -0.533 206 161 138
0.0613067 -0.377467 -0.532 201 156 133
0.0716362 -0.37321 -0.526 205 159 135
0.0828143 -0.373919 -0.527 202 154 131
0.0838181 -0.373919 -0.527 198 150 127
0.0848219 -0.373919 -0.527 193 146 120
0.0951029 -0.378886 -0.534 176 124 102
0.101964 -0.381724 -0.538 171 121 98
0.144917 -0.413652 -0.583 55 61 93
0.164623 -0.412943 -0.582 112 109 116
0.186794 -0.412943 -0.582 202 208 222
0.19012 -0.412943 -0.582 203 212 229
0.206749 -0.412943 -0.582 133 159 196
0.207857 -0.412943 -0.582 140 169 209
0.211183 -0.412943 -0.582 120 142 181
0.235976 -0.413652 -0.583 143 175 216
0.238197 -0.413652 -0.583 159 191 232
0.241529 -0.413652 -0.583 157 190 235
0.265303 -0.414362 -0.584 129 160 204
0.36344 -0.4172 -0.588 174 196 233
0.390984 -0.41791 -0.589 145 162 192
0.402886 -0.418619 -0.59 154 182 230
0.405133 -0.418619 -0.59 134 164 216
0.415951 -0.419329 -0.591 235 241 253
0.427209 -0.419329 -0.591 137 166 206
0.466714 -0.421457 -0.594 127 166 221
0.502049 -0.423586 -0.597 115 151 203
0.504323 -0.423586 -0.597 86 118 167
0.506884 -0.422876 -0.596 92 124 175
0.499761 -0.405138 -0.571 173 140 131
0.474933 -0.368952 -0.52 183 144 127
0.474229 -0.366114 -0.516 191 150 132
0.477586 -0.35831 -0.505 190 148 126
0.482349 -0.353343 -0.498 201 156 133
0.489657 -0.349086 -0.492 184 140 111
0.493406 -0.349086 -0.492 184 140 111
0.497079 -0.348376 -0.491 179 135 106
0.509699 -0.351924 -0.496 168 127 99
0.514683 -0.354052 -0.499 165 125 99
0.0610762 -0.377057 -0.53 201 156 133
0.0816552 -0.374211 -0.526 200 152 129
0.0869943 -0.375634 -0.528 189 142 116
0.115762 -0.391286 -0.55 142 97 91
0.121261 -0.395554 -0.556 139 95 92
0.147138 -0.414763 -0.583 58 64 96
0.150211 -0.414051 -0.582 50 59 92
0.152429 -0.414051 -0.582 56 65 98
0.154646 -0.414051 -0.582 104 102 124
0.158807 -0.41334 -0.581 158 155 164
0.159913 -0.41334 -0.581 163 160 169
0.169873 -0.41334 -0.581 96 120 166
0.182047 -0.41334 -0.581 124 157 200
0.198647 -0.41334 -0.581 102 129 182
0.199753 -0.41334 -0.581 115 142 195
0.224871 -0.414763 -0.583 227 226 234
0.252633 -0.414763 -0.583 243 247 255
0.337106 -0.417609 -0.587 167 186 218
0.354995 -0.417609 -0.587 245 243 255
0.37016 -0.41832 -0.588 179 204 244
0.3724 -0.41832 -0.588 170 200 236
0.38313 -0.419031 -0.589 239 243 254
0.396143 -0.419743 -0.59 148 172 208
0.401081 -0.419031 -0.589 137 162 202
0.419743 -0.419743 -0.59 239 241 254
0.423114 -0.419743 -0.59 241 243 255
0.431711 -0.420454 -0.591 166 195 235
0.445973 -0.421166 -0.592 228 239 255
0.452374 -0.421877 -0.593 229 235 247
0.453504 -0.421877 -0.593 237 243 255
0.458794 -0.422589 -0.594 147 156 173
0.483044 -0.424011 -0.596 203 215 229
0.487585 -0.424011 -0.596 210 219 234
0.49099 -0.424011 -0.596 207 216 223
0.492126 -0.424011 -0.596 205 211 225
0.499774 -0.424723 -0.597 111 143 190
0.49734 -0.40338 -0.567 170 140 132
0.495783 -0.401246 -0.564 171 138 131
0.496166 -0.399823 -0.562 169 136 129
0.479813 -0.37848 -0.532 175 141 129
0.482327 -0.35358 -0.497 197 152 129
0.492403 -0.349311 -0.491 183 139 110
0.50184 -0.350023 -0.492 177 133 104
0.0600667 -0.378067 -0.53 203 158 137
0.0637419 -0.375927 -0.527 204 159 138
0.0795 -0.3745 -0.525 200 154 128
0.0806533 -0.375213 -0.526 201 151 126
0.0949248 -0.380207 -0.533 181 124 105
0.137069 -0.412307 -0.578 97 86 100
0.149103 -0.41516 -0.582 63 72 103
0.15106 -0.414447 -0.581 51 60 93
0.158807 -0.414447 -0.581 158 152 162
0.162127 -0.414447 -0.581 101 101 99
0.168767 -0.414447 -0.581 79 104 145
0.172087 -0.414447 -0.581 144 172 209
0.189793 -0.414447 -0.581 209 217 230
0.199753 -0.414447 -0.581 154 180 231
0.214509 -0.41516 -0.582 131 154 186
0.225594 -0.41516 -0.582 209 210 215
0.24444 -0.41516 -0.582 151 170 212
0.346577 -0.418013 -0.586 127 155 195
0.38024 -0.41944 -0.588 237 243 255
0.402203 -0.420153 -0.589 153 174 205
0.411876 -0.420867 -0.59 149 165 198
0.416371 -0.420867 -0.59 229 236 252
0.432837 -0.42158 -0.591 182 208 243
0.46141 -0.423007 -0.593 131 154 188
0.46367 -0.423007 -0.593 176 202 235
0.4777 -0.424433 -0.595 99 121 158
0.482233 -0.424433 -0.595 181 193 209
0.5049 -0.424433 -0.595 115 143 190
0.506033 -0.424433 -0.595 100 128 175
0.496662 -0.403033 -0.565 171 138 131
0.4921 -0.3959 -0.555 171 136 130
0.474163 -0.368793 -0.517 187 148 131
0.473478 -0.365227 -0.512 188 145 128
0.475614 -0.36166 -0.507 195 152 133
0.480466 -0.355953 -0.499 198 153 132
0.481416 -0.355953 -0.499 196 151 128
0.486896 -0.351673 -0.493 187 143 116
0.489597 -0.350247 -0.491 186 142 115
0.502777 -0.35096 -0.492 176 135 107
0.503714 -0.35096 -0.492 175 135 109
0.0656248 -0.376215 -0.526 206 160 137
0.0666267 -0.376215 -0.526 206 160 136
0.0983381 -0.382652 -0.535 174 118 103
0.0995429 -0.383368 -0.536 173 117 102
0.101774 -0.384083 -0.537 169 116 100
0.115762 -0.393381 -0.55 140 97 90
0.142207 -0.415553 -0.581 88 94 118
0.146633 -0.415553 -0.581 86 92 116
0.155487 -0.415553 -0.581 143 143 169
0.156593 -0.415553 -0.581 144 149 171
0.178111 -0.414123 -0.579 115 141 178
0.203829 -0.414838 -0.58 204 221 247
0.210457 -0.414838 -0.58 198 209 229
0.21746 -0.415553 -0.581 137 154 200
0.24444 -0.416269 -0.582 159 177 217
0.245549 -0.416269 -0.582 176 194 234
0.247766 -0.416269 -0.582 200 216 239
0.254417 -0.416269 -0.582 239 247 255
0.287058 -0.416984 -0.583 198 196 207
0.346577 -0.41913 -0.586 133 157 193
0.377357 -0.419845 -0.587 221 241 255
0.38584 -0.42056 -0.588 242 245 252
0.38808 -0.42056 -0.588 227 236 253
0.39368 -0.42056 -0.588 175 194 227
0.407812 -0.421275 -0.589 165 182 200
0.419031 -0.421275 -0.589 240 244 255
0.423519 -0.421275 -0.589 234 241 255
0.424641 -0.421275 -0.589 213 220 236
0.430981 -0.42199 -0.59 190 213 247
0.455763 -0.424136 -0.593 236 232 246
0.456892 -0.424136 -0.593 194 205 225
0.4947 -0.425567 -0.595 139 155 180
0.495833 -0.425567 -0.595 106 141 179
0.502633 -0.425567 -0.595 129 155 190
0.494582 -0.399818 -0.559 170 137 128
0.490491 -0.394811 -0.552 171 137 135
0.47761 -0.359765 -0.503 188 143 124
0.479524 -0.357619 -0.5 199 154 133
0.484079 -0.352612 -0.493 192 147 124
0.486846 -0.351897 -0.492 188 146 121
0.496917 -0.349751 -0.489 181 136 103
0.0545191 -0.383671 -0.535 195 155 129
0.0646229 -0.377217 -0.526 205 159 135
0.0675 -0.3765 -0.525 207 161 137
0.0713638 -0.375783 -0.524 202 156 132
0.0743581 -0.375783 -0.524 198 152 129
0.0836591 -0.377217 -0.526 191 142 112
0.115762 -0.394429 -0.55 141 98 91
0.174803 -0.415226 -0.579 143 167 203
0.175906 -0.415226 -0.579 135 161 196
0.18142 -0.415226 -0.579 180 201 230
0.208248 -0.415943 -0.58 202 212 239
0.24402 -0.41666 -0.581 173 189 225
0.25066 -0.41666 -0.581 240 249 255
0.377357 -0.420963 -0.587 235 243 255
0.39592 -0.42168 -0.588 190 203 222
0.40264 -0.42168 -0.588 207 222 245
0.423519 -0.422397 -0.589 234 241 255
0.4366 -0.423114 -0.59 187 210 242
0.437724 -0.423114 -0.59 174 197 229
0.439971 -0.423114 -0.59 161 184 218
0.453867 -0.424549 -0.592 231 229 250
0.45725 -0.424549 -0.592 132 138 162
0.4981 -0.4267 -0.595 141 165 203
0.507721 -0.425266 -0.593 144 154 179
0.485597 -0.389409 -0.543 167 134 125
0.474854 -0.373631 -0.521 183 144 129
0.483179 -0.354269 -0.494 191 146 123
0.487667 -0.3514 -0.49 187 143 118
0.491329 -0.350683 -0.489 185 141 114
0.494971 -0.349966 -0.488 181 137 110
0.500733 -0.3514 -0.49 175 130 97
0.513478 -0.355703 -0.496 161 122 91
0.0783505 -0.376781 -0.524 196 150 124
0.0813448 -0.376781 -0.524 193 146 118
0.0825 -0.3775 -0.525 189 140 110
0.102989 -0.386848 -0.538 169 113 98
0.146381 -0.417048 -0.58 108 113 133
0.159363 -0.416329 -0.579 166 175 184
0.16598 -0.416329 -0.579 145 153 174
0.174803 -0.416329 -0.579 139 165 202
0.19686 -0.416329 -0.579 204 214 241
0.200169 -0.416329 -0.579 213 222 239
0.394129 -0.422081 -0.587 209 220 240
0.404191 -0.422081 -0.587 217 228 250
0.408664 -0.422081 -0.587 209 221 243
0.429129 -0.423519 -0.589 168 184 218
0.437724 -0.424238 -0.59 171 194 226
0.449723 -0.424957 -0.591 236 238 251
0.474965 -0.426395 -0.593 175 187 213
0.478353 -0.426395 -0.593 145 159 185
0.482871 -0.426395 -0.593 207 220 239
0.507992 -0.425676 -0.592 168 180 204
0.497541 -0.406981 -0.566 168 138 128
0.475009 -0.373186 -0.519 187 145 129
0.475694 -0.361681 -0.503 194 152 128
0.476661 -0.360962 -0.502 183 141 117
0.481329 -0.355929 -0.495 198 153 130
0.488534 -0.351614 -0.489 187 143 118
0.0586114 -0.379221 -0.526 204 160 135
0.0643771 -0.377779 -0.524 207 161 137
0.084661 -0.379221 -0.526 184 132 110
0.0901819 -0.381384 -0.529 180 125 105
0.0993571 -0.38571 -0.535 175 118 99
0.113047 -0.394361 -0.547 151 103 93
0.156054 -0.417431 -0.579 110 123 157
0.157157 -0.417431 -0.579 139 152 186
0.1734 -0.41671 -0.578 138 167 207
0.195757 -0.417431 -0.579 216 226 251
0.2123 -0.417431 -0.579 214 222 243
0.227029 -0.418152 -0.58 241 241 253
0.236971 -0.418152 -0.58 188 212 246
0.238076 -0.418152 -0.58 192 216 250
0.242495 -0.418152 -0.58 160 179 219
0.27722 -0.418873 -0.581 229 237 250
0.286566 -0.419594 -0.582 189 203 229
0.344282 -0.421036 -0.584 225 231 253
0.3705 -0.421757 -0.585 161 184 225
0.374482 -0.422478 -0.586 187 212 242
0.384528 -0.422478 -0.586 194 204 231
0.392341 -0.422478 -0.586 218 231 247
0.468526 -0.426804 -0.592 189 197 218
0.501789 -0.428246 -0.594 157 181 215
0.49138 -0.398687 -0.553 165 134 131
0.474933 -0.374895 -0.52 183 144 127
0.473426 -0.369849 -0.513 189 146 129
0.473612 -0.366965 -0.509 192 149 133
0.474617 -0.366244 -0.508 192 149 133
0.476666 -0.361197 -0.501 192 150 128
0.476667 -0.360476 -0.5 197 155 131
0.483097 -0.354709 -0.492 192 148 123
0.500643 -0.352546 -0.489 171 126 95
0.503533 -0.353267 -0.49 170 129 101
0.522471 -0.361197 -0.501 156 119 93
0.0494905 -0.395403 -0.547 203 159 134
0.0532 -0.38456 -0.532 198 156 131
0.0567152 -0.380946 -0.527 204 159 136
0.0585 -0.3795 -0.525 205 161 136
0.0722238 -0.378054 -0.523 199 153 127
0.088 -0.381669 -0.528 186 130 113
0.106457 -0.390343 -0.54 164 111 93
0.109117 -0.392511 -0.543 160 107 89
0.155785 -0.417811 -0.578 80 94 131
0.164592 -0.417811 -0.578 156 173 193
0.188813 -0.417811 -0.578 141 154 186
0.193217 -0.417811 -0.578 214 223 252
0.210094 -0.418534 -0.579 228 235 254
0.217814 -0.418534 -0.579 188 195 223
0.240974 -0.418534 -0.579 162 182 219
0.374957 -0.422871 -0.585 212 225 244
0.381643 -0.422871 -0.585 221 227 251
0.402387 -0.423594 -0.586 229 237 250
0.420963 -0.424317 -0.587 233 241 254
0.43176 -0.42504 -0.588 178 201 233
0.43624 -0.42504 -0.588 148 170 207
0.45121 -0.426486 -0.59 174 180 206
0.457952 -0.426486 -0.59 218 227 242
0.463571 -0.426486 -0.59 215 223 242
0.486568 -0.427931 -0.592 210 216 232
0.487695 -0.427931 -0.592 209 215 231
0.489649 -0.428654 -0.593 209 217 230
0.495296 -0.428654 -0.593 115 131 165
0.498685 -0.428654 -0.593 127 153 188
0.500944 -0.428654 -0.593 144 172 209
0.501511 -0.414197 -0.573 169 139 131
0.477408 -0.380223 -0.526 178 141 125
0.473527 -0.36938 -0.511 189 148 130
0.473571 -0.368657 -0.51 190 149 131
0.476667 -0.361429 -0.5 197 155 131
0.481262 -0.356369 -0.493 194 150 125
0.483933 -0.3542 -0.49 194 150 125
0.506431 -0.354923 -0.491 173 134 105
0.0585 -0.3805 -0.525 207 163 136
0.0692352 -0.37905 -0.523 203 157 131
0.0791971 -0.37905 -0.523 194 145 113
0.0835 -0.3805 -0.525 187 138 108
0.09576 -0.385573 -0.532 174 122 101
0.114506 -0.397894 -0.549 145 101 92
0.13817 -0.418912 -0.578 106 97 100
0.159088 -0.418912 -0.578 164 178 205
0.172001 -0.418188 -0.577 121 153 200
0.1731 -0.418188 -0.577 123 152 196
0.189586 -0.418188 -0.577 122 135 170
0.200924 -0.418912 -0.578 225 229 254
0.204972 -0.418188 -0.577 196 199 214
0.209731 -0.418912 -0.578 232 239 255
0.215236 -0.418912 -0.578 235 238 255
0.23546 -0.419637 -0.579 155 175 208
0.244283 -0.419637 -0.579 203 219 252
0.256414 -0.419637 -0.579 140 162 199
0.275638 -0.420362 -0.58 241 248 255
0.352576 -0.422536 -0.583 178 193 222
0.369867 -0.423261 -0.584 149 177 217
0.388329 -0.423986 -0.585 230 240 250
0.431026 -0.425435 -0.587 166 190 226
0.44184 -0.42616 -0.588 225 232 251
0.444835 -0.426885 -0.589 233 236 253
0.452333 -0.42761 -0.59 126 139 174
0.462448 -0.42761 -0.59 224 231 250
0.46919 -0.42761 -0.59 221 224 241
0.48995 -0.429059 -0.592 207 213 229
0.495589 -0.429059 -0.592 111 137 172
0.500099 -0.429059 -0.592 133 162 202
0.506276 -0.42761 -0.59 150 167 195
0.495976 -0.408041 -0.563 167 139 127
0.491213 -0.401518 -0.554 166 136 126
0.479923 -0.384849 -0.531 174 138 124
0.473426 -0.371803 -0.513 189 148 128
0.474649 -0.367454 -0.507 192 152 126
0.475705 -0.36383 -0.502 195 153 128
0.479443 -0.358757 -0.495 196 154 129
0.481223 -0.356583 -0.492 194 150 125
0.492102 -0.352959 -0.487 182 141 109
0.49303 -0.352959 -0.487 180 139 107
0.49674 -0.352959 -0.487 185 139 103
0.049701 -0.390947 -0.538 204 158 135
0.0681086 -0.37932 -0.522 203 158 129
0.0720857 -0.37932 -0.522 197 152 123
0.0878333 -0.382953 -0.527 175 119 102
0.0923714 -0.385133 -0.53 177 122 101
0.09576 -0.386587 -0.532 174 122 101
0.0993571 -0.388767 -0.535 170 118 97
0.135497 -0.41856 -0.576 117 101 101
0.148078 -0.420013 -0.578 154 151 158
0.16211 -0.419287 -0.577 194 197 214
0.190354 -0.41856 -0.576 187 199 223
0.192883 -0.419287 -0.577 224 231 249
0.194743 -0.41856 -0.576 228 231 248
0.201675 -0.419287 -0.577 232 234 255
0.204972 -0.419287 -0.577 215 219 231
0.211933 -0.420013 -0.578 235 241 253
0.233952 -0.420013 -0.578 158 180 217
0.343103 -0.42292 -0.582 242 246 255
0.363681 -0.423647 -0.583 162 177 208
0.365902 -0.423647 -0.583 167 193 228
0.377653 -0.424373 -0.584 235 244 253
0.387214 -0.4251 -0.585 228 239 255
0.407271 -0.4251 -0.585 233 240 255
0.412843 -0.4251 -0.585 153 163 190
0.418013 -0.425827 -0.586 199 212 244
0.422478 -0.425827 -0.586 230 236 248
0.432144 -0.426553 -0.587 168 198 236
0.435498 -0.426553 -0.587 141 169 209
0.437734 -0.426553 -0.587 148 170 209
0.501227 -0.430187 -0.592 112 145 188
0.475713 -0.362607 -0.499 194 152 127
0.477577 -0.360427 -0.496 190 148 123
0.481133 -0.356067 -0.49 195 151 124
0.0446048 -0.401443 -0.551 201 157 132
0.0528 -0.384686 -0.528 202 156 132
0.0631371 -0.380314 -0.522 206 160 134
0.0651257 -0.380314 -0.522 203 155 132
0.06612 -0.380314 -0.522 205 157 134
0.0681086 -0.380314 -0.522 206 159 133
0.0801933 -0.381043 -0.523 188 139 109
0.114506 -0.399986 -0.549 143 103 95
0.154416 -0.420386 -0.577 116 122 148
0.158812 -0.420386 -0.577 104 117 149
0.159911 -0.420386 -0.577 162 164 189
0.204972 -0.420386 -0.577 223 229 243
0.21926 -0.420386 -0.577 177 183 209
0.232449 -0.420386 -0.577 158 182 216
0.277369 -0.421843 -0.579 244 251 255
0.278471 -0.421843 -0.579 243 250 255
0.370344 -0.424757 -0.583 154 183 227
0.371454 -0.424757 -0.583 186 206 243
0.388777 -0.425486 -0.584 237 241 252
0.40435 -0.425486 -0.584 239 245 255
0.419529 -0.426214 -0.585 221 232 250
0.442207 -0.427671 -0.587 230 238 255
0.443325 -0.427671 -0.587 228 235 251
0.45752 -0.4284 -0.588 236 243 249
0.477057 -0.429857 -0.59 212 219 235
0.502631 -0.430586 -0.591 86 120 165
0.50654 -0.429129 -0.589 182 178 192
0.473527 -0.3723 -0.511 184 147 121
0.474762 -0.364286 -0.5 197 153 124
0.482888 -0.355543 -0.488 191 147 120
0.482826 -0.354814 -0.487 193 149 122
0.487389 -0.354086 -0.486 190 146 117
0.0621429 -0.381309 -0.522 210 164 138
0.0669857 -0.380578 -0.521 202 154 131
0.070819 -0.379848 -0.52 198 151 125
0.0855 -0.3835 -0.525 180 130 107
0.0923714 -0.387152 -0.53 177 122 101
0.0969552 -0.389344 -0.533 172 117 97
0.101585 -0.391535 -0.536 168 115 97
0.109117 -0.396649 -0.543 158 106 93
0.117447 -0.403953 -0.553 134 99 95
0.136831 -0.421485 -0.577 118 111 118
0.141228 -0.421485 -0.577 136 130 140
0.148663 -0.420754 -0.576 165 160 164
0.154149 -0.420754 -0.576 157 165 186
0.20352 -0.420754 -0.576 233 239 253
0.222171 -0.420754 -0.576 157 173 206
0.224755 -0.421485 -0.577 203 207 232
0.23135 -0.421485 -0.577 179 208 242
0.244538 -0.421485 -0.577 210 230 254
0.271385 -0.422215 -0.578 243 250 255
0.359731 -0.425137 -0.582 226 234 255
0.364166 -0.425137 -0.582 150 178 217
0.46312 -0.42952 -0.588 238 237 245
0.46424 -0.42952 -0.588 229 229 241
0.482676 -0.430981 -0.59 132 153 184
0.486048 -0.430981 -0.59 127 142 173
0.4925 -0.431711 -0.591 183 196 230
0.498129 -0.431711 -0.591 104 137 182
0.49842 -0.41418 -0.567 166 138 126
0.47508 -0.378387 -0.518 181 143 124
0.473612 -0.371812 -0.509 188 147 125
0.481958 -0.356472 -0.488 191 147 122
0.48276 -0.355011 -0.486 196 152 125
0.490166 -0.355011 -0.486 189 145 118
0.497571 -0.355011 -0.486 179 133 100
0.510067 -0.357933 -0.49 165 121 94
0.5181 -0.361586 -0.495 150 113 86
0.52114 -0.363047 -0.497 150 113 86
0.525238 -0.365238 -0.5 147 115 92
0.0490543 -0.388894 -0.531 202 156 130
0.0737905 -0.380838 -0.52 196 150 116
0.0945686 -0.388894 -0.531 176 121 100
0.104013 -0.394021 -0.538 164 113 94
0.117447 -0.405007 -0.553 134 100 91
0.134167 -0.421119 -0.575 109 103 105
0.182357 -0.421119 -0.575 163 172 201
0.192214 -0.421119 -0.575 229 235 251
0.230949 -0.421851 -0.576 184 206 253
0.275789 -0.423316 -0.578 242 251 255
0.380338 -0.426978 -0.583 189 197 236
0.381449 -0.426978 -0.583 213 221 255
0.404769 -0.426978 -0.583 220 224 225
0.423986 -0.428443 -0.585 215 228 247
0.435872 -0.429175 -0.586 137 166 208
0.454506 -0.429908 -0.587 231 238 246
0.460096 -0.429908 -0.587 236 235 241
0.464569 -0.429908 -0.587 227 233 245
0.480736 -0.431372 -0.589 204 210 222
0.493626 -0.432837 -0.591 178 187 216
0.500657 -0.432105 -0.59 96 135 194
0.496857 -0.413063 -0.564 165 137 123
0.495283 -0.410866 -0.561 168 136 123
0.473683 -0.371317 -0.507 187 146 124
0.476614 -0.362529 -0.495 189 147 122
0.478374 -0.359599 -0.491 196 152 125
0.48276 -0.355937 -0.486 195 151 124
0.486386 -0.355205 -0.485 189 145 116
0.489157 -0.355205 -0.485 189 145 116
0.490081 -0.355205 -0.485 184 140 111
0.491929 -0.355205 -0.485 180 137 105
0.501274 -0.355937 -0.486 178 129 96
0.5022 -0.355937 -0.486 176 127 94
0.0439571 -0.398717 -0.543 198 157 129
0.070819 -0.381829 -0.52 193 148 119
0.08004 -0.383297 -0.522 189 140 110
0.0933809 -0.389171 -0.53 177 122 101
0.116183 -0.405326 -0.552 141 104 96
0.174387 -0.42148 -0.574 96 128 185
0.17876 -0.42148 -0.574 182 197 230
0.18532 -0.42148 -0.574 214 226 252
0.19188 -0.42148 -0.574 230 236 250
0.2185 -0.422214 -0.575 236 242 255
0.273113 -0.423683 -0.577 248 253 255
0.362433 -0.42662 -0.581 171 189 225
0.378577 -0.427354 -0.582 163 174 206
0.38367 -0.428089 -0.583 237 246 255
0.401437 -0.428089 -0.583 234 243 252
0.413652 -0.428089 -0.583 225 233 246
0.414763 -0.428089 -0.583 202 216 245
0.4329 -0.429557 -0.585 107 143 193
0.447034 -0.430291 -0.586 198 212 238
0.44815 -0.430291 -0.586 223 237 255
0.460096 -0.431026 -0.587 237 236 241
0.464569 -0.431026 -0.587 230 234 245
0.47208 -0.43176 -0.588 227 230 239
0.47737 -0.432494 -0.589 222 221 226
0.497286 -0.433229 -0.59 78 121 174
0.500657 -0.433229 -0.59 85 125 186
0.499299 -0.417074 -0.568 168 138 127
0.48587 -0.397249 -0.541 171 139 128
0.472553 -0.37522 -0.511 188 147 129
0.474743 -0.364206 -0.496 191 149 125
0.477474 -0.361269 -0.492 194 150 125
0.47922 -0.359066 -0.489 195 151 124
0.48097 -0.357597 -0.487 192 151 123
0.0617857 -0.382083 -0.519 205 158 132
0.0779019 -0.383555 -0.521 189 142 112
0.0788943 -0.383555 -0.521 188 141 111
0.09558 -0.390917 -0.531 173 121 100
0.131288 -0.421101 -0.572 108 96 100
0.150595 -0.42331 -0.575 184 188 191
0.152786 -0.42331 -0.575 193 193 205
0.170013 -0.422573 -0.574 86 125 194
0.1719 -0.421837 -0.573 78 116 181
0.219595 -0.42331 -0.575 223 226 243
0.222881 -0.42331 -0.575 167 172 192
0.227262 -0.42331 -0.575 194 211 241
0.278609 -0.424782 -0.577 240 247 253
0.330306 -0.426254 -0.579 235 240 246
0.365753 -0.427727 -0.581 118 156 218
0.374607 -0.427727 -0.581 147 165 201
0.39188 -0.428463 -0.582 195 196 201
0.396314 -0.428463 -0.582 226 229 244
0.414763 -0.429199 -0.583 221 232 254
0.419205 -0.429199 -0.583 160 173 205
0.424373 -0.429935 -0.584 173 201 248
0.428823 -0.429935 -0.584 122 163 219
0.442929 -0.430671 -0.585 150 166 202
0.47544 -0.43288 -0.588 217 216 221
0.481858 -0.433616 -0.589 213 220 230
0.489711 -0.433616 -0.589 182 193 223
0.494199 -0.433616 -0.589 81 111 165
0.49841 -0.434352 -0.59 71 117 177
0.488871 -0.404169 -0.549 166 134 123
0.474163 -0.38061 -0.517 178 141 125
0.47337 -0.378402 -0.514 180 143 127
0.4726 -0.375457 -0.51 185 146 129
0.472717 -0.373249 -0.507 191 149 133
0.47282 -0.370304 -0.503 183 142 122
0.472849 -0.368831 -0.501 187 146 126
0.474743 -0.36515 -0.496 194 149 126
0.491836 -0.356316 -0.484 179 134 101
0.510889 -0.359997 -0.489 161 122 91
0.512867 -0.360733 -0.49 159 122 96
0.0434714 -0.396357 -0.537 199 157 132
0.0505 -0.3875 -0.525 200 156 129
0.0541886 -0.385286 -0.522 205 159 133
0.0598086 -0.383071 -0.519 201 155 131
0.0685733 -0.382333 -0.518 202 154 131
0.0821857 -0.386024 -0.523 185 133 111
0.107685 -0.39931 -0.541 159 110 93
0.109117 -0.400786 -0.543 158 109 92
0.12997 -0.421452 -0.571 101 91 99
0.14924 -0.423667 -0.574 185 184 189
0.160173 -0.423667 -0.574 100 109 140
0.170809 -0.422929 -0.573 69 103 174
0.203907 -0.423667 -0.574 213 216 231
0.205 -0.423667 -0.574 224 227 242
0.22468 -0.423667 -0.574 136 153 181
0.23931 -0.424405 -0.575 120 153 207
0.332511 -0.427357 -0.579 194 197 206
0.33582 -0.427357 -0.579 223 227 239
0.349054 -0.427357 -0.579 238 241 250
0.37018 -0.428833 -0.581 136 167 222
0.372393 -0.428833 -0.581 138 169 216
0.374607 -0.428833 -0.581 122 145 187
0.377927 -0.428833 -0.581 218 234 255
0.387887 -0.428833 -0.581 232 239 245
0.395206 -0.429571 -0.582 229 231 244
0.4074 -0.429571 -0.582 220 217 224
0.414051 -0.429571 -0.582 232 239 255
0.425868 -0.43031 -0.583 88 123 179
0.464893 -0.432524 -0.586 211 214 221
0.499299 -0.419238 -0.568 170 135 129
0.497738 -0.417024 -0.565 169 134 128
0.484839 -0.39931 -0.541 172 140 127
0.471673 -0.37569 -0.509 183 144 127
0.473807 -0.366833 -0.497 193 148 127
0.48622 -0.3565 -0.483 188 143 114
0.49368 -0.357238 -0.484 184 139 106
0.496446 -0.357238 -0.484 181 135 102
0.5138 -0.361667 -0.49 157 121 99
0.516834 -0.363143 -0.492 156 118 95
0.518824 -0.363881 -0.493 155 117 94
0.522926 -0.366095 -0.496 149 113 89
0.0675867 -0.38332 -0.518 200 152 129
0.089841 -0.38998 -0.527 182 128 104
0.0933809 -0.3922 -0.53 176 124 103
0.101585 -0.39664 -0.536 168 117 100
0.133467 -0.42328 -0.572 94 91 100
0.144867 -0.42476 -0.574 121 118 127
0.14596 -0.42476 -0.574 163 161 166
0.153346 -0.42402 -0.573 192 199 209
0.16426 -0.42402 -0.573 78 101 155
0.165063 -0.42328 -0.572 62 94 155
0.169717 -0.42402 -0.573 60 93 162
0.180316 -0.42328 -0.572 149 173 211
0.19482 -0.42402 -0.573 233 239 253
0.199186 -0.42402 -0.573 218 221 238
0.238893 -0.42476 -0.574 102 138 196
0.372857 -0.4292 -0.58 107 143 195
0.378381 -0.4292 -0.58 229 239 251
0.38501 -0.4292 -0.58 234 238 247
0.38678 -0.42994 -0.581 235 239 248
0.392989 -0.43068 -0.582 211 214 229
0.407807 -0.42994 -0.581 221 218 227
0.420703 -0.43068 -0.582 104 133 189
0.43031 -0.43142 -0.583 81 116 180
0.447733 -0.43216 -0.584 235 239 251
0.449958 -0.43216 -0.584 237 238 243
0.455186 -0.4329 -0.585 219 218 223
0.470474 -0.43364 -0.586 183 182 188
0.473513 -0.43438 -0.587 224 223 228
0.48888 -0.43512 -0.588 83 110 157
0.49112 -0.43512 -0.588 101 132 189
0.503702 -0.43438 -0.587 88 124 184
0.499299 -0.42032 -0.568 171 134 126
0.472503 -0.37888 -0.512 181 142 127
0.473807 -0.36778 -0.497 190 148 126
0.47726 -0.36038 -0.487 195 151 124
0.481695 -0.35816 -0.484 192 148 123
0.48622 -0.35742 -0.483 188 143 114
0.48714 -0.35742 -0.483 186 141 112
0.49082 -0.35742 -0.483 186 143 111
0.49358 -0.35742 -0.483 185 140 109
0.49634 -0.35742 -0.483 180 131 98
0.507754 -0.35964 -0.486 164 123 95
0.0511076 -0.386532 -0.521 203 159 130
0.0558543 -0.385049 -0.519 204 160 131
0.0596933 -0.384307 -0.518 202 158 129
0.0713952 -0.383565 -0.517 197 152 123
0.0735067 -0.384307 -0.518 192 141 120
0.0886686 -0.390242 -0.526 183 129 105
0.143523 -0.425111 -0.573 105 104 112
0.156347 -0.42437 -0.572 164 172 195
0.179227 -0.42437 -0.572 96 133 186
0.214466 -0.425111 -0.573 241 245 255
0.365597 -0.429563 -0.579 83 121 184
0.372857 -0.430305 -0.58 103 140 193
0.428089 -0.43253 -0.583 76 116 177
0.474939 -0.434756 -0.586 224 224 232
0.476868 -0.435498 -0.587 220 222 234
0.482458 -0.435498 -0.587 207 210 225
0.484694 -0.435498 -0.587 192 200 219
0.495875 -0.435498 -0.587 29 70 134
0.47508 -0.384307 -0.518 180 143 127
0.472503 -0.379855 -0.512 184 145 128
0.471862 -0.373178 -0.503 188 147 127
0.47188 -0.372436 -0.502 189 148 128
0.473786 -0.367243 -0.495 194 152 130
0.47377 -0.366501 -0.494 194 152 130
0.4807 -0.35834 -0.483 191 147 122
0.495312 -0.357598 -0.482 181 133 97
0.504743 -0.359082 -0.484 167 126 96
0.0744933 -0.385293 -0.518 188 138 111
0.0954 -0.394219 -0.53 178 121 101
0.0989857 -0.39645 -0.533 170 115 95
0.100189 -0.397194 -0.534 170 117 99
0.151989 -0.425459 -0.572 193 193 205
0.160705 -0.425459 -0.572 82 109 152
0.164774 -0.424715 -0.571 95 125 185
0.186527 -0.424715 -0.571 232 235 254
0.188702 -0.424715 -0.571 231 236 255
0.236294 -0.426203 -0.573 99 140 196
0.368906 -0.430666 -0.579 118 153 209
0.375523 -0.430666 -0.579 183 204 235
0.378831 -0.430666 -0.579 226 233 249
0.379934 -0.430666 -0.579 234 231 250
0.383243 -0.430666 -0.579 235 233 246
0.388324 -0.43141 -0.58 202 206 209
0.394952 -0.43141 -0.58 188 195 214
0.41666 -0.432153 -0.581 191 199 220
0.425137 -0.432897 -0.582 98 142 203
0.439549 -0.432897 -0.582 84 117 168
0.441766 -0.432897 -0.582 183 199 232
0.467443 -0.435129 -0.585 190 197 207
0.488049 -0.436616 -0.587 66 99 153
0.490285 -0.436616 -0.587 60 101 167
0.484971 -0.401657 -0.54 168 138 127
0.475924 -0.386781 -0.52 176 139 123
0.47337 -0.382318 -0.514 182 143 126
0.472853 -0.36893 -0.496 191 149 127
0.475494 -0.363723 -0.489 193 148 125
0.479851 -0.360004 -0.484 190 144 118
0.490722 -0.358516 -0.482 186 141 108
0.494394 -0.358516 -0.482 181 137 100
0.0692914 -0.384789 -0.516 193 148 119
0.0733648 -0.385534 -0.517 192 142 117
0.0896705 -0.392246 -0.526 178 128 103
0.0908448 -0.392991 -0.527 177 125 101
0.134556 -0.426549 -0.572 91 89 100
0.153078 -0.426549 -0.572 183 194 216
0.197403 -0.425803 -0.571 208 211 230
0.223897 -0.426549 -0.572 123 139 165
0.36937 -0.431023 -0.578 120 156 208
0.373773 -0.431023 -0.578 117 149 198
0.387654 -0.431769 -0.579 225 226 230
0.402686 -0.432514 -0.58 209 213 222
0.404895 -0.432514 -0.58 231 234 243
0.410419 -0.432514 -0.58 218 225 233
0.417048 -0.432514 -0.58 118 145 190
0.440657 -0.434006 -0.582 116 152 200
0.45363 -0.434751 -0.583 230 233 242
0.456961 -0.434751 -0.583 202 205 220
0.488049 -0.437734 -0.587 56 87 141
0.488132 -0.407906 -0.547 168 135 128
0.471629 -0.380314 -0.51 185 143 127
0.471913 -0.37062 -0.497 191 150 128
0.472843 -0.369129 -0.495 193 151 129
0.474563 -0.364654 -0.489 190 145 122
0.476332 -0.363163 -0.487 198 154 129
0.486039 -0.358689 -0.481 187 140 112
0.502657 -0.359434 -0.482 172 126 92
0.521641 -0.367637 -0.493 148 114 89
0.0702743 -0.385771 -0.516 193 148 119
0.0712571 -0.385771 -0.516 190 145 116
0.0766143 -0.388014 -0.519 184 134 111
0.0818714 -0.38951 -0.521 185 135 110
0.134556 -0.427638 -0.572 101 99 110
0.140847 -0.42689 -0.571 153 153 165
0.154986 -0.42689 -0.571 152 164 188
0.156073 -0.42689 -0.571 112 131 161
0.171 -0.426143 -0.57 89 128 185
0.359938 -0.431376 -0.577 154 178 224
0.382581 -0.432124 -0.578 205 200 204
0.38986 -0.432871 -0.579 219 225 239
0.398683 -0.432871 -0.579 217 221 233
0.399786 -0.432871 -0.579 218 222 234
0.409711 -0.432871 -0.579 198 199 203
0.414123 -0.432871 -0.579 191 207 233
0.43658 -0.434367 -0.581 116 149 200
0.441766 -0.435114 -0.582 157 173 209
0.471093 -0.43661 -0.584 218 215 232
0.477471 -0.437357 -0.585 222 222 234
0.4797 -0.437357 -0.585 221 221 233
0.481929 -0.437357 -0.585 207 213 225
0.487386 -0.407452 -0.545 164 134 124
0.4785 -0.3925 -0.525 177 141 127
0.47337 -0.384276 -0.514 180 143 127
0.4719 -0.370071 -0.495 189 147 125
0.4746 -0.366333 -0.49 192 147 124
0.476332 -0.36409 -0.487 195 151 126
0.486955 -0.359605 -0.481 186 139 111
0.489704 -0.359605 -0.481 183 138 105
0.496 -0.358857 -0.48 182 136 102
0.499782 -0.359605 -0.481 179 133 97
0.50554 -0.3611 -0.483 161 124 97
0.0383571 -0.402494 -0.537 190 153 126
0.0407314 -0.395749 -0.528 203 157 131
0.0565143 -0.386754 -0.516 204 159 128
0.0574971 -0.386754 -0.516 201 160 128
0.0712571 -0.386754 -0.516 191 144 118
0.130829 -0.427229 -0.57 115 112 121
0.132146 -0.427978 -0.571 123 120 129
0.134321 -0.427978 -0.571 111 109 120
0.1406 -0.427229 -0.57 165 165 173
0.149548 -0.427978 -0.571 192 192 204
0.166657 -0.427229 -0.57 85 128 179
0.168532 -0.426479 -0.569 87 123 185
0.175035 -0.426479 -0.569 163 189 222
0.176119 -0.426479 -0.569 187 213 246
0.17937 -0.426479 -0.569 109 131 170
0.199229 -0.427229 -0.57 195 201 215
0.202486 -0.427229 -0.57 209 214 234
0.372028 -0.432475 -0.577 180 205 245
0.374226 -0.432475 -0.577 118 137 169
0.38148 -0.433225 -0.578 210 208 213
0.382581 -0.433225 -0.578 198 196 201
0.431047 -0.435473 -0.581 97 142 199
0.43658 -0.435473 -0.581 132 164 205
0.438793 -0.435473 -0.581 159 185 218
0.44322 -0.435473 -0.581 202 207 229
0.488614 -0.438471 -0.585 94 125 169
0.491957 -0.438471 -0.585 102 143 195
0.497529 -0.438471 -0.585 42 88 150
0.489025 -0.410739 -0.548 166 136 126
0.482519 -0.400995 -0.535 172 138 128
0.470967 -0.372513 -0.497 191 148 129
0.47281 -0.369515 -0.493 190 148 124
0.472789 -0.368766 -0.492 190 148 124
0.473698 -0.368016 -0.491 190 148 124
0.473631 -0.366517 -0.489 193 149 124
0.476164 -0.36277 -0.484 190 146 119
0.491429 -0.359771 -0.48 184 138 105
0.494967 -0.359022 -0.479 182 136 100
0.499657 -0.359771 -0.48 174 128 92
0.500571 -0.359771 -0.48 173 127 91
0.0357486 -0.408777 -0.544 191 156 126
0.0365819 -0.406523 -0.541 187 152 122
0.0432514 -0.392246 -0.522 195 154 124
0.0450667 -0.390743 -0.52 198 157 127
0.0611905 -0.386234 -0.514 202 159 127
0.0652333 -0.386986 -0.515 200 155 126
0.07224 -0.387737 -0.516 189 142 114
0.0764667 -0.38924 -0.518 186 136 113
0.0930286 -0.396754 -0.528 176 126 103
0.106851 -0.407274 -0.542 151 107 94
0.139514 -0.428314 -0.57 173 172 178
0.150371 -0.428314 -0.57 194 196 209
0.154714 -0.428314 -0.57 78 89 119
0.159057 -0.428314 -0.57 197 214 242
0.164197 -0.427563 -0.569 113 142 182
0.169616 -0.427563 -0.569 103 138 194
0.183706 -0.427563 -0.569 213 220 248
0.185873 -0.427563 -0.569 236 239 255
0.418534 -0.435077 -0.579 213 230 255
0.477768 -0.438834 -0.584 217 217 225
0.484442 -0.438834 -0.584 110 131 174
0.487779 -0.438834 -0.584 152 175 206
0.500015 -0.438834 -0.584 116 150 195
0.492269 -0.416291 -0.554 163 137 124
0.489025 -0.411783 -0.548 167 137 127
0.480827 -0.39976 -0.532 172 138 128
0.470852 -0.379471 -0.505 187 148 133
0.470967 -0.37346 -0.497 189 146 127
0.473698 -0.368951 -0.491 190 148 124
0.484018 -0.359934 -0.479 188 143 112
0.490405 -0.359934 -0.479 185 140 109
0.491317 -0.359934 -0.479 183 138 105
0.0347762 -0.410567 -0.545 195 150 127
0.0641276 -0.387213 -0.514 199 154 123
0.0753343 -0.389473 -0.517 187 137 114
0.0965914 -0.40002 -0.531 172 120 99
0.108282 -0.409813 -0.544 140 101 86
0.146029 -0.4294 -0.57 188 195 205
0.153359 -0.428647 -0.569 77 94 124
0.171482 -0.427893 -0.568 177 205 252
0.210086 -0.4294 -0.57 238 242 253
0.368091 -0.43392 -0.576 187 210 244
0.374674 -0.43392 -0.576 114 128 154
0.376869 -0.43392 -0.576 175 190 221
0.403499 -0.435427 -0.578 233 235 247
0.404999 -0.434673 -0.577 233 237 246
0.472508 -0.439193 -0.583 219 222 231
0.4842 -0.405293 -0.538 169 137 126
0.475924 -0.391733 -0.52 179 142 126
0.470821 -0.381187 -0.506 186 147 132
0.473592 -0.367627 -0.488 189 147 122
0.478787 -0.363107 -0.482 189 145 116
0.490405 -0.360847 -0.479 185 140 109
0.494844 -0.360093 -0.478 179 134 101
0.499529 -0.360847 -0.479 172 127 94
0.51728 -0.367627 -0.488 154 118 92
0.0439914 -0.391969 -0.519 201 160 130
0.0495381 -0.388948 -0.515 200 157 125
0.050519 -0.388948 -0.515 201 158 126
0.0515 -0.388948 -0.515 201 158 126
0.0562952 -0.388192 -0.514 204 159 126
0.0572743 -0.388192 -0.514 203 158 127
0.0671952 -0.388948 -0.515 199 154 125
0.0763191 -0.390458 -0.517 183 133 110
0.07844 -0.391213 -0.518 183 133 110
0.1269 -0.42822 -0.567 108 98 99
0.132767 -0.42973 -0.569 108 103 107
0.146856 -0.42973 -0.569 186 193 209
0.157417 -0.428975 -0.568 210 217 236
0.160663 -0.428975 -0.568 195 202 221
0.194202 -0.428975 -0.568 198 202 211
0.20755 -0.42973 -0.569 237 244 254
0.392229 -0.435017 -0.576 232 236 245
0.402801 -0.435772 -0.577 233 235 247
0.408296 -0.435772 -0.577 225 234 251
0.412692 -0.435772 -0.577 118 130 154
0.418188 -0.435772 -0.577 216 225 242
0.42846 -0.437283 -0.579 124 163 206
0.429563 -0.437283 -0.579 127 159 206
0.437283 -0.437283 -0.579 223 229 241
0.442797 -0.437283 -0.579 134 150 173
0.447981 -0.438038 -0.58 225 234 251
0.484442 -0.441059 -0.584 163 182 212
0.485554 -0.441059 -0.584 191 210 240
0.493607 -0.440304 -0.583 66 114 176
0.501629 -0.439549 -0.582 150 166 182
0.490652 -0.416136 -0.551 166 136 125
0.489025 -0.41387 -0.548 166 136 125
0.486631 -0.410094 -0.543 166 136 125
0.476839 -0.393479 -0.521 179 142 126
0.47088 -0.38064 -0.504 185 147 128
0.470904 -0.379885 -0.503 186 148 129
0.499396 -0.361004 -0.478 173 127 93
0.506195 -0.36327 -0.481 157 120 93
0.0485571 -0.389929 -0.515 201 158 124
0.052379 -0.389171 -0.514 203 158 125
0.0620486 -0.388414 -0.513 199 156 124
0.0670648 -0.389171 -0.514 197 154 122
0.0742057 -0.390686 -0.516 185 135 112
0.0763191 -0.391443 -0.517 182 132 109
0.0794267 -0.3922 -0.518 181 131 108
0.0827048 -0.393714 -0.52 180 128 107
0.107049 -0.411129 -0.543 141 102 87
0.108481 -0.412643 -0.545 138 100 89
0.12798 -0.4293 -0.567 120 110 111
0.146598 -0.430057 -0.568 188 197 214
0.148762 -0.430057 -0.568 162 173 195
0.370738 -0.435357 -0.575 231 237 253
0.374024 -0.435357 -0.575 190 195 215
0.38169 -0.435357 -0.575 232 236 248
0.397714 -0.436114 -0.576 232 234 247
0.43618 -0.438386 -0.579 205 216 246
0.447209 -0.438386 -0.579 222 230 249
0.4524 -0.439143 -0.58 230 232 245
0.460927 -0.4399 -0.581 218 220 233
0.471697 -0.440657 -0.582 218 220 233
0.47724 -0.440657 -0.582 133 141 162
0.496938 -0.441414 -0.583 78 118 170
0.501629 -0.440657 -0.582 152 165 184
0.493873 -0.421729 -0.557 162 135 126
0.492269 -0.419457 -0.554 161 134 125
0.48587 -0.409614 -0.541 170 138 127
0.472553 -0.3869 -0.511 184 146 127
0.471851 -0.372514 -0.492 188 148 123
0.472663 -0.369486 -0.488 187 145 120
0.472529 -0.367214 -0.485 192 150 125
0.477793 -0.364186 -0.481 191 147 118
0.482097 -0.361914 -0.478 185 140 109
0.48654 -0.361157 -0.477 185 140 111
0.0334286 -0.409886 -0.54 189 153 127
0.0640029 -0.389391 -0.513 199 154 125
0.06498 -0.389391 -0.513 197 152 123
0.0690229 -0.39015 -0.514 196 149 121
0.0883314 -0.397741 -0.524 179 129 106
0.0977867 -0.403813 -0.532 166 118 98
0.12798 -0.43038 -0.567 120 111 114
0.131451 -0.431139 -0.568 100 98 103
0.143352 -0.431139 -0.568 182 187 193
0.145516 -0.431139 -0.568 192 198 212
0.211512 -0.431139 -0.568 239 241 255
0.319775 -0.434175 -0.572 240 242 255
0.38169 -0.436452 -0.575 229 233 244
0.382786 -0.436452 -0.575 227 231 242
0.386071 -0.436452 -0.575 233 235 248
0.394423 -0.437211 -0.576 192 194 207
0.402103 -0.437211 -0.576 230 232 245
0.433225 -0.43873 -0.578 189 214 245
0.442032 -0.43873 -0.578 148 165 181
