ply
format ascii 1.0
comment Created by Open3D
element vertex 1298
property double x
property double y
property double z
property uchar red
property uchar green
property uchar blue
end_header
0.221706 -0.381148 -0.611 161 165 192
0.227525 -0.381148 -0.611 146 155 184
0.229852 -0.381148 -0.611 179 184 206
0.231016 -0.381148 -0.611 190 195 217
0.329322 -0.341848 -0.548 183 134 129
0.329751 -0.328748 -0.527 198 146 135
0.3325 -0.3275 -0.525 195 146 132
0.341537 -0.325629 -0.522 197 140 131
0.34386 -0.325005 -0.521 195 142 134
0.353105 -0.324381 -0.52 179 124 117
0.354095 -0.324381 -0.52 177 123 113
0.354403 -0.323757 -0.519 173 119 109
0.364854 -0.32251 -0.517 193 136 129
0.39146 -0.329995 -0.529 140 92 82
0.411129 -0.338729 -0.543 145 98 90
0.0781543 -0.364166 -0.582 195 149 134
0.082519 -0.349774 -0.559 197 149 135
0.0912781 -0.346646 -0.554 200 151 134
0.0921667 -0.34602 -0.553 201 150 133
0.108823 -0.345394 -0.552 196 141 121
0.110926 -0.345394 -0.552 191 138 120
0.12232 -0.347897 -0.556 162 104 92
0.1316 -0.352903 -0.564 141 92 85
0.147566 -0.360411 -0.576 129 86 80
0.156863 -0.364166 -0.582 126 85 81
0.16408 -0.36792 -0.588 126 87 82
0.203914 -0.381686 -0.61 161 163 178
0.211231 -0.382311 -0.611 150 150 176
0.219378 -0.382311 -0.611 171 177 201
0.22287 -0.382311 -0.611 173 179 205
0.228689 -0.382311 -0.611 106 116 143
0.234124 -0.381686 -0.61 201 200 218
0.23761 -0.381686 -0.61 203 208 230
0.324163 -0.332254 -0.531 193 141 128
0.3305 -0.3285 -0.525 193 144 130
0.331867 -0.327874 -0.524 197 148 134
0.336214 -0.327249 -0.523 194 144 133
0.358946 -0.323494 -0.517 188 136 123
0.375163 -0.324746 -0.519 173 120 106
0.384766 -0.327874 -0.524 150 97 79
0.414994 -0.340389 -0.544 147 100 92
0.419367 -0.342266 -0.547 153 106 96
0.421177 -0.342891 -0.548 152 105 95
0.0787181 -0.362764 -0.578 195 145 134
0.0791286 -0.359626 -0.573 198 148 137
0.0951543 -0.346446 -0.552 196 148 126
0.09936 -0.346446 -0.552 196 145 124
0.111977 -0.346446 -0.552 192 140 119
0.117659 -0.347701 -0.554 176 119 102
0.121261 -0.348956 -0.556 164 108 93
0.12511 -0.350839 -0.559 153 100 86
0.127694 -0.352094 -0.561 145 96 82
0.133145 -0.355232 -0.566 136 89 81
0.13446 -0.35586 -0.567 135 88 80
0.148921 -0.362136 -0.577 129 86 80
0.161565 -0.368412 -0.587 120 85 81
0.191665 -0.381592 -0.608 153 150 171
0.19546 -0.38222 -0.609 150 148 172
0.19894 -0.38222 -0.609 52 54 79
0.206238 -0.382848 -0.61 156 158 173
0.212048 -0.382848 -0.61 143 145 168
0.214371 -0.382848 -0.61 112 116 145
0.2318 -0.382848 -0.61 178 187 216
0.236448 -0.382848 -0.61 207 205 226
0.24534 -0.38222 -0.609 153 170 200
0.335119 -0.35335 -0.563 188 131 120
0.324163 -0.333266 -0.531 192 140 127
0.325571 -0.332638 -0.53 189 140 126
0.331233 -0.328245 -0.523 197 148 133
0.33223 -0.328245 -0.523 196 147 132
0.340229 -0.326362 -0.52 194 142 129
0.346813 -0.325107 -0.518 191 139 126
0.349773 -0.325107 -0.518 189 135 123
0.370493 -0.325107 -0.518 181 127 115
0.375163 -0.325734 -0.519 175 121 109
0.388238 -0.330128 -0.526 138 89 82
0.404269 -0.337659 -0.538 142 95 87
0.414231 -0.340797 -0.543 146 99 91
0.41603 -0.341425 -0.544 150 103 95
0.41964 -0.34268 -0.546 151 103 91
0.42481 -0.34519 -0.55 153 109 98
0.0765162 -0.363865 -0.578 193 151 137
0.0820762 -0.350015 -0.556 198 150 136
0.0921667 -0.348127 -0.553 196 145 126
0.0930514 -0.347497 -0.552 197 146 127
0.0962057 -0.347497 -0.552 197 149 129
0.100411 -0.347497 -0.552 197 146 125
0.116604 -0.348756 -0.554 178 123 103
0.121479 -0.350645 -0.557 160 104 91
0.123823 -0.351274 -0.558 150 98 85
0.137343 -0.358829 -0.57 129 85 76
0.140004 -0.360088 -0.572 130 85 79
0.146723 -0.363235 -0.577 130 87 81
0.151905 -0.365124 -0.58 126 85 81
0.159057 -0.368901 -0.586 123 87 89
0.160447 -0.36953 -0.587 122 86 88
0.208562 -0.38401 -0.61 165 166 186
0.23374 -0.38338 -0.609 176 192 226
0.23954 -0.38338 -0.609 175 182 211
0.243779 -0.38275 -0.608 152 169 199
0.345986 -0.368271 -0.585 181 133 123
0.325736 -0.331759 -0.527 195 143 129
0.327122 -0.33113 -0.526 193 141 127
0.330237 -0.329241 -0.523 196 147 130
0.344174 -0.325464 -0.517 192 140 126
0.346144 -0.325464 -0.517 192 140 126
0.351068 -0.325464 -0.517 188 136 123
0.352052 -0.325464 -0.517 186 134 121
0.357269 -0.324834 -0.516 186 134 123
0.37148 -0.326093 -0.518 180 126 114
0.394963 -0.334277 -0.531 145 96 89
0.401745 -0.337425 -0.536 141 94 84
0.406047 -0.339313 -0.539 145 98 88
0.417067 -0.342461 -0.544 151 103 89
0.418871 -0.34309 -0.545 151 103 89
0.4368 -0.352533 -0.56 148 105 96
0.0748286 -0.367491 -0.582 199 156 139
0.0765162 -0.364966 -0.578 193 151 137
0.0858467 -0.34918 -0.553 199 150 133
0.0888457 -0.348549 -0.552 202 153 136
0.092 -0.348549 -0.552 196 145 126
0.0949819 -0.347917 -0.551 196 148 128
0.09918 -0.347917 -0.551 197 146 127
0.104428 -0.347917 -0.551 199 147 126
0.107576 -0.347917 -0.551 197 145 124
0.108626 -0.347917 -0.551 194 142 121
0.121479 -0.351706 -0.557 155 101 89
0.131833 -0.356757 -0.565 133 88 82
0.134697 -0.358651 -0.568 132 87 81
0.138671 -0.360546 -0.571 133 88 82
0.146977 -0.364966 -0.578 127 86 80
0.160447 -0.370649 -0.587 122 86 88
0.195139 -0.383909 -0.608 85 88 121
0.20938 -0.38454 -0.609 176 174 188
0.21054 -0.38454 -0.609 171 172 190
0.2117 -0.38454 -0.609 169 170 188
0.21866 -0.38454 -0.609 178 185 201
0.2233 -0.38454 -0.609 184 191 207
0.228724 -0.383909 -0.608 76 98 137
0.23104 -0.383909 -0.608 117 137 174
0.243779 -0.383909 -0.608 138 157 189
0.325736 -0.332763 -0.527 194 143 126
0.3275 -0.3315 -0.525 198 147 130
0.328872 -0.330869 -0.524 196 145 128
0.329606 -0.329606 -0.522 197 146 127
0.331951 -0.328974 -0.521 197 146 127
0.338266 -0.326449 -0.517 191 142 125
0.340235 -0.326449 -0.517 193 144 127
0.342526 -0.325817 -0.516 191 142 127
0.351371 -0.325817 -0.516 185 133 120
0.352354 -0.325817 -0.516 185 133 120
0.357842 -0.324554 -0.514 185 133 120
0.363443 -0.325186 -0.515 186 132 120
0.370763 -0.326449 -0.517 180 126 114
0.376151 -0.327711 -0.519 168 116 102
0.382303 -0.329606 -0.522 146 97 83
0.407829 -0.340971 -0.54 146 100 87
0.408857 -0.340971 -0.54 146 100 87
0.07826 -0.354033 -0.559 198 152 136
0.0886848 -0.348967 -0.551 201 153 133
0.0907838 -0.348967 -0.551 197 149 129
0.0960314 -0.348967 -0.551 196 145 126
0.105477 -0.348967 -0.551 198 146 125
0.113029 -0.3496 -0.552 192 142 117
0.120418 -0.352767 -0.557 158 102 87
0.121697 -0.3534 -0.558 154 101 87
0.125557 -0.3553 -0.561 144 94 83
0.195139 -0.385067 -0.608 47 51 88
0.20672 -0.385067 -0.608 112 107 113
0.2117 -0.3857 -0.609 174 173 191
0.243378 -0.384433 -0.607 121 143 180
0.322747 -0.336933 -0.532 187 138 123
0.334973 -0.328067 -0.518 194 146 126
0.345786 -0.326167 -0.515 190 141 124
0.346767 -0.326167 -0.515 193 141 127
0.354905 -0.325533 -0.514 188 136 123
0.360077 -0.3249 -0.513 183 131 118
0.362737 -0.325533 -0.514 185 132 118
0.367367 -0.326167 -0.515 181 129 115
0.3875 -0.3325 -0.525 143 95 83
0.38998 -0.333767 -0.527 140 92 80
0.39672 -0.336933 -0.532 142 96 83
0.402766 -0.339467 -0.536 143 97 84
0.419139 -0.344533 -0.544 151 105 92
0.0865857 -0.350016 -0.551 201 154 134
0.0885238 -0.349381 -0.55 201 154 134
0.100048 -0.349381 -0.55 196 145 124
0.10319 -0.349381 -0.55 201 150 129
0.106527 -0.350016 -0.551 197 147 124
0.113029 -0.350651 -0.552 188 139 109
0.132067 -0.359545 -0.566 130 86 83
0.139157 -0.363991 -0.573 129 88 86
0.144525 -0.366532 -0.577 124 84 82
0.180348 -0.384319 -0.605 60 64 101
0.185263 -0.384954 -0.606 115 124 163
0.186417 -0.384954 -0.606 113 121 158
0.207536 -0.38559 -0.607 140 137 144
0.218301 -0.386225 -0.608 181 188 204
0.231816 -0.38559 -0.607 71 89 127
0.241066 -0.38559 -0.607 134 153 196
0.321926 -0.339217 -0.534 185 135 126
0.322338 -0.338582 -0.533 185 138 122
0.334327 -0.328418 -0.517 194 146 126
0.3399 -0.327148 -0.515 186 137 120
0.340881 -0.327148 -0.515 187 138 121
0.344135 -0.326512 -0.514 190 141 124
0.346093 -0.326512 -0.514 195 143 129
0.361054 -0.325877 -0.513 185 134 117
0.363986 -0.325877 -0.513 178 126 112
0.380578 -0.330959 -0.521 153 103 92
0.442642 -0.357004 -0.562 150 107 98
0.466329 -0.371614 -0.585 159 125 123
0.0707571 -0.372729 -0.585 200 158 142
0.0715029 -0.370817 -0.582 201 159 143
0.0843333 -0.350429 -0.55 201 153 133
0.127077 -0.358711 -0.563 137 91 76
0.137825 -0.364446 -0.572 129 88 84
0.144775 -0.368269 -0.578 127 86 82
0.147486 -0.369543 -0.58 123 85 82
0.148847 -0.37018 -0.581 122 84 81
0.15184 -0.372091 -0.584 126 86 84
0.184957 -0.385471 -0.605 105 117 159
0.194818 -0.386746 -0.607 111 115 152
0.208692 -0.386746 -0.607 155 152 159
0.211005 -0.386746 -0.607 161 158 177
0.222567 -0.386746 -0.607 189 194 213
0.223723 -0.386746 -0.607 194 195 215
0.23028 -0.386109 -0.606 89 103 140
0.235285 -0.386746 -0.607 177 191 230
0.322887 -0.34342 -0.539 175 125 114
0.32214 -0.338323 -0.531 180 134 119
0.333342 -0.329403 -0.517 195 144 125
0.33924 -0.327491 -0.514 186 133 117
0.343466 -0.326854 -0.513 193 140 124
0.347374 -0.326854 -0.513 194 142 128
0.348351 -0.326854 -0.513 191 139 125
0.36594 -0.326854 -0.513 180 131 116
0.376413 -0.33004 -0.518 159 109 98
0.383297 -0.332589 -0.522 150 102 90
0.411943 -0.344057 -0.54 144 100 89
0.417598 -0.345331 -0.542 150 103 95
0.421211 -0.346606 -0.544 151 104 96
0.431611 -0.351703 -0.552 144 100 89
0.0703943 -0.371926 -0.582 201 158 141
0.0873171 -0.350837 -0.549 203 155 135
0.0946371 -0.350837 -0.549 197 149 127
0.09882 -0.350837 -0.549 197 149 129
0.108429 -0.351476 -0.55 192 140 119
0.111977 -0.352754 -0.552 182 130 108
0.127077 -0.359784 -0.563 139 91 77
0.13385 -0.363618 -0.569 130 87 81
0.137825 -0.365535 -0.572 128 87 83
0.14208 -0.368091 -0.576 126 85 81
0.149103 -0.371926 -0.582 121 83 80
0.208349 -0.387263 -0.606 104 103 119
0.210657 -0.387263 -0.606 121 118 135
0.223354 -0.387263 -0.606 192 199 215
0.224509 -0.387263 -0.606 193 200 216
0.225663 -0.387263 -0.606 194 201 219
0.237967 -0.386624 -0.605 136 148 196
0.32151 -0.34189 -0.535 176 126 119
0.321926 -0.341251 -0.534 180 130 123
0.322543 -0.338695 -0.53 181 128 112
0.32612 -0.336139 -0.526 188 135 119
0.3265 -0.3355 -0.525 185 134 117
0.331666 -0.331666 -0.519 189 138 121
0.346697 -0.327192 -0.512 193 141 127
0.35478 -0.326553 -0.511 188 139 125
0.36594 -0.327831 -0.513 181 132 118
0.37031 -0.32911 -0.515 171 122 108
0.403787 -0.34253 -0.536 145 99 86
0.417598 -0.346364 -0.542 145 101 90
0.431095 -0.351476 -0.55 141 97 86
0.0799971 -0.351883 -0.549 202 157 138
0.0882019 -0.351242 -0.548 200 151 134
0.0892457 -0.351242 -0.548 196 148 128
0.0902895 -0.351242 -0.548 194 146 126
0.0913333 -0.351242 -0.548 196 148 128
0.0955086 -0.351242 -0.548 197 149 129
0.0998657 -0.351883 -0.549 197 146 127
0.118084 -0.35637 -0.556 153 100 86
0.121915 -0.358292 -0.559 143 93 84
0.18005 -0.387135 -0.604 32 48 99
0.18611 -0.387776 -0.605 59 78 134
0.189567 -0.387776 -0.605 51 68 120
0.196806 -0.388417 -0.606 164 168 193
0.207194 -0.388417 -0.606 146 145 163
0.211811 -0.388417 -0.606 118 115 136
0.222986 -0.387776 -0.605 192 199 215
0.235662 -0.387776 -0.605 100 116 168
0.34552 -0.37688 -0.588 171 127 128
0.324343 -0.338423 -0.528 183 127 114
0.3265 -0.3365 -0.525 185 132 118
0.332357 -0.331372 -0.517 189 138 119
0.334995 -0.33009 -0.515 189 136 118
0.343771 -0.328168 -0.512 190 137 119
0.34602 -0.327527 -0.511 191 138 122
0.347967 -0.327527 -0.511 190 137 121
0.372994 -0.330731 -0.516 158 111 93
0.396986 -0.340346 -0.531 144 97 87
0.41118 -0.345473 -0.539 144 100 89
0.422248 -0.348678 -0.544 149 105 96
0.429266 -0.351883 -0.549 140 96 87
0.436341 -0.355088 -0.554 151 107 98
0.439765 -0.35701 -0.557 153 109 100
0.0689286 -0.372214 -0.579 206 158 138
0.0760905 -0.354214 -0.551 199 155 142
0.0779057 -0.352929 -0.549 200 155 136
0.0838733 -0.351643 -0.547 199 152 134
0.0955086 -0.352286 -0.548 201 150 133
0.0965524 -0.352286 -0.548 200 149 132
0.0975962 -0.352286 -0.548 198 147 130
0.109476 -0.353571 -0.55 184 133 112
0.113233 -0.3555 -0.553 166 113 95
0.115757 -0.356786 -0.555 153 100 84
0.135409 -0.367071 -0.571 130 87 80
0.136735 -0.367714 -0.572 129 86 79
0.1394 -0.369 -0.574 128 85 78
0.145276 -0.372857 -0.58 124 83 79
0.17286 -0.387643 -0.603 63 69 103
0.176306 -0.387643 -0.603 33 43 79
0.178899 -0.388286 -0.604 23 43 94
0.18005 -0.388286 -0.604 32 55 107
0.188103 -0.388286 -0.604 27 46 102
0.195329 -0.388929 -0.605 164 166 191
0.198786 -0.388929 -0.605 169 168 186
0.204548 -0.388929 -0.605 140 138 159
0.212614 -0.388929 -0.605 130 128 149
0.213767 -0.388929 -0.605 155 152 173
0.216865 -0.388286 -0.604 156 158 173
0.226069 -0.388286 -0.604 192 195 212
0.332383 -0.361286 -0.562 164 115 108
0.321689 -0.345214 -0.537 171 116 111
0.32151 -0.343929 -0.535 173 118 113
0.327617 -0.335571 -0.522 185 133 119
0.336626 -0.329786 -0.513 186 133 115
0.337603 -0.329786 -0.513 186 133 115
0.342127 -0.3285 -0.511 188 135 117
0.3431 -0.3285 -0.511 188 135 117
0.348257 -0.327857 -0.51 187 134 118
0.3502 -0.327857 -0.51 188 135 119
0.364513 -0.3285 -0.511 188 132 115
0.372994 -0.331714 -0.516 158 111 95
0.386762 -0.336857 -0.524 141 94 84
0.400511 -0.342643 -0.533 143 99 88
0.412207 -0.3465 -0.539 143 99 88
0.421471 -0.349071 -0.543 151 104 96
0.468869 -0.375429 -0.584 135 121 134
0.0797057 -0.352685 -0.547 203 156 138
0.0807476 -0.352685 -0.547 203 156 138
0.0890829 -0.352685 -0.547 194 146 126
0.0901248 -0.352685 -0.547 194 146 126
0.108429 -0.354619 -0.55 186 135 116
0.109675 -0.355264 -0.551 182 131 112
0.118296 -0.359132 -0.557 145 93 80
0.122133 -0.361067 -0.56 142 94 84
0.12471 -0.362356 -0.562 139 91 79
0.13014 -0.36558 -0.567 135 89 74
0.131451 -0.366225 -0.568 135 89 74
0.134086 -0.367514 -0.57 131 87 76
0.138307 -0.370093 -0.574 128 85 76
0.139643 -0.370738 -0.575 127 84 75
0.17028 -0.388147 -0.602 43 52 85
0.174009 -0.388791 -0.603 46 55 96
0.176306 -0.388791 -0.603 24 36 84
0.200758 -0.389436 -0.604 166 165 183
0.213767 -0.390081 -0.605 147 146 164
0.216865 -0.389436 -0.604 155 153 166
0.224918 -0.389436 -0.604 200 199 215
0.341994 -0.375251 -0.582 168 123 120
0.3255 -0.3385 -0.525 181 127 115
0.328343 -0.335276 -0.52 184 131 117
0.332357 -0.333342 -0.517 187 134 118
0.337603 -0.330763 -0.513 185 132 116
0.341153 -0.329473 -0.511 186 135 116
0.345047 -0.329473 -0.511 185 132 114
0.347286 -0.328829 -0.51 186 130 115
0.367894 -0.330763 -0.513 177 126 109
0.372271 -0.332052 -0.515 159 110 96
0.386762 -0.337855 -0.524 141 94 84
0.393737 -0.340434 -0.528 141 94 84
0.397997 -0.342369 -0.531 144 97 87
0.403297 -0.344303 -0.534 147 100 90
0.41426 -0.347527 -0.539 146 99 91
0.427702 -0.352685 -0.547 144 100 91
0.0682143 -0.37054 -0.573 201 155 132
0.0738571 -0.355667 -0.55 204 157 139
0.0747686 -0.35502 -0.549 199 155 142
0.0776219 -0.353727 -0.547 201 156 135
0.0806 -0.35308 -0.546 202 155 135
0.08164 -0.35308 -0.546 201 154 134
0.0911667 -0.353727 -0.547 200 152 132
0.108429 -0.355667 -0.55 182 131 110
0.117025 -0.359547 -0.556 143 91 78
0.119571 -0.36084 -0.558 139 89 78
0.128832 -0.366013 -0.566 133 87 74
0.134086 -0.3686 -0.57 133 86 76
0.142573 -0.373773 -0.578 121 80 74
0.144171 -0.375067 -0.58 121 84 78
0.169133 -0.389293 -0.602 49 56 84
0.182049 -0.38994 -0.603 21 47 98
0.187791 -0.38994 -0.603 43 59 119
0.191237 -0.38994 -0.603 138 147 186
0.217654 -0.38994 -0.603 194 193 209
0.2211 -0.38994 -0.603 200 201 221
0.321129 -0.34338 -0.531 168 114 104
0.3245 -0.3395 -0.525 179 123 110
0.326623 -0.33756 -0.522 182 124 112
0.33004 -0.334973 -0.518 180 127 111
0.333366 -0.332387 -0.514 182 129 113
0.338233 -0.330447 -0.511 186 133 115
0.345343 -0.3298 -0.51 184 128 111
0.359209 -0.329153 -0.509 182 126 113
0.37057 -0.332387 -0.514 164 115 98
0.382563 -0.336913 -0.521 149 100 93
0.411442 -0.347907 -0.538 145 98 88
0.420695 -0.350493 -0.542 146 102 91
0.429786 -0.353727 -0.547 145 103 91
0.0677381 -0.369037 -0.569 204 159 138
0.0728095 -0.356714 -0.55 203 158 139
0.09724 -0.35412 -0.546 196 148 126
0.104903 -0.355417 -0.548 190 139 118
0.119786 -0.362551 -0.559 140 90 79
0.12364 -0.364497 -0.562 138 89 82
0.166563 -0.389791 -0.601 42 43 73
0.167708 -0.389791 -0.601 49 54 86
0.172573 -0.39044 -0.602 32 47 90
0.178307 -0.39044 -0.602 18 45 92
0.1806 -0.39044 -0.602 20 46 97
0.185187 -0.39044 -0.602 44 67 134
0.188627 -0.39044 -0.602 62 81 139
0.202723 -0.391089 -0.603 172 170 191
0.203871 -0.391089 -0.603 166 165 183
0.209614 -0.391089 -0.603 142 141 155
0.211911 -0.391089 -0.603 129 129 141
0.231053 -0.39044 -0.602 121 129 150
0.321429 -0.350229 -0.54 154 97 88
0.32049 -0.346986 -0.535 160 97 92
0.320524 -0.343743 -0.53 164 107 98
0.320927 -0.343094 -0.529 166 109 100
0.324116 -0.341149 -0.526 178 120 108
0.3255 -0.3405 -0.525 180 124 111
0.326252 -0.339203 -0.523 181 125 112
0.333033 -0.334014 -0.515 183 127 112
0.348544 -0.330123 -0.509 181 125 110
0.349794 -0.329474 -0.508 180 124 109
0.357535 -0.329474 -0.508 187 129 117
0.374233 -0.334014 -0.515 153 104 90
0.380106 -0.336609 -0.519 147 98 91
0.38776 -0.339851 -0.524 141 94 84
0.401787 -0.34504 -0.532 149 102 92
0.410677 -0.348283 -0.537 145 98 88
0.434238 -0.356714 -0.55 146 104 92
0.104903 -0.356461 -0.548 187 137 114
0.131683 -0.370121 -0.569 131 84 74
0.134321 -0.371422 -0.571 131 84 74
0.140129 -0.375325 -0.577 126 83 76
0.181747 -0.391587 -0.602 29 54 110
0.182893 -0.391587 -0.602 62 87 144
0.188627 -0.391587 -0.602 57 77 128
0.19092 -0.391587 -0.602 138 150 192
0.195831 -0.392237 -0.603 171 172 190
0.212707 -0.391587 -0.602 124 123 131
0.215 -0.391587 -0.602 195 193 206
0.223027 -0.391587 -0.602 203 201 222
0.323511 -0.35581 -0.547 151 94 85
0.3245 -0.3415 -0.525 176 119 108
0.32699 -0.338898 -0.521 179 123 110
0.328343 -0.338248 -0.52 182 126 111
0.333694 -0.333694 -0.513 182 126 111
0.334671 -0.333694 -0.513 182 126 111
0.334994 -0.333044 -0.512 183 127 112
0.33597 -0.333044 -0.512 180 124 109
0.339818 -0.331092 -0.509 181 125 108
0.344666 -0.331092 -0.509 182 126 111
0.3556 -0.330442 -0.508 182 126 113
0.356568 -0.330442 -0.508 186 130 117
0.371549 -0.334345 -0.514 158 109 95
0.380106 -0.337597 -0.519 146 98 88
0.384291 -0.339549 -0.522 142 95 85
0.386024 -0.340199 -0.523 142 95 85
0.38776 -0.34085 -0.524 141 94 84
0.401787 -0.346053 -0.532 144 100 89
0.430828 -0.35581 -0.547 145 103 91
0.43792 -0.359063 -0.552 145 103 91
0.449065 -0.365568 -0.562 140 96 87
0.0660314 -0.373814 -0.573 199 158 138
0.0678543 -0.365986 -0.561 202 161 143
0.0734543 -0.356852 -0.547 202 160 138
0.07748 -0.3562 -0.546 202 157 134
0.0897952 -0.355548 -0.545 200 152 130
0.104903 -0.357505 -0.548 181 131 108
0.113233 -0.360767 -0.553 150 98 85
0.115757 -0.362071 -0.555 144 94 83
0.117025 -0.362724 -0.556 145 97 87
0.122351 -0.365986 -0.561 140 92 82
0.131683 -0.371205 -0.569 129 82 76
0.137213 -0.374467 -0.574 127 87 77
0.169133 -0.392733 -0.602 75 86 104
0.172573 -0.392733 -0.602 32 50 100
0.178307 -0.392733 -0.602 40 63 115
0.184879 -0.392081 -0.601 100 127 174
0.196653 -0.392733 -0.602 170 171 192
0.20124 -0.392733 -0.602 172 173 191
0.213498 -0.392081 -0.601 178 177 183
0.222656 -0.392081 -0.601 201 202 223
0.224946 -0.392081 -0.601 194 195 215
0.330388 -0.337281 -0.517 183 127 112
0.331372 -0.337281 -0.517 184 128 113
0.340788 -0.332062 -0.509 181 125 110
0.351037 -0.330757 -0.507 182 126 111
0.355866 -0.330757 -0.507 183 125 113
0.369849 -0.334671 -0.513 160 109 92
0.375943 -0.336629 -0.516 145 97 87
0.392991 -0.343805 -0.527 138 94 83
0.4028 -0.347067 -0.532 139 97 85
0.406349 -0.348371 -0.534 142 100 88
0.429252 -0.355548 -0.545 144 101 92
0.46464 -0.375771 -0.576 142 112 114
0.0704571 -0.358549 -0.548 202 159 140
0.0724124 -0.357894 -0.547 201 159 137
0.0763 -0.356586 -0.545 200 155 132
0.0783762 -0.356586 -0.545 201 156 133
0.0834133 -0.355931 -0.544 185 139 115
0.109675 -0.360511 -0.551 158 106 85
0.121067 -0.3664 -0.56 142 92 81
0.140371 -0.378177 -0.578 123 84 79
0.176866 -0.393226 -0.601 39 69 129
0.179155 -0.393226 -0.601 43 73 133
0.18259 -0.393226 -0.601 112 133 178
0.186024 -0.393226 -0.601 151 164 198
0.210064 -0.393226 -0.601 182 184 197
0.213498 -0.393226 -0.601 179 183 192
0.222656 -0.393226 -0.601 187 191 216
0.318027 -0.350697 -0.536 172 109 100
0.318911 -0.346117 -0.529 146 80 68
0.319314 -0.345463 -0.528 139 79 68
0.333366 -0.336303 -0.514 182 129 113
0.334994 -0.334994 -0.512 182 126 111
0.335313 -0.33434 -0.511 172 116 101
0.337879 -0.333031 -0.509 180 124 109
0.344277 -0.331723 -0.507 181 128 112
0.346209 -0.331723 -0.507 178 125 109
0.350345 -0.331069 -0.506 180 124 109
0.3549 -0.331723 -0.507 182 124 110
0.362117 -0.333031 -0.509 175 119 106
0.36646 -0.33434 -0.511 164 111 95
0.375943 -0.337611 -0.516 144 97 87
0.395749 -0.345463 -0.528 140 97 88
0.409912 -0.350697 -0.536 139 99 89
0.43108 -0.35724 -0.546 139 99 91
0.0641829 -0.377966 -0.576 196 153 134
0.0672495 -0.364842 -0.556 202 159 140
0.0885943 -0.356968 -0.544 201 153 130
0.0960238 -0.357624 -0.545 203 157 134
0.109675 -0.361561 -0.551 159 103 88
0.113233 -0.362873 -0.553 153 100 86
0.124932 -0.369435 -0.563 140 93 85
0.13037 -0.372716 -0.568 132 85 79
0.137452 -0.37731 -0.575 121 86 82
0.163727 -0.393058 -0.599 100 105 134
0.190286 -0.393714 -0.6 81 96 135
0.199429 -0.393714 -0.6 177 176 192
0.22 -0.393714 -0.6 196 203 221
0.317006 -0.351718 -0.536 183 130 124
0.332697 -0.338594 -0.516 184 126 114
0.350345 -0.332032 -0.506 184 124 113
0.357797 -0.332689 -0.507 175 119 106
0.361406 -0.333345 -0.508 176 120 107
0.363087 -0.334001 -0.509 175 119 106
0.371549 -0.337282 -0.514 146 98 84
0.383555 -0.341875 -0.521 133 91 79
0.385286 -0.342531 -0.522 135 93 81
0.388758 -0.343844 -0.524 139 97 85
0.394999 -0.345812 -0.527 134 92 80
0.433953 -0.358936 -0.547 140 102 91
0.06396 -0.377747 -0.574 195 153 131
0.06534 -0.37314 -0.567 200 157 138
0.0711095 -0.358662 -0.545 203 161 139
0.0731857 -0.358662 -0.545 201 159 137
0.0853286 -0.357346 -0.543 199 153 129
0.0894657 -0.357346 -0.543 200 154 130
0.0937752 -0.358004 -0.544 203 157 134
0.10367 -0.359978 -0.547 173 123 100
0.115757 -0.365243 -0.555 151 98 84
0.119786 -0.367875 -0.559 147 95 84
0.122351 -0.369191 -0.561 143 93 82
0.12906 -0.37314 -0.567 137 90 82
0.13612 -0.377747 -0.574 118 87 84
0.13903 -0.379721 -0.577 114 85 87
0.163727 -0.394199 -0.599 111 117 143
0.176571 -0.394857 -0.6 52 82 136
0.192571 -0.394857 -0.6 82 96 135
0.201714 -0.394857 -0.6 178 177 193
0.210506 -0.394199 -0.599 190 188 199
0.214286 -0.394857 -0.6 192 198 214
0.22 -0.394857 -0.6 186 191 210
0.225714 -0.394857 -0.6 108 123 156
0.316574 -0.353397 -0.537 185 132 126
0.315231 -0.350765 -0.533 187 134 128
0.315653 -0.350107 -0.532 184 129 122
0.321651 -0.343526 -0.522 148 86 75
0.329403 -0.340235 -0.517 171 112 98
0.333694 -0.337603 -0.513 183 125 111
0.334657 -0.335629 -0.51 178 120 106
0.342346 -0.333654 -0.507 182 126 111
0.342634 -0.332996 -0.506 186 128 114
0.3542 -0.332996 -0.506 180 121 105
0.356831 -0.333654 -0.507 178 122 109
0.368152 -0.336945 -0.512 152 99 83
0.393248 -0.346158 -0.526 134 94 82
0.407366 -0.351423 -0.534 135 95 83
0.448797 -0.367875 -0.559 143 104 97
0.0654829 -0.36894 -0.559 201 159 137
0.0683695 -0.36168 -0.548 201 159 135
0.0720152 -0.35904 -0.544 203 158 135
0.07602 -0.35838 -0.543 204 160 135
0.0915343 -0.35838 -0.543 202 156 132
0.0937752 -0.35904 -0.544 202 156 130
0.10367 -0.36102 -0.547 173 123 100
0.105947 -0.36168 -0.548 166 113 95
0.121067 -0.3696 -0.56 147 95 82
0.122351 -0.37026 -0.561 143 93 82
0.140614 -0.38214 -0.579 111 82 84
0.16829 -0.39534 -0.599 76 77 98
0.169431 -0.39534 -0.599 76 83 111
0.172854 -0.39534 -0.599 80 98 138
0.178559 -0.39534 -0.599 71 94 146
0.186546 -0.39534 -0.599 167 168 189
0.187687 -0.39534 -0.599 164 165 186
0.197955 -0.39534 -0.599 172 173 191
0.202519 -0.39534 -0.599 177 178 196
0.205598 -0.39468 -0.598 168 166 180
0.211647 -0.39534 -0.599 186 194 207
0.21507 -0.39534 -0.599 191 197 213
0.314964 -0.35376 -0.536 188 135 129
0.3155 -0.3465 -0.525 194 135 127
0.319663 -0.34452 -0.522 177 117 107
0.32302 -0.34386 -0.521 156 96 85
0.32708 -0.34188 -0.518 155 93 80
0.328067 -0.34188 -0.518 158 96 83
0.331071 -0.3399 -0.515 170 111 97
0.332717 -0.33858 -0.513 175 116 102
0.349652 -0.3333 -0.505 187 125 110
0.3542 -0.33396 -0.506 177 118 102
0.357797 -0.33462 -0.507 172 119 103
0.375943 -0.34056 -0.516 133 90 81
0.411954 -0.35376 -0.536 130 88 76
0.416566 -0.35508 -0.538 134 94 82
0.424825 -0.35772 -0.542 140 100 88
0.43316 -0.36036 -0.546 140 102 91
0.473914 -0.38412 -0.582 132 119 113
0.06426 -0.3753 -0.567 196 154 132
0.0652486 -0.368681 -0.557 201 159 135
0.0700714 -0.360738 -0.545 203 158 135
0.0720152 -0.360076 -0.544 204 159 136
0.0748476 -0.358752 -0.542 205 161 136
0.0851714 -0.358752 -0.542 200 154 130
0.0862038 -0.358752 -0.542 200 154 128
0.0884314 -0.359414 -0.543 202 156 130
0.0915343 -0.359414 -0.543 200 154 128
0.0948114 -0.360076 -0.544 201 156 127
0.100176 -0.360738 -0.545 180 131 101
0.104711 -0.362062 -0.547 170 118 97
0.110926 -0.365371 -0.552 158 101 90
0.118296 -0.368681 -0.557 149 95 83
0.124932 -0.372652 -0.563 143 93 84
0.172566 -0.395819 -0.598 87 101 138
0.175983 -0.395819 -0.598 74 95 140
0.19079 -0.395819 -0.598 96 110 145
0.205598 -0.395819 -0.598 124 123 137
0.207876 -0.395819 -0.598 138 135 144
0.21585 -0.395819 -0.598 199 202 221
0.219267 -0.395819 -0.598 126 133 159
0.221545 -0.395819 -0.598 109 124 155
0.22724 -0.395819 -0.598 208 214 236
0.312448 -0.35081 -0.53 186 131 124
0.3135 -0.3475 -0.525 191 136 129
0.327433 -0.342205 -0.517 156 94 81
0.329749 -0.341543 -0.516 159 96 81
0.330429 -0.340219 -0.514 156 96 85
0.330763 -0.339557 -0.513 159 100 86
0.33528 -0.336248 -0.508 186 129 112
0.344843 -0.334262 -0.505 188 129 115
0.347729 -0.334262 -0.505 186 127 113
0.349652 -0.334262 -0.505 184 125 111
0.353236 -0.334924 -0.506 173 114 100
0.356831 -0.335586 -0.507 170 117 101
0.369128 -0.338895 -0.512 131 85 70
0.372528 -0.340219 -0.514 131 84 74
0.384548 -0.344852 -0.521 135 93 81
0.3925 -0.3475 -0.525 135 93 81
0.404827 -0.352133 -0.532 127 87 75
0.42301 -0.35809 -0.541 139 99 87
0.430537 -0.360076 -0.544 140 102 89
0.461971 -0.377286 -0.57 143 102 98
0.0628667 -0.381027 -0.574 197 152 129
0.0718829 -0.360449 -0.543 205 160 137
0.0808924 -0.359121 -0.541 200 156 129
0.0913657 -0.359785 -0.542 199 153 127
0.0958476 -0.361112 -0.544 192 145 115
0.12085 -0.37107 -0.559 145 95 86
0.12364 -0.373061 -0.562 144 95 88
0.158631 -0.396294 -0.597 87 91 120
0.165731 -0.396958 -0.598 128 133 155
0.169149 -0.396958 -0.598 73 80 108
0.181678 -0.396958 -0.598 98 114 148
0.186234 -0.396958 -0.598 169 168 186
0.19193 -0.396958 -0.598 89 98 127
0.202181 -0.396958 -0.598 182 179 196
0.20332 -0.396958 -0.598 174 171 188
0.205598 -0.396958 -0.598 139 139 151
0.207876 -0.396958 -0.598 122 124 137
0.211293 -0.396958 -0.598 190 192 213
0.21585 -0.396958 -0.598 196 202 224
0.316073 -0.345845 -0.521 194 140 130
0.323494 -0.34319 -0.517 183 125 113
0.325817 -0.342526 -0.516 172 113 99
0.32945 -0.341198 -0.514 153 91 80
0.335888 -0.335888 -0.506 188 131 114
0.33811 -0.335224 -0.505 186 129 112
0.339071 -0.335224 -0.505 186 129 112
0.34032 -0.33456 -0.504 190 132 118
0.343881 -0.335224 -0.505 189 131 117
0.352538 -0.335224 -0.505 168 109 95
0.360438 -0.337215 -0.508 159 100 86
0.363087 -0.337879 -0.509 148 92 79
0.370826 -0.340534 -0.513 127 80 72
0.378641 -0.34319 -0.517 129 91 80
0.388016 -0.347172 -0.523 135 91 80
0.398766 -0.350491 -0.528 127 85 73
0.402295 -0.351819 -0.53 129 87 75
0.450927 -0.37107 -0.559 144 101 94
0.0643029 -0.371469 -0.558 200 155 134
0.0747095 -0.360151 -0.541 206 162 137
0.0936029 -0.361483 -0.543 196 148 125
0.104711 -0.364146 -0.547 171 115 98
0.107186 -0.365477 -0.549 163 105 93
0.110926 -0.367474 -0.552 159 102 93
0.11218 -0.36814 -0.553 153 103 94
0.115757 -0.369471 -0.555 148 98 87
0.158631 -0.397431 -0.597 106 110 139
0.16318 -0.397431 -0.597 137 138 158
0.16801 -0.398097 -0.598 76 83 109
0.175689 -0.397431 -0.597 99 114 157
0.191609 -0.397431 -0.597 137 141 166
0.192746 -0.397431 -0.597 108 113 142
0.196157 -0.397431 -0.597 145 151 183
0.197294 -0.397431 -0.597 172 175 206
0.205254 -0.397431 -0.597 152 154 169
0.220037 -0.397431 -0.597 187 194 220
0.224586 -0.397431 -0.597 215 220 239
0.22686 -0.397431 -0.597 211 217 233
0.31009 -0.350166 -0.526 181 124 115
0.310907 -0.348834 -0.524 191 134 123
0.311709 -0.347503 -0.522 192 138 126
0.315467 -0.346171 -0.52 193 140 126
0.329786 -0.341511 -0.513 152 93 79
0.332062 -0.338849 -0.509 172 113 99
0.339071 -0.336186 -0.505 189 132 115
0.34032 -0.33552 -0.504 191 135 118
0.352538 -0.336186 -0.505 165 108 89
0.358763 -0.337517 -0.507 154 96 82
0.359729 -0.337517 -0.507 150 92 78
0.407618 -0.354826 -0.533 130 88 76
0.408633 -0.354826 -0.533 128 84 75
0.4528 -0.3728 -0.56 148 104 101
0.457109 -0.375463 -0.564 144 109 103
0.470942 -0.384117 -0.577 147 107 97
0.0640724 -0.371196 -0.556 201 156 133
0.0708486 -0.362517 -0.543 203 157 134
0.073679 -0.361182 -0.541 204 158 134
0.0808924 -0.361182 -0.541 204 158 134
0.0913657 -0.36185 -0.542 195 148 122
0.109675 -0.367858 -0.551 159 105 93
0.11218 -0.369193 -0.553 155 106 92
0.124932 -0.37587 -0.563 142 92 83
0.164317 -0.398569 -0.597 134 139 161
0.177963 -0.398569 -0.597 91 105 150
0.184786 -0.398569 -0.597 162 172 199
0.192746 -0.398569 -0.597 164 164 188
0.208316 -0.397901 -0.596 171 184 216
0.216263 -0.397901 -0.596 99 115 148
0.217398 -0.397901 -0.596 144 157 191
0.30891 -0.349832 -0.524 181 124 115
0.328809 -0.342489 -0.513 178 121 104
0.330118 -0.341821 -0.512 162 105 88
0.330447 -0.341153 -0.511 153 96 79
0.335224 -0.337148 -0.505 192 136 119
0.364771 -0.340486 -0.51 126 79 71
0.376926 -0.344491 -0.516 123 81 69
0.377909 -0.344491 -0.516 129 85 74
0.386532 -0.34783 -0.521 136 92 81
0.388269 -0.348497 -0.522 136 92 81
0.396253 -0.351168 -0.526 131 87 76
0.413224 -0.357176 -0.535 138 94 83
0.417837 -0.358511 -0.537 139 96 87
0.422473 -0.359847 -0.539 126 83 74
0.425314 -0.360514 -0.54 130 87 78
0.437079 -0.365188 -0.547 143 104 99
0.457109 -0.376537 -0.564 144 109 103
0.0652381 -0.366899 -0.548 202 157 134
0.0669571 -0.36489 -0.545 202 157 134
0.0689067 -0.364221 -0.544 199 155 130
0.0891362 -0.362212 -0.541 202 155 129
0.0922276 -0.362212 -0.541 191 144 118
0.105947 -0.366899 -0.548 168 113 93
0.111977 -0.369577 -0.552 154 105 91
0.118296 -0.372925 -0.557 149 97 84
0.132377 -0.382968 -0.572 125 85 83
0.1337 -0.383637 -0.573 121 89 92
0.135262 -0.384976 -0.575 123 88 92
0.155833 -0.398367 -0.595 120 114 140
0.160636 -0.399036 -0.596 135 132 159
0.183649 -0.399706 -0.597 156 160 187
0.191288 -0.399036 -0.596 167 174 193
0.195829 -0.399036 -0.596 79 88 117
0.308726 -0.349491 -0.522 185 128 119
0.310514 -0.348152 -0.52 195 142 128
0.310906 -0.347483 -0.519 194 141 127
0.329143 -0.342796 -0.512 192 139 121
0.329473 -0.342127 -0.511 182 129 111
0.332689 -0.339449 -0.507 196 140 123
0.34731 -0.33677 -0.503 182 126 109
0.349226 -0.33677 -0.503 172 117 97
0.365743 -0.341457 -0.51 121 74 68
0.376195 -0.344805 -0.515 121 81 69
0.383071 -0.347483 -0.519 138 94 85
0.39275 -0.35083 -0.524 135 91 82
0.407867 -0.356187 -0.532 129 89 77
0.414243 -0.358195 -0.535 135 93 79
0.428163 -0.362212 -0.541 139 96 87
0.438121 -0.36623 -0.547 137 97 95
0.0612352 -0.382043 -0.569 195 154 132
0.0726486 -0.363243 -0.541 203 158 135
0.0795667 -0.3619 -0.539 201 157 132
0.08162 -0.3619 -0.539 200 156 131
0.0889714 -0.362571 -0.54 200 152 129
0.0965276 -0.363914 -0.542 187 133 109
0.118296 -0.373986 -0.557 149 97 84
0.130829 -0.382714 -0.57 124 86 85
0.159233 -0.3995 -0.595 136 134 158
0.1615 -0.3995 -0.595 136 137 157
0.189017 -0.400171 -0.596 170 173 190
0.192423 -0.400171 -0.596 168 174 188
0.194693 -0.400171 -0.596 135 146 176
0.201505 -0.400171 -0.596 145 154 185
0.207967 -0.3995 -0.595 161 188 231
0.211367 -0.3995 -0.595 128 144 195
0.218167 -0.3995 -0.595 188 202 231
0.311593 -0.3619 -0.539 175 124 120
0.30841 -0.355857 -0.53 179 126 120
0.308533 -0.349143 -0.52 185 131 119
0.315989 -0.346457 -0.516 200 144 127
0.325242 -0.343771 -0.512 197 141 124
0.345663 -0.337057 -0.502 182 126 109
0.357091 -0.339743 -0.506 144 88 75
0.364056 -0.341757 -0.509 124 77 69
0.367433 -0.3431 -0.511 121 77 68
0.370103 -0.343771 -0.512 123 76 68
0.373507 -0.345114 -0.514 123 76 66
0.377909 -0.346457 -0.516 127 79 67
0.381347 -0.3478 -0.518 136 89 79
0.392001 -0.351157 -0.523 139 92 82
0.397255 -0.353171 -0.526 133 86 76
0.4071 -0.356529 -0.531 133 89 80
0.41808 -0.359886 -0.536 138 94 85
0.4284 -0.362571 -0.54 137 94 87
0.0593791 -0.385147 -0.572 200 158 134
0.0922276 -0.364273 -0.541 188 140 117
0.0965276 -0.364947 -0.542 187 133 107
0.09774 -0.36562 -0.543 187 133 107
0.15444 -0.39996 -0.594 120 116 141
0.1581 -0.400633 -0.595 131 132 153
0.1989 -0.400633 -0.595 82 101 143
0.200033 -0.400633 -0.595 111 130 172
0.2023 -0.400633 -0.595 142 159 202
0.313448 -0.366293 -0.544 173 119 119
0.307084 -0.354173 -0.526 178 125 119
0.306329 -0.352153 -0.523 181 128 120
0.307543 -0.350133 -0.52 185 132 124
0.320014 -0.34542 -0.513 196 140 123
0.322316 -0.344747 -0.512 200 144 127
0.325914 -0.3434 -0.51 198 142 125
0.330442 -0.342053 -0.508 189 133 118
0.339249 -0.33734 -0.501 192 136 121
0.341157 -0.33734 -0.501 188 132 115
0.34402 -0.33734 -0.501 183 127 110
0.35376 -0.33936 -0.504 157 101 84
0.359019 -0.340707 -0.506 136 84 71
0.375465 -0.346093 -0.514 121 74 64
0.38061 -0.348113 -0.517 130 83 73
0.386781 -0.350133 -0.52 134 87 77
0.392001 -0.352153 -0.523 137 93 82
0.397255 -0.354173 -0.526 132 88 79
0.399014 -0.354847 -0.527 131 87 78
0.4071 -0.35754 -0.531 134 90 81
0.409893 -0.358213 -0.532 137 93 84
0.44101 -0.368987 -0.548 142 99 90
0.0583914 -0.386911 -0.573 202 157 134
0.0593791 -0.386236 -0.572 200 158 134
0.0600457 -0.383535 -0.568 195 154 134
0.0606971 -0.380834 -0.564 198 157 137
0.0613333 -0.378133 -0.56 201 159 137
0.067621 -0.365979 -0.542 203 159 134
0.0783943 -0.363278 -0.538 203 159 132
0.0804438 -0.363278 -0.538 201 155 129
0.104711 -0.369355 -0.547 172 117 97
0.150791 -0.400416 -0.593 64 69 101
0.156703 -0.401091 -0.594 129 132 151
0.177069 -0.401091 -0.594 89 102 144
0.186433 -0.401767 -0.595 168 169 187
0.187567 -0.401767 -0.595 170 173 188
0.196303 -0.401091 -0.594 78 97 140
0.200829 -0.401091 -0.594 78 104 153
0.214406 -0.401091 -0.594 109 128 171
0.2178 -0.401091 -0.594 206 217 239
0.307084 -0.355175 -0.526 180 127 121
0.306329 -0.35315 -0.523 182 129 123
0.30794 -0.350449 -0.519 183 131 120
0.316722 -0.347072 -0.514 197 141 126
0.317083 -0.346397 -0.513 199 143 128
0.32266 -0.345047 -0.511 198 142 125
0.326245 -0.343696 -0.509 198 142 127
0.327214 -0.343696 -0.509 197 141 126
0.329474 -0.343021 -0.508 194 138 123
0.329791 -0.342346 -0.507 188 132 117
0.332338 -0.340995 -0.505 195 139 124
0.332938 -0.339645 -0.503 195 139 124
0.334189 -0.33897 -0.502 194 138 123
0.342111 -0.338294 -0.501 188 132 115
0.345929 -0.338294 -0.501 178 122 105
0.359019 -0.34167 -0.506 135 83 70
0.374486 -0.347072 -0.514 122 74 64
0.375465 -0.347072 -0.514 122 74 64
0.386781 -0.351124 -0.52 131 87 78
0.398257 -0.355175 -0.526 133 89 80
0.403551 -0.357201 -0.529 132 88 79
0.409893 -0.359227 -0.532 136 92 83
0.412694 -0.359902 -0.533 142 98 89
0.419101 -0.361928 -0.536 137 93 84
0.429429 -0.364629 -0.54 134 91 82
0.433084 -0.365979 -0.542 138 89 84
0.44286 -0.370706 -0.549 143 101 89
0.47068 -0.387587 -0.574 147 104 98
0.0630352 -0.370397 -0.547 198 156 131
0.0694286 -0.365657 -0.54 201 157 130
0.0742952 -0.364303 -0.538 203 157 131
0.0763448 -0.364303 -0.538 204 158 132
0.0867533 -0.36498 -0.539 197 150 124
0.08778 -0.36498 -0.539 197 150 124
0.0920571 -0.365657 -0.54 190 140 115
0.0998086 -0.367689 -0.543 181 127 101
0.101029 -0.368366 -0.544 180 126 100
0.12257 -0.380554 -0.562 136 91 85
0.12408 -0.381909 -0.564 137 92 86
0.151921 -0.401546 -0.593 103 105 130
0.15418 -0.401546 -0.593 130 127 148
0.16236 -0.402223 -0.594 127 129 152
0.182726 -0.402223 -0.594 142 149 177
0.203879 -0.401546 -0.593 67 100 154
0.311143 -0.365657 -0.54 173 124 119
0.313785 -0.348051 -0.514 194 138 125
0.320713 -0.34602 -0.511 197 141 126
0.329791 -0.343311 -0.507 188 132 117
0.330414 -0.341957 -0.505 192 136 121
0.334189 -0.339926 -0.502 193 137 122
0.371803 -0.347374 -0.513 118 74 65
0.37278 -0.347374 -0.513 124 75 68
0.386781 -0.352114 -0.52 129 85 76
0.391251 -0.353469 -0.522 134 90 81
0.402789 -0.357531 -0.528 135 88 80
0.418319 -0.362271 -0.535 136 92 83
0.421143 -0.362949 -0.536 138 93 87
0.425789 -0.364303 -0.538 132 89 82
0.447383 -0.373783 -0.552 143 100 91
0.0581876 -0.387736 -0.571 203 155 133
0.0646429 -0.368723 -0.543 203 161 136
0.071221 -0.365328 -0.538 201 157 130
0.0930857 -0.366686 -0.54 193 139 115
0.0942886 -0.367365 -0.541 191 137 113
0.109476 -0.373476 -0.55 164 106 94
0.110725 -0.374155 -0.551 162 104 92
0.115757 -0.376871 -0.555 149 99 92
0.156439 -0.402675 -0.593 134 132 146
0.159828 -0.402675 -0.593 144 144 154
0.171411 -0.403354 -0.594 81 99 145
0.186936 -0.402675 -0.593 177 176 190
0.195972 -0.402675 -0.593 130 150 177
0.212915 -0.402675 -0.593 156 183 228
0.31549 -0.347672 -0.512 196 140 127
0.320086 -0.346314 -0.51 195 139 126
0.321397 -0.345635 -0.509 199 143 128
0.326571 -0.344956 -0.508 193 137 122
0.346883 -0.340203 -0.501 177 121 104
0.349488 -0.340882 -0.502 167 111 94
0.357348 -0.342919 -0.505 138 89 75
0.374486 -0.34903 -0.514 124 77 69
0.375465 -0.34903 -0.514 124 77 69
0.38332 -0.351747 -0.518 126 82 71
0.390502 -0.353784 -0.521 133 89 80
0.392246 -0.354463 -0.522 133 89 80
0.404559 -0.359216 -0.529 135 88 80
0.405567 -0.359216 -0.529 135 91 82
0.409123 -0.360574 -0.531 134 90 81
0.421143 -0.36397 -0.536 138 94 85
0.422164 -0.36397 -0.536 136 92 83
0.474514 -0.391131 -0.576 147 109 106
0.0611743 -0.373843 -0.549 200 160 135
0.0693 -0.367033 -0.539 204 160 135
0.0813171 -0.365671 -0.537 201 155 131
0.0876171 -0.366352 -0.538 196 149 123
0.0998086 -0.369757 -0.543 179 123 98
0.105947 -0.373162 -0.548 172 115 96
0.110725 -0.375205 -0.551 162 102 91
0.117235 -0.37929 -0.557 145 98 92
0.122788 -0.383376 -0.563 135 92 85
0.148031 -0.402443 -0.591 61 66 98
0.14941 -0.403124 -0.592 85 87 112
0.166605 -0.403805 -0.593 70 87 139
0.171123 -0.403805 -0.593 61 83 133
0.192259 -0.403124 -0.592 185 185 197
0.324654 -0.388824 -0.571 173 118 115
0.30798 -0.361586 -0.531 177 125 114
0.309109 -0.351371 -0.516 191 135 120
0.30949 -0.35069 -0.515 192 136 121
0.310848 -0.35001 -0.514 193 136 119
0.32976 -0.3432 -0.504 188 132 117
0.33072 -0.3432 -0.504 190 134 119
0.333523 -0.341157 -0.501 192 136 121
0.338571 -0.340476 -0.5 194 141 125
0.343333 -0.340476 -0.5 181 128 110
0.380857 -0.351371 -0.516 125 81 70
0.387026 -0.353414 -0.519 127 83 72
0.400261 -0.358181 -0.526 138 91 83
0.408352 -0.360905 -0.53 135 91 82
0.424997 -0.365671 -0.537 136 93 84
0.4633 -0.384738 -0.565 144 99 94
0.472043 -0.390186 -0.573 148 107 101
0.057 -0.389229 -0.57 201 161 136
0.0610629 -0.374206 -0.548 201 159 135
0.0673714 -0.368743 -0.54 194 150 125
0.071221 -0.367377 -0.538 205 161 136
0.0770819 -0.366011 -0.536 197 155 130
0.0801448 -0.366011 -0.536 200 156 131
0.0896667 -0.367377 -0.538 189 141 118
0.0941143 -0.368743 -0.54 190 134 109
0.109476 -0.375571 -0.55 159 105 93
0.121283 -0.383083 -0.561 144 96 86
0.128657 -0.389229 -0.57 114 84 82
0.150283 -0.403569 -0.591 113 115 138
0.151665 -0.404251 -0.592 126 125 143
0.157303 -0.404251 -0.592 136 138 153
0.166605 -0.404934 -0.593 66 87 142
0.171123 -0.404934 -0.593 53 78 132
0.173382 -0.404934 -0.593 56 80 126
0.180983 -0.404251 -0.592 101 124 168
0.184366 -0.404251 -0.592 175 177 198
0.213684 -0.404251 -0.592 208 214 246
0.30949 -0.351671 -0.515 190 134 119
0.31122 -0.350306 -0.513 190 134 117
0.318489 -0.347574 -0.509 190 134 119
0.32849 -0.344843 -0.505 191 135 120
0.332569 -0.342111 -0.501 190 134 119
0.33381 -0.341429 -0.5 192 136 121
0.337894 -0.340746 -0.499 192 139 123
0.345238 -0.341429 -0.5 178 122 105
0.347837 -0.342111 -0.501 168 112 95
0.367686 -0.348257 -0.51 124 81 74
0.372053 -0.349623 -0.512 123 79 68
0.38258 -0.353037 -0.517 123 79 70
0.387026 -0.354403 -0.519 125 81 72
0.389752 -0.355086 -0.52 132 88 79
0.39499 -0.357134 -0.523 137 93 84
0.40303 -0.359866 -0.527 136 92 83
0.419338 -0.365329 -0.535 140 95 89
0.426813 -0.367377 -0.538 137 94 87
0.427838 -0.367377 -0.538 135 92 85
0.428863 -0.367377 -0.538 135 92 85
0.434346 -0.369426 -0.541 135 94 90
0.44681 -0.375571 -0.55 142 98 87
0.0586714 -0.380043 -0.555 203 156 136
0.0594057 -0.377989 -0.552 202 155 135
0.0693 -0.369087 -0.539 203 158 135
0.07518 -0.367717 -0.537 204 158 134
0.0811657 -0.367032 -0.536 201 155 132
0.0896667 -0.368402 -0.538 192 142 119
0.0941143 -0.369771 -0.54 189 135 109
0.12582 -0.38826 -0.567 123 88 84
0.146657 -0.40401 -0.59 77 83 115
0.16154 -0.404694 -0.591 99 103 128
0.165196 -0.405379 -0.592 66 86 136
0.188557 -0.404694 -0.591 180 183 202
0.189683 -0.404694 -0.591 179 182 201
0.204317 -0.404694 -0.591 53 91 162
0.212197 -0.404694 -0.591 177 199 240
0.32238 -0.38826 -0.567 166 117 112
0.309281 -0.366348 -0.535 173 120 114
0.306914 -0.358815 -0.524 174 121 113
0.314873 -0.349913 -0.511 190 134 117
0.320134 -0.347174 -0.507 191 135 118
0.323031 -0.347174 -0.507 192 136 119
0.326567 -0.345805 -0.505 191 135 120
0.330064 -0.344435 -0.503 186 130 115
0.332569 -0.343066 -0.501 186 130 115
0.337894 -0.341696 -0.499 190 137 121
0.339795 -0.341696 -0.499 185 132 114
0.344286 -0.342381 -0.5 178 122 105
0.363341 -0.347859 -0.508 129 84 78
0.370353 -0.349913 -0.511 123 80 71
0.379138 -0.352652 -0.515 124 80 71
0.385293 -0.354707 -0.518 126 82 73
0.389752 -0.356076 -0.52 131 87 78
0.391494 -0.356761 -0.521 138 94 85
0.39324 -0.357446 -0.522 138 94 85
0.401263 -0.360185 -0.526 136 93 86
0.420357 -0.366348 -0.535 140 96 87
0.432514 -0.369771 -0.54 136 91 85
0.0644048 -0.371487 -0.541 200 155 132
0.0654352 -0.371487 -0.541 200 155 132
0.0721114 -0.36874 -0.537 207 161 137
0.0731343 -0.36874 -0.537 205 159 135
0.076061 -0.368053 -0.536 201 156 133
0.0884771 -0.36874 -0.537 193 143 120
0.101029 -0.373547 -0.544 173 118 98
0.104711 -0.375607 -0.547 168 112 95
0.105947 -0.376293 -0.548 167 111 94
0.116174 -0.382473 -0.557 144 96 86
0.118933 -0.384533 -0.56 142 94 84
0.154786 -0.40582 -0.591 133 134 155
0.163791 -0.40582 -0.591 54 76 126
0.184054 -0.40582 -0.591 176 182 206
0.193857 -0.405133 -0.59 151 158 200
0.196105 -0.405133 -0.59 127 143 179
0.315382 -0.378353 -0.551 164 113 109
0.311143 -0.3708 -0.54 168 114 104
0.309859 -0.368053 -0.536 166 116 109
0.30841 -0.363933 -0.53 171 118 112
0.308086 -0.361187 -0.526 172 119 111
0.308134 -0.357753 -0.521 181 129 118
0.314873 -0.350887 -0.511 188 132 117
0.327529 -0.346767 -0.505 191 135 122
0.335993 -0.342647 -0.499 196 140 125
0.338845 -0.342647 -0.499 190 133 114
0.343597 -0.342647 -0.499 175 118 98
0.3514 -0.344707 -0.502 152 103 88
0.368657 -0.3502 -0.51 127 83 74
0.383565 -0.355007 -0.517 125 82 73
0.413947 -0.365307 -0.532 142 99 92
0.418554 -0.36668 -0.534 138 95 86
0.423185 -0.368053 -0.536 135 92 83
0.428863 -0.369427 -0.538 137 94 85
0.449721 -0.378353 -0.551 139 99 89
0.460267 -0.384533 -0.56 145 105 97
0.0582486 -0.379403 -0.551 203 155 132
0.062459 -0.373206 -0.542 203 159 134
0.0729981 -0.369074 -0.536 205 159 135
0.0769381 -0.368386 -0.535 202 157 134
0.0810143 -0.368386 -0.535 201 155 132
0.0862705 -0.369074 -0.536 199 149 124
0.0884771 -0.369763 -0.537 192 142 117
0.0929133 -0.37114 -0.539 190 136 110
0.0998086 -0.373894 -0.543 175 120 99
0.158163 -0.406946 -0.591 132 134 159
0.159289 -0.406946 -0.591 129 131 156
0.175876 -0.406257 -0.59 61 90 148
0.178124 -0.406257 -0.59 69 100 157
0.181495 -0.406257 -0.59 133 148 187
0.203971 -0.406257 -0.59 56 95 170
0.308321 -0.360123 -0.523 175 121 111
0.31883 -0.349794 -0.508 184 131 113
0.322066 -0.349106 -0.507 184 131 113
0.325605 -0.347729 -0.505 189 136 120
0.326567 -0.347729 -0.505 190 137 121
0.331614 -0.344974 -0.501 187 134 116
0.3514 -0.345663 -0.502 151 102 87
0.354974 -0.346351 -0.503 141 95 82
0.35664 -0.34704 -0.504 137 90 80
0.35831 -0.347729 -0.505 137 90 80
0.369629 -0.351171 -0.51 126 83 74
0.437213 -0.373206 -0.542 138 93 87
0.05346 -0.3915 -0.567 202 160 136
0.0614267 -0.374238 -0.542 201 157 132
0.0660971 -0.371476 -0.538 201 155 131
0.0779571 -0.369405 -0.535 200 156 131
0.0840714 -0.369405 -0.535 196 149 123
0.0963495 -0.373548 -0.541 182 128 102
0.09756 -0.374238 -0.542 177 123 99
0.10348 -0.377 -0.546 171 114 95
0.121715 -0.388738 -0.563 129 89 87
0.157895 -0.407381 -0.59 102 107 136
0.161267 -0.407381 -0.59 87 100 142
0.164638 -0.407381 -0.59 54 82 132
0.178944 -0.40669 -0.589 66 94 144
0.19465 -0.40669 -0.589 76 107 154
0.20026 -0.40669 -0.589 59 93 157
0.309917 -0.358357 -0.519 179 125 113
0.311074 -0.356286 -0.516 179 125 113
0.322066 -0.350071 -0.507 182 129 111
0.339795 -0.344548 -0.499 190 133 113
0.354016 -0.34731 -0.503 142 98 85
0.363591 -0.350071 -0.507 131 87 76
0.373029 -0.353524 -0.512 122 79 70
0.374734 -0.354214 -0.513 122 79 70
0.378402 -0.354905 -0.514 130 86 75
0.392487 -0.359738 -0.521 133 89 80
0.394234 -0.360429 -0.522 137 92 86
0.41777 -0.368024 -0.533 139 95 86
0.422395 -0.369405 -0.535 137 93 84
0.42602 -0.370786 -0.537 140 96 87
0.433543 -0.372857 -0.54 136 92 83
0.4446 -0.377 -0.546 139 96 87
0.449134 -0.379071 -0.549 140 97 90
0.47117 -0.39219 -0.568 142 102 94
0.0563533 -0.382887 -0.553 200 158 133
0.0641667 -0.373193 -0.539 203 157 133
0.0659743 -0.371809 -0.537 201 155 129
0.0840714 -0.370424 -0.535 193 146 120
0.0883124 -0.371116 -0.536 195 145 118
0.0998086 -0.375963 -0.543 177 120 100
0.109675 -0.381502 -0.551 161 103 91
0.121715 -0.38981 -0.563 123 89 88
0.1428 -0.40712 -0.588 23 33 68
0.15314 -0.407812 -0.589 89 91 116
0.154262 -0.407812 -0.589 115 117 142
0.15875 -0.407812 -0.589 74 81 110
0.166603 -0.407812 -0.589 29 62 116
0.174456 -0.407812 -0.589 32 64 123
0.184553 -0.407812 -0.589 182 193 213
0.320674 -0.390503 -0.564 171 116 111
0.318326 -0.386349 -0.558 166 116 107
0.310587 -0.368347 -0.532 170 117 111
0.310119 -0.36073 -0.521 175 120 113
0.314514 -0.354499 -0.512 186 130 117
0.31883 -0.35173 -0.508 185 129 114
0.332569 -0.346883 -0.501 191 135 118
0.349746 -0.346883 -0.501 157 106 87
0.364309 -0.35173 -0.508 129 85 74
0.366965 -0.352422 -0.509 124 80 69
0.371327 -0.353807 -0.511 125 82 73
0.376444 -0.355884 -0.514 127 84 75
0.38455 -0.357961 -0.517 125 81 72
0.389991 -0.359346 -0.519 123 79 70
0.397978 -0.362115 -0.523 140 95 89
0.4015 -0.3635 -0.525 139 95 86
0.408823 -0.365577 -0.528 137 93 84
0.430912 -0.372501 -0.538 134 91 82
0.44564 -0.37804 -0.546 137 94 85
0.0687857 -0.371443 -0.535 203 157 131
0.0718429 -0.371443 -0.535 208 160 137
0.0757771 -0.370749 -0.534 201 155 131
0.0828971 -0.370749 -0.534 196 149 123
0.0850905 -0.371443 -0.535 194 144 119
0.0883124 -0.372137 -0.536 193 143 118
0.0951429 -0.374914 -0.54 181 126 105
0.0985924 -0.376303 -0.542 174 119 99
0.110926 -0.383246 -0.552 157 100 89
0.117656 -0.388106 -0.559 133 93 91
0.120429 -0.390189 -0.562 122 90 93
0.1428 -0.40824 -0.588 24 34 70
0.154262 -0.408934 -0.589 136 136 162
0.17304 -0.40824 -0.588 37 69 126
0.17752 -0.40824 -0.588 56 91 145
0.18312 -0.40824 -0.588 181 192 210
0.3116 -0.36936 -0.532 169 114 107
0.317171 -0.354086 -0.51 185 129 116
0.319169 -0.352003 -0.507 184 128 115
0.3211 -0.352003 -0.507 184 128 113
0.32784 -0.34992 -0.504 183 127 112
0.332857 -0.347143 -0.5 194 138 121
0.371327 -0.35478 -0.511 124 80 71
0.38455 -0.358946 -0.517 125 83 71
0.394471 -0.361723 -0.521 130 87 78
0.396223 -0.362417 -0.522 135 92 83
0.40527 -0.365194 -0.526 142 97 91
0.408823 -0.366583 -0.528 137 92 86
0.415973 -0.36936 -0.532 142 98 89
0.416987 -0.36936 -0.532 140 96 87
0.429089 -0.372831 -0.537 135 91 82
0.433767 -0.37422 -0.539 135 92 83
0.0532714 -0.393348 -0.565 201 150 123
0.0541552 -0.391955 -0.563 203 153 128
0.0687857 -0.372462 -0.535 205 159 135
0.0717086 -0.371766 -0.534 208 160 137
0.0817267 -0.37107 -0.533 200 150 125
0.0849314 -0.371766 -0.534 193 143 118
0.0861095 -0.372462 -0.535 194 144 119
0.0905229 -0.373854 -0.537 184 132 108
0.092741 -0.37455 -0.538 185 129 106
0.0961714 -0.375943 -0.54 174 119 99
0.110926 -0.384297 -0.552 154 97 88
0.113643 -0.386386 -0.555 146 97 90
0.117656 -0.38917 -0.559 133 93 93
0.14753 -0.410056 -0.589 79 88 127
0.15064 -0.40936 -0.588 91 96 125
0.15288 -0.40936 -0.588 134 132 154
0.15736 -0.40936 -0.588 123 129 153
0.1596 -0.40936 -0.588 121 127 151
