ply
format ascii 1.0
comment Created by Open3D
element vertex 1290
property double x
property double y
property double z
property uchar red
property uchar green
property uchar blue
end_header
0.45677 -0.27086 -0.467 199 154 135
0.10512 -0.339832 -0.584 192 142 133
0.10713 -0.332268 -0.571 193 143 134
0.108923 -0.331104 -0.569 191 143 131
0.12386 -0.327612 -0.563 195 141 129
0.134933 -0.325867 -0.56 182 125 114
0.163169 -0.333431 -0.573 142 90 79
0.16564 -0.334013 -0.574 141 89 78
0.179524 -0.337505 -0.58 127 82 76
0.196894 -0.342742 -0.589 123 80 74
0.239072 -0.364272 -0.626 126 123 144
0.24662 -0.364854 -0.627 168 167 185
0.253381 -0.364272 -0.626 180 181 202
0.37381 -0.365436 -0.628 247 247 255
0.388782 -0.366018 -0.629 171 182 210
0.411546 -0.366018 -0.629 236 248 255
0.422329 -0.366018 -0.629 232 234 247
0.424725 -0.366018 -0.629 212 217 237
0.48333 -0.367764 -0.632 205 211 225
0.515443 -0.368346 -0.633 139 152 194
0.521851 -0.367764 -0.632 77 102 158
0.470054 -0.307828 -0.529 166 138 134
0.449149 -0.289789 -0.498 171 141 133
0.444746 -0.277569 -0.477 193 152 134
0.459243 -0.270586 -0.465 196 150 134
0.464323 -0.269422 -0.463 197 151 135
0.46508 -0.26884 -0.462 189 143 127
0.466708 -0.268258 -0.461 184 138 122
0.471098 -0.268258 -0.461 184 141 124
0.4774 -0.26884 -0.462 179 136 117
0.483886 -0.270004 -0.464 174 131 112
0.501537 -0.275823 -0.474 156 123 108
0.509714 -0.279314 -0.48 140 111 97
0.103601 -0.35087 -0.601 188 149 134
0.104595 -0.33569 -0.575 195 141 131
0.106229 -0.333939 -0.572 192 142 133
0.10962 -0.33102 -0.567 196 148 138
0.111583 -0.330436 -0.566 196 146 135
0.118498 -0.328685 -0.563 191 139 128
0.11957 -0.328685 -0.563 192 140 129
0.120643 -0.328685 -0.563 195 143 132
0.134933 -0.326933 -0.56 182 126 113
0.141586 -0.327517 -0.561 175 119 104
0.16564 -0.335107 -0.574 139 89 80
0.174199 -0.336858 -0.577 129 82 76
0.211209 -0.35087 -0.601 117 79 76
0.239072 -0.365465 -0.626 123 120 141
0.248611 -0.365465 -0.626 174 175 193
0.28631 -0.364881 -0.625 225 227 250
0.384575 -0.366632 -0.628 204 205 223
0.392949 -0.366632 -0.628 131 157 208
0.413284 -0.366632 -0.628 239 243 255
0.4686 -0.3678 -0.63 67 105 178
0.4734 -0.3678 -0.63 156 172 206
0.49819 -0.368384 -0.631 172 180 199
0.515832 -0.368968 -0.632 108 122 159
0.520648 -0.368968 -0.632 78 108 168
0.449149 -0.290737 -0.498 174 141 134
0.446576 -0.28665 -0.491 182 144 131
0.447366 -0.276726 -0.474 197 151 135
0.4524 -0.273223 -0.468 200 155 136
0.455881 -0.272639 -0.467 195 149 133
0.462559 -0.270304 -0.463 195 150 131
0.475489 -0.269136 -0.461 177 134 115
0.481961 -0.270304 -0.463 175 132 113
0.489522 -0.272055 -0.466 171 130 110
1.14722 -0.368384 -0.631 202 204 193
1.14957 -0.367216 -0.629 201 203 192
0.126626 -0.328586 -0.561 184 132 119
0.140517 -0.328586 -0.561 175 119 104
0.162077 -0.335614 -0.573 142 92 83
0.179833 -0.3403 -0.581 125 82 75
0.191753 -0.343814 -0.587 120 80 72
0.197563 -0.346157 -0.591 123 80 74
0.208571 -0.351429 -0.6 118 81 75
0.250595 -0.366071 -0.625 179 180 198
0.260119 -0.366071 -0.625 86 103 147
0.279909 -0.365486 -0.624 206 219 255
0.283474 -0.365486 -0.624 230 232 255
0.285851 -0.365486 -0.624 231 233 255
0.35831 -0.366657 -0.626 245 245 247
0.375603 -0.367243 -0.627 252 254 253
0.382769 -0.367243 -0.627 213 211 222
0.427638 -0.367829 -0.628 184 189 211
0.454677 -0.368414 -0.629 82 117 181
0.467856 -0.368414 -0.629 71 111 181
0.496988 -0.369586 -0.631 158 166 187
0.500593 -0.369586 -0.631 151 158 177
0.50861 -0.370171 -0.632 182 183 188
0.520648 -0.370171 -0.632 62 93 157
0.453538 -0.295786 -0.505 170 140 132
0.448329 -0.289929 -0.495 178 141 132
0.443897 -0.283486 -0.484 188 146 132
0.447323 -0.277043 -0.473 197 151 135
0.448123 -0.275871 -0.471 199 156 137
0.452473 -0.2747 -0.469 197 152 133
0.454905 -0.272943 -0.466 196 151 132
0.457471 -0.272357 -0.465 197 152 133
0.476367 -0.270014 -0.461 176 133 114
0.478123 -0.270014 -0.461 174 131 112
0.104955 -0.33553 -0.571 198 141 132
0.105671 -0.334355 -0.569 198 146 135
0.106568 -0.333768 -0.568 199 147 136
0.109233 -0.332005 -0.565 195 148 138
0.124489 -0.329654 -0.561 191 139 126
0.127694 -0.329654 -0.561 184 130 118
0.134933 -0.329067 -0.56 180 124 111
0.14664 -0.331417 -0.564 161 105 92
0.165929 -0.337881 -0.575 136 86 77
0.170902 -0.339056 -0.577 131 84 78
0.19465 -0.346108 -0.589 121 80 76
0.23318 -0.366087 -0.623 131 129 150
0.244643 -0.367262 -0.625 176 173 192
0.382158 -0.36785 -0.626 212 216 228
0.416209 -0.368437 -0.627 242 243 247
0.460668 -0.369612 -0.629 60 101 167
0.483 -0.3702 -0.63 207 205 218
0.506603 -0.370788 -0.631 182 182 192
0.516218 -0.370788 -0.631 57 84 137
0.522228 -0.370788 -0.631 81 109 172
0.5238 -0.3702 -0.63 55 86 151
0.525 -0.3702 -0.63 59 89 151
0.47272 -0.312613 -0.532 167 137 127
0.447456 -0.289696 -0.493 178 144 132
0.443886 -0.282057 -0.48 189 147 131
0.445627 -0.279707 -0.476 198 157 139
0.46244 -0.27148 -0.462 196 151 132
0.463943 -0.270305 -0.46 190 144 128
0.4982 -0.276181 -0.47 151 118 103
0.102306 -0.34605 -0.587 193 145 135
0.110114 -0.332491 -0.564 195 147 137
0.119358 -0.331312 -0.562 191 139 126
0.140517 -0.330723 -0.561 175 119 106
0.182673 -0.343692 -0.583 127 83 80
0.188078 -0.345461 -0.586 118 79 74
0.198231 -0.349588 -0.593 119 81 80
0.201843 -0.351946 -0.597 117 83 82
0.230436 -0.366684 -0.622 162 164 179
0.267593 -0.367273 -0.623 110 145 199
0.284207 -0.367273 -0.623 222 226 253
0.294887 -0.367273 -0.623 240 239 255
0.385735 -0.369042 -0.626 160 165 194
0.386928 -0.369042 -0.626 183 193 228
0.391697 -0.369042 -0.626 181 200 242
0.441289 -0.369631 -0.627 229 231 244
0.458739 -0.370221 -0.628 81 119 181
0.477441 -0.37081 -0.629 215 216 234
0.481035 -0.37081 -0.629 178 171 187
0.4914 -0.3714 -0.63 184 195 215
0.515016 -0.37199 -0.631 111 127 161
0.5238 -0.3714 -0.63 57 88 152
0.5322 -0.3714 -0.63 104 135 190
0.5334 -0.3714 -0.63 82 107 163
0.525409 -0.353125 -0.599 168 140 129
0.491751 -0.328365 -0.557 164 137 128
0.46839 -0.31009 -0.526 168 139 125
0.459663 -0.303015 -0.514 168 140 129
0.44829 -0.292404 -0.496 177 143 131
0.444806 -0.286509 -0.486 181 143 132
0.447226 -0.277666 -0.471 195 152 133
0.4524 -0.275897 -0.468 194 149 130
0.453212 -0.275308 -0.467 199 154 135
0.4557 -0.274129 -0.465 193 148 129
0.456488 -0.273539 -0.464 198 153 132
0.456386 -0.27295 -0.463 201 156 137
0.46068 -0.27236 -0.462 197 152 133
0.461439 -0.27177 -0.461 197 151 135
0.464683 -0.270591 -0.459 189 143 127
0.479879 -0.27177 -0.461 168 126 104
0.492185 -0.274718 -0.466 157 118 101
0.10278 -0.337706 -0.571 192 144 134
0.107966 -0.333566 -0.564 198 145 137
0.112935 -0.332383 -0.562 199 144 137
0.1232 -0.3312 -0.56 194 141 127
0.127467 -0.3312 -0.56 192 136 123
0.128533 -0.3312 -0.56 188 132 119
0.137067 -0.3312 -0.56 175 115 104
0.154714 -0.337114 -0.57 153 99 87
0.1558 -0.337114 -0.57 150 96 84
0.167314 -0.340663 -0.576 132 84 80
0.182987 -0.345394 -0.584 124 83 79
0.206973 -0.35604 -0.602 116 82 83
0.235553 -0.36846 -0.623 157 153 170
0.26166 -0.36846 -0.623 160 179 219
0.267593 -0.36846 -0.623 112 148 198
0.270718 -0.367869 -0.622 175 193 239
0.449649 -0.370826 -0.627 165 178 230
0.459203 -0.370826 -0.627 103 145 203
0.462786 -0.370826 -0.627 88 134 193
0.483431 -0.372009 -0.629 180 175 181
0.488224 -0.372009 -0.629 206 209 226
0.503799 -0.372009 -0.629 198 201 208
0.513 -0.3726 -0.63 93 109 145
0.5142 -0.3726 -0.63 97 113 149
0.5202 -0.3726 -0.63 114 149 207
0.516001 -0.347169 -0.587 169 138 133
0.446463 -0.280337 -0.474 196 154 138
0.4489 -0.27738 -0.469 192 149 130
0.451433 -0.276197 -0.467 195 152 133
0.454814 -0.275014 -0.465 192 146 130
0.456586 -0.275014 -0.465 200 154 138
0.46219 -0.272057 -0.46 192 147 128
0.464683 -0.271466 -0.459 186 141 122
0.466431 -0.271466 -0.459 191 146 127
0.472551 -0.271466 -0.459 182 140 118
0.48444 -0.27324 -0.462 168 127 109
0.487252 -0.273831 -0.463 164 121 102
0.101705 -0.350067 -0.59 193 143 132
0.117009 -0.33286 -0.561 192 140 129
0.121067 -0.332267 -0.56 188 134 122
0.132563 -0.331673 -0.559 182 123 109
0.139449 -0.33286 -0.561 176 118 107
0.1469 -0.335233 -0.565 158 101 90
0.242284 -0.369053 -0.622 170 173 190
0.247023 -0.369053 -0.622 177 183 209
0.252947 -0.369053 -0.622 75 81 117
0.269533 -0.369053 -0.622 135 161 210
0.377976 -0.370833 -0.625 232 229 248
0.439392 -0.371427 -0.626 236 235 241
0.446547 -0.371427 -0.626 128 146 186
0.447739 -0.371427 -0.626 196 206 241
0.461591 -0.37202 -0.627 95 139 202
0.466369 -0.37202 -0.627 171 189 225
0.467563 -0.37202 -0.627 191 209 245
0.492232 -0.372613 -0.628 193 196 211
0.498213 -0.372613 -0.628 213 212 226
0.5166 -0.3738 -0.63 178 195 238
0.530157 -0.373207 -0.629 134 165 219
0.532553 -0.373207 -0.629 142 165 207
0.447423 -0.293107 -0.494 176 142 132
0.4466 -0.290733 -0.49 178 142 130
0.444806 -0.28836 -0.486 181 145 133
0.444814 -0.287767 -0.485 182 144 131
0.443837 -0.28302 -0.477 191 149 133
0.443813 -0.282427 -0.476 194 151 135
0.45313 -0.276493 -0.466 194 149 130
0.45628 -0.27412 -0.462 202 157 138
0.461314 -0.272933 -0.46 191 146 127
0.461186 -0.27234 -0.459 192 147 128
0.46206 -0.27234 -0.459 192 147 128
0.465415 -0.271747 -0.458 188 143 124
0.48059 -0.272933 -0.46 176 131 110
0.0995 -0.355357 -0.597 197 148 141
0.102958 -0.336905 -0.566 197 143 133
0.104743 -0.335714 -0.564 195 141 131
0.106702 -0.335119 -0.563 196 142 132
0.127239 -0.332738 -0.559 189 136 122
0.136 -0.333333 -0.56 169 111 97
0.143163 -0.335119 -0.563 161 104 93
0.152275 -0.33869 -0.569 150 96 86
0.16512 -0.342857 -0.576 130 85 82
0.166506 -0.343452 -0.577 130 85 82
0.170391 -0.344643 -0.579 127 83 80
0.201042 -0.355952 -0.598 119 77 78
0.237545 -0.370238 -0.622 173 168 191
0.258454 -0.369643 -0.621 187 187 213
0.264369 -0.369643 -0.621 133 155 194
0.2691 -0.369643 -0.621 144 166 213
0.382126 -0.371429 -0.624 181 189 208
0.383314 -0.371429 -0.624 181 189 208
0.441777 -0.372619 -0.626 206 209 226
0.448931 -0.372619 -0.626 220 229 255
0.479506 -0.373214 -0.627 213 214 234
0.497017 -0.37381 -0.628 214 214 226
0.49941 -0.37381 -0.628 191 190 198
0.506587 -0.37381 -0.628 202 203 221
0.50979 -0.374405 -0.629 138 149 179
0.527163 -0.357738 -0.601 168 139 133
0.48485 -0.32619 -0.548 169 137 126
0.461451 -0.307143 -0.516 167 137 129
0.457953 -0.304167 -0.511 171 138 131
0.44469 -0.282738 -0.475 191 148 131
0.447113 -0.279167 -0.469 199 154 135
0.448834 -0.278571 -0.468 195 152 133
0.476923 -0.273214 -0.459 181 136 115
0.100389 -0.343954 -0.576 198 143 136
0.103485 -0.336191 -0.563 196 142 132
0.12 -0.3344 -0.56 193 139 127
0.121915 -0.333803 -0.559 192 138 126
0.139449 -0.334997 -0.561 168 110 99
0.166506 -0.344551 -0.577 129 84 81
0.185675 -0.351717 -0.589 120 80 78
0.195171 -0.354703 -0.594 121 81 82
0.196633 -0.3553 -0.595 120 80 80
0.253723 -0.370826 -0.621 175 181 203
0.271029 -0.370229 -0.62 186 194 231
0.374393 -0.37202 -0.623 252 250 253
0.380327 -0.37202 -0.623 179 184 204
0.445833 -0.373214 -0.625 195 210 243
0.450595 -0.373214 -0.625 220 226 252
0.451786 -0.373214 -0.625 205 211 237
0.479933 -0.373811 -0.626 196 194 199
0.487866 -0.374409 -0.627 214 214 224
0.518638 -0.352314 -0.59 168 139 133
0.485734 -0.327831 -0.549 170 137 128
0.4466 -0.2926 -0.49 177 140 131
0.446276 -0.280657 -0.47 195 150 131
0.450467 -0.278269 -0.466 196 151 132
0.45781 -0.274686 -0.46 194 149 130
0.461186 -0.274089 -0.459 190 145 126
0.474139 -0.273491 -0.458 180 135 116
0.477797 -0.274089 -0.459 179 134 113
0.478671 -0.274089 -0.459 181 136 115
0.48884 -0.27588 -0.462 160 122 103
0.494671 -0.277671 -0.465 154 118 102
0.497689 -0.278866 -0.467 155 119 103
0.10098 -0.33966 -0.567 194 141 133
0.121915 -0.334868 -0.559 195 141 129
0.132326 -0.334269 -0.558 181 123 109
0.133628 -0.334868 -0.559 182 124 110
0.135757 -0.334868 -0.559 174 116 104
0.152543 -0.341457 -0.57 150 95 88
0.173491 -0.348646 -0.582 126 82 79
0.18169 -0.351641 -0.587 124 83 81
0.194367 -0.356433 -0.595 120 80 81
0.22343 -0.37081 -0.619 155 152 169
0.240711 -0.372009 -0.621 172 178 192
0.243867 -0.37141 -0.62 172 177 197
0.268667 -0.37141 -0.62 165 179 216
0.434423 -0.373806 -0.624 235 237 252
0.489472 -0.375004 -0.626 217 219 232
0.52804 -0.360627 -0.602 168 139 135
0.480573 -0.324684 -0.542 169 136 129
0.445667 -0.293533 -0.49 177 140 132
0.445707 -0.292335 -0.488 177 140 131
0.442947 -0.286345 -0.478 187 148 133
0.444579 -0.28275 -0.472 191 148 132
0.452069 -0.277958 -0.464 195 152 133
0.454622 -0.277359 -0.463 196 153 134
0.462798 -0.274364 -0.458 185 140 121
0.472233 -0.273765 -0.457 183 138 119
0.477629 -0.274364 -0.458 182 137 118
0.493608 -0.277958 -0.464 157 121 105
0.0985 -0.355163 -0.591 195 147 137
0.10134 -0.338336 -0.563 194 144 133
0.1104 -0.336533 -0.56 196 144 133
0.111467 -0.336533 -0.56 195 143 132
0.117656 -0.335932 -0.559 189 135 123
0.121697 -0.335331 -0.558 193 141 127
0.123823 -0.335331 -0.558 193 140 126
0.127011 -0.335331 -0.558 187 134 120
0.144748 -0.339538 -0.565 156 102 90
0.179149 -0.352158 -0.586 124 83 79
0.187431 -0.355163 -0.591 121 81 79
0.220714 -0.371389 -0.618 145 142 171
0.236781 -0.37259 -0.62 170 171 192
0.277666 -0.37199 -0.619 233 234 255
0.452251 -0.374994 -0.624 183 197 226
0.458194 -0.374994 -0.624 169 192 234
0.473214 -0.375595 -0.625 191 197 221
0.481548 -0.375595 -0.625 210 213 228
0.497819 -0.376196 -0.626 208 209 227
0.519282 -0.376196 -0.626 129 154 195
0.524889 -0.376797 -0.627 120 151 195
0.488389 -0.331726 -0.552 169 136 129
0.459309 -0.275236 -0.458 187 142 123
0.500537 -0.281246 -0.468 150 118 103
0.0977038 -0.357494 -0.593 190 148 134
0.106133 -0.3376 -0.56 197 145 134
0.128074 -0.336394 -0.558 182 129 113
0.1302 -0.336394 -0.558 183 125 111
0.135757 -0.336997 -0.559 177 119 107
0.137067 -0.3376 -0.56 173 117 104
0.190646 -0.358097 -0.594 121 81 79
0.195347 -0.360509 -0.598 119 84 80
0.218007 -0.371963 -0.617 134 131 158
0.221891 -0.372566 -0.618 147 150 181
0.224609 -0.373169 -0.619 138 138 162
0.250548 -0.373169 -0.619 195 196 217
0.440847 -0.37558 -0.623 182 188 210
0.442033 -0.37558 -0.623 215 221 243
0.465326 -0.376183 -0.624 190 205 244
0.467703 -0.376183 -0.624 223 227 254
0.477211 -0.376183 -0.624 186 189 208
0.489881 -0.376786 -0.625 167 181 208
0.524051 -0.377389 -0.626 136 165 205
0.526436 -0.377389 -0.626 140 169 209
0.532398 -0.377389 -0.626 200 204 233
0.477163 -0.323734 -0.537 167 136 133
0.444777 -0.294194 -0.488 179 143 129
0.442907 -0.28696 -0.476 188 146 130
0.44462 -0.285151 -0.473 192 149 132
0.444579 -0.284549 -0.472 193 150 133
0.45617 -0.277917 -0.461 193 147 131
0.456814 -0.276711 -0.459 189 143 127
0.460917 -0.275506 -0.457 184 139 120
0.467726 -0.274903 -0.456 183 138 119
0.473104 -0.275506 -0.457 185 140 121
0.4876 -0.277314 -0.46 164 123 103
0.0976829 -0.346529 -0.573 196 148 134
0.105067 -0.338667 -0.56 198 149 135
0.109138 -0.338062 -0.559 197 145 132
0.117446 -0.337457 -0.558 191 139 126
0.119357 -0.336852 -0.557 195 143 130
0.129967 -0.336852 -0.557 184 126 112
0.174386 -0.353786 -0.585 124 84 82
0.244652 -0.374348 -0.619 95 100 130
0.247789 -0.373743 -0.618 188 188 212
0.256029 -0.373743 -0.618 200 205 224
0.458647 -0.376767 -0.623 168 196 233
0.459833 -0.376767 -0.623 166 194 231
0.485531 -0.377371 -0.624 211 210 226
0.500595 -0.377976 -0.625 209 212 229
0.507738 -0.377976 -0.625 199 202 217
0.520833 -0.377976 -0.625 146 174 213
0.485007 -0.330805 -0.547 166 137 131
0.445381 -0.284238 -0.47 189 146 127
0.447875 -0.282424 -0.467 189 147 125
0.464251 -0.275771 -0.456 186 141 122
0.469463 -0.275771 -0.456 182 137 118
0.478327 -0.276376 -0.457 178 132 116
0.488476 -0.27819 -0.46 159 122 106
0.490416 -0.278795 -0.461 151 118 103
0.497329 -0.281214 -0.465 152 119 104
0.09676 -0.348227 -0.574 199 148 144
0.1008 -0.339733 -0.56 193 145 135
0.101867 -0.339733 -0.56 194 146 134
0.10275 -0.339127 -0.559 196 148 136
0.104879 -0.339127 -0.559 199 149 138
0.113194 -0.33852 -0.558 191 138 124
0.11532 -0.33852 -0.558 189 137 123
0.121479 -0.337913 -0.557 196 140 123
0.131028 -0.337913 -0.557 180 128 104
0.142343 -0.34216 -0.564 156 99 90
0.145004 -0.343373 -0.566 152 95 88
0.1558 -0.348227 -0.574 138 88 77
0.171863 -0.354293 -0.584 123 83 81
0.173271 -0.3549 -0.585 123 83 81
0.185807 -0.359753 -0.593 122 84 83
0.191609 -0.36218 -0.597 120 82 81
0.229325 -0.375527 -0.619 130 136 158
0.248966 -0.37492 -0.618 190 191 212
0.250913 -0.374313 -0.617 198 200 215
0.25679 -0.374313 -0.617 150 155 187
0.436585 -0.377347 -0.622 164 179 210
0.443693 -0.377347 -0.622 229 228 242
0.492663 -0.37856 -0.624 165 185 222
0.507738 -0.379167 -0.625 203 203 211
0.469392 -0.319107 -0.526 166 136 126
0.443637 -0.28574 -0.471 193 150 133
0.44622 -0.284527 -0.469 196 151 130
0.45276 -0.28028 -0.462 191 145 129
0.455292 -0.279673 -0.461 190 145 126
0.457564 -0.277853 -0.458 187 142 123
0.462367 -0.276033 -0.455 184 141 122
0.49324 -0.28028 -0.462 153 120 103
0.49519 -0.280887 -0.463 152 119 102
0.0968305 -0.345669 -0.568 196 150 137
0.101685 -0.340191 -0.559 196 148 134
0.118296 -0.338974 -0.557 192 139 121
0.128906 -0.338974 -0.557 187 132 112
0.137067 -0.3408 -0.56 166 110 93
0.154707 -0.34932 -0.574 138 88 79
0.158537 -0.350537 -0.576 131 84 78
0.240726 -0.376097 -0.618 68 80 132
0.247388 -0.375489 -0.617 192 190 203
0.255614 -0.375489 -0.617 197 198 216
0.448432 -0.378531 -0.622 236 235 251
0.459095 -0.378531 -0.622 152 182 220
0.48238 -0.37914 -0.623 178 189 219
0.488313 -0.37914 -0.623 144 168 202
0.493851 -0.379749 -0.624 186 197 219
0.445381 -0.286029 -0.47 190 147 128
0.445327 -0.28542 -0.469 192 149 130
0.44622 -0.28542 -0.469 192 150 128
0.44616 -0.284811 -0.468 191 149 127
0.447729 -0.282986 -0.465 191 148 131
0.449417 -0.282377 -0.464 195 152 133
0.450212 -0.281769 -0.463 196 151 132
0.4641 -0.2769 -0.455 183 140 121
0.480754 -0.277509 -0.456 171 129 107
0.09558 -0.34614 -0.567 197 149 137
0.102382 -0.340035 -0.557 198 151 135
0.114907 -0.339425 -0.556 193 140 122
0.117025 -0.339425 -0.556 192 139 121
0.119143 -0.339425 -0.556 190 137 119
0.124438 -0.339425 -0.556 188 135 117
0.141269 -0.344309 -0.564 152 99 85
0.143926 -0.34553 -0.566 147 95 84
0.158812 -0.352245 -0.577 129 84 78
0.161569 -0.353466 -0.579 127 84 78
0.185611 -0.363844 -0.596 123 85 84
0.214957 -0.375443 -0.615 157 157 181
0.228954 -0.377274 -0.618 122 119 146
0.237194 -0.377274 -0.618 106 119 154
0.239161 -0.376664 -0.617 64 76 124
0.240336 -0.376664 -0.617 64 76 124
0.242687 -0.376664 -0.617 93 104 149
0.2552 -0.376053 -0.616 199 202 219
0.270453 -0.376053 -0.616 213 219 251
0.435883 -0.379106 -0.621 192 205 247
0.448894 -0.379106 -0.621 225 224 238
0.479236 -0.379716 -0.622 71 97 134
0.481606 -0.379716 -0.622 148 164 198
0.48279 -0.379716 -0.622 156 172 206
0.510491 -0.380937 -0.624 209 212 227
0.522727 -0.380327 -0.623 152 177 218
0.5251 -0.380327 -0.623 129 157 194
0.479829 -0.329657 -0.54 168 135 128
0.462434 -0.315006 -0.516 170 140 132
0.45014 -0.303407 -0.497 176 142 133
0.442881 -0.289976 -0.475 190 148 132
0.44368 -0.288145 -0.472 193 150 133
0.445327 -0.286313 -0.469 192 149 130
0.449417 -0.283261 -0.464 194 151 132
0.458171 -0.278377 -0.456 189 144 125
0.468433 -0.277767 -0.455 184 139 120
0.117871 -0.339871 -0.555 192 139 121
0.119986 -0.339871 -0.555 196 143 127
0.123157 -0.339871 -0.555 192 139 123
0.126556 -0.340484 -0.556 188 135 117
0.137311 -0.343546 -0.561 153 102 85
0.14526 -0.34722 -0.567 138 89 84
0.150899 -0.350282 -0.572 129 85 76
0.154976 -0.352119 -0.575 130 86 77
0.157713 -0.353344 -0.577 130 86 77
0.160189 -0.353956 -0.578 127 84 77
0.168814 -0.358243 -0.585 121 80 74
0.21648 -0.377227 -0.616 154 154 180
0.23211 -0.377839 -0.617 80 97 141
0.237986 -0.377839 -0.617 122 136 171
0.242293 -0.377227 -0.616 75 87 127
0.245414 -0.376614 -0.615 191 195 220
0.439905 -0.379676 -0.62 236 237 255
0.466637 -0.380289 -0.621 219 219 229
0.48279 -0.380901 -0.622 138 160 197
0.48516 -0.380901 -0.622 186 200 229
0.489899 -0.380901 -0.622 51 90 147
0.50018 -0.381513 -0.623 89 117 164
0.51442 -0.381513 -0.623 155 175 210
0.519167 -0.381513 -0.623 136 166 204
0.528308 -0.368041 -0.601 160 139 138
0.497236 -0.344158 -0.562 167 136 131
0.44202 -0.292106 -0.477 188 146 130
0.447804 -0.28537 -0.466 190 144 128
0.451676 -0.281695 -0.46 191 149 127
0.455066 -0.281083 -0.459 192 147 126
0.456565 -0.279858 -0.457 189 144 125
0.4589 -0.278633 -0.455 188 142 126
0.46135 -0.278021 -0.454 187 141 125
0.48442 -0.279858 -0.457 165 127 106
0.490037 -0.281083 -0.459 154 118 102
0.112383 -0.340314 -0.554 197 144 128
0.114493 -0.340314 -0.554 196 143 125
0.118714 -0.340314 -0.554 195 142 124
0.146856 -0.349529 -0.569 131 84 78
0.1482 -0.350143 -0.57 131 86 81
0.174456 -0.361814 -0.589 121 83 80
0.213786 -0.377786 -0.615 156 156 180
0.221173 -0.3784 -0.616 82 87 116
0.23408 -0.3784 -0.616 163 179 204
0.2583 -0.377786 -0.615 128 150 187
0.259471 -0.377786 -0.615 138 160 197
0.455257 -0.380857 -0.62 152 180 220
0.486345 -0.382086 -0.622 195 206 236
0.51086 -0.3827 -0.623 203 207 216
0.468606 -0.321886 -0.524 167 136 131
0.449271 -0.304071 -0.495 173 139 130
0.442 -0.2924 -0.476 188 146 132
0.450212 -0.284414 -0.463 200 155 136
0.455066 -0.281957 -0.459 195 150 129
0.456565 -0.280729 -0.457 187 142 123
0.46308 -0.278886 -0.454 189 143 127
0.469998 -0.278886 -0.454 183 138 117
0.0896457 -0.364785 -0.592 195 155 143
0.0954667 -0.345067 -0.56 198 150 136
0.0961886 -0.343834 -0.558 197 149 135
0.106243 -0.341986 -0.555 195 146 129
0.122935 -0.34137 -0.554 191 139 118
0.12399 -0.34137 -0.554 189 137 116
0.136243 -0.345683 -0.561 156 103 85
0.137556 -0.346299 -0.562 149 97 83
0.145772 -0.350612 -0.569 128 84 75
0.20993 -0.378341 -0.614 151 152 173
0.211099 -0.378341 -0.614 156 157 178
0.2173 -0.378957 -0.615 110 108 130
0.220814 -0.378957 -0.615 124 128 155
0.23056 -0.379573 -0.616 62 75 120
0.243846 -0.378341 -0.614 184 189 219
0.246185 -0.378341 -0.614 197 198 226
0.490294 -0.382654 -0.621 127 166 225
0.493843 -0.382654 -0.621 198 205 234
0.498574 -0.382654 -0.621 98 118 151
0.501747 -0.38327 -0.622 165 179 208
0.453712 -0.309328 -0.502 173 140 133
0.451951 -0.307479 -0.499 172 139 132
0.443899 -0.297004 -0.482 180 143 134
0.442 -0.293307 -0.476 189 147 135
0.444377 -0.288377 -0.468 191 148 131
0.45178 -0.284064 -0.461 194 149 128
0.457167 -0.280367 -0.455 191 146 127
0.458033 -0.280367 -0.455 189 144 125
0.458756 -0.27975 -0.454 192 147 128
0.475187 -0.27975 -0.454 179 134 113
0.484229 -0.280983 -0.456 166 124 108
0.0891914 -0.364058 -0.589 188 149 134
0.0925962 -0.34737 -0.562 198 149 142
0.0999 -0.343043 -0.555 201 153 139
0.106051 -0.342425 -0.554 198 147 130
0.11534 -0.341807 -0.553 196 143 125
0.117447 -0.341807 -0.553 197 146 127
0.172505 -0.364676 -0.59 125 86 79
0.207252 -0.378892 -0.613 154 155 176
0.20842 -0.378892 -0.613 152 153 174
0.237214 -0.380129 -0.615 177 187 214
0.2419 -0.380129 -0.615 175 186 214
0.474152 -0.383219 -0.62 200 207 226
0.492987 -0.343661 -0.556 169 138 135
0.453712 -0.310284 -0.502 173 140 133
0.441949 -0.292977 -0.474 187 148 133
0.441882 -0.291741 -0.472 188 146 132
0.461197 -0.279997 -0.453 190 145 126
0.469826 -0.279997 -0.453 183 138 117
0.477781 -0.280615 -0.454 179 134 111
0.478646 -0.280615 -0.454 179 134 111
0.489842 -0.283088 -0.458 154 118 102
0.088219 -0.3658 -0.59 192 155 139
0.0924314 -0.34782 -0.561 202 152 141
0.093 -0.34596 -0.558 201 150 146
0.0958438 -0.34472 -0.556 201 153 139
0.0986648 -0.34348 -0.554 198 150 136
0.100775 -0.34348 -0.554 202 153 138
0.10586 -0.34286 -0.553 199 147 133
0.113233 -0.34286 -0.553 195 143 129
0.11534 -0.34286 -0.553 195 143 129
0.12188 -0.34348 -0.554 194 142 121
0.131263 -0.34596 -0.558 168 115 99
0.144689 -0.35278 -0.569 129 86 77
0.154416 -0.35774 -0.577 127 86 84
0.216593 -0.38006 -0.613 150 152 173
0.217761 -0.38006 -0.613 145 147 168
0.230981 -0.38068 -0.614 163 163 187
0.236829 -0.38068 -0.614 185 193 216
0.478104 -0.38378 -0.619 202 210 231
0.484781 -0.3844 -0.62 207 217 242
0.485962 -0.3844 -0.62 184 195 213
0.501314 -0.3844 -0.62 162 168 194
0.445707 -0.30256 -0.488 177 140 131
0.441949 -0.29388 -0.474 188 149 134
0.446766 -0.28768 -0.464 190 147 128
0.457167 -0.2821 -0.455 191 146 127
0.471551 -0.28086 -0.453 186 141 122
0.493733 -0.2852 -0.46 151 115 101
0.087621 -0.364436 -0.586 198 160 151
0.0894143 -0.353864 -0.569 197 154 148
0.146285 -0.355108 -0.571 127 84 78
0.201921 -0.379984 -0.611 93 95 120
0.213909 -0.380606 -0.612 66 69 100
0.221264 -0.381228 -0.613 148 145 154
0.229437 -0.381228 -0.613 134 137 168
0.243449 -0.381228 -0.613 123 129 161
0.246549 -0.380606 -0.612 169 173 208
0.462029 -0.384337 -0.618 202 209 235
0.448395 -0.306599 -0.493 174 141 132
0.44202 -0.296649 -0.477 186 146 136
0.453953 -0.28421 -0.457 195 150 129
0.457027 -0.282345 -0.454 194 149 128
0.472232 -0.281101 -0.452 180 135 112
0.473093 -0.281101 -0.452 178 133 110
0.506777 -0.291051 -0.468 143 110 95
0.0871724 -0.363681 -0.583 199 161 150
0.0954991 -0.34559 -0.554 203 156 140
0.10672 -0.344343 -0.552 196 147 130
0.122713 -0.344967 -0.553 193 141 120
0.133867 -0.349333 -0.56 151 100 83
0.135415 -0.350581 -0.562 147 97 86
0.143605 -0.354948 -0.569 131 87 76
0.146285 -0.356195 -0.571 128 83 78
0.14924 -0.358067 -0.574 125 81 82
0.150595 -0.35869 -0.575 128 84 85
0.151954 -0.359314 -0.576 130 84 86
0.164638 -0.365552 -0.586 121 84 78
0.210411 -0.381771 -0.612 93 97 134
0.230605 -0.382395 -0.613 181 184 203
0.243051 -0.381771 -0.612 150 156 188
0.24888 -0.381771 -0.612 183 196 231
0.251211 -0.381771 -0.612 206 214 237
0.480863 -0.385514 -0.618 216 221 243
0.487926 -0.385514 -0.618 171 176 195
0.507219 -0.386762 -0.62 182 181 195
0.442 -0.296933 -0.476 184 144 132
0.441046 -0.295686 -0.474 186 146 134
0.441843 -0.293814 -0.471 183 144 129
0.442594 -0.291943 -0.468 186 144 128
0.443428 -0.291319 -0.467 185 143 127
0.445071 -0.290071 -0.465 194 151 134
0.445957 -0.290071 -0.465 194 151 132
0.447567 -0.288824 -0.463 193 150 131
0.44748 -0.2882 -0.462 190 147 128
0.463623 -0.281962 -0.452 187 142 121
0.464484 -0.281962 -0.452 187 142 119
0.466206 -0.281962 -0.452 185 140 117
0.489643 -0.285081 -0.457 151 118 101
0.500481 -0.288824 -0.463 145 114 96
0.0907114 -0.348523 -0.557 203 156 140
0.0942733 -0.34602 -0.553 202 155 139
0.0974333 -0.34602 -0.553 199 153 137
0.109675 -0.344769 -0.551 194 145 128
0.117022 -0.344769 -0.551 196 148 128
0.132563 -0.349774 -0.559 148 99 84
0.154684 -0.361663 -0.578 123 83 81
0.160464 -0.364791 -0.583 120 83 77
0.16632 -0.36792 -0.588 121 83 82
0.199267 -0.381686 -0.61 83 92 125
0.215887 -0.382311 -0.611 162 163 181
0.222069 -0.382937 -0.612 123 116 124
0.475384 -0.386066 -0.617 216 222 238
0.463417 -0.322869 -0.516 170 140 132
0.442594 -0.292834 -0.468 188 146 130
0.446685 -0.289706 -0.463 194 151 132
0.4466 -0.28908 -0.462 194 151 132
0.448268 -0.288454 -0.461 186 144 122
0.45296 -0.285326 -0.456 197 152 131
0.460879 -0.282197 -0.451 188 143 120
0.462597 -0.282197 -0.451 186 141 118
0.481043 -0.283449 -0.453 168 124 99
0.0887486 -0.350211 -0.558 203 157 141
0.09322 -0.347073 -0.553 201 158 142
0.117022 -0.345818 -0.551 195 147 125
0.125271 -0.348329 -0.555 176 124 102
0.145197 -0.35837 -0.571 132 88 75
0.147889 -0.359626 -0.573 129 85 76
0.150595 -0.360881 -0.575 127 82 79
0.160739 -0.36653 -0.584 120 83 75
0.168294 -0.370923 -0.591 120 82 81
0.196943 -0.382848 -0.61 55 67 105
0.20774 -0.383475 -0.611 85 87 125
0.211231 -0.383475 -0.611 98 106 145
0.22287 -0.383475 -0.611 147 142 149
0.229063 -0.384103 -0.612 178 179 197
0.238389 -0.384103 -0.612 192 198 212
0.477734 -0.387241 -0.617 215 221 235
0.505222 -0.388496 -0.619 114 118 145
0.509938 -0.388496 -0.619 200 206 222
0.511117 -0.388496 -0.619 193 200 219
0.519709 -0.387869 -0.618 80 120 182
0.520886 -0.387869 -0.618 89 129 191
0.443897 -0.303768 -0.484 179 141 128
0.44202 -0.299374 -0.477 179 142 126
0.444114 -0.291215 -0.464 190 149 129
0.449048 -0.288705 -0.46 188 143 122
0.455157 -0.284311 -0.453 195 150 127
0.471188 -0.283056 -0.451 186 141 118
0.490309 -0.286194 -0.456 147 114 99
0.126556 -0.350015 -0.556 165 113 91
0.134106 -0.353163 -0.561 141 93 83
0.143857 -0.358829 -0.57 130 86 73
0.1652 -0.37016 -0.588 120 81 76
0.20159 -0.38401 -0.61 102 116 153
0.242257 -0.38401 -0.61 192 198 224
0.460533 -0.387787 -0.616 191 202 230
0.467573 -0.387787 -0.616 124 133 162
0.487136 -0.388416 -0.617 214 215 235
0.491837 -0.388416 -0.617 215 218 237
0.495363 -0.388416 -0.617 210 216 228
0.50676 -0.389046 -0.618 141 148 174
0.444114 -0.292099 -0.464 188 147 127
0.449712 -0.288322 -0.458 194 149 128
0.45602 -0.285174 -0.453 191 146 123
0.455874 -0.284545 -0.452 193 148 125
0.460714 -0.283286 -0.45 186 141 118
0.473571 -0.283286 -0.45 176 131 110
0.47806 -0.283915 -0.451 176 131 108
0.482564 -0.284545 -0.452 168 127 109
0.497238 -0.289581 -0.46 150 119 101
0.084481 -0.356757 -0.565 203 160 151
0.0939324 -0.347917 -0.551 202 155 139
0.099 -0.347286 -0.55 198 151 133
0.100048 -0.347286 -0.55 197 150 132
0.114714 -0.347286 -0.55 194 145 128
0.131733 -0.3536 -0.56 142 93 79
0.158243 -0.368123 -0.583 119 80 73
0.161014 -0.369386 -0.585 121 82 75
0.16408 -0.37128 -0.588 118 79 74
0.1943 -0.38454 -0.609 43 54 99
0.20358 -0.38454 -0.609 108 122 167
0.2074 -0.385171 -0.61 54 66 108
0.209724 -0.385171 -0.61 138 142 180
0.214371 -0.385171 -0.61 167 166 182
0.22678 -0.38454 -0.609 126 125 143
0.509466 -0.389591 -0.617 192 206 235
0.473971 -0.334657 -0.53 165 135 127
0.441016 -0.298666 -0.473 183 144 129
0.440946 -0.297403 -0.471 186 147 132
0.451223 -0.287931 -0.456 195 150 129
0.456584 -0.284774 -0.451 186 141 118
0.489233 -0.2873 -0.455 152 119 104
0.0828343 -0.3648 -0.576 198 154 145
0.0948095 -0.348333 -0.55 199 153 137
0.102143 -0.348333 -0.55 197 150 132
0.110323 -0.3477 -0.549 197 148 131
0.111369 -0.3477 -0.549 197 148 131
0.12399 -0.350867 -0.554 171 120 99
0.130433 -0.354033 -0.559 144 95 81
0.13986 -0.3591 -0.567 136 89 81
0.142771 -0.361 -0.57 132 86 73
0.20938 -0.3857 -0.609 159 162 197
0.219459 -0.385067 -0.608 168 165 182
0.226408 -0.385067 -0.608 126 125 143
0.23142 -0.3857 -0.609 179 180 198
0.23954 -0.3857 -0.609 199 208 225
0.4633 -0.3895 -0.615 156 177 224
0.466814 -0.3895 -0.615 176 187 207
0.472671 -0.3895 -0.615 227 226 240
0.476186 -0.3895 -0.615 220 223 238
0.49104 -0.390133 -0.616 206 216 228
0.441111 -0.3021 -0.477 181 144 128
0.442414 -0.2945 -0.465 189 148 130
0.444755 -0.291967 -0.461 190 149 131
0.448071 -0.2907 -0.459 189 147 125
0.450471 -0.289433 -0.457 194 149 128
0.452569 -0.2869 -0.453 192 147 126
0.45627 -0.284367 -0.449 191 146 125
0.463967 -0.284367 -0.449 184 139 116
0.481496 -0.285633 -0.451 167 126 104
0.506186 -0.2945 -0.465 155 118 100
0.082021 -0.367168 -0.578 198 154 143
0.0860019 -0.351922 -0.554 202 159 142
0.0948095 -0.349381 -0.55 197 154 137
0.09882 -0.348746 -0.549 200 153 137
0.131733 -0.355733 -0.56 142 90 77
0.152746 -0.367803 -0.579 119 84 80
0.155487 -0.369073 -0.581 119 82 74
0.205562 -0.386225 -0.608 96 111 150
0.218301 -0.386225 -0.608 165 163 184
0.219459 -0.386225 -0.608 146 145 163
0.222933 -0.386225 -0.608 134 133 149
0.233356 -0.386225 -0.608 171 172 190
0.243779 -0.386225 -0.608 207 212 231
0.456699 -0.390036 -0.614 140 171 236
0.463716 -0.390036 -0.614 135 155 206
0.468394 -0.390036 -0.614 185 188 197
0.493387 -0.391307 -0.616 215 213 226
0.502773 -0.391307 -0.616 204 209 215
0.503947 -0.391307 -0.616 171 183 209
0.50864 -0.391307 -0.616 102 127 183
0.527949 -0.379872 -0.598 165 142 136
0.466111 -0.329689 -0.519 167 137 129
0.44086 -0.297927 -0.469 184 145 128
0.442275 -0.294115 -0.463 189 147 131
0.44484 -0.29348 -0.462 187 146 128
0.450973 -0.288398 -0.454 193 148 125
0.454152 -0.287128 -0.452 191 146 123
0.454866 -0.286492 -0.451 191 146 123
0.471664 -0.285222 -0.449 178 134 109
0.485147 -0.287128 -0.452 156 119 100
0.0876352 -0.351066 -0.551 201 158 142
0.115551 -0.349791 -0.549 191 140 121
0.126784 -0.354889 -0.557 154 103 82
0.134584 -0.358711 -0.563 136 89 81
0.141437 -0.362534 -0.569 134 90 81
0.142771 -0.363171 -0.57 133 89 80
0.191665 -0.387383 -0.608 31 50 93
0.192823 -0.387383 -0.608 23 42 85
0.202088 -0.387383 -0.608 33 55 112
0.204404 -0.387383 -0.608 52 73 118
0.207878 -0.387383 -0.608 140 147 175
0.228724 -0.387383 -0.608 150 151 171
0.457869 -0.391206 -0.614 133 164 229
0.483598 -0.391206 -0.614 163 174 196
0.503129 -0.391843 -0.615 201 214 233
0.510987 -0.39248 -0.616 72 102 162
0.517186 -0.391843 -0.615 30 75 143
0.441046 -0.302006 -0.474 180 143 125
0.442275 -0.294997 -0.463 191 150 132
0.4422 -0.29436 -0.462 190 149 131
0.450109 -0.289263 -0.454 192 149 130
0.454866 -0.287351 -0.451 187 142 119
0.46976 -0.28544 -0.448 174 130 105
0.478506 -0.286077 -0.449 168 127 105
0.479361 -0.286077 -0.449 166 125 105
0.50489 -0.294997 -0.463 141 115 92
0.0838914 -0.354032 -0.554 202 159 143
0.11681 -0.351476 -0.55 188 136 115
0.122935 -0.354032 -0.554 164 109 88
0.134823 -0.360423 -0.564 140 92 82
0.160447 -0.375121 -0.587 116 79 71
0.182954 -0.387263 -0.606 41 49 86
0.232972 -0.387902 -0.607 172 176 188
0.241066 -0.387902 -0.607 203 209 225
0.459038 -0.392375 -0.614 96 132 192
0.482429 -0.392375 -0.614 180 187 206
0.485937 -0.392375 -0.614 155 167 193
0.511329 -0.393014 -0.615 65 105 166
0.513671 -0.393014 -0.615 59 96 164
0.457328 -0.323358 -0.506 173 139 129
0.455414 -0.286932 -0.449 184 139 116
0.455253 -0.286293 -0.448 180 138 114
0.465493 -0.286293 -0.448 183 138 115
0.474027 -0.286293 -0.448 176 132 105
0.480216 -0.286932 -0.449 163 121 97
0.501831 -0.294601 -0.461 140 113 94
0.0844867 -0.353165 -0.551 202 159 143
0.0892457 -0.351242 -0.548 199 156 139
0.101771 -0.351242 -0.548 201 154 134
0.119337 -0.353806 -0.552 170 115 94
0.141686 -0.365343 -0.57 133 90 83
0.184109 -0.388417 -0.606 50 56 90
0.192189 -0.388417 -0.606 24 48 92
0.195974 -0.389058 -0.607 21 44 96
0.198287 -0.389058 -0.607 43 66 120
0.207536 -0.389058 -0.607 162 159 186
0.218737 -0.388417 -0.606 169 165 188
0.221046 -0.388417 -0.606 169 166 187
0.463716 -0.393545 -0.614 136 159 203
0.467631 -0.392904 -0.613 219 217 230
0.480475 -0.392904 -0.613 185 190 209
0.483978 -0.392904 -0.613 163 174 194
0.485146 -0.392904 -0.613 169 180 202
0.506989 -0.393545 -0.614 69 104 168
0.515175 -0.393545 -0.614 32 72 144
0.518684 -0.393545 -0.614 35 77 149
0.523779 -0.379444 -0.592 167 134 129
0.478443 -0.34291 -0.535 169 139 131
0.468806 -0.334577 -0.522 169 139 131
0.451124 -0.317912 -0.496 174 140 130
0.447533 -0.314067 -0.49 178 141 132
0.445721 -0.312144 -0.487 179 143 131
0.442978 -0.308298 -0.481 180 142 131
0.440905 -0.301248 -0.47 188 148 136
0.441463 -0.297402 -0.464 187 145 129
0.44308 -0.29612 -0.462 189 148 128
0.447749 -0.292274 -0.456 191 149 127
0.450709 -0.28971 -0.452 183 141 119
0.453857 -0.288429 -0.45 186 141 118
0.456791 -0.286506 -0.447 183 141 117
0.46786 -0.286506 -0.447 182 138 111
0.481927 -0.287788 -0.449 165 123 99
0.483857 -0.288429 -0.45 164 122 98
0.0944648 -0.352286 -0.548 198 153 134
0.105947 -0.352286 -0.548 199 152 132
0.10699 -0.352286 -0.548 204 156 136
0.11681 -0.353571 -0.55 179 127 103
0.118071 -0.354214 -0.551 171 117 93
0.126784 -0.358071 -0.557 156 100 85
0.1309 -0.360643 -0.561 150 96 84
0.141686 -0.366429 -0.57 131 88 82
0.151643 -0.372214 -0.579 123 86 80
0.184109 -0.389571 -0.606 63 67 96
0.186417 -0.389571 -0.606 64 75 107
0.458709 -0.393429 -0.612 75 116 178
0.468799 -0.394071 -0.613 224 222 235
0.474637 -0.394071 -0.613 177 175 178
0.475029 -0.393429 -0.612 213 211 214
0.459135 -0.326571 -0.508 170 137 130
0.447533 -0.315 -0.49 178 141 132
0.441529 -0.298929 -0.465 188 146 130
0.45057 -0.289929 -0.451 189 147 125
0.452289 -0.289929 -0.451 188 143 122
0.456791 -0.287357 -0.447 185 143 119
0.4619 -0.287357 -0.447 183 139 114
0.462751 -0.287357 -0.447 182 138 113
0.468711 -0.287357 -0.447 184 140 115
0.475523 -0.287357 -0.447 167 125 101
0.481927 -0.288643 -0.449 167 125 103
0.0791286 -0.369449 -0.573 195 153 139
0.0802457 -0.359777 -0.558 200 157 141
0.0922086 -0.352685 -0.547 198 155 136
0.104711 -0.352685 -0.547 200 153 133
0.126784 -0.359132 -0.557 156 100 87
0.137457 -0.364935 -0.566 145 93 82
0.154911 -0.375896 -0.583 117 83 82
0.189567 -0.390081 -0.605 44 65 110
0.202243 -0.390081 -0.605 105 121 154
0.203395 -0.390081 -0.605 86 102 135
0.217224 -0.390081 -0.605 177 174 193
0.221833 -0.390081 -0.605 186 183 200
0.453304 -0.39395 -0.611 64 103 172
0.45381 -0.322381 -0.5 171 137 127
0.44159 -0.300459 -0.466 189 148 128
0.441463 -0.29917 -0.464 189 148 128
0.445249 -0.294656 -0.457 188 146 124
0.447749 -0.294011 -0.456 188 146 122
0.447633 -0.293367 -0.455 191 149 125
0.449117 -0.292077 -0.453 187 145 123
0.456791 -0.288209 -0.447 186 144 120
0.460017 -0.287564 -0.446 181 137 112
0.47382 -0.288209 -0.447 172 130 106
0.478929 -0.288209 -0.447 167 125 103
0.480853 -0.288853 -0.448 167 125 103
0.48751 -0.290788 -0.451 160 119 97
0.115762 -0.355667 -0.55 176 126 101
0.124214 -0.3589 -0.555 159 103 88
0.134823 -0.36472 -0.564 149 93 80
0.140107 -0.367307 -0.568 138 90 80
0.204548 -0.391233 -0.605 77 90 125
0.480071 -0.395113 -0.611 218 220 232
0.500674 -0.39576 -0.612 181 191 216
0.514663 -0.39576 -0.612 64 109 174
0.516994 -0.39576 -0.612 71 117 177
0.511817 -0.37248 -0.576 159 137 126
0.489917 -0.35502 -0.549 163 134 128
0.475877 -0.34338 -0.531 163 134 126
0.440115 -0.305873 -0.473 182 145 126
0.440084 -0.305227 -0.472 182 145 126
0.440759 -0.301993 -0.467 186 148 127
0.450429 -0.291 -0.45 191 146 123
0.47361 -0.288413 -0.446 170 128 104
0.670358 -0.385413 -0.596 209 210 205
0.08058 -0.35866 -0.553 201 158 141
0.0813381 -0.357363 -0.551 200 157 138
0.0849152 -0.354769 -0.547 202 159 140
0.09308 -0.35412 -0.546 202 157 134
0.09516 -0.35412 -0.546 202 157 134
0.10244 -0.35412 -0.546 201 155 131
0.151905 -0.376171 -0.58 115 81 79
0.195006 -0.391737 -0.604 64 88 136
0.20651 -0.391737 -0.604 88 100 140
0.212263 -0.391737 -0.604 170 171 189
0.224918 -0.391737 -0.604 176 176 184
0.459533 -0.395629 -0.61 195 216 245
0.490546 -0.396277 -0.611 183 187 190
0.506503 -0.396926 -0.612 182 197 230
0.511166 -0.396926 -0.612 98 126 173
0.515829 -0.396926 -0.612 86 134 196
0.52136 -0.38136 -0.588 161 137 127
0.513594 -0.374874 -0.578 161 139 126
0.4671 -0.336609 -0.519 165 135 125
0.4439 -0.31326 -0.483 178 142 126
0.439114 -0.304829 -0.47 184 147 129
0.442121 -0.298991 -0.461 186 148 127
0.445249 -0.296397 -0.457 183 142 120
0.447391 -0.293803 -0.453 190 148 126
0.452693 -0.29056 -0.448 187 142 119
0.461529 -0.288614 -0.445 189 145 120
0.463224 -0.288614 -0.445 181 137 112
0.471061 -0.289263 -0.446 176 132 105
0.477008 -0.289263 -0.446 166 124 100
0.480631 -0.289911 -0.447 165 123 101
0.489228 -0.292506 -0.451 150 118 93
0.114506 -0.357111 -0.549 180 130 105
0.188103 -0.392888 -0.604 68 83 126
0.216506 -0.392237 -0.603 181 181 191
0.217654 -0.392237 -0.603 180 182 195
0.219951 -0.392237 -0.603 185 187 200
0.496365 -0.397441 -0.611 208 210 222
0.503348 -0.397441 -0.611 161 178 208
0.504511 -0.397441 -0.611 198 206 229
0.513822 -0.397441 -0.611 80 125 182
0.515371 -0.377276 -0.58 161 138 124
0.457386 -0.32849 -0.505 169 139 128
0.441093 -0.309627 -0.476 180 143 127
0.439114 -0.305724 -0.47 185 148 130
0.440759 -0.303772 -0.467 184 146 127
0.442038 -0.299219 -0.46 188 150 131
0.445033 -0.295967 -0.455 189 147 125
0.446404 -0.294015 -0.452 189 147 125
0.45184 -0.291413 -0.448 188 144 119
0.453386 -0.290763 -0.447 183 139 114
0.460681 -0.289462 -0.445 186 142 117
0.462376 -0.289462 -0.445 186 142 117
0.467462 -0.289462 -0.445 181 135 109
0.472548 -0.289462 -0.445 173 128 105
0.485348 -0.292064 -0.449 161 118 99
0.486203 -0.292064 -0.449 149 117 92
0.489228 -0.293365 -0.451 147 115 90
0.0801429 -0.35881 -0.55 203 158 139
0.0887571 -0.355548 -0.545 203 156 136
0.10348 -0.3562 -0.546 201 153 133
0.11221 -0.357505 -0.548 187 131 108
0.115551 -0.358157 -0.549 178 121 102
0.147566 -0.375771 -0.576 123 87 87
0.190089 -0.393386 -0.603 81 95 142
0.192386 -0.393386 -0.603 80 97 143
0.195831 -0.393386 -0.603 77 95 141
0.4669 -0.3973 -0.609 204 208 233
0.474638 -0.397952 -0.61 224 224 236
0.505675 -0.398605 -0.611 195 200 220
0.506839 -0.398605 -0.611 185 199 226
0.494379 -0.361419 -0.554 163 134 126
0.448447 -0.320319 -0.491 172 140 129
0.442049 -0.31249 -0.479 179 141 128
0.441093 -0.310533 -0.476 179 141 128
0.440811 -0.305314 -0.468 182 145 127
0.440703 -0.30401 -0.466 186 148 129
0.44132 -0.3014 -0.462 183 145 126
0.452534 -0.291614 -0.447 188 144 119
0.45407 -0.290962 -0.446 184 142 117
0.455595 -0.29031 -0.445 181 139 114
0.470005 -0.29031 -0.445 175 133 108
0.07784 -0.363783 -0.556 199 156 139
0.0783314 -0.361166 -0.552 198 155 138
0.08268 -0.35724 -0.546 202 156 140
0.0877191 -0.356586 -0.545 203 156 136
0.0948114 -0.355931 -0.544 204 159 138
0.113253 -0.358549 -0.548 185 128 108
0.114506 -0.359203 -0.549 181 124 104
0.120607 -0.36182 -0.553 166 110 95
0.139025 -0.371634 -0.568 140 92 88
0.141686 -0.372943 -0.57 129 91 88
0.18748 -0.39388 -0.602 64 82 118
0.196653 -0.39388 -0.602 101 110 151
0.198947 -0.39388 -0.602 153 157 184
0.20812 -0.39388 -0.602 68 84 118
0.213853 -0.39388 -0.602 179 174 197
0.215 -0.39388 -0.602 186 184 197
0.22188 -0.39388 -0.602 132 128 142
0.226467 -0.39388 -0.602 201 199 220
0.48314 -0.39846 -0.609 218 222 234
0.501362 -0.399114 -0.61 168 186 210
0.507171 -0.399114 -0.61 171 178 194
0.510657 -0.399114 -0.61 101 138 183
0.507571 -0.372943 -0.57 164 130 121
0.473296 -0.344809 -0.527 163 133 125
0.461847 -0.33434 -0.511 168 135 126
0.44936 -0.321909 -0.492 172 138 128
0.440115 -0.309477 -0.473 182 146 130
0.442826 -0.300317 -0.459 190 149 129
0.444167 -0.2977 -0.455 187 147 122
0.444803 -0.296391 -0.453 187 145 121
0.453386 -0.292466 -0.447 189 145 118
0.45492 -0.291811 -0.446 185 143 118
0.454748 -0.291157 -0.445 183 141 116
0.48512 -0.29312 -0.448 158 117 95
0.505124 -0.300971 -0.46 138 107 89
0.0807476 -0.358936 -0.547 196 153 136
0.0989562 -0.356968 -0.544 200 155 132
0.110963 -0.358936 -0.547 187 131 108
0.114506 -0.360249 -0.549 180 125 104
0.12188 -0.36353 -0.554 162 106 91
0.127011 -0.366154 -0.558 156 99 88
0.1309 -0.368123 -0.561 152 98 88
0.168571 -0.393714 -0.6 60 61 81
0.196327 -0.39437 -0.601 95 107 147
0.459185 -0.398964 -0.608 223 227 239
0.467291 -0.398964 -0.608 146 149 180
0.47154 -0.39962 -0.609 216 216 224
0.473082 -0.398964 -0.608 219 222 231
0.47734 -0.39962 -0.609 221 223 238
0.48082 -0.39962 -0.609 214 216 231
0.48198 -0.39962 -0.609 174 180 194
0.48778 -0.39962 -0.609 213 219 233
0.49242 -0.39962 -0.609 173 172 180
0.524907 -0.388465 -0.592 161 138 132
0.465383 -0.338594 -0.516 164 135 127
0.451157 -0.324814 -0.495 169 136 127
0.447551 -0.320877 -0.489 171 137 127
0.445731 -0.318909 -0.486 174 140 130
0.444819 -0.317596 -0.484 176 142 130
0.442971 -0.314971 -0.48 178 141 125
0.441093 -0.312347 -0.476 178 142 128
0.440084 -0.309722 -0.472 181 144 128
0.439114 -0.30841 -0.47 183 146 128
0.43987 -0.306441 -0.467 182 145 126
0.441861 -0.300535 -0.458 190 149 129
0.442733 -0.300535 -0.458 187 146 124
0.4433 -0.298567 -0.455 186 146 121
0.447 -0.295286 -0.45 186 144 119
0.448714 -0.295286 -0.45 181 139 114
0.45184 -0.293973 -0.448 192 148 121
0.453386 -0.293317 -0.447 191 147 120
0.453221 -0.292661 -0.446 189 145 118
0.455595 -0.292005 -0.445 180 139 111
0.466411 -0.291349 -0.444 183 139 110
0.471486 -0.291349 -0.444 173 129 104
0.489857 -0.295286 -0.45 157 116 96
0.07714 -0.36261 -0.551 198 157 139
0.0788076 -0.360636 -0.548 200 157 140
0.08164 -0.35932 -0.546 201 158 139
0.0844495 -0.358004 -0.544 204 159 138
0.0946371 -0.357346 -0.543 200 156 131
0.09774 -0.357346 -0.543 202 158 133
0.123157 -0.365243 -0.555 164 107 96
0.124438 -0.365901 -0.556 160 103 92
0.125723 -0.366559 -0.557 160 103 92
0.1296 -0.368533 -0.56 154 97 88
0.134823 -0.371166 -0.564 149 94 87
0.144867 -0.377747 -0.574 116 86 84
0.190603 -0.395515 -0.601 102 118 154
0.194857 -0.394857 -0.6 79 97 143
0.211209 -0.395515 -0.601 150 163 195
0.223801 -0.395515 -0.601 181 187 201
0.227235 -0.395515 -0.601 190 192 213
0.473082 -0.400122 -0.608 222 222 234
0.453852 -0.32839 -0.499 165 135 125
0.442537 -0.300091 -0.456 185 144 122
0.44928 -0.294827 -0.448 180 138 113
0.455595 -0.292852 -0.445 179 135 108
0.45861 -0.291536 -0.443 183 139 112
0.468949 -0.292194 -0.444 176 132 105
0.474869 -0.292194 -0.444 167 125 103
0.479556 -0.29351 -0.446 166 124 102
0.490714 -0.296143 -0.45 152 116 94
0.0732133 -0.38148 -0.578 195 159 135
0.0923981 -0.35772 -0.542 204 158 134
0.113253 -0.36168 -0.548 183 128 107
0.119337 -0.36432 -0.552 170 114 97
0.1309 -0.37026 -0.561 151 99 88
0.172 -0.396 -0.6 125 123 145
0.467679 -0.40062 -0.607 137 143 165
0.468835 -0.40062 -0.607 205 211 233
0.490453 -0.40128 -0.608 205 210 230
0.481254 -0.35442 -0.537 162 134 130
0.442971 -0.3168 -0.48 179 142 126
0.43898 -0.30822 -0.467 180 143 125
0.441077 -0.30294 -0.459 187 149 128
0.440989 -0.30228 -0.458 188 150 129
0.44319 -0.29964 -0.454 187 146 124
0.446143 -0.297 -0.45 187 147 122
0.447717 -0.29634 -0.449 187 145 121
0.448427 -0.29568 -0.448 189 147 122
0.455595 -0.2937 -0.445 179 135 108
0.45861 -0.29238 -0.443 184 140 113
0.465361 -0.29238 -0.443 183 139 110
0.467049 -0.29238 -0.443 179 135 108
0.47656 -0.29304 -0.444 164 122 100
0.478481 -0.2937 -0.445 165 123 101
0.482954 -0.29436 -0.446 159 117 95
0.48574 -0.29502 -0.447 158 117 95
0.101877 -0.359414 -0.543 193 145 122
0.112005 -0.362062 -0.547 187 132 111
0.120607 -0.366033 -0.553 169 113 100
0.1797 -0.396481 -0.599 130 134 159
0.469991 -0.401776 -0.607 200 206 230
0.471148 -0.401776 -0.607 218 224 248
0.491959 -0.401776 -0.607 138 149 179
0.496584 -0.401776 -0.607 183 192 199
0.46275 -0.338895 -0.512 163 134 128
0.441093 -0.315067 -0.476 177 141 125
0.440143 -0.313743 -0.474 179 143 127
0.440511 -0.306462 -0.463 183 146 128
0.440989 -0.303152 -0.458 187 149 128
0.440896 -0.30249 -0.457 187 149 128
0.442433 -0.301167 -0.455 184 143 123
0.443821 -0.299181 -0.452 187 146 124
0.466205 -0.293224 -0.443 181 138 106
0.46958 -0.293224 -0.443 173 132 102
0.0963495 -0.359121 -0.541 201 155 132
0.102911 -0.360449 -0.543 192 144 122
0.119337 -0.366423 -0.552 167 111 96
0.120607 -0.367087 -0.553 168 112 99
0.124438 -0.369078 -0.556 159 102 91
0.125723 -0.369742 -0.557 158 104 92
0.134823 -0.374389 -0.564 144 91 83
0.13927 -0.377708 -0.569 135 90 85
0.142183 -0.379699 -0.572 119 86 81
0.178559 -0.397622 -0.599 147 143 158
0.19111 -0.397622 -0.599 113 125 163
0.471526 -0.402269 -0.606 177 187 212
0.47268 -0.402269 -0.606 176 186 211
0.478085 -0.402932 -0.607 194 209 232
0.479241 -0.402932 -0.607 166 178 200
0.483047 -0.357793 -0.539 158 130 126
0.439695 -0.308008 -0.464 181 144 125
0.440511 -0.307344 -0.463 183 146 128
0.44044 -0.30668 -0.462 184 147 129
0.442433 -0.302033 -0.455 184 143 123
0.447717 -0.29805 -0.449 187 145 121
0.448427 -0.297387 -0.448 186 144 120
0.451357 -0.295395 -0.445 192 150 125
0.452205 -0.295395 -0.445 189 148 120
0.46958 -0.294068 -0.443 175 132 100
0.475487 -0.294068 -0.443 166 125 97
0.477406 -0.294731 -0.444 167 126 98
0.481871 -0.295395 -0.445 159 117 92
0.484653 -0.296059 -0.446 157 117 92
0.07658 -0.364146 -0.547 204 162 140
0.0811914 -0.361483 -0.543 198 156 134
0.0910286 -0.359486 -0.54 202 157 134
0.09738 -0.360151 -0.541 200 152 132
0.0984105 -0.360151 -0.541 198 150 130
0.120607 -0.36814 -0.553 167 111 98
0.143773 -0.38212 -0.574 117 84 79
0.145624 -0.384117 -0.577 109 83 82
0.16687 -0.398097 -0.598 85 85 111
0.172566 -0.398097 -0.598 131 128 145
0.183956 -0.398097 -0.598 82 99 142
0.491149 -0.403423 -0.606 140 163 204
0.483943 -0.359486 -0.54 157 132 127
0.460103 -0.338183 -0.508 162 135 128
0.441093 -0.31688 -0.476 179 143 129
0.43963 -0.308226 -0.463 184 146 127
0.43956 -0.30756 -0.462 184 147 129
0.440365 -0.306894 -0.461 186 148 129
0.442214 -0.301569 -0.453 190 149 127
0.44296 -0.300903 -0.452 189 149 124
0.452034 -0.295577 -0.444 190 149 119
0.4599 -0.29358 -0.441 181 137 108
0.469362 -0.294246 -0.442 176 133 101
0.479943 -0.295577 -0.444 164 120 93
0.482719 -0.296243 -0.445 160 120 94
0.487443 -0.297574 -0.447 152 112 86
0.0713638 -0.381878 -0.572 200 158 142
0.0729362 -0.373199 -0.559 204 156 144
0.0734714 -0.370529 -0.555 204 158 145
0.0820743 -0.36185 -0.542 202 160 138
0.0869143 -0.360514 -0.54 201 159 137
0.0889714 -0.360514 -0.54 201 159 137
0.0941143 -0.360514 -0.54 198 153 132
0.0984105 -0.361182 -0.541 197 150 130
