ply
format ascii 1.0
comment Created by Open3D
element vertex 1299
property double x
property double y
property double z
property uchar red
property uchar green
property uchar blue
end_header
0.483637 -0.382719 -0.449 30 25 29
0.487058 -0.382719 -0.449 31 26 30
0.489624 -0.382719 -0.449 28 26 29
0.493286 -0.383571 -0.45 30 25 29
0.494143 -0.383571 -0.45 28 26 29
0.502614 -0.386129 -0.453 30 28 33
0.0117143 -0.420309 -0.492 199 155 126
0.0126514 -0.420309 -0.492 200 157 125
0.02964 -0.422017 -0.494 194 149 118
0.0487533 -0.42458 -0.497 194 149 120
0.0507486 -0.425434 -0.498 192 148 119
0.0608391 -0.429706 -0.503 184 140 115
0.06192 -0.43056 -0.504 181 137 112
0.0956714 -0.463877 -0.543 98 82 85
0.104787 -0.463023 -0.542 167 166 184
0.111807 -0.462169 -0.541 47 77 137
0.113868 -0.462169 -0.541 43 79 139
0.346238 -0.469857 -0.55 123 165 205
0.359857 -0.469857 -0.55 229 231 244
0.36366 -0.470711 -0.551 216 223 229
0.40112 -0.471566 -0.552 145 170 201
0.406377 -0.471566 -0.552 103 146 189
0.413737 -0.471566 -0.552 100 148 194
0.423678 -0.473274 -0.554 228 229 224
0.436341 -0.473274 -0.554 134 159 189
0.44533 -0.474983 -0.556 62 100 163
0.474776 -0.475837 -0.557 109 143 191
0.483069 -0.476691 -0.558 87 127 178
0.488383 -0.476691 -0.558 194 189 196
0.492812 -0.475837 -0.557 168 172 175
0.482973 -0.44252 -0.518 153 124 108
0.471851 -0.420309 -0.492 171 133 112
0.469757 -0.414329 -0.485 171 134 108
0.468553 -0.40066 -0.469 182 143 114
0.469994 -0.398097 -0.466 183 144 115
0.470952 -0.392971 -0.46 175 138 109
0.47065 -0.391263 -0.458 172 136 112
0.473457 -0.387846 -0.454 113 81 68
0.482782 -0.383574 -0.449 26 25 30
0.483637 -0.383574 -0.449 25 24 29
0.485973 -0.38272 -0.448 27 26 31
0.498677 -0.385283 -0.451 28 27 33
0.00424286 -0.423814 -0.495 192 151 121
0.00517524 -0.422958 -0.494 194 153 123
0.0117143 -0.421246 -0.492 200 156 127
0.0135886 -0.421246 -0.492 200 157 125
0.0201486 -0.421246 -0.492 195 150 119
0.0399095 -0.422102 -0.493 196 151 122
0.06192 -0.43152 -0.504 176 132 107
0.0683514 -0.435801 -0.509 162 120 98
0.0934305 -0.464055 -0.542 99 83 84
0.106654 -0.463199 -0.541 151 165 191
0.112837 -0.463199 -0.541 39 80 144
0.115929 -0.463199 -0.541 48 88 149
0.359857 -0.470905 -0.55 229 233 242
0.402171 -0.472617 -0.552 121 146 177
0.403223 -0.472617 -0.552 105 152 206
0.454861 -0.476042 -0.556 171 180 185
0.456979 -0.476042 -0.556 220 226 224
0.459097 -0.476042 -0.556 222 225 234
0.464392 -0.476042 -0.556 213 218 222
0.46651 -0.476042 -0.556 184 197 214
0.483264 -0.476898 -0.557 81 122 174
0.48963 -0.476898 -0.557 186 191 197
0.481202 -0.440082 -0.514 157 125 110
0.476624 -0.432376 -0.505 162 127 108
0.474757 -0.428951 -0.501 165 130 111
0.468369 -0.408403 -0.477 176 136 111
0.4712 -0.390423 -0.456 134 106 94
0.471033 -0.389567 -0.455 130 102 90
0.473277 -0.387854 -0.453 66 50 51
0.476143 -0.385286 -0.45 39 28 32
0.4939 -0.38443 -0.449 28 27 33
0.503227 -0.386998 -0.452 29 26 33
0.507183 -0.38871 -0.454 32 31 37
-0.00142286 -0.427331 -0.498 193 154 123
0.00141429 -0.424757 -0.495 193 152 120
0.00423429 -0.423899 -0.494 192 151 121
0.00610381 -0.423041 -0.493 196 152 123
0.0457286 -0.424757 -0.495 193 148 119
0.0683514 -0.43677 -0.509 160 119 97
0.0764667 -0.444493 -0.518 126 99 82
0.0790457 -0.447926 -0.522 118 94 82
0.0922276 -0.46423 -0.541 100 81 83
0.107486 -0.463371 -0.54 143 159 184
0.361952 -0.471952 -0.55 226 225 233
0.382905 -0.471952 -0.55 119 158 223
0.401443 -0.47281 -0.551 116 145 179
0.414789 -0.473669 -0.552 98 149 204
0.420807 -0.474527 -0.553 212 219 229
0.427127 -0.474527 -0.553 216 217 221
0.430287 -0.474527 -0.553 185 179 179
0.438451 -0.475385 -0.554 67 108 172
0.441617 -0.475385 -0.554 63 101 164
0.458271 -0.476243 -0.555 223 223 231
0.465451 -0.477101 -0.556 203 207 216
0.486447 -0.477959 -0.557 125 168 221
0.491928 -0.477101 -0.556 157 162 168
0.495105 -0.477101 -0.556 159 165 177
0.46874 -0.41446 -0.483 173 133 108
0.468571 -0.411886 -0.48 176 136 111
0.468334 -0.40073 -0.467 182 143 114
0.476143 -0.386143 -0.45 30 25 29
0.479147 -0.384427 -0.448 26 23 30
0.488294 -0.383569 -0.447 28 27 33
0.49561 -0.385285 -0.449 28 27 33
0.497321 -0.385285 -0.449 29 28 33
-0.0083381 -0.4429 -0.515 185 144 114
-0.00142 -0.42742 -0.497 195 155 120
0.00234762 -0.42398 -0.493 194 151 117
0.0163667 -0.42226 -0.491 193 150 116
0.0173019 -0.42226 -0.491 194 151 117
0.0210429 -0.42226 -0.491 198 153 120
0.0332686 -0.42312 -0.492 196 151 120
0.0497 -0.42742 -0.497 192 148 119
0.0516971 -0.42828 -0.498 191 145 119
0.0535943 -0.42828 -0.498 188 142 116
0.0546524 -0.42914 -0.499 184 140 113
0.06288 -0.43344 -0.504 167 125 101
0.0898333 -0.46354 -0.539 99 80 84
0.0944629 -0.46612 -0.542 98 82 83
0.100471 -0.46526 -0.541 136 142 154
0.350837 -0.47214 -0.549 104 151 207
0.356066 -0.47214 -0.549 216 225 240
0.364431 -0.47214 -0.549 194 202 213
0.365477 -0.47214 -0.549 181 189 200
0.383952 -0.473 -0.55 128 168 237
0.393381 -0.473 -0.55 220 229 238
0.397571 -0.473 -0.55 195 211 234
0.427406 -0.47472 -0.552 197 201 212
0.43134 -0.47558 -0.553 162 160 163
0.444783 -0.47644 -0.554 58 101 169
0.458271 -0.4773 -0.555 206 203 210
0.460386 -0.4773 -0.555 214 218 227
0.473924 -0.47816 -0.556 66 111 170
0.484514 -0.47816 -0.556 117 163 215
0.4921 -0.4773 -0.555 151 154 159
0.497223 -0.47816 -0.556 134 147 164
0.498282 -0.47816 -0.556 130 143 160
0.50071 -0.47644 -0.554 40 72 119
0.481202 -0.44204 -0.514 154 123 105
0.474762 -0.43 -0.5 165 128 110
0.472843 -0.4257 -0.495 166 129 110
0.4698 -0.41796 -0.486 173 132 110
0.468571 -0.4128 -0.48 177 137 112
0.468508 -0.41194 -0.479 177 137 112
0.467954 -0.40592 -0.472 180 140 115
0.468334 -0.40162 -0.467 181 141 115
0.468905 -0.39388 -0.458 138 105 86
0.470331 -0.39216 -0.456 91 69 58
0.470689 -0.38958 -0.453 50 36 35
0.47765 -0.38614 -0.449 27 24 31
0.478293 -0.38528 -0.448 29 24 31
0.479147 -0.38528 -0.448 28 23 30
0.480853 -0.38528 -0.448 29 23 33
0.486591 -0.38442 -0.447 28 27 33
0.504949 -0.38872 -0.452 28 27 33
0.51376 -0.39216 -0.456 28 29 34
0.52316 -0.39732 -0.462 34 33 38
-0.00141429 -0.426643 -0.495 195 152 120
0.00515429 -0.424057 -0.492 197 153 116
0.0379543 -0.424057 -0.492 196 151 120
0.0577343 -0.431814 -0.501 181 137 112
0.0586886 -0.431814 -0.501 180 136 111
0.0607181 -0.432676 -0.502 173 128 105
0.0672495 -0.437848 -0.508 160 119 99
0.0695933 -0.440433 -0.511 152 111 93
0.0934305 -0.467152 -0.542 98 79 81
0.356461 -0.472324 -0.548 215 228 247
0.359592 -0.472324 -0.548 185 197 213
0.381163 -0.473186 -0.549 62 104 164
0.3843 -0.473186 -0.549 130 155 195
0.393381 -0.474048 -0.55 213 225 241
0.415087 -0.47491 -0.551 87 137 190
0.420046 -0.475771 -0.552 171 192 213
0.424251 -0.475771 -0.552 215 224 239
0.431611 -0.475771 -0.552 152 165 182
0.438713 -0.476633 -0.553 56 93 163
0.44082 -0.476633 -0.553 56 99 167
0.44398 -0.476633 -0.553 59 99 169
0.451114 -0.477495 -0.554 118 141 172
0.45428 -0.477495 -0.554 163 179 192
0.464832 -0.477495 -0.554 156 183 213
0.474129 -0.478357 -0.555 38 88 159
0.485573 -0.479219 -0.556 145 165 198
0.493157 -0.478357 -0.555 105 109 120
0.477568 -0.436124 -0.506 161 124 106
0.472853 -0.427505 -0.496 166 129 111
0.46766 -0.404233 -0.469 180 140 115
0.468594 -0.393029 -0.456 88 64 54
0.4693 -0.392167 -0.455 64 47 40
0.47423 -0.386995 -0.449 23 22 28
0.481483 -0.385271 -0.447 27 26 32
0.484653 -0.38441 -0.446 26 25 31
0.492551 -0.385271 -0.447 25 25 33
0.511507 -0.391305 -0.454 29 30 34
-0.00624 -0.43536 -0.504 190 147 113
0.00513333 -0.423267 -0.49 198 153 120
0.0247838 -0.42413 -0.491 197 153 118
0.0379543 -0.424994 -0.492 195 150 119
0.06288 -0.43536 -0.504 166 124 102
0.10318 -0.465593 -0.539 74 90 123
0.340182 -0.472504 -0.547 68 117 175
0.342266 -0.472504 -0.547 68 118 179
0.385346 -0.474231 -0.549 97 125 173
0.395803 -0.474231 -0.549 157 170 187
0.396849 -0.474231 -0.549 137 157 182
0.397894 -0.474231 -0.549 131 151 176
0.409095 -0.475095 -0.55 60 114 184
0.412238 -0.475095 -0.55 50 103 169
0.421097 -0.476823 -0.552 147 171 195
0.431611 -0.476823 -0.552 108 135 164
0.438971 -0.476823 -0.552 55 92 163
0.476243 -0.479414 -0.555 34 84 153
0.485757 -0.479414 -0.555 77 110 153
0.495672 -0.463002 -0.536 143 115 104
0.482138 -0.444862 -0.515 152 120 105
0.470867 -0.423267 -0.49 170 132 111
0.467214 -0.401671 -0.465 178 141 114
0.466969 -0.399944 -0.463 174 137 111
0.46684 -0.39908 -0.462 172 135 109
0.467306 -0.396489 -0.459 120 90 79
0.46716 -0.395625 -0.458 100 75 68
0.473173 -0.386987 -0.448 20 19 25
0.477226 -0.386123 -0.447 24 25 30
0.478929 -0.386123 -0.447 24 24 32
-0.0113029 -0.446709 -0.516 183 147 115
-0.00620286 -0.433723 -0.501 193 149 114
0.00793333 -0.4242 -0.49 197 152 119
0.033201 -0.425066 -0.491 193 148 115
0.0535943 -0.431126 -0.498 185 140 117
0.09 -0.467486 -0.54 96 80 80
0.0992571 -0.467486 -0.54 90 92 105
0.112211 -0.465754 -0.538 39 79 141
0.135007 -0.46662 -0.539 197 211 222
0.350601 -0.473546 -0.547 92 139 185
0.360636 -0.474411 -0.548 134 149 172
0.39162 -0.475277 -0.549 149 175 208
0.396849 -0.475277 -0.549 140 160 185
0.408351 -0.475277 -0.549 73 124 190
0.421384 -0.477009 -0.551 169 182 201
0.433978 -0.477009 -0.551 78 115 167
0.442927 -0.47874 -0.553 59 96 166
0.468207 -0.47874 -0.553 54 109 166
0.470109 -0.479606 -0.554 46 101 158
0.490158 -0.479606 -0.554 173 179 195
0.4986 -0.479606 -0.554 44 81 136
0.493913 -0.461426 -0.533 141 114 103
0.484894 -0.449306 -0.519 149 120 106
0.470867 -0.4242 -0.49 170 132 111
0.468789 -0.419006 -0.484 171 133 112
0.46844 -0.413811 -0.478 178 137 117
0.467093 -0.401691 -0.464 170 133 107
0.466288 -0.396497 -0.458 96 71 67
0.466857 -0.394766 -0.456 49 41 38
0.475733 -0.38784 -0.448 25 24 30
0.482105 -0.386109 -0.446 24 25 29
0.495957 -0.386974 -0.447 27 28 33
0.508127 -0.390437 -0.451 30 29 35
-0.0061781 -0.432942 -0.499 194 150 115
-0.00234286 -0.426869 -0.492 191 150 118
0.00512286 -0.424266 -0.489 198 155 121
0.00884857 -0.424266 -0.489 194 151 117
0.0125743 -0.424266 -0.489 194 149 116
0.0359333 -0.425133 -0.49 193 148 115
0.0427267 -0.427736 -0.493 197 152 121
0.0496 -0.430339 -0.496 187 142 113
0.0505448 -0.430339 -0.496 186 140 114
0.0515933 -0.431207 -0.497 186 140 114
0.0662819 -0.44075 -0.508 160 115 96
0.0732229 -0.447691 -0.516 132 97 78
0.0972 -0.468514 -0.54 122 121 129
0.102989 -0.466779 -0.538 61 84 116
0.105038 -0.466779 -0.538 58 90 139
0.106063 -0.466779 -0.538 52 87 145
0.11631 -0.466779 -0.538 55 82 149
0.354769 -0.474588 -0.547 179 204 226
0.370397 -0.474588 -0.547 62 103 157
0.395803 -0.476323 -0.549 190 198 211
0.410443 -0.476323 -0.549 79 130 185
0.438176 -0.478058 -0.551 56 92 166
0.451353 -0.479793 -0.553 88 126 175
0.45978 -0.479793 -0.553 204 211 230
0.4661 -0.479793 -0.553 96 134 171
0.468207 -0.479793 -0.553 78 130 187
0.47433 -0.480661 -0.554 48 94 156
0.486992 -0.480661 -0.554 151 168 184
0.492269 -0.480661 -0.554 150 162 174
0.4986 -0.480661 -0.554 86 114 153
0.472843 -0.429471 -0.495 168 130 111
0.470867 -0.425133 -0.49 169 131 110
0.469874 -0.423398 -0.488 169 131 110
0.468789 -0.419928 -0.484 171 130 110
0.468369 -0.413854 -0.477 176 141 119
0.466767 -0.406913 -0.469 178 138 113
0.466444 -0.40431 -0.466 181 144 118
0.465695 -0.399105 -0.46 105 79 78
0.465557 -0.398237 -0.459 87 61 60
0.46861 -0.391296 -0.451 26 23 32
0.47488 -0.388693 -0.448 27 26 32
0.482954 -0.386958 -0.446 23 24 29
0.507 -0.390429 -0.45 29 28 34
0.508986 -0.391296 -0.451 29 28 34
0.512106 -0.393031 -0.453 31 30 36
-0.00423429 -0.429545 -0.494 191 150 120
0.000465714 -0.425197 -0.489 189 148 116
0.00697143 -0.424328 -0.488 201 156 123
0.0312667 -0.426067 -0.49 201 156 123
0.0359333 -0.426067 -0.49 192 147 114
0.0397476 -0.426936 -0.491 192 147 116
0.0406829 -0.426936 -0.491 194 149 116
0.0651857 -0.440849 -0.507 159 113 97
0.0920571 -0.469543 -0.54 93 79 78
0.106889 -0.466934 -0.537 83 115 162
0.34996 -0.47476 -0.546 92 141 182
0.354769 -0.47563 -0.547 207 219 231
0.369355 -0.47563 -0.547 82 120 182
0.370397 -0.47563 -0.547 63 101 163
0.407608 -0.476499 -0.548 67 120 190
0.414626 -0.477369 -0.549 105 150 192
0.448434 -0.479977 -0.552 103 147 196
0.449486 -0.479977 -0.552 124 168 217
0.453691 -0.479977 -0.552 156 171 192
0.456846 -0.479977 -0.552 179 190 208
0.470313 -0.480847 -0.553 82 129 185
0.475385 -0.481716 -0.554 43 92 159
0.481716 -0.481716 -0.554 81 124 177
0.482953 -0.480847 -0.553 116 148 187
0.4977 -0.480847 -0.553 131 147 170
0.493071 -0.461717 -0.531 143 115 104
0.470867 -0.426067 -0.49 169 131 112
0.46753 -0.415632 -0.478 174 133 111
0.46621 -0.403459 -0.464 160 127 110
0.467237 -0.393894 -0.453 26 27 32
0.468789 -0.393025 -0.452 27 24 33
0.469286 -0.391286 -0.45 29 23 33
0.50304 -0.389547 -0.448 29 30 35
0.503893 -0.389547 -0.448 30 29 35
0.0051019 -0.424386 -0.487 197 154 122
0.0134781 -0.425257 -0.488 196 151 118
0.02282 -0.426129 -0.489 198 154 119
0.0275333 -0.427 -0.49 198 153 120
0.0417029 -0.428743 -0.492 197 154 120
0.0485571 -0.431357 -0.495 186 142 113
0.0515933 -0.4331 -0.497 185 141 114
0.0526457 -0.433971 -0.498 185 139 113
0.0608391 -0.438329 -0.503 170 123 103
0.0651857 -0.441814 -0.507 157 111 95
0.128369 -0.467957 -0.537 165 182 198
0.342052 -0.474929 -0.545 82 127 182
0.344129 -0.474929 -0.545 111 158 212
0.35581 -0.476671 -0.547 221 229 240
0.36556 -0.4758 -0.546 200 215 234
0.378732 -0.476671 -0.547 83 120 188
0.389151 -0.476671 -0.547 204 216 228
0.40552 -0.477543 -0.548 91 141 192
0.415671 -0.478414 -0.549 109 148 187
0.419854 -0.478414 -0.549 210 222 236
0.435286 -0.479286 -0.55 121 154 195
0.448434 -0.481029 -0.552 148 186 231
0.450537 -0.481029 -0.552 190 208 232
0.451589 -0.481029 -0.552 190 208 232
0.454743 -0.481029 -0.552 194 199 219
0.455794 -0.481029 -0.552 200 205 225
0.456846 -0.481029 -0.552 202 215 224
0.470313 -0.4819 -0.553 102 147 206
0.474527 -0.4819 -0.553 42 92 153
0.486113 -0.4819 -0.553 177 191 204
0.472843 -0.431357 -0.495 163 126 107
0.468833 -0.422643 -0.485 166 128 107
0.46731 -0.413929 -0.475 174 136 115
0.465771 -0.407829 -0.468 170 132 111
0.465556 -0.406086 -0.466 168 131 115
0.465443 -0.405214 -0.465 157 123 111
0.464399 -0.398243 -0.457 34 29 35
0.46512 -0.397371 -0.456 28 29 33
0.469286 -0.392143 -0.45 28 25 32
0.470809 -0.391271 -0.449 24 23 28
0.49289 -0.387786 -0.445 24 25 30
0.496281 -0.387786 -0.445 25 26 31
0.502769 -0.389529 -0.447 28 29 34
0.512697 -0.393886 -0.452 30 29 35
-0.00910191 -0.439287 -0.503 185 148 121
-0.000464762 -0.426187 -0.488 191 150 118
0.00324667 -0.425313 -0.487 195 152 120
0.0051019 -0.425313 -0.487 196 153 121
0.00601714 -0.42444 -0.486 197 154 122
0.0115952 -0.425313 -0.487 193 148 115
0.0134781 -0.426187 -0.488 195 150 117
0.0265457 -0.42706 -0.489 196 152 117
0.0330657 -0.42706 -0.489 194 149 116
0.0349286 -0.42706 -0.489 194 149 118
0.0378 -0.427933 -0.49 194 149 118
0.0505448 -0.433173 -0.496 183 139 112
0.0640933 -0.441907 -0.506 159 114 95
0.0733648 -0.451513 -0.517 122 89 74
0.377 -0.47684 -0.546 65 109 174
0.383942 -0.477713 -0.547 203 223 247
0.39957 -0.477713 -0.547 125 160 192
0.400612 -0.477713 -0.547 133 168 200
0.422991 -0.47946 -0.549 219 226 234
0.437381 -0.480333 -0.55 57 103 163
0.457068 -0.481207 -0.551 209 220 226
0.47558 -0.482953 -0.553 53 104 161
0.480847 -0.482953 -0.553 95 137 187
0.48506 -0.482953 -0.553 182 192 202
0.497851 -0.48208 -0.552 144 157 173
0.498903 -0.48208 -0.552 119 132 148
0.483119 -0.449767 -0.515 144 119 99
0.467715 -0.420073 -0.481 165 127 106
0.466405 -0.414833 -0.475 174 133 111
0.466156 -0.412213 -0.472 169 128 106
0.4641 -0.397367 -0.455 25 26 30
0.464967 -0.397367 -0.455 24 25 29
0.46481 -0.396493 -0.454 21 24 29
0.468243 -0.392127 -0.449 25 26 30
0.475523 -0.39038 -0.447 23 24 29
0.500794 -0.389507 -0.446 27 28 33
0.502769 -0.39038 -0.447 28 29 34
0.0171962 -0.427116 -0.488 200 155 122
0.0406829 -0.429742 -0.491 195 150 121
0.0918867 -0.471753 -0.539 95 82 76
0.0987057 -0.470003 -0.537 165 166 171
0.122004 -0.469128 -0.536 155 189 227
0.348281 -0.477005 -0.545 131 169 205
0.377 -0.47788 -0.546 63 104 168
0.37908 -0.47788 -0.546 108 145 197
0.38012 -0.47788 -0.546 108 145 197
0.397487 -0.478755 -0.547 181 203 227
0.411783 -0.47963 -0.548 128 167 210
0.418809 -0.480506 -0.549 209 223 232
0.419854 -0.480506 -0.549 214 228 231
0.447622 -0.482256 -0.551 125 157 206
0.464206 -0.483131 -0.552 185 199 212
0.466309 -0.483131 -0.552 127 151 177
0.484882 -0.484882 -0.554 137 166 196
0.49454 -0.484007 -0.553 168 178 188
0.495593 -0.484007 -0.553 168 178 188
0.478511 -0.443746 -0.507 145 116 100
0.46777 -0.421865 -0.482 163 125 106
0.4655 -0.415738 -0.475 171 128 111
0.466243 -0.413988 -0.473 168 127 107
0.465443 -0.406986 -0.465 107 83 79
0.47276 -0.390356 -0.446 23 24 29
0.48248 -0.388606 -0.444 21 25 28
0.483326 -0.388606 -0.444 23 27 30
0.490091 -0.388606 -0.444 23 27 30
0.495166 -0.388606 -0.444 26 27 32
-0.01002 -0.439449 -0.501 185 150 120
-0.00514381 -0.430677 -0.491 191 150 120
0.0106457 -0.426291 -0.486 192 147 114
0.0134505 -0.427169 -0.487 196 151 118
0.0330657 -0.428923 -0.489 197 152 119
0.05678 -0.439449 -0.501 172 130 108
0.0578495 -0.440326 -0.502 168 126 104
0.0589229 -0.441203 -0.503 166 124 102
0.09086 -0.47278 -0.539 92 79 73
0.120983 -0.470149 -0.536 134 166 204
0.123025 -0.470149 -0.536 192 205 221
0.126088 -0.470149 -0.536 219 227 238
0.221247 -0.47278 -0.539 185 203 225
0.290615 -0.475411 -0.542 226 231 237
0.328386 -0.476289 -0.543 224 227 242
0.339352 -0.477166 -0.544 124 162 207
0.346205 -0.478043 -0.545 126 169 214
0.363104 -0.479797 -0.547 219 225 239
0.36972 -0.47892 -0.546 61 104 159
0.37492 -0.47892 -0.546 60 107 179
0.377 -0.47892 -0.546 58 102 165
0.400612 -0.479797 -0.547 125 160 188
0.412827 -0.480674 -0.548 129 162 193
0.42822 -0.481551 -0.549 215 226 232
0.442619 -0.482429 -0.55 55 108 174
0.449721 -0.483306 -0.551 176 189 206
0.468411 -0.484183 -0.552 111 150 183
0.491213 -0.485937 -0.554 182 190 192
0.492269 -0.485937 -0.554 184 192 194
0.497545 -0.485937 -0.554 172 175 182
0.468874 -0.426291 -0.486 161 124 106
0.464251 -0.399977 -0.456 29 24 30
0.463945 -0.398223 -0.454 28 23 29
0.463786 -0.397346 -0.453 27 24 31
0.464484 -0.396469 -0.452 28 27 33
0.468053 -0.39296 -0.448 24 23 28
0.475309 -0.391206 -0.446 24 25 30
0.478251 -0.389451 -0.444 23 26 31
0.4873 -0.388574 -0.443 23 26 31
0.498824 -0.390329 -0.445 26 27 32
0.505323 -0.392083 -0.447 29 30 35
0.908843 -0.495586 -0.565 203 205 191
0.00508095 -0.426338 -0.485 195 154 122
0.00785238 -0.426338 -0.485 195 152 120
0.0106457 -0.427217 -0.486 191 148 116
0.0180886 -0.428096 -0.487 193 150 118
0.0302095 -0.428975 -0.488 198 153 122
0.0396667 -0.430733 -0.49 192 147 116
0.0465771 -0.43425 -0.494 186 142 115
0.0476143 -0.435129 -0.495 184 140 113
0.112605 -0.47029 -0.535 69 106 159
0.122795 -0.47029 -0.535 196 205 220
0.141402 -0.47117 -0.536 144 170 205
0.152632 -0.47117 -0.536 147 172 212
0.258686 -0.474686 -0.54 214 213 221
0.259714 -0.474686 -0.54 209 214 208
0.282866 -0.475565 -0.541 127 161 189
0.307133 -0.476444 -0.542 90 128 177
0.334171 -0.478202 -0.544 150 160 169
0.364146 -0.480839 -0.547 193 196 203
0.37076 -0.47996 -0.546 89 119 171
0.377 -0.47996 -0.546 86 114 162
0.38324 -0.47996 -0.546 161 177 200
0.403738 -0.480839 -0.547 127 160 195
0.40478 -0.480839 -0.547 112 145 180
0.417002 -0.481718 -0.548 185 199 210
0.433449 -0.482597 -0.549 121 137 163
0.457068 -0.484355 -0.551 211 216 220
0.47855 -0.486992 -0.554 103 138 180
0.485757 -0.487871 -0.555 119 131 143
0.494214 -0.487871 -0.555 143 147 148
0.50086 -0.486113 -0.553 78 90 102
0.485883 -0.456226 -0.519 141 114 93
0.478511 -0.445677 -0.507 144 115 99
0.472853 -0.436008 -0.496 154 118 102
0.470914 -0.432491 -0.492 158 123 104
0.46577 -0.421064 -0.479 161 124 105
0.464073 -0.405241 -0.461 18 22 25
0.463383 -0.400846 -0.456 28 23 29
0.464251 -0.400846 -0.456 29 24 30
0.463623 -0.39733 -0.452 29 24 31
0.465857 -0.395571 -0.45 27 28 33
0.47361 -0.392055 -0.446 25 26 30
0.474243 -0.391176 -0.445 24 25 29
0.475938 -0.391176 -0.445 23 24 28
0.839789 -0.494025 -0.562 203 205 192
0.889968 -0.497541 -0.566 199 202 185
0.914764 -0.497541 -0.566 198 201 182
0.927138 -0.496662 -0.565 198 199 181
0.0115714 -0.428143 -0.486 194 151 119
0.0134229 -0.428143 -0.486 196 153 121
0.0152743 -0.428143 -0.486 197 154 122
0.0245819 -0.429024 -0.487 188 143 112
0.0255095 -0.429024 -0.487 191 146 115
0.0475181 -0.43519 -0.494 184 140 113
0.0496 -0.436952 -0.496 181 137 112
0.06422 -0.446643 -0.507 149 103 88
0.111586 -0.47131 -0.535 154 156 155
0.132986 -0.47131 -0.535 206 208 203
0.1391 -0.47131 -0.535 147 167 192
0.216737 -0.473952 -0.538 152 167 188
0.219193 -0.474833 -0.539 157 166 183
0.288018 -0.476595 -0.541 200 192 190
0.289049 -0.476595 -0.541 200 194 198
0.299907 -0.477476 -0.542 193 197 198
0.31023 -0.477476 -0.542 199 198 203
0.332099 -0.479238 -0.544 205 200 207
0.339352 -0.479238 -0.544 199 199 209
0.344129 -0.480119 -0.545 196 202 202
0.345167 -0.480119 -0.545 199 206 199
0.348281 -0.480119 -0.545 197 207 198
0.36102 -0.481881 -0.547 205 204 202
0.36623 -0.481881 -0.547 192 200 203
0.373523 -0.481881 -0.547 190 201 197
0.37769 -0.481881 -0.547 195 196 190
0.379774 -0.481881 -0.547 195 199 198
0.38324 -0.481 -0.546 199 198 193
0.39957 -0.481881 -0.547 184 191 199
0.411783 -0.482762 -0.548 188 187 195
0.421946 -0.483643 -0.549 186 188 185
0.422991 -0.483643 -0.549 187 189 186
0.432403 -0.483643 -0.549 172 175 184
0.436586 -0.483643 -0.549 157 167 177
0.447857 -0.484524 -0.55 157 162 166
0.467153 -0.487167 -0.553 143 154 160
0.485757 -0.488929 -0.555 168 172 175
0.4921 -0.488929 -0.555 160 160 162
0.502967 -0.487167 -0.553 138 143 149
0.504429 -0.484524 -0.55 116 122 118
0.465883 -0.423738 -0.481 160 123 105
0.463671 -0.409643 -0.465 51 36 41
0.463945 -0.399952 -0.454 27 26 32
0.465174 -0.39731 -0.451 27 26 32
0.468907 -0.394667 -0.448 24 25 30
0.470414 -0.393786 -0.447 22 23 28
0.470211 -0.392905 -0.446 25 26 31
0.482832 -0.389381 -0.442 23 24 29
0.488726 -0.389381 -0.442 28 29 34
0.49041 -0.389381 -0.442 27 28 32
0.511005 -0.395548 -0.449 29 30 34
0.625034 -0.470429 -0.534 198 202 187
0.808374 -0.494214 -0.561 198 200 186
0.813717 -0.494214 -0.561 195 197 184
0.838066 -0.495976 -0.563 199 201 188
0.841283 -0.495976 -0.563 199 201 187
0.847717 -0.495976 -0.563 199 201 187
0.849423 -0.495095 -0.562 200 202 188
0.892031 -0.500381 -0.568 194 195 181
0.903983 -0.498619 -0.566 196 197 183
0.934169 -0.498619 -0.566 193 194 180
0.941716 -0.498619 -0.566 190 191 177
0.963278 -0.498619 -0.566 194 197 178
0.975137 -0.498619 -0.566 192 194 180
0.996563 -0.501262 -0.569 186 188 177
0.99522 -0.4995 -0.567 193 195 181
1.00062 -0.4995 -0.567 192 194 180
1.00671 -0.500381 -0.568 190 192 178
1.0197 -0.500381 -0.568 185 187 176
1.02294 -0.500381 -0.568 181 183 172
-0.0139476 -0.445843 -0.505 187 151 119
0.0106238 -0.428186 -0.485 194 151 119
0.031139 -0.430834 -0.488 198 153 124
0.0515933 -0.43878 -0.497 173 127 104
0.0535943 -0.439663 -0.498 173 126 106
0.0589229 -0.444077 -0.503 161 116 97
0.0677791 -0.452023 -0.512 133 100 85
0.09086 -0.47586 -0.539 93 79 78
0.10649 -0.472329 -0.535 176 177 179
0.114643 -0.472329 -0.535 193 194 196
0.121776 -0.472329 -0.535 177 181 184
0.143176 -0.472329 -0.535 203 207 210
0.14957 -0.473211 -0.536 208 212 215
0.216737 -0.474977 -0.538 219 214 220
0.2233 -0.47586 -0.539 211 214 219
0.231084 -0.474977 -0.538 218 218 220
0.253073 -0.47586 -0.539 211 219 221
0.263829 -0.476743 -0.54 217 218 213
0.266914 -0.476743 -0.54 212 212 210
0.278744 -0.477626 -0.541 205 215 217
0.293712 -0.478509 -0.542 210 215 218
0.29681 -0.478509 -0.542 212 217 211
0.310803 -0.479391 -0.543 209 214 217
0.32218 -0.479391 -0.543 212 213 218
0.336862 -0.481157 -0.545 212 212 212
0.34309 -0.481157 -0.545 212 210 211
0.368313 -0.482923 -0.547 210 212 211
0.375607 -0.482923 -0.547 201 206 210
0.376649 -0.482923 -0.547 201 206 210
0.380816 -0.482923 -0.547 210 210 212
0.401654 -0.482923 -0.547 204 215 211
0.414914 -0.483806 -0.548 201 209 212
0.440524 -0.485571 -0.55 206 205 211
0.442619 -0.485571 -0.55 206 208 205
0.44681 -0.485571 -0.55 200 206 202
0.481716 -0.489103 -0.554 184 185 187
0.488929 -0.489986 -0.555 179 180 182
0.489986 -0.489986 -0.555 176 177 179
0.494214 -0.489986 -0.555 169 170 172
0.500557 -0.489986 -0.555 159 159 161
0.501766 -0.489103 -0.554 153 153 155
0.46239 -0.414943 -0.47 109 84 80
0.463067 -0.406114 -0.46 27 24 33
0.462798 -0.404349 -0.458 27 24 33
0.470211 -0.393754 -0.446 24 25 30
0.471061 -0.393754 -0.446 25 26 31
0.473395 -0.392871 -0.445 28 29 34
0.790586 -0.493517 -0.559 195 197 186
0.806237 -0.495283 -0.561 198 200 186
0.818379 -0.496166 -0.562 192 194 183
0.829084 -0.496166 -0.562 191 193 180
0.831225 -0.496166 -0.562 190 192 181
0.842777 -0.497931 -0.564 194 194 182
0.850934 -0.497049 -0.563 195 196 182
0.862731 -0.497049 -0.563 182 184 173
0.871176 -0.498814 -0.565 183 185 174
0.902066 -0.505877 -0.573 183 183 173
0.94338 -0.50058 -0.567 178 179 165
0.943872 -0.499697 -0.566 176 176 164
0.952497 -0.499697 -0.566 174 174 164
0.9585 -0.50058 -0.567 171 173 162
1.00957 -0.502346 -0.569 178 180 169
1.0139 -0.502346 -0.569 174 176 165
1.02149 -0.502346 -0.569 167 168 160
1.02257 -0.502346 -0.569 164 165 157
1.02691 -0.502346 -0.569 180 182 171
1.02799 -0.502346 -0.569 180 182 171
1.03376 -0.501463 -0.568 170 172 161
-0.0128314 -0.441496 -0.499 189 153 121
0.000460952 -0.428225 -0.484 194 153 123
0.00138 -0.42734 -0.483 193 152 122
0.0023 -0.42734 -0.483 193 152 120
0.0180514 -0.429994 -0.486 197 154 122
0.0255095 -0.430879 -0.487 195 150 119
0.0273648 -0.430879 -0.487 196 151 120
0.0282924 -0.430879 -0.487 195 150 119
0.0485571 -0.437957 -0.495 179 133 109
0.0505448 -0.438842 -0.496 177 131 108
0.05678 -0.443266 -0.501 164 122 100
0.0690229 -0.454768 -0.514 127 95 80
0.0865924 -0.476002 -0.538 89 75 72
0.119738 -0.473348 -0.535 200 201 203
0.140381 -0.474232 -0.536 213 212 217
0.154386 -0.473348 -0.535 215 216 218
0.155405 -0.473348 -0.535 215 216 218
0.159481 -0.473348 -0.535 218 218 218
0.174072 -0.474232 -0.536 216 217 219
0.179177 -0.474232 -0.536 216 218 217
0.215712 -0.476002 -0.538 218 219 223
0.22946 -0.476887 -0.539 218 218 218
0.230059 -0.476002 -0.538 218 218 218
0.232109 -0.476002 -0.538 218 218 218
0.238257 -0.476002 -0.538 216 216 216
0.246913 -0.476887 -0.539 217 219 218
0.250457 -0.477771 -0.54 217 219 218
0.257657 -0.477771 -0.54 216 218 217
0.261771 -0.477771 -0.54 218 218 218
0.264857 -0.477771 -0.54 218 218 218
0.265886 -0.477771 -0.54 218 218 218
0.305631 -0.480426 -0.543 216 216 216
0.311837 -0.480426 -0.543 216 216 216
0.321146 -0.480426 -0.543 214 218 217
0.324249 -0.480426 -0.543 213 217 218
0.330027 -0.481311 -0.544 212 216 217
0.332099 -0.481311 -0.544 214 216 215
0.333135 -0.481311 -0.544 214 216 215
0.336862 -0.482195 -0.545 215 217 216
0.338938 -0.482195 -0.545 214 216 215
0.341014 -0.482195 -0.545 210 214 213
0.372118 -0.48485 -0.548 214 216 213
0.377337 -0.48485 -0.548 213 214 216
0.384644 -0.48485 -0.548 211 212 214
0.394038 -0.48485 -0.548 214 216 215
0.395082 -0.48485 -0.548 215 217 216
0.39717 -0.48485 -0.548 212 214 213
0.447622 -0.487504 -0.551 206 207 209
0.45077 -0.487504 -0.551 207 208 210
0.45287 -0.487504 -0.551 205 206 208
0.454969 -0.487504 -0.551 206 207 209
0.481529 -0.491043 -0.555 182 183 185
0.489986 -0.491043 -0.555 171 171 173
0.495013 -0.470693 -0.532 132 112 103
0.468974 -0.432649 -0.489 158 121 103
0.463888 -0.422916 -0.478 155 123 108
0.462639 -0.418492 -0.473 123 96 87
0.461495 -0.415838 -0.47 97 76 75
0.461926 -0.405221 -0.458 26 25 33
0.463233 -0.402567 -0.455 26 25 31
0.464315 -0.399028 -0.451 24 23 29
0.4717 -0.393719 -0.445 26 27 32
0.47633 -0.39195 -0.443 21 22 27
0.48199 -0.391065 -0.442 23 26 31
0.495461 -0.391065 -0.442 27 27 35
0.504757 -0.393719 -0.445 28 27 33
0.816618 -0.498121 -0.563 172 174 163
0.834183 -0.499006 -0.564 177 177 167
0.844271 -0.49989 -0.565 179 179 167
0.847922 -0.500775 -0.566 181 181 169
0.865171 -0.500775 -0.566 163 163 151
0.86625 -0.500775 -0.566 165 165 153
0.866871 -0.49989 -0.565 165 165 153
0.956462 -0.50343 -0.569 145 148 137
0.990714 -0.504314 -0.57 146 147 139
1.00182 -0.506084 -0.572 135 136 130
1.00049 -0.504314 -0.57 166 167 159
1.02399 -0.505199 -0.571 133 134 129
1.03306 -0.504314 -0.57 149 150 144
1.03558 -0.50343 -0.569 136 137 129
-0.0158714 -0.447767 -0.505 185 149 117
-0.00046 -0.42826 -0.483 193 152 122
0.00504952 -0.427373 -0.482 196 153 121
0.0273648 -0.431807 -0.487 196 151 120
0.0385752 -0.432693 -0.488 191 145 119
0.0415333 -0.434467 -0.49 187 146 118
0.0464829 -0.437127 -0.493 178 134 109
0.048459 -0.438013 -0.494 176 131 108
0.0514895 -0.439787 -0.496 170 125 102
0.0854086 -0.47614 -0.537 87 73 72
0.116681 -0.474367 -0.535 197 197 195
0.127109 -0.475253 -0.536 208 206 207
0.15059 -0.475253 -0.536 214 215 217
0.17203 -0.475253 -0.536 218 218 218
0.173051 -0.475253 -0.536 218 218 218
0.184282 -0.475253 -0.536 217 219 218
0.194491 -0.475253 -0.536 218 220 219
0.200991 -0.47614 -0.537 218 219 221
0.227407 -0.477913 -0.539 217 217 217
0.228433 -0.477913 -0.539 216 216 216
0.249429 -0.4788 -0.54 214 216 215
0.257104 -0.479687 -0.541 215 217 216
0.258134 -0.479687 -0.541 216 218 217
0.262256 -0.479687 -0.541 218 218 218
0.280291 -0.480573 -0.542 214 216 213
0.283389 -0.480573 -0.542 213 215 214
0.298391 -0.48146 -0.543 214 216 213
0.304122 -0.482347 -0.544 215 215 213
0.314484 -0.482347 -0.544 216 216 216
0.324846 -0.482347 -0.544 215 215 217
0.33852 -0.48412 -0.546 214 214 214
0.363768 -0.485893 -0.548 213 213 213
0.373162 -0.485893 -0.548 212 212 210
0.380469 -0.485893 -0.548 211 211 211
0.383254 -0.48678 -0.549 210 210 210
0.410739 -0.485893 -0.548 207 207 205
0.430311 -0.48678 -0.549 207 207 209
0.446572 -0.488553 -0.551 204 206 205
0.453691 -0.48944 -0.552 202 202 202
0.474129 -0.4921 -0.555 190 190 190
0.485386 -0.493873 -0.557 165 165 167
0.492812 -0.493873 -0.557 154 154 156
0.493873 -0.493873 -0.557 152 152 154
0.502671 -0.4921 -0.555 137 135 136
0.504931 -0.491213 -0.554 133 131 132
0.505603 -0.48678 -0.549 110 100 99
0.461495 -0.416733 -0.47 72 57 60
0.46156 -0.40964 -0.462 28 26 31
0.461186 -0.40698 -0.459 26 25 31
0.462367 -0.403433 -0.455 25 24 29
0.4672 -0.397227 -0.448 22 23 28
0.470211 -0.395453 -0.446 24 25 30
0.48594 -0.39102 -0.441 22 25 30
0.499113 -0.392793 -0.443 27 26 34
0.793414 -0.49742 -0.561 167 167 159
0.795551 -0.49742 -0.561 169 169 161
0.808039 -0.499193 -0.563 169 171 158
0.819519 -0.500967 -0.565 148 150 139
0.82344 -0.50008 -0.564 148 148 138
0.825589 -0.50008 -0.564 150 152 141
0.831357 -0.500967 -0.565 153 153 143
0.853082 -0.503627 -0.568 161 161 149
0.959229 -0.5054 -0.57 120 115 112
0.960797 -0.504513 -0.569 117 112 108
0.982029 -0.5054 -0.57 124 125 119
0.99702 -0.50806 -0.573 115 116 111
1.00182 -0.507173 -0.572 135 136 130
1.01094 -0.506287 -0.571 115 116 111
1.0374 -0.5054 -0.57 105 106 101
-0.0168667 -0.449617 -0.506 184 148 116
-0.0147619 -0.444286 -0.5 189 150 119
-0.0117143 -0.437177 -0.492 192 151 119
-0.0107333 -0.4354 -0.49 193 152 120
0.0152429 -0.430957 -0.485 197 154 122
0.0245314 -0.431846 -0.486 192 147 116
0.036641 -0.432734 -0.487 191 146 117
0.06 -0.44784 -0.504 154 111 95
0.0854086 -0.477163 -0.537 88 74 73
0.102606 -0.476274 -0.536 168 167 165
0.104648 -0.476274 -0.536 175 175 173
0.10771 -0.476274 -0.536 183 183 181
0.120983 -0.476274 -0.536 201 201 199
0.126088 -0.476274 -0.536 208 207 205
0.133234 -0.476274 -0.536 211 210 208
0.135024 -0.475386 -0.535 211 211 211
0.13936 -0.476274 -0.536 211 211 211
0.15059 -0.476274 -0.536 214 214 214
0.156716 -0.476274 -0.536 217 216 214
0.173374 -0.477163 -0.537 216 216 216
0.178156 -0.476274 -0.536 216 216 214
0.179511 -0.477163 -0.537 216 216 214
0.18224 -0.476274 -0.536 217 217 215
0.183261 -0.476274 -0.536 217 217 215
0.187694 -0.477163 -0.537 217 217 217
0.20649 -0.478051 -0.538 218 218 218
0.210589 -0.478051 -0.538 218 218 218
0.221657 -0.479829 -0.54 217 217 217
0.247371 -0.479829 -0.54 213 215 214
0.260676 -0.481606 -0.542 214 214 216
0.26947 -0.480717 -0.541 212 212 212
0.279259 -0.481606 -0.542 213 213 213
0.281843 -0.482494 -0.543 211 211 211
0.283911 -0.482494 -0.543 211 211 211
0.297905 -0.483383 -0.544 209 211 208
0.304681 -0.484271 -0.545 207 209 206
0.31091 -0.484271 -0.545 207 207 205
0.314024 -0.484271 -0.545 205 205 203
0.318176 -0.484271 -0.545 207 205 206
0.322329 -0.484271 -0.545 205 203 204
0.32916 -0.48516 -0.546 204 202 205
0.33436 -0.48516 -0.546 204 202 205
0.343308 -0.486049 -0.547 201 201 201
0.346433 -0.486049 -0.547 201 201 199
0.35333 -0.486937 -0.548 200 198 199
0.356066 -0.487826 -0.549 200 198 199
0.365477 -0.487826 -0.549 198 198 198
0.382209 -0.487826 -0.549 194 194 194
0.442374 -0.489603 -0.551 188 188 188
0.444229 -0.490491 -0.552 187 187 187
0.447383 -0.490491 -0.552 188 188 188
0.448434 -0.490491 -0.552 188 187 185
0.484131 -0.495823 -0.558 150 150 152
0.486257 -0.495823 -0.558 148 148 150
0.5008 -0.4976 -0.56 133 131 132
0.505544 -0.494934 -0.557 122 118 117
0.505603 -0.487826 -0.549 101 95 97
0.504803 -0.486049 -0.547 103 97 99
0.49323 -0.470054 -0.529 130 110 101
0.484995 -0.459391 -0.517 135 113 100
0.466023 -0.430069 -0.484 144 118 103
0.461881 -0.422071 -0.475 112 88 78
0.460423 -0.415851 -0.468 39 29 37
0.461014 -0.413186 -0.465 24 22 27
0.461314 -0.408743 -0.46 25 22 29
0.462367 -0.4043 -0.455 25 24 29
0.462762 -0.401634 -0.452 22 23 27
0.465677 -0.398969 -0.449 23 24 29
0.469157 -0.395414 -0.445 24 25 30
0.47064 -0.394526 -0.444 25 26 31
0.475487 -0.393637 -0.443 25 26 31
0.48006 -0.39186 -0.441 24 25 30
0.48258 -0.39186 -0.441 23 24 29
0.48594 -0.39186 -0.441 23 26 31
0.48819 -0.390971 -0.44 21 24 31
0.489029 -0.390971 -0.44 21 24 31
0.491543 -0.390971 -0.44 25 26 31
0.4935 -0.39186 -0.441 27 28 33
0.497145 -0.392749 -0.442 25 26 31
0.501645 -0.393637 -0.443 26 25 31
0.51357 -0.398969 -0.449 33 33 43
0.813423 -0.502931 -0.566 108 109 103
0.8181 -0.50382 -0.567 122 121 116
0.852416 -0.505597 -0.569 130 130 120
0.863686 -0.506486 -0.57 120 122 111
0.865422 -0.505597 -0.569 121 123 112
0.878054 -0.509151 -0.573 114 115 107
0.967437 -0.507374 -0.571 114 111 106
0.990013 -0.51004 -0.574 106 108 103
1.00553 -0.511817 -0.576 107 107 107
1.02391 -0.51004 -0.574 104 106 103
1.0414 -0.51004 -0.574 100 100 102
-0.00879429 -0.432771 -0.486 188 148 113
0.00412286 -0.428319 -0.481 195 151 122
0.00964 -0.42921 -0.482 196 153 121
0.0161667 -0.431881 -0.485 196 152 123
0.0189771 -0.432771 -0.486 194 150 121
0.0208286 -0.432771 -0.486 195 150 121
0.0385752 -0.434552 -0.488 190 144 118
0.0815733 -0.473733 -0.532 89 74 71
0.0987057 -0.478186 -0.537 157 154 149
0.10669 -0.477295 -0.536 179 180 175
0.113836 -0.477295 -0.536 193 192 190
0.115878 -0.477295 -0.536 195 194 192
0.125067 -0.477295 -0.536 204 203 201
0.131192 -0.477295 -0.536 208 207 203
0.132213 -0.477295 -0.536 209 208 204
0.140643 -0.478186 -0.537 213 213 211
0.142689 -0.478186 -0.537 213 213 213
0.147528 -0.477295 -0.536 215 215 215
0.164884 -0.477295 -0.536 214 214 214
0.169283 -0.478186 -0.537 214 214 214
0.20649 -0.479076 -0.538 217 217 217
0.222686 -0.480857 -0.54 212 214 213
0.224743 -0.480857 -0.54 211 213 212
0.227829 -0.480857 -0.54 211 211 209
0.228857 -0.480857 -0.54 210 210 208
0.251951 -0.481748 -0.541 207 205 206
0.257579 -0.482638 -0.542 205 203 206
0.259644 -0.482638 -0.542 207 202 206
0.261709 -0.482638 -0.542 206 201 205
0.272032 -0.482638 -0.542 198 198 198
0.281326 -0.484419 -0.544 197 197 197
0.283398 -0.484419 -0.544 197 197 197
0.287543 -0.484419 -0.544 198 198 196
0.32812 -0.4862 -0.546 192 190 195
0.330805 -0.48709 -0.547 192 190 195
0.334972 -0.48709 -0.547 191 189 194
0.33914 -0.48709 -0.547 191 189 192
0.351883 -0.488871 -0.549 189 184 188
0.361561 -0.490652 -0.551 186 184 185
0.368238 -0.489762 -0.55 183 183 183
0.387799 -0.490652 -0.551 185 183 186
0.388849 -0.490652 -0.551 184 182 185
0.396524 -0.489762 -0.55 182 180 185
0.404905 -0.489762 -0.55 178 178 180
0.408351 -0.488871 -0.549 179 179 181
0.417476 -0.489762 -0.55 178 176 179
0.43319 -0.489762 -0.55 174 172 175
0.440275 -0.490652 -0.551 174 172 175
0.495095 -0.500448 -0.562 113 111 114
0.477586 -0.44969 -0.505 137 114 100
0.46506 -0.4301 -0.483 140 117 103
0.46405 -0.428319 -0.481 135 112 98
0.460837 -0.421195 -0.473 71 57 54
0.460438 -0.409619 -0.46 25 22 29
0.463456 -0.401605 -0.451 24 25 29
0.46464 -0.398933 -0.448 22 25 30
0.466157 -0.398043 -0.447 21 24 29
0.472111 -0.394481 -0.443 23 26 31
0.484838 -0.39181 -0.44 22 25 30
0.80911 -0.50401 -0.566 105 106 101
0.823871 -0.50579 -0.568 124 125 119
0.824952 -0.50579 -0.568 123 124 118
0.854325 -0.508462 -0.571 122 122 114
0.871727 -0.508462 -0.571 118 120 109
0.88858 -0.513805 -0.577 109 109 101
1.00948 -0.513805 -0.577 105 105 105
-0.01776 -0.44976 -0.504 186 147 114
0.0105581 -0.430128 -0.482 195 152 118
0.0115 -0.43102 -0.483 194 151 119
0.0920571 -0.481886 -0.54 100 86 85
0.09684 -0.480101 -0.538 144 139 135
0.102797 -0.479209 -0.537 171 170 168
0.105866 -0.479209 -0.537 178 177 173
0.108934 -0.479209 -0.537 185 185 183
0.116899 -0.478316 -0.536 194 193 191
0.137318 -0.478316 -0.536 208 208 206
0.143711 -0.479209 -0.537 207 207 207
0.145757 -0.479209 -0.537 207 207 207
0.147803 -0.479209 -0.537 208 208 208
0.16826 -0.479209 -0.537 208 206 207
0.188393 -0.480993 -0.539 205 203 206
0.190447 -0.480993 -0.539 205 203 206
0.1925 -0.480993 -0.539 203 201 204
0.203415 -0.480101 -0.538 209 209 211
0.214854 -0.482778 -0.541 206 206 206
0.216915 -0.482778 -0.541 205 205 205
0.222068 -0.482778 -0.541 204 204 204
0.223098 -0.482778 -0.541 203 203 203
0.252417 -0.48367 -0.542 197 192 196
0.26426 -0.484563 -0.543 196 191 195
0.265294 -0.484563 -0.543 196 191 195
0.276145 -0.485455 -0.544 190 190 192
0.299 -0.48724 -0.546 184 183 188
0.309967 -0.488132 -0.547 181 179 184
0.321428 -0.488132 -0.547 177 175 180
0.325147 -0.489025 -0.548 175 173 178
0.32619 -0.489025 -0.548 176 174 179
0.33141 -0.489025 -0.548 175 172 179
0.336197 -0.489917 -0.549 173 170 177
0.348333 -0.49081 -0.55 165 165 167
0.358412 -0.491702 -0.551 165 163 166
0.366809 -0.491702 -0.551 160 160 162
0.371007 -0.491702 -0.551 158 158 160
0.384297 -0.492594 -0.552 156 155 161
0.394096 -0.491702 -0.551 153 151 156
0.411489 -0.489917 -0.549 147 146 151
0.43319 -0.49081 -0.55 140 138 143
0.435286 -0.49081 -0.55 139 137 142
0.437381 -0.49081 -0.55 140 138 143
0.452407 -0.493487 -0.553 136 134 137
0.48546 -0.50598 -0.567 84 84 86
0.505451 -0.503303 -0.564 73 73 75
0.5076 -0.503303 -0.564 72 72 74
0.47664 -0.44976 -0.504 139 113 100
0.472863 -0.444406 -0.498 138 115 101
0.471909 -0.442621 -0.496 143 117 104
0.462009 -0.425666 -0.477 99 79 70
0.465493 -0.399787 -0.448 22 25 30
0.469362 -0.398002 -0.446 20 23 28
0.47064 -0.396217 -0.444 21 24 29
0.474413 -0.394432 -0.442 23 24 28
0.490426 -0.391755 -0.439 22 26 29
0.494057 -0.392648 -0.44 20 24 27
0.819171 -0.508657 -0.57 99 99 97
0.825686 -0.508657 -0.57 125 126 120
0.830029 -0.508657 -0.57 121 120 115
0.837629 -0.508657 -0.57 111 110 105
0.8398 -0.508657 -0.57 118 117 112
0.877833 -0.513119 -0.575 119 121 110
-0.0166 -0.445354 -0.498 186 147 114
-0.0135333 -0.4382 -0.49 190 151 118
-0.00320667 -0.430151 -0.481 190 150 115
0.00503905 -0.430151 -0.481 194 154 119
0.00687143 -0.430151 -0.481 197 154 120
0.0152114 -0.432834 -0.484 196 152 123
0.0161333 -0.432834 -0.484 193 149 120
0.0235571 -0.433729 -0.485 194 148 122
0.0263286 -0.433729 -0.485 196 152 123
0.0337886 -0.434623 -0.486 188 144 117
0.0405171 -0.437306 -0.489 189 144 115
0.05254 -0.44446 -0.497 164 121 102
0.0589229 -0.449826 -0.503 152 111 93
0.0802571 -0.473971 -0.53 90 75 72
0.0978648 -0.481126 -0.538 153 145 143
0.0988895 -0.481126 -0.538 162 157 154
0.101774 -0.480231 -0.537 173 169 168
0.112003 -0.480231 -0.537 192 188 187
0.113026 -0.480231 -0.537 194 190 189
0.119962 -0.479337 -0.536 200 196 197
0.122004 -0.479337 -0.536 199 198 196
0.134506 -0.480231 -0.537 204 202 203
0.138597 -0.480231 -0.537 205 204 202
0.149103 -0.481126 -0.538 206 204 205
0.157301 -0.481126 -0.538 206 204 205
0.172993 -0.48202 -0.539 200 198 199
0.18326 -0.48202 -0.539 197 195 198
0.188393 -0.48202 -0.539 198 193 197
0.18942 -0.48202 -0.539 197 192 196
0.202767 -0.48202 -0.539 201 199 202
0.205847 -0.48202 -0.539 201 199 204
0.229705 -0.484703 -0.542 193 191 192
0.247711 -0.485597 -0.543 182 180 183
0.24978 -0.485597 -0.543 184 179 183
0.266271 -0.487386 -0.545 176 171 177
0.28132 -0.48828 -0.546 167 165 168
0.291745 -0.490069 -0.548 161 159 162
0.315283 -0.490963 -0.549 149 147 150
0.326333 -0.491857 -0.55 147 144 151
0.330075 -0.492751 -0.551 143 140 147
0.345394 -0.493646 -0.552 136 135 140
0.368806 -0.495434 -0.554 124 124 126
0.386047 -0.49454 -0.553 114 115 120
0.391313 -0.49454 -0.553 113 111 116
0.40879 -0.492751 -0.551 106 105 110
0.410889 -0.492751 -0.551 105 104 109
0.418994 -0.493646 -0.552 103 101 106
0.426354 -0.493646 -0.552 102 100 105
0.43083 -0.492751 -0.551 99 98 104
0.431879 -0.492751 -0.551 99 98 103
0.435028 -0.492751 -0.551 97 96 101
0.448193 -0.49454 -0.553 93 93 95
0.460156 -0.497223 -0.556 93 91 94
0.463106 -0.498117 -0.557 92 90 93
0.49083 -0.511531 -0.572 56 55 60
0.463086 -0.429257 -0.48 109 86 78
0.460047 -0.408689 -0.457 18 21 26
0.462762 -0.404217 -0.452 23 24 29
0.469362 -0.398851 -0.446 21 24 29
0.473571 -0.395274 -0.442 19 22 27
0.476939 -0.395274 -0.442 24 25 29
0.47838 -0.39438 -0.441 20 23 28
0.831851 -0.511531 -0.572 120 121 115
0.83801 -0.510637 -0.571 113 114 108
0.840568 -0.511531 -0.572 112 113 107
0.856627 -0.51332 -0.574 113 114 106
-0.0154943 -0.441822 -0.493 188 149 118
-0.00228571 -0.430171 -0.48 193 153 117
0.00228571 -0.430171 -0.48 195 155 119
0.0170552 -0.433756 -0.484 191 148 116
0.0291 -0.434652 -0.485 194 149 120
0.0414486 -0.438237 -0.489 186 142 115
0.0589229 -0.450784 -0.503 149 110 93
0.0632543 -0.454369 -0.507 129 95 83
0.0854086 -0.481254 -0.537 83 72 66
0.08778 -0.483047 -0.539 87 72 69
0.0978648 -0.48215 -0.538 151 147 148
0.115071 -0.481254 -0.537 185 181 182
0.116094 -0.481254 -0.537 185 181 182
0.133731 -0.48215 -0.538 202 198 199
0.13783 -0.48215 -0.538 200 196 197
0.150407 -0.483047 -0.539 195 191 192
0.185657 -0.483943 -0.54 171 169 172
0.191153 -0.484839 -0.541 168 166 169
0.199029 -0.483943 -0.54 191 186 192
0.203143 -0.483943 -0.54 185 183 188
0.22019 -0.487528 -0.544 178 176 181
0.256929 -0.488424 -0.545 153 151 156
0.271416 -0.490216 -0.547 145 140 146
0.286003 -0.492009 -0.549 133 131 136
0.302788 -0.493801 -0.551 122 120 123
0.305936 -0.493801 -0.551 121 119 122
0.33022 -0.495593 -0.553 103 100 107
0.345157 -0.497386 -0.555 96 95 101
0.3515 -0.497386 -0.555 94 93 98
0.35531 -0.498282 -0.556 91 90 95
0.35701 -0.499178 -0.557 90 89 94
0.383534 -0.499178 -0.557 79 78 83
0.384595 -0.499178 -0.557 79 78 84
0.420046 -0.494697 -0.552 67 66 71
0.445838 -0.49649 -0.554 63 62 67
0.460984 -0.499178 -0.557 59 59 61
0.471311 -0.504555 -0.563 60 60 62
0.473223 -0.505451 -0.564 59 58 63
0.495121 -0.517102 -0.577 44 45 49
0.487755 -0.466915 -0.521 126 104 93
0.467086 -0.437341 -0.488 134 110 100
0.45855 -0.418521 -0.467 18 22 25
0.458686 -0.412248 -0.46 24 23 29
0.460047 -0.409559 -0.457 21 20 26
0.46135 -0.40687 -0.454 24 23 28
0.461901 -0.405078 -0.452 24 23 28
0.465306 -0.400597 -0.447 27 26 32
0.465964 -0.399701 -0.446 26 25 30
0.472955 -0.397012 -0.443 21 24 29
0.476097 -0.396116 -0.442 26 27 32
0.47922 -0.39522 -0.441 21 22 27
0.47981 -0.394324 -0.44 20 23 28
0.480391 -0.393428 -0.439 20 23 28
0.4829 -0.393428 -0.439 19 22 27
0.489309 -0.392531 -0.438 22 25 30
0.491262 -0.393428 -0.439 25 26 31
0.501354 -0.396116 -0.442 24 27 32
0.829293 -0.514413 -0.574 117 118 113
0.852643 -0.51531 -0.575 117 118 110
0.860709 -0.516206 -0.576 114 114 106
0.864 -0.516206 -0.576 120 120 112
0.872505 -0.517998 -0.578 123 124 116
0.884362 -0.51979 -0.58 123 123 115
-0.0227838 -0.45713 -0.509 188 149 116
-0.0217286 -0.455334 -0.507 187 148 115
0.00411429 -0.431086 -0.48 196 156 120
0.0179771 -0.434678 -0.484 191 148 114
0.0404343 -0.43827 -0.488 185 141 114
0.0444238 -0.440965 -0.491 176 132 107
0.0454514 -0.441863 -0.492 176 132 107
0.05678 -0.449946 -0.501 150 112 93
0.0922276 -0.48587 -0.541 89 77 77
0.0932581 -0.48587 -0.541 95 89 89
0.095319 -0.48587 -0.541 108 104 103
0.102153 -0.484073 -0.539 146 142 141
0.10318 -0.484073 -0.539 146 142 141
0.10934 -0.484073 -0.539 154 150 149
0.13398 -0.484073 -0.539 183 179 180
0.137314 -0.484971 -0.54 179 175 176
0.141429 -0.484971 -0.54 180 176 177
0.154056 -0.48587 -0.541 174 170 171
0.168171 -0.484971 -0.54 164 160 161
0.183248 -0.486768 -0.542 148 143 149
0.186689 -0.487666 -0.543 144 139 145
0.187723 -0.487666 -0.543 140 138 143
0.193929 -0.487666 -0.543 134 132 137
0.217481 -0.489462 -0.545 148 146 151
0.22828 -0.49036 -0.546 136 134 137
0.247 -0.49036 -0.546 120 118 123
0.252662 -0.491258 -0.547 114 112 117
0.255788 -0.491258 -0.547 114 112 117
0.25683 -0.491258 -0.547 112 110 115
0.257871 -0.491258 -0.547 113 111 116
0.26565 -0.492156 -0.548 104 102 107
0.268781 -0.492156 -0.548 102 100 105
0.272409 -0.493054 -0.549 99 97 100
0.273454 -0.493054 -0.549 99 97 100
0.277637 -0.493054 -0.549 98 96 99
0.279729 -0.493054 -0.549 95 93 96
0.291247 -0.496647 -0.553 90 87 94
0.2923 -0.496647 -0.553 90 87 94
0.298105 -0.497545 -0.554 85 82 89
0.304436 -0.497545 -0.554 83 81 86
0.308657 -0.497545 -0.554 80 78 83
0.317671 -0.498443 -0.555 75 73 78
0.322957 -0.498443 -0.555 75 74 79
0.344279 -0.500239 -0.557 70 69 75
0.354463 -0.501137 -0.558 69 68 73
0.368123 -0.503831 -0.561 63 64 68
0.37026 -0.503831 -0.561 64 65 69
0.377343 -0.50473 -0.562 61 60 65
0.399111 -0.503831 -0.561 59 59 67
0.402667 -0.502933 -0.56 59 58 66
0.403012 -0.502035 -0.559 58 57 65
0.403354 -0.501137 -0.558 59 58 66
0.40996 -0.497545 -0.554 57 54 61
0.421568 -0.497545 -0.554 55 54 60
0.441873 -0.496647 -0.553 53 54 59
0.443728 -0.497545 -0.554 53 52 58
0.446643 -0.498443 -0.555 51 50 56
0.452743 -0.499341 -0.556 49 48 54
0.517424 -0.505628 -0.563 42 41 46
0.472862 -0.44815 -0.499 135 111 101
0.460071 -0.426595 -0.475 38 32 34
0.45766 -0.41941 -0.467 26 21 25
0.45815 -0.415818 -0.463 27 24 31
0.457927 -0.414022 -0.461 24 23 29
0.460633 -0.408633 -0.455 26 27 31
0.468949 -0.398754 -0.444 25 26 31
0.50106 -0.39606 -0.441 25 28 33
0.83328 -0.517303 -0.576 117 116 112
0.847167 -0.516405 -0.575 126 127 121
0.855609 -0.518201 -0.577 118 119 113
0.861104 -0.518201 -0.577 111 112 106
0.879943 -0.520895 -0.58 113 114 108
0.883673 -0.521793 -0.581 115 116 108
-0.0226943 -0.4563 -0.507 186 145 113
-0.0105581 -0.4338 -0.482 187 148 115
-0.00410571 -0.4311 -0.479 194 154 119
0.0114524 -0.4329 -0.481 195 152 117
0.0179771 -0.4356 -0.484 192 149 114
0.0253524 -0.4356 -0.484 198 153 120
0.0299619 -0.4356 -0.484 191 146 117
0.0631295 -0.4554 -0.506 132 96 80
0.11858 -0.4851 -0.539 116 114 117
0.131386 -0.4869 -0.541 156 152 153
0.152276 -0.4878 -0.542 131 129 132
0.157438 -0.4878 -0.542 127 125 128
0.1626 -0.4878 -0.542 120 118 119
0.174598 -0.4896 -0.544 108 106 111
0.183924 -0.4896 -0.544 106 104 109
0.18496 -0.4896 -0.544 104 102 107
0.191529 -0.4905 -0.545 100 98 103
0.194643 -0.4905 -0.545 101 99 104
0.198795 -0.4905 -0.545 98 96 101
0.202575 -0.4896 -0.544 125 123 128
0.208138 -0.4905 -0.545 119 118 123
0.21684 -0.4914 -0.546 110 107 114
0.219321 -0.4923 -0.547 109 106 113
0.222447 -0.4923 -0.547 109 106 113
0.223897 -0.4932 -0.548 107 104 111
0.232866 -0.4923 -0.547 104 99 105
0.24373 -0.4932 -0.548 95 92 99
0.250449 -0.4941 -0.549 93 92 97
0.255095 -0.495 -0.55 91 89 94
0.277553 -0.4977 -0.553 85 83 88
0.283331 -0.4986 -0.554 85 82 89
0.298666 -0.5031 -0.559 81 78 85
0.312557 -0.5049 -0.561 79 78 83
0.40411 -0.5085 -0.565 64 63 71
0.407316 -0.5058 -0.562 64 63 71
0.40766 -0.5049 -0.561 63 62 70
0.43423 -0.4986 -0.554 57 57 65
0.488527 -0.5193 -0.577 51 50 56
0.498303 -0.5238 -0.582 51 50 56
0.520181 -0.5094 -0.566 41 40 46
0.486819 -0.468 -0.52 125 103 89
0.484057 -0.4644 -0.516 127 105 91
0.48128 -0.4608 -0.512 127 104 88
0.457568 -0.4194 -0.466 25 22 29
0.457049 -0.4149 -0.461 24 23 29
0.460181 -0.4122 -0.458 21 22 27
0.462597 -0.4059 -0.451 23 24 29
0.473571 -0.3978 -0.442 26 27 32
0.482634 -0.3942 -0.438 20 23 28
0.506708 -0.3987 -0.443 27 31 34
0.83177 -0.5202 -0.578 18 18 16
0.837669 -0.5184 -0.576 121 122 116
