ply
format ascii 1.0
comment Created by Open3D
element vertex 1319
property double x
property double y
property double z
property uchar red
property uchar green
property uchar blue
end_header
-0.065919 -0.289681 -0.635 71 71 79
-0.0636 -0.290137 -0.636 73 73 81
-0.0624867 -0.290593 -0.637 73 73 81
0.0863629 -0.228551 -0.501 177 127 116
0.13448 -0.224446 -0.492 132 88 79
0.152242 -0.234482 -0.514 176 156 168
0.154115 -0.23585 -0.517 217 197 209
0.15699 -0.237219 -0.52 237 225 245
0.164667 -0.242693 -0.532 192 196 231
0.168652 -0.244062 -0.535 90 87 118
0.1755 -0.2395 -0.525 127 82 87
0.1765 -0.2395 -0.525 126 81 88
0.190052 -0.244062 -0.535 92 61 69
0.332357 -0.23585 -0.517 143 113 123
0.332697 -0.235394 -0.516 138 108 118
0.406543 -0.254554 -0.558 134 86 86
0.410143 -0.250905 -0.55 130 85 82
0.416241 -0.249536 -0.547 130 82 78
0.424041 -0.246799 -0.541 132 84 80
0.428863 -0.24543 -0.538 130 83 77
0.435226 -0.244974 -0.537 129 82 76
0.462587 -0.242693 -0.532 153 103 92
0.464471 -0.24315 -0.533 154 105 91
0.472049 -0.244974 -0.537 147 98 83
0.491112 -0.249992 -0.548 147 99 89
0.493952 -0.250905 -0.55 148 96 83
0.507359 -0.25501 -0.559 145 99 83
-0.102456 -0.275315 -0.601 55 55 63
-0.0795467 -0.287684 -0.628 77 76 82
-0.0532771 -0.294555 -0.643 71 71 81
-0.0521333 -0.295013 -0.644 69 69 79
0.0928667 -0.224467 -0.49 178 125 111
0.0952762 -0.22355 -0.488 186 130 117
0.114777 -0.221718 -0.484 160 100 92
0.1775 -0.2405 -0.525 125 80 85
0.18868 -0.244623 -0.534 109 66 73
0.324977 -0.244623 -0.534 147 120 127
0.330677 -0.237751 -0.519 135 109 120
0.337933 -0.237293 -0.518 138 108 120
0.424041 -0.24783 -0.541 136 88 84
0.428863 -0.246455 -0.538 130 82 78
0.429888 -0.246455 -0.538 130 83 77
0.443151 -0.244165 -0.533 141 91 84
0.45479 -0.24279 -0.53 146 96 85
0.456809 -0.24279 -0.53 150 100 89
0.47117 -0.245539 -0.536 146 97 80
0.476887 -0.246913 -0.539 146 97 82
0.490216 -0.250578 -0.547 147 99 89
0.497851 -0.252869 -0.552 144 95 81
-0.116362 -0.27416 -0.596 124 129 133
-0.104223 -0.27508 -0.598 55 58 67
-0.0990171 -0.27968 -0.608 60 59 65
-0.0916714 -0.28566 -0.621 67 68 73
-0.0828705 -0.28796 -0.626 77 76 82
-0.075 -0.2898 -0.63 73 72 80
-0.0637 -0.29302 -0.637 74 74 82
-0.0486038 -0.29716 -0.646 71 69 80
0.0857495 -0.23138 -0.503 179 126 120
0.0919333 -0.2254 -0.49 179 125 115
0.0936086 -0.22494 -0.489 179 125 113
0.09454 -0.22494 -0.489 181 127 115
0.105776 -0.2231 -0.485 182 124 113
0.123074 -0.22264 -0.484 148 93 90
0.124252 -0.2231 -0.485 148 93 90
0.13774 -0.22862 -0.497 121 82 77
0.143235 -0.23138 -0.503 105 73 74
0.160108 -0.24242 -0.527 253 244 255
0.170146 -0.24242 -0.527 110 65 70
0.200567 -0.25162 -0.547 179 165 180
0.328827 -0.24472 -0.532 146 115 130
0.346838 -0.24104 -0.524 109 89 98
0.363243 -0.24886 -0.541 48 39 44
0.403354 -0.25668 -0.558 139 89 88
0.404684 -0.25484 -0.554 129 87 88
0.405641 -0.25346 -0.551 137 91 93
0.408048 -0.253 -0.55 138 92 92
0.424041 -0.24886 -0.541 138 90 86
0.435226 -0.24702 -0.537 133 86 78
0.459694 -0.24426 -0.531 152 102 91
0.47029 -0.2461 -0.535 148 99 82
0.484563 -0.24978 -0.543 144 94 85
0.492156 -0.25208 -0.548 145 95 86
-0.139443 -0.297929 -0.645 105 108 113
-0.13239 -0.290538 -0.629 128 131 138
-0.112009 -0.272986 -0.591 118 121 126
-0.104049 -0.275757 -0.597 59 59 67
-0.076079 -0.290538 -0.629 76 75 81
-0.0705343 -0.292386 -0.633 74 73 79
-0.0693286 -0.292386 -0.633 73 72 80
-0.0602486 -0.295157 -0.639 72 72 80
0.0846857 -0.24019 -0.52 181 134 128
0.0875667 -0.229567 -0.497 178 125 119
0.0904343 -0.227257 -0.492 178 123 116
0.0936086 -0.225871 -0.489 181 127 117
0.0962057 -0.22541 -0.488 182 128 118
0.099719 -0.224948 -0.487 186 129 120
0.107624 -0.224024 -0.485 176 118 107
0.11109 -0.223562 -0.484 167 109 98
0.112011 -0.223562 -0.484 162 103 97
0.114777 -0.223562 -0.484 153 96 89
0.164576 -0.247119 -0.535 212 212 236
0.16786 -0.248967 -0.539 140 138 160
0.172171 -0.242038 -0.524 127 82 89
0.3335 -0.2425 -0.525 134 107 116
0.340883 -0.240652 -0.521 136 109 118
0.390594 -0.26421 -0.572 55 47 58
0.402669 -0.261438 -0.566 107 87 96
0.41991 -0.251738 -0.545 135 87 83
0.447387 -0.245733 -0.532 144 94 87
0.451603 -0.245271 -0.531 143 93 84
0.453626 -0.245271 -0.531 143 93 84
0.47219 -0.247581 -0.536 146 97 80
0.479829 -0.249429 -0.54 145 96 82
0.488424 -0.251738 -0.545 145 95 84
0.505695 -0.256819 -0.556 141 95 80
0.509489 -0.258205 -0.559 143 97 82
-0.117497 -0.27643 -0.596 121 124 129
-0.112943 -0.273648 -0.59 119 122 127
-0.110695 -0.273648 -0.59 113 116 121
-0.108631 -0.274111 -0.591 112 115 122
-0.09918 -0.28246 -0.609 62 61 69
-0.0875 -0.289881 -0.625 72 71 79
-0.0819391 -0.291272 -0.628 74 73 79
-0.0694381 -0.294055 -0.634 74 73 79
-0.0544171 -0.297766 -0.642 72 70 81
-0.0509067 -0.298693 -0.644 71 70 78
0.0875667 -0.230513 -0.497 175 125 116
0.100647 -0.225875 -0.487 184 127 118
0.116621 -0.224484 -0.484 148 93 88
0.119387 -0.224484 -0.484 148 93 90
0.12636 -0.225411 -0.486 143 87 86
0.142277 -0.233296 -0.503 111 76 74
0.168573 -0.24953 -0.538 87 67 79
0.168138 -0.244428 -0.527 101 64 72
0.33726 -0.249993 -0.539 145 115 127
0.336404 -0.248602 -0.536 144 114 126
0.360204 -0.24953 -0.538 51 40 48
0.380267 -0.259733 -0.56 48 37 45
0.401909 -0.257878 -0.556 138 93 98
0.404591 -0.255559 -0.551 137 96 94
0.427371 -0.250457 -0.54 140 93 87
0.435011 -0.24953 -0.538 135 86 79
0.437478 -0.248602 -0.536 137 89 77
0.457819 -0.245819 -0.53 157 103 93
0.48367 -0.251385 -0.542 148 96 83
0.489462 -0.252776 -0.545 147 95 84
-0.131191 -0.292934 -0.629 123 123 133
-0.109386 -0.274306 -0.589 110 113 120
-0.0968 -0.28688 -0.616 61 60 68
-0.0853914 -0.292003 -0.627 71 70 78
-0.0590314 -0.297591 -0.639 74 73 81
-0.0521333 -0.29992 -0.644 71 69 80
-0.0462857 -0.301783 -0.648 72 70 81
0.08892 -0.230063 -0.494 180 125 120
0.0919333 -0.2282 -0.49 181 126 119
0.099719 -0.226803 -0.487 181 124 117
0.108548 -0.225871 -0.485 170 110 102
0.120309 -0.225406 -0.484 144 91 87
0.152734 -0.241706 -0.519 79 46 55
0.164884 -0.249623 -0.536 200 198 219
0.167707 -0.24776 -0.532 85 63 75
0.170847 -0.243569 -0.523 126 81 86
0.181188 -0.245431 -0.527 122 77 82
0.1925 -0.25102 -0.539 95 66 62
0.198483 -0.254746 -0.547 215 209 213
0.3455 -0.2445 -0.525 134 108 121
0.393863 -0.266389 -0.572 33 28 35
0.399103 -0.259869 -0.558 151 106 103
0.401847 -0.25754 -0.553 138 91 97
0.402171 -0.257074 -0.552 135 89 89
0.407306 -0.255677 -0.549 142 94 94
0.4134 -0.25428 -0.546 139 91 89
0.420175 -0.253349 -0.544 140 92 90
0.421211 -0.253349 -0.544 140 92 90
0.429429 -0.251486 -0.54 134 87 81
0.431713 -0.25102 -0.539 137 88 81
0.439719 -0.249157 -0.535 142 92 83
0.443983 -0.248691 -0.534 145 96 82
0.449243 -0.248226 -0.533 147 95 82
0.478051 -0.250554 -0.538 146 94 81
0.484703 -0.252417 -0.542 151 95 80
-0.100175 -0.284312 -0.608 64 63 71
-0.0978143 -0.287586 -0.615 61 60 68
-0.0969571 -0.288521 -0.617 60 59 67
-0.0912171 -0.29273 -0.626 62 61 69
-0.0820695 -0.294132 -0.629 74 73 81
-0.081 -0.2946 -0.63 75 74 82
0.0911857 -0.229601 -0.491 180 125 120
0.1067 -0.226795 -0.485 171 111 103
0.120309 -0.226328 -0.484 141 88 84
0.122152 -0.226328 -0.484 143 90 84
0.12781 -0.228198 -0.488 137 90 84
0.154019 -0.243162 -0.52 86 53 62
0.194604 -0.25345 -0.542 151 136 143
0.343805 -0.246435 -0.527 136 109 116
0.39219 -0.265608 -0.568 27 16 22
0.398388 -0.260464 -0.557 145 105 106
0.404905 -0.25719 -0.55 140 94 96
0.407306 -0.256723 -0.549 138 92 94
0.427371 -0.252514 -0.54 141 92 85
0.45479 -0.247838 -0.53 155 102 86
0.507813 -0.259996 -0.556 149 97 83
-0.12958 -0.294391 -0.627 116 119 126
-0.11125 -0.27561 -0.587 112 115 120
-0.104833 -0.279367 -0.595 65 66 71
-0.081 -0.2958 -0.63 74 73 81
-0.0637 -0.299087 -0.637 72 71 77
0.0936086 -0.229597 -0.489 183 125 121
0.0987914 -0.228658 -0.487 178 121 114
0.115699 -0.22725 -0.484 142 89 83
0.117543 -0.22725 -0.484 141 91 84
0.124252 -0.227719 -0.485 139 89 82
0.148037 -0.240866 -0.513 88 55 62
0.165595 -0.251195 -0.535 142 133 150
0.166446 -0.247909 -0.528 92 65 74
0.2024 -0.259177 -0.552 255 253 255
0.374757 -0.260586 -0.555 61 45 55
0.377169 -0.261525 -0.557 57 44 54
0.385814 -0.265281 -0.565 46 35 43
0.427371 -0.253543 -0.54 142 93 86
0.4284 -0.253543 -0.54 140 91 84
0.430687 -0.253073 -0.539 136 87 80
0.431713 -0.253073 -0.539 137 88 81
0.436036 -0.252604 -0.538 140 91 84
0.441757 -0.251195 -0.535 146 97 83
0.446197 -0.250256 -0.533 149 97 83
0.456809 -0.248848 -0.53 154 101 85
0.500238 -0.258238 -0.55 152 100 86
-0.118831 -0.281443 -0.597 113 116 121
-0.0955267 -0.2937 -0.623 61 60 68
-0.08806 -0.296529 -0.629 64 63 71
-0.0740343 -0.297943 -0.632 75 74 80
-0.0625848 -0.300771 -0.638 72 71 79
-0.0614657 -0.301243 -0.639 72 71 79
-0.0602486 -0.301243 -0.639 72 71 79
0.08662 -0.2343 -0.497 176 123 117
0.0919333 -0.231 -0.49 183 125 121
0.09454 -0.230529 -0.489 181 123 119
0.11109 -0.228171 -0.484 158 98 90
0.117543 -0.228171 -0.484 141 91 84
0.1416 -0.2376 -0.504 105 71 72
0.148326 -0.242314 -0.514 86 55 60
0.149886 -0.243257 -0.516 83 52 57
0.159708 -0.249386 -0.529 177 155 167
0.161323 -0.250329 -0.531 205 183 195
0.372353 -0.2607 -0.553 60 43 53
0.38981 -0.265414 -0.563 112 86 89
0.391259 -0.264943 -0.562 130 95 101
0.396613 -0.262114 -0.556 142 100 101
0.40281 -0.259286 -0.55 144 100 99
0.426343 -0.254571 -0.54 143 94 87
0.427371 -0.254571 -0.54 142 94 84
0.431713 -0.2541 -0.539 138 90 80
0.502197 -0.259757 -0.551 152 99 85
0.507957 -0.261643 -0.555 146 93 77
-0.104049 -0.28258 -0.597 74 74 82
-0.0998314 -0.290153 -0.613 67 66 74
-0.0834 -0.2982 -0.63 67 66 74
-0.0740343 -0.299147 -0.632 75 74 82
-0.0683381 -0.300567 -0.635 75 74 80
-0.0602486 -0.30246 -0.639 73 72 80
-0.0522143 -0.3053 -0.645 70 69 77
-0.048679 -0.306247 -0.647 70 69 77
0.0856429 -0.257967 -0.545 177 136 130
0.0841362 -0.250393 -0.529 177 136 130
0.0936086 -0.23146 -0.489 182 124 120
0.0962057 -0.230987 -0.488 181 123 119
0.0971352 -0.230987 -0.488 178 123 118
0.107624 -0.229567 -0.485 163 104 98
0.112243 -0.229567 -0.485 149 96 92
0.113167 -0.229567 -0.485 146 93 89
0.121481 -0.229567 -0.485 132 83 78
0.128071 -0.23146 -0.489 134 86 82
0.130466 -0.232407 -0.491 128 83 78
0.140361 -0.238087 -0.503 109 73 73
0.191473 -0.255127 -0.539 105 83 95
0.362517 -0.25702 -0.543 58 41 51
0.367569 -0.25986 -0.549 52 41 49
0.381625 -0.266013 -0.562 67 50 58
0.403123 -0.25986 -0.549 144 100 99
0.4082 -0.25844 -0.546 145 97 95
0.41028 -0.25844 -0.546 144 96 92
0.465763 -0.25134 -0.531 154 101 85
0.469548 -0.252287 -0.533 153 100 84
0.496468 -0.258913 -0.547 151 98 82
0.506127 -0.261753 -0.553 148 95 79
-0.111986 -0.278014 -0.585 107 111 114
-0.101986 -0.287519 -0.605 72 71 79
-0.0858 -0.2994 -0.63 62 61 66
-0.0706457 -0.301301 -0.634 74 73 81
-0.04752 -0.307954 -0.648 70 69 77
-0.0451905 -0.308905 -0.65 71 70 78
0.0838181 -0.25045 -0.527 176 135 129
0.0860181 -0.237144 -0.499 174 123 119
0.089679 -0.234292 -0.493 178 125 121
0.122657 -0.230966 -0.486 131 82 78
0.12714 -0.232391 -0.489 134 85 81
0.167858 -0.24855 -0.523 121 76 81
0.17052 -0.248074 -0.522 126 80 83
0.176164 -0.249025 -0.524 124 79 84
0.393789 -0.265183 -0.558 150 106 105
0.402389 -0.26043 -0.548 146 102 101
0.40924 -0.25948 -0.546 142 94 92
0.410567 -0.259005 -0.545 144 96 92
0.424041 -0.257104 -0.541 145 96 89
0.448051 -0.253777 -0.534 156 103 89
0.472463 -0.253777 -0.534 161 105 90
0.483047 -0.256153 -0.539 148 95 79
-0.122526 -0.288194 -0.604 109 110 115
-0.113293 -0.279606 -0.586 106 106 114
-0.10656 -0.282469 -0.592 73 72 78
-0.103429 -0.286286 -0.6 79 79 87
-0.0741514 -0.302031 -0.633 73 72 80
-0.0625848 -0.304417 -0.638 74 73 79
-0.0557267 -0.306803 -0.643 71 70 76
-0.0499114 -0.308711 -0.647 71 70 78
0.099719 -0.232369 -0.487 176 121 116
0.121731 -0.231891 -0.486 130 81 77
0.12714 -0.233323 -0.489 131 83 79
0.143691 -0.242389 -0.508 102 67 71
0.193571 -0.258611 -0.542 187 171 184
0.360076 -0.259566 -0.544 71 52 56
0.397297 -0.264337 -0.554 148 104 103
0.406864 -0.260997 -0.547 148 100 98
0.409529 -0.260043 -0.545 144 96 92
0.414994 -0.259566 -0.544 147 99 95
0.434203 -0.256226 -0.537 155 103 90
0.436457 -0.255749 -0.536 156 104 91
0.443983 -0.254794 -0.534 158 105 91
0.445 -0.254794 -0.534 157 104 90
0.447034 -0.254794 -0.534 157 104 88
0.454637 -0.253363 -0.531 161 105 88
0.455649 -0.253363 -0.531 160 104 87
0.465763 -0.253363 -0.531 151 98 80
0.498551 -0.260997 -0.547 150 97 81
0.503381 -0.262429 -0.55 147 96 79
-0.136178 -0.309944 -0.647 110 110 118
-0.110871 -0.280243 -0.585 100 103 110
-0.10638 -0.283117 -0.591 69 70 75
-0.0603429 -0.30659 -0.64 75 74 82
-0.0546714 -0.308986 -0.645 71 71 79
0.0837571 -0.255332 -0.533 179 140 133
0.0843333 -0.242398 -0.506 181 134 128
0.109471 -0.232338 -0.485 151 92 86
0.126209 -0.234254 -0.489 130 82 78
0.133684 -0.237608 -0.496 120 75 72
0.154908 -0.250542 -0.523 78 49 54
0.180526 -0.252937 -0.528 116 71 78
0.25079 -0.309944 -0.647 249 254 255
0.376393 -0.267788 -0.559 72 52 53
0.397633 -0.264913 -0.553 148 104 103
0.402077 -0.262997 -0.549 153 103 102
0.412643 -0.261081 -0.545 148 99 94
0.424286 -0.258686 -0.54 150 101 94
0.427838 -0.257728 -0.538 150 100 91
0.453626 -0.254374 -0.531 160 104 87
0.456809 -0.253895 -0.53 158 105 87
0.457819 -0.253895 -0.53 158 105 87
0.461857 -0.253895 -0.53 156 103 87
-0.133694 -0.30829 -0.641 107 107 115
-0.100834 -0.294343 -0.612 75 76 81
-0.100157 -0.295786 -0.615 73 74 79
-0.0626829 -0.307329 -0.639 72 72 80
-0.0615619 -0.30781 -0.64 73 73 81
-0.0475933 -0.312138 -0.649 70 69 77
0.0838638 -0.244805 -0.509 181 136 133
0.0928667 -0.235667 -0.49 176 121 116
0.109471 -0.233262 -0.485 151 92 86
0.111319 -0.233262 -0.485 152 92 84
0.150757 -0.249614 -0.519 93 58 65
0.159104 -0.253462 -0.527 63 32 37
0.160411 -0.253943 -0.528 56 25 30
0.163873 -0.251538 -0.523 105 66 71
0.166543 -0.251057 -0.522 117 77 78
0.168209 -0.250576 -0.521 117 75 77
0.172839 -0.251538 -0.523 124 81 88
0.183574 -0.255386 -0.531 118 73 80
0.251177 -0.311657 -0.648 246 250 251
0.383263 -0.272219 -0.566 140 106 105
0.387575 -0.272219 -0.566 161 116 119
0.391631 -0.269814 -0.561 153 108 105
0.397297 -0.266448 -0.554 148 102 102
0.400714 -0.264524 -0.55 152 104 102
0.412643 -0.262119 -0.545 149 100 93
0.417334 -0.261157 -0.543 152 103 96
0.426813 -0.258752 -0.538 151 101 90
0.435643 -0.25731 -0.535 163 111 98
0.447212 -0.256348 -0.533 156 103 87
0.448228 -0.256348 -0.533 156 103 87
0.450427 -0.255867 -0.532 161 108 90
0.470693 -0.255867 -0.532 162 106 91
0.4842 -0.258752 -0.538 151 95 80
0.512186 -0.266929 -0.555 152 101 82
-0.104223 -0.288749 -0.598 86 86 94
-0.102797 -0.291163 -0.603 83 83 91
-0.100834 -0.295509 -0.612 77 78 83
-0.082461 -0.305166 -0.632 62 61 69
-0.0800533 -0.305166 -0.632 66 65 73
-0.0754762 -0.306131 -0.634 70 69 77
0.101574 -0.235151 -0.487 173 116 109
0.123162 -0.235634 -0.488 122 77 72
0.161808 -0.253983 -0.526 78 46 51
0.169201 -0.251569 -0.521 121 77 78
0.170193 -0.251569 -0.521 124 80 81
0.171514 -0.252051 -0.522 125 79 82
0.175166 -0.253017 -0.524 125 78 84
0.195 -0.26364 -0.546 233 233 241
0.391259 -0.271366 -0.562 155 109 109
0.391631 -0.270883 -0.561 156 110 110
0.39974 -0.26702 -0.553 154 106 104
0.410567 -0.263157 -0.545 150 101 96
0.454637 -0.256397 -0.531 158 102 89
0.45479 -0.255914 -0.53 160 104 89
0.456809 -0.255914 -0.53 160 104 89
0.459838 -0.255914 -0.53 159 103 88
0.491022 -0.261226 -0.541 152 99 83
0.492962 -0.261709 -0.542 151 98 82
0.49972 -0.26364 -0.546 150 99 82
-0.114214 -0.283586 -0.585 97 100 107
-0.104223 -0.289888 -0.598 88 89 94
-0.103601 -0.291342 -0.601 86 87 92
-0.0898257 -0.306854 -0.633 55 56 61
-0.0872762 -0.30637 -0.632 56 56 64
-0.08018 -0.306854 -0.633 64 63 71
-0.0789743 -0.306854 -0.633 66 65 73
-0.0651171 -0.309763 -0.639 71 71 79
-0.062781 -0.310248 -0.64 71 71 79
-0.0569514 -0.311702 -0.643 72 72 80
-0.0546714 -0.312671 -0.645 71 71 79
0.08662 -0.240927 -0.497 178 127 123
0.0873905 -0.240442 -0.496 177 126 122
0.0954714 -0.237049 -0.489 176 121 118
0.0989943 -0.236564 -0.488 175 117 113
0.099719 -0.236079 -0.487 175 117 113
0.10692 -0.235594 -0.486 155 100 93
0.116177 -0.235594 -0.486 128 80 76
0.139957 -0.244805 -0.505 111 73 72
0.150176 -0.250622 -0.517 94 63 61
0.153323 -0.252561 -0.521 89 60 65
0.165231 -0.252561 -0.521 116 74 78
0.177838 -0.254985 -0.526 118 73 76
0.17952 -0.255954 -0.528 111 67 68
0.412186 -0.312671 -0.645 124 101 117
0.379878 -0.283101 -0.584 128 85 95
0.374638 -0.274375 -0.566 154 114 122
0.390119 -0.27389 -0.565 153 107 107
0.391955 -0.272921 -0.563 155 107 107
0.396624 -0.270982 -0.559 147 103 102
0.401762 -0.266619 -0.55 151 103 99
0.412643 -0.264195 -0.545 147 98 93
0.41603 -0.26371 -0.544 150 101 96
0.427838 -0.260802 -0.538 156 104 93
0.42931 -0.259832 -0.536 160 108 95
0.456809 -0.256924 -0.53 160 104 89
0.47272 -0.257893 -0.532 160 104 89
0.498805 -0.264195 -0.545 152 99 83
1.13542 -0.311217 -0.642 206 212 198
-0.107142 -0.286647 -0.589 69 72 77
-0.0778914 -0.308547 -0.634 66 65 73
-0.062879 -0.311953 -0.641 72 71 77
-0.0581762 -0.312927 -0.643 72 72 80
-0.0522952 -0.314387 -0.646 71 71 79
0.0827295 -0.250147 -0.514 183 136 128
0.0971352 -0.237493 -0.488 173 118 115
0.0980648 -0.237493 -0.488 175 117 113
0.099719 -0.237007 -0.487 174 116 112
0.105994 -0.23652 -0.486 156 102 90
0.166895 -0.253067 -0.52 119 77 79
0.167886 -0.253067 -0.52 120 78 80
0.174168 -0.255013 -0.524 121 76 81
0.1765 -0.2555 -0.525 116 74 76
0.184266 -0.259393 -0.533 106 67 68
0.187345 -0.260853 -0.536 117 88 92
0.251565 -0.315847 -0.649 174 177 196
0.37884 -0.279347 -0.574 138 95 105
0.39042 -0.27594 -0.567 150 104 104
0.402492 -0.268153 -0.551 150 102 98
0.40552 -0.266693 -0.548 148 101 95
0.407608 -0.266693 -0.548 145 98 92
0.413681 -0.265233 -0.545 146 97 92
0.417334 -0.26426 -0.543 151 101 94
0.420695 -0.263773 -0.542 149 100 93
0.441949 -0.25988 -0.534 159 103 90
0.45897 -0.257447 -0.529 160 104 89
0.459978 -0.257447 -0.529 160 104 89
0.468924 -0.257933 -0.53 164 108 93
0.508619 -0.267667 -0.55 151 98 84
1.13255 -0.31098 -0.639 210 214 200
-0.111603 -0.284837 -0.583 94 97 102
-0.101833 -0.298517 -0.611 86 87 92
-0.0935905 -0.309754 -0.634 62 63 68
-0.0837971 -0.309266 -0.633 56 55 63
-0.0488295 -0.317083 -0.649 71 70 76
0.0858457 -0.243309 -0.498 178 127 123
0.104357 -0.237934 -0.487 159 105 93
0.108995 -0.237934 -0.487 145 92 86
0.117585 -0.238423 -0.488 125 77 73
0.122733 -0.2394 -0.49 119 75 72
0.14454 -0.24966 -0.511 109 71 70
0.164914 -0.254057 -0.52 116 74 76
0.169201 -0.254546 -0.521 121 77 78
0.170193 -0.254546 -0.521 122 78 79
0.174168 -0.256011 -0.524 118 76 80
0.390186 -0.279951 -0.573 145 99 101
0.393348 -0.276043 -0.565 150 102 102
0.3984 -0.2736 -0.56 147 99 97
0.39979 -0.271646 -0.556 146 98 94
0.406564 -0.267737 -0.548 145 98 92
0.42198 -0.264317 -0.541 151 101 92
0.4558 -0.258943 -0.53 160 105 85
0.473733 -0.25992 -0.532 157 101 86
0.496059 -0.264806 -0.542 150 97 81
0.498009 -0.265294 -0.543 152 99 83
1.1411 -0.316594 -0.648 203 205 192
1.13432 -0.312686 -0.64 204 205 197
-0.0653209 -0.314395 -0.641 73 72 78
-0.0583571 -0.316357 -0.645 72 72 80
-0.0571286 -0.316357 -0.645 72 72 80
0.087979 -0.242295 -0.494 177 124 120
0.115726 -0.239352 -0.488 128 79 75
0.116655 -0.239352 -0.488 127 79 75
0.123919 -0.240824 -0.491 118 74 71
0.13085 -0.243276 -0.496 119 75 72
0.162254 -0.255538 -0.521 108 69 72
0.176836 -0.25799 -0.526 116 74 76
0.17952 -0.258971 -0.528 110 68 69
0.384567 -0.284967 -0.581 124 80 93
0.38501 -0.284476 -0.58 128 84 97
0.393272 -0.27859 -0.568 145 99 99
0.399449 -0.273195 -0.557 144 96 92
0.400793 -0.271233 -0.553 150 102 98
0.405214 -0.269271 -0.549 146 98 94
0.41028 -0.2678 -0.546 145 96 89
0.4235 -0.264367 -0.539 154 101 93
0.431567 -0.262405 -0.535 160 108 95
0.433605 -0.262405 -0.535 158 106 93
0.4387 -0.262405 -0.535 164 110 98
0.442966 -0.261914 -0.534 155 102 88
0.446017 -0.261914 -0.534 154 101 87
0.448228 -0.261424 -0.533 160 107 93
0.45144 -0.260933 -0.532 160 107 91
0.452453 -0.260933 -0.532 161 108 92
0.453626 -0.260443 -0.531 161 108 90
0.459978 -0.259462 -0.529 161 105 90
0.464009 -0.259462 -0.529 163 107 92
0.479583 -0.261914 -0.534 157 104 88
0.499043 -0.266329 -0.543 158 105 89
1.13967 -0.31881 -0.65 204 206 192
-0.134494 -0.314631 -0.639 98 98 108
-0.105432 -0.29149 -0.592 91 92 97
-0.0899676 -0.31217 -0.634 56 55 63
-0.0875524 -0.31217 -0.634 55 54 62
-0.0665419 -0.315616 -0.641 73 73 81
-0.0594933 -0.317093 -0.644 71 71 79
-0.0500657 -0.319555 -0.649 70 71 76
0.0825286 -0.268348 -0.545 181 136 131
0.104357 -0.23979 -0.487 155 102 94
0.106212 -0.23979 -0.487 153 100 92
0.122984 -0.241759 -0.491 116 72 69
0.1287 -0.243729 -0.495 114 73 71
0.13872 -0.24816 -0.504 114 73 71
0.14454 -0.251607 -0.511 110 70 70
0.148326 -0.253084 -0.514 106 68 67
0.149886 -0.254069 -0.516 105 65 65
0.167563 -0.255546 -0.519 123 77 79
0.171514 -0.257023 -0.522 120 78 79
0.182907 -0.261947 -0.532 97 66 71
0.184611 -0.262931 -0.534 98 67 72
0.38874 -0.290012 -0.589 126 83 90
0.387887 -0.286073 -0.581 131 86 93
0.393863 -0.281642 -0.572 143 98 95
0.40085 -0.273764 -0.556 145 97 93
0.404905 -0.27081 -0.55 144 95 91
0.40626 -0.270317 -0.549 147 98 93
0.407608 -0.269825 -0.548 145 96 91
0.411605 -0.268348 -0.545 147 97 90
0.42851 -0.263424 -0.535 161 109 96
0.431567 -0.263424 -0.535 160 108 95
0.4387 -0.263424 -0.535 161 109 96
0.4484 -0.261947 -0.532 159 106 92
0.449413 -0.261947 -0.532 158 105 91
0.452614 -0.261454 -0.531 160 107 91
0.453781 -0.260962 -0.53 159 106 90
0.457963 -0.26047 -0.529 161 105 90
0.500077 -0.267363 -0.543 156 103 89
1.14057 -0.31857 -0.647 203 205 191
1.13964 -0.316601 -0.643 202 205 194
1.13208 -0.313154 -0.636 202 206 189
-0.107712 -0.289651 -0.586 71 74 81
-0.104049 -0.295089 -0.597 97 98 103
-0.100483 -0.304974 -0.617 84 87 94
-0.0974895 -0.310411 -0.628 77 78 83
-0.0619467 -0.31832 -0.644 72 71 79
-0.0583571 -0.318814 -0.645 73 72 80
0.0962933 -0.31832 -0.644 182 137 134
0.0819229 -0.267409 -0.541 181 136 133
0.091 -0.2422 -0.49 175 122 118
0.0919333 -0.2422 -0.49 172 119 113
0.101574 -0.240717 -0.487 164 109 102
0.119 -0.2422 -0.49 117 73 70
0.127757 -0.244671 -0.495 114 73 71
0.1287 -0.244671 -0.495 115 74 72
0.144257 -0.252086 -0.51 110 70 70
0.149595 -0.254557 -0.515 107 65 66
0.15501 -0.257029 -0.52 81 49 52
0.160952 -0.257029 -0.52 109 69 70
0.163609 -0.256534 -0.519 115 73 75
0.176836 -0.259994 -0.526 114 72 76
0.182907 -0.26296 -0.532 97 67 75
0.190826 -0.268397 -0.543 236 228 243
0.235871 -0.309917 -0.627 222 227 247
0.393714 -0.296571 -0.6 127 82 89
0.394527 -0.28718 -0.581 137 93 90
0.394952 -0.286686 -0.58 138 94 91
0.3976 -0.280754 -0.568 139 94 91
0.400533 -0.2768 -0.56 141 93 89
0.402573 -0.273834 -0.554 145 96 92
0.416795 -0.269386 -0.545 149 99 90
0.420437 -0.268397 -0.543 146 96 87
0.424527 -0.26642 -0.539 162 108 98
0.440738 -0.264443 -0.535 156 103 89
0.464137 -0.260983 -0.528 166 110 95
0.470054 -0.261477 -0.529 161 105 90
0.483651 -0.263949 -0.534 154 98 83
1.13668 -0.320791 -0.649 205 208 191
1.13739 -0.320297 -0.648 205 208 191
1.14019 -0.31832 -0.644 201 205 191
-0.123471 -0.299203 -0.603 95 98 105
-0.110303 -0.288783 -0.582 90 93 98
-0.102323 -0.301188 -0.607 92 92 100
-0.101667 -0.302676 -0.61 91 91 99
-0.0901095 -0.315081 -0.635 56 55 61
-0.0878286 -0.315577 -0.636 51 50 56
-0.0677629 -0.318058 -0.641 72 71 79
0.087979 -0.245118 -0.494 173 122 118
0.133542 -0.247599 -0.499 111 72 65
0.15244 -0.257027 -0.518 100 66 67
0.174168 -0.260004 -0.524 115 76 81
0.237 -0.3126 -0.63 194 199 229
0.24671 -0.320539 -0.646 235 242 255
0.397162 -0.28779 -0.58 138 92 92
0.400881 -0.280348 -0.565 139 91 87
0.434624 -0.265462 -0.535 159 107 94
0.437681 -0.265462 -0.535 158 105 91
0.455948 -0.262485 -0.529 166 110 95
0.489547 -0.265958 -0.536 154 98 85
0.491483 -0.266454 -0.537 154 98 85
0.517713 -0.274393 -0.553 159 106 98
1.13791 -0.322028 -0.649 205 207 193
1.14019 -0.319547 -0.644 202 206 191
1.13393 -0.315081 -0.635 205 209 192
-0.106778 -0.292382 -0.587 64 65 70
-0.101667 -0.303838 -0.61 94 94 102
-0.100483 -0.307325 -0.617 88 91 98
-0.0937381 -0.31629 -0.635 70 70 78
-0.091319 -0.31629 -0.635 59 60 65
-0.0643 -0.320275 -0.643 70 69 75
-0.0620429 -0.321271 -0.645 71 70 76
-0.0525381 -0.323264 -0.649 71 70 76
-0.0513019 -0.323264 -0.649 71 70 78
0.104571 -0.24307 -0.488 156 101 96
0.124424 -0.245561 -0.493 113 72 70
0.134762 -0.249048 -0.5 115 74 70
0.145513 -0.254527 -0.511 113 73 73
0.152146 -0.257515 -0.517 98 62 64
0.399038 -0.291884 -0.586 131 87 84
0.400009 -0.285409 -0.573 133 85 81
0.400846 -0.282918 -0.568 137 89 85
0.404357 -0.276443 -0.555 146 96 89
0.425071 -0.26947 -0.541 155 102 94
0.431352 -0.266979 -0.536 156 104 93
0.433605 -0.266481 -0.535 155 103 89
0.448051 -0.265983 -0.534 156 105 88
0.459978 -0.263492 -0.529 164 108 93
0.484776 -0.265485 -0.533 154 98 83
0.50908 -0.27196 -0.546 158 105 89
0.511054 -0.272458 -0.547 161 108 92
1.09881 -0.323762 -0.65 206 208 194
1.13348 -0.323762 -0.65 204 207 190
1.13791 -0.323264 -0.649 204 206 192
1.14004 -0.32177 -0.646 204 206 192
1.13964 -0.320275 -0.643 203 205 191
1.13798 -0.318781 -0.64 202 204 191
-0.0997905 -0.31 -0.62 87 90 97
-0.0902514 -0.318 -0.636 58 57 63
-0.0817714 -0.318 -0.636 51 50 58
-0.07826 -0.3185 -0.637 54 53 61
-0.07242 -0.3195 -0.639 62 61 69
-0.0702048 -0.3205 -0.641 69 68 76
-0.0667495 -0.3215 -0.643 70 69 77
0.0807714 -0.257 -0.514 183 137 137
0.08208 -0.252 -0.504 179 133 133
0.0870381 -0.247 -0.494 175 124 120
0.0894971 -0.246 -0.492 174 121 117
0.101783 -0.244 -0.488 160 107 101
0.105501 -0.244 -0.488 153 100 94
0.112237 -0.2445 -0.489 135 82 76
0.118308 -0.2455 -0.491 119 75 72
0.124424 -0.2465 -0.493 115 71 68
0.126814 -0.2475 -0.495 112 71 69
0.132326 -0.249 -0.498 114 73 69
0.142724 -0.254 -0.508 112 72 70
0.250329 -0.3245 -0.649 249 249 255
0.421509 -0.324 -0.648 106 87 106
0.403073 -0.2935 -0.587 128 84 85
0.40411 -0.2825 -0.565 135 92 86
0.405142 -0.2795 -0.559 141 92 85
0.40848 -0.276 -0.552 142 93 88
0.416241 -0.2735 -0.547 142 92 83
0.427371 -0.27 -0.54 157 108 93
0.431352 -0.268 -0.536 149 100 85
0.432373 -0.268 -0.536 149 100 85
0.448228 -0.2665 -0.533 156 105 88
0.45897 -0.2645 -0.529 163 110 94
0.463131 -0.264 -0.528 168 112 95
0.475092 -0.2645 -0.529 163 108 88
0.480934 -0.2655 -0.531 155 99 82
1.0691 -0.325 -0.65 208 211 194
1.11119 -0.325 -0.65 206 209 192
-0.140091 -0.325234 -0.648 102 103 108
-0.138643 -0.324732 -0.647 96 97 102
-0.109194 -0.292109 -0.582 92 93 98
-0.108457 -0.293112 -0.584 82 83 88
-0.08554 -0.319713 -0.637 51 50 58
-0.07826 -0.319713 -0.637 53 52 60
-0.07242 -0.320717 -0.639 60 59 67
-0.0609086 -0.32423 -0.646 70 69 75
-0.05616 -0.325234 -0.648 71 70 78
0.0930562 -0.246435 -0.491 171 118 114
0.0982657 -0.245431 -0.489 169 114 111
0.106649 -0.245431 -0.489 151 98 92
0.111306 -0.245431 -0.489 137 87 78
0.123485 -0.247439 -0.493 115 71 68
0.127757 -0.248443 -0.495 116 72 69
0.143974 -0.25547 -0.509 113 73 73
0.151557 -0.258481 -0.515 97 61 63
0.159347 -0.259987 -0.518 109 70 71
0.16428 -0.259987 -0.518 118 76 78
0.1802 -0.26601 -0.53 90 61 57
0.408229 -0.305158 -0.608 113 77 77
0.404999 -0.289599 -0.577 132 83 76
0.407606 -0.280063 -0.558 141 91 84
0.410583 -0.277051 -0.552 138 89 84
0.415958 -0.275044 -0.548 143 93 86
0.41964 -0.27404 -0.546 144 96 86
0.428863 -0.270025 -0.538 156 107 93
0.438499 -0.269021 -0.536 146 97 82
0.441757 -0.268519 -0.535 149 98 81
0.444814 -0.268519 -0.535 147 96 79
0.459978 -0.265508 -0.529 163 110 92
0.508251 -0.273036 -0.544 162 106 91
1.053 -0.326238 -0.65 209 211 197
1.05385 -0.325736 -0.649 209 211 197
1.05509 -0.325736 -0.649 209 211 197
1.06786 -0.326238 -0.65 208 211 194
1.07405 -0.326238 -0.65 208 210 196
1.08271 -0.326238 -0.65 208 211 194
1.09465 -0.325736 -0.649 205 207 193
1.11319 -0.325736 -0.649 205 207 193
1.12555 -0.325736 -0.649 205 208 191
1.12679 -0.325736 -0.649 204 207 190
1.14057 -0.324732 -0.647 204 206 192
1.14004 -0.32423 -0.646 203 205 191
1.14127 -0.32423 -0.646 203 205 191
1.14196 -0.323729 -0.645 205 206 188
1.14087 -0.322725 -0.643 203 206 189
1.13929 -0.320215 -0.638 213 215 201
-0.120294 -0.298759 -0.593 100 100 108
-0.10602 -0.296744 -0.589 84 85 90
-0.104481 -0.298759 -0.593 110 111 116
-0.1037 -0.299767 -0.595 106 107 112
-0.1015 -0.30682 -0.609 99 100 105
-0.0725333 -0.322438 -0.64 60 59 67
-0.0645 -0.324957 -0.645 69 68 76
-0.0586286 -0.326469 -0.648 69 68 74
0.087801 -0.248378 -0.493 175 122 118
0.08874 -0.248378 -0.493 174 121 117
0.111306 -0.246363 -0.489 136 86 77
0.115502 -0.24737 -0.491 126 81 76
0.118549 -0.247874 -0.492 121 76 71
0.131113 -0.250393 -0.497 118 74 73
0.142162 -0.254928 -0.506 114 74 74
0.14746 -0.257447 -0.511 112 72 72
0.167563 -0.261477 -0.519 123 79 80
0.172839 -0.263492 -0.523 117 77 78
0.412929 -0.309843 -0.615 110 80 80
0.410389 -0.30027 -0.596 123 83 83
0.409629 -0.297248 -0.59 126 85 83
0.407686 -0.287171 -0.57 135 90 85
0.409643 -0.279614 -0.555 136 89 83
0.41238 -0.278607 -0.553 139 92 86
0.429193 -0.272561 -0.541 156 107 93
0.452453 -0.268027 -0.532 159 106 88
0.462254 -0.265508 -0.527 168 113 93
0.467273 -0.265508 -0.527 167 111 94
0.469281 -0.265508 -0.527 169 112 93
0.473189 -0.266011 -0.528 165 108 89
0.478115 -0.266515 -0.529 157 102 82
0.508351 -0.273569 -0.543 162 109 93
0.62913 -0.325965 -0.647 215 214 219
1.018 -0.326972 -0.649 210 212 198
1.03319 -0.327476 -0.65 209 211 197
1.0584 -0.326469 -0.648 208 211 194
1.07363 -0.326972 -0.649 208 210 196
1.07858 -0.326972 -0.649 207 209 195
1.11271 -0.326469 -0.648 205 208 191
1.12999 -0.326469 -0.648 204 206 192
1.13317 -0.325965 -0.647 204 206 192
1.13441 -0.325965 -0.647 203 205 191
1.13687 -0.325965 -0.647 203 205 191
1.13881 -0.325461 -0.646 205 207 193
1.14141 -0.324453 -0.644 203 205 192
1.14164 -0.322438 -0.64 203 205 192
-0.0997905 -0.313543 -0.62 91 94 101
-0.0969067 -0.319611 -0.632 81 82 87
-0.08918 -0.32214 -0.637 53 52 58
-0.0879667 -0.32214 -0.637 50 49 54
-0.0760714 -0.323151 -0.639 51 50 58
-0.0748543 -0.323151 -0.639 52 51 59
0.0799543 -0.267017 -0.528 182 141 139
0.0862714 -0.250329 -0.495 177 123 121
0.089679 -0.249317 -0.493 174 121 117
0.0904343 -0.248811 -0.492 174 121 117
0.0975333 -0.2478 -0.49 169 116 112
0.102923 -0.247294 -0.489 158 103 100
0.1134 -0.2478 -0.49 126 81 76
0.115502 -0.248306 -0.491 126 83 77
0.119486 -0.248811 -0.492 119 76 70
0.129905 -0.250834 -0.496 118 74 73
0.135714 -0.252857 -0.5 119 75 76
0.142162 -0.255891 -0.506 114 72 73
0.145913 -0.257409 -0.509 113 71 73
0.161993 -0.261454 -0.517 116 74 75
0.165267 -0.26196 -0.518 124 80 81
0.174168 -0.264994 -0.524 118 73 70
0.2451 -0.326186 -0.645 203 205 226
0.418813 -0.314554 -0.622 117 89 85
0.417614 -0.311014 -0.615 121 92 88
0.41397 -0.299889 -0.593 124 84 85
0.41272 -0.29736 -0.588 122 82 83
0.438294 -0.271569 -0.537 147 98 83
0.446667 -0.271063 -0.536 148 100 80
0.460114 -0.267017 -0.528 162 107 87
0.46112 -0.267017 -0.528 164 108 91
0.478217 -0.267017 -0.528 159 104 84
0.633548 -0.328209 -0.649 214 214 216
0.957667 -0.328714 -0.65 212 214 203
0.987381 -0.328714 -0.65 212 214 201
0.994809 -0.328714 -0.65 212 214 200
1.018 -0.328209 -0.649 210 212 199
1.09744 -0.327197 -0.647 206 209 192
1.0999 -0.327197 -0.647 206 209 192
1.11592 -0.327197 -0.647 206 209 192
1.14087 -0.325174 -0.643 203 205 191
1.1422 -0.324163 -0.641 203 205 191
-0.139659 -0.327922 -0.646 98 101 106
-0.101164 -0.311678 -0.614 97 98 102
-0.0961571 -0.322338 -0.635 78 79 84
-0.08932 -0.323861 -0.638 51 50 56
0.0796514 -0.267008 -0.526 184 140 141
0.089679 -0.250256 -0.493 175 122 118
0.108733 -0.248733 -0.49 146 93 87
0.165267 -0.262947 -0.518 124 80 81
0.174168 -0.265992 -0.524 115 72 66
0.17919 -0.269038 -0.53 99 67 70
0.247092 -0.32843 -0.647 218 220 235
0.423671 -0.320308 -0.631 140 125 130
0.415372 -0.297972 -0.587 124 83 79
0.419571 -0.27919 -0.55 141 93 81
0.424309 -0.278175 -0.548 145 97 87
0.429252 -0.276652 -0.545 150 100 89
0.429746 -0.275637 -0.543 152 103 89
0.457963 -0.26853 -0.529 162 107 87
0.460114 -0.268023 -0.528 159 103 86
0.480229 -0.268023 -0.528 160 105 85
0.944048 -0.329952 -0.65 213 215 202
0.992333 -0.329952 -0.65 211 213 199
0.99792 -0.328937 -0.648 211 213 200
1.00039 -0.328937 -0.648 211 213 200
1.00903 -0.328937 -0.648 209 211 198
1.0152 -0.328937 -0.648 209 211 197
1.02913 -0.329445 -0.649 209 211 197
1.03371 -0.328937 -0.648 209 211 197
1.04112 -0.328937 -0.648 209 212 195
1.07156 -0.32843 -0.647 207 209 195
1.07815 -0.328937 -0.648 207 209 195
1.08265 -0.32843 -0.647 206 208 194
1.09451 -0.327922 -0.646 207 210 193
1.12332 -0.32843 -0.647 204 207 190
1.13142 -0.327922 -0.646 204 206 192
1.14164 -0.324876 -0.64 201 203 189
-0.104657 -0.302657 -0.594 115 116 121
-0.0978 -0.321 -0.63 81 82 86
-0.0929657 -0.325076 -0.638 68 69 74
-0.0905352 -0.325076 -0.638 55 55 63
-0.0771676 -0.325076 -0.638 49 48 56
-0.0658305 -0.329152 -0.646 65 65 73
0.0872143 -0.252214 -0.495 174 123 120
0.0977324 -0.250176 -0.491 170 115 112
0.115737 -0.250686 -0.492 127 82 77
0.150969 -0.261386 -0.513 102 66 66
0.160024 -0.263424 -0.517 106 66 66
0.166574 -0.264443 -0.519 121 79 80
0.17317 -0.26699 -0.524 111 73 72
0.176169 -0.268519 -0.527 109 68 64
0.18122 -0.271576 -0.533 88 63 69
0.428479 -0.32151 -0.631 121 105 116
0.428319 -0.32049 -0.629 107 90 100
0.424442 -0.30979 -0.608 121 84 76
0.414564 -0.291448 -0.572 129 84 79
0.4142 -0.290429 -0.57 129 84 79
0.413829 -0.28941 -0.568 127 82 76
0.421384 -0.280748 -0.551 140 92 82
0.431329 -0.27769 -0.545 151 102 88
0.432849 -0.276671 -0.543 154 102 89
0.43911 -0.274124 -0.538 146 94 80
0.447688 -0.273105 -0.536 150 99 82
0.514469 -0.277181 -0.544 164 115 98
0.937857 -0.33119 -0.65 214 216 203
0.939095 -0.33119 -0.65 214 216 203
0.95519 -0.33119 -0.65 212 214 203
0.956429 -0.33119 -0.65 213 215 204
0.967319 -0.330681 -0.649 212 214 201
0.978445 -0.330681 -0.649 212 214 201
0.980917 -0.330681 -0.649 212 214 201
0.990514 -0.330171 -0.648 210 212 198
0.992983 -0.330171 -0.648 210 212 199
0.994217 -0.330171 -0.648 210 212 199
1.0087 -0.329662 -0.647 210 212 199
1.02878 -0.330171 -0.648 209 211 197
1.03458 -0.329662 -0.647 208 210 196
1.03951 -0.329662 -0.647 208 211 194
1.05636 -0.329152 -0.646 206 208 194
1.0699 -0.329152 -0.646 207 209 196
1.08758 -0.329662 -0.647 206 209 192
1.09527 -0.328643 -0.645 206 209 192
1.1105 -0.329152 -0.646 204 207 190
1.11493 -0.328643 -0.645 205 208 191
1.12527 -0.329152 -0.646 204 206 192
1.13336 -0.328643 -0.645 204 206 192
1.13283 -0.328133 -0.644 203 205 191
1.13896 -0.328133 -0.644 203 206 189
-0.11816 -0.30072 -0.588 108 109 114
-0.109382 -0.298163 -0.583 99 99 107
-0.106778 -0.300209 -0.587 65 65 73
-0.10602 -0.301231 -0.589 107 108 113
-0.105432 -0.302766 -0.592 167 168 173
-0.102491 -0.310949 -0.608 108 107 112
-0.0794733 -0.32578 -0.637 49 48 56
-0.0748543 -0.326803 -0.639 46 45 53
0.0796962 -0.272591 -0.533 183 137 139
0.0864457 -0.253669 -0.496 174 123 120
0.0996029 -0.251111 -0.491 167 114 108
0.105933 -0.2506 -0.49 152 102 95
0.1078 -0.2506 -0.49 145 94 90
0.144374 -0.259294 -0.507 111 70 68
0.149699 -0.261851 -0.512 106 66 64
0.1548 -0.263897 -0.516 98 60 59
0.160024 -0.264409 -0.517 108 68 68
0.18122 -0.272591 -0.533 89 67 70
0.431846 -0.318109 -0.622 103 86 96
0.431638 -0.317086 -0.62 116 87 89
0.428552 -0.308903 -0.604 120 85 83
0.423114 -0.301743 -0.59 124 84 82
0.415211 -0.288446 -0.564 128 83 78
0.417919 -0.285889 -0.559 136 89 83
0.425582 -0.281797 -0.551 142 94 84
0.435149 -0.277194 -0.542 148 98 87
0.440743 -0.276171 -0.54 144 92 79
0.45897 -0.270546 -0.529 161 105 88
0.4734 -0.269011 -0.526 167 112 91
0.474402 -0.269011 -0.526 164 109 88
0.484161 -0.270546 -0.529 161 106 86
0.501711 -0.274637 -0.537 159 104 84
0.520431 -0.279751 -0.547 167 124 105
0.63112 -0.32936 -0.644 215 213 216
0.636274 -0.331406 -0.648 215 213 216
0.925289 -0.331917 -0.649 214 216 203
0.935178 -0.331917 -0.649 213 215 202
0.953721 -0.331917 -0.649 213 215 204
0.980917 -0.331917 -0.649 212 214 201
0.986811 -0.331406 -0.648 211 213 199
0.992683 -0.330894 -0.647 210 212 199
1.03422 -0.330383 -0.646 208 211 194
1.04037 -0.330383 -0.646 208 210 196
1.0416 -0.330383 -0.646 209 211 197
1.04652 -0.330383 -0.646 208 211 194
1.05841 -0.329871 -0.645 207 209 196
1.06252 -0.330383 -0.646 208 210 197
1.0859 -0.330383 -0.646 207 210 193
1.08744 -0.32936 -0.644 207 210 193
1.11861 -0.329871 -0.645 206 209 192
1.12107 -0.329871 -0.645 204 206 192
1.12792 -0.32936 -0.644 203 205 191
1.14154 -0.328337 -0.642 202 204 190
1.14286 -0.327314 -0.64 202 204 190
-0.114737 -0.29876 -0.582 110 111 115
-0.104833 -0.305433 -0.595 187 186 192
-0.0704238 -0.330073 -0.643 56 55 63
0.082381 -0.256667 -0.5 178 127 123
0.111761 -0.252047 -0.491 137 86 82
0.169201 -0.267447 -0.521 116 79 73
0.1745 -0.2695 -0.525 109 71 70
0.437852 -0.330073 -0.643 92 99 128
0.438248 -0.328533 -0.64 149 159 195
0.437931 -0.32648 -0.636 139 145 181
0.426073 -0.283873 -0.553 141 93 83
0.45635 -0.273607 -0.533 157 101 88
0.45752 -0.273093 -0.532 157 101 88
0.458829 -0.272067 -0.53 159 103 86
0.462126 -0.27104 -0.528 166 110 93
0.462254 -0.270527 -0.527 166 111 91
0.465266 -0.270527 -0.527 170 115 94
0.51361 -0.278227 -0.542 172 125 107
0.93744 -0.33264 -0.648 213 215 202
0.968297 -0.33264 -0.648 212 214 201
0.982824 -0.332127 -0.647 211 213 199
1.00345 -0.331613 -0.646 210 212 199
1.00468 -0.331613 -0.646 210 212 199
1.02806 -0.331613 -0.646 209 211 197
1.03261 -0.3311 -0.645 209 211 197
1.10707 -0.330587 -0.644 206 209 192
1.11811 -0.330587 -0.644 204 207 190
1.1422 -0.329047 -0.641 204 206 192
-0.11816 -0.30296 -0.588 112 111 117
0.0908019 -0.254528 -0.494 172 121 117
0.0960571 -0.253497 -0.492 168 115 111
0.0996029 -0.252982 -0.491 167 112 107
0.10615 -0.252982 -0.491 151 98 94
0.10802 -0.252982 -0.491 144 93 89
0.121853 -0.254528 -0.494 121 76 70
0.122794 -0.254528 -0.494 121 76 70
0.160697 -0.265863 -0.516 112 72 73
0.170193 -0.268439 -0.521 112 75 69
0.193636 -0.285442 -0.554 239 238 244
0.243871 -0.332329 -0.645 250 251 255
0.442063 -0.330783 -0.642 139 148 177
0.4422 -0.3246 -0.63 86 109 163
0.42174 -0.29214 -0.567 124 81 74
0.421982 -0.290079 -0.563 127 87 79
0.426437 -0.288018 -0.559 129 86 80
0.437557 -0.280805 -0.545 146 94 83
0.44362 -0.278744 -0.541 143 91 78
0.450193 -0.277713 -0.539 144 92 78
0.454834 -0.276168 -0.536 154 98 83
0.458683 -0.273591 -0.531 161 105 88
0.46112 -0.272046 -0.528 164 109 89
0.506745 -0.277198 -0.538 164 114 91
0.952014 -0.333359 -0.647 212 214 203
1.01296 -0.332329 -0.645 210 212 199
1.02647 -0.332329 -0.645 208 210 196
1.02929 -0.332844 -0.646 208 210 196
1.03753 -0.332329 -0.645 209 212 195
1.04696 -0.331813 -0.644 208 211 194
1.06168 -0.331813 -0.644 206 208 194
1.0764 -0.331813 -0.644 207 209 195
1.07763 -0.331813 -0.644 207 209 195
1.08008 -0.331813 -0.644 207 209 195
1.09018 -0.330783 -0.642 205 208 191
1.10045 -0.331298 -0.643 205 207 193
1.10902 -0.331298 -0.643 205 207 193
1.11147 -0.331298 -0.643 205 207 193
1.12372 -0.331298 -0.643 204 206 192
1.12494 -0.331298 -0.643 204 206 192
1.14357 -0.328207 -0.637 201 203 189
-0.135287 -0.32942 -0.637 96 96 104
-0.11252 -0.300977 -0.582 108 109 113
-0.10638 -0.305631 -0.591 105 103 116
-0.0982657 -0.327351 -0.633 93 92 98
-0.08554 -0.32942 -0.637 42 41 47
-0.0738676 -0.331489 -0.641 40 39 45
0.0787429 -0.268914 -0.52 178 132 132
0.0806371 -0.262191 -0.507 176 126 125
0.081281 -0.261157 -0.505 176 125 122
0.0908019 -0.255469 -0.494 172 121 117
0.0988686 -0.254434 -0.492 168 113 108
0.113863 -0.254434 -0.492 136 87 82
0.11785 -0.254951 -0.493 131 84 78
0.122794 -0.255469 -0.494 122 77 71
0.126558 -0.255469 -0.494 123 78 73
0.12844 -0.255469 -0.494 122 79 73
0.14409 -0.261674 -0.506 109 68 66
0.155783 -0.266846 -0.516 102 62 62
0.191538 -0.284946 -0.551 234 233 239
0.446258 -0.331489 -0.641 99 112 165
0.446781 -0.330971 -0.64 108 121 174
0.425309 -0.292703 -0.566 127 84 77
0.427655 -0.290634 -0.562 126 82 73
0.430503 -0.287531 -0.556 135 88 78
0.438176 -0.284946 -0.551 140 90 79
0.457365 -0.275637 -0.533 158 102 85
0.459547 -0.27512 -0.532 161 105 88
0.4725 -0.2715 -0.525 171 116 95
0.527563 -0.283911 -0.549 172 123 106
0.628654 -0.330454 -0.639 214 216 215
0.942155 -0.334591 -0.647 211 213 200
0.94955 -0.334591 -0.647 212 214 201
0.954479 -0.334591 -0.647 212 214 203
0.975152 -0.334074 -0.646 211 213 200
0.981305 -0.334074 -0.646 210 212 198
0.986227 -0.334074 -0.646 212 214 200
0.987457 -0.334074 -0.646 212 214 200
0.9933 -0.333557 -0.645 211 213 200
1.00035 -0.33304 -0.644 210 212 199
1.00525 -0.33304 -0.644 210 212 199
1.0396 -0.33304 -0.644 208 211 194
1.04411 -0.332523 -0.643 209 212 195
1.04696 -0.33304 -0.644 208 211 194
1.0784 -0.332523 -0.643 207 209 195
-0.135074 -0.330114 -0.636 94 94 102
-0.11252 -0.302086 -0.582 102 103 105
-0.10957 -0.303124 -0.584 98 96 107
-0.107142 -0.305719 -0.589 68 66 80
-0.10382 -0.3161 -0.609 194 194 196
-0.102667 -0.319733 -0.616 159 159 157
0.0786495 -0.273019 -0.526 180 134 134
0.0787429 -0.269905 -0.52 178 132 132
0.0908019 -0.25641 -0.494 171 120 116
0.125617 -0.25641 -0.494 122 79 73
0.137619 -0.259524 -0.5 116 73 67
0.14256 -0.2616 -0.504 110 69 67
0.151946 -0.266271 -0.513 101 61 61
0.175165 -0.273538 -0.527 108 66 70
0.18292 -0.279248 -0.538 105 79 88
0.451461 -0.331152 -0.638 113 122 155
0.428821 -0.30001 -0.578 119 82 76
0.428386 -0.297414 -0.573 120 80 78
0.429066 -0.296376 -0.571 125 82 76
0.431633 -0.292224 -0.563 121 83 74
0.431937 -0.291705 -0.562 126 83 74
0.43446 -0.28911 -0.557 133 86 76
0.440275 -0.285995 -0.551 136 90 77
0.447537 -0.281324 -0.542 135 86 72
0.449602 -0.281324 -0.542 136 87 73
0.450634 -0.281324 -0.542 140 91 76
0.450833 -0.280805 -0.541 141 92 77
0.453086 -0.280286 -0.54 145 93 79
0.46056 -0.276133 -0.532 158 102 85
0.464262 -0.273538 -0.527 172 117 96
0.480413 -0.273019 -0.526 162 110 88
0.483334 -0.273538 -0.527 158 106 84
0.507849 -0.278729 -0.537 169 118 97
0.51282 -0.279767 -0.539 169 120 105
0.520686 -0.282362 -0.544 175 127 107
0.935777 -0.335305 -0.646 213 215 202
0.975152 -0.335305 -0.646 212 214 201
0.99176 -0.334267 -0.644 211 213 200
0.997569 -0.333748 -0.643 211 213 200
1.01261 -0.334267 -0.644 210 212 198
1.01507 -0.334267 -0.644 209 211 197
1.03101 -0.334267 -0.644 208 211 194
1.03837 -0.334267 -0.644 209 212 193
1.04166 -0.333748 -0.643 208 210 196
1.04288 -0.333748 -0.643 209 211 197
1.04411 -0.333748 -0.643 209 212 195
1.05594 -0.333229 -0.642 208 211 194
1.0686 -0.333748 -0.643 207 209 195
1.07183 -0.333229 -0.642 207 210 193
1.0755 -0.333229 -0.642 206 209 192
1.09458 -0.33271 -0.641 206 208 194
1.09825 -0.33271 -0.641 205 208 191
1.11463 -0.333229 -0.642 204 207 190
1.13121 -0.33271 -0.641 203 206 189
1.13243 -0.33271 -0.641 202 205 188
1.1361 -0.33271 -0.641 203 206 189
-0.105967 -0.309967 -0.595 200 198 212
-0.10146 -0.324553 -0.623 159 161 160
-0.0955457 -0.332889 -0.639 104 105 107
-0.0920381 -0.33341 -0.64 49 50 54
0.090819 -0.33341 -0.64 182 140 142
0.138571 -0.260476 -0.5 114 73 67
0.14256 -0.26256 -0.504 108 67 65
0.150969 -0.267249 -0.513 102 62 62
0.15707 -0.269332 -0.517 101 61 61
0.158054 -0.269332 -0.517 103 63 63
0.456533 -0.33341 -0.64 158 163 183
0.433086 -0.297985 -0.572 119 78 72
0.43815 -0.291212 -0.559 129 85 74
0.441357 -0.289129 -0.555 132 85 75
0.443424 -0.287045 -0.551 129 83 70
0.457897 -0.27923 -0.536 149 96 80
0.464137 -0.275063 -0.528 172 117 97
0.465266 -0.274542 -0.527 172 117 96
0.936786 -0.336014 -0.645 212 214 201
0.97704 -0.335493 -0.644 212 214 200
1.03347 -0.335493 -0.644 209 211 197
1.04288 -0.334972 -0.643 208 210 196
1.04941 -0.33393 -0.641 208 210 196
1.0645 -0.334451 -0.642 208 211 194
1.06694 -0.334451 -0.642 208 211 194
1.06894 -0.33393 -0.641 207 210 193
1.08678 -0.33341 -0.64 206 209 192
1.088 -0.33341 -0.64 206 209 192
1.10557 -0.33393 -0.641 205 208 191
1.12511 -0.33393 -0.641 204 207 190
1.13432 -0.33341 -0.64 202 205 188
-0.127513 -0.322603 -0.617 91 91 99
-0.117836 -0.309531 -0.592 91 89 100
-0.114019 -0.305349 -0.584 93 92 100
-0.111603 -0.304826 -0.583 91 91 99
-0.10674 -0.310054 -0.593 75 71 85
-0.102317 -0.324694 -0.621 177 179 178
-0.09752 -0.332537 -0.636 150 152 151
-0.0918943 -0.334106 -0.639 48 49 51
0.0819171 -0.262997 -0.503 173 122 119
0.0867943 -0.260383 -0.498 171 117 115
0.0883352 -0.259337 -0.496 175 121 119
0.0926838 -0.258291 -0.494 170 117 113
0.0943743 -0.257769 -0.493 169 116 112
0.112926 -0.257246 -0.492 135 86 82
0.138849 -0.261951 -0.501 113 72 66
0.152242 -0.268749 -0.514 98 58 58
0.15707 -0.270317 -0.517 101 61 61
0.158054 -0.270317 -0.517 103 63 63
0.162978 -0.270317 -0.517 114 74 74
0.17784 -0.27816 -0.532 105 66 67
0.185996 -0.284434 -0.544 209 194 199
0.459737 -0.332537 -0.636 180 173 180
0.456086 -0.327309 -0.626 137 120 126
0.437283 -0.302734 -0.579 117 78 73
0.43794 -0.29646 -0.567 120 80 72
0.44854 -0.286003 -0.547 129 81 69
0.454764 -0.283389 -0.542 142 90 77
0.458751 -0.280774 -0.537 147 94 80
0.461717 -0.277637 -0.531 164 111 93
0.462867 -0.277114 -0.53 165 112 94
0.464137 -0.276069 -0.528 166 114 93
0.467389 -0.275023 -0.526 172 117 96
0.46839 -0.275023 -0.526 170 115 94
0.4785 -0.2745 -0.525 165 110 89
0.519804 -0.283389 -0.542 168 122 107
0.936786 -0.337243 -0.645 213 215 202
0.947843 -0.337243 -0.645 212 213 205
0.953986 -0.337243 -0.645 212 214 201
0.957671 -0.337243 -0.645 211 213 200
1.01472 -0.336197 -0.643 210 212 198
1.02329 -0.336197 -0.643 208 211 194
1.02819 -0.336197 -0.643 209 212 195
1.02941 -0.336197 -0.643 208 211 194
1.03799 -0.336197 -0.643 208 210 196
1.03882 -0.335674 -0.642 209 211 197
1.04738 -0.335674 -0.642 207 209 195
1.05918 -0.335151 -0.641 207 210 193
1.07093 -0.334629 -0.64 206 208 194
1.08873 -0.334106 -0.639 206 208 194
1.09531 -0.334629 -0.64 206 208 194
1.10313 -0.335151 -0.641 204 207 190
1.11534 -0.335151 -0.641 206 209 192
1.11778 -0.335151 -0.641 205 208 191
1.12457 -0.334629 -0.64 204 207 190
1.1362 -0.334106 -0.639 204 207 190
0.0779429 -0.277074 -0.528 180 136 137
0.0782886 -0.271302 -0.517 176 130 132
0.0953133 -0.258708 -0.493 169 116 112
0.100009 -0.258708 -0.493 164 111 107
0.10824 -0.258183 -0.492 142 93 89
0.1148 -0.258183 -0.492 136 89 83
0.119729 -0.258708 -0.493 127 82 76
0.1287 -0.259757 -0.495 122 79 72
0.134223 -0.261331 -0.498 120 77 71
0.140082 -0.26343 -0.502 111 70 68
0.153519 -0.270252 -0.515 98 58 58
0.162307 -0.271827 -0.518 111 73 72
0.164597 -0.272351 -0.519 113 75 74
0.168531 -0.273926 -0.522 107 69 68
0.16985 -0.27445 -0.523 104 70 71
0.463351 -0.336372 -0.641 183 177 187
0.442117 -0.299639 -0.571 117 76 70
0.443929 -0.29649 -0.565 122 79 72
0.446129 -0.294391 -0.561 125 81 72
0.448434 -0.289669 -0.552 125 78 68
0.448671 -0.289144 -0.551 124 77 67
0.449721 -0.289144 -0.551 125 78 68
0.45077 -0.289144 -0.551 125 78 68
0.461857 -0.278124 -0.53 162 109 91
0.462867 -0.278124 -0.53 163 110 92
0.46627 -0.27655 -0.527 169 117 95
0.4725 -0.2755 -0.525 162 107 87
0.4735 -0.2755 -0.525 162 107 87
0.475592 -0.274975 -0.524 165 110 89
0.522831 -0.284946 -0.543 164 118 105
0.529733 -0.28757 -0.548 161 118 102
0.9476 -0.337947 -0.644 211 213 202
0.96968 -0.337947 -0.644 212 214 200
0.975813 -0.337947 -0.644 211 213 199
0.976748 -0.337422 -0.643 211 213 199
0.98868 -0.336897 -0.642 211 213 199
0.998129 -0.336372 -0.641 209 211 197
1.01436 -0.336897 -0.642 210 212 198
1.02781 -0.336897 -0.642 208 210 196
1.03759 -0.336897 -0.642 210 213 196
1.04452 -0.336372 -0.641 207 209 195
1.05063 -0.336372 -0.641 207 209 195
1.05185 -0.336372 -0.641 207 209 195
1.0563 -0.335848 -0.64 207 209 195
1.07048 -0.335323 -0.639 205 208 191
1.0863 -0.335323 -0.639 206 208 194
1.0936 -0.335323 -0.639 206 208 194
1.09725 -0.335323 -0.639 204 206 192
1.10507 -0.335848 -0.64 205 208 191
1.11726 -0.335848 -0.64 205 208 191
1.1362 -0.335323 -0.639 204 207 190
1.14056 -0.333749 -0.636 202 205 188
1.14 -0.332174 -0.633 204 206 185
-0.133021 -0.332853 -0.632 80 81 86
-0.110132 -0.309153 -0.587 80 79 87
-0.1092 -0.30968 -0.588 77 76 84
-0.105094 -0.31758 -0.603 223 222 230
-0.102647 -0.328113 -0.623 207 209 204
-0.0854057 -0.33496 -0.636 35 35 45
0.0779019 -0.274393 -0.521 179 133 135
0.07866 -0.27018 -0.513 179 131 131
0.0798286 -0.267547 -0.508 175 125 124
0.0827105 -0.264387 -0.502 175 124 121
0.0962524 -0.259647 -0.493 169 116 112
0.109177 -0.25912 -0.492 142 93 89
0.122794 -0.260173 -0.494 125 80 75
0.127499 -0.260173 -0.494 123 78 73
0.133007 -0.261753 -0.497 120 75 69
