ply
format ascii 1.0
comment Created by Open3D
element vertex 1295
property double x
property double y
property double z
property uchar red
property uchar green
property uchar blue
end_header
0.28458 -0.13446 -0.567 61 48 55
0.29214 -0.13446 -0.567 60 45 52
0.289947 -0.124263 -0.524 137 106 114
0.289834 -0.123789 -0.522 138 107 115
0.291695 -0.123314 -0.52 143 112 118
0.30044 -0.12284 -0.518 138 107 113
0.307738 -0.122603 -0.517 138 105 112
0.30949 -0.122129 -0.515 139 106 113
0.316722 -0.121891 -0.514 140 108 113
0.332062 -0.120706 -0.509 93 68 74
0.352538 -0.119757 -0.505 134 103 108
0.359729 -0.120231 -0.507 130 101 105
0.418319 -0.126871 -0.535 200 149 146
0.423414 -0.126871 -0.535 195 146 142
0.264672 -0.135301 -0.566 84 67 73
0.32558 -0.122153 -0.511 137 104 111
0.326553 -0.122153 -0.511 138 105 112
0.33497 -0.121675 -0.509 135 106 111
0.34869 -0.120719 -0.505 135 102 109
0.351576 -0.120719 -0.505 135 104 110
0.356386 -0.120719 -0.505 138 102 112
0.359729 -0.121197 -0.507 131 102 107
0.367632 -0.12287 -0.514 51 29 31
0.268034 -0.135897 -0.564 57 48 49
0.278688 -0.136379 -0.566 62 45 51
0.29592 -0.132042 -0.548 89 68 75
0.293676 -0.125295 -0.52 138 105 112
0.299453 -0.124813 -0.518 139 106 113
0.30044 -0.124813 -0.518 139 106 113
0.319037 -0.123609 -0.513 138 105 112
0.328829 -0.122886 -0.51 78 62 65
0.3298 -0.122886 -0.51 74 58 61
0.359729 -0.122163 -0.507 130 100 108
0.364513 -0.123127 -0.511 69 49 51
0.386532 -0.125536 -0.521 179 123 122
0.389003 -0.125054 -0.519 195 140 137
0.393714 -0.125295 -0.52 181 127 125
0.400735 -0.126259 -0.524 172 119 113
0.278688 -0.137457 -0.566 62 45 51
0.289469 -0.137457 -0.566 60 43 49
0.288949 -0.127257 -0.524 139 108 116
0.292686 -0.126286 -0.52 139 106 113
0.312433 -0.125071 -0.515 141 108 115
0.320014 -0.124586 -0.513 138 105 112
0.322316 -0.124343 -0.512 139 106 113
0.326553 -0.1241 -0.511 137 104 111
0.332062 -0.123614 -0.509 92 67 73
0.373905 -0.126286 -0.52 36 20 21
0.38423 -0.127743 -0.526 102 70 73
0.383768 -0.127257 -0.524 132 86 86
0.389991 -0.126043 -0.519 194 139 136
0.393714 -0.126286 -0.52 181 127 125
0.414725 -0.129443 -0.533 181 131 124
0.42364 -0.129686 -0.534 191 136 133
0.264342 -0.137801 -0.563 83 73 82
0.268034 -0.138046 -0.564 62 56 56
0.269586 -0.13829 -0.565 84 68 78
0.274967 -0.13829 -0.565 63 46 54
0.293262 -0.13829 -0.565 61 44 52
0.290938 -0.130948 -0.535 136 109 116
0.289774 -0.129969 -0.531 139 106 115
0.293111 -0.127031 -0.519 138 105 112
0.295089 -0.127031 -0.519 140 108 113
0.29748 -0.126787 -0.518 138 106 111
0.300845 -0.126542 -0.517 138 107 113
0.319037 -0.125563 -0.513 138 105 112
0.326553 -0.125073 -0.511 137 105 110
0.328829 -0.124829 -0.51 77 56 61
0.332062 -0.124584 -0.509 112 82 90
0.34649 -0.12385 -0.506 131 100 105
0.348417 -0.12385 -0.506 134 103 108
0.34869 -0.123605 -0.505 131 100 105
0.354462 -0.123605 -0.505 133 102 108
0.357091 -0.12385 -0.506 140 102 115
0.377779 -0.128255 -0.524 32 20 22
0.383229 -0.128745 -0.526 73 41 44
0.3845 -0.1285 -0.525 128 84 83
0.385286 -0.127766 -0.522 168 110 109
0.389003 -0.127031 -0.519 192 137 132
0.394705 -0.127276 -0.52 180 126 124
0.266013 -0.138627 -0.562 68 53 60
0.285223 -0.13912 -0.564 62 47 52
0.295966 -0.13912 -0.564 61 44 54
0.298658 -0.138873 -0.563 58 43 50
0.30616 -0.12728 -0.516 138 105 112
0.312433 -0.127033 -0.515 140 107 114
0.312806 -0.126787 -0.514 138 107 113
0.315129 -0.12654 -0.513 138 107 112
0.316106 -0.12654 -0.513 138 107 112
0.319037 -0.12654 -0.513 137 106 112
0.323633 -0.126047 -0.511 138 107 112
0.331092 -0.125553 -0.509 117 88 93
0.341086 -0.125307 -0.508 121 89 92
0.347729 -0.124567 -0.505 135 104 112
0.354462 -0.124567 -0.505 133 103 111
0.367632 -0.126787 -0.514 44 27 33
0.375343 -0.12876 -0.522 45 24 31
0.385028 -0.129007 -0.523 150 95 92
0.263872 -0.139697 -0.562 88 71 77
0.269704 -0.139946 -0.563 61 48 57
0.288446 -0.140194 -0.564 71 56 63
0.290594 -0.140194 -0.564 67 55 59
0.293296 -0.139946 -0.563 67 51 61
0.289714 -0.129257 -0.52 142 109 116
0.29748 -0.12876 -0.518 140 107 114
0.31806 -0.127517 -0.513 137 106 111
0.333031 -0.126523 -0.509 136 105 111
0.347453 -0.125777 -0.506 124 95 100
0.358055 -0.125777 -0.506 135 100 107
0.365227 -0.127269 -0.512 49 34 39
0.385028 -0.130003 -0.523 147 91 90
0.387525 -0.129506 -0.521 178 124 122
0.39098 -0.129009 -0.519 190 135 132
0.392957 -0.129009 -0.519 186 131 128
0.39997 -0.130003 -0.523 179 121 119
0.404269 -0.130749 -0.526 163 113 106
0.273993 -0.141018 -0.563 64 47 55
0.276138 -0.141018 -0.563 63 48 55
0.289007 -0.141018 -0.563 95 83 87
0.293846 -0.140768 -0.562 79 63 73
0.287846 -0.130749 -0.522 139 106 113
0.302814 -0.129496 -0.517 138 105 112
0.303799 -0.129496 -0.517 138 105 112
0.31806 -0.128494 -0.513 138 105 112
0.322316 -0.128244 -0.512 137 106 112
0.355424 -0.12649 -0.505 135 104 110
0.386422 -0.132502 -0.529 91 66 69
0.386024 -0.130999 -0.523 155 101 101
0.266609 -0.141586 -0.561 55 44 48
0.267677 -0.141586 -0.561 62 42 51
0.273507 -0.141838 -0.562 63 46 52
0.294933 -0.141333 -0.56 85 69 79
0.304784 -0.130481 -0.517 137 104 111
0.309109 -0.130229 -0.516 139 106 113
0.30949 -0.129976 -0.515 138 105 112
0.311827 -0.129724 -0.514 140 107 114
0.31806 -0.129471 -0.513 139 106 113
0.324943 -0.128714 -0.51 137 106 112
0.332377 -0.12821 -0.508 134 105 110
0.342053 -0.12821 -0.508 130 101 106
0.342346 -0.127957 -0.507 134 105 110
0.343311 -0.127957 -0.507 134 103 109
0.346209 -0.127957 -0.507 132 101 107
0.41574 -0.134519 -0.533 144 89 84
0.426471 -0.135024 -0.535 170 112 110
0.42851 -0.135024 -0.535 163 108 105
0.2736 -0.1424 -0.56 64 47 53
0.289049 -0.142654 -0.561 74 62 66
0.292254 -0.142654 -0.561 85 68 78
0.28944 -0.136297 -0.536 138 113 119
0.288293 -0.13528 -0.532 146 115 121
0.2941 -0.131974 -0.519 139 106 113
0.299453 -0.13172 -0.518 139 106 113
0.302814 -0.131466 -0.517 137 104 111
0.308126 -0.131211 -0.516 139 106 113
0.310091 -0.131211 -0.516 140 107 114
0.315743 -0.130703 -0.514 139 107 112
0.33528 -0.129177 -0.508 133 104 109
0.343311 -0.128923 -0.507 135 104 110
0.345526 -0.128669 -0.506 134 103 109
0.389922 -0.136806 -0.538 81 66 69
0.38743 -0.134517 -0.529 98 66 69
0.413169 -0.135026 -0.531 145 90 85
0.442971 -0.138331 -0.544 155 104 101
0.262052 -0.144748 -0.565 79 69 78
0.28 -0.143467 -0.56 68 53 60
0.281067 -0.143467 -0.56 62 47 54
0.284824 -0.14321 -0.559 71 55 65
0.285889 -0.14321 -0.559 71 55 65
0.315743 -0.131682 -0.514 138 107 112
0.333031 -0.130401 -0.509 136 105 111
0.334001 -0.130401 -0.509 137 106 112
0.34138 -0.129889 -0.507 136 106 114
0.358763 -0.129889 -0.507 121 91 99
0.391243 -0.137574 -0.537 104 82 84
0.411381 -0.135781 -0.53 158 103 100
0.436036 -0.13783 -0.538 159 103 102
0.263057 -0.144017 -0.558 63 43 52
0.267309 -0.144017 -0.558 63 47 58
0.27156 -0.144017 -0.558 65 48 56
0.272623 -0.144017 -0.558 67 50 58
0.283251 -0.144017 -0.558 68 52 62
0.291151 -0.140146 -0.543 86 67 73
0.312433 -0.132919 -0.515 139 106 113
0.313414 -0.132919 -0.515 137 106 111
0.327857 -0.131629 -0.51 141 111 119
0.342346 -0.130854 -0.507 136 107 112
0.388016 -0.134984 -0.523 150 96 94
0.393187 -0.133693 -0.518 191 136 133
0.399433 -0.134468 -0.521 170 115 112
0.426691 -0.137823 -0.534 169 114 111
0.428726 -0.137823 -0.534 163 107 106
0.431567 -0.138081 -0.535 163 105 104
0.442157 -0.140146 -0.543 144 96 94
0.262802 -0.14612 -0.562 68 61 68
0.262586 -0.14482 -0.557 74 52 64
0.279561 -0.14482 -0.557 74 58 68
0.280622 -0.14482 -0.557 89 73 83
0.291134 -0.13494 -0.519 141 108 115
0.2941 -0.13494 -0.519 137 104 111
0.300845 -0.13442 -0.517 140 107 114
0.327857 -0.1326 -0.51 177 151 160
0.338183 -0.13208 -0.508 127 96 102
0.390359 -0.13858 -0.533 101 69 74
0.38924 -0.13676 -0.526 137 86 83
0.391969 -0.13494 -0.519 185 131 129
0.395923 -0.13494 -0.519 181 125 124
0.4055 -0.1365 -0.525 165 111 109
0.420816 -0.13858 -0.533 158 103 100
0.431567 -0.1391 -0.535 164 108 107
0.272705 -0.145619 -0.556 65 48 58
0.276941 -0.145619 -0.556 65 50 57
0.291745 -0.143524 -0.548 85 72 82
0.303799 -0.135405 -0.517 140 108 113
0.330771 -0.133571 -0.51 146 114 125
0.338183 -0.133048 -0.508 134 103 111
0.344277 -0.132786 -0.507 135 108 113
0.3535 -0.132262 -0.505 133 102 108
0.357797 -0.132786 -0.507 123 100 108
0.35947 -0.133048 -0.508 91 68 76
0.404753 -0.145881 -0.557 85 69 72
0.390743 -0.13619 -0.52 188 130 128
0.393187 -0.135667 -0.518 190 137 131
0.421831 -0.139595 -0.533 157 104 100
0.424877 -0.139595 -0.533 164 113 109
0.425892 -0.139595 -0.533 166 115 111
0.264232 -0.146678 -0.556 66 46 55
0.269528 -0.146678 -0.556 66 49 59
0.278557 -0.146414 -0.555 82 69 78
0.2923 -0.145887 -0.553 100 90 101
0.291762 -0.145095 -0.55 103 90 100
0.287401 -0.137972 -0.523 139 108 114
0.289714 -0.137181 -0.52 140 109 115
0.295089 -0.136917 -0.519 140 107 114
0.29748 -0.136653 -0.518 139 106 113
0.30044 -0.136653 -0.518 140 107 114
0.302814 -0.13639 -0.517 138 107 112
0.313785 -0.135598 -0.514 140 108 113
0.323291 -0.13507 -0.512 139 110 115
0.33691 -0.134279 -0.509 131 101 109
0.34869 -0.133224 -0.505 135 104 110
0.390257 -0.137709 -0.522 177 119 118
0.391969 -0.136917 -0.519 187 132 127
0.394173 -0.136653 -0.518 189 134 129
0.396911 -0.136917 -0.519 184 126 125
0.2622 -0.151457 -0.57 88 76 80
0.262114 -0.147737 -0.556 65 49 59
0.2627 -0.147471 -0.555 65 48 56
0.267986 -0.147471 -0.555 68 51 61
0.281221 -0.147206 -0.554 67 54 63
0.287552 -0.147206 -0.554 74 66 79
0.288608 -0.147206 -0.554 70 64 76
0.28674 -0.141094 -0.531 136 106 114
0.323291 -0.136046 -0.512 136 107 112
0.326553 -0.13578 -0.511 233 204 209
0.327857 -0.135514 -0.51 240 224 234
0.33594 -0.135249 -0.509 118 91 100
0.391251 -0.138703 -0.522 181 123 121
0.290714 -0.14719 -0.55 71 65 79
0.288514 -0.144514 -0.54 126 106 117
0.287846 -0.139697 -0.522 141 110 116
0.2941 -0.138894 -0.519 141 108 115
0.300845 -0.138359 -0.517 139 108 114
0.304586 -0.137824 -0.515 138 107 113
0.307529 -0.137824 -0.515 139 108 114
0.310848 -0.137556 -0.514 139 108 114
0.311827 -0.137556 -0.514 139 108 114
0.312806 -0.137556 -0.514 142 105 112
0.317083 -0.137289 -0.513 138 107 112
0.259996 -0.149855 -0.556 62 49 59
0.281257 -0.148777 -0.552 104 98 110
0.28336 -0.148777 -0.552 119 116 137
0.286862 -0.144195 -0.535 133 116 126
0.289714 -0.140152 -0.52 139 108 114
0.291695 -0.140152 -0.52 140 109 115
0.298467 -0.139613 -0.518 140 107 114
0.299453 -0.139613 -0.518 138 107 113
0.302229 -0.139074 -0.516 138 107 113
0.317083 -0.138266 -0.513 138 107 112
0.31806 -0.138266 -0.513 139 108 113
0.321341 -0.137996 -0.512 139 108 114
0.333031 -0.137188 -0.509 123 91 104
0.340118 -0.136918 -0.508 114 85 90
0.344562 -0.136379 -0.506 135 104 112
0.348 -0.13584 -0.504 112 81 89
0.419657 -0.155246 -0.576 75 52 60
0.391244 -0.14177 -0.526 133 91 93
0.396911 -0.139883 -0.519 183 121 122
0.434415 -0.144465 -0.536 165 114 111
0.438086 -0.145004 -0.538 160 109 106
0.272351 -0.149557 -0.551 104 93 107
0.279698 -0.149557 -0.551 104 97 113
0.289129 -0.148471 -0.547 106 107 125
0.288287 -0.141414 -0.521 142 111 117
0.296077 -0.140871 -0.519 140 109 115
0.327857 -0.138429 -0.51 226 215 223
0.337215 -0.137886 -0.508 95 72 78
0.34896 -0.1368 -0.504 127 96 104
0.361593 -0.1387 -0.511 56 37 43
0.393862 -0.145214 -0.535 87 53 54
0.391726 -0.143314 -0.528 116 76 77
0.405171 -0.141686 -0.522 173 118 115
0.411282 -0.142771 -0.526 172 117 114
0.418448 -0.143857 -0.53 159 108 104
0.439927 -0.1463 -0.539 154 105 101
0.259647 -0.151153 -0.553 69 53 64
0.275 -0.150333 -0.55 148 142 156
0.286953 -0.147327 -0.539 134 130 144
0.29748 -0.141587 -0.518 139 108 114
0.299453 -0.141587 -0.518 140 108 113
0.315129 -0.14022 -0.513 139 106 113
0.31806 -0.14022 -0.513 140 107 114
0.320366 -0.139947 -0.512 137 108 113
0.33528 -0.138853 -0.508 116 91 97
0.345805 -0.138033 -0.505 131 104 111
0.391988 -0.144047 -0.527 130 90 91
0.39324 -0.14268 -0.522 180 125 122
0.396147 -0.141587 -0.518 185 121 122
0.401638 -0.142133 -0.52 178 122 121
0.259129 -0.154409 -0.561 94 81 90
0.269271 -0.151106 -0.549 154 139 146
0.277131 -0.15083 -0.548 210 209 225
0.28458 -0.14505 -0.527 137 110 115
0.289714 -0.143124 -0.52 139 108 114
0.290705 -0.143124 -0.52 139 108 114
0.304586 -0.141748 -0.515 138 107 112
0.32266 -0.140647 -0.511 138 109 114
0.330123 -0.140096 -0.509 143 107 117
0.332062 -0.140096 -0.509 116 89 96
0.333031 -0.140096 -0.509 116 89 96
0.34138 -0.139546 -0.507 104 79 85
0.342634 -0.13927 -0.506 105 78 85
0.3535 -0.138995 -0.505 137 106 114
0.394705 -0.143124 -0.52 179 126 122
0.42126 -0.146151 -0.531 143 92 88
0.431777 -0.146977 -0.534 164 113 110
0.265089 -0.152151 -0.549 107 87 99
0.270869 -0.151874 -0.548 203 197 207
0.283394 -0.151874 -0.548 249 250 255
0.299453 -0.14356 -0.518 140 109 115
0.313174 -0.142174 -0.513 140 111 116
0.31806 -0.142174 -0.513 140 109 115
0.322316 -0.141897 -0.512 139 107 112
0.340414 -0.140511 -0.507 126 99 104
0.393405 -0.147717 -0.533 93 58 64
0.393479 -0.144391 -0.521 180 125 122
0.397133 -0.14356 -0.518 180 120 120
0.422271 -0.147163 -0.531 146 92 92
0.258708 -0.153755 -0.551 88 72 82
0.284946 -0.151523 -0.543 143 144 162
0.284927 -0.150965 -0.541 146 147 165
0.284114 -0.147337 -0.528 144 118 121
0.292123 -0.144826 -0.519 139 110 115
0.29986 -0.144268 -0.517 139 108 113
0.312806 -0.14343 -0.514 137 108 113
0.320366 -0.142872 -0.512 137 107 115
0.323633 -0.142593 -0.511 138 107 113
0.324607 -0.142593 -0.511 138 107 113
0.326553 -0.142593 -0.511 137 106 114
0.330123 -0.142035 -0.509 135 108 115
0.333031 -0.142035 -0.509 135 105 113
0.334312 -0.141756 -0.508 133 103 111
0.338483 -0.141477 -0.507 133 106 113
0.358503 -0.141756 -0.508 61 40 49
0.423283 -0.148174 -0.531 149 93 94
0.431777 -0.149011 -0.534 165 114 111
0.257743 -0.156771 -0.558 112 105 112
0.26043 -0.153962 -0.548 102 82 91
0.285396 -0.151152 -0.538 161 150 164
0.284317 -0.146376 -0.521 141 111 119
0.295089 -0.145814 -0.519 139 110 115
0.302229 -0.144971 -0.516 137 106 112
0.303605 -0.14469 -0.515 137 108 113
0.31939 -0.143848 -0.512 137 107 115
0.334312 -0.142724 -0.508 138 108 116
0.34608 -0.1416 -0.504 110 87 93
0.355164 -0.142162 -0.506 116 95 100
0.44362 -0.151995 -0.541 148 99 95
0.258238 -0.155571 -0.55 107 87 98
0.269386 -0.154157 -0.545 248 247 253
0.273538 -0.154157 -0.545 227 228 233
0.27769 -0.154157 -0.545 236 239 244
0.283706 -0.150197 -0.531 140 115 121
0.290146 -0.146803 -0.519 139 110 115
0.300845 -0.146237 -0.517 137 106 111
0.303605 -0.145671 -0.515 138 107 113
0.31939 -0.144823 -0.512 137 107 115
0.320366 -0.144823 -0.512 135 105 113
0.324607 -0.14454 -0.511 136 106 114
0.335586 -0.143409 -0.507 132 105 112
0.342919 -0.142843 -0.505 138 107 113
0.394705 -0.147086 -0.52 180 120 119
0.401854 -0.146803 -0.519 159 101 99
0.415075 -0.149066 -0.527 134 84 83
0.419673 -0.149631 -0.529 134 83 82
0.432794 -0.151046 -0.534 160 109 105
0.256819 -0.158328 -0.556 101 94 102
0.25695 -0.157758 -0.554 124 117 125
0.283911 -0.154626 -0.543 198 198 210
0.283896 -0.154056 -0.541 178 177 193
0.285752 -0.148076 -0.52 137 107 115
0.303211 -0.146937 -0.516 138 107 112
0.304586 -0.146652 -0.515 138 107 113
0.311827 -0.146368 -0.514 138 109 114
0.315129 -0.146083 -0.513 140 109 115
0.317083 -0.146083 -0.513 138 107 113
0.326886 -0.145229 -0.51 138 111 118
0.327214 -0.144944 -0.509 134 107 114
0.330123 -0.144944 -0.509 138 108 116
0.348 -0.14352 -0.504 136 111 117
0.352538 -0.143805 -0.505 130 103 110
0.3535 -0.143805 -0.505 134 107 114
0.394471 -0.148361 -0.521 175 117 115
0.408936 -0.14893 -0.523 138 89 84
0.456846 -0.157189 -0.552 158 109 105
0.259955 -0.156807 -0.547 107 84 94
0.266271 -0.156233 -0.545 193 180 190
0.277181 -0.155947 -0.544 212 219 229
0.281326 -0.155947 -0.544 216 218 230
0.283038 -0.150787 -0.526 142 111 117
0.283325 -0.149353 -0.521 139 111 123
0.286743 -0.149067 -0.52 139 109 117
0.291134 -0.14878 -0.519 142 113 118
0.302229 -0.14792 -0.516 139 108 113
0.304194 -0.14792 -0.516 139 108 113
0.314764 -0.147347 -0.514 140 109 115
0.320366 -0.146773 -0.512 138 107 113
0.324607 -0.146487 -0.511 135 105 113
0.330123 -0.145913 -0.509 137 106 114
0.336551 -0.14534 -0.507 134 104 112
0.338779 -0.145053 -0.506 137 106 114
0.34167 -0.145053 -0.506 134 105 110
0.392997 -0.149927 -0.523 169 118 117
0.394234 -0.14964 -0.522 176 121 118
0.401854 -0.14878 -0.519 152 94 92
0.429953 -0.152793 -0.533 162 113 108
0.434624 -0.153367 -0.535 158 109 104
0.448152 -0.155947 -0.544 148 99 95
0.257769 -0.158426 -0.549 132 110 122
0.272534 -0.156694 -0.543 158 165 175
0.276671 -0.156694 -0.543 185 193 206
0.281835 -0.156117 -0.541 196 199 214
0.28718 -0.149769 -0.519 139 110 115
0.307529 -0.148614 -0.515 139 108 114
0.32558 -0.14746 -0.511 137 106 114
0.329153 -0.146883 -0.509 137 106 114
0.334312 -0.146594 -0.508 126 96 104
0.339743 -0.146017 -0.506 136 105 113
0.343881 -0.145729 -0.505 138 107 113
0.34704 -0.14544 -0.504 134 107 112
0.348 -0.14544 -0.504 137 110 115
0.3935 -0.1515 -0.525 163 112 111
0.416079 -0.152077 -0.527 129 80 76
0.426107 -0.15352 -0.532 148 99 94
0.427923 -0.153809 -0.533 155 106 101
0.438294 -0.154963 -0.537 156 107 103
0.26371 -0.158019 -0.544 136 113 123
0.267363 -0.157729 -0.543 169 157 167
0.278227 -0.157438 -0.542 214 222 241
0.279259 -0.157438 -0.542 214 222 241
0.280291 -0.157438 -0.542 197 206 223
0.282322 -0.156276 -0.538 167 171 183
0.2825 -0.1525 -0.525 145 112 119
0.291134 -0.150757 -0.519 141 110 116
0.295089 -0.150757 -0.519 142 111 117
0.301246 -0.149886 -0.516 141 110 115
0.305567 -0.149595 -0.515 139 108 113
0.30791 -0.149305 -0.514 138 107 112
0.324607 -0.148433 -0.511 136 106 114
0.329153 -0.147852 -0.509 130 100 108
0.334312 -0.147562 -0.508 135 108 115
0.34608 -0.1464 -0.504 137 110 115
0.34704 -0.1464 -0.504 134 109 113
0.350614 -0.14669 -0.505 136 107 112
0.368243 -0.150757 -0.519 45 24 31
0.394705 -0.151048 -0.52 179 121 120
0.263226 -0.158763 -0.543 151 125 136
0.279774 -0.158178 -0.541 203 214 234
0.286191 -0.151746 -0.519 139 110 115
0.29748 -0.151453 -0.518 141 110 116
0.298467 -0.151453 -0.518 141 110 116
0.306931 -0.150284 -0.514 138 107 112
0.30791 -0.150284 -0.514 138 107 112
0.310848 -0.150284 -0.514 138 107 113
0.315129 -0.149991 -0.513 177 150 159
0.348 -0.14736 -0.504 132 107 111
0.351576 -0.147652 -0.505 135 106 111
0.352538 -0.147652 -0.505 133 104 109
0.392731 -0.154377 -0.528 119 80 85
0.424294 -0.155254 -0.531 141 87 87
0.436457 -0.156716 -0.536 154 105 100
0.451666 -0.159932 -0.547 152 104 100
0.260123 -0.159797 -0.543 149 127 140
0.264806 -0.159503 -0.542 154 123 138
0.273591 -0.159209 -0.541 143 159 175
0.289157 -0.152734 -0.519 141 108 115
0.291134 -0.152734 -0.519 140 109 115
0.2941 -0.152734 -0.519 143 110 117
0.29748 -0.15244 -0.518 140 111 115
0.30183 -0.152146 -0.517 134 108 111
0.305567 -0.151557 -0.515 140 109 115
0.315129 -0.150969 -0.513 165 148 158
0.31939 -0.150674 -0.512 136 105 113
0.321687 -0.15038 -0.511 134 109 113
0.32266 -0.15038 -0.511 131 106 110
0.325914 -0.150086 -0.51 135 106 110
0.333031 -0.149791 -0.509 215 202 212
0.339743 -0.148909 -0.506 132 100 105
0.355164 -0.148909 -0.506 64 43 48
0.40716 -0.153617 -0.522 139 86 82
0.424294 -0.156266 -0.531 137 86 83
0.447329 -0.159797 -0.543 142 91 87
-0.131857 -0.192524 -0.65 192 191 186
0.27874 -0.159647 -0.539 206 215 232
0.280748 -0.158462 -0.535 115 128 137
0.2812 -0.157573 -0.532 124 137 146
0.281424 -0.154908 -0.523 142 112 120
0.291134 -0.153723 -0.519 133 104 109
0.298054 -0.153723 -0.519 144 112 117
0.29986 -0.15313 -0.517 137 111 114
0.30183 -0.15313 -0.517 139 110 114
0.302229 -0.152834 -0.516 141 112 116
0.3925 -0.1555 -0.525 144 100 101
0.402629 -0.154019 -0.52 140 87 83
0.405388 -0.154315 -0.521 134 81 77
-0.127749 -0.193166 -0.648 198 195 190
0.263829 -0.160971 -0.54 142 114 128
0.267943 -0.160971 -0.54 119 106 115
0.278223 -0.160375 -0.538 177 191 204
0.284214 -0.154711 -0.519 141 110 118
0.300845 -0.154115 -0.517 141 112 116
0.30889 -0.153221 -0.514 140 107 114
0.324607 -0.152327 -0.511 135 105 115
0.326553 -0.152327 -0.511 137 110 117
0.34704 -0.15024 -0.504 143 113 121
0.350614 -0.150538 -0.505 137 110 117
0.396456 -0.155308 -0.521 176 118 116
0.403619 -0.15501 -0.52 135 82 78
0.422486 -0.15799 -0.53 127 77 76
0.424294 -0.158289 -0.531 137 87 86
0.431984 -0.158885 -0.533 154 103 100
0.462274 -0.165741 -0.556 152 104 100
-0.133713 -0.1941 -0.647 190 190 182
-0.132686 -0.1944 -0.648 192 192 184
0.264367 -0.1617 -0.539 135 107 119
0.267943 -0.162 -0.54 113 93 102
0.280622 -0.1587 -0.529 131 105 116
0.2805 -0.1575 -0.525 147 118 123
0.282332 -0.1563 -0.521 141 112 117
0.291134 -0.1557 -0.519 137 110 115
0.299453 -0.1554 -0.518 139 114 118
0.307529 -0.1545 -0.515 138 109 114
0.312806 -0.1542 -0.514 138 108 116
0.320713 -0.1533 -0.511 136 109 114
0.321687 -0.1533 -0.511 133 106 113
0.334312 -0.1524 -0.508 178 168 177
0.339743 -0.1518 -0.506 137 106 112
0.39294 -0.1593 -0.531 105 75 77
0.410716 -0.1572 -0.524 125 74 71
0.41529 -0.1578 -0.526 137 86 83
0.424294 -0.1593 -0.531 134 84 83
0.430969 -0.1599 -0.533 154 103 99
0.466667 -0.168 -0.56 151 100 96
-0.134946 -0.195332 -0.647 191 188 181
-0.127749 -0.195634 -0.648 195 195 187
0.276687 -0.162727 -0.539 184 196 208
0.292123 -0.156689 -0.519 139 110 115
0.29986 -0.156085 -0.517 134 113 118
0.306548 -0.155481 -0.515 135 110 116
0.309869 -0.155179 -0.514 136 107 112
0.320366 -0.154575 -0.512 135 108 113
0.34512 -0.15216 -0.504 139 109 117
0.39321 -0.16001 -0.53 105 75 77
0.425306 -0.160311 -0.531 145 94 90
0.27105 -0.16345 -0.538 55 66 68
0.287733 -0.157981 -0.52 136 113 119
0.289157 -0.157677 -0.519 136 113 119
0.291134 -0.157677 -0.519 136 113 121
0.316106 -0.155854 -0.513 129 116 126
0.31744 -0.15555 -0.512 151 135 148
0.342919 -0.153424 -0.505 137 112 116
0.392667 -0.161627 -0.532 97 70 75
0.3922 -0.161019 -0.53 104 74 76
0.422486 -0.161019 -0.53 131 80 79
0.429147 -0.161627 -0.532 155 106 99
-0.125473 -0.198409 -0.649 195 197 186
0.265926 -0.164474 -0.538 125 105 114
0.2795 -0.1605 -0.525 137 110 117
0.29748 -0.15836 -0.518 202 202 210
0.299453 -0.15836 -0.518 175 169 181
0.311827 -0.157137 -0.514 131 106 110
0.31549 -0.156526 -0.512 201 185 198
0.325914 -0.155914 -0.51 212 191 198
0.331092 -0.155609 -0.509 222 221 235
0.344843 -0.154386 -0.505 137 110 117
0.39499 -0.159889 -0.523 179 123 122
0.397676 -0.158971 -0.52 169 113 112
0.41529 -0.160806 -0.526 135 81 79
0.417083 -0.161111 -0.527 135 81 79
0.431984 -0.162946 -0.533 156 107 100
0.2556 -0.166114 -0.54 155 131 144
0.256703 -0.165499 -0.538 140 114 127
0.26134 -0.165191 -0.537 141 115 126
0.265431 -0.165191 -0.537 119 100 106
0.2795 -0.1615 -0.525 141 110 118
0.282332 -0.16027 -0.521 131 109 111
0.291134 -0.159654 -0.519 113 110 117
0.292123 -0.159654 -0.519 114 111 118
0.310243 -0.157809 -0.513 132 107 111
0.318767 -0.157193 -0.511 134 110 123
0.333031 -0.156578 -0.509 221 223 236
0.4125 -0.1615 -0.525 138 84 82
0.425306 -0.163346 -0.531 147 98 93
0.457286 -0.16919 -0.55 151 100 96
0.251951 -0.167452 -0.541 128 102 113
0.277147 -0.164667 -0.532 85 79 83
0.277637 -0.164357 -0.531 91 85 89
0.282332 -0.161262 -0.521 138 115 121
0.30616 -0.159714 -0.516 143 125 139
0.310243 -0.158786 -0.513 133 108 112
0.313174 -0.158786 -0.513 224 206 218
0.31682 -0.158167 -0.511 135 114 123
0.327857 -0.157857 -0.51 222 224 237
0.333031 -0.157548 -0.509 223 221 235
0.394881 -0.165595 -0.535 93 63 71
0.420681 -0.163738 -0.529 136 81 84
0.460833 -0.171167 -0.553 154 96 94
-0.148961 -0.202117 -0.649 187 184 179
-0.142685 -0.200249 -0.643 187 187 179
-0.127946 -0.202117 -0.649 198 198 188
0.250921 -0.168483 -0.541 127 99 111
0.270042 -0.166926 -0.536 114 97 103
0.276652 -0.165991 -0.533 103 92 96
0.30044 -0.16132 -0.518 110 120 129
0.32558 -0.15914 -0.511 180 173 180
0.327527 -0.15914 -0.511 223 222 236
0.331743 -0.158829 -0.51 225 221 236
0.334001 -0.158517 -0.509 223 221 235
0.343881 -0.157271 -0.505 110 85 91
0.395619 -0.166926 -0.536 93 63 71
0.40716 -0.162566 -0.522 144 93 90
0.437681 -0.166614 -0.535 147 96 92
0.447537 -0.168794 -0.542 143 92 88
0.450225 -0.169417 -0.544 146 95 91
-0.136561 -0.201473 -0.643 190 190 182
0.24932 -0.169827 -0.542 129 99 109
0.25731 -0.167633 -0.535 138 108 118
0.265983 -0.16732 -0.534 117 96 103
0.2785 -0.1645 -0.525 142 120 123
0.283771 -0.162933 -0.52 136 114 117
0.290146 -0.16262 -0.519 105 109 118
0.300845 -0.161993 -0.517 97 111 120
0.30183 -0.161993 -0.517 88 102 111
0.313174 -0.16074 -0.513 155 135 147
0.316465 -0.160427 -0.512 144 121 131
0.326553 -0.160113 -0.511 235 228 235
0.338183 -0.159173 -0.508 223 219 233
0.339743 -0.158547 -0.506 185 181 195
0.340707 -0.158547 -0.506 147 128 132
0.347729 -0.158233 -0.505 138 115 121
0.360077 -0.16074 -0.513 60 45 50
0.398211 -0.16356 -0.522 161 112 105
0.263454 -0.168022 -0.533 149 122 131
0.273607 -0.168022 -0.533 109 88 95
0.2775 -0.1655 -0.525 149 128 133
0.27797 -0.165185 -0.524 145 124 129
0.283226 -0.163609 -0.519 134 112 115
0.293533 -0.163293 -0.518 137 149 161
0.31122 -0.161717 -0.513 175 152 158
0.314514 -0.161402 -0.512 174 156 168
0.324943 -0.160771 -0.51 217 212 219
0.331092 -0.160456 -0.509 223 221 235
0.395749 -0.166446 -0.528 155 110 107
0.399206 -0.164554 -0.522 163 110 104
0.4125 -0.1655 -0.525 135 81 79
0.414288 -0.165815 -0.526 137 83 81
0.41888 -0.166446 -0.528 135 81 79
0.251665 -0.169989 -0.536 130 100 110
0.255271 -0.169671 -0.535 132 102 110
0.256348 -0.169037 -0.533 131 100 108
0.271067 -0.16872 -0.532 119 92 101
0.278435 -0.165866 -0.523 138 117 122
0.282781 -0.164914 -0.52 136 116 118
0.291134 -0.164597 -0.519 192 205 214
0.345805 -0.160157 -0.505 138 113 119
0.396003 -0.167134 -0.527 162 116 116
0.40638 -0.165231 -0.521 132 81 78
0.4125 -0.1665 -0.525 132 81 78
0.426317 -0.168403 -0.531 156 103 99
0.427329 -0.168403 -0.531 163 110 106
0.252214 -0.17069 -0.535 130 99 107
0.254252 -0.17069 -0.535 129 98 106
0.274576 -0.168776 -0.529 123 96 103
0.30616 -0.164629 -0.516 157 161 172
0.309266 -0.163671 -0.513 129 116 123
0.315847 -0.163033 -0.511 133 109 122
0.40478 -0.174519 -0.547 92 65 70
0.399206 -0.166543 -0.522 161 106 101
0.399433 -0.166224 -0.521 157 102 97
0.406166 -0.166543 -0.522 132 83 79
0.424505 -0.169095 -0.53 150 97 93
-0.138794 -0.206051 -0.642 191 191 183
0.24702 -0.172351 -0.537 131 98 107
0.254794 -0.171389 -0.534 130 99 107
0.275973 -0.168179 -0.524 146 121 127
0.316465 -0.164328 -0.512 134 110 123
0.324607 -0.164007 -0.511 199 175 189
0.333345 -0.163044 -0.508 226 220 234
0.35173 -0.163044 -0.508 94 75 81
0.397733 -0.170747 -0.532 126 94 95
0.41909 -0.169142 -0.527 135 84 83
0.449602 -0.173956 -0.542 154 101 97
-0.149333 -0.206629 -0.64 184 183 178
-0.132686 -0.209211 -0.648 192 193 185
-0.130619 -0.209857 -0.65 193 194 186
0.248138 -0.172729 -0.535 131 98 107
0.249157 -0.172729 -0.535 130 97 104
0.25992 -0.17176 -0.532 128 101 106
0.278363 -0.168209 -0.521 138 113 116
0.28179 -0.167886 -0.52 134 114 116
0.288724 -0.167886 -0.52 194 197 202
0.312197 -0.165626 -0.513 220 206 221
0.331092 -0.164334 -0.509 225 221 236
0.337215 -0.164011 -0.508 223 219 233
0.342634 -0.163366 -0.506 112 93 97
0.350071 -0.163689 -0.507 123 100 108
0.354086 -0.164657 -0.51 59 40 46
0.39776 -0.170469 -0.528 165 118 112
0.3975 -0.1695 -0.525 170 123 115
0.422696 -0.170791 -0.529 137 86 83
0.446087 -0.17402 -0.539 152 99 93
0.276443 -0.16985 -0.523 141 116 120
0.300845 -0.167902 -0.517 213 215 228
0.303799 -0.167902 -0.517 194 196 208
0.313174 -0.166603 -0.513 211 195 205
0.328184 -0.165304 -0.509 228 220 235
0.342634 -0.16433 -0.506 114 89 95
0.3985 -0.1705 -0.525 169 118 114
0.417293 -0.170825 -0.526 136 85 84
0.423704 -0.171799 -0.529 144 89 84
0.435227 -0.172773 -0.532 151 98 92
0.247311 -0.17934 -0.549 132 99 106
0.257409 -0.17346 -0.531 131 100 105
0.260962 -0.173133 -0.53 132 101 106
0.274021 -0.171827 -0.526 137 108 113
0.276443 -0.170847 -0.523 141 114 119
0.276909 -0.17052 -0.522 139 114 118
0.285752 -0.169867 -0.52 133 110 120
0.286743 -0.169867 -0.52 129 106 116
0.289714 -0.169867 -0.52 132 139 147
0.306548 -0.168233 -0.515 204 203 211
0.32266 -0.166927 -0.511 130 106 119
0.332062 -0.166273 -0.509 155 139 150
0.345526 -0.165293 -0.506 133 107 116
0.462315 -0.179993 -0.551 147 97 90
-0.133095 -0.213571 -0.65 193 193 183
0.245997 -0.176443 -0.537 131 98 105
0.260962 -0.174143 -0.53 132 101 106
0.265 -0.174143 -0.53 134 103 109
0.289714 -0.170857 -0.52 132 139 147
0.296077 -0.170529 -0.519 199 196 213
0.298467 -0.1702 -0.518 195 199 210
0.305567 -0.169214 -0.515 183 182 190
0.326886 -0.167571 -0.51 164 151 161
0.338779 -0.166257 -0.506 132 116 126
0.342634 -0.166257 -0.506 119 96 104
0.347453 -0.166257 -0.506 131 108 116
0.3975 -0.1725 -0.525 162 113 106
0.4125 -0.1725 -0.525 136 82 80
0.417293 -0.172829 -0.526 140 86 84
0.420891 -0.173486 -0.528 138 84 82
0.42975 -0.173814 -0.529 159 104 101
-0.159583 -0.212166 -0.642 180 179 174
0.247674 -0.176474 -0.534 132 99 106
0.268023 -0.174491 -0.528 133 102 107
0.274975 -0.17317 -0.524 140 110 118
0.295089 -0.171517 -0.519 192 194 207
0.305567 -0.170195 -0.515 214 214 222
0.316465 -0.169204 -0.512 131 107 120
0.326886 -0.168543 -0.51 136 115 124
0.338779 -0.167221 -0.506 132 111 120
0.339743 -0.167221 -0.506 135 114 123
0.34167 -0.167221 -0.506 132 111 120
0.342634 -0.167221 -0.506 128 107 116
0.42975 -0.174822 -0.529 162 107 104
-0.156158 -0.212059 -0.638 181 181 173
-0.139443 -0.214386 -0.645 190 190 182
0.247163 -0.183142 -0.551 129 98 106
0.264 -0.175497 -0.528 132 101 107
0.273977 -0.174168 -0.524 136 105 111
0.276443 -0.173835 -0.523 143 112 118
0.282781 -0.172838 -0.52 140 113 120
0.30183 -0.171841 -0.517 232 231 245
0.33141 -0.16885 -0.508 135 114 123
0.332377 -0.16885 -0.508 135 114 123
0.398739 -0.174168 -0.524 163 116 108
0.406944 -0.173835 -0.523 137 83 81
0.424914 -0.175497 -0.528 163 110 106
0.432581 -0.176162 -0.53 158 105 99
0.434409 -0.176494 -0.531 153 100 94
-0.137623 -0.216617 -0.648 190 190 182
0.247674 -0.178509 -0.534 131 100 108
0.257933 -0.177171 -0.53 133 102 108
0.261477 -0.176837 -0.529 132 101 107
0.276443 -0.174831 -0.523 144 113 119
0.277903 -0.174497 -0.522 141 111 119
0.278363 -0.174163 -0.521 142 112 120
0.31939 -0.171154 -0.512 130 104 117
0.326886 -0.170486 -0.51 131 111 120
0.33528 -0.169817 -0.508 132 112 121
0.338483 -0.169483 -0.507 133 113 122
0.402967 -0.18018 -0.539 127 92 96
0.398739 -0.175166 -0.524 163 116 110
0.399737 -0.175166 -0.524 157 110 104
-0.296524 -0.218524 -0.65 254 255 249
0.246266 -0.184569 -0.549 133 100 109
0.248226 -0.17919 -0.533 131 100 108
0.26801 -0.176836 -0.526 134 103 109
0.279355 -0.175155 -0.521 141 114 121
0.290146 -0.174483 -0.519 134 144 154
0.293111 -0.174483 -0.519 161 171 183
0.304586 -0.173138 -0.515 190 192 204
0.30851 -0.173138 -0.515 135 121 134
0.312197 -0.172466 -0.513 219 203 214
0.323 -0.171457 -0.51 131 109 121
0.347174 -0.170449 -0.507 129 109 118
0.39976 -0.178853 -0.532 151 107 108
0.3995 -0.1765 -0.525 164 117 111
0.417293 -0.176836 -0.526 142 88 88
0.424914 -0.177509 -0.528 162 109 103
0.437253 -0.178853 -0.532 151 98 92
-0.29992 -0.217733 -0.644 254 255 249
-0.157127 -0.215367 -0.637 182 181 176
-0.155669 -0.215029 -0.636 182 182 174
-0.147125 -0.216719 -0.641 187 187 177
-0.146131 -0.217057 -0.642 187 187 177
0.245817 -0.185276 -0.548 130 98 109
0.244974 -0.181557 -0.537 130 99 107
0.24721 -0.180205 -0.533 131 100 108
0.266006 -0.177838 -0.526 134 101 108
0.270013 -0.177838 -0.526 133 102 108
0.28179 -0.17581 -0.52 140 115 121
0.29452 -0.175133 -0.518 163 177 186
0.303211 -0.174457 -0.516 180 178 192
0.323 -0.172429 -0.51 129 105 118
0.352143 -0.172429 -0.51 63 43 54
0.405948 -0.176824 -0.523 141 90 87
0.431765 -0.178852 -0.529 159 106 100
0.447309 -0.181895 -0.538 152 97 92
0.457281 -0.184262 -0.545 153 103 96
-0.29486 -0.21794 -0.641 248 249 243
-0.292874 -0.21828 -0.642 252 253 247
-0.286971 -0.22032 -0.648 251 254 247
-0.162743 -0.2176 -0.64 180 180 172
-0.15834 -0.21658 -0.637 181 181 173
-0.150317 -0.21726 -0.639 184 184 174
0.246657 -0.18156 -0.534 130 99 105
0.254905 -0.1802 -0.53 133 100 107
0.261477 -0.17986 -0.529 135 102 109
0.262994 -0.17952 -0.528 135 102 109
0.288169 -0.17646 -0.519 131 118 128
0.303211 -0.17544 -0.516 185 184 198
0.306548 -0.1751 -0.515 183 183 195
0.30889 -0.17476 -0.514 128 107 122
0.318415 -0.17408 -0.512 133 107 118
0.322029 -0.1734 -0.51 137 109 123
0.334924 -0.17204 -0.506 133 106 115
0.4165 -0.1785 -0.525 141 90 89
0.437253 -0.18088 -0.532 147 94 90
0.444625 -0.18224 -0.536 143 90 86
0.454569 -0.18462 -0.543 162 109 103
0.460842 -0.18632 -0.548 152 102 95
0.4699 -0.1887 -0.555 154 101 95
-0.311702 -0.219845 -0.643 248 249 243
-0.298341 -0.218135 -0.638 250 251 245
-0.286871 -0.220529 -0.645 251 252 246
-0.283706 -0.221896 -0.649 251 252 246
-0.154457 -0.217451 -0.636 183 183 175
-0.149333 -0.218819 -0.64 185 185 175
-0.144357 -0.220529 -0.645 188 188 178
0.247674 -0.182577 -0.534 131 98 107
0.273454 -0.178816 -0.523 144 119 125
0.277903 -0.178474 -0.522 138 115 123
0.295507 -0.177107 -0.518 128 138 150
0.300845 -0.176765 -0.517 185 193 204
0.314151 -0.175397 -0.513 145 123 135
0.399259 -0.179842 -0.526 167 113 111
0.400735 -0.179158 -0.524 154 102 104
0.411714 -0.179158 -0.524 133 82 79
0.423106 -0.180184 -0.527 138 85 81
0.43359 -0.18121 -0.53 152 99 95
0.440106 -0.182235 -0.533 146 93 87
0.453731 -0.185312 -0.542 160 105 100
-0.292265 -0.21935 -0.638 249 250 244
-0.288755 -0.220382 -0.641 252 253 247
-0.285982 -0.22107 -0.643 252 253 247
-0.16345 -0.21935 -0.638 181 181 173
-0.157843 -0.218319 -0.635 183 183 175
0.24492 -0.18772 -0.546 128 96 107
0.2461 -0.183938 -0.535 131 100 108
0.264504 -0.181188 -0.527 133 102 110
0.272979 -0.180156 -0.524 139 109 117
0.313174 -0.176374 -0.513 146 124 136
0.344277 -0.174311 -0.507 132 105 114
0.401733 -0.180156 -0.524 152 100 102
0.409718 -0.180156 -0.524 135 84 81
0.4165 -0.1805 -0.525 141 88 84
0.420299 -0.180844 -0.526 142 91 87
0.425113 -0.181188 -0.527 171 118 112
0.440106 -0.18325 -0.533 146 93 87
0.446477 -0.184626 -0.537 142 89 83
-0.316109 -0.221949 -0.642 251 252 246
-0.296938 -0.219529 -0.635 215 216 210
-0.150317 -0.220911 -0.639 184 186 175
-0.149333 -0.221257 -0.64 185 187 176
0.243833 -0.18634 -0.539 130 99 105
0.2461 -0.184957 -0.535 131 100 106
0.246657 -0.184611 -0.534 132 101 107
0.249241 -0.184266 -0.533 131 100 106
0.25134 -0.183574 -0.531 132 101 109
0.2665 -0.1815 -0.525 135 104 112
0.275447 -0.180809 -0.523 147 117 125
0.286191 -0.179426 -0.519 141 116 122
0.303211 -0.178389 -0.516 145 146 151
0.307529 -0.178043 -0.515 137 116 125
0.312197 -0.177351 -0.513 167 147 158
0.313174 -0.177351 -0.513 130 110 121
0.332689 -0.175277 -0.507 134 108 119
0.3995 -0.1815 -0.525 164 116 104
0.425113 -0.182191 -0.527 168 118 111
0.428125 -0.182191 -0.527 159 106 100
0.443795 -0.184957 -0.535 145 92 88
0.445646 -0.185303 -0.536 146 93 87
-0.310243 -0.220738 -0.635 245 246 240
-0.306131 -0.22039 -0.634 214 215 209
-0.299357 -0.220738 -0.635 168 169 163
-0.296938 -0.220738 -0.635 172 173 167
-0.28938 -0.221433 -0.637 234 233 229
-0.164407 -0.221433 -0.637 178 178 168
-0.157594 -0.22039 -0.634 182 183 175
0.27445 -0.181805 -0.523 149 122 129
0.29156 -0.180067 -0.518 154 141 151
0.295507 -0.180067 -0.518 201 201 211
0.29789 -0.179719 -0.517 161 168 178
0.318767 -0.177633 -0.511 131 108 118
0.328826 -0.176243 -0.507 136 110 121
0.335888 -0.175895 -0.506 133 107 118
0.344277 -0.176243 -0.507 135 107 119
0.400261 -0.182848 -0.526 162 115 105
0.406944 -0.181805 -0.523 143 92 88
0.429943 -0.183543 -0.528 159 106 100
0.438267 -0.184933 -0.532 150 95 92
-0.287404 -0.222996 -0.638 242 243 238
0.27445 -0.182801 -0.523 149 122 129
0.276443 -0.182801 -0.523 145 118 125
0.290573 -0.181053 -0.518 139 119 130
0.29452 -0.181053 -0.518 202 196 206
0.302229 -0.180354 -0.516 163 152 160
0.305567 -0.180005 -0.515 134 106 118
0.30889 -0.179655 -0.514 154 134 146
0.321397 -0.177908 -0.509 135 108 117
0.327539 -0.177558 -0.508 135 109 120
0.336851 -0.176859 -0.506 137 111 122
0.346891 -0.177558 -0.508 130 104 115
0.350887 -0.178607 -0.511 86 66 77
0.412712 -0.18315 -0.524 140 87 83
0.429943 -0.184549 -0.528 158 105 99
0.4475 -0.187694 -0.537 142 87 82
0.45122 -0.188393 -0.539 151 96 91
0.459357 -0.19049 -0.545 158 103 98
-0.316789 -0.223509 -0.636 255 255 250
-0.308777 -0.222103 -0.632 178 181 174
-0.281869 -0.225617 -0.642 255 255 251
-0.150552 -0.224914 -0.64 184 186 173
0.258454 -0.185906 -0.529 133 102 110
0.2635 -0.185203 -0.527 133 102 110
0.264504 -0.185203 -0.527 134 103 111
0.272458 -0.183797 -0.523 133 102 110
0.296906 -0.181689 -0.517 190 178 188
0.29789 -0.181689 -0.517 169 157 167
0.29986 -0.181689 -0.517 173 157 168
0.300845 -0.181689 -0.517 158 145 154
0.320086 -0.179229 -0.51 138 111 120
0.327539 -0.178526 -0.508 134 108 119
0.33462 -0.178174 -0.507 133 107 118
0.337517 -0.178174 -0.507 139 113 124
0.34138 -0.178174 -0.507 132 109 117
0.350887 -0.17958 -0.511 72 55 65
0.4015 -0.1845 -0.525 167 110 117
0.40373 -0.184149 -0.524 154 103 100
0.436431 -0.186609 -0.531 149 96 92
-0.309981 -0.223307 -0.632 188 191 184
-0.28143 -0.226487 -0.641 254 255 250
-0.278271 -0.2279 -0.645 252 253 247
-0.277472 -0.228253 -0.646 252 253 247
-0.275476 -0.229667 -0.65 251 252 246
0.249787 -0.187973 -0.532 131 100 108
0.252886 -0.187267 -0.53 132 101 109
0.257447 -0.186913 -0.529 133 102 110
0.259462 -0.186913 -0.529 134 103 111
0.266006 -0.185853 -0.526 135 104 112
0.2665 -0.1855 -0.525 136 105 113
0.271981 -0.185147 -0.524 136 105 111
0.273454 -0.184793 -0.523 127 96 104
0.285203 -0.18338 -0.519 139 114 120
0.289587 -0.183027 -0.518 137 114 122
0.29452 -0.183027 -0.518 147 126 133
0.302814 -0.182673 -0.517 142 123 129
0.305177 -0.18232 -0.516 131 108 114
0.30791 -0.181613 -0.514 187 163 176
0.312564 -0.180907 -0.512 138 112 123
0.319114 -0.1802 -0.51 140 113 122
0.326571 -0.179493 -0.508 132 106 117
0.353926 -0.181613 -0.514 70 60 71
0.425309 -0.185853 -0.526 146 93 87
0.440293 -0.187973 -0.532 151 96 91
0.456829 -0.191507 -0.542 153 100 94
-0.325174 -0.228418 -0.643 250 253 244
-0.307573 -0.22451 -0.632 153 156 149
-0.302758 -0.22451 -0.632 146 149 142
-0.159505 -0.22451 -0.632 181 182 174
-0.158551 -0.224866 -0.633 181 182 174
0.24721 -0.189342 -0.533 131 102 107
0.2635 -0.18721 -0.527 134 104 112
0.265508 -0.18721 -0.527 133 103 111
0.28718 -0.184369 -0.519 140 117 123
0.292547 -0.184013 -0.518 136 113 119
0.298875 -0.183658 -0.517 147 114 125
0.29986 -0.183658 -0.517 151 118 129
0.306931 -0.182592 -0.514 135 114 123
0.322367 -0.180816 -0.509 135 108 117
0.324636 -0.180461 -0.508 132 105 112
0.338483 -0.180106 -0.507 183 159 172
0.342346 -0.180106 -0.507 133 112 121
0.347574 -0.180816 -0.509 123 97 110
0.4215 -0.1865 -0.525 161 108 100
0.449546 -0.190763 -0.537 137 87 80
-0.328643 -0.230357 -0.645 251 252 244
-0.3165 -0.226071 -0.633 249 252 245
-0.312389 -0.225714 -0.632 168 171 164
-0.308289 -0.225357 -0.631 156 159 152
-0.284203 -0.228214 -0.639 199 200 195
-0.278633 -0.229643 -0.643 254 253 249
-0.169102 -0.228929 -0.641 179 181 170
-0.160709 -0.225714 -0.632 182 183 175
-0.1547 -0.2275 -0.637 182 183 175
-0.151023 -0.229286 -0.642 185 185 177
-0.143 -0.232143 -0.65 188 188 178
0.249241 -0.190357 -0.533 130 99 105
0.268987 -0.187143 -0.524 136 105 113
0.269985 -0.187143 -0.524 136 105 113
0.27492 -0.186429 -0.522 128 98 106
0.285203 -0.185357 -0.519 139 109 121
0.314514 -0.182857 -0.512 142 112 124
0.325604 -0.181429 -0.508 135 108 117
0.327539 -0.181429 -0.508 137 107 115
0.334312 -0.181429 -0.508 130 105 111
0.336551 -0.181071 -0.507 188 165 173
0.340414 -0.181071 -0.507 205 189 200
0.345924 -0.181429 -0.508 129 103 114
0.401263 -0.187857 -0.526 166 115 112
0.4055 -0.1875 -0.525 160 104 103
0.42631 -0.187857 -0.526 148 93 88
0.431954 -0.188571 -0.528 146 91 86
0.436619 -0.189286 -0.53 151 96 91
0.438454 -0.189643 -0.531 155 100 95
-0.324369 -0.229431 -0.639 250 253 246
-0.303481 -0.226559 -0.631 148 151 144
-0.275814 -0.231586 -0.645 252 253 247
-0.152751 -0.229431 -0.639 185 185 175
-0.151023 -0.230509 -0.642 185 185 175
0.256924 -0.190295 -0.53 133 102 108
0.257933 -0.190295 -0.53 133 102 108
0.270983 -0.188141 -0.524 137 106 114
0.272458 -0.187782 -0.523 134 104 112
0.291982 -0.185628 -0.517 141 114 123
0.296331 -0.185269 -0.516 142 115 124
0.297314 -0.185269 -0.516 145 118 127
0.301246 -0.185269 -0.516 145 118 127
0.303605 -0.18491 -0.515 141 113 125
0.401787 -0.191013 -0.532 163 111 115
0.400529 -0.189936 -0.529 166 111 114
0.410716 -0.188141 -0.524 141 86 83
0.4185 -0.1885 -0.525 148 93 88
0.425309 -0.188859 -0.526 138 83 78
0.46436 -0.19604 -0.546 156 103 99
-0.314298 -0.227761 -0.631 168 170 165
-0.305885 -0.227761 -0.631 152 155 148
-0.276613 -0.232453 -0.644 252 253 247
-0.158301 -0.228122 -0.632 183 185 174
-0.150033 -0.232092 -0.643 186 186 176
-0.0412848 -0.233536 -0.647 76 74 79
0.242395 -0.196719 -0.545 129 98 104
0.242229 -0.194914 -0.54 130 101 106
0.242356 -0.194192 -0.538 129 98 104
0.267008 -0.189861 -0.526 137 106 114
0.2675 -0.1895 -0.525 136 105 113
0.277829 -0.187695 -0.52 139 109 119
0.28564 -0.186973 -0.518 141 111 121
0.303605 -0.18589 -0.515 145 115 127
0.318143 -0.184086 -0.51 142 112 124
0.33528 -0.183364 -0.508 138 113 119
0.336248 -0.183364 -0.508 122 101 108
0.337215 -0.183364 -0.508 135 114 121
0.338483 -0.183003 -0.507 202 186 196
0.339449 -0.183003 -0.507 199 187 197
0.349913 -0.184447 -0.511 69 53 64
0.401286 -0.191305 -0.53 171 117 117
0.406724 -0.189139 -0.524 152 98 96
0.410716 -0.189139 -0.524 140 85 82
-0.322338 -0.230414 -0.635 250 253 246
-0.3138 -0.2286 -0.63 153 156 149
-0.3102 -0.2286 -0.63 143 146 139
-0.2782 -0.232954 -0.642 253 254 249
-0.275011 -0.234406 -0.646 252 253 247
-0.163116 -0.229326 -0.632 183 183 173
-0.148272 -0.234406 -0.646 187 187 175
0.265004 -0.190863 -0.526 136 105 113
0.273454 -0.189774 -0.523 137 107 115
0.304586 -0.186871 -0.515 147 115 128
0.309266 -0.186146 -0.513 199 186 195
0.323336 -0.184694 -0.509 142 112 124
0.33462 -0.183969 -0.507 130 105 111
0.401022 -0.191226 -0.527 168 117 116
0.402026 -0.191226 -0.527 169 118 117
0.4155 -0.1905 -0.525 151 96 91
0.425309 -0.190863 -0.526 142 87 84
0.437629 -0.192314 -0.53 152 99 95
0.457016 -0.196306 -0.541 144 90 88
-0.3102 -0.2298 -0.63 143 146 139
-0.3078 -0.2298 -0.63 150 153 146
-0.15299 -0.233448 -0.64 186 186 174
-0.148502 -0.236001 -0.647 187 187 175
-0.147497 -0.236366 -0.648 188 188 176
0.245428 -0.203902 -0.559 132 97 104
0.241647 -0.197336 -0.541 128 97 105
0.259462 -0.192959 -0.529 133 102 108
0.262994 -0.192594 -0.528 135 104 112
0.2685 -0.1915 -0.525 136 104 115
0.304586 -0.187852 -0.515 145 113 126
0.305952 -0.187488 -0.514 152 126 137
0.309266 -0.187123 -0.513 210 194 205
0.310243 -0.187123 -0.513 168 146 159
0.350598 -0.186758 -0.512 58 48 57
0.440477 -0.193689 -0.531 138 87 83
0.475385 -0.202078 -0.554 141 93 93
-0.32578 -0.233567 -0.637 253 254 246
-0.16631 -0.232833 -0.635 184 184 172
-0.043479 -0.235767 -0.643 73 70 77
0.251813 -0.195067 -0.532 131 101 109
0.261989 -0.1936 -0.528 134 103 111
0.266006 -0.192867 -0.526 134 103 111
0.273454 -0.191767 -0.523 137 106 114
0.284214 -0.1903 -0.519 145 113 124
0.297314 -0.1892 -0.516 142 112 122
0.333345 -0.186267 -0.508 135 108 115
0.4065 -0.1925 -0.525 155 101 99
0.409718 -0.192133 -0.524 148 95 91
0.4125 -0.1925 -0.525 153 98 93
0.433144 -0.193233 -0.527 156 103 99
0.458047 -0.198367 -0.541 147 99 97
-0.336862 -0.239203 -0.649 250 253 244
-0.309708 -0.231831 -0.629 141 146 139
-0.159505 -0.232937 -0.632 185 185 175
-0.151493 -0.23736 -0.644 188 186 174
-0.148502 -0.238466 -0.647 186 186 174
-0.0445648 -0.236254 -0.641 73 71 76
0.242524 -0.202714 -0.55 131 100 108
0.245539 -0.197554 -0.536 129 98 106
0.256924 -0.195343 -0.53 132 101 109
0.2665 -0.1935 -0.525 135 104 112
0.275914 -0.192394 -0.522 137 105 116
0.27737 -0.192026 -0.521 145 113 124
0.285203 -0.191289 -0.519 144 112 123
0.301643 -0.189814 -0.515 144 114 126
0.311589 -0.188709 -0.512 142 112 124
0.321397 -0.187603 -0.509 140 112 124
0.323336 -0.187603 -0.509 135 107 119
0.338483 -0.186866 -0.507 198 182 193
0.4105 -0.1935 -0.525 150 97 93
-0.3114 -0.2334 -0.63 138 141 134
-0.275387 -0.238587 -0.644 251 252 247
-0.273781 -0.239328 -0.646 251 252 247
-0.16458 -0.234511 -0.633 186 186 174
-0.15445 -0.237475 -0.641 187 187 177
-0.0444952 -0.237105 -0.64 70 69 75
0.244518 -0.198575 -0.536 129 99 107
0.248691 -0.197834 -0.534 131 102 107
0.264504 -0.195241 -0.527 134 103 111
0.287613 -0.191907 -0.518 145 113 124
0.310613 -0.189684 -0.512 146 115 130
0.403033 -0.198205 -0.535 159 109 108
0.402789 -0.195611 -0.528 169 114 111
0.4125 -0.1945 -0.525 150 95 92
0.4135 -0.1945 -0.525 155 102 96
0.41529 -0.19487 -0.526 163 110 104
0.416291 -0.19487 -0.526 156 103 97
0.418295 -0.19487 -0.526 149 96 90
0.425309 -0.19487 -0.526 144 91 87
0.43132 -0.19487 -0.526 155 101 99
0.465586 -0.20191 -0.545 140 91 87
-0.276977 -0.239069 -0.642 251 252 247
-0.275387 -0.239813 -0.644 251 252 247
-0.271762 -0.242048 -0.65 252 253 248
-0.167519 -0.236462 -0.635 184 184 174
-0.15445 -0.238696 -0.641 187 187 177
-0.0444257 -0.237951 -0.639 71 70 76
0.2412 -0.201086 -0.54 127 100 107
0.241331 -0.200341 -0.538 127 100 107
0.256397 -0.197734 -0.531 132 101 109
0.273977 -0.195128 -0.524 135 104 112
0.27981 -0.193638 -0.52 144 114 124
0.300662 -0.191776 -0.515 143 115 127
0.308289 -0.191031 -0.513 222 205 215
0.319114 -0.189914 -0.51 142 112 124
0.330442 -0.18917 -0.508 137 109 121
0.336551 -0.188797 -0.507 223 201 213
0.339449 -0.188797 -0.507 167 151 164
0.403794 -0.196617 -0.528 170 116 116
0.428314 -0.195872 -0.526 147 92 87
-0.315698 -0.235426 -0.629 159 162 155
-0.272972 -0.242163 -0.647 251 252 247
-0.16926 -0.23842 -0.637 185 185 175
-0.054841 -0.242163 -0.647 68 65 72
-0.0421886 -0.240291 -0.642 74 73 81
0.241201 -0.204734 -0.547 128 98 106
0.240914 -0.203611 -0.544 129 98 106
0.242929 -0.200991 -0.537 129 98 106
0.258943 -0.198371 -0.53 132 101 107
0.2635 -0.197249 -0.527 133 103 111
0.276443 -0.195751 -0.523 140 109 117
0.302624 -0.192757 -0.515 143 113 125
0.304973 -0.192383 -0.514 139 111 123
0.309266 -0.192009 -0.513 188 162 175
0.311953 -0.19126 -0.511 143 111 124
0.318143 -0.190886 -0.51 144 112 125
0.323336 -0.190511 -0.509 139 107 120
0.326571 -0.190137 -0.508 143 111 122
0.402295 -0.198371 -0.53 168 112 113
0.4085 -0.1965 -0.525 156 100 99
0.421098 -0.197249 -0.527 133 80 74
0.430318 -0.196874 -0.526 154 101 95
-0.3186 -0.237 -0.63 248 251 244
-0.277767 -0.241138 -0.641 255 255 251
-0.172079 -0.24189 -0.643 184 184 176
-0.159757 -0.238129 -0.633 185 185 175
-0.0490629 -0.239257 -0.636 69 67 78
0.256397 -0.199757 -0.531 132 101 107
0.257933 -0.199381 -0.53 132 101 107
0.258943 -0.199381 -0.53 132 101 107
0.262485 -0.199005 -0.529 132 101 109
0.2635 -0.198252 -0.527 132 102 110
0.276443 -0.196748 -0.523 140 109 117
0.281249 -0.195243 -0.519 145 113 124
0.292967 -0.19449 -0.517 147 117 125
0.301643 -0.193738 -0.515 144 114 126
0.309266 -0.192986 -0.513 165 139 152
0.325275 -0.191481 -0.509 141 109 122
0.326245 -0.191481 -0.509 140 108 119
0.34138 -0.190729 -0.507 142 112 122
0.350306 -0.192986 -0.513 66 49 65
0.403794 -0.198629 -0.528 169 118 115
0.413286 -0.197876 -0.526 158 103 100
0.422102 -0.198252 -0.527 137 82 75
0.425309 -0.197876 -0.526 143 88 81
0.4295 -0.1975 -0.525 157 104 98
0.455507 -0.20239 -0.538 141 94 88
0.463877 -0.204271 -0.543 140 93 87
-0.334786 -0.243871 -0.645 251 254 247
-0.320308 -0.238578 -0.631 250 253 246
-0.277767 -0.242359 -0.641 255 255 251
-0.272972 -0.244628 -0.647 250 251 246
-0.27216 -0.245006 -0.648 250 251 246
-0.0585381 -0.244628 -0.647 68 65 74
-0.0514857 -0.240469 -0.636 66 64 75
-0.0501952 -0.24009 -0.635 66 64 75
0.240753 -0.203793 -0.539 130 97 106
0.247674 -0.201903 -0.534 130 99 107
0.248691 -0.201903 -0.534 129 98 106
0.2705 -0.1985 -0.525 136 105 113
0.278363 -0.196988 -0.521 145 113 124
0.297719 -0.194719 -0.515 142 110 121
0.305952 -0.194341 -0.514 145 113 126
0.308289 -0.193963 -0.513 161 133 145
0.326245 -0.19245 -0.509 143 111 122
0.402789 -0.199634 -0.528 171 117 117
0.40527 -0.198878 -0.526 165 110 113
0.42411 -0.199256 -0.527 156 103 95
0.427312 -0.198878 -0.526 150 97 89
0.4295 -0.1985 -0.525 161 108 102
0.437159 -0.199256 -0.527 148 95 89
-0.154932 -0.24434 -0.643 191 188 179
-0.0513238 -0.24092 -0.634 68 66 77
0.241906 -0.20406 -0.537 131 99 110
0.243497 -0.20368 -0.536 130 99 107
