ply
format ascii 1.0
comment Created by Open3D
element vertex 1280
property double x
property double y
property double z
property uchar red
property uchar green
property uchar blue
end_header
0.0431057 -0.315437 -0.423 134 95 78
0.0449286 -0.316929 -0.425 131 95 81
0.0494371 -0.319911 -0.429 120 87 80
0.0686314 -0.342283 -0.459 90 68 70
0.06996 -0.34452 -0.462 90 68 70
0.511545 -0.404177 -0.542 140 113 106
0.49494 -0.38106 -0.511 168 126 102
0.497619 -0.372857 -0.5 181 134 108
0.5041 -0.37062 -0.497 180 130 105
0.504975 -0.369874 -0.496 183 133 108
0.509614 -0.369129 -0.495 177 127 100
0.51496 -0.366891 -0.492 174 124 99
0.515897 -0.366891 -0.492 172 122 97
0.529017 -0.366891 -0.492 163 117 91
0.816598 -0.426549 -0.572 208 210 197
0.826404 -0.426549 -0.572 210 212 199
0.829672 -0.426549 -0.572 210 212 199
0.862358 -0.426549 -0.572 209 211 198
0.895654 -0.425803 -0.571 208 210 196
0.903268 -0.425803 -0.571 206 209 192
0.910881 -0.425803 -0.571 206 208 194
0.9158 -0.425057 -0.57 206 208 194
0.921757 -0.425803 -0.571 205 207 193
0.960911 -0.425803 -0.571 204 206 192
0.983751 -0.425803 -0.571 205 208 191
0.988102 -0.425803 -0.571 204 206 192
1.00224 -0.425803 -0.571 204 206 192
1.01747 -0.425803 -0.571 203 205 191
-0.00351429 -0.306524 -0.41 190 149 117
0.0082 -0.306524 -0.41 186 140 114
0.0192733 -0.308767 -0.413 178 132 108
0.0281971 -0.311757 -0.417 169 124 101
0.0414943 -0.316243 -0.423 145 102 86
0.0767743 -0.356614 -0.477 89 70 72
0.0873171 -0.374557 -0.501 88 73 76
0.526271 -0.419414 -0.561 130 106 96
0.504197 -0.396986 -0.531 152 115 97
0.5005 -0.3925 -0.525 155 118 99
0.496812 -0.386519 -0.517 161 123 102
0.49397 -0.37979 -0.508 173 129 102
0.495751 -0.374557 -0.501 176 130 106
0.500371 -0.372314 -0.498 176 129 103
0.51225 -0.368576 -0.493 175 125 98
0.527942 -0.367081 -0.491 165 118 92
0.535872 -0.369324 -0.494 157 116 88
0.888507 -0.427638 -0.572 206 208 195
0.895654 -0.42689 -0.571 207 210 193
0.927743 -0.426143 -0.57 206 208 194
0.973963 -0.42689 -0.571 204 207 190
0.998314 -0.426143 -0.57 202 204 190
1.02508 -0.42689 -0.571 202 204 190
1.02834 -0.42689 -0.571 204 206 192
1.0298 -0.426143 -0.57 204 206 192
0.00116857 -0.306555 -0.409 194 150 121
0.00741905 -0.307305 -0.41 187 142 113
0.0676095 -0.343282 -0.458 90 70 71
0.0858457 -0.373263 -0.498 85 71 70
0.0874914 -0.376261 -0.502 88 74 73
0.496706 -0.375511 -0.501 168 122 98
0.511311 -0.369515 -0.493 176 126 99
0.51319 -0.369515 -0.493 177 127 100
0.516719 -0.368016 -0.491 176 126 101
0.518467 -0.367267 -0.49 174 127 101
0.520333 -0.367267 -0.49 169 122 96
0.830397 -0.427978 -0.571 209 211 198
0.831485 -0.427978 -0.571 209 211 198
0.83366 -0.427978 -0.571 209 211 198
0.872814 -0.427978 -0.571 207 209 195
0.885866 -0.427978 -0.571 208 210 199
0.902771 -0.427229 -0.57 206 209 190
0.927743 -0.427229 -0.57 207 209 195
0.940205 -0.426479 -0.569 205 208 191
1.007 -0.427229 -0.57 203 206 189
1.02111 -0.427229 -0.57 203 206 189
1.03631 -0.427229 -0.57 201 203 189
1.03992 -0.426479 -0.569 203 205 191
-0.0144829 -0.308837 -0.411 192 153 122
-0.00740095 -0.307334 -0.409 191 150 118
-0.0066219 -0.307334 -0.409 189 148 116
0.0145181 -0.309589 -0.412 183 135 112
0.0314495 -0.314097 -0.418 159 117 93
0.0504886 -0.323866 -0.431 112 83 77
0.0543962 -0.327623 -0.436 100 75 71
0.0553533 -0.328374 -0.437 98 77 74
0.502269 -0.374211 -0.498 178 131 105
0.502207 -0.37346 -0.497 177 130 104
0.5166 -0.3682 -0.49 175 128 100
0.517533 -0.3682 -0.49 176 129 101
0.638865 -0.426811 -0.568 197 197 189
0.827857 -0.428314 -0.57 211 213 200
0.854325 -0.429066 -0.571 209 211 197
0.890829 -0.428314 -0.57 207 209 196
0.9082 -0.428314 -0.57 207 209 195
0.959713 -0.427563 -0.569 204 207 190
0.969 -0.428314 -0.57 204 206 192
0.979857 -0.428314 -0.57 205 207 193
0.993311 -0.427563 -0.569 205 207 193
1.01026 -0.428314 -0.57 203 205 191
1.01282 -0.427563 -0.569 203 206 189
1.02799 -0.427563 -0.569 203 205 191
-0.00818 -0.308113 -0.409 190 149 119
-0.00116857 -0.308113 -0.409 193 149 120
0.00428476 -0.308113 -0.409 188 142 116
0.0066381 -0.308867 -0.41 190 144 118
0.00898095 -0.308867 -0.41 183 136 110
0.00978571 -0.30962 -0.411 180 135 106
0.0113514 -0.30962 -0.411 183 138 109
0.0184867 -0.311127 -0.413 176 130 104
0.0257524 -0.313387 -0.416 168 123 100
0.0372 -0.3164 -0.42 150 103 87
0.0729619 -0.354067 -0.47 86 70 70
0.507995 -0.403033 -0.535 144 114 104
0.50336 -0.39776 -0.528 151 112 97
0.500371 -0.37516 -0.498 175 127 104
0.507729 -0.3729 -0.495 176 126 101
0.508585 -0.372147 -0.494 176 126 101
0.509433 -0.371393 -0.493 177 127 102
0.512149 -0.37064 -0.492 180 130 105
0.522066 -0.36838 -0.489 163 118 89
0.823153 -0.428647 -0.569 210 212 199
0.824237 -0.428647 -0.569 210 212 199
0.841971 -0.4294 -0.57 208 210 196
0.846314 -0.4294 -0.57 209 211 197
0.848486 -0.4294 -0.57 209 211 197
0.859343 -0.4294 -0.57 207 209 196
0.900104 -0.428647 -0.569 206 209 192
0.918529 -0.428647 -0.569 206 209 192
0.923948 -0.428647 -0.569 206 208 194
0.928283 -0.428647 -0.569 204 206 192
0.929897 -0.427893 -0.568 205 207 193
0.934225 -0.427893 -0.568 205 207 193
0.956945 -0.427893 -0.568 204 207 190
0.971171 -0.4294 -0.57 204 206 192
0.977686 -0.4294 -0.57 203 205 191
1.00198 -0.428647 -0.569 204 206 192
1.00632 -0.428647 -0.569 203 206 189
1.01174 -0.428647 -0.569 203 206 189
1.01282 -0.428647 -0.569 203 206 189
1.03775 -0.428647 -0.569 204 206 192
1.03701 -0.427893 -0.568 204 206 192
-0.0176571 -0.311158 -0.412 191 152 119
0.0192733 -0.311913 -0.413 174 127 99
0.0208971 -0.312669 -0.414 168 122 96
0.0273371 -0.314179 -0.416 168 123 100
0.0322457 -0.31569 -0.418 153 110 91
0.0945905 -0.392724 -0.52 106 124 186
0.497797 -0.390458 -0.517 162 123 106
0.502207 -0.375353 -0.497 179 129 106
0.506786 -0.373843 -0.495 177 127 102
0.512149 -0.371577 -0.492 181 131 106
0.513913 -0.370822 -0.491 180 130 103
0.514849 -0.370822 -0.491 179 129 102
0.523787 -0.368556 -0.488 165 120 91
0.525646 -0.368556 -0.488 162 117 86
0.6288 -0.422933 -0.56 196 195 190
0.829656 -0.42973 -0.569 208 210 197
0.843057 -0.430486 -0.57 209 211 197
0.865857 -0.430486 -0.57 208 210 196
0.906095 -0.428975 -0.568 205 207 193
0.937471 -0.428975 -0.568 205 208 191
0.93798 -0.42822 -0.567 205 207 193
0.94446 -0.42822 -0.567 206 208 194
0.968384 -0.42973 -0.569 204 206 192
1.00307 -0.42973 -0.569 204 206 192
1.02366 -0.42973 -0.569 203 205 191
1.02474 -0.42973 -0.569 203 205 191
1.0251 -0.428975 -0.568 204 206 192
1.03809 -0.428975 -0.568 203 205 191
0.00350571 -0.309671 -0.409 190 146 119
0.0372 -0.318 -0.42 149 102 86
0.0397886 -0.319514 -0.422 145 99 84
0.0692295 -0.350557 -0.463 90 70 69
0.0788229 -0.366457 -0.484 92 73 75
0.0913629 -0.388414 -0.513 111 115 142
0.519197 -0.415671 -0.549 134 111 103
0.515505 -0.411886 -0.544 136 113 105
0.505267 -0.401286 -0.53 150 114 98
0.501543 -0.396743 -0.524 156 119 103
0.504975 -0.375543 -0.496 179 129 104
0.5138 -0.371 -0.49 180 129 102
0.524716 -0.369486 -0.488 166 121 92
0.625431 -0.421729 -0.557 191 190 185
0.709353 -0.430814 -0.569 208 210 199
0.710437 -0.430814 -0.569 208 210 199
0.843746 -0.430814 -0.569 209 211 197
0.845913 -0.430814 -0.569 209 211 197
0.848081 -0.430814 -0.569 209 211 197
0.877344 -0.430814 -0.569 208 210 196
0.916914 -0.430057 -0.568 206 209 192
0.919078 -0.430057 -0.568 205 207 193
0.95202 -0.4293 -0.567 204 207 190
0.986809 -0.430814 -0.569 205 207 194
0.994811 -0.430057 -0.568 204 206 193
0.995893 -0.430057 -0.568 204 206 193
0.996975 -0.430057 -0.568 204 206 193
-0.0225286 -0.315005 -0.415 187 148 117
-0.0184419 -0.312728 -0.412 188 149 118
-0.00816 -0.309691 -0.408 193 152 120
-0.00272 -0.309691 -0.408 198 154 125
0.0066219 -0.31045 -0.409 186 141 112
0.0225286 -0.315005 -0.415 166 121 92
0.0249 -0.315005 -0.415 168 122 96
0.0347171 -0.318041 -0.419 150 102 88
0.504366 -0.400777 -0.528 153 116 100
0.502207 -0.377247 -0.497 178 128 103
0.507644 -0.37497 -0.494 174 127 101
0.508494 -0.37421 -0.493 177 127 102
0.512867 -0.371933 -0.49 177 127 102
0.514733 -0.371933 -0.49 178 128 103
0.51635 -0.370415 -0.488 178 128 103
0.541518 -0.37497 -0.494 146 111 83
0.807642 -0.431139 -0.568 209 210 202
0.828198 -0.431139 -0.568 209 211 198
0.837935 -0.431139 -0.568 209 211 198
0.881679 -0.431898 -0.569 207 209 196
0.881211 -0.431139 -0.568 208 210 197
0.885539 -0.431139 -0.568 208 210 197
0.887703 -0.431139 -0.568 208 210 197
0.9153 -0.43038 -0.567 206 209 192
0.93366 -0.43038 -0.567 205 207 193
0.97101 -0.431139 -0.568 203 205 191
0.974255 -0.431139 -0.568 203 205 191
0.977501 -0.431139 -0.568 204 206 193
1.02006 -0.43038 -0.567 204 206 192
-0.0183971 -0.312751 -0.411 191 150 120
-0.0167905 -0.31199 -0.41 190 151 118
-0.00271333 -0.309708 -0.407 199 156 124
0.00272 -0.310469 -0.408 188 144 115
0.0225286 -0.315795 -0.415 166 120 94
0.033121 -0.318839 -0.419 152 105 87
0.0507229 -0.329492 -0.433 107 77 69
0.0821667 -0.37515 -0.493 91 75 78
0.52298 -0.420807 -0.553 136 109 100
0.495909 -0.389608 -0.512 167 122 99
0.50132 -0.378954 -0.498 175 127 104
0.505843 -0.376671 -0.495 173 126 100
0.506616 -0.37515 -0.493 177 130 104
0.509433 -0.37515 -0.493 181 131 106
0.532311 -0.372106 -0.489 162 118 91
0.5445 -0.376671 -0.495 143 108 80
0.645356 -0.432221 -0.568 202 204 201
0.801151 -0.432221 -0.568 209 210 202
0.82458 -0.43146 -0.567 209 211 198
0.82928 -0.432221 -0.568 209 211 197
0.830362 -0.432221 -0.568 209 211 197
0.836853 -0.432221 -0.568 209 211 198
0.843345 -0.432221 -0.568 209 211 197
0.853082 -0.432221 -0.568 208 210 196
0.860655 -0.432221 -0.568 208 210 196
0.870392 -0.432221 -0.568 208 210 196
0.871474 -0.432221 -0.568 207 209 195
0.882293 -0.432221 -0.568 208 210 197
0.88722 -0.43146 -0.567 207 209 196
0.8991 -0.43146 -0.567 206 208 194
0.91638 -0.43146 -0.567 204 206 192
0.940638 -0.430699 -0.566 204 206 192
0.955731 -0.430699 -0.566 205 208 191
0.957888 -0.430699 -0.566 205 208 191
0.97038 -0.43146 -0.567 204 206 192
0.98442 -0.43146 -0.567 205 207 196
0.99846 -0.43146 -0.567 206 208 194
0.033121 -0.319637 -0.419 152 105 87
0.0442229 -0.324977 -0.426 121 89 78
0.0568286 -0.337183 -0.442 97 72 67
0.0589095 -0.339471 -0.445 95 71 67
0.06342 -0.345574 -0.453 89 68 63
0.0854086 -0.382191 -0.501 99 81 81
0.0870524 -0.385243 -0.505 84 81 98
0.0955 -0.4005 -0.525 136 167 221
0.501617 -0.398211 -0.522 155 118 100
0.494937 -0.387531 -0.508 166 125 103
0.494916 -0.386006 -0.506 167 125 103
0.496667 -0.381429 -0.5 174 129 106
0.50132 -0.379903 -0.498 175 127 104
0.513683 -0.373037 -0.489 182 132 107
0.518863 -0.370749 -0.486 174 124 97
0.519789 -0.370749 -0.486 175 125 98
0.524417 -0.370749 -0.486 167 120 92
0.64422 -0.43254 -0.567 203 204 199
0.800069 -0.433303 -0.568 210 211 203
0.801151 -0.433303 -0.568 209 210 202
0.81594 -0.43254 -0.567 209 211 200
0.8397 -0.43254 -0.567 209 211 198
0.86238 -0.43254 -0.567 208 211 194
0.86778 -0.43254 -0.567 208 211 194
0.879048 -0.433303 -0.568 208 210 196
0.919076 -0.431777 -0.566 205 207 193
0.97578 -0.43254 -0.567 204 208 193
0.988074 -0.431777 -0.566 204 206 192
0.993465 -0.431777 -0.566 204 206 192
1.01034 -0.43254 -0.567 203 205 191
1.01934 -0.431777 -0.566 204 207 190
-0.02508 -0.31967 -0.418 188 149 118
-0.0232067 -0.315847 -0.413 189 148 118
-0.0019381 -0.311258 -0.407 192 148 119
0.00506381 -0.312788 -0.409 187 140 112
0.00818 -0.312788 -0.409 180 133 105
0.0241676 -0.318141 -0.416 166 120 96
0.0488467 -0.329612 -0.431 112 83 75
0.0589095 -0.340319 -0.445 95 71 67
0.06356 -0.347202 -0.454 89 68 65
0.0683476 -0.354085 -0.463 92 68 66
0.4949 -0.386205 -0.505 166 124 102
0.49488 -0.38544 -0.504 167 125 103
0.495785 -0.38391 -0.502 170 125 102
0.502207 -0.380087 -0.497 173 125 102
0.503086 -0.379322 -0.496 174 126 103
0.507555 -0.377028 -0.493 179 129 104
0.512751 -0.373969 -0.489 178 128 103
0.515421 -0.373204 -0.488 180 130 105
0.7317 -0.43362 -0.567 209 211 200
0.76518 -0.43362 -0.567 210 212 199
0.80622 -0.43362 -0.567 209 211 198
0.814501 -0.432855 -0.566 209 211 200
0.823126 -0.432855 -0.566 209 211 198
0.85914 -0.43362 -0.567 207 210 193
0.867328 -0.432855 -0.566 207 210 193
0.87426 -0.43362 -0.567 207 209 195
0.87534 -0.43362 -0.567 208 210 196
0.87966 -0.43362 -0.567 207 209 195
0.905061 -0.432855 -0.566 206 208 194
0.972981 -0.432855 -0.566 203 207 192
0.979449 -0.432855 -0.566 203 207 193
0.98484 -0.432855 -0.566 205 207 193
0.996699 -0.432855 -0.566 204 206 192
1.0125 -0.43362 -0.567 201 204 187
1.01861 -0.43209 -0.565 203 206 189
1.02722 -0.43209 -0.565 204 207 190
-0.0199143 -0.314333 -0.41 191 150 118
-0.00348 -0.311267 -0.406 188 144 115
-0.0019381 -0.312033 -0.407 189 145 116
0.0129171 -0.3151 -0.411 177 131 105
0.0425 -0.325833 -0.425 129 91 82
0.05084 -0.332733 -0.434 107 80 73
0.0660086 -0.3519 -0.459 90 69 68
0.0841171 -0.382567 -0.499 93 77 78
0.503539 -0.401733 -0.524 149 118 98
0.498474 -0.3818 -0.498 177 131 107
0.500313 -0.381033 -0.497 174 126 103
0.5084 -0.3772 -0.492 179 129 102
0.509237 -0.376433 -0.491 176 126 99
0.513562 -0.374133 -0.488 181 134 108
0.523338 -0.371833 -0.485 168 121 93
0.524262 -0.371833 -0.485 165 119 93
0.79434 -0.4347 -0.567 209 211 200
0.79974 -0.4347 -0.567 210 212 198
0.80911 -0.433933 -0.566 210 212 201
0.842531 -0.433933 -0.566 208 210 197
0.849 -0.433933 -0.566 208 210 196
0.857625 -0.433933 -0.566 208 210 196
0.860859 -0.433933 -0.566 207 209 195
0.882421 -0.433933 -0.566 207 209 195
0.883499 -0.433933 -0.566 207 209 195
0.895358 -0.433933 -0.566 207 209 195
0.900233 -0.433167 -0.565 206 208 194
0.90131 -0.433167 -0.565 206 208 194
0.940537 -0.4324 -0.564 204 206 192
0.941611 -0.4324 -0.564 205 207 193
0.965881 -0.433167 -0.565 205 207 193
0.975567 -0.433167 -0.565 203 207 193
0.985252 -0.433167 -0.565 204 206 192
1.00317 -0.433933 -0.566 202 206 189
1.01826 -0.433933 -0.566 202 206 191
-0.0232067 -0.31742 -0.413 189 148 120
-0.0120162 -0.312809 -0.407 198 155 123
-0.0104657 -0.312809 -0.407 195 152 120
-0.00348 -0.31204 -0.406 188 143 112
-0.0019381 -0.312809 -0.407 190 145 114
0.0097619 -0.315114 -0.41 178 131 105
0.0216857 -0.318189 -0.414 166 118 95
0.033121 -0.322031 -0.419 148 101 85
0.0498981 -0.332791 -0.433 108 81 74
0.07682 -0.37122 -0.483 88 72 75
0.0842857 -0.384286 -0.5 90 78 82
0.0907381 -0.395814 -0.515 117 138 181
0.505677 -0.378906 -0.493 176 129 103
0.509237 -0.377369 -0.491 177 127 100
0.514234 -0.373526 -0.486 181 134 106
0.517937 -0.373526 -0.486 178 131 103
0.521337 -0.371989 -0.484 172 125 97
0.524103 -0.371989 -0.484 166 121 92
0.532917 -0.374294 -0.487 159 118 90
0.533845 -0.374294 -0.487 158 118 92
0.53587 -0.375063 -0.488 156 116 90
0.705613 -0.435011 -0.566 207 209 198
0.776768 -0.435011 -0.566 209 211 198
0.777846 -0.435011 -0.566 209 211 198
0.789705 -0.435011 -0.566 209 211 198
0.820595 -0.434243 -0.565 209 211 198
0.822748 -0.434243 -0.565 208 210 197
0.830281 -0.434243 -0.565 207 209 196
0.862567 -0.434243 -0.565 206 209 192
0.87703 -0.435011 -0.566 207 209 195
0.887319 -0.434243 -0.565 207 209 195
0.895929 -0.434243 -0.565 207 209 195
0.915829 -0.433474 -0.564 206 208 194
0.949131 -0.433474 -0.564 205 208 191
0.961576 -0.434243 -0.565 204 207 188
0.996014 -0.434243 -0.565 204 207 190
1.01431 -0.434243 -0.565 202 206 191
1.02218 -0.433474 -0.564 203 206 189
-0.0190867 -0.315125 -0.409 187 148 115
-0.0058 -0.312813 -0.406 186 141 108
0.00505143 -0.314354 -0.408 185 138 108
0.00584286 -0.315125 -0.409 184 137 107
0.0160876 -0.317436 -0.412 173 127 103
0.0177 -0.318207 -0.413 164 118 94
0.0184867 -0.318207 -0.413 167 121 97
0.0257524 -0.320518 -0.416 163 115 95
0.0389848 -0.325141 -0.422 140 93 83
0.0415924 -0.326682 -0.424 132 89 80
0.0509571 -0.335157 -0.435 107 80 73
0.0860905 -0.38909 -0.505 104 93 99
0.0892343 -0.394484 -0.512 130 146 182
0.498814 -0.396795 -0.515 159 121 100
0.5082 -0.377533 -0.49 179 129 102
0.509957 -0.376763 -0.489 174 124 97
0.5368 -0.375992 -0.488 157 118 89
0.555714 -0.385238 -0.5 146 110 84
0.78108 -0.43609 -0.566 208 210 199
0.794017 -0.43609 -0.566 209 211 198
0.828129 -0.435319 -0.565 209 211 198
0.849652 -0.435319 -0.565 207 209 195
0.872252 -0.435319 -0.565 207 209 195
0.88409 -0.435319 -0.565 207 209 195
0.901863 -0.434549 -0.564 205 207 193
0.902937 -0.434549 -0.564 207 209 195
0.90616 -0.434549 -0.564 206 208 194
0.916903 -0.434549 -0.564 204 206 192
0.924423 -0.434549 -0.564 205 207 193
0.931363 -0.433778 -0.563 204 206 192
0.948521 -0.433778 -0.563 205 207 193
-0.0230943 -0.317449 -0.411 190 151 120
-0.0166676 -0.314359 -0.407 194 153 121
-0.01044 -0.313587 -0.406 193 150 116
-0.00657333 -0.313587 -0.406 191 148 114
0.0144829 -0.317449 -0.411 174 128 102
0.02006 -0.318993 -0.413 167 121 97
0.0265448 -0.32131 -0.416 158 110 90
0.034 -0.3244 -0.42 149 103 87
0.0461686 -0.331351 -0.429 114 84 74
0.0910905 -0.399321 -0.517 136 158 182
0.495905 -0.39237 -0.508 166 123 104
0.495785 -0.387735 -0.502 173 128 105
0.49842 -0.383873 -0.497 178 132 108
0.506526 -0.380011 -0.492 181 131 106
0.514234 -0.375377 -0.486 182 132 105
0.516871 -0.374605 -0.485 178 131 103
0.518571 -0.373832 -0.484 173 126 98
0.52779 -0.373832 -0.484 165 120 89
0.536628 -0.37615 -0.487 158 119 90
0.731271 -0.436395 -0.565 209 211 200
0.768938 -0.436395 -0.565 208 210 197
0.8023 -0.436395 -0.565 209 211 198
0.801954 -0.435623 -0.564 209 211 198
0.813771 -0.435623 -0.564 209 211 198
0.845348 -0.436395 -0.565 208 210 196
0.859966 -0.435623 -0.564 208 210 196
0.864263 -0.435623 -0.564 206 208 194
0.870709 -0.435623 -0.564 206 208 194
0.875006 -0.435623 -0.564 206 208 195
0.89112 -0.435623 -0.564 206 208 194
0.901336 -0.43485 -0.563 206 208 194
0.903481 -0.43485 -0.563 206 208 194
0.913132 -0.43485 -0.563 206 208 194
0.920126 -0.435623 -0.564 205 207 193
0.939343 -0.434078 -0.562 204 206 192
0.946376 -0.43485 -0.563 204 206 193
0.971691 -0.435623 -0.564 202 206 192
0.992103 -0.435623 -0.564 203 205 191
1.0193 -0.43485 -0.563 202 205 188
-0.0222571 -0.317457 -0.41 189 150 119
-0.0143419 -0.315134 -0.407 191 150 118
-0.00734667 -0.31436 -0.406 190 147 113
-0.00193333 -0.31436 -0.406 191 146 115
0.00116286 -0.315134 -0.407 188 143 112
0.00427429 -0.315909 -0.408 185 140 109
0.0306533 -0.323651 -0.418 150 103 87
0.0443267 -0.33062 -0.427 121 87 75
0.0461686 -0.332169 -0.429 118 86 75
0.0529771 -0.339137 -0.438 99 75 71
0.0652762 -0.356171 -0.46 86 70 73
0.498825 -0.397983 -0.514 159 123 101
0.50388 -0.382497 -0.494 181 133 110
0.509844 -0.377851 -0.488 176 126 99
0.513309 -0.376303 -0.486 181 131 104
0.52779 -0.374754 -0.484 168 123 94
0.529634 -0.374754 -0.484 164 119 88
0.532576 -0.375529 -0.485 160 117 83
0.702046 -0.436697 -0.564 208 209 201
0.70312 -0.436697 -0.564 207 208 200
0.767577 -0.436697 -0.564 209 211 198
0.7708 -0.436697 -0.564 209 211 198
0.787233 -0.437471 -0.565 209 211 198
0.804103 -0.436697 -0.564 209 211 200
0.814846 -0.436697 -0.564 209 211 198
0.839967 -0.437471 -0.565 208 210 196
0.888468 -0.435923 -0.563 206 208 194
0.926001 -0.435923 -0.563 204 206 192
0.939343 -0.435149 -0.562 204 206 192
0.941484 -0.435149 -0.562 204 206 192
0.958172 -0.435923 -0.563 204 206 192
0.966751 -0.435923 -0.563 203 207 192
0.973186 -0.435923 -0.563 203 207 193
0.975739 -0.435149 -0.562 203 206 195
-0.0222029 -0.317462 -0.409 191 150 118
-0.00964286 -0.314357 -0.405 192 149 115
-0.00116 -0.315133 -0.406 185 142 108
0.00427429 -0.316686 -0.408 183 138 107
0.00740095 -0.317462 -0.409 178 133 102
0.0137 -0.319014 -0.411 174 129 100
0.029061 -0.324448 -0.418 153 106 90
0.0315248 -0.325224 -0.419 149 102 86
0.0500133 -0.336867 -0.434 104 79 72
0.0520238 -0.339195 -0.437 99 76 70
0.0540571 -0.341524 -0.44 98 74 70
0.50457 -0.405948 -0.523 153 117 105
0.495751 -0.388871 -0.501 171 129 105
0.498362 -0.38499 -0.496 177 131 107
0.500251 -0.38499 -0.496 174 126 103
0.503799 -0.382662 -0.493 180 133 107
0.504651 -0.381886 -0.492 176 129 103
0.51934 -0.3749 -0.483 177 130 104
0.534424 -0.376452 -0.485 166 123 88
0.698656 -0.436995 -0.563 207 208 200
0.705269 -0.437771 -0.564 207 208 200
0.758983 -0.437771 -0.564 209 211 200
0.760057 -0.437771 -0.564 209 211 200
0.761131 -0.437771 -0.564 209 211 200
0.767577 -0.437771 -0.564 210 212 201
0.779394 -0.437771 -0.564 209 211 198
0.80088 -0.437771 -0.564 209 211 200
0.803029 -0.437771 -0.564 210 212 201
0.835257 -0.437771 -0.564 209 211 197
0.884178 -0.436995 -0.563 207 209 195
0.902409 -0.436995 -0.563 205 207 193
0.907771 -0.436995 -0.563 205 207 193
0.927568 -0.436219 -0.562 204 206 192
0.937671 -0.435443 -0.561 205 207 193
0.946836 -0.436219 -0.562 205 208 191
0.959682 -0.436219 -0.562 204 206 193
0.960752 -0.436219 -0.562 204 206 193
0.972113 -0.436995 -0.563 203 207 193
1.01072 -0.436995 -0.563 202 206 191
1.02605 -0.436219 -0.562 202 205 188
-0.0280619 -0.32291 -0.415 187 151 119
-0.0119571 -0.315129 -0.405 190 150 115
-0.0104143 -0.315129 -0.405 192 149 114
0.00895905 -0.318241 -0.409 178 133 102
0.038181 -0.328356 -0.422 137 93 80
0.0490733 -0.336915 -0.433 108 81 72
0.0679029 -0.362592 -0.466 88 68 67
0.0719286 -0.369595 -0.475 90 70 69
0.0762143 -0.377376 -0.485 83 67 70
0.528885 -0.433399 -0.557 130 110 109
0.518694 -0.422506 -0.543 136 109 102
0.501129 -0.385157 -0.495 179 131 108
0.51842 -0.37582 -0.483 178 131 101
0.52486 -0.37582 -0.483 170 124 91
0.62036 -0.42484 -0.546 201 186 163
0.756565 -0.438068 -0.563 209 211 200
0.761131 -0.438846 -0.564 209 211 200
0.771874 -0.438846 -0.564 210 212 201
0.777246 -0.438846 -0.564 209 211 198
0.802677 -0.438068 -0.563 209 211 200
0.810886 -0.43729 -0.562 209 211 198
0.839138 -0.438068 -0.563 208 210 196
0.842355 -0.438068 -0.563 208 210 196
0.861658 -0.438068 -0.563 207 209 195
0.890101 -0.43729 -0.562 206 209 192
0.894383 -0.43729 -0.562 206 209 192
0.914722 -0.43729 -0.562 205 207 193
0.93874 -0.436511 -0.561 204 206 192
0.965454 -0.436511 -0.561 202 206 192
0.976809 -0.43729 -0.562 203 205 191
0.97614 -0.436511 -0.561 203 205 191
0.986444 -0.43729 -0.562 204 207 190
1.00321 -0.438068 -0.563 202 206 191
1.01642 -0.43729 -0.562 203 206 189
0.00272 -0.31824 -0.408 182 135 105
0.0137 -0.32058 -0.411 171 124 98
0.0176571 -0.32136 -0.412 166 115 96
0.0281971 -0.32526 -0.417 154 105 90
0.0407848 -0.33072 -0.424 127 91 79
0.0416905 -0.3315 -0.425 125 89 77
0.05418 -0.34398 -0.441 98 73 68
0.0667276 -0.36192 -0.464 85 69 69
0.0707248 -0.36894 -0.473 91 71 70
0.0763714 -0.37908 -0.486 84 68 71
0.0807771 -0.38688 -0.496 90 75 80
0.107391 -0.43758 -0.561 223 223 235
0.52338 -0.42822 -0.549 130 107 101
0.499804 -0.40092 -0.514 160 119 99
0.495751 -0.39078 -0.501 174 129 108
0.501057 -0.38532 -0.494 179 133 107
0.50286 -0.38454 -0.493 178 132 106
0.511457 -0.37908 -0.486 177 130 100
0.512383 -0.37908 -0.486 180 133 103
0.52561 -0.37596 -0.482 170 126 91
0.533322 -0.37752 -0.484 167 125 87
0.542377 -0.38064 -0.488 147 113 85
0.642667 -0.4368 -0.56 195 198 189
0.687932 -0.43914 -0.563 206 209 200
0.698656 -0.43914 -0.563 207 208 200
0.708308 -0.43914 -0.563 209 210 202
0.750131 -0.43914 -0.563 210 212 199
0.766216 -0.43914 -0.563 209 211 200
0.790881 -0.43914 -0.563 209 211 197
0.801605 -0.43914 -0.563 209 211 198
0.806604 -0.43836 -0.562 209 211 198
0.810886 -0.43836 -0.562 209 211 198
0.813717 -0.43758 -0.561 209 211 198
0.82159 -0.43836 -0.562 208 210 197
0.82627 -0.43914 -0.563 208 210 197
0.867621 -0.43836 -0.562 208 210 196
0.882106 -0.43758 -0.561 207 210 193
0.905088 -0.43836 -0.562 206 208 194
0.907229 -0.43836 -0.562 206 208 194
0.909369 -0.43836 -0.562 206 209 192
0.918437 -0.43758 -0.561 205 207 193
0.921643 -0.43758 -0.561 205 207 193
0.928054 -0.43758 -0.561 205 208 191
0.956906 -0.43758 -0.561 205 207 193
0.985757 -0.43758 -0.561 203 205 191
0.996078 -0.43836 -0.562 202 204 190
1.01535 -0.43836 -0.562 201 205 190
-0.0142714 -0.316671 -0.405 192 152 116
-0.00732857 -0.316671 -0.405 193 151 113
-0.00270667 -0.317453 -0.406 186 141 108
0.00660571 -0.319017 -0.408 179 132 102
0.0121048 -0.320581 -0.41 171 124 96
0.0257524 -0.325272 -0.416 157 109 89
0.033121 -0.327618 -0.419 147 100 84
0.0356848 -0.329182 -0.421 139 96 80
0.0390771 -0.330746 -0.423 131 91 79
0.0631095 -0.35733 -0.457 88 70 68
0.0765286 -0.380788 -0.487 87 71 74
0.0899314 -0.403463 -0.516 171 192 223
0.49784 -0.397208 -0.508 166 124 99
0.499243 -0.387043 -0.495 174 128 104
0.503799 -0.385479 -0.493 178 131 103
0.508914 -0.38157 -0.488 180 133 103
0.512252 -0.379224 -0.485 180 134 101
0.51566 -0.37766 -0.483 176 130 96
0.527446 -0.376878 -0.482 167 124 89
0.53038 -0.37766 -0.483 164 121 86
0.725466 -0.440212 -0.563 209 211 200
0.744769 -0.440212 -0.563 209 211 198
0.759503 -0.43943 -0.562 209 211 200
0.77694 -0.440212 -0.563 211 213 200
0.780157 -0.440212 -0.563 209 211 198
0.782302 -0.440212 -0.563 208 210 197
0.781983 -0.43943 -0.562 208 210 197
0.790881 -0.440212 -0.563 209 211 197
0.806604 -0.43943 -0.562 207 209 198
0.838718 -0.43943 -0.562 208 210 197
0.857529 -0.438649 -0.561 207 209 195
0.863339 -0.43943 -0.562 207 209 195
0.883174 -0.438649 -0.561 207 210 193
0.89386 -0.438649 -0.561 205 207 193
0.934933 -0.437867 -0.56 204 206 192
0.954133 -0.437867 -0.56 204 206 192
0.990031 -0.438649 -0.561 202 204 190
1.00036 -0.43943 -0.562 203 205 191
1.00464 -0.43943 -0.562 203 207 192
1.00965 -0.440212 -0.563 202 206 191
0.000387619 -0.31901 -0.407 182 135 105
0.00738286 -0.319794 -0.408 178 131 101
0.0241676 -0.326065 -0.416 159 111 88
0.029061 -0.327632 -0.418 150 103 83
0.0306533 -0.327632 -0.418 147 102 83
0.034 -0.3292 -0.42 140 96 83
0.0426 -0.333903 -0.426 117 84 75
0.0609657 -0.35585 -0.454 88 68 67
0.0867724 -0.398959 -0.509 187 192 221
0.106133 -0.438933 -0.56 220 222 235
0.529946 -0.436582 -0.557 130 105 100
0.522515 -0.428744 -0.547 126 107 100
0.510314 -0.415419 -0.53 142 112 102
0.497826 -0.397391 -0.507 169 125 98
0.507163 -0.383283 -0.489 179 132 102
0.510531 -0.380931 -0.486 180 134 101
0.51304 -0.379364 -0.484 176 130 97
0.519022 -0.377012 -0.481 175 131 96
0.695274 -0.440501 -0.562 207 208 200
0.707049 -0.440501 -0.562 208 209 201
0.735952 -0.440501 -0.562 209 211 198
0.738093 -0.440501 -0.562 208 210 197
0.746657 -0.440501 -0.562 211 213 200
0.77663 -0.440501 -0.562 209 211 200
0.79662 -0.439717 -0.561 207 209 198
0.807306 -0.439717 -0.561 208 210 199
0.810511 -0.439717 -0.561 208 210 199
0.820129 -0.439717 -0.561 208 210 197
0.825471 -0.439717 -0.561 208 210 197
0.82654 -0.439717 -0.561 208 210 197
0.828677 -0.439717 -0.561 206 208 195
0.836577 -0.440501 -0.562 208 210 197
0.837648 -0.440501 -0.562 207 209 196
0.843637 -0.439717 -0.561 207 209 196
0.847911 -0.439717 -0.561 207 209 196
0.854323 -0.439717 -0.561 207 209 195
0.876763 -0.439717 -0.561 206 208 194
0.877831 -0.439717 -0.561 206 208 194
0.880533 -0.438933 -0.56 207 209 195
0.896533 -0.438933 -0.56 206 208 194
0.903477 -0.439717 -0.561 205 207 193
0.907751 -0.439717 -0.561 206 209 192
0.9072 -0.438933 -0.56 206 209 192
0.950933 -0.438933 -0.56 203 205 191
0.978667 -0.438933 -0.56 204 207 190
0.984689 -0.439717 -0.561 204 206 192
0.992169 -0.439717 -0.561 203 205 191
-0.02442 -0.319786 -0.407 187 146 114
-0.0157752 -0.317429 -0.404 191 148 114
-0.00884952 -0.317429 -0.404 192 149 115
-0.00424286 -0.318214 -0.405 186 141 108
0.00660571 -0.320571 -0.408 175 130 97
0.00818 -0.321357 -0.409 178 131 103
0.0160876 -0.323714 -0.412 169 119 94
0.0315248 -0.329214 -0.419 144 99 80
0.0348 -0.33 -0.42 139 95 82
0.0365733 -0.331571 -0.422 133 91 79
0.0587143 -0.353571 -0.45 91 70 69
0.062239 -0.359071 -0.457 89 69 68
0.0725343 -0.376357 -0.479 88 70 68
0.511277 -0.417214 -0.531 141 113 102
0.503677 -0.407786 -0.519 156 114 98
0.496667 -0.392857 -0.5 165 121 96
0.498362 -0.389714 -0.496 174 128 102
0.50286 -0.387357 -0.493 178 131 103
0.507985 -0.383429 -0.488 177 131 98
0.519183 -0.378714 -0.482 178 132 96
0.523603 -0.377929 -0.481 172 127 94
0.5302 -0.378714 -0.482 164 120 91
0.644713 -0.439214 -0.559 202 197 191
0.713472 -0.441571 -0.562 208 210 199
0.761357 -0.440786 -0.561 207 209 196
0.772043 -0.440786 -0.561 209 211 198
0.778771 -0.441571 -0.562 209 211 200
0.8041 -0.440786 -0.561 208 210 199
0.81158 -0.440786 -0.561 208 210 199
0.815467 -0.44 -0.56 207 209 196
0.819733 -0.44 -0.56 209 211 198
0.856 -0.44 -0.56 207 209 195
0.862871 -0.440786 -0.561 207 209 195
0.866667 -0.44 -0.56 207 209 196
0.8784 -0.44 -0.56 205 208 191
0.8912 -0.44 -0.56 206 209 192
0.895467 -0.44 -0.56 206 209 192
0.9008 -0.44 -0.56 205 207 193
0.986133 -0.44 -0.56 204 206 192
0.988267 -0.44 -0.56 202 204 190
-0.018039 -0.31741 -0.403 189 149 114
0.023319 -0.326862 -0.415 163 113 90
0.0281971 -0.328437 -0.417 151 104 84
0.0348829 -0.331588 -0.421 138 96 82
0.0427 -0.336313 -0.427 113 83 75
0.05334 -0.34734 -0.441 96 71 67
0.0887762 -0.405624 -0.515 195 200 230
0.499807 -0.402473 -0.511 164 121 102
0.497574 -0.393022 -0.499 170 126 101
0.501921 -0.388296 -0.493 177 132 103
0.503626 -0.386721 -0.491 174 129 98
0.504467 -0.385933 -0.49 177 132 101
0.508799 -0.38357 -0.487 177 132 103
0.511457 -0.382783 -0.486 171 126 95
0.528184 -0.378845 -0.481 167 123 94
0.5291 -0.378845 -0.481 167 123 94
0.539043 -0.381995 -0.485 150 115 85
0.686557 -0.441854 -0.561 206 207 199
0.712203 -0.441854 -0.561 208 210 199
0.743191 -0.441854 -0.561 209 211 200
0.757867 -0.441067 -0.56 208 210 197
0.78914 -0.441854 -0.561 208 210 196
0.797333 -0.441067 -0.56 208 210 197
0.837867 -0.441067 -0.56 208 210 197
0.872 -0.441067 -0.56 206 208 194
0.874133 -0.441067 -0.56 206 209 192
0.8752 -0.441067 -0.56 206 209 192
0.877333 -0.441067 -0.56 205 208 191
0.889609 -0.440279 -0.559 206 209 192
0.917292 -0.440279 -0.559 203 205 191
0.927467 -0.441067 -0.56 205 207 193
0.944976 -0.440279 -0.559 204 206 192
0.954559 -0.440279 -0.559 204 206 193
0.97479 -0.440279 -0.559 202 205 188
0.975854 -0.440279 -0.559 202 205 188
0.981867 -0.441067 -0.56 203 206 189
1.01214 -0.442642 -0.562 201 205 190
-0.0292857 -0.323705 -0.41 188 148 113
-0.0188067 -0.318178 -0.403 188 148 113
-0.0149686 -0.318178 -0.403 191 148 114
-0.0126971 -0.318968 -0.404 191 151 116
-0.00884952 -0.318968 -0.404 190 147 115
-0.00347143 -0.319757 -0.405 178 133 100
-0.00116 -0.320547 -0.406 180 135 104
0.00582857 -0.322126 -0.408 176 129 101
0.0113238 -0.323705 -0.41 172 122 99
0.0943905 -0.418448 -0.53 132 152 187
0.503693 -0.408973 -0.518 155 113 97
0.497526 -0.393183 -0.498 179 133 109
0.511196 -0.38213 -0.484 144 98 65
0.51474 -0.38134 -0.483 178 132 99
0.539967 -0.382919 -0.485 150 116 89
0.689763 -0.442923 -0.561 207 208 200
0.692969 -0.442923 -0.561 206 207 199
0.712203 -0.442923 -0.561 208 210 197
0.738917 -0.442923 -0.561 209 211 200
0.741867 -0.442133 -0.56 208 210 199
0.752533 -0.442133 -0.56 208 210 197
0.7696 -0.442133 -0.56 209 211 198
0.770667 -0.442133 -0.56 209 211 198
0.780591 -0.442923 -0.561 209 211 198
0.8016 -0.442133 -0.56 207 209 198
0.802667 -0.442133 -0.56 207 209 198
0.817205 -0.441344 -0.559 208 210 196
0.8272 -0.442133 -0.56 208 210 197
0.842759 -0.441344 -0.559 207 210 193
0.850212 -0.441344 -0.559 207 210 193
0.867249 -0.441344 -0.559 207 210 193
0.878961 -0.441344 -0.559 205 208 191
0.904515 -0.441344 -0.559 204 207 190
0.913033 -0.441344 -0.559 205 207 193
0.93007 -0.441344 -0.559 204 206 192
0.937971 -0.440554 -0.558 204 206 192
0.97092 -0.440554 -0.558 203 206 189
1.01247 -0.442923 -0.561 202 206 191
1.01707 -0.442133 -0.56 202 206 191
-0.246051 -0.441617 -0.558 231 232 226
-0.0259067 -0.32132 -0.406 189 149 114
-0.0195743 -0.318946 -0.403 189 149 114
-0.0188067 -0.318946 -0.403 188 147 115
-0.0157362 -0.318946 -0.403 189 146 111
-0.0126971 -0.319737 -0.404 193 150 115
-0.0111581 -0.319737 -0.404 191 148 114
0.00116 -0.32132 -0.406 180 133 105
0.00271333 -0.322111 -0.407 177 130 102
0.00503905 -0.322111 -0.407 178 128 101
0.0152657 -0.325277 -0.411 166 116 93
0.0176571 -0.326069 -0.412 165 115 92
0.0315248 -0.331609 -0.419 147 101 85
0.0400714 -0.336357 -0.425 121 84 75
0.06496 -0.367223 -0.464 88 68 69
0.0662695 -0.369597 -0.467 88 70 70
0.0811029 -0.394131 -0.498 79 73 85
0.524514 -0.433703 -0.548 114 94 87
0.515129 -0.423414 -0.535 135 108 99
0.510405 -0.383843 -0.485 178 131 103
0.513674 -0.381469 -0.482 179 132 102
0.522514 -0.379886 -0.48 173 128 97
0.68 -0.4432 -0.56 205 206 198
0.6928 -0.4432 -0.56 206 208 197
0.701333 -0.4432 -0.56 207 209 198
0.712 -0.4432 -0.56 207 209 196
0.751467 -0.4432 -0.56 209 211 198
0.7536 -0.4432 -0.56 209 211 198
0.758643 -0.442409 -0.559 210 212 199
0.79378 -0.442409 -0.559 208 210 197
0.809751 -0.442409 -0.559 208 210 196
0.810816 -0.442409 -0.559 209 211 197
0.81614 -0.442409 -0.559 207 210 193
0.817205 -0.442409 -0.559 207 210 193
0.823593 -0.442409 -0.559 207 209 196
0.825723 -0.442409 -0.559 208 210 197
0.831467 -0.4432 -0.56 206 208 195
0.83637 -0.442409 -0.559 208 210 196
0.844889 -0.442409 -0.559 208 211 194
0.871508 -0.442409 -0.559 206 209 192
0.891738 -0.442409 -0.559 204 206 192
0.924154 -0.441617 -0.558 203 205 191
0.942223 -0.441617 -0.558 203 205 191
0.9486 -0.441617 -0.558 203 205 191
0.992533 -0.4432 -0.56 202 204 190
0.99858 -0.443991 -0.561 203 205 191
-0.00654095 -0.320507 -0.404 187 142 111
-0.00347143 -0.3213 -0.405 178 133 102
-0.00115714 -0.3213 -0.405 181 134 104
0.00270667 -0.322093 -0.406 176 129 101
0.0184867 -0.327647 -0.413 164 114 89
0.0208971 -0.32844 -0.414 164 117 91
0.0418867 -0.338753 -0.427 115 82 73
0.0428 -0.339547 -0.428 111 81 73
0.0456686 -0.34272 -0.432 108 79 73
0.0525 -0.34986 -0.441 96 73 67
0.0613686 -0.362553 -0.457 89 70 66
0.0782514 -0.39032 -0.492 79 66 73
0.518914 -0.4284 -0.54 129 105 95
0.500186 -0.3927 -0.495 173 127 101
0.50269 -0.389527 -0.491 177 132 103
0.641157 -0.4403 -0.555 199 199 189
0.644529 -0.441887 -0.557 199 199 189
0.648972 -0.443473 -0.559 202 202 194
0.687304 -0.443473 -0.559 206 208 197
0.694757 -0.443473 -0.559 206 208 197
0.695822 -0.443473 -0.559 207 209 198
0.703275 -0.443473 -0.559 207 209 198
0.7056 -0.444267 -0.56 208 210 199
0.707733 -0.444267 -0.56 207 209 198
0.713067 -0.444267 -0.56 208 210 197
0.768226 -0.443473 -0.559 208 210 197
0.81468 -0.44268 -0.558 207 209 195
0.815743 -0.44268 -0.558 207 209 195
0.840189 -0.44268 -0.558 207 209 195
0.844889 -0.443473 -0.559 208 210 196
0.847018 -0.443473 -0.559 208 210 196
0.866184 -0.443473 -0.559 207 209 195
0.910904 -0.443473 -0.559 205 208 189
0.932657 -0.44268 -0.558 203 205 191
0.934783 -0.44268 -0.558 203 205 191
0.946474 -0.44268 -0.558 204 207 190
0.9486 -0.44268 -0.558 204 207 190
0.969857 -0.44268 -0.558 205 208 191
0.991467 -0.444267 -0.56 203 205 191
0.9936 -0.444267 -0.56 203 205 191
1.02133 -0.444267 -0.56 201 205 190
-0.0307724 -0.325252 -0.409 187 146 116
-0.02424 -0.321276 -0.404 187 146 114
-0.0164629 -0.319686 -0.402 183 140 108
-0.0149686 -0.320481 -0.403 183 140 106
-0.014201 -0.320481 -0.403 186 141 108
-0.000385714 -0.322071 -0.405 180 133 103
0.00895905 -0.325252 -0.409 171 122 92
0.0168724 -0.327638 -0.412 168 118 91
0.02006 -0.328433 -0.413 164 114 89
0.0216857 -0.329229 -0.414 163 115 92
0.0257524 -0.330819 -0.416 151 104 84
0.0400714 -0.337976 -0.425 121 84 75
0.052619 -0.351495 -0.442 95 72 66
0.0686314 -0.374557 -0.471 86 70 70
0.510437 -0.41909 -0.527 143 110 93
0.49979 -0.404776 -0.509 168 123 100
0.498791 -0.403186 -0.507 166 120 96
0.498771 -0.40239 -0.506 169 123 99
0.497697 -0.39921 -0.502 171 123 100
0.5053 -0.388871 -0.489 181 134 106
0.506231 -0.388871 -0.489 178 131 103
0.648874 -0.443743 -0.558 201 201 193
0.70221 -0.444538 -0.559 206 208 197
0.72883 -0.444538 -0.559 208 210 199
0.735218 -0.444538 -0.559 208 210 199
0.75119 -0.444538 -0.559 209 211 198
0.755449 -0.444538 -0.559 208 210 197
0.765789 -0.443743 -0.558 209 211 198
0.766851 -0.443743 -0.558 208 210 197
0.809366 -0.443743 -0.558 210 212 198
0.821057 -0.443743 -0.558 208 210 197
0.824246 -0.443743 -0.558 206 208 195
0.845503 -0.443743 -0.558 208 210 196
0.852943 -0.443743 -0.558 208 211 194
0.8742 -0.443743 -0.558 207 210 193
0.891738 -0.444538 -0.559 205 208 191
0.911969 -0.444538 -0.559 205 208 189
0.91884 -0.443743 -0.558 204 207 188
0.927343 -0.443743 -0.558 203 206 189
0.928406 -0.443743 -0.558 204 206 192
0.935846 -0.443743 -0.558 204 206 192
0.953914 -0.443743 -0.558 204 207 190
0.971983 -0.443743 -0.558 204 207 190
0.983308 -0.444538 -0.559 204 207 190
0.985437 -0.444538 -0.559 204 206 192
0.9968 -0.445333 -0.56 205 207 193
1.02133 -0.445333 -0.56 201 205 190
-0.02418 -0.321249 -0.403 185 144 112
-0.0141657 -0.320451 -0.402 186 141 110
0.0113238 -0.326829 -0.41 173 123 96
0.0374657 -0.337191 -0.423 127 89 78
0.0456686 -0.344366 -0.432 108 78 70
0.0567467 -0.35712 -0.448 89 68 63
0.0578571 -0.358714 -0.45 88 69 65
0.060101 -0.361903 -0.454 86 68 66
0.0728371 -0.383426 -0.481 90 72 70
0.0815914 -0.399369 -0.501 80 76 90
0.498771 -0.403354 -0.506 167 121 97
0.49842 -0.39618 -0.497 173 126 100
0.506126 -0.389006 -0.488 174 129 100
0.508557 -0.386614 -0.485 180 133 105
0.50843 -0.385817 -0.484 182 135 107
0.513525 -0.383426 -0.481 178 131 101
0.541619 -0.385817 -0.484 159 116 84
0.662814 -0.445603 -0.559 202 203 195
0.672397 -0.445603 -0.559 204 205 197
0.678786 -0.445603 -0.559 206 207 199
0.727765 -0.445603 -0.559 207 209 198
0.738154 -0.444806 -0.558 209 211 200
0.74772 -0.444806 -0.558 209 211 200
0.756223 -0.444806 -0.558 207 209 196
0.759411 -0.444806 -0.558 210 212 199
0.779606 -0.444806 -0.558 208 210 197
0.812159 -0.444009 -0.557 208 210 197
0.832749 -0.444806 -0.558 207 209 195
0.847629 -0.444806 -0.558 207 209 195
0.871011 -0.444806 -0.558 206 209 192
0.873137 -0.444806 -0.558 206 209 192
0.876326 -0.444806 -0.558 206 209 192
0.88164 -0.444806 -0.558 206 208 194
0.883766 -0.444806 -0.558 206 208 194
0.892269 -0.444806 -0.558 206 209 190
0.893331 -0.444806 -0.558 205 208 189
0.895457 -0.444806 -0.558 205 208 189
0.915651 -0.444806 -0.558 204 207 188
0.924154 -0.444806 -0.558 204 207 190
0.925217 -0.444806 -0.558 205 208 191
0.929469 -0.444806 -0.558 204 206 192
0.952851 -0.444806 -0.558 204 206 192
-0.00575714 -0.322016 -0.403 185 138 108
0.00895905 -0.32681 -0.409 173 123 96
0.0097381 -0.32681 -0.409 172 122 95
0.0136667 -0.32761 -0.41 173 123 98
0.0201086 -0.330806 -0.414 163 113 88
0.0281971 -0.333203 -0.417 146 101 82
0.0557686 -0.357174 -0.447 88 69 65
0.0591057 -0.361969 -0.453 87 67 66
0.0743667 -0.387538 -0.485 91 73 71
0.522758 -0.434682 -0.544 125 106 100
0.517112 -0.42829 -0.536 132 105 96
0.498525 -0.398725 -0.499 173 127 101
0.498362 -0.396328 -0.496 172 127 98
0.500982 -0.39393 -0.493 177 130 102
0.504369 -0.390734 -0.489 177 132 103
0.506126 -0.389935 -0.488 175 130 101
0.510776 -0.384342 -0.481 178 131 101
0.518689 -0.382744 -0.479 177 130 100
0.53055 -0.382744 -0.479 161 118 86
0.691389 -0.445869 -0.558 206 208 197
0.706269 -0.445869 -0.558 207 209 198
0.709457 -0.445869 -0.558 207 209 196
0.738953 -0.44507 -0.557 207 209 196
0.779606 -0.445869 -0.558 209 211 198
0.785635 -0.44507 -0.557 209 211 198
0.796245 -0.44507 -0.557 207 209 196
0.797306 -0.44507 -0.557 207 209 196
0.832317 -0.44507 -0.557 207 209 195
0.839744 -0.44507 -0.557 207 209 195
0.842927 -0.44507 -0.557 206 208 194
0.876877 -0.44507 -0.557 206 208 194
0.913526 -0.445869 -0.558 206 209 190
0.945411 -0.445869 -0.558 203 205 191
0.952851 -0.445869 -0.558 204 207 190
-0.0349219 -0.329992 -0.412 187 146 114
-0.0340543 -0.329191 -0.411 184 143 111
-0.0218229 -0.321983 -0.402 187 144 112
-0.0149314 -0.321983 -0.402 189 146 112
-0.0134 -0.321983 -0.402 188 143 110
-0.0126343 -0.321983 -0.402 187 142 109
-0.00423238 -0.323585 -0.404 185 140 107
0.00193333 -0.325187 -0.406 177 127 100
0.00426381 -0.325988 -0.407 180 130 105
0.00895905 -0.32759 -0.409 173 123 98
0.0097381 -0.32759 -0.409 173 123 98
0.0105171 -0.32759 -0.409 173 123 98
0.0152657 -0.329191 -0.411 166 116 93
0.0485829 -0.349215 -0.436 103 75 71
0.0557686 -0.358026 -0.447 87 67 66
0.0801543 -0.398874 -0.498 85 74 80
0.0817543 -0.402078 -0.502 115 113 127
0.508555 -0.418898 -0.523 147 111 97
0.498571 -0.400476 -0.5 173 127 101
0.498525 -0.399675 -0.499 175 130 101
0.500903 -0.394069 -0.492 173 128 99
0.521248 -0.382855 -0.478 173 127 94
0.521974 -0.382054 -0.477 172 127 94
0.533287 -0.383656 -0.479 162 117 86
0.540299 -0.386059 -0.482 160 116 87
0.557131 -0.394069 -0.492 148 107 77
0.650894 -0.44613 -0.557 200 200 192
0.666943 -0.446931 -0.558 203 206 197
0.681823 -0.446931 -0.558 205 206 198
0.69564 -0.446931 -0.558 205 207 196
0.696703 -0.446931 -0.558 205 207 196
0.702017 -0.446931 -0.558 206 208 197
0.716897 -0.446931 -0.558 207 209 198
0.719023 -0.446931 -0.558 207 209 196
0.730714 -0.446931 -0.558 208 210 197
0.731777 -0.446931 -0.558 208 210 197
0.750909 -0.446931 -0.558 209 211 200
0.773965 -0.44613 -0.557 207 209 198
0.783513 -0.44613 -0.557 207 209 196
0.784574 -0.44613 -0.557 209 211 198
0.808583 -0.44533 -0.556 207 209 195
0.815996 -0.44533 -0.556 208 210 196
0.857194 -0.446931 -0.558 207 210 193
0.90396 -0.446931 -0.558 204 207 190
0.906086 -0.446931 -0.558 204 207 190
0.908211 -0.446931 -0.558 203 206 189
0.929925 -0.44613 -0.557 204 206 192
0.939034 -0.446931 -0.558 203 205 191
0.946474 -0.446931 -0.558 204 206 192
0.952851 -0.446931 -0.558 202 205 188
0.959229 -0.446931 -0.558 204 207 190
-0.334586 -0.445586 -0.555 225 228 219
-0.332471 -0.445586 -0.555 225 228 221
-0.0210571 -0.322749 -0.402 185 144 112
0.0168724 -0.330777 -0.412 162 112 89
0.0281971 -0.334791 -0.417 145 99 83
0.0505895 -0.352454 -0.439 94 73 70
0.0627838 -0.370117 -0.461 89 69 71
0.509528 -0.420697 -0.524 143 111 100
0.505667 -0.41588 -0.518 149 113 99
0.629486 -0.436754 -0.544 204 194 184
0.6475 -0.445586 -0.555 200 200 192
0.658321 -0.447191 -0.557 202 203 195
0.661504 -0.447191 -0.557 203 204 196
0.79094 -0.447191 -0.557 208 210 196
0.80011 -0.446389 -0.556 209 211 197
0.803288 -0.446389 -0.556 208 210 196
0.835059 -0.446389 -0.556 207 209 196
0.841413 -0.446389 -0.556 208 210 196
0.864146 -0.447191 -0.557 206 208 194
0.871572 -0.447191 -0.557 207 210 193
0.872633 -0.447191 -0.557 206 208 194
0.876877 -0.447191 -0.557 205 207 193
0.945411 -0.447994 -0.558 204 206 192
0.952851 -0.447994 -0.558 203 205 191
0.00193333 -0.326733 -0.406 177 130 100
0.00895905 -0.329148 -0.409 173 123 96
0.023319 -0.333976 -0.415 154 106 84
0.0298571 -0.33639 -0.418 139 96 79
0.0383619 -0.341219 -0.424 125 88 72
0.499647 -0.404795 -0.503 167 123 96
0.500251 -0.399162 -0.496 178 133 104
0.500116 -0.397552 -0.494 175 128 100
0.500903 -0.395943 -0.492 175 131 102
0.50671 -0.39031 -0.485 178 131 101
0.510629 -0.386286 -0.48 174 128 95
0.527426 -0.383871 -0.477 169 123 90
0.5558 -0.394333 -0.49 154 111 79
0.680601 -0.448252 -0.557 205 206 198
0.71243 -0.448252 -0.557 207 209 198
0.728344 -0.448252 -0.557 208 210 199
0.731272 -0.447448 -0.556 209 211 200
0.735509 -0.447448 -0.556 209 211 200
0.769398 -0.447448 -0.556 208 210 199
0.786343 -0.447448 -0.556 208 210 196
0.792697 -0.447448 -0.556 207 209 195
0.821291 -0.447448 -0.556 208 210 197
0.827646 -0.447448 -0.556 208 210 197
0.830823 -0.447448 -0.556 206 208 195
0.837177 -0.447448 -0.556 206 208 194
0.85778 -0.448252 -0.557 207 209 195
-0.32132 -0.446893 -0.554 226 227 221
-0.29705 -0.446893 -0.554 227 228 220
-0.294939 -0.446893 -0.554 228 229 221
-0.0279486 -0.32428 -0.402 191 151 116
-0.0217686 -0.323473 -0.401 189 146 114
-0.020241 -0.323473 -0.401 189 146 114
-0.00729238 -0.325087 -0.403 184 139 108
-0.00423238 -0.325893 -0.404 183 138 107
0.00193333 -0.327507 -0.406 176 129 101
0.0192733 -0.333153 -0.413 162 112 89
0.0549171 -0.36058 -0.447 90 69 64
0.512411 -0.42592 -0.528 138 110 99
0.504977 -0.39204 -0.486 181 135 102
0.507509 -0.390427 -0.484 177 131 98
0.524507 -0.383973 -0.476 167 122 89
0.533994 -0.385587 -0.478 163 118 87
0.669848 -0.448507 -0.556 203 204 196
0.680438 -0.448507 -0.556 204 205 197
0.686792 -0.448507 -0.556 206 208 197
0.691029 -0.448507 -0.556 205 207 196
0.697383 -0.448507 -0.556 205 207 194
0.703737 -0.448507 -0.556 207 209 198
0.729154 -0.448507 -0.556 208 210 199
0.732331 -0.448507 -0.556 208 210 199
0.737627 -0.448507 -0.556 208 210 197
0.741586 -0.4477 -0.555 209 211 198
0.750335 -0.448507 -0.556 208 210 197
0.752453 -0.448507 -0.556 208 210 197
0.77893 -0.448507 -0.556 208 210 197
0.799051 -0.448507 -0.556 207 209 195
0.809243 -0.4477 -0.555 207 209 195
0.827646 -0.448507 -0.556 208 210 197
0.834 -0.448507 -0.556 207 209 196
0.846709 -0.448507 -0.556 206 208 195
-0.0303962 -0.326663 -0.404 189 146 114
-0.0287857 -0.325854 -0.403 188 148 113
-0.0264171 -0.325046 -0.402 192 149 115
-0.0225324 -0.324237 -0.401 187 144 112
-0.0171857 -0.324237 -0.401 189 144 113
-0.00957143 -0.325046 -0.402 186 139 109
0.00116 -0.32828 -0.406 176 129 99
0.0241095 -0.335557 -0.415 150 104 80
0.0315248 -0.338791 -0.419 137 94 78
0.04026 -0.34526 -0.427 115 81 69
0.0448457 -0.349303 -0.432 108 79 71
0.521936 -0.437437 -0.541 123 105 103
0.499367 -0.40186 -0.497 174 129 98
0.499307 -0.401051 -0.496 175 130 97
0.500043 -0.398626 -0.493 181 134 106
0.501755 -0.397009 -0.491 176 131 100
0.507248 -0.389731 -0.482 175 129 96
0.510629 -0.388114 -0.48 175 129 95
0.510477 -0.387306 -0.479 175 129 95
0.513214 -0.387306 -0.479 176 130 96
0.521787 -0.38488 -0.476 170 125 92
0.52632 -0.38488 -0.476 168 122 89
0.537849 -0.387306 -0.479 163 118 87
0.539886 -0.388114 -0.48 161 116 85
0.542843 -0.388923 -0.481 158 113 82
0.5586 -0.3962 -0.49 149 110 81
0.673025 -0.449566 -0.556 204 205 197
0.694014 -0.448757 -0.555 205 207 194
0.720682 -0.449566 -0.556 207 209 196
0.7289 -0.448757 -0.555 208 210 199
0.735243 -0.448757 -0.555 208 210 197
0.738414 -0.448757 -0.555 209 211 198
0.781757 -0.448757 -0.555 208 210 197
0.783871 -0.448757 -0.555 208 210 196
0.785986 -0.448757 -0.555 208 210 196
0.787043 -0.448757 -0.555 208 210 196
0.799729 -0.448757 -0.555 208 210 196
0.803957 -0.448757 -0.555 208 210 196
0.813471 -0.448757 -0.555 208 210 196
0.822986 -0.448757 -0.555 208 210 196
0.834 -0.449566 -0.556 207 209 196
0.837177 -0.449566 -0.556 207 209 195
0.842472 -0.449566 -0.556 206 208 194
-0.335487 -0.448193 -0.553 226 227 221
-0.0344981 -0.329864 -0.407 191 148 114
-0.00880571 -0.325811 -0.402 187 140 112
-0.00575714 -0.326622 -0.403 180 133 105
0.0216857 -0.335537 -0.414 153 107 83
0.0266086 -0.337969 -0.417 141 96 75
0.0518943 -0.359041 -0.443 96 71 64
0.0874886 -0.420637 -0.519 115 138 179
0.522901 -0.439278 -0.542 122 104 102
0.500043 -0.399565 -0.493 179 134 105
0.503233 -0.394702 -0.487 180 133 103
0.517431 -0.386597 -0.477 175 131 96
0.522693 -0.385787 -0.476 174 128 95
0.53106 -0.386597 -0.477 165 119 86
0.548994 -0.39227 -0.484 157 112 81
0.647154 -0.447383 -0.552 200 200 192
0.667586 -0.449814 -0.555 204 205 197
0.697186 -0.449814 -0.555 205 207 194
0.718329 -0.449814 -0.555 207 209 195
0.726786 -0.449814 -0.555 208 210 197
0.7881 -0.449814 -0.555 207 209 195
0.837177 -0.450625 -0.556 206 210 196
0.84459 -0.450625 -0.556 207 211 194
1.04286 -0.464403 -0.573 101 102 97
-0.03364 -0.329827 -0.406 187 144 110
-0.0319352 -0.328202 -0.404 190 145 112
-0.0210048 -0.325765 -0.401 191 146 113
-0.0171857 -0.325765 -0.401 186 141 108
-0.015619 -0.324952 -0.4 184 137 107
-0.0126029 -0.325765 -0.401 185 140 109
-0.00192381 -0.328202 -0.404 179 132 102
0.00426381 -0.330639 -0.407 171 124 94
0.00738286 -0.331451 -0.408 171 121 94
0.00816 -0.331451 -0.408 172 122 95
0.0168724 -0.334701 -0.412 157 107 84
0.0551629 -0.364759 -0.449 92 69 63
0.05738 -0.368009 -0.453 89 68 63
0.0585 -0.369633 -0.455 91 70 67
0.50568 -0.419189 -0.516 153 114 99
0.502714 -0.414314 -0.51 160 120 95
0.501689 -0.411877 -0.507 162 122 97
0.500523 -0.407003 -0.501 166 125 97
0.504743 -0.393192 -0.484 176 131 98
0.536726 -0.388318 -0.478 166 121 90
0.55725 -0.396442 -0.488 148 111 82
0.632466 -0.441123 -0.543 195 192 183
0.651487 -0.449247 -0.553 199 200 192
0.656886 -0.450059 -0.554 201 202 194
0.69804 -0.450059 -0.554 206 208 197
0.701414 -0.450871 -0.555 207 209 198
0.725729 -0.450871 -0.555 207 209 196
0.744471 -0.450059 -0.554 209 211 200
0.776471 -0.450871 -0.555 209 211 200
0.785986 -0.450871 -0.555 208 210 196
0.787043 -0.450871 -0.555 208 210 197
0.789157 -0.450871 -0.555 209 211 197
0.791271 -0.450871 -0.555 208 210 196
0.816643 -0.450871 -0.555 207 210 199
0.820871 -0.450871 -0.555 207 209 195
1.05636 -0.469556 -0.578 106 104 105
-0.328571 -0.449486 -0.552 226 227 221
-0.262331 -0.449486 -0.552 227 228 222
-0.260229 -0.449486 -0.552 228 229 223
