ply
format ascii 1.0
comment Created by Open3D
element vertex 1282
property double x
property double y
property double z
property uchar red
property uchar green
property uchar blue
end_header
0.0155257 -0.34276 -0.418 166 119 89
0.0220524 -0.34522 -0.421 162 115 87
0.0261238 -0.34604 -0.422 151 104 84
0.0286029 -0.34686 -0.423 148 102 86
0.0327857 -0.3485 -0.425 143 100 83
0.0444305 -0.35752 -0.436 116 87 79
0.0463029 -0.35916 -0.438 112 85 76
0.0798324 -0.40672 -0.496 93 71 74
0.503693 -0.42476 -0.518 148 111 92
0.497619 -0.41 -0.5 166 125 97
0.497293 -0.40508 -0.494 176 133 101
0.498165 -0.40426 -0.493 177 134 102
0.49895 -0.40262 -0.491 181 134 106
0.500643 -0.40098 -0.489 178 131 101
0.504743 -0.39688 -0.484 176 130 96
0.514127 -0.39278 -0.479 182 136 103
0.519973 -0.39032 -0.476 171 126 93
0.530151 -0.39114 -0.477 162 118 89
0.629486 -0.44608 -0.544 194 198 184
-0.330075 -0.45287 -0.551 226 227 219
-0.32063 -0.45287 -0.551 227 228 222
-0.306986 -0.45287 -0.551 227 228 222
-0.287045 -0.45287 -0.551 228 229 221
-0.0285743 -0.337803 -0.411 191 150 118
-0.023761 -0.336159 -0.409 188 145 113
-0.00429524 -0.336981 -0.41 181 134 104
0.0130743 -0.341912 -0.416 170 121 91
0.0294086 -0.347666 -0.423 145 99 84
0.0370933 -0.351775 -0.428 135 93 81
0.0389048 -0.353419 -0.43 133 93 81
0.0416505 -0.355885 -0.433 120 83 74
0.0473524 -0.361638 -0.44 111 82 76
0.0717714 -0.394514 -0.48 85 72 66
0.07314 -0.39698 -0.483 89 68 73
0.522427 -0.450404 -0.548 117 100 93
0.500785 -0.420815 -0.512 154 117 99
0.497619 -0.410952 -0.5 168 127 99
0.498091 -0.404377 -0.492 179 136 102
0.49895 -0.403555 -0.491 178 133 102
0.500643 -0.401911 -0.489 177 132 99
0.509714 -0.394514 -0.48 178 132 99
0.517431 -0.392049 -0.477 174 129 96
0.838219 -0.465198 -0.566 117 117 109
0.84834 -0.46602 -0.567 119 118 113
0.85158 -0.46602 -0.567 121 120 115
0.862819 -0.466842 -0.568 118 115 108
-0.322143 -0.453095 -0.55 227 228 222
-0.0529048 -0.453095 -0.55 181 140 108
-0.0506248 -0.451448 -0.548 170 129 97
-0.03014 -0.338586 -0.411 191 148 114
-0.0237029 -0.336114 -0.408 190 147 115
-0.0229257 -0.336114 -0.408 187 144 112
0.000392381 -0.33941 -0.412 178 129 99
0.00909048 -0.341881 -0.415 171 124 94
0.0220524 -0.346824 -0.421 158 113 84
0.0294086 -0.348471 -0.423 144 98 83
0.0302857 -0.349295 -0.424 143 100 84
0.0389048 -0.354238 -0.43 131 91 81
0.0707095 -0.394605 -0.479 85 72 66
0.0787286 -0.407786 -0.495 86 70 70
0.512289 -0.437443 -0.531 130 103 92
0.4998 -0.420143 -0.51 158 117 97
0.503821 -0.398724 -0.484 177 131 97
0.506195 -0.396252 -0.481 179 134 101
0.519786 -0.39131 -0.475 170 125 92
0.650957 -0.452271 -0.549 202 203 195
0.83538 -0.4671 -0.567 117 116 111
0.83646 -0.4671 -0.567 116 115 110
0.843345 -0.467924 -0.568 115 114 109
0.873902 -0.470395 -0.571 117 117 109
0.878054 -0.472043 -0.573 115 115 107
0.882214 -0.47369 -0.575 114 114 106
-0.332014 -0.453317 -0.549 224 225 219
-0.321095 -0.454143 -0.55 226 227 219
-0.304333 -0.454143 -0.55 227 228 222
0.0130743 -0.343497 -0.416 163 116 88
0.0179571 -0.345974 -0.419 164 114 87
0.0302857 -0.350103 -0.424 144 100 87
0.03538 -0.35258 -0.427 137 95 81
0.0504333 -0.367443 -0.445 101 78 70
0.0545495 -0.372397 -0.451 95 72 64
0.0566419 -0.374874 -0.454 93 73 66
0.0817543 -0.414509 -0.502 79 81 94
0.0864771 -0.423591 -0.513 116 143 198
0.0918486 -0.435151 -0.527 74 109 167
0.505638 -0.429371 -0.52 144 111 94
0.519786 -0.392214 -0.475 172 127 94
0.52431 -0.392214 -0.475 169 123 90
0.527024 -0.392214 -0.475 165 121 86
0.527929 -0.392214 -0.475 165 121 86
0.53176 -0.39304 -0.476 165 119 83
0.5408 -0.396343 -0.48 157 114 79
0.54489 -0.397994 -0.482 152 113 82
0.82097 -0.467354 -0.566 117 117 109
0.850657 -0.470657 -0.57 118 117 112
0.851743 -0.470657 -0.57 118 117 112
-0.332014 -0.454363 -0.549 225 226 220
-0.292277 -0.454363 -0.549 226 227 219
-0.0237029 -0.337669 -0.408 189 144 111
-0.0205438 -0.336841 -0.407 191 147 112
-0.0182181 -0.336841 -0.407 188 144 109
-0.00893714 -0.337669 -0.408 183 137 104
0.00670286 -0.342634 -0.414 173 124 94
0.0146943 -0.345117 -0.417 165 116 86
0.0196 -0.3476 -0.42 163 113 86
0.0261238 -0.349255 -0.422 140 93 75
0.0567667 -0.376567 -0.455 93 73 64
0.0683095 -0.393119 -0.475 90 71 67
0.52156 -0.45188 -0.546 115 101 92
0.499757 -0.419603 -0.507 157 116 94
0.497574 -0.412982 -0.499 165 124 96
0.497417 -0.410499 -0.496 169 128 96
0.50278 -0.39974 -0.483 177 131 98
0.505279 -0.398085 -0.481 178 133 100
0.525011 -0.392291 -0.474 165 121 86
0.526817 -0.392291 -0.474 165 121 86
0.536511 -0.394774 -0.477 157 113 78
0.806251 -0.466777 -0.564 101 101 101
0.816657 -0.468432 -0.566 123 120 115
0.827116 -0.470088 -0.568 119 119 111
0.830362 -0.470088 -0.568 118 118 110
0.831444 -0.470088 -0.568 115 116 110
0.863866 -0.474226 -0.573 122 123 115
0.871933 -0.475053 -0.574 119 119 109
0.873027 -0.475053 -0.574 120 120 110
-0.334106 -0.455409 -0.549 226 227 221
-0.323649 -0.455409 -0.549 224 225 219
-0.31842 -0.455409 -0.549 226 227 222
-0.291231 -0.455409 -0.549 227 228 220
-0.0350914 -0.343423 -0.414 188 145 110
-0.0341371 -0.341764 -0.412 187 144 109
-0.0317057 -0.340934 -0.411 184 142 104
-0.0275886 -0.338446 -0.408 189 144 111
-0.0205438 -0.337616 -0.407 191 147 110
-0.0143419 -0.337616 -0.407 184 140 105
-0.00429524 -0.340105 -0.41 184 135 103
0.00670286 -0.343423 -0.414 174 123 96
0.00909048 -0.344252 -0.415 173 124 94
0.0114895 -0.345082 -0.416 169 122 92
0.0556543 -0.375774 -0.453 94 74 67
0.0578867 -0.379092 -0.457 94 74 67
0.0683095 -0.394024 -0.475 89 70 64
0.49878 -0.405637 -0.489 177 134 102
0.499523 -0.403978 -0.487 180 135 104
0.505279 -0.399001 -0.481 178 133 100
0.514706 -0.395683 -0.477 177 131 97
0.535387 -0.394853 -0.476 159 114 81
0.634667 -0.451261 -0.544 196 196 188
0.825321 -0.471999 -0.569 127 126 121
0.885043 -0.480294 -0.579 124 125 117
-0.330366 -0.455623 -0.548 225 226 220
-0.301139 -0.455623 -0.548 226 227 219
-0.300095 -0.455623 -0.548 226 227 219
-0.0341371 -0.342549 -0.412 181 141 105
-0.02442 -0.338391 -0.407 190 147 113
-0.0135667 -0.338391 -0.407 184 138 105
0.00909048 -0.345043 -0.415 173 123 96
0.0319762 -0.353357 -0.425 141 99 83
0.04746 -0.36666 -0.441 108 79 75
0.0590143 -0.381626 -0.459 92 73 67
0.0601495 -0.383289 -0.461 92 73 67
0.063601 -0.388277 -0.467 90 72 68
0.508467 -0.437331 -0.526 135 106 92
0.500771 -0.424029 -0.51 148 111 92
0.497226 -0.409894 -0.493 168 127 97
0.503575 -0.400749 -0.482 176 131 98
0.533357 -0.394929 -0.475 163 117 83
0.634534 -0.451466 -0.543 196 196 188
0.816297 -0.472251 -0.568 103 102 97
0.823514 -0.473914 -0.57 120 119 114
0.8246 -0.473914 -0.57 125 124 119
0.860709 -0.478903 -0.576 114 117 110
0.861405 -0.478071 -0.575 110 111 106
0.86469 -0.478071 -0.575 105 106 101
0.878689 -0.479734 -0.577 105 106 98
-0.33141 -0.456667 -0.548 225 226 220
-0.284438 -0.456667 -0.548 227 228 220
-0.0359667 -0.345833 -0.415 186 146 111
-0.0212667 -0.338333 -0.406 190 147 112
-0.0158533 -0.338333 -0.406 182 136 103
-0.00584286 -0.340833 -0.409 180 131 101
-0.00195238 -0.341667 -0.41 177 128 98
0.0408257 -0.360833 -0.433 117 80 71
0.0427695 -0.363333 -0.436 114 79 73
0.0580133 -0.381667 -0.458 97 74 68
0.0591429 -0.383333 -0.46 93 72 67
0.07222 -0.4025 -0.483 82 70 70
0.0949667 -0.449167 -0.539 106 127 170
0.519804 -0.451667 -0.542 117 97 90
0.514166 -0.445 -0.534 124 102 91
0.503714 -0.43 -0.516 142 106 90
0.497226 -0.410833 -0.493 170 129 99
0.498091 -0.41 -0.492 174 133 103
0.504363 -0.400833 -0.481 179 134 101
0.51198 -0.3975 -0.477 180 134 101
0.519786 -0.395833 -0.475 176 132 97
0.520497 -0.395 -0.474 174 129 96
0.533137 -0.395 -0.474 159 116 82
0.639986 -0.454167 -0.545 205 202 193
0.643376 -0.455833 -0.547 204 201 192
0.852643 -0.479167 -0.575 110 111 105
0.853738 -0.479167 -0.575 114 115 110
0.859611 -0.48 -0.576 84 85 80
0.863302 -0.480833 -0.577 85 87 84
0.890737 -0.485 -0.582 104 105 99
-0.296422 -0.456875 -0.547 226 227 221
-0.294338 -0.456875 -0.547 226 227 221
-0.0212667 -0.339107 -0.406 189 145 110
-0.0174 -0.339107 -0.406 184 138 104
-0.0119867 -0.339107 -0.406 182 136 103
-0.00350571 -0.341612 -0.409 177 128 98
0.00909048 -0.346624 -0.415 172 122 95
0.0179571 -0.349965 -0.419 163 116 90
0.0244581 -0.351635 -0.421 145 100 79
0.0277971 -0.353306 -0.423 143 100 83
0.0446343 -0.365834 -0.438 112 82 74
0.0591429 -0.38421 -0.46 94 73 68
0.0723695 -0.404255 -0.484 84 70 69
0.0825686 -0.423466 -0.507 100 111 143
0.0840286 -0.425971 -0.51 95 106 138
0.505618 -0.435159 -0.521 134 105 91
0.499757 -0.423466 -0.507 151 113 90
0.498362 -0.414278 -0.496 167 126 98
0.497933 -0.409267 -0.49 176 133 101
0.51272 -0.397573 -0.476 179 133 99
0.554748 -0.40509 -0.485 149 110 81
0.825666 -0.478591 -0.573 104 105 100
0.834397 -0.478591 -0.573 124 125 119
0.868797 -0.481932 -0.577 108 110 105
0.874707 -0.482768 -0.578 104 107 100
0.875808 -0.482768 -0.578 98 101 94
0.885887 -0.485273 -0.581 106 103 98
-0.30059 -0.457917 -0.547 227 228 222
-0.292254 -0.457917 -0.547 227 228 222
-0.291212 -0.457917 -0.547 226 227 221
-0.0412657 -0.359134 -0.429 189 149 114
-0.0331905 -0.343229 -0.41 184 144 108
0.00828 -0.346577 -0.414 173 123 96
0.0311667 -0.355786 -0.425 140 98 82
0.0320514 -0.356623 -0.426 139 97 83
0.0418429 -0.364157 -0.435 114 81 72
0.0446343 -0.366669 -0.438 109 80 72
0.0536905 -0.377551 -0.451 97 74 66
0.0580133 -0.383411 -0.458 95 72 66
0.06622 -0.395969 -0.473 89 70 66
0.0738971 -0.408526 -0.488 86 72 72
0.08112 -0.42192 -0.504 121 118 137
0.0827314 -0.425269 -0.508 112 122 157
0.512289 -0.444523 -0.531 125 102 94
0.49869 -0.408526 -0.488 176 134 109
0.50186 -0.40434 -0.483 177 133 104
0.51198 -0.399317 -0.477 180 134 100
0.51272 -0.39848 -0.476 178 132 99
0.51544 -0.39848 -0.476 174 128 95
0.517976 -0.397643 -0.475 175 129 95
0.523695 -0.395131 -0.472 169 123 89
0.540827 -0.39848 -0.476 153 112 80
0.542871 -0.399317 -0.477 150 109 77
0.826697 -0.482194 -0.576 29 22 14
0.83148 -0.48052 -0.574 118 117 113
0.835119 -0.481357 -0.575 119 120 115
0.847543 -0.482194 -0.576 100 101 95
0.863697 -0.483869 -0.578 110 111 106
-0.2938 -0.45812 -0.546 225 226 218
-0.0181286 -0.339814 -0.405 185 141 106
0.00747333 -0.346527 -0.413 172 122 95
0.040001 -0.363308 -0.433 116 83 74
0.0467257 -0.370859 -0.442 106 79 72
0.0637371 -0.392674 -0.468 90 70 69
0.49869 -0.409455 -0.488 177 133 106
0.5203 -0.39687 -0.473 172 126 93
0.529989 -0.39603 -0.472 163 118 85
0.639706 -0.455603 -0.543 175 172 165
0.877323 -0.485809 -0.579 103 104 99
0.885887 -0.487487 -0.581 74 71 66
0.890047 -0.489165 -0.583 103 100 95
0.892686 -0.490004 -0.584 101 103 98
0.895329 -0.490843 -0.585 95 97 92
-0.325 -0.45916 -0.546 225 226 218
-0.0355333 -0.34479 -0.41 183 140 106
-0.0306219 -0.342268 -0.407 187 144 110
-0.0297733 -0.341427 -0.406 187 144 110
-0.0219857 -0.340586 -0.405 191 147 112
-0.0119867 -0.341427 -0.406 181 134 104
0.0059 -0.347313 -0.413 172 122 95
0.02532 -0.354882 -0.422 147 102 81
0.0570162 -0.384315 -0.457 94 73 68
0.0740486 -0.411226 -0.489 85 70 73
0.498014 -0.412908 -0.491 172 131 103
0.497933 -0.412067 -0.49 172 131 103
0.499523 -0.409544 -0.487 173 129 100
0.501055 -0.407021 -0.484 178 134 105
0.520099 -0.39693 -0.472 172 126 93
0.525277 -0.396089 -0.471 167 122 89
0.540595 -0.399452 -0.475 156 113 79
0.5415 -0.399452 -0.475 152 113 82
0.636171 -0.454114 -0.54 148 143 137
0.836925 -0.48523 -0.577 120 119 114
0.842057 -0.484389 -0.576 103 104 98
0.847915 -0.48523 -0.577 102 103 97
0.87622 -0.486911 -0.579 101 103 98
0.877323 -0.486911 -0.579 100 103 96
0.878426 -0.486911 -0.579 97 100 93
0.881048 -0.487752 -0.58 26 29 20
0.883673 -0.488593 -0.581 26 29 22
0.887411 -0.489434 -0.582 83 80 75
-0.0281571 -0.341357 -0.405 190 147 113
-0.0258429 -0.341357 -0.405 187 147 111
-0.0250714 -0.341357 -0.405 187 147 111
-0.0135333 -0.3422 -0.406 181 134 104
0.0114619 -0.349786 -0.415 167 120 92
0.0130743 -0.350629 -0.416 166 119 93
0.0496971 -0.375914 -0.446 101 74 65
0.506611 -0.439129 -0.521 130 103 94
0.498091 -0.414686 -0.492 170 128 103
0.500243 -0.408786 -0.485 174 130 101
0.501167 -0.408786 -0.485 176 132 103
0.50186 -0.4071 -0.483 176 132 103
0.503447 -0.405414 -0.481 178 133 104
0.50759 -0.402886 -0.478 177 132 103
0.526174 -0.396986 -0.471 169 124 91
0.841321 -0.486329 -0.577 103 104 99
-0.331671 -0.460395 -0.545 225 226 218
-0.291186 -0.460395 -0.545 226 227 221
-0.290148 -0.460395 -0.545 226 227 221
-0.287033 -0.460395 -0.545 227 228 222
-0.039919 -0.350576 -0.415 187 144 112
-0.0345829 -0.344663 -0.408 183 140 106
-0.0219857 -0.342129 -0.405 187 144 109
0.022 -0.3548 -0.42 152 105 85
0.0400933 -0.366627 -0.434 116 83 74
0.0410143 -0.367471 -0.435 114 84 74
0.0518571 -0.380143 -0.45 99 76 68
0.065181 -0.398728 -0.472 89 69 68
0.498748 -0.426605 -0.505 152 115 97
0.49773 -0.424915 -0.503 153 115 96
0.498614 -0.423226 -0.501 156 115 95
0.498165 -0.416468 -0.493 166 122 97
0.497668 -0.411399 -0.487 170 129 99
0.501167 -0.40971 -0.485 176 133 101
0.506529 -0.402951 -0.477 178 133 102
0.508346 -0.402951 -0.477 178 133 102
0.532454 -0.397883 -0.471 155 114 82
0.547414 -0.402951 -0.477 149 112 86
0.555907 -0.407175 -0.482 144 104 78
-0.329595 -0.461433 -0.545 223 224 216
-0.318176 -0.461433 -0.545 225 226 220
-0.293262 -0.461433 -0.545 226 227 219
-0.268348 -0.461433 -0.545 227 228 222
-0.0370952 -0.347133 -0.41 182 139 107
-0.0344981 -0.344593 -0.407 181 138 104
-0.0219857 -0.3429 -0.405 187 142 109
-0.00658952 -0.344593 -0.407 181 134 104
0.000390476 -0.347133 -0.41 176 126 101
0.00588571 -0.348827 -0.412 169 122 96
0.0106457 -0.35052 -0.414 166 119 93
0.0320514 -0.36068 -0.426 135 93 77
0.0391762 -0.366607 -0.433 116 83 74
0.0438 -0.37084 -0.438 110 81 73
0.49773 -0.425873 -0.503 153 115 94
0.497933 -0.414867 -0.49 168 127 99
0.503314 -0.4064 -0.48 178 135 103
0.504859 -0.404707 -0.478 173 128 97
0.50668 -0.404707 -0.478 177 132 101
0.506529 -0.40386 -0.477 178 133 102
0.510907 -0.403013 -0.476 176 131 98
0.515795 -0.400473 -0.473 172 126 92
0.516696 -0.400473 -0.473 173 127 93
0.522371 -0.397933 -0.47 167 122 89
0.524162 -0.397933 -0.47 168 123 90
0.843134 -0.49022 -0.579 122 123 115
0.860057 -0.491067 -0.58 100 102 97
0.862647 -0.491913 -0.581 100 102 97
0.886715 -0.493607 -0.583 79 80 75
-0.296869 -0.461623 -0.544 226 227 219
-0.288579 -0.461623 -0.544 226 227 221
-0.278217 -0.461623 -0.544 226 227 222
-0.0378762 -0.347914 -0.41 183 142 110
-0.03364 -0.34452 -0.406 179 136 104
-0.0297 -0.343671 -0.405 186 143 109
-0.0227571 -0.343671 -0.405 188 143 110
-0.0165857 -0.343671 -0.405 183 138 107
0.00588571 -0.349611 -0.412 170 120 95
0.00826 -0.35046 -0.413 167 117 92
0.0179143 -0.354703 -0.418 157 111 88
0.0373533 -0.365734 -0.431 121 87 78
0.0640095 -0.398829 -0.47 88 70 68
0.0731171 -0.414951 -0.489 88 69 65
0.501753 -0.43362 -0.511 145 107 88
0.501055 -0.410709 -0.484 178 133 102
0.506529 -0.404769 -0.477 179 134 101
0.509093 -0.40392 -0.476 177 133 98
0.51879 -0.398829 -0.47 174 128 94
0.519686 -0.398829 -0.47 177 128 95
0.520367 -0.39798 -0.469 173 127 93
0.522153 -0.39798 -0.469 168 123 90
0.52394 -0.39798 -0.469 168 124 89
0.843486 -0.492171 -0.58 121 122 116
0.849009 -0.492171 -0.58 100 105 99
-0.29376 -0.462659 -0.544 225 226 218
-0.290651 -0.462659 -0.544 226 227 221
-0.28029 -0.462659 -0.544 226 227 221
-0.272 -0.462659 -0.544 226 227 221
-0.0396305 -0.350396 -0.412 184 144 109
-0.0352733 -0.346144 -0.407 181 138 104
-0.022701 -0.343592 -0.404 188 143 110
-0.0211619 -0.343592 -0.404 182 137 106
-0.00581429 -0.346144 -0.407 178 128 103
-0.00272 -0.346994 -0.408 170 123 95
0.00588571 -0.350396 -0.412 171 121 96
0.0106457 -0.352097 -0.414 167 120 94
0.0364476 -0.365705 -0.43 121 87 77
0.0774638 -0.424388 -0.499 112 114 127
0.507603 -0.443098 -0.521 128 102 87
0.497668 -0.414182 -0.487 171 127 98
0.500821 -0.40993 -0.482 173 128 97
0.5024 -0.408229 -0.48 175 130 99
0.502266 -0.407378 -0.479 176 131 102
0.52126 -0.398873 -0.469 171 127 92
0.522153 -0.398873 -0.469 169 125 90
0.525727 -0.398873 -0.469 167 124 92
0.540777 -0.401425 -0.472 152 111 79
0.843833 -0.494127 -0.581 118 120 117
0.880116 -0.498379 -0.586 95 100 96
-0.318043 -0.462843 -0.543 226 227 219
-0.295289 -0.462843 -0.543 226 227 219
-0.290117 -0.462843 -0.543 225 226 220
-0.2715 -0.462843 -0.543 225 226 220
-0.0559533 -0.459433 -0.539 184 139 106
-0.0320143 -0.345214 -0.405 183 138 105
-0.0150429 -0.345214 -0.405 183 136 106
-0.00812 -0.346067 -0.406 174 127 99
0.0154886 -0.355443 -0.417 159 111 89
0.022 -0.358 -0.42 148 106 84
0.0303571 -0.362262 -0.425 134 98 82
0.0347286 -0.365671 -0.429 125 91 79
0.0365324 -0.367376 -0.431 120 87 78
0.03744 -0.368229 -0.432 116 83 74
0.0595286 -0.394652 -0.463 88 70 66
0.0718905 -0.41511 -0.487 78 63 60
0.507603 -0.44409 -0.521 129 101 90
0.50274 -0.437271 -0.513 138 106 93
0.497079 -0.418519 -0.491 171 124 98
0.517203 -0.401471 -0.471 177 132 99
0.523714 -0.398914 -0.468 169 124 91
0.542575 -0.402324 -0.472 158 113 82
-0.321146 -0.463877 -0.543 225 226 218
-0.304597 -0.463877 -0.543 226 227 221
-0.303563 -0.463877 -0.543 226 227 221
-0.277706 -0.463877 -0.543 226 227 221
-0.2715 -0.463877 -0.543 226 227 221
-0.250814 -0.463877 -0.543 226 227 219
-0.14118 -0.463877 -0.543 232 233 225
-0.0264829 -0.344277 -0.403 185 142 108
-0.022701 -0.345131 -0.404 187 144 109
-0.0112133 -0.34684 -0.406 181 135 102
-0.00812 -0.34684 -0.406 174 127 97
-0.00736476 -0.347694 -0.407 175 128 98
-0.000389524 -0.349403 -0.409 171 126 95
0.0347286 -0.366489 -0.429 125 91 79
0.0631143 -0.401514 -0.47 88 70 68
0.0734162 -0.419454 -0.491 84 70 69
0.0748057 -0.422017 -0.494 82 73 76
0.0777743 -0.427997 -0.501 165 171 185
0.47988 -0.476691 -0.558 170 171 173
0.485194 -0.476691 -0.558 181 182 186
0.503263 -0.476691 -0.558 169 169 169
0.502735 -0.437394 -0.512 142 105 87
0.500821 -0.411766 -0.482 173 128 97
0.504859 -0.408349 -0.478 177 132 101
-0.317457 -0.464055 -0.542 225 226 220
-0.286486 -0.464055 -0.542 226 227 221
-0.0447171 -0.362169 -0.423 185 138 108
-0.0384686 -0.349326 -0.408 184 139 106
-0.0311657 -0.345901 -0.404 187 143 108
-0.0303962 -0.345901 -0.404 188 144 109
0.00985714 -0.354463 -0.414 166 118 95
0.0122524 -0.355319 -0.415 161 113 90
0.0304286 -0.364737 -0.426 133 95 82
0.05852 -0.39556 -0.462 89 70 66
0.0655952 -0.40669 -0.475 87 69 67
0.06678 -0.408403 -0.477 84 68 68
0.0779295 -0.429808 -0.502 183 191 204
0.490323 -0.47861 -0.559 182 183 185
0.518007 -0.47861 -0.559 140 138 143
0.50562 -0.408403 -0.477 174 129 98
0.52104 -0.400697 -0.468 168 124 89
0.522823 -0.400697 -0.468 170 125 92
0.540276 -0.40241 -0.47 158 113 82
-0.319522 -0.465088 -0.542 225 226 220
-0.315841 -0.46423 -0.541 225 226 218
-0.31481 -0.46423 -0.541 225 226 218
-0.290615 -0.465088 -0.542 226 227 221
-0.289583 -0.465088 -0.542 227 228 222
-0.274097 -0.465088 -0.542 226 227 221
-0.265838 -0.465088 -0.542 226 227 221
-0.254482 -0.465088 -0.542 226 227 221
-0.235899 -0.465088 -0.542 227 228 220
-0.0613133 -0.46423 -0.541 187 143 116
-0.0319352 -0.34667 -0.404 186 141 108
-0.0104143 -0.347529 -0.405 177 132 99
-0.00581429 -0.349245 -0.407 173 128 97
-0.00194762 -0.350961 -0.409 171 126 95
0.0114343 -0.355251 -0.414 161 114 88
0.0313133 -0.366407 -0.427 132 92 82
0.0441 -0.37842 -0.441 107 82 77
0.0586467 -0.397298 -0.463 88 70 68
0.0620867 -0.402447 -0.469 88 70 70
0.48287 -0.479675 -0.559 184 184 186
0.487129 -0.479675 -0.559 182 182 182
0.4912 -0.480533 -0.56 177 177 177
0.500448 -0.48225 -0.562 163 159 158
0.516351 -0.483108 -0.563 128 126 129
0.519042 -0.461655 -0.538 109 96 88
0.499211 -0.415318 -0.484 174 129 100
0.50562 -0.409311 -0.477 174 129 98
0.508024 -0.407595 -0.475 176 130 97
0.509663 -0.406737 -0.474 169 123 90
0.519473 -0.402447 -0.469 176 132 97
0.545014 -0.404163 -0.471 152 111 83
-0.327176 -0.46526 -0.541 224 225 219
-0.316871 -0.46526 -0.541 224 225 219
-0.31481 -0.46526 -0.541 226 227 219
-0.308628 -0.46526 -0.541 225 226 218
-0.285957 -0.46526 -0.541 226 227 221
-0.0623438 -0.46526 -0.541 187 145 120
-0.030321 -0.34658 -0.403 187 143 106
-0.0226448 -0.34658 -0.403 179 135 100
-0.0211095 -0.34658 -0.403 176 131 98
0.0278629 -0.36464 -0.424 134 92 78
0.0402781 -0.37496 -0.436 112 83 77
0.0610629 -0.40248 -0.468 88 70 68
0.062219 -0.4042 -0.47 87 71 71
0.0891667 -0.4601 -0.535 138 155 175
0.473503 -0.47988 -0.558 183 184 188
0.523415 -0.48676 -0.566 95 94 100
0.497473 -0.42742 -0.497 155 115 90
0.49776 -0.41968 -0.488 165 121 94
0.498595 -0.41882 -0.487 172 128 101
0.500821 -0.41452 -0.482 170 125 96
0.510566 -0.40764 -0.474 164 118 85
0.52104 -0.40248 -0.468 174 128 95
0.525027 -0.40076 -0.466 167 122 91
-0.317902 -0.46629 -0.541 224 225 219
-0.315257 -0.465429 -0.54 226 227 219
-0.279774 -0.46629 -0.541 227 228 220
-0.259165 -0.46629 -0.541 226 227 219
-0.249429 -0.465429 -0.54 226 228 217
-0.246799 -0.46629 -0.541 227 229 218
-0.241647 -0.46629 -0.541 227 229 218
-0.03828 -0.349933 -0.406 181 138 103
-0.0342438 -0.34821 -0.404 184 141 106
-0.0327048 -0.34821 -0.404 185 141 104
-0.0319352 -0.34821 -0.404 186 142 105
-0.0279486 -0.346486 -0.402 186 142 105
-0.02418 -0.347348 -0.403 181 142 103
-0.0142362 -0.34821 -0.404 180 134 101
-0.0127286 -0.349071 -0.405 176 130 97
-0.00272 -0.351657 -0.408 176 130 97
0.0154886 -0.359414 -0.417 153 108 85
0.0357114 -0.371481 -0.431 119 86 77
0.0431619 -0.379238 -0.44 103 80 74
0.0542857 -0.393029 -0.456 90 70 69
0.0610629 -0.403371 -0.468 89 71 69
0.0683981 -0.415438 -0.482 84 68 68
0.0910286 -0.465429 -0.54 165 183 207
0.461215 -0.479219 -0.556 180 180 180
0.481391 -0.483529 -0.561 168 163 167
0.527429 -0.489562 -0.568 62 61 66
0.511472 -0.453362 -0.526 117 97 90
0.509551 -0.450776 -0.523 122 100 87
0.507619 -0.44819 -0.52 124 102 89
0.497574 -0.43009 -0.499 149 113 91
0.497417 -0.427505 -0.496 154 117 91
0.496287 -0.424919 -0.493 156 116 90
0.496217 -0.424057 -0.492 159 119 93
0.497 -0.422333 -0.49 165 121 94
0.504711 -0.411129 -0.477 177 132 101
0.507119 -0.409405 -0.475 179 133 100
0.515409 -0.405957 -0.471 175 131 96
0.51521 -0.405095 -0.47 177 133 98
0.520149 -0.403371 -0.468 175 129 96
0.535938 -0.40251 -0.467 159 113 80
0.547706 -0.405957 -0.471 140 102 79
-0.3204 -0.466457 -0.54 225 226 220
-0.317314 -0.466457 -0.54 224 225 219
-0.296743 -0.466457 -0.54 225 226 218
-0.29111 -0.467321 -0.541 226 227 219
-0.265886 -0.466457 -0.54 227 228 220
-0.259714 -0.466457 -0.54 226 227 219
-0.252514 -0.466457 -0.54 226 228 217
-0.0461095 -0.363664 -0.421 185 140 109
-0.0264171 -0.347251 -0.402 184 145 104
-0.00734667 -0.350707 -0.406 174 127 97
0.00906857 -0.357617 -0.414 165 115 92
0.0228543 -0.363664 -0.421 144 100 87
0.0287381 -0.367119 -0.425 130 92 81
0.0367019 -0.37403 -0.433 116 85 80
0.0376133 -0.374893 -0.434 112 83 77
0.0490667 -0.386987 -0.448 92 73 69
0.0544048 -0.394761 -0.457 90 70 69
0.465228 -0.481142 -0.557 167 165 166
0.483108 -0.486325 -0.563 147 142 148
0.520007 -0.465593 -0.539 110 91 85
0.518133 -0.463002 -0.536 112 92 85
0.498614 -0.432769 -0.501 145 113 92
0.497357 -0.427586 -0.495 155 115 90
0.4991 -0.41722 -0.483 170 126 97
0.500698 -0.415492 -0.481 172 129 97
0.505467 -0.411173 -0.476 174 127 97
0.516583 -0.404263 -0.468 178 134 99
-0.316286 -0.467486 -0.54 226 227 219
-0.27 -0.467486 -0.54 226 227 219
-0.267943 -0.467486 -0.54 227 228 220
-0.265886 -0.467486 -0.54 227 228 220
-0.251486 -0.467486 -0.54 227 228 220
-0.24794 -0.46662 -0.539 227 229 218
-0.247371 -0.467486 -0.54 227 229 218
-0.0642857 -0.467486 -0.54 188 147 115
-0.0596143 -0.463157 -0.535 184 144 109
-0.0399248 -0.352346 -0.407 184 141 106
-0.0350133 -0.349749 -0.404 183 141 103
-0.0342438 -0.349749 -0.404 181 139 101
-0.0334743 -0.349749 -0.404 183 139 102
-0.0195743 -0.348883 -0.403 178 134 99
-0.0188067 -0.348883 -0.403 179 135 100
-0.0142362 -0.349749 -0.404 181 135 102
0.0270552 -0.367063 -0.424 132 92 80
0.0330943 -0.371391 -0.429 128 91 83
0.0555171 -0.397363 -0.459 90 70 69
0.0661476 -0.414677 -0.479 82 66 66
0.433957 -0.480471 -0.555 181 180 176
0.437916 -0.481337 -0.556 177 177 175
0.450625 -0.481337 -0.556 171 167 168
0.452743 -0.481337 -0.556 166 162 163
0.453802 -0.481337 -0.556 165 161 162
0.465 -0.483069 -0.558 145 140 144
0.470092 -0.483934 -0.559 133 131 134
0.476049 -0.485666 -0.561 130 124 126
0.492591 -0.492591 -0.569 104 102 107
0.518133 -0.464023 -0.536 111 94 86
0.498653 -0.434589 -0.502 142 109 90
0.498614 -0.433723 -0.501 144 111 92
0.498525 -0.431991 -0.499 150 115 93
0.49842 -0.43026 -0.497 151 115 91
0.497849 -0.423334 -0.489 164 123 95
0.499319 -0.419871 -0.485 169 124 93
0.502266 -0.414677 -0.479 178 133 102
0.503803 -0.412946 -0.477 177 131 98
0.506373 -0.41208 -0.476 176 130 97
0.516105 -0.406886 -0.47 178 132 99
0.550397 -0.407751 -0.471 137 101 75
-0.32494 -0.467647 -0.539 225 226 220
-0.273607 -0.467647 -0.539 227 228 220
-0.25718 -0.467647 -0.539 226 227 221
-0.238114 -0.468514 -0.54 226 227 219
-0.0381857 -0.351386 -0.405 183 140 105
-0.02948 -0.348783 -0.402 187 144 109
-0.0255876 -0.347915 -0.401 186 144 106
-0.0210571 -0.348783 -0.402 177 133 96
-0.018039 -0.34965 -0.403 179 135 100
-0.00889333 -0.352253 -0.406 175 129 96
-0.00503905 -0.353121 -0.407 172 126 93
-0.00427429 -0.353989 -0.408 171 125 92
-0.00349714 -0.353989 -0.408 173 127 94
-0.00272 -0.353989 -0.408 175 129 96
0.00351429 -0.355724 -0.41 164 117 89
0.0305 -0.370473 -0.427 129 90 83
0.0340695 -0.373944 -0.431 126 89 81
0.0491762 -0.389561 -0.449 93 72 67
0.0793267 -0.443353 -0.511 161 175 204
0.424443 -0.481529 -0.555 171 170 166
0.426557 -0.481529 -0.555 171 169 172
0.427614 -0.481529 -0.555 171 169 172
0.430786 -0.481529 -0.555 168 162 166
0.438975 -0.482396 -0.556 162 157 161
0.45674 -0.483264 -0.557 125 123 134
0.462874 -0.484131 -0.558 111 111 121
0.466898 -0.484999 -0.559 107 104 111
0.487172 -0.493675 -0.569 78 77 83
0.5358 -0.494543 -0.57 43 43 53
0.516249 -0.462441 -0.533 111 94 84
0.49842 -0.431207 -0.497 151 115 91
0.497226 -0.427736 -0.493 156 116 91
0.498014 -0.426001 -0.491 165 121 94
0.497849 -0.424266 -0.489 164 123 93
0.497668 -0.42253 -0.487 166 122 93
0.502894 -0.413854 -0.477 173 128 95
0.524786 -0.403443 -0.465 169 122 92
0.525671 -0.403443 -0.465 168 121 91
0.52896 -0.402575 -0.464 161 117 90
0.550124 -0.407781 -0.47 139 102 75
-0.319807 -0.468673 -0.539 224 225 219
-0.311015 -0.467804 -0.538 224 225 217
-0.296193 -0.468673 -0.539 226 227 219
-0.28182 -0.468673 -0.539 225 226 220
-0.274633 -0.468673 -0.539 226 227 221
-0.252047 -0.468673 -0.539 228 230 219
-0.245887 -0.468673 -0.539 226 227 219
-0.2387 -0.468673 -0.539 226 228 217
-0.237673 -0.468673 -0.539 226 228 217
0.0154886 -0.362591 -0.417 152 105 85
0.0220524 -0.36607 -0.421 142 100 86
0.0228543 -0.36607 -0.421 141 99 85
0.0288057 -0.370417 -0.426 130 90 80
0.0367019 -0.376504 -0.433 113 84 78
0.0376133 -0.377373 -0.434 109 82 75
0.0482133 -0.389547 -0.448 93 73 66
0.0590267 -0.405198 -0.466 91 72 68
0.36564 -0.481716 -0.554 191 191 193
0.409643 -0.482586 -0.555 174 173 178
0.45756 -0.485194 -0.558 94 93 99
0.497368 -0.42085 -0.484 170 125 94
0.51021 -0.410415 -0.472 178 132 99
0.527192 -0.403459 -0.464 167 122 89
0.529844 -0.403459 -0.464 161 116 85
0.535414 -0.404329 -0.465 154 113 83
0.548953 -0.407807 -0.469 141 102 73
-0.323312 -0.468829 -0.538 224 225 219
-0.320238 -0.468829 -0.538 225 226 220
-0.317753 -0.4697 -0.539 224 225 219
-0.262313 -0.4697 -0.539 227 228 220
-0.24543 -0.468829 -0.538 226 227 219
-0.237232 -0.468829 -0.538 226 228 217
-0.200713 -0.4697 -0.539 227 228 220
-0.144247 -0.4697 -0.539 229 231 220
-0.0397286 -0.352929 -0.405 185 142 107
-0.0317771 -0.350314 -0.402 185 143 105
-0.0225886 -0.350314 -0.402 182 138 103
-0.0218229 -0.350314 -0.402 180 136 101
-0.0142362 -0.352057 -0.404 181 135 102
-0.0126971 -0.352057 -0.404 178 132 99
-0.0104143 -0.352929 -0.405 175 129 96
0.0106457 -0.360771 -0.414 159 113 90
0.0170771 -0.363386 -0.417 148 103 84
0.0340695 -0.375586 -0.431 123 85 76
0.0502543 -0.393014 -0.451 94 71 65
0.0524333 -0.3965 -0.455 92 71 66
0.065099 -0.416543 -0.478 86 71 66
0.375814 -0.483643 -0.555 182 182 184
0.383579 -0.482771 -0.554 175 175 177
0.40085 -0.484514 -0.556 168 166 169
0.406145 -0.484514 -0.556 164 162 165
0.413871 -0.483643 -0.555 147 145 148
0.443743 -0.486257 -0.558 87 85 90
0.45838 -0.487129 -0.559 65 64 69
0.541747 -0.5002 -0.574 22 22 32
0.537557 -0.492357 -0.565 21 20 28
0.500671 -0.440071 -0.505 138 109 91
0.499609 -0.437457 -0.502 141 108 89
0.498571 -0.435714 -0.5 144 109 89
0.497849 -0.426129 -0.489 163 122 94
0.497471 -0.422643 -0.485 167 123 94
0.49818 -0.4209 -0.483 169 126 94
0.502894 -0.415671 -0.477 172 127 96
0.504405 -0.413929 -0.475 177 132 99
0.506051 -0.413057 -0.474 173 127 93
0.513419 -0.409571 -0.47 173 127 94
0.5363 -0.405214 -0.465 158 115 83
-0.325362 -0.469853 -0.538 224 225 217
-0.319213 -0.469853 -0.538 225 226 218
-0.308966 -0.469853 -0.538 225 226 218
-0.302817 -0.469853 -0.538 226 227 219
-0.293594 -0.469853 -0.538 226 227 219
-0.286421 -0.469853 -0.538 225 226 220
-0.281297 -0.469853 -0.538 226 227 221
-0.0638095 -0.468107 -0.536 182 139 105
-0.0431314 -0.35632 -0.408 189 143 109
-0.038861 -0.352827 -0.404 184 141 106
-0.0325429 -0.35108 -0.402 184 142 104
-0.0309343 -0.350207 -0.401 184 142 104
-0.0301705 -0.350207 -0.401 185 141 102
-0.0293333 -0.349333 -0.4 185 141 102
-0.0262857 -0.349333 -0.4 184 142 102
-0.0225886 -0.35108 -0.402 181 137 100
-0.0210571 -0.35108 -0.402 179 133 99
-0.01876 -0.35108 -0.402 179 133 99
-0.0157362 -0.351953 -0.403 181 135 102
-0.00657333 -0.354573 -0.406 175 128 98
0.00351429 -0.358067 -0.41 164 117 91
0.0138667 -0.363307 -0.416 153 108 89
0.0270552 -0.370293 -0.424 130 92 79
0.0357943 -0.37728 -0.432 113 84 78
0.0376133 -0.379027 -0.434 109 80 74
0.0492857 -0.393 -0.45 93 73 66
0.073219 -0.433173 -0.496 99 112 131
0.3663 -0.4847 -0.555 178 177 182
0.37861 -0.485573 -0.556 171 171 173
0.3885 -0.4847 -0.555 164 163 168
0.398388 -0.486447 -0.557 153 151 156
0.427033 -0.486447 -0.557 90 85 91
0.430216 -0.486447 -0.557 79 77 82
0.441617 -0.48732 -0.558 67 65 70
0.445603 -0.488193 -0.559 64 63 68
0.46002 -0.48994 -0.561 61 58 65
0.504699 -0.448893 -0.514 126 100 83
0.500671 -0.441033 -0.505 137 108 90
0.497933 -0.427933 -0.49 160 120 94
0.49776 -0.426187 -0.488 162 121 93
0.501986 -0.41658 -0.477 172 127 96
0.506214 -0.414833 -0.475 172 127 94
0.508588 -0.413087 -0.473 176 130 97
0.514113 -0.409593 -0.469 179 133 100
0.519238 -0.405227 -0.464 170 126 91
0.521006 -0.405227 -0.464 171 127 92
0.52782 -0.404353 -0.463 163 118 79
0.55342 -0.409593 -0.469 129 99 75
-0.313506 -0.470003 -0.537 225 226 220
-0.308391 -0.470003 -0.537 224 225 217
-0.29052 -0.470878 -0.538 226 227 221
-0.279248 -0.470878 -0.538 225 226 220
-0.26134 -0.470003 -0.537 226 227 219
-0.257728 -0.470878 -0.538 227 228 220
-0.240883 -0.470003 -0.537 227 228 220
-0.208539 -0.470878 -0.538 227 229 218
-0.168573 -0.470878 -0.538 227 228 220
-0.158326 -0.470878 -0.538 230 231 223
-0.0635714 -0.467377 -0.534 182 144 108
-0.0624371 -0.466502 -0.533 182 144 108
-0.0611914 -0.464751 -0.531 182 144 108
-0.0468067 -0.361473 -0.413 184 144 108
-0.0430257 -0.356222 -0.407 185 142 107
-0.038861 -0.353596 -0.404 182 143 104
-0.0372295 -0.352721 -0.403 182 143 104
-0.0333086 -0.351846 -0.402 185 143 105
-0.0293333 -0.350095 -0.4 184 142 104
-0.0262857 -0.350095 -0.4 182 140 100
-0.01876 -0.351846 -0.402 179 133 97
-0.0157362 -0.352721 -0.403 184 135 103
-0.0111581 -0.353596 -0.404 174 128 94
-0.0103886 -0.353596 -0.404 176 130 96
-0.00116571 -0.357097 -0.408 169 122 92
0.0423238 -0.385105 -0.44 101 76 69
0.0547619 -0.40261 -0.46 90 71 67
0.05928 -0.409611 -0.468 89 70 66
0.36696 -0.486632 -0.556 163 163 165
0.371864 -0.487508 -0.557 163 163 165
0.380351 -0.487508 -0.557 152 151 156
0.383534 -0.487508 -0.557 147 146 151
0.386023 -0.486632 -0.556 139 138 144
0.390259 -0.486632 -0.556 132 133 138
0.405142 -0.489258 -0.559 106 104 109
0.423549 -0.488383 -0.558 67 66 72
0.43389 -0.489258 -0.559 63 60 67
0.444267 -0.490133 -0.56 60 59 65
0.451471 -0.491009 -0.561 59 58 66
0.453609 -0.491009 -0.561 58 57 65
0.46595 -0.492759 -0.563 57 56 64
0.498362 -0.434118 -0.496 151 113 92
0.497933 -0.428867 -0.49 158 118 92
0.502747 -0.416613 -0.476 173 128 97
0.51021 -0.413112 -0.472 177 131 98
0.545723 -0.408736 -0.467 152 105 75
0.547502 -0.408736 -0.467 146 107 76
-0.323131 -0.470149 -0.536 225 226 218
-0.31146 -0.471026 -0.537 225 226 218
-0.307369 -0.471026 -0.537 223 224 216
-0.296117 -0.471026 -0.537 224 225 219
-0.291003 -0.471026 -0.537 226 227 221
-0.277706 -0.471026 -0.537 226 227 221
-0.27566 -0.471026 -0.537 226 227 221
-0.270546 -0.471026 -0.537 227 228 220
-0.26134 -0.471026 -0.537 226 227 219
-0.258271 -0.471026 -0.537 226 227 219
-0.24656 -0.470149 -0.536 227 228 220
-0.245539 -0.470149 -0.536 227 228 220
-0.238837 -0.471026 -0.537 227 228 220
-0.231677 -0.471026 -0.537 226 228 217
-0.0492 -0.3684 -0.42 182 142 107
-0.0262857 -0.350857 -0.4 183 139 100
-0.0225324 -0.351734 -0.401 181 137 98
-0.0195257 -0.352611 -0.402 179 135 100
-0.0172286 -0.352611 -0.402 180 136 101
-0.0126971 -0.354366 -0.404 176 132 97
-0.0119276 -0.354366 -0.404 176 132 97
-0.0103886 -0.354366 -0.404 174 129 96
-0.00887143 -0.355243 -0.405 176 131 98
0.0114343 -0.363137 -0.414 156 109 89
0.0163219 -0.366646 -0.418 148 102 86
0.0358771 -0.379803 -0.433 113 84 76
0.0404629 -0.384189 -0.438 105 78 71
0.0547619 -0.403486 -0.46 89 70 66
0.0667 -0.42366 -0.483 83 68 65
0.337593 -0.48506 -0.553 168 168 168
0.344535 -0.485937 -0.554 164 164 164
0.362315 -0.488569 -0.557 150 150 152
0.377067 -0.4912 -0.56 131 129 134
0.381333 -0.4912 -0.56 119 116 123
0.384911 -0.490323 -0.559 112 111 117
0.40018 -0.492077 -0.561 78 77 83
0.411934 -0.492077 -0.561 66 65 70
0.422933 -0.4912 -0.56 63 62 68
0.424308 -0.490323 -0.559 61 60 66
0.434667 -0.4912 -0.56 60 59 65
0.460331 -0.494709 -0.564 56 55 63
0.484893 -0.50348 -0.574 54 53 61
0.49776 -0.428046 -0.488 158 118 92
0.499396 -0.419274 -0.478 175 130 99
0.500307 -0.419274 -0.478 171 126 95
0.507857 -0.415766 -0.474 174 129 96
0.518354 -0.406994 -0.464 169 123 90
0.52316 -0.40524 -0.462 168 123 90
0.533993 -0.406117 -0.463 164 119 86
0.535757 -0.406117 -0.463 160 116 81
0.538682 -0.406994 -0.464 156 113 78
0.539566 -0.406994 -0.464 154 111 76
0.541614 -0.407871 -0.465 152 109 74
0.549281 -0.409626 -0.467 133 103 69
-0.323131 -0.47117 -0.536 225 226 218
-0.314964 -0.47117 -0.536 224 225 217
-0.292026 -0.472049 -0.537 225 226 218
-0.291003 -0.472049 -0.537 225 226 218
-0.287934 -0.472049 -0.537 225 226 218
-0.266454 -0.472049 -0.537 226 227 219
-0.242476 -0.47117 -0.536 226 227 219
-0.154963 -0.472049 -0.537 229 230 222
-0.0502381 -0.370958 -0.422 182 142 107
-0.0420429 -0.356014 -0.405 184 144 108
-0.0339895 -0.352498 -0.401 183 141 103
-0.0278095 -0.351619 -0.4 184 140 103
-0.0210048 -0.352498 -0.401 182 138 99
-0.020241 -0.352498 -0.401 181 137 98
-0.01876 -0.353377 -0.402 179 135 98
-0.0119276 -0.355135 -0.404 175 130 97
0.000389524 -0.35953 -0.409 169 122 92
0.014659 -0.365684 -0.416 148 103 84
0.0179143 -0.367442 -0.418 144 101 85
0.0296867 -0.375353 -0.427 125 92 77
0.0464029 -0.392934 -0.447 94 73 68
0.340314 -0.486992 -0.554 157 155 158
0.387357 -0.493146 -0.561 74 73 81
0.431937 -0.494025 -0.562 57 56 64
0.450663 -0.495783 -0.564 57 58 63
0.505681 -0.45271 -0.515 124 98 83
0.499657 -0.421943 -0.48 170 129 97
0.501986 -0.419306 -0.477 175 130 99
0.50184 -0.418427 -0.476 176 131 100
0.504246 -0.416669 -0.474 170 125 92
0.517038 -0.409636 -0.466 178 129 96
0.521647 -0.406999 -0.463 167 121 88
-0.325586 -0.47131 -0.535 223 224 216
-0.317006 -0.47219 -0.536 225 226 218
-0.309859 -0.47219 -0.536 223 225 214
-0.297608 -0.47219 -0.536 225 227 216
-0.294545 -0.47219 -0.536 225 226 218
-0.285356 -0.47219 -0.536 227 228 220
-0.284335 -0.47219 -0.536 227 228 220
-0.263916 -0.47219 -0.536 226 227 219
-0.244062 -0.47131 -0.535 226 227 219
-0.241455 -0.47219 -0.536 227 228 220
-0.21389 -0.47219 -0.536 227 228 220
-0.210827 -0.47219 -0.536 227 229 218
-0.178156 -0.47219 -0.536 229 230 222
-0.0420429 -0.356786 -0.405 182 142 106
-0.0308571 -0.352381 -0.4 185 141 104
-0.0300952 -0.352381 -0.4 186 142 105
-0.0210048 -0.353262 -0.401 185 140 101
-0.0157362 -0.355024 -0.403 178 132 96
-0.00116286 -0.358548 -0.407 170 123 93
-0.000388571 -0.359429 -0.408 170 123 93
0.00116857 -0.36031 -0.409 168 121 93
0.00667048 -0.362952 -0.412 160 112 89
0.02538 -0.372643 -0.423 132 95 77
0.04242 -0.3885 -0.441 99 75 71
0.326007 -0.487167 -0.553 156 154 155
0.337757 -0.488929 -0.555 140 138 143
0.34534 -0.49069 -0.557 130 128 133
0.361711 -0.494214 -0.561 104 101 108
0.3955 -0.497738 -0.565 58 57 65
0.4023 -0.4995 -0.567 58 57 65
0.431326 -0.496857 -0.564 55 54 62
0.469571 -0.502143 -0.57 21 21 31
0.516249 -0.469548 -0.533 101 91 81
0.50064 -0.444 -0.504 134 105 87
0.501077 -0.420214 -0.477 173 128 95
0.50184 -0.419333 -0.476 177 132 99
0.504246 -0.417571 -0.474 173 128 95
0.510733 -0.414048 -0.47 176 130 96
0.512327 -0.413167 -0.469 177 131 97
0.5148 -0.412286 -0.468 176 130 96
0.5177 -0.409643 -0.465 171 125 91
0.51747 -0.408762 -0.464 170 124 90
0.543386 -0.409643 -0.465 150 106 79
-0.32151 -0.472329 -0.535 224 226 215
-0.315395 -0.472329 -0.535 225 227 216
-0.304186 -0.472329 -0.535 225 227 216
-0.30011 -0.472329 -0.535 225 227 216
-0.297052 -0.472329 -0.535 224 226 215
-0.22512 -0.473211 -0.536 227 229 218
-0.216952 -0.473211 -0.536 227 228 220
-0.21389 -0.473211 -0.536 227 228 222
-0.195512 -0.473211 -0.536 229 230 222
-0.194491 -0.473211 -0.536 229 230 222
-0.178156 -0.473211 -0.536 228 230 219
-0.17101 -0.473211 -0.536 230 231 223
-0.166926 -0.473211 -0.536 229 230 222
-0.0471324 -0.361089 -0.409 179 139 103
-0.0453514 -0.359323 -0.407 180 140 104
-0.03078 -0.35226 -0.399 186 142 105
-0.0285 -0.35226 -0.399 184 140 103
-0.0232381 -0.353143 -0.4 182 138 99
0.00588571 -0.363737 -0.412 160 112 89
0.00826 -0.36462 -0.413 159 111 88
0.0138667 -0.367269 -0.416 146 101 80
0.0187552 -0.369917 -0.419 140 99 81
0.0305714 -0.377863 -0.428 123 90 73
0.03146 -0.378746 -0.429 122 89 72
0.303887 -0.48822 -0.553 163 164 166
0.31126 -0.48822 -0.553 156 154 155
0.312313 -0.48822 -0.553 154 152 153
0.32343 -0.489103 -0.554 138 137 143
0.332011 -0.490869 -0.556 128 123 129
0.33413 -0.490869 -0.556 123 118 124
0.361497 -0.497931 -0.564 74 73 81
0.380959 -0.502346 -0.569 61 58 67
0.390314 -0.503229 -0.57 55 52 61
0.417833 -0.507643 -0.575 53 53 61
0.440402 -0.499697 -0.566 38 37 45
0.513417 -0.466149 -0.528 109 92 82
0.504694 -0.452906 -0.513 125 99 86
0.497829 -0.423771 -0.48 168 124 95
0.510733 -0.414943 -0.47 176 130 96
0.51322 -0.41406 -0.469 178 132 96
0.541333 -0.409646 -0.464 151 106 77
-0.32396 -0.472463 -0.534 224 225 217
-0.322943 -0.472463 -0.534 223 224 216
-0.314806 -0.472463 -0.534 224 226 215
-0.311754 -0.472463 -0.534 224 225 217
-0.300566 -0.472463 -0.534 226 228 217
-0.283805 -0.473348 -0.535 225 226 220
-0.254794 -0.472463 -0.534 227 228 222
-0.243043 -0.473348 -0.535 227 228 222
-0.233871 -0.473348 -0.535 226 228 217
-0.232267 -0.474232 -0.536 227 229 218
-0.180881 -0.473348 -0.535 228 229 221
-0.0664981 -0.471578 -0.533 183 143 108
-0.0461267 -0.360098 -0.407 179 139 103
-0.0444667 -0.359213 -0.406 180 140 104
-0.0435857 -0.358329 -0.405 180 140 104
-0.0386686 -0.355674 -0.402 181 141 105
-0.0323 -0.35302 -0.399 183 141 103
-0.0232381 -0.353905 -0.4 181 137 100
-0.00655714 -0.358329 -0.405 177 128 96
0.0106457 -0.366291 -0.414 154 108 85
0.014659 -0.368061 -0.416 148 103 82
0.0220524 -0.372485 -0.421 135 97 78
0.02538 -0.374254 -0.423 128 91 73
0.0288733 -0.377793 -0.427 123 90 71
0.03146 -0.379563 -0.429 120 89 71
0.299673 -0.489273 -0.553 155 153 156
0.325657 -0.491928 -0.556 115 113 118
0.330487 -0.492812 -0.557 106 103 110
0.331548 -0.492812 -0.557 104 101 108
0.3408 -0.495467 -0.56 83 82 90
0.370771 -0.504314 -0.57 64 63 71
0.375341 -0.506084 -0.572 64 63 69
0.37643 -0.506084 -0.572 65 64 70
0.42973 -0.50343 -0.569 37 36 44
0.515323 -0.469809 -0.531 107 90 80
0.4983 -0.437957 -0.495 141 108 89
0.498616 -0.423801 -0.479 167 122 91
0.499396 -0.422916 -0.478 165 122 90
0.49926 -0.422031 -0.477 165 122 90
0.517237 -0.409645 -0.463 170 124 88
0.527296 -0.407875 -0.461 164 119 80
0.529052 -0.407875 -0.461 164 119 80
0.548992 -0.412299 -0.466 139 100 71
-0.324369 -0.472593 -0.533 224 225 217
-0.319891 -0.47348 -0.534 223 224 216
-0.30972 -0.47348 -0.534 224 225 217
-0.304634 -0.47348 -0.534 224 225 217
-0.286862 -0.474367 -0.535 226 227 219
-0.273614 -0.474367 -0.535 226 227 221
-0.261914 -0.47348 -0.534 226 227 221
-0.254794 -0.47348 -0.534 226 227 221
-0.205338 -0.474367 -0.535 228 230 219
-0.0663733 -0.471707 -0.532 182 144 108
-0.0427086 -0.358213 -0.404 184 142 104
0.00904667 -0.366193 -0.413 159 113 89
0.0341486 -0.38304 -0.432 113 86 69
0.04158 -0.39102 -0.441 98 74 70
0.0849314 -0.47348 -0.534 91 129 191
0.282847 -0.488553 -0.551 157 158 160
0.318326 -0.49476 -0.558 102 99 106
0.329067 -0.496533 -0.56 80 77 84
0.334997 -0.49742 -0.561 72 69 78
0.347071 -0.500967 -0.565 67 66 72
0.387654 -0.51338 -0.579 60 59 64
0.398953 -0.515153 -0.581 60 61 66
0.516249 -0.472593 -0.533 97 88 83
0.50064 -0.44688 -0.504 130 101 85
0.49726 -0.42826 -0.483 160 119 91
0.49795 -0.426487 -0.481 168 123 92
0.500786 -0.421167 -0.475 174 129 98
0.505714 -0.418507 -0.472 173 129 94
0.51054 -0.415847 -0.469 175 129 95
0.512327 -0.415847 -0.469 176 130 94
0.5137 -0.414073 -0.467 172 126 90
0.542812 -0.410527 -0.463 147 106 76
-0.319292 -0.473609 -0.533 225 226 218
-0.293995 -0.475386 -0.535 225 227 216
-0.290938 -0.475386 -0.535 225 226 218
-0.239986 -0.475386 -0.535 227 228 220
-0.183938 -0.475386 -0.535 227 229 218
-0.175457 -0.474497 -0.534 229 230 222
-0.161519 -0.475386 -0.535 230 231 223
-0.0501952 -0.368757 -0.415 181 143 106
-0.0426029 -0.358094 -0.403 184 142 104
-0.0385724 -0.356317 -0.401 184 141 106
-0.0299448 -0.353651 -0.398 188 144 109
-0.0164219 -0.356317 -0.401 177 131 97
-0.0156581 -0.356317 -0.401 177 131 97
-0.00959524 -0.358094 -0.403 173 124 91
-0.00808 -0.358983 -0.404 175 126 93
-0.00270667 -0.36076 -0.406 171 124 94
0.00116571 -0.362537 -0.408 151 104 76
0.00665429 -0.365203 -0.411 157 111 88
0.00745524 -0.366091 -0.412 157 111 88
0.014659 -0.369646 -0.416 145 102 83
0.0154886 -0.370534 -0.417 143 100 81
0.0237124 -0.374977 -0.422 131 94 78
0.02544 -0.376754 -0.424 127 91 75
0.0378733 -0.388306 -0.437 104 82 69
0.039719 -0.390083 -0.439 100 77 69
0.0716171 -0.442509 -0.498 80 119 174
0.283873 -0.49138 -0.553 139 139 141
0.287552 -0.492269 -0.554 130 129 134
0.296536 -0.494934 -0.557 118 117 122
0.30399 -0.496711 -0.559 106 105 110
0.317333 -0.4976 -0.56 78 75 82
0.323243 -0.498489 -0.561 69 66 73
0.32489 -0.499377 -0.562 68 67 75
0.34967 -0.507374 -0.571 65 64 70
0.35355 -0.508263 -0.572 63 62 68
0.436933 -0.515371 -0.58 12 12 24
0.512474 -0.467389 -0.526 114 92 79
0.502698 -0.452283 -0.509 126 100 85
0.501689 -0.450506 -0.507 127 100 83
0.4983 -0.439843 -0.495 139 107 86
0.498616 -0.425626 -0.479 165 120 87
0.51054 -0.41674 -0.469 175 129 93
0.516355 -0.411409 -0.463 169 124 85
0.517637 -0.409631 -0.461 169 124 85
0.520895 -0.408743 -0.46 169 124 85
0.521771 -0.408743 -0.46 167 123 86
0.542812 -0.411409 -0.463 146 107 76
-0.30914 -0.474624 -0.533 223 224 216
-0.302033 -0.474624 -0.533 225 227 216
-0.26447 -0.474624 -0.533 225 226 220
-0.261424 -0.474624 -0.533 226 227 221
-0.209023 -0.475514 -0.534 228 230 219
-0.206989 -0.475514 -0.534 227 229 218
-0.200886 -0.475514 -0.534 228 229 221
-0.187663 -0.475514 -0.534 228 229 221
-0.179526 -0.475514 -0.534 228 230 219
-0.17444 -0.475514 -0.534 229 230 222
-0.170371 -0.475514 -0.534 229 230 222
-0.0450171 -0.359752 -0.404 184 141 106
-0.0276705 -0.35441 -0.398 187 141 105
-0.02546 -0.3553 -0.399 185 140 101
-0.0201905 -0.35619 -0.4 179 133 99
-0.00270667 -0.361533 -0.406 170 123 93
0.0106457 -0.368657 -0.414 155 109 86
0.0162829 -0.371329 -0.417 143 100 81
0.0187552 -0.37311 -0.419 140 99 81
0.0212 -0.374 -0.42 136 97 80
0.0306429 -0.382014 -0.429 119 90 76
0.0360429 -0.387357 -0.435 108 85 71
0.0378733 -0.389138 -0.437 104 82 71
0.0623676 -0.425648 -0.478 79 68 66
0.270252 -0.490652 -0.551 135 135 137
0.273897 -0.491543 -0.552 127 126 131
0.277553 -0.492433 -0.553 123 122 127
0.310973 -0.500448 -0.562 69 68 74
0.325046 -0.50401 -0.566 65 62 71
0.325548 -0.503119 -0.565 65 62 71
0.337114 -0.507571 -0.57 62 61 67
0.351024 -0.512024 -0.575 61 60 68
0.352731 -0.512914 -0.576 62 61 69
0.437629 -0.514695 -0.578 9 9 19
0.497933 -0.436333 -0.49 151 110 88
0.496548 -0.431881 -0.485 157 115 90
0.513488 -0.414962 -0.466 172 126 90
0.517 -0.4114 -0.462 169 123 87
0.51788 -0.4114 -0.462 169 123 87
0.534038 -0.409619 -0.46 162 116 82
0.537833 -0.41051 -0.461 159 111 75
0.54252 -0.4114 -0.462 145 104 74
-0.3116 -0.474747 -0.532 223 224 216
-0.309573 -0.474747 -0.532 223 224 216
-0.270561 -0.475639 -0.533 225 226 220
-0.265485 -0.475639 -0.533 226 227 221
-0.213708 -0.475639 -0.533 227 228 220
-0.206989 -0.476531 -0.534 227 229 218
-0.198851 -0.476531 -0.534 227 228 220
-0.179526 -0.476531 -0.534 228 230 219
-0.175457 -0.476531 -0.534 229 230 222
-0.165286 -0.476531 -0.534 230 231 223
-0.146977 -0.476531 -0.534 230 231 223
-0.112394 -0.476531 -0.534 230 231 223
-0.0767943 -0.476531 -0.534 215 212 203
-0.0725895 -0.475639 -0.533 179 145 117
-0.0450171 -0.360522 -0.404 183 140 105
-0.0432629 -0.358737 -0.402 184 141 106
-0.0361 -0.35606 -0.399 182 140 102
-0.0299448 -0.355168 -0.398 186 142 105
-0.0253962 -0.355168 -0.398 185 140 101
-0.02014 -0.35606 -0.399 176 130 94
-0.0179048 -0.356952 -0.4 178 132 96
-0.0103629 -0.35963 -0.403 174 125 92
0.0204 -0.3748 -0.42 139 98 80
0.0519067 -0.40871 -0.458 89 69 60
0.229534 -0.489917 -0.549 156 157 159
0.2379 -0.489917 -0.549 153 153 155
0.242083 -0.489917 -0.549 148 148 150
0.243129 -0.489917 -0.549 148 148 150
0.254048 -0.49081 -0.55 135 134 139
0.278055 -0.494379 -0.554 92 91 97
0.280671 -0.495271 -0.555 86 85 91
0.285927 -0.497056 -0.557 81 80 86
0.3051 -0.504195 -0.565 68 67 73
0.51439 -0.47207 -0.529 102 88 79
0.500169 -0.425666 -0.477 168 123 92
0.50554 -0.420311 -0.471 169 123 89
0.520895 -0.410495 -0.46 170 124 90
0.527631 -0.409603 -0.459 163 117 83
0.540468 -0.411388 -0.461 148 107 77
0.5434 -0.41228 -0.462 141 101 75
0.551631 -0.413172 -0.463 139 95 70
-0.318094 -0.474866 -0.531 222 224 213
-0.3116 -0.47576 -0.532 222 223 215
-0.29944 -0.47576 -0.532 223 225 214
-0.297972 -0.476654 -0.533 224 226 215
-0.278683 -0.476654 -0.533 225 226 220
-0.260933 -0.47576 -0.532 225 226 220
-0.25992 -0.47576 -0.532 226 227 221
-0.258907 -0.47576 -0.532 226 227 221
-0.25384 -0.47576 -0.532 226 227 221
-0.248773 -0.47576 -0.532 226 227 221
-0.246747 -0.47576 -0.532 226 227 221
-0.239089 -0.476654 -0.533 226 227 221
-0.234012 -0.476654 -0.533 226 227 219
-0.232997 -0.476654 -0.533 227 228 222
-0.211677 -0.476654 -0.533 227 228 222
-0.205586 -0.476654 -0.533 227 228 220
-0.192388 -0.476654 -0.533 228 229 223
-0.191372 -0.476654 -0.533 228 229 223
-0.150763 -0.476654 -0.533 230 231 223
-0.0392381 -0.357714 -0.4 184 142 104
-0.0247 -0.35682 -0.399 183 137 101
-0.02318 -0.35682 -0.399 178 132 96
-0.0118686 -0.359503 -0.402 179 130 97
-0.00501429 -0.362186 -0.405 172 126 93
0.00273333 -0.366657 -0.41 160 112 89
0.0179143 -0.373811 -0.418 141 100 80
0.0220524 -0.376494 -0.421 134 99 79
0.0229086 -0.377389 -0.422 133 98 78
0.02544 -0.379177 -0.424 126 93 74
0.0306429 -0.383649 -0.429 117 88 72
0.0436524 -0.397957 -0.445 94 74 67
0.0446 -0.398851 -0.446 93 73 66
0.0487514 -0.405111 -0.453 89 70 66
0.0498333 -0.4069 -0.455 88 69 65
0.0563638 -0.416737 -0.466 84 69 62
0.0612 -0.42568 -0.476 77 67 66
0.225762 -0.491857 -0.55 152 153 157
0.248663 -0.493646 -0.552 123 122 127
0.256487 -0.49454 -0.553 109 108 114
0.264337 -0.495434 -0.554 90 89 95
0.277439 -0.498117 -0.557 67 66 72
0.291705 -0.502589 -0.562 63 62 68
0.421323 -0.551774 -0.617 8 8 18
0.459203 -0.560717 -0.627 12 12 20
0.498867 -0.4382 -0.49 150 110 85
0.49795 -0.430151 -0.481 165 119 93
0.507152 -0.420314 -0.47 175 129 95
0.508048 -0.420314 -0.47 177 131 97
0.508943 -0.420314 -0.47 177 131 97
0.516759 -0.412266 -0.461 168 122 88
0.54604 -0.41316 -0.462 138 98 72
-0.304507 -0.476773 -0.532 224 225 217
-0.289307 -0.476773 -0.532 224 225 217
