ply
format ascii 1.0
comment Created by Open3D
element vertex 1292
property double x
property double y
property double z
property uchar red
property uchar green
property uchar blue
end_header
0.321663 -0.386825 -0.622 134 157 199
0.324553 -0.387447 -0.623 115 142 189
0.326927 -0.387447 -0.623 153 175 224
0.381548 -0.38869 -0.625 119 143 187
0.391071 -0.38869 -0.625 172 189 215
0.393452 -0.38869 -0.625 185 190 209
0.401786 -0.38869 -0.625 117 117 145
0.402976 -0.38869 -0.625 80 87 113
0.41793 -0.389312 -0.626 113 135 185
0.421507 -0.389312 -0.626 166 168 191
0.456814 -0.389934 -0.627 168 171 190
0.46398 -0.389934 -0.627 158 158 168
0.475923 -0.389934 -0.627 151 162 194
0.478311 -0.389934 -0.627 76 100 148
0.48984 -0.390556 -0.628 86 98 138
0.500606 -0.390556 -0.628 167 175 194
0.52177 -0.391178 -0.629 181 179 184
0.536491 -0.390556 -0.628 102 115 147
0.473031 -0.322769 -0.519 174 129 108
0.475328 -0.319659 -0.514 175 129 106
0.47742 -0.317793 -0.511 178 131 111
0.478429 -0.317171 -0.51 174 127 107
0.499775 -0.315928 -0.508 163 118 99
0.502698 -0.31655 -0.509 156 114 98
0.529509 -0.328366 -0.528 149 112 96
0.0919371 -0.348086 -0.558 195 141 131
0.0960162 -0.347462 -0.557 197 144 138
0.102886 -0.34559 -0.554 190 135 128
0.103941 -0.34559 -0.554 191 136 129
0.14981 -0.356819 -0.572 129 86 80
0.152254 -0.357443 -0.573 126 85 79
0.160189 -0.360562 -0.578 122 83 78
0.18107 -0.37179 -0.596 116 83 78
0.214343 -0.386762 -0.62 157 155 179
0.218713 -0.386138 -0.619 110 116 142
0.219892 -0.386138 -0.619 88 94 120
0.232057 -0.386762 -0.62 123 130 159
0.245831 -0.386138 -0.619 174 182 201
0.27177 -0.386138 -0.619 201 202 223
0.274129 -0.386138 -0.619 129 133 160
0.281203 -0.386138 -0.619 192 198 220
0.288989 -0.385514 -0.618 203 207 234
0.302426 -0.386138 -0.619 203 208 227
0.311181 -0.386762 -0.62 114 131 161
0.33286 -0.388633 -0.623 198 204 218
0.353033 -0.388633 -0.623 80 104 166
0.358354 -0.389257 -0.624 174 180 214
0.393452 -0.389881 -0.625 186 193 211
0.407086 -0.389257 -0.624 148 153 183
0.410651 -0.389257 -0.624 164 169 189
0.441777 -0.390505 -0.626 94 114 149
0.444162 -0.390505 -0.626 83 115 166
0.448931 -0.390505 -0.626 93 127 172
0.459203 -0.391129 -0.627 181 181 189
0.474729 -0.391129 -0.627 111 125 164
0.478311 -0.391129 -0.627 76 99 149
0.493429 -0.391752 -0.628 135 149 188
0.51496 -0.391752 -0.628 119 142 184
0.535295 -0.391752 -0.628 98 109 139
0.477424 -0.333738 -0.535 161 123 104
0.473107 -0.323133 -0.518 175 127 107
0.47331 -0.321262 -0.515 177 128 114
0.503668 -0.317519 -0.509 159 116 99
0.514526 -0.321886 -0.516 153 114 97
0.08568 -0.36792 -0.588 193 147 134
0.0949552 -0.348523 -0.557 195 142 136
0.0969029 -0.347897 -0.556 197 144 138
0.1185 -0.34602 -0.553 179 125 113
0.137457 -0.354154 -0.566 145 95 88
0.14872 -0.357909 -0.572 126 85 81
0.173334 -0.368546 -0.589 121 83 82
0.175049 -0.369797 -0.591 120 82 81
0.212818 -0.387317 -0.619 117 118 148
0.228146 -0.387317 -0.619 126 135 168
0.26149 -0.386066 -0.617 204 205 226
0.265446 -0.386691 -0.618 211 210 228
0.266623 -0.386691 -0.618 205 210 232
0.302426 -0.387317 -0.619 207 210 229
0.317086 -0.387943 -0.62 137 165 205
0.328771 -0.389194 -0.622 203 205 228
0.329956 -0.389194 -0.622 208 207 225
0.331141 -0.389194 -0.622 204 203 221
0.37024 -0.390446 -0.624 187 196 213
0.377953 -0.38982 -0.623 102 114 152
0.394011 -0.390446 -0.624 182 185 204
0.407086 -0.390446 -0.624 115 128 170
0.429853 -0.391697 -0.626 172 178 200
0.448214 -0.391071 -0.625 98 132 177
0.451786 -0.391071 -0.625 73 98 162
0.490254 -0.392323 -0.627 44 65 108
0.502589 -0.391697 -0.626 170 178 191
0.509743 -0.391697 -0.626 114 139 179
0.511751 -0.392323 -0.627 120 145 185
0.51414 -0.392323 -0.627 119 140 185
0.516156 -0.392949 -0.628 101 120 162
0.529314 -0.392949 -0.628 191 190 204
0.534443 -0.392323 -0.627 94 103 132
0.484271 -0.341014 -0.545 163 122 100
0.47287 -0.325997 -0.521 173 128 105
0.47331 -0.322243 -0.515 176 127 112
0.474349 -0.321617 -0.514 175 128 108
0.47538 -0.320991 -0.513 176 129 109
0.482358 -0.317863 -0.508 175 127 107
0.492989 -0.316611 -0.506 170 124 101
0.0898114 -0.350211 -0.558 196 144 133
0.0937257 -0.348956 -0.556 193 143 134
0.110926 -0.346446 -0.552 188 134 122
0.115131 -0.346446 -0.552 180 128 117
0.127011 -0.350211 -0.558 158 105 91
0.201743 -0.385358 -0.614 163 161 182
0.212474 -0.387869 -0.618 100 105 137
0.293222 -0.387241 -0.617 100 115 158
0.294397 -0.387241 -0.617 101 116 159
0.30076 -0.387869 -0.618 206 207 225
0.315905 -0.389124 -0.62 126 152 189
0.324694 -0.389751 -0.621 114 146 195
0.364314 -0.390379 -0.622 178 189 209
0.377953 -0.391007 -0.623 104 117 152
0.432738 -0.392262 -0.625 179 181 193
0.455357 -0.392262 -0.625 157 163 177
0.476356 -0.39289 -0.626 142 157 188
0.493837 -0.393517 -0.627 155 163 182
0.500204 -0.39289 -0.626 141 139 150
0.504973 -0.39289 -0.626 97 113 146
0.522137 -0.394145 -0.628 181 183 195
0.52453 -0.394145 -0.628 185 188 205
0.529666 -0.393517 -0.627 180 185 205
0.53086 -0.393517 -0.627 180 185 205
0.53869 -0.392262 -0.625 180 185 214
0.531549 -0.380337 -0.606 147 117 115
0.49588 -0.317575 -0.506 164 118 95
0.0967286 -0.349386 -0.555 195 143 130
0.116183 -0.347497 -0.552 181 127 115
0.120825 -0.348756 -0.554 175 122 106
0.157157 -0.364494 -0.579 124 86 83
0.158533 -0.365124 -0.58 123 85 82
0.160743 -0.365124 -0.58 122 84 83
0.172797 -0.372049 -0.591 118 82 82
0.174511 -0.373308 -0.593 116 82 83
0.210955 -0.388416 -0.617 60 66 100
0.21836 -0.389046 -0.618 88 100 140
0.228954 -0.389046 -0.618 53 70 114
0.307823 -0.389046 -0.618 204 208 233
0.310177 -0.389046 -0.618 148 165 195
0.315395 -0.389675 -0.619 124 150 187
0.324171 -0.390305 -0.62 113 145 194
0.325352 -0.390305 -0.62 144 176 225
0.336523 -0.390934 -0.621 182 186 198
0.340071 -0.390934 -0.621 89 102 136
0.373207 -0.392193 -0.623 184 190 212
0.380327 -0.392193 -0.623 98 123 163
0.395753 -0.392193 -0.623 146 144 155
0.441554 -0.392823 -0.624 76 106 156
0.476356 -0.394082 -0.626 150 164 191
0.482318 -0.394082 -0.626 142 153 181
0.484703 -0.394082 -0.626 152 163 183
0.489472 -0.394082 -0.626 116 133 163
0.49305 -0.394082 -0.626 140 148 169
0.494242 -0.394082 -0.626 167 175 196
0.507738 -0.393452 -0.625 94 118 156
0.539881 -0.393452 -0.625 176 181 203
0.473246 -0.324834 -0.516 178 131 111
0.486237 -0.319169 -0.507 177 129 109
0.487203 -0.319169 -0.507 180 132 112
0.492014 -0.31791 -0.505 173 127 104
0.100593 -0.34918 -0.553 189 137 123
0.105477 -0.347917 -0.551 191 138 122
0.165754 -0.370017 -0.586 118 82 82
0.170257 -0.372543 -0.59 118 82 82
0.215656 -0.389591 -0.617 138 145 174
0.225867 -0.38896 -0.616 102 110 146
0.233285 -0.389591 -0.617 168 173 205
0.23681 -0.389591 -0.617 183 180 199
0.245813 -0.38896 -0.616 132 144 170
0.25168 -0.38896 -0.616 119 143 179
0.26576 -0.38896 -0.616 205 212 230
0.324828 -0.390854 -0.619 124 156 203
0.3348 -0.391486 -0.62 181 187 203
0.339524 -0.391486 -0.62 69 82 117
0.350717 -0.392117 -0.621 63 86 130
0.353083 -0.392117 -0.621 114 144 198
0.355449 -0.392117 -0.621 174 193 223
0.362546 -0.392117 -0.621 99 121 162
0.370238 -0.392749 -0.622 184 196 212
0.39338 -0.39338 -0.623 179 178 196
0.39694 -0.39338 -0.623 168 170 182
0.423047 -0.39338 -0.623 113 128 161
0.424233 -0.39338 -0.623 88 100 138
0.42542 -0.39338 -0.623 64 76 114
0.4361 -0.39338 -0.623 136 140 149
0.43966 -0.39338 -0.623 98 111 130
0.442743 -0.394011 -0.624 80 108 158
0.447497 -0.394011 -0.624 99 130 176
0.474405 -0.394643 -0.625 166 173 199
0.48869 -0.394643 -0.625 159 167 190
0.489881 -0.394643 -0.625 159 167 190
0.530013 -0.395274 -0.626 157 163 185
0.532398 -0.395274 -0.626 149 154 176
0.537829 -0.394011 -0.624 183 186 205
0.477787 -0.33592 -0.532 162 122 110
0.47402 -0.327711 -0.519 175 129 106
0.487203 -0.320134 -0.507 180 132 110
0.48817 -0.319503 -0.506 178 130 108
0.0893286 -0.3515 -0.555 196 148 134
0.0903857 -0.3515 -0.555 198 149 135
0.101463 -0.3496 -0.552 193 141 127
0.112824 -0.348967 -0.551 183 131 109
0.133749 -0.3572 -0.564 140 91 84
0.158807 -0.367967 -0.581 122 84 81
0.163243 -0.3705 -0.585 120 85 83
0.210613 -0.390133 -0.616 72 79 105
0.218827 -0.390133 -0.616 55 67 107
0.229387 -0.390133 -0.616 53 68 111
0.231733 -0.390133 -0.616 145 151 183
0.24112 -0.390133 -0.616 187 186 204
0.245813 -0.390133 -0.616 109 119 144
0.253614 -0.3895 -0.615 127 147 180
0.2583 -0.3895 -0.615 140 155 186
0.259471 -0.3895 -0.615 189 204 235
0.261814 -0.3895 -0.615 206 207 227
0.2829 -0.3895 -0.615 136 149 184
0.299787 -0.390133 -0.616 204 209 229
0.316063 -0.3914 -0.618 114 138 182
0.336618 -0.392033 -0.619 153 155 170
0.375557 -0.3933 -0.621 136 147 167
0.377923 -0.3933 -0.621 96 118 155
0.379106 -0.3933 -0.621 106 128 165
0.380289 -0.3933 -0.621 121 150 192
0.424737 -0.393933 -0.622 121 130 163
0.433727 -0.394567 -0.623 181 181 207
0.434913 -0.394567 -0.623 183 183 209
0.437287 -0.394567 -0.623 159 160 178
0.442033 -0.394567 -0.623 97 123 174
0.449874 -0.3952 -0.624 89 113 159
0.457006 -0.3952 -0.624 165 169 180
0.46176 -0.3952 -0.624 163 164 184
0.492262 -0.395833 -0.625 131 136 158
0.475429 -0.324267 -0.512 176 130 107
0.476447 -0.323633 -0.511 175 129 106
0.477457 -0.323 -0.51 179 133 110
0.489133 -0.320467 -0.506 175 127 104
0.492014 -0.319833 -0.505 173 127 104
0.50362 -0.3211 -0.507 157 114 95
0.526474 -0.3306 -0.522 153 116 98
0.0835838 -0.355098 -0.559 195 149 134
0.09638 -0.351287 -0.553 192 140 126
0.102329 -0.350016 -0.551 191 140 123
0.117447 -0.351287 -0.553 174 119 99
0.135301 -0.359545 -0.566 137 90 84
0.154114 -0.368438 -0.58 122 82 82
0.203243 -0.390671 -0.615 158 154 179
0.238386 -0.390671 -0.615 188 189 209
0.308 -0.391307 -0.616 188 189 217
0.330189 -0.392577 -0.618 199 202 221
0.340155 -0.393212 -0.619 179 188 217
0.364915 -0.393212 -0.619 181 187 211
0.367867 -0.393848 -0.62 191 198 224
0.3844 -0.393848 -0.62 108 139 185
0.405129 -0.394483 -0.621 183 186 203
0.413409 -0.394483 -0.621 106 129 171
0.430661 -0.395118 -0.622 174 179 199
0.46814 -0.395753 -0.623 171 181 190
0.474834 -0.396389 -0.624 173 175 198
0.497417 -0.396389 -0.624 159 162 177
0.510491 -0.396389 -0.624 91 117 166
0.514057 -0.396389 -0.624 112 131 173
0.481409 -0.322066 -0.507 176 128 106
0.482374 -0.322066 -0.507 178 130 107
0.48817 -0.32143 -0.506 173 126 100
0.0806476 -0.372091 -0.584 195 143 129
0.0921667 -0.35234 -0.553 198 149 134
0.107381 -0.350429 -0.55 192 140 126
0.111774 -0.351066 -0.551 191 138 124
0.16129 -0.373366 -0.586 117 81 81
0.221625 -0.391206 -0.614 147 151 186
0.263728 -0.391206 -0.614 214 211 228
0.277762 -0.391206 -0.614 212 212 238
0.300471 -0.391843 -0.615 201 209 232
0.302814 -0.391843 -0.615 204 209 231
0.3075 -0.391843 -0.615 188 190 215
0.3502 -0.393754 -0.618 91 110 150
0.362557 -0.394391 -0.619 136 142 174
0.368452 -0.394391 -0.619 189 194 224
0.37199 -0.394391 -0.619 183 190 216
0.3844 -0.395029 -0.62 116 145 189
0.451987 -0.396303 -0.622 113 141 178
0.474073 -0.39694 -0.623 175 175 199
0.476023 -0.397577 -0.624 179 178 196
0.491474 -0.397577 -0.624 170 172 193
0.497417 -0.397577 -0.624 116 122 134
0.50018 -0.39694 -0.623 172 176 187
0.50374 -0.39694 -0.623 130 137 165
0.5073 -0.39694 -0.623 89 117 157
0.52 -0.397577 -0.624 166 167 187
0.483047 -0.34342 -0.539 160 122 113
0.475429 -0.326217 -0.512 177 131 108
0.4794 -0.324943 -0.51 174 126 104
0.480423 -0.323669 -0.508 173 125 103
0.481409 -0.323031 -0.507 176 128 106
0.49392 -0.32112 -0.504 170 123 97
0.500671 -0.321757 -0.505 156 115 93
0.625167 -0.385471 -0.605 201 201 199
0.09006 -0.353393 -0.553 199 150 135
0.0962057 -0.352754 -0.552 193 144 127
0.105094 -0.350837 -0.549 196 145 128
0.1316 -0.360423 -0.564 135 90 85
0.157132 -0.372565 -0.583 124 90 81
0.18881 -0.389819 -0.61 89 86 107
0.20759 -0.392375 -0.614 153 153 177
0.219643 -0.393014 -0.615 105 108 141
0.236829 -0.392375 -0.614 174 180 204
0.242676 -0.392375 -0.614 189 194 216
0.248119 -0.391736 -0.613 142 157 188
0.280812 -0.391736 -0.613 206 208 229
0.28244 -0.392375 -0.614 147 153 185
0.284779 -0.392375 -0.614 177 184 212
0.289457 -0.392375 -0.614 209 211 226
0.298813 -0.392375 -0.614 160 170 195
0.415105 -0.39621 -0.62 180 184 211
0.42101 -0.39621 -0.62 184 184 208
0.45791 -0.397488 -0.622 145 152 171
0.466953 -0.398127 -0.623 166 173 202
0.48594 -0.398127 -0.623 171 176 195
0.491873 -0.398127 -0.623 157 163 175
0.52866 -0.398127 -0.623 176 182 198
0.53222 -0.398127 -0.623 183 185 197
0.506486 -0.364257 -0.57 155 113 101
0.482277 -0.343169 -0.537 160 124 108
0.476406 -0.336139 -0.526 167 129 110
0.486242 -0.323358 -0.506 178 130 107
0.48912 -0.32208 -0.504 175 129 105
0.495814 -0.321441 -0.503 169 124 101
0.49872 -0.32208 -0.504 161 119 97
0.523427 -0.331027 -0.518 153 116 97
0.111571 -0.352524 -0.55 190 137 121
0.1316 -0.361497 -0.564 129 88 84
0.145119 -0.368548 -0.575 125 85 85
0.154911 -0.373675 -0.583 121 87 88
0.191447 -0.391622 -0.611 93 93 117
0.23332 -0.393545 -0.614 78 89 121
0.235659 -0.393545 -0.614 115 124 165
0.252377 -0.392263 -0.612 136 151 182
0.262869 -0.392263 -0.612 201 203 226
0.266366 -0.392263 -0.612 121 125 152
0.268697 -0.392263 -0.612 174 175 193
0.274526 -0.392263 -0.612 208 217 226
0.28198 -0.392904 -0.613 167 169 190
0.283148 -0.392904 -0.613 149 151 172
0.285483 -0.392904 -0.613 206 208 229
0.314529 -0.394186 -0.615 118 136 174
0.351984 -0.395468 -0.617 188 199 219
0.353159 -0.395468 -0.617 189 200 220
0.354334 -0.395468 -0.617 191 202 220
0.361971 -0.396109 -0.618 179 182 213
0.36668 -0.396109 -0.618 123 140 186
0.384959 -0.39675 -0.619 135 160 190
0.392667 -0.39739 -0.62 158 161 180
0.405657 -0.39739 -0.62 186 189 204
0.445346 -0.398031 -0.621 95 125 177
0.455991 -0.398031 -0.621 142 143 163
0.466204 -0.398672 -0.622 173 182 197
0.491873 -0.399313 -0.623 172 175 190
0.501747 -0.398672 -0.622 144 158 184
0.534593 -0.399313 -0.623 185 186 204
0.538791 -0.398031 -0.621 185 187 202
0.529088 -0.38329 -0.598 149 119 111
0.49294 -0.322399 -0.503 173 127 103
0.496772 -0.322399 -0.503 165 120 97
0.502595 -0.323681 -0.505 159 117 95
0.0781733 -0.369 -0.574 194 147 129
0.0794667 -0.36 -0.56 193 145 131
0.0826867 -0.3555 -0.553 198 150 136
0.099 -0.353571 -0.55 196 145 128
0.0998657 -0.352929 -0.549 194 143 124
0.112619 -0.353571 -0.55 192 140 119
0.153801 -0.374786 -0.583 117 82 86
0.191447 -0.392786 -0.611 105 102 129
0.21309 -0.394071 -0.613 168 168 180
0.218929 -0.394071 -0.613 147 147 175
0.224767 -0.394071 -0.613 168 175 191
0.236443 -0.394071 -0.613 126 135 174
0.259371 -0.393429 -0.612 203 208 230
0.298327 -0.394071 -0.613 104 117 149
0.315187 -0.394714 -0.614 144 166 205
0.321557 -0.395357 -0.615 159 179 212
0.3239 -0.395357 -0.615 191 199 218
0.33264 -0.396 -0.616 121 131 166
0.356685 -0.396643 -0.617 189 198 213
0.378451 -0.397286 -0.618 91 119 169
0.39557 -0.397929 -0.619 91 98 127
0.427405 -0.397929 -0.619 121 131 158
0.453626 -0.399214 -0.621 162 173 203
0.458357 -0.399214 -0.621 84 90 114
0.497008 -0.399857 -0.622 60 64 91
0.51626 -0.3735 -0.581 157 117 105
0.498841 -0.359357 -0.559 159 120 103
0.475429 -0.329143 -0.512 175 130 109
0.478429 -0.327857 -0.51 176 131 108
0.47943 -0.327214 -0.509 176 130 107
0.48815 -0.323357 -0.503 176 130 107
0.491004 -0.322714 -0.502 170 122 99
0.493898 -0.323357 -0.503 177 131 108
0.516389 -0.329143 -0.512 151 114 96
0.0814857 -0.355909 -0.552 200 153 137
0.0927143 -0.354619 -0.55 194 146 126
0.0937619 -0.354619 -0.55 198 147 130
0.0998657 -0.353974 -0.549 195 144 127
0.111571 -0.354619 -0.55 188 136 112
0.142929 -0.370738 -0.575 124 86 85
0.147231 -0.373317 -0.579 119 81 80
0.18734 -0.39266 -0.609 72 71 102
0.219737 -0.394594 -0.612 170 168 192
0.227897 -0.394594 -0.612 173 181 194
0.241886 -0.394594 -0.612 177 183 207
0.250801 -0.39395 -0.611 118 137 177
0.263603 -0.39395 -0.611 120 126 158
0.274526 -0.394594 -0.612 202 205 212
0.296674 -0.394594 -0.612 160 165 194
0.29784 -0.394594 -0.612 108 121 153
0.31117 -0.395239 -0.613 118 133 172
0.316356 -0.395884 -0.614 110 136 185
0.342027 -0.397173 -0.616 192 200 211
0.35786 -0.397818 -0.617 188 197 214
0.385514 -0.398463 -0.618 145 170 210
0.387869 -0.398463 -0.618 168 177 210
0.396109 -0.398463 -0.618 123 124 144
0.451714 -0.399752 -0.62 140 153 187
0.465454 -0.400397 -0.621 177 181 193
0.4761 -0.400397 -0.621 162 170 183
0.50094 -0.400397 -0.621 132 151 193
0.511225 -0.401042 -0.622 48 80 137
0.524257 -0.401042 -0.622 158 163 192
0.528996 -0.401042 -0.622 179 185 197
0.483357 -0.325605 -0.505 177 131 108
0.489108 -0.324315 -0.503 171 123 101
0.508449 -0.326894 -0.507 153 115 96
0.0757219 -0.369893 -0.572 195 152 136
0.085381 -0.355667 -0.55 197 150 132
0.0864286 -0.355667 -0.55 198 151 133
0.090619 -0.355667 -0.55 197 149 129
0.0977743 -0.35502 -0.549 194 143 124
0.111571 -0.355667 -0.55 187 137 110
0.117659 -0.358253 -0.554 163 107 90
0.140249 -0.37054 -0.573 124 84 82
0.18386 -0.39382 -0.609 49 59 95
0.191133 -0.394467 -0.61 111 110 141
0.193774 -0.395113 -0.611 144 143 174
0.196102 -0.395113 -0.611 132 135 170
0.200757 -0.395113 -0.611 70 82 120
0.205412 -0.395113 -0.611 157 159 180
0.227525 -0.395113 -0.611 175 182 198
0.229063 -0.39576 -0.612 182 189 205
0.23256 -0.39576 -0.612 171 179 202
0.268258 -0.395113 -0.611 209 210 228
0.28106 -0.395113 -0.611 210 213 228
0.286879 -0.395113 -0.611 208 210 225
0.321679 -0.396407 -0.613 158 181 215
0.359627 -0.398347 -0.616 196 198 210
0.376053 -0.398347 -0.616 115 129 164
0.38489 -0.398993 -0.617 127 154 199
0.401994 -0.39964 -0.618 190 195 201
0.411411 -0.39964 -0.618 163 170 188
0.417297 -0.39964 -0.618 185 183 204
0.42436 -0.39964 -0.618 184 189 209
0.459981 -0.400933 -0.62 105 112 140
0.46782 -0.40158 -0.621 178 180 193
0.469003 -0.40158 -0.621 174 180 196
0.470186 -0.40158 -0.621 170 176 192
0.480831 -0.40158 -0.621 169 174 193
0.493843 -0.40158 -0.621 164 157 173
0.519866 -0.40158 -0.621 97 111 150
0.530511 -0.40158 -0.621 186 190 201
0.537609 -0.40158 -0.621 176 179 194
0.506872 -0.367307 -0.568 160 123 105
0.492905 -0.355667 -0.55 159 122 103
0.483357 -0.326567 -0.505 178 132 109
0.516353 -0.330447 -0.511 151 114 96
0.0757371 -0.365794 -0.564 194 152 136
0.076919 -0.361254 -0.557 201 155 139
0.0894086 -0.356066 -0.549 199 151 131
0.101586 -0.354769 -0.547 196 145 126
0.111571 -0.356714 -0.55 185 138 110
0.116393 -0.35866 -0.553 157 104 86
0.133615 -0.368389 -0.568 125 84 78
0.146129 -0.375523 -0.579 121 83 80
0.147486 -0.376171 -0.58 118 80 77
0.193457 -0.395629 -0.61 137 142 172
0.220542 -0.396277 -0.611 172 170 192
0.228689 -0.396277 -0.611 177 184 202
0.236835 -0.396277 -0.611 69 76 122
0.249229 -0.395629 -0.61 110 131 184
0.251552 -0.395629 -0.61 110 128 176
0.277569 -0.396277 -0.611 209 213 225
0.284551 -0.396277 -0.611 208 211 226
0.300171 -0.396926 -0.612 82 98 134
0.307166 -0.396926 -0.612 145 149 178
0.33102 -0.397574 -0.613 182 196 231
0.332188 -0.397574 -0.613 201 198 217
0.359043 -0.398871 -0.615 192 196 205
0.362557 -0.398871 -0.615 181 194 211
0.372533 -0.39952 -0.616 132 141 180
0.386066 -0.400169 -0.617 108 129 172
0.413096 -0.400169 -0.617 168 179 199
0.424849 -0.400169 -0.617 171 170 178
0.451434 -0.400817 -0.618 91 112 165
0.471369 -0.402763 -0.621 166 173 191
0.479649 -0.402763 -0.621 159 167 190
0.490686 -0.402114 -0.62 146 144 147
0.503306 -0.402763 -0.621 63 89 148
0.531694 -0.402763 -0.621 185 188 195
0.532019 -0.402114 -0.62 185 188 197
0.535562 -0.402114 -0.62 162 166 178
0.527811 -0.385251 -0.594 149 118 115
0.475997 -0.336609 -0.519 172 127 106
0.475328 -0.333366 -0.514 172 127 106
0.482387 -0.328177 -0.506 174 128 104
0.499609 -0.325583 -0.502 163 120 101
0.50352 -0.32688 -0.504 162 121 101
0.0741105 -0.36947 -0.568 199 157 141
0.109277 -0.357111 -0.549 186 133 115
0.115131 -0.359063 -0.552 160 113 87
0.1827 -0.39614 -0.609 47 59 97
0.202752 -0.39679 -0.61 159 164 183
0.222505 -0.39679 -0.61 174 175 193
0.223667 -0.39679 -0.61 179 180 198
0.227152 -0.39679 -0.61 182 189 208
0.233344 -0.397441 -0.611 176 182 204
0.236448 -0.39679 -0.61 75 80 118
0.239933 -0.39679 -0.61 165 177 217
0.284086 -0.39679 -0.61 212 215 230
0.299681 -0.397441 -0.611 121 132 164
0.300845 -0.397441 -0.611 90 101 133
0.302009 -0.397441 -0.611 135 146 178
0.31416 -0.398091 -0.612 68 107 174
0.326983 -0.398091 -0.612 109 128 170
0.329852 -0.398742 -0.613 187 198 226
0.332188 -0.398742 -0.613 199 201 216
0.334523 -0.398742 -0.613 195 199 211
0.342086 -0.399392 -0.614 197 200 209
0.351442 -0.399392 -0.614 181 189 210
0.363729 -0.400043 -0.615 187 194 213
0.3649 -0.400043 -0.615 178 188 200
0.366071 -0.400043 -0.615 122 132 144
0.3731 -0.400043 -0.615 94 113 171
0.384267 -0.400693 -0.616 89 121 182
0.38544 -0.400693 -0.616 72 104 155
0.397173 -0.400693 -0.616 127 128 133
0.415947 -0.400693 -0.616 172 175 194
0.419467 -0.400693 -0.616 180 186 202
0.435426 -0.401344 -0.617 61 92 149
0.438951 -0.401344 -0.617 68 99 164
0.476514 -0.403295 -0.62 98 108 144
0.501314 -0.403295 -0.62 41 70 128
0.511943 -0.403295 -0.62 43 78 136
0.522571 -0.403295 -0.62 147 155 178
0.529657 -0.403295 -0.62 179 183 186
0.505271 -0.367519 -0.565 158 120 107
0.476132 -0.336296 -0.517 173 128 107
0.476194 -0.335646 -0.516 173 128 109
0.479455 -0.330442 -0.508 173 126 106
0.480423 -0.330442 -0.508 177 130 110
0.48432 -0.32784 -0.504 175 128 108
0.48528 -0.32784 -0.504 174 127 107
0.486223 -0.326539 -0.502 173 127 104
0.490048 -0.326539 -0.502 174 129 108
0.0722371 -0.377729 -0.579 199 160 143
0.0734581 -0.36729 -0.563 202 160 138
0.0746629 -0.362724 -0.556 202 160 138
0.0762286 -0.360114 -0.552 201 157 132
0.0799971 -0.358157 -0.549 198 153 132
0.121697 -0.364029 -0.558 140 92 92
0.138066 -0.373814 -0.573 126 83 77
0.19894 -0.3973 -0.609 138 144 170
0.2059 -0.3973 -0.609 168 172 183
0.223667 -0.397952 -0.61 180 181 199
0.234124 -0.397952 -0.61 172 178 194
0.23838 -0.3973 -0.609 98 111 155
0.24882 -0.3973 -0.609 83 109 168
0.26158 -0.3973 -0.609 186 201 232
0.28362 -0.3973 -0.609 201 203 218
0.29058 -0.3973 -0.609 209 211 226
0.294543 -0.397952 -0.61 205 206 224
0.306664 -0.398605 -0.611 116 126 162
0.307828 -0.398605 -0.611 118 135 179
0.324651 -0.399257 -0.612 89 114 171
0.329314 -0.399257 -0.612 196 204 223
0.336858 -0.39991 -0.613 188 189 194
0.348534 -0.39991 -0.613 147 156 185
0.349702 -0.39991 -0.613 162 169 195
0.376002 -0.400562 -0.614 48 83 151
0.396529 -0.401214 -0.615 175 173 176
0.404729 -0.401214 -0.615 159 166 182
0.46985 -0.403824 -0.619 129 134 154
0.488715 -0.403824 -0.619 150 146 143
0.500133 -0.404476 -0.62 42 72 132
0.50758 -0.403824 -0.619 20 58 120
0.476839 -0.33989 -0.521 173 128 109
0.476486 -0.332714 -0.51 174 129 110
0.494797 -0.326843 -0.501 169 124 103
0.498653 -0.327495 -0.502 164 121 104
0.511346 -0.330757 -0.507 156 114 98
0.515302 -0.332062 -0.509 155 113 99
0.0760905 -0.360511 -0.551 200 155 132
0.0859571 -0.357894 -0.547 200 152 132
0.135171 -0.372943 -0.57 128 85 79
0.1394 -0.37556 -0.574 122 81 77
0.2059 -0.39846 -0.609 167 166 182
0.20938 -0.39846 -0.609 149 146 167
0.22794 -0.39846 -0.609 185 191 207
0.23142 -0.39846 -0.609 185 191 205
0.242621 -0.397806 -0.608 105 127 176
0.27898 -0.39846 -0.609 183 185 197
0.29522 -0.39846 -0.609 204 207 226
0.309648 -0.399114 -0.61 97 129 190
0.346199 -0.401077 -0.613 128 136 157
0.35087 -0.401077 -0.613 161 167 193
0.363713 -0.401077 -0.613 148 147 155
0.37539 -0.401077 -0.613 38 75 143
0.384189 -0.401731 -0.614 45 90 149
0.385358 -0.401731 -0.614 43 88 147
0.391206 -0.401731 -0.614 168 175 194
0.412929 -0.402386 -0.615 139 151 177
0.43472 -0.40304 -0.616 51 82 146
0.508759 -0.405003 -0.619 31 66 124
0.476839 -0.340883 -0.521 173 127 114
0.481423 -0.331069 -0.506 178 131 113
0.486223 -0.328451 -0.502 168 121 103
0.49766 -0.327797 -0.501 165 122 103
0.519273 -0.33434 -0.511 150 115 96
0.0858 -0.35828 -0.546 199 151 129
0.0995019 -0.358936 -0.547 191 143 120
0.108034 -0.359592 -0.548 184 134 111
0.143923 -0.379934 -0.579 118 80 77
0.187032 -0.398964 -0.608 54 74 127
0.18819 -0.398964 -0.608 67 87 140
0.193981 -0.398964 -0.608 46 59 111
0.198613 -0.398964 -0.608 154 154 178
0.204404 -0.398964 -0.608 162 164 179
0.22098 -0.39962 -0.609 136 137 155
0.234514 -0.398964 -0.608 174 180 202
0.235672 -0.398964 -0.608 153 159 181
0.237989 -0.398964 -0.608 77 96 138
0.244937 -0.398964 -0.608 77 99 156
0.268099 -0.398964 -0.608 211 212 232
0.30914 -0.39962 -0.609 66 99 170
0.3161 -0.39962 -0.609 55 88 155
0.321267 -0.400276 -0.61 58 94 168
0.350297 -0.401589 -0.612 158 166 187
0.364881 -0.402245 -0.613 139 134 138
0.374222 -0.402245 -0.613 32 71 136
0.382395 -0.402245 -0.613 39 74 140
0.387066 -0.402245 -0.613 69 103 174
0.411088 -0.402901 -0.614 150 163 182
0.414596 -0.402901 -0.614 142 153 173
0.416935 -0.402901 -0.614 175 181 193
0.419274 -0.402901 -0.614 145 146 151
0.420444 -0.402901 -0.614 128 124 125
0.434014 -0.403557 -0.615 58 82 146
0.461281 -0.40487 -0.617 181 180 185
0.476154 -0.405526 -0.618 130 141 159
0.499327 -0.406182 -0.619 65 89 135
0.504406 -0.405526 -0.618 29 59 119
0.509114 -0.405526 -0.618 43 79 139
0.526771 -0.405526 -0.618 137 136 142
0.527949 -0.405526 -0.618 177 176 182
0.477457 -0.334657 -0.51 174 128 112
0.479477 -0.332689 -0.507 176 130 114
0.480443 -0.332689 -0.507 177 130 114
0.49 -0.328095 -0.5 177 132 113
0.49381 -0.328095 -0.5 171 124 104
0.530333 -0.339907 -0.518 150 111 96
0.0730743 -0.363269 -0.552 202 156 140
0.07658 -0.359978 -0.547 198 153 132
0.07956 -0.35932 -0.546 202 156 133
0.0806 -0.35932 -0.546 200 154 131
0.0962 -0.35932 -0.546 200 150 127
0.115549 -0.364585 -0.554 146 95 78
0.125781 -0.36985 -0.562 137 88 81
0.12991 -0.372482 -0.566 128 85 76
0.142573 -0.380379 -0.578 116 78 77
0.148757 -0.384986 -0.585 112 80 81
0.183256 -0.399464 -0.607 22 40 88
0.187032 -0.400122 -0.608 39 55 114
0.191665 -0.400122 -0.608 33 54 107
0.198613 -0.400122 -0.608 148 148 176
0.204404 -0.400122 -0.608 157 159 174
0.209036 -0.400122 -0.608 113 112 130
0.227566 -0.400122 -0.608 182 185 202
0.256518 -0.400122 -0.608 89 115 166
0.262309 -0.400122 -0.608 200 201 222
0.264625 -0.400122 -0.608 207 208 228
0.270415 -0.400122 -0.608 209 210 228
0.282689 -0.399464 -0.607 182 184 199
0.29821 -0.400122 -0.608 147 149 164
0.30566 -0.40078 -0.609 71 97 146
0.3103 -0.40078 -0.609 47 81 152
0.32359 -0.401438 -0.61 105 131 188
0.342742 -0.402096 -0.611 113 118 124
0.359623 -0.402754 -0.612 175 174 180
0.361954 -0.402754 -0.612 131 129 130
0.381228 -0.403412 -0.613 43 79 141
0.388233 -0.403412 -0.613 126 148 195
0.457013 -0.405387 -0.616 168 182 211
0.473033 -0.406045 -0.617 154 160 174
0.474209 -0.406045 -0.617 141 147 161
0.483217 -0.406703 -0.618 135 130 136
0.537973 -0.405387 -0.616 180 176 190
0.512621 -0.37643 -0.572 158 124 112
0.488057 -0.355371 -0.54 167 124 107
0.481138 -0.348132 -0.529 169 127 113
0.491871 -0.32839 -0.499 176 129 111
0.494762 -0.329048 -0.5 170 123 103
0.512265 -0.332996 -0.506 155 117 98
0.524237 -0.337603 -0.513 153 111 95
0.0699057 -0.37554 -0.569 202 156 140
0.110524 -0.363 -0.55 158 108 85
0.119357 -0.36762 -0.557 139 89 80
0.125781 -0.37092 -0.562 136 87 80
0.14442 -0.38346 -0.581 114 80 79
0.176029 -0.39996 -0.606 43 58 97
0.177183 -0.39996 -0.606 43 58 97
0.195974 -0.40062 -0.607 136 147 169
0.228348 -0.40062 -0.607 188 190 205
0.23104 -0.40128 -0.608 187 190 205
0.251057 -0.39996 -0.606 100 123 175
0.267217 -0.39996 -0.606 212 215 232
0.268371 -0.39996 -0.606 212 215 232
0.276451 -0.39996 -0.606 169 171 183
0.280376 -0.40062 -0.607 169 171 183
0.305158 -0.40128 -0.608 91 114 164
0.316739 -0.40128 -0.608 66 103 171
0.317897 -0.40128 -0.608 90 130 192
0.3294 -0.4026 -0.61 196 201 221
0.342181 -0.4026 -0.61 144 147 154
0.360789 -0.40392 -0.612 138 136 137
0.378274 -0.40392 -0.612 53 88 156
0.380606 -0.40392 -0.612 56 91 149
0.3876 -0.40392 -0.612 95 116 159
0.398742 -0.40458 -0.613 191 189 194
0.401077 -0.40458 -0.613 134 132 135
0.413921 -0.40458 -0.613 188 190 202
0.439156 -0.40524 -0.614 61 97 159
0.445729 -0.4059 -0.615 64 99 157
0.449243 -0.4059 -0.615 109 139 189
0.4551 -0.4059 -0.615 113 126 158
0.488311 -0.40722 -0.617 169 172 181
0.49852 -0.40788 -0.618 155 172 202
0.503229 -0.40788 -0.618 93 124 168
0.507115 -0.40722 -0.617 59 94 158
0.509466 -0.40722 -0.617 66 101 159
0.520043 -0.40722 -0.617 102 113 143
0.522393 -0.40722 -0.617 156 161 190
0.482048 -0.3498 -0.53 169 127 113
0.476357 -0.33858 -0.513 172 130 114
0.483354 -0.33132 -0.502 170 125 106
0.490921 -0.32934 -0.499 178 133 112
0.515209 -0.33462 -0.507 157 116 94
0.5202 -0.3366 -0.51 156 113 96
0.525214 -0.33858 -0.513 152 110 96
0.0773381 -0.360738 -0.545 203 158 135
0.0825286 -0.360738 -0.545 200 154 130
0.0906667 -0.360076 -0.544 201 154 128
0.09932 -0.3614 -0.546 193 145 122
0.124489 -0.371329 -0.561 135 86 79
0.128605 -0.373976 -0.565 133 86 78
0.209503 -0.401114 -0.606 163 161 183
0.231816 -0.401776 -0.607 191 194 213
0.287994 -0.401114 -0.606 211 212 230
0.289149 -0.401114 -0.606 212 213 231
0.3035 -0.401776 -0.607 133 154 199
0.33582 -0.4031 -0.609 201 203 218
0.358457 -0.405086 -0.612 198 197 205
0.360199 -0.404424 -0.611 132 130 135
0.383475 -0.404424 -0.611 128 157 199
0.400423 -0.405086 -0.612 140 139 144
0.41208 -0.405086 -0.612 187 190 199
0.415577 -0.405086 -0.612 194 194 202
0.426765 -0.405748 -0.613 119 133 159
0.4291 -0.405748 -0.613 111 130 162
0.440326 -0.40641 -0.614 93 128 186
0.457443 -0.407071 -0.615 152 159 187
0.482827 -0.407733 -0.616 170 169 177
0.49695 -0.36471 -0.551 163 124 109
0.482957 -0.351471 -0.531 166 127 110
0.476307 -0.340219 -0.514 172 130 114
0.477457 -0.337571 -0.51 175 132 115
0.47846 -0.33691 -0.509 175 132 113
0.491834 -0.329629 -0.498 172 125 105
0.494723 -0.33029 -0.499 171 124 104
0.507311 -0.332938 -0.503 157 116 98
0.0906667 -0.361112 -0.544 199 151 128
0.109476 -0.365095 -0.55 158 106 82
0.172281 -0.401605 -0.605 56 60 87
0.192189 -0.402269 -0.606 45 65 115
0.20604 -0.402269 -0.606 165 166 187
0.208349 -0.402269 -0.606 174 172 196
0.214919 -0.401605 -0.605 157 157 169
0.229126 -0.402269 -0.606 190 194 206
0.243729 -0.401605 -0.605 86 116 166
0.257983 -0.402269 -0.606 141 155 192
0.357871 -0.405588 -0.611 194 193 199
0.359035 -0.405588 -0.611 176 175 181
0.37239 -0.404924 -0.61 79 109 159
0.381686 -0.404924 -0.61 148 172 210
0.384639 -0.405588 -0.611 175 188 222
0.407417 -0.406251 -0.612 189 191 203
0.409079 -0.405588 -0.611 191 191 203
0.415577 -0.406251 -0.612 192 195 204
0.417909 -0.406251 -0.612 170 169 177
0.475014 -0.408243 -0.615 174 176 188
0.492213 -0.408907 -0.616 96 112 145
0.500427 -0.408907 -0.616 139 155 180
0.502773 -0.408907 -0.616 79 107 144
0.51216 -0.408907 -0.616 103 130 173
0.521871 -0.408243 -0.615 106 110 137
0.537396 -0.407579 -0.614 181 181 191
0.498753 -0.367087 -0.553 162 125 109
0.489086 -0.358457 -0.54 165 126 109
0.477117 -0.34319 -0.517 170 128 112
0.478429 -0.338543 -0.51 176 133 114
0.483359 -0.333896 -0.503 176 129 111
0.491834 -0.330577 -0.498 173 128 105
0.495673 -0.331241 -0.499 167 120 100
0.502431 -0.332569 -0.501 166 123 104
0.528196 -0.341198 -0.514 148 111 95
0.0686771 -0.372134 -0.559 201 160 142
0.0692429 -0.369471 -0.555 206 158 135
0.0958476 -0.362149 -0.544 202 154 131
0.104711 -0.364146 -0.547 171 121 94
0.105947 -0.364811 -0.548 166 116 89
0.111977 -0.367474 -0.552 155 101 89
0.12085 -0.372134 -0.559 141 89 76
0.128832 -0.376794 -0.566 128 85 79
0.138548 -0.382786 -0.575 118 80 77
0.16482 -0.401426 -0.603 98 100 123
0.178043 -0.402757 -0.605 30 47 90
0.1815 -0.402757 -0.605 33 64 118
0.183805 -0.402757 -0.605 35 63 111
0.213767 -0.402757 -0.605 175 175 187
0.223354 -0.403423 -0.606 189 191 206
0.22529 -0.402757 -0.605 189 191 206
0.241025 -0.402091 -0.604 137 155 191
0.243326 -0.402091 -0.604 100 126 175
0.259862 -0.402757 -0.605 169 180 208
0.29789 -0.402757 -0.605 135 146 166
0.300195 -0.402757 -0.605 198 209 231
0.303652 -0.402757 -0.605 184 195 225
0.308771 -0.403423 -0.606 101 134 188
0.31853 -0.404089 -0.607 169 198 232
0.335269 -0.404754 -0.608 198 200 213
0.34278 -0.40542 -0.609 197 199 211
0.407915 -0.406751 -0.611 188 188 200
0.431191 -0.406751 -0.611 162 175 194
0.432355 -0.406751 -0.611 145 165 200
0.460208 -0.408749 -0.614 150 158 181
0.469157 -0.409414 -0.615 174 180 196
0.472671 -0.409414 -0.615 173 176 183
0.478529 -0.409414 -0.615 172 174 186
0.502773 -0.41008 -0.616 83 105 144
0.536227 -0.408749 -0.614 186 184 197
0.476307 -0.342177 -0.514 170 129 109
0.481423 -0.336851 -0.506 175 130 111
0.496624 -0.332191 -0.499 167 122 101
0.0668886 -0.38121 -0.571 198 155 136
0.07228 -0.36452 -0.546 203 158 137
0.0946371 -0.362517 -0.543 205 159 133
0.110725 -0.367858 -0.551 156 104 90
0.114287 -0.369193 -0.553 147 95 82
0.12471 -0.375202 -0.562 137 92 86
0.13014 -0.37854 -0.567 123 85 82
0.138789 -0.384549 -0.576 117 82 80
0.175448 -0.403242 -0.604 99 101 124
0.177749 -0.403242 -0.604 41 60 102
0.182652 -0.40391 -0.605 43 74 128
0.193855 -0.403242 -0.604 75 87 135
0.211112 -0.403242 -0.604 179 178 192
0.222986 -0.40391 -0.605 189 192 209
0.226443 -0.40391 -0.605 187 192 212
0.232971 -0.403242 -0.604 117 122 152
0.241774 -0.402574 -0.603 117 141 189
0.255981 -0.403242 -0.604 199 208 239
0.27669 -0.403242 -0.604 206 209 218
0.296738 -0.40391 -0.605 130 142 164
0.30711 -0.40391 -0.605 105 136 190
0.326086 -0.404577 -0.606 122 142 179
0.331249 -0.405245 -0.607 204 205 225
0.33703 -0.405245 -0.607 194 195 200
0.34278 -0.40658 -0.609 196 200 212
0.34974 -0.40658 -0.609 195 198 213
0.367695 -0.405912 -0.608 169 184 217
0.4026 -0.407248 -0.61 190 194 206
0.416062 -0.407915 -0.611 187 186 200
0.419553 -0.407915 -0.611 138 137 153
0.438174 -0.407915 -0.611 92 126 171
0.447051 -0.408583 -0.612 126 147 192
0.461793 -0.40925 -0.613 142 145 160
0.467225 -0.409918 -0.614 176 180 192
0.469564 -0.409918 -0.614 171 177 193
0.489446 -0.409918 -0.614 77 90 109
0.523362 -0.409918 -0.614 86 88 109
0.530379 -0.409918 -0.614 180 183 192
0.530545 -0.39523 -0.592 146 117 111
0.52359 -0.389222 -0.583 149 120 114
0.479495 -0.337815 -0.506 172 129 110
0.4843 -0.334477 -0.501 174 131 112
0.49468 -0.332474 -0.498 165 122 103
0.497574 -0.333142 -0.499 166 123 104
0.0666543 -0.380959 -0.569 198 155 136
0.0968838 -0.364221 -0.544 197 150 124
0.110725 -0.368908 -0.551 157 104 90
0.12085 -0.374264 -0.559 145 92 78
0.133 -0.381629 -0.57 118 83 79
0.159429 -0.401714 -0.6 99 94 117
0.162253 -0.403053 -0.602 98 96 117
0.192705 -0.404392 -0.604 100 111 141
0.196156 -0.404392 -0.604 88 103 146
0.200758 -0.404392 -0.604 164 168 193
0.211911 -0.403723 -0.603 176 175 189
0.23067 -0.404392 -0.604 109 115 147
0.241774 -0.403723 -0.603 117 141 189
0.24522 -0.403723 -0.603 145 175 225
0.328394 -0.405731 -0.606 144 160 193
0.34858 -0.40774 -0.609 194 197 216
0.35786 -0.40774 -0.609 130 134 159
0.35843 -0.40707 -0.608 105 116 144
0.359589 -0.40707 -0.608 91 102 130
0.373486 -0.40707 -0.608 98 130 177
0.39614 -0.40774 -0.609 131 137 151
0.406086 -0.40841 -0.61 169 171 184
0.424209 -0.409079 -0.611 94 108 137
0.47814 -0.410418 -0.613 171 174 189
0.499614 -0.411757 -0.615 134 141 170
0.515504 -0.410418 -0.613 179 178 186
0.524845 -0.410418 -0.613 147 152 181
0.533314 -0.409749 -0.612 184 184 194
0.526284 -0.392341 -0.586 144 119 122
0.480583 -0.35083 -0.524 163 130 113
0.478393 -0.342127 -0.511 172 131 113
0.486169 -0.334092 -0.499 175 130 109
0.503333 -0.334762 -0.5 160 118 96
0.525057 -0.341457 -0.51 150 109 89
0.0703286 -0.367271 -0.547 203 158 137
0.07124 -0.3666 -0.546 205 160 139
0.0829533 -0.363243 -0.541 201 155 131
0.12471 -0.377343 -0.562 139 91 81
0.131683 -0.382043 -0.569 124 83 77
0.137452 -0.386071 -0.575 116 82 81
0.13903 -0.387414 -0.577 113 83 85
0.167987 -0.4042 -0.602 121 121 147
0.175157 -0.404871 -0.603 88 94 126
0.179751 -0.404871 -0.603 58 84 135
0.184346 -0.404871 -0.603 68 88 138
0.222249 -0.404871 -0.603 186 189 204
0.227991 -0.404871 -0.603 112 123 155
0.248666 -0.404871 -0.603 131 148 191
0.257854 -0.404871 -0.603 148 158 185
0.284271 -0.404871 -0.603 222 220 231
0.290014 -0.404871 -0.603 163 175 197
0.295757 -0.404871 -0.603 162 168 194
0.315806 -0.405543 -0.604 135 159 195
0.318633 -0.406214 -0.605 194 204 229
0.334166 -0.406886 -0.606 196 200 212
0.358997 -0.407557 -0.607 100 113 148
0.380434 -0.408229 -0.608 132 147 178
0.39382 -0.4089 -0.609 115 130 163
0.404924 -0.409571 -0.61 171 177 191
0.416543 -0.409571 -0.61 186 186 198
0.429324 -0.409571 -0.61 182 185 200
0.435847 -0.410243 -0.611 80 102 149
0.457543 -0.410914 -0.612 80 92 118
0.485146 -0.411586 -0.613 80 87 105
0.508498 -0.411586 -0.613 89 113 147
0.519326 -0.410914 -0.612 175 172 191
0.537977 -0.410914 -0.612 156 161 181
0.5229 -0.3901 -0.581 155 120 114
0.485791 -0.357871 -0.533 160 127 110
0.48233 -0.353843 -0.527 160 127 110
0.480583 -0.351829 -0.524 160 127 110
0.478895 -0.349143 -0.52 170 131 116
0.485218 -0.335043 -0.499 176 133 114
0.487119 -0.335043 -0.499 176 131 110
0.490847 -0.3337 -0.497 176 131 112
0.501376 -0.335043 -0.499 166 121 100
0.508157 -0.336386 -0.501 160 115 92
0.5301 -0.344443 -0.513 151 110 90
0.0660686 -0.37976 -0.564 200 155 134
0.0694133 -0.368987 -0.548 201 156 135
0.156881 -0.403327 -0.599 112 96 109
0.158286 -0.404 -0.6 90 91 112
0.17716 -0.405347 -0.602 68 83 122
0.195831 -0.40602 -0.603 62 75 109
0.19698 -0.40602 -0.603 62 78 114
0.229907 -0.405347 -0.602 145 155 182
0.237933 -0.405347 -0.602 154 161 179
0.300351 -0.40602 -0.603 173 179 195
0.303797 -0.40602 -0.603 104 128 172
0.32501 -0.406693 -0.604 125 141 174
0.337629 -0.40804 -0.606 162 160 173
0.360153 -0.408713 -0.607 167 178 200
0.370559 -0.408713 -0.607 97 121 159
0.40658 -0.41006 -0.609 133 135 158
0.42398 -0.41006 -0.609 169 175 191
0.455631 -0.411407 -0.611 137 144 160
0.460287 -0.411407 -0.611 130 136 160
0.4692 -0.41208 -0.612 168 170 191
0.480857 -0.41208 -0.612 170 175 197
0.487481 -0.412753 -0.613 89 96 115
0.532149 -0.41208 -0.612 156 161 180
0.53477 -0.411407 -0.611 149 154 174
0.478354 -0.344747 -0.512 173 132 114
0.485218 -0.335993 -0.499 176 134 112
0.486143 -0.33532 -0.498 175 130 109
0.490886 -0.33532 -0.498 179 134 115
0.490847 -0.334647 -0.497 176 131 112
0.51204 -0.338013 -0.502 158 116 94
0.517986 -0.340033 -0.505 156 115 93
0.0641829 -0.388937 -0.576 193 151 129
0.0798619 -0.365304 -0.541 201 156 133
0.0808924 -0.365304 -0.541 200 156 131
0.0891362 -0.365304 -0.541 201 154 128
0.108231 -0.370706 -0.549 159 104 84
0.12471 -0.379484 -0.562 140 93 85
0.137691 -0.388937 -0.576 112 83 87
0.161714 -0.405143 -0.6 49 53 82
0.172287 -0.405818 -0.601 107 107 135
0.182893 -0.406493 -0.602 77 94 138
0.18748 -0.406493 -0.602 132 139 168
0.192067 -0.406493 -0.602 160 167 186
0.206973 -0.406493 -0.602 176 177 195
0.21156 -0.406493 -0.602 108 106 119
0.231814 -0.405818 -0.601 197 204 222
0.240972 -0.405818 -0.601 122 145 179
0.24596 -0.406493 -0.602 147 166 206
0.247107 -0.406493 -0.602 131 150 190
0.274627 -0.406493 -0.602 194 194 204
0.331912 -0.407844 -0.604 185 190 210
0.335919 -0.408519 -0.605 193 192 210
0.337071 -0.408519 -0.605 193 192 210
0.384433 -0.40987 -0.607 188 191 210
0.41122 -0.41122 -0.609 175 176 197
0.42514 -0.41122 -0.609 166 170 182
0.435133 -0.411895 -0.61 95 119 167
0.471925 -0.41257 -0.611 120 130 155
0.494487 -0.413921 -0.613 170 172 184
0.496822 -0.413921 -0.613 166 167 185
0.533895 -0.411895 -0.61 153 160 188
0.482417 -0.355175 -0.526 162 125 109
0.479087 -0.349098 -0.517 173 132 114
0.48804 -0.336269 -0.498 176 131 110
0.488989 -0.336269 -0.498 175 130 109
0.490847 -0.335593 -0.497 175 130 111
0.505238 -0.337619 -0.5 164 119 96
0.0654829 -0.378523 -0.559 201 156 135
0.0660714 -0.375814 -0.555 204 159 138
0.0848571 -0.365657 -0.54 198 152 128
0.0999924 -0.368366 -0.544 180 131 101
0.124932 -0.381231 -0.563 139 92 86
0.127529 -0.382586 -0.565 134 90 87
0.13793 -0.390711 -0.577 110 83 88
0.159163 -0.405609 -0.599 47 49 70
0.162857 -0.406286 -0.6 92 96 125
0.171142 -0.406963 -0.601 120 121 151
0.175721 -0.406963 -0.601 66 75 108
0.198616 -0.406963 -0.601 66 75 106
0.213498 -0.406963 -0.601 170 169 185
0.223801 -0.406963 -0.601 149 152 169
0.243262 -0.406963 -0.601 151 173 210
0.269591 -0.406963 -0.601 205 207 222
0.273026 -0.406963 -0.601 201 199 213
0.275315 -0.406963 -0.601 180 179 195
0.314134 -0.408317 -0.603 109 138 182
0.362424 -0.409671 -0.605 179 182 189
0.363576 -0.409671 -0.605 135 138 147
0.378029 -0.410349 -0.606 96 128 169
0.429074 -0.411703 -0.608 163 172 181
0.43558 -0.41238 -0.609 108 135 180
0.44022 -0.41238 -0.609 117 141 187
0.459533 -0.413057 -0.61 120 125 145
0.487054 -0.413734 -0.611 150 154 166
0.495654 -0.415089 -0.613 169 172 181
0.498343 -0.414411 -0.612 93 118 159
0.512981 -0.413057 -0.61 158 166 177
0.528951 -0.413734 -0.611 103 123 160
0.532443 -0.413734 -0.611 142 158 194
0.490349 -0.364303 -0.538 161 124 106
0.485076 -0.358886 -0.53 162 123 108
0.478265 -0.348051 -0.514 171 129 113
0.47951 -0.341957 -0.505 171 130 110
0.48048 -0.34128 -0.504 173 130 111
0.505178 -0.337894 -0.499 168 123 100
0.515934 -0.340603 -0.503 158 116 94
0.51792 -0.34128 -0.504 158 115 96
0.52998 -0.34602 -0.511 153 112 92
0.0747095 -0.367365 -0.541 205 159 135
0.0847 -0.366007 -0.539 199 153 129
0.0858857 -0.366686 -0.54 198 152 128
0.10348 -0.37076 -0.546 171 120 93
0.111977 -0.374834 -0.552 158 104 94
0.154083 -0.405391 -0.597 106 95 112
0.182286 -0.407429 -0.6 78 99 142
0.183429 -0.407429 -0.6 74 95 138
0.185714 -0.407429 -0.6 103 118 161
0.197471 -0.408108 -0.601 104 111 140
0.234104 -0.408108 -0.601 202 205 224
0.240571 -0.407429 -0.6 146 162 195
0.242857 -0.407429 -0.6 166 184 220
0.254286 -0.407429 -0.6 215 217 232
0.261143 -0.407429 -0.6 182 188 210
0.329066 -0.409466 -0.603 128 140 178
0.356097 -0.411503 -0.606 183 198 227
0.368186 -0.410824 -0.605 102 129 159
0.386109 -0.411503 -0.606 189 196 204
0.390726 -0.411503 -0.606 169 177 200
0.393034 -0.411503 -0.606 123 137 174
0.399464 -0.412182 -0.607 134 157 191
0.473476 -0.414219 -0.61 147 162 201
0.4758 -0.414219 -0.61 118 134 170
0.489382 -0.414898 -0.611 160 164 173
0.496011 -0.415577 -0.612 164 166 181
0.503006 -0.415577 -0.612 117 142 183
0.51879 -0.414219 -0.61 165 176 194
0.49751 -0.371439 -0.547 160 122 111
0.480809 -0.353784 -0.521 166 124 108
0.49274 -0.337487 -0.497 171 125 102
0.498474 -0.338166 -0.498 166 121 98
0.531992 -0.347672 -0.512 157 116 94
0.541243 -0.352426 -0.519 150 109 89
0.0708486 -0.369757 -0.543 204 158 135
0.0826467 -0.367033 -0.539 205 159 135
0.0836733 -0.367033 -0.539 202 156 132
0.0910286 -0.367714 -0.54 195 149 125
0.105947 -0.373162 -0.548 166 114 90
0.109476 -0.374524 -0.55 161 104 87
0.110725 -0.375205 -0.551 160 103 86
0.113233 -0.376567 -0.553 155 102 88
0.131914 -0.388143 -0.57 125 84 82
0.188 -0.408571 -0.6 158 164 196
0.212788 -0.40789 -0.599 163 176 208
0.216571 -0.408571 -0.6 148 158 185
0.217714 -0.408571 -0.6 134 144 171
0.221143 -0.408571 -0.6 113 127 156
0.232571 -0.408571 -0.6 200 207 223
0.237143 -0.408571 -0.6 156 163 189
0.240571 -0.408571 -0.6 156 171 202
0.257714 -0.408571 -0.6 211 214 231
0.276 -0.408571 -0.6 166 176 201
0.279429 -0.408571 -0.6 191 202 224
0.284 -0.408571 -0.6 145 161 194
0.320493 -0.409933 -0.602 206 209 224
0.32164 -0.409933 -0.602 203 206 223
0.344568 -0.411295 -0.604 176 195 238
0.35551 -0.411976 -0.605 181 195 221
0.359524 -0.411295 -0.604 187 192 211
0.377405 -0.411976 -0.605 91 123 164
0.386624 -0.411976 -0.605 176 179 186
0.388929 -0.411976 -0.605 186 184 195
0.422588 -0.413338 -0.607 184 182 196
0.423744 -0.413338 -0.607 190 188 202
0.45994 -0.4147 -0.609 112 122 157
0.46226 -0.4147 -0.609 55 77 126
0.46806 -0.4147 -0.609 140 164 212
0.47502 -0.4147 -0.609 103 124 171
0.483933 -0.415381 -0.61 161 167 179
0.494037 -0.416062 -0.611 171 174 181
0.500674 -0.416743 -0.612 92 116 162
0.503006 -0.416743 -0.612 114 138 182
0.503348 -0.416062 -0.611 120 144 188
0.53302 -0.4147 -0.609 104 127 171
0.539093 -0.414019 -0.608 79 101 150
0.525113 -0.395633 -0.581 152 117 115
0.486086 -0.360905 -0.53 160 123 115
0.479195 -0.35069 -0.515 169 130 113
0.479477 -0.345243 -0.507 172 129 112
0.48048 -0.3432 -0.504 173 130 111
0.483354 -0.341838 -0.502 174 131 114
0.485238 -0.340476 -0.5 177 132 113
0.485218 -0.339795 -0.499 177 132 113
0.496577 -0.339114 -0.498 167 121 97
0.513883 -0.341157 -0.501 161 116 93
0.0626476 -0.390594 -0.572 195 152 133
0.06318 -0.38718 -0.567 194 151 132
0.0717505 -0.370109 -0.542 201 156 135
0.073679 -0.369426 -0.541 202 157 134
0.10348 -0.37284 -0.546 171 120 89
0.113233 -0.37762 -0.553 153 104 89
0.130599 -0.388546 -0.569 123 82 78
0.161445 -0.409031 -0.599 122 123 143
0.166009 -0.409031 -0.599 141 139 161
0.199429 -0.409714 -0.6 102 111 144
0.201714 -0.409714 -0.6 86 98 136
0.210506 -0.409031 -0.599 81 96 125
0.21621 -0.409031 -0.599 138 153 182
0.217351 -0.409031 -0.599 117 132 161
0.233325 -0.409031 -0.599 198 202 227
0.256144 -0.409031 -0.599 209 214 233
0.260708 -0.409031 -0.599 213 216 231
0.267553 -0.409031 -0.599 157 168 196
0.302286 -0.409714 -0.6 126 144 184
0.307369 -0.410397 -0.601 148 165 208
0.317053 -0.41108 -0.602 169 184 207
0.327974 -0.410397 -0.601 155 166 196
0.3354 -0.41108 -0.602 116 144 194
0.337693 -0.41108 -0.602 154 182 229
0.3417 -0.411763 -0.603 82 108 157
0.34917 -0.412446 -0.604 78 105 160
0.361825 -0.412446 -0.604 194 201 211
0.380232 -0.412446 -0.604 155 169 196
0.403423 -0.413811 -0.606 84 111 164
0.423744 -0.414494 -0.607 179 177 191
0.432993 -0.414494 -0.607 88 114 165
0.44918 -0.414494 -0.607 131 135 146
0.454552 -0.415177 -0.608 177 180 185
0.4727 -0.41586 -0.609 98 126 176
0.489743 -0.416543 -0.61 151 155 158
0.499856 -0.417226 -0.611 91 113 162
0.50102 -0.417226 -0.611 97 119 168
0.507171 -0.416543 -0.61 91 114 156
0.50866 -0.41586 -0.609 76 97 144
0.51709 -0.415177 -0.608 172 179 195
0.535619 -0.415177 -0.608 70 97 142
0.536777 -0.415177 -0.608 73 100 145
0.485218 -0.340746 -0.499 178 133 112
0.495629 -0.340063 -0.498 166 119 99
0.50132 -0.340063 -0.498 167 120 100
0.0756 -0.369771 -0.54 203 158 135
0.079419 -0.368402 -0.538 200 156 131
0.0824933 -0.368402 -0.538 199 153 127
0.0930857 -0.369771 -0.54 192 141 114
0.09756 -0.371141 -0.542 186 132 104
0.0987743 -0.371826 -0.543 185 131 103
0.113029 -0.377989 -0.552 155 103 89
0.117025 -0.380728 -0.556 152 98 86
0.152946 -0.408803 -0.597 44 49 81
0.156619 -0.409488 -0.598 91 90 122
0.16687 -0.409488 -0.598 138 137 153
0.186234 -0.409488 -0.598 122 130 166
0.193391 -0.410172 -0.599 166 169 184
0.194532 -0.410172 -0.599 165 168 183
0.195673 -0.410172 -0.599 174 166 187
0.22762 -0.410172 -0.599 202 201 217
0.228761 -0.410172 -0.599 202 203 224
0.247743 -0.409488 -0.598 136 157 188
0.261849 -0.410172 -0.599 201 207 221
0.26413 -0.410172 -0.599 174 186 208
0.284668 -0.410172 -0.599 111 134 175
0.310803 -0.411542 -0.601 143 171 211
0.316527 -0.411542 -0.601 158 174 197
0.323395 -0.411542 -0.601 202 207 226
0.333698 -0.411542 -0.601 86 118 175
0.34974 -0.412911 -0.603 67 96 154
0.362374 -0.412911 -0.603 190 195 215
0.364671 -0.412911 -0.603 137 154 184
0.371563 -0.412911 -0.603 125 148 189
0.37448 -0.413596 -0.604 117 144 189
0.380232 -0.413596 -0.604 138 155 183
0.418429 -0.414966 -0.606 175 185 197
0.419583 -0.414966 -0.606 188 187 195
0.429971 -0.414966 -0.606 92 111 141
0.436897 -0.414966 -0.606 84 111 156
0.475398 -0.416335 -0.608 41 70 128
0.48894 -0.41702 -0.609 174 175 177
0.493229 -0.417705 -0.61 147 148 153
0.521722 -0.416335 -0.608 169 179 189
0.490847 -0.340327 -0.497 170 124 101
0.633098 -0.406064 -0.593 204 202 203
0.0678705 -0.373547 -0.544 198 156 132
0.0705876 -0.371487 -0.541 202 157 134
0.10348 -0.37492 -0.546 175 121 95
0.115757 -0.3811 -0.555 151 99 85
0.19079 -0.410627 -0.598 168 167 181
0.195347 -0.410627 -0.598 166 162 185
0.204459 -0.410627 -0.598 100 121 166
0.213571 -0.410627 -0.598 111 134 188
0.232935 -0.410627 -0.598 199 209 221
0.243187 -0.410627 -0.598 162 178 211
0.27554 -0.411313 -0.599 120 138 188
0.314857 -0.412 -0.6 125 150 190
0.333143 -0.412 -0.6 52 88 146
0.338277 -0.412687 -0.601 100 135 189
0.354893 -0.413373 -0.602 201 198 217
0.371563 -0.41406 -0.603 106 133 180
0.37386 -0.41406 -0.603 104 133 173
0.378454 -0.41406 -0.603 81 113 160
0.383049 -0.41406 -0.603 146 154 165
0.391737 -0.414747 -0.604 173 184 204
0.401605 -0.415433 -0.605 59 92 145
0.40391 -0.415433 -0.605 58 89 153
0.417738 -0.415433 -0.605 179 189 199
0.42811 -0.415433 -0.605 89 114 145
0.443399 -0.416807 -0.607 90 116 167
0.499038 -0.418867 -0.61 94 116 163
0.50866 -0.41818 -0.609 85 112 159
