ply
format ascii 1.0
comment Created by Open3D
element vertex 1304
property double x
property double y
property double z
property uchar red
property uchar green
property uchar blue
end_header
0.432143 -0.258238 -0.55 123 78 73
0.437631 -0.257769 -0.549 128 83 77
0.452894 -0.254012 -0.541 140 92 78
0.4572 -0.253543 -0.54 148 99 85
0.463371 -0.253543 -0.54 152 103 88
0.507941 -0.263872 -0.562 149 100 86
-0.10501 -0.280971 -0.596 74 75 80
-0.0984505 -0.291814 -0.619 66 65 73
-0.0975857 -0.292757 -0.621 63 62 70
-0.0918 -0.297 -0.63 58 57 65
-0.0860724 -0.297943 -0.632 60 59 67
-0.07242 -0.301243 -0.639 73 72 78
0.0763629 -0.213557 -0.453 199 163 151
0.0831152 -0.208843 -0.443 209 170 155
0.0903 -0.2079 -0.441 207 169 150
0.0945 -0.2079 -0.441 201 159 143
0.10374 -0.2079 -0.441 183 138 117
0.113411 -0.210257 -0.446 159 111 97
0.129549 -0.215914 -0.458 118 87 84
0.339852 -0.252214 -0.535 134 108 119
0.36261 -0.259757 -0.551 49 39 48
0.383637 -0.270129 -0.573 45 35 46
0.399764 -0.267771 -0.568 132 90 92
0.432143 -0.259286 -0.55 124 79 73
0.437631 -0.258814 -0.549 130 86 77
0.442289 -0.257871 -0.547 131 85 72
0.451864 -0.255043 -0.541 142 95 79
0.481881 -0.257871 -0.547 148 99 85
-0.1092 -0.27832 -0.588 92 93 98
-0.103601 -0.284473 -0.601 82 81 89
-0.10067 -0.289207 -0.611 76 75 83
-0.0977429 -0.294413 -0.622 66 65 73
-0.0736371 -0.30246 -0.639 72 71 77
0.0751314 -0.21584 -0.456 203 166 158
0.0903 -0.20874 -0.441 206 168 149
0.10952 -0.21016 -0.444 171 124 108
0.1261 -0.215367 -0.455 124 89 85
0.129549 -0.216787 -0.458 117 86 84
0.405896 -0.266487 -0.563 132 90 91
0.410528 -0.266013 -0.562 134 90 89
0.411934 -0.26554 -0.561 131 89 90
0.4144 -0.265067 -0.56 133 89 86
0.42036 -0.26412 -0.558 129 85 82
0.440769 -0.25986 -0.549 131 85 72
0.497545 -0.262227 -0.554 147 99 85
0.5004 -0.263173 -0.556 147 99 85
-0.134111 -0.305578 -0.643 104 105 110
-0.123337 -0.288945 -0.608 101 102 107
-0.120973 -0.286093 -0.602 99 100 105
-0.107506 -0.280866 -0.591 69 68 76
-0.104397 -0.284668 -0.599 88 88 96
-0.07826 -0.302727 -0.637 69 68 74
-0.0771676 -0.303202 -0.638 70 69 75
-0.0725333 -0.304152 -0.64 71 70 76
-0.0714257 -0.304628 -0.641 72 71 77
-0.0608143 -0.306529 -0.645 72 73 78
0.074199 -0.219085 -0.461 201 163 154
0.0753333 -0.214808 -0.452 204 166 157
0.07992 -0.211006 -0.444 209 171 158
0.0807657 -0.211006 -0.444 206 168 155
0.0854533 -0.210055 -0.442 211 172 157
0.104817 -0.210055 -0.442 178 133 114
0.11648 -0.212907 -0.448 157 109 95
0.147657 -0.228114 -0.48 163 162 194
0.151666 -0.231441 -0.487 153 161 208
0.373725 -0.267559 -0.563 48 38 47
0.42036 -0.265183 -0.558 132 87 82
0.426073 -0.262807 -0.553 134 89 84
0.429509 -0.262331 -0.552 132 87 82
0.448363 -0.258054 -0.543 142 93 78
0.454114 -0.256629 -0.54 154 103 86
0.45738 -0.256153 -0.539 154 102 88
0.46046 -0.256153 -0.539 153 102 85
0.4644 -0.256629 -0.54 153 102 83
0.470412 -0.257104 -0.541 152 99 83
0.51099 -0.267559 -0.563 148 100 88
-0.0962933 -0.299646 -0.628 63 63 71
-0.0920914 -0.301554 -0.632 58 59 64
-0.0898257 -0.302031 -0.633 55 56 61
-0.08056 -0.303463 -0.636 64 63 71
-0.0725333 -0.305371 -0.64 71 70 78
-0.0631733 -0.30728 -0.644 72 73 78
0.0790743 -0.211851 -0.444 207 169 158
0.402679 -0.268631 -0.563 140 104 104
0.413983 -0.266246 -0.558 137 94 88
0.427406 -0.263383 -0.552 135 88 82
0.428457 -0.263383 -0.552 135 88 82
0.438429 -0.262429 -0.55 132 85 75
0.445862 -0.260043 -0.545 142 93 79
0.44608 -0.259566 -0.544 144 95 81
0.468351 -0.258134 -0.541 152 100 79
-0.1148 -0.28168 -0.588 97 100 105
-0.10656 -0.283596 -0.592 63 64 69
-0.0644 -0.308507 -0.644 72 71 77
-0.0620429 -0.308986 -0.645 73 72 78
-0.05616 -0.310423 -0.648 72 71 77
0.0767095 -0.213176 -0.445 206 168 157
0.0812438 -0.211739 -0.442 207 169 156
0.08862 -0.21126 -0.441 212 170 154
0.10374 -0.21126 -0.441 170 127 110
0.392229 -0.275931 -0.576 26 14 18
0.401246 -0.270183 -0.564 135 101 100
0.442053 -0.262518 -0.548 137 89 77
0.455143 -0.258686 -0.54 153 102 85
0.473347 -0.259644 -0.542 153 100 82
-0.12037 -0.28809 -0.599 94 98 101
-0.0994686 -0.297229 -0.618 78 79 84
-0.0923829 -0.304924 -0.634 58 59 64
-0.0876905 -0.305405 -0.635 53 53 61
-0.05616 -0.311657 -0.648 71 70 76
0.0746667 -0.215467 -0.448 199 165 156
0.0780524 -0.213062 -0.443 205 169 155
0.0804019 -0.212581 -0.442 209 172 156
0.109767 -0.214024 -0.445 162 114 102
0.11392 -0.215467 -0.448 158 108 99
0.355417 -0.263562 -0.548 67 50 58
0.366154 -0.268371 -0.558 50 39 47
0.386315 -0.27751 -0.577 51 39 49
0.386743 -0.277029 -0.576 52 40 50
0.390034 -0.277029 -0.576 44 24 33
0.393053 -0.276067 -0.574 102 81 80
0.394657 -0.274143 -0.57 137 102 106
0.399434 -0.272219 -0.566 139 100 101
0.413983 -0.268371 -0.558 139 95 92
0.4968 -0.265486 -0.552 152 100 86
-0.109945 -0.282954 -0.586 87 88 93
-0.0923829 -0.306131 -0.634 59 60 65
-0.0667495 -0.310477 -0.643 72 71 79
-0.0609086 -0.311926 -0.646 71 70 78
0.0721286 -0.221631 -0.459 201 167 158
0.0727505 -0.218251 -0.452 203 166 157
0.0758619 -0.214871 -0.445 206 170 158
0.0804019 -0.213423 -0.442 209 173 159
0.0820857 -0.213423 -0.442 208 170 157
0.0917714 -0.212457 -0.44 198 159 142
0.0976381 -0.212457 -0.44 182 144 125
0.118978 -0.217769 -0.451 141 95 82
0.135051 -0.225977 -0.468 105 80 84
0.155714 -0.241429 -0.5 164 184 219
0.371166 -0.272331 -0.564 49 38 46
0.378371 -0.275229 -0.57 51 41 49
0.391548 -0.277643 -0.575 107 83 79
0.393863 -0.276194 -0.572 132 98 99
0.400881 -0.272814 -0.565 140 98 100
0.409067 -0.2704 -0.56 133 92 90
0.41292 -0.269434 -0.558 139 95 92
0.458407 -0.26026 -0.539 157 104 88
0.473504 -0.261226 -0.541 156 104 90
0.48516 -0.26364 -0.546 148 96 82
0.497851 -0.266537 -0.552 148 96 82
1.14233 -0.312891 -0.648 202 204 191
-0.134915 -0.310732 -0.641 95 98 105
-0.107324 -0.28601 -0.59 64 64 72
-0.102968 -0.292796 -0.604 92 92 100
-0.101667 -0.295705 -0.61 89 89 97
-0.0974895 -0.30443 -0.628 74 75 80
-0.0668533 -0.312187 -0.644 71 70 78
0.0778762 -0.214265 -0.442 208 171 162
0.0951238 -0.213295 -0.44 193 155 136
0.103133 -0.214265 -0.442 170 123 107
0.111963 -0.216689 -0.447 153 107 94
0.116143 -0.218143 -0.45 146 103 87
0.391131 -0.279223 -0.576 128 96 97
0.394262 -0.276799 -0.571 141 105 105
0.420971 -0.269528 -0.556 137 92 86
0.423386 -0.269043 -0.555 141 94 88
0.424443 -0.269043 -0.555 140 92 88
0.425789 -0.268558 -0.554 138 91 83
0.434494 -0.266134 -0.549 140 92 80
0.438922 -0.26565 -0.548 145 96 82
0.465593 -0.261287 -0.539 150 98 84
0.46662 -0.261287 -0.539 150 98 84
0.49695 -0.267104 -0.551 149 97 83
-0.08904 -0.30952 -0.636 52 53 58
-0.0738676 -0.311953 -0.641 68 67 75
-0.0610029 -0.314873 -0.647 72 71 79
0.0711857 -0.22046 -0.453 202 165 157
0.0761924 -0.215107 -0.442 209 171 160
0.08274 -0.21462 -0.441 208 171 155
0.09658 -0.213647 -0.439 179 138 118
0.107829 -0.21608 -0.444 156 110 95
0.114174 -0.218513 -0.449 146 102 91
0.119242 -0.219973 -0.452 136 93 84
0.134447 -0.228247 -0.469 99 74 77
0.375772 -0.277887 -0.571 46 37 42
0.393053 -0.279347 -0.574 149 110 111
0.403751 -0.273993 -0.563 145 101 102
0.406591 -0.27302 -0.561 144 98 98
0.43554 -0.26718 -0.549 144 94 83
0.447938 -0.265233 -0.545 152 99 85
0.455143 -0.2628 -0.54 160 107 93
0.45738 -0.262313 -0.539 157 104 90
0.464567 -0.262313 -0.539 153 100 86
0.480426 -0.26426 -0.543 153 100 86
0.483383 -0.264747 -0.544 149 96 82
-0.115526 -0.286303 -0.586 94 97 102
-0.107142 -0.287769 -0.589 63 63 71
-0.1062 -0.288257 -0.59 75 75 83
-0.07276 -0.313663 -0.642 67 66 74
-0.0622352 -0.316106 -0.647 72 71 79
-0.0598629 -0.316594 -0.648 72 71 79
0.0738333 -0.216437 -0.443 204 168 156
0.0819 -0.21546 -0.441 208 170 157
0.0850667 -0.214971 -0.44 199 162 146
0.0917714 -0.214971 -0.44 190 151 134
0.0940714 -0.214483 -0.439 186 147 130
0.10206 -0.21546 -0.441 169 122 106
0.10421 -0.216437 -0.443 166 119 103
0.121767 -0.2223 -0.455 120 86 84
0.12546 -0.224254 -0.459 108 82 85
0.133553 -0.22914 -0.469 102 80 82
0.13502 -0.230117 -0.471 101 79 81
0.144278 -0.236469 -0.484 253 252 255
0.391638 -0.283371 -0.58 146 106 107
0.406246 -0.274577 -0.562 144 98 98
0.414302 -0.272134 -0.557 140 92 88
0.426354 -0.269691 -0.552 142 93 86
0.427406 -0.269691 -0.552 141 92 85
0.436834 -0.267737 -0.548 151 101 90
0.445862 -0.266271 -0.545 149 97 83
0.476595 -0.264317 -0.541 154 101 87
0.479541 -0.264806 -0.542 154 101 87
0.482494 -0.265294 -0.543 151 98 84
0.510703 -0.272623 -0.558 156 107 92
-0.121309 -0.293305 -0.598 94 97 104
-0.11252 -0.285457 -0.582 97 97 105
-0.0867533 -0.312433 -0.637 49 50 55
-0.0761905 -0.313905 -0.64 59 58 66
-0.069199 -0.315376 -0.643 71 70 78
0.0692295 -0.22709 -0.463 199 166 159
0.0731543 -0.217771 -0.444 208 171 162
0.0745086 -0.21679 -0.442 207 169 156
0.088419 -0.21581 -0.44 200 161 146
0.0940714 -0.215319 -0.439 181 142 125
0.0949076 -0.215319 -0.439 181 140 122
0.0957438 -0.215319 -0.439 181 140 122
0.132377 -0.229543 -0.468 103 78 81
0.136494 -0.231995 -0.473 97 78 80
0.37731 -0.282024 -0.575 54 31 39
0.38082 -0.283005 -0.577 75 52 60
0.387446 -0.285457 -0.582 133 101 102
0.391002 -0.286438 -0.584 139 101 100
0.403394 -0.276629 -0.564 145 101 100
0.433449 -0.269271 -0.549 146 96 85
0.450431 -0.266329 -0.543 153 101 87
0.480573 -0.265838 -0.542 155 102 88
0.511766 -0.273686 -0.558 156 107 92
-0.10957 -0.28755 -0.584 87 87 95
-0.09282 -0.313647 -0.637 65 66 71
-0.0681857 -0.317586 -0.645 70 69 77
-0.0575714 -0.320048 -0.65 71 70 76
0.0850667 -0.216648 -0.44 198 159 144
0.0867429 -0.216648 -0.44 199 160 145
0.122302 -0.225018 -0.457 113 85 82
0.466779 -0.264901 -0.538 162 109 95
0.476743 -0.265886 -0.54 157 104 90
0.487528 -0.267855 -0.544 151 98 82
0.495288 -0.269825 -0.548 152 99 83
0.503109 -0.271794 -0.552 149 100 85
-0.0832438 -0.315354 -0.638 49 48 56
-0.0750886 -0.316837 -0.641 57 56 64
-0.0705333 -0.31832 -0.644 68 67 75
-0.067061 -0.319309 -0.646 68 68 78
0.0758476 -0.217486 -0.44 211 174 165
0.0865457 -0.216991 -0.439 195 156 141
0.0890543 -0.216991 -0.439 194 152 138
0.0913543 -0.216497 -0.438 189 147 131
0.120033 -0.2249 -0.455 117 88 80
0.130315 -0.230831 -0.467 101 75 84
0.151858 -0.248626 -0.503 213 219 241
0.223132 -0.320791 -0.649 191 203 227
0.224714 -0.321286 -0.65 202 214 238
0.402635 -0.281249 -0.569 142 98 97
0.405186 -0.279271 -0.565 146 101 98
0.44171 -0.269386 -0.545 150 98 85
0.46473 -0.265926 -0.538 156 103 89
0.466779 -0.265926 -0.538 163 110 96
-0.116642 -0.290768 -0.586 100 101 105
-0.113433 -0.288287 -0.581 101 104 109
-0.110303 -0.288783 -0.582 97 100 107
-0.10032 -0.305653 -0.616 93 91 102
-0.0786286 -0.317562 -0.64 52 51 59
0.0719829 -0.219316 -0.442 208 174 165
0.0808762 -0.218324 -0.44 203 165 154
0.111609 -0.22279 -0.449 143 99 90
0.39435 -0.292256 -0.589 137 97 97
0.396477 -0.287294 -0.579 141 97 94
0.397714 -0.285806 -0.576 144 99 96
0.39852 -0.284813 -0.574 143 98 95
0.399613 -0.284813 -0.574 143 98 95
0.403719 -0.282332 -0.569 142 97 94
0.406262 -0.280348 -0.565 145 100 97
0.410133 -0.277867 -0.56 140 93 87
0.411857 -0.276874 -0.558 142 95 89
0.419157 -0.275386 -0.555 147 98 91
0.421568 -0.27489 -0.554 142 93 86
0.431095 -0.272905 -0.55 149 99 90
0.453925 -0.268439 -0.541 161 108 94
0.4572 -0.267943 -0.54 155 102 88
0.498419 -0.271912 -0.548 156 107 92
0.501286 -0.272905 -0.55 154 105 90
-0.100483 -0.307325 -0.617 95 93 104
-0.0822857 -0.318781 -0.64 46 45 53
0.07182 -0.21966 -0.441 208 174 165
0.074839 -0.218664 -0.439 205 168 159
0.0817143 -0.219162 -0.44 203 165 152
0.108557 -0.222649 -0.447 149 101 91
0.110753 -0.223645 -0.449 146 99 91
0.112714 -0.224143 -0.45 140 97 91
0.122837 -0.228626 -0.459 111 79 82
0.223132 -0.323264 -0.649 171 180 211
0.436037 -0.272458 -0.547 158 104 92
0.444824 -0.271462 -0.545 153 100 86
0.459433 -0.268473 -0.539 158 107 90
0.480857 -0.268971 -0.54 149 98 81
0.487666 -0.270466 -0.543 157 106 89
-0.139071 -0.3245 -0.649 96 97 102
-0.134494 -0.3195 -0.639 93 96 103
-0.112327 -0.2905 -0.581 106 106 114
0.109653 -0.224 -0.448 145 97 87
0.117175 -0.227 -0.454 125 88 82
0.136116 -0.239 -0.478 154 134 143
0.219086 -0.324 -0.648 250 251 255
0.394038 -0.302 -0.604 119 79 87
0.401297 -0.289 -0.578 137 92 89
0.46046 -0.2695 -0.539 160 109 92
0.46268 -0.269 -0.538 159 108 91
0.463705 -0.269 -0.538 162 110 96
0.464889 -0.2685 -0.537 161 108 94
0.466934 -0.2685 -0.537 162 109 95
0.474977 -0.269 -0.538 153 100 84
0.516942 -0.2795 -0.559 156 106 95
1.14019 -0.322 -0.644 203 207 193
-0.141762 -0.326238 -0.65 100 101 103
-0.10602 -0.295622 -0.589 95 94 102
-0.0972133 -0.318208 -0.634 83 84 86
-0.0896 -0.321219 -0.64 51 52 57
-0.0648 -0.325234 -0.648 67 66 72
0.0798562 -0.220336 -0.439 201 163 152
0.100608 -0.221842 -0.442 155 111 100
0.22066 -0.325736 -0.649 203 208 227
0.402763 -0.311683 -0.621 121 80 86
0.405466 -0.287591 -0.573 136 91 86
0.408766 -0.283074 -0.564 142 97 91
0.413333 -0.281067 -0.56 135 88 78
0.418234 -0.280063 -0.558 142 94 84
0.418546 -0.279561 -0.557 143 95 85
0.425789 -0.278055 -0.554 144 96 86
0.4469 -0.273538 -0.545 148 97 80
0.447116 -0.273036 -0.544 148 97 80
0.464889 -0.269523 -0.537 162 109 95
0.4878 -0.272032 -0.542 156 103 89
0.502466 -0.275546 -0.549 155 104 87
-0.0982657 -0.318911 -0.633 87 88 92
-0.0836352 -0.322942 -0.641 47 46 54
-0.0787514 -0.322942 -0.641 47 46 54
-0.0636638 -0.326972 -0.649 66 65 73
0.0949076 -0.221172 -0.439 162 118 105
0.115191 -0.228226 -0.453 118 87 84
0.122494 -0.232256 -0.461 105 80 84
0.219086 -0.326469 -0.648 233 231 242
0.401589 -0.308331 -0.612 119 79 87
0.40194 -0.30682 -0.609 119 79 87
0.402091 -0.304301 -0.604 128 87 85
0.402574 -0.303797 -0.603 134 93 91
0.403053 -0.303293 -0.602 136 93 87
0.407267 -0.289187 -0.574 135 90 84
0.410914 -0.284149 -0.564 141 94 86
0.413003 -0.282637 -0.561 137 90 82
0.417171 -0.281126 -0.558 140 93 83
0.426073 -0.278607 -0.553 142 94 82
0.433703 -0.276088 -0.548 150 102 88
0.455143 -0.272057 -0.54 153 100 86
0.46182 -0.270546 -0.537 165 112 96
0.470149 -0.270042 -0.536 160 107 91
0.479076 -0.27105 -0.538 156 105 86
-0.136136 -0.324163 -0.641 92 92 100
-0.1207 -0.3009 -0.595 108 109 114
-0.116841 -0.296854 -0.587 109 110 114
-0.0921819 -0.324163 -0.641 66 67 69
-0.0860771 -0.324163 -0.641 55 54 62
0.0644267 -0.22656 -0.448 200 167 162
0.0683048 -0.222514 -0.44 206 171 165
0.0921886 -0.221503 -0.438 169 127 111
0.103833 -0.225043 -0.445 146 100 87
0.113215 -0.228583 -0.452 127 92 88
0.215949 -0.326691 -0.646 226 229 238
0.41045 -0.319106 -0.631 122 81 89
0.405588 -0.308991 -0.611 119 80 85
0.406291 -0.294326 -0.582 130 85 80
0.418234 -0.282189 -0.558 138 91 81
0.431879 -0.278649 -0.551 149 101 87
0.44171 -0.275614 -0.545 146 97 83
0.442748 -0.275614 -0.545 148 99 85
0.455327 -0.27258 -0.539 158 105 89
0.459433 -0.27258 -0.539 156 103 87
0.46046 -0.27258 -0.539 154 101 85
0.464889 -0.271569 -0.537 165 112 94
0.475253 -0.271063 -0.536 158 107 88
-0.139659 -0.327922 -0.646 97 97 107
-0.108643 -0.296957 -0.585 83 83 93
-0.10638 -0.300003 -0.591 129 125 152
-0.0935486 -0.325891 -0.642 77 78 82
-0.0799724 -0.325384 -0.641 47 46 54
0.0642829 -0.226906 -0.447 201 166 162
0.110143 -0.228429 -0.45 132 89 83
0.111247 -0.228936 -0.451 129 90 85
0.113215 -0.229444 -0.452 125 92 87
0.11934 -0.232997 -0.459 108 84 80
0.134501 -0.244672 -0.482 172 158 173
0.215949 -0.327922 -0.646 185 191 207
0.409993 -0.316247 -0.623 116 81 79
0.42036 -0.283251 -0.558 139 90 83
0.424149 -0.282236 -0.556 141 93 83
0.434494 -0.278683 -0.549 146 98 84
0.43579 -0.278175 -0.548 145 97 83
0.4469 -0.276652 -0.545 144 95 80
0.476274 -0.272084 -0.536 160 109 88
-0.388143 -0.33119 -0.65 248 249 241
-0.316333 -0.33119 -0.65 252 252 250
-0.103167 -0.315395 -0.619 142 141 147
-0.101786 -0.318452 -0.625 107 107 107
-0.0924695 -0.327624 -0.643 67 67 75
-0.0911029 -0.327114 -0.642 58 58 68
0.06286 -0.228776 -0.449 198 160 157
0.0721657 -0.223171 -0.438 208 171 163
0.0805086 -0.223171 -0.438 195 155 145
0.0855143 -0.223171 -0.438 183 139 126
0.101909 -0.226229 -0.444 143 99 90
0.204046 -0.322019 -0.632 248 250 255
0.414411 -0.311829 -0.612 122 83 78
0.412687 -0.306224 -0.601 122 83 78
0.414528 -0.28839 -0.566 132 85 79
0.419733 -0.285333 -0.56 139 90 83
0.43554 -0.279729 -0.549 141 93 81
0.44252 -0.2782 -0.546 138 91 75
0.463866 -0.273614 -0.537 164 112 91
0.468107 -0.273105 -0.536 162 110 89
-0.318319 -0.331917 -0.649 251 252 247
-0.131191 -0.321689 -0.629 96 96 106
-0.118964 -0.302766 -0.592 107 105 116
0.0614219 -0.230654 -0.451 198 169 163
0.0704971 -0.224006 -0.438 205 168 160
0.0896857 -0.224006 -0.438 172 130 116
0.0942857 -0.225029 -0.44 158 114 101
0.0959619 -0.225029 -0.44 155 111 100
0.0980819 -0.226051 -0.442 140 96 87
0.419306 -0.326803 -0.639 111 85 88
0.41976 -0.325269 -0.636 108 82 85
0.4182 -0.3222 -0.63 105 79 82
0.417403 -0.320666 -0.627 112 80 83
0.416357 -0.308391 -0.603 120 81 76
0.415626 -0.305323 -0.597 122 83 76
0.414362 -0.298674 -0.584 132 89 83
0.413839 -0.292026 -0.571 131 84 78
0.416684 -0.289469 -0.566 130 86 77
0.44356 -0.27924 -0.546 141 94 78
0.44876 -0.27924 -0.546 145 96 82
0.463002 -0.274126 -0.536 168 113 93
0.477424 -0.273614 -0.535 156 104 83
0.48625 -0.275149 -0.538 158 106 85
0.513742 -0.281797 -0.551 168 113 92
0.523457 -0.285377 -0.558 175 127 113
0.62008 -0.32936 -0.644 213 211 212
-0.387546 -0.333153 -0.649 248 249 241
-0.382601 -0.333153 -0.649 249 250 242
-0.378892 -0.333153 -0.649 247 248 240
0.0645514 -0.227407 -0.443 204 170 161
0.0744981 -0.224327 -0.437 200 162 153
0.0753305 -0.224327 -0.437 202 163 156
0.419803 -0.30954 -0.603 119 82 76
0.442289 -0.280793 -0.547 138 92 77
0.445414 -0.280793 -0.547 141 93 79
0.465044 -0.275147 -0.536 164 112 91
0.500998 -0.279253 -0.544 161 105 88
0.520643 -0.2849 -0.555 175 128 110
-0.137357 -0.330268 -0.641 91 91 99
-0.0742133 -0.331813 -0.644 49 48 54
0.0778276 -0.225159 -0.437 196 158 149
0.0855143 -0.225674 -0.438 182 142 132
0.204447 -0.328207 -0.637 240 242 255
0.42642 -0.319963 -0.621 116 77 78
0.419845 -0.302445 -0.587 124 83 77
0.427963 -0.289049 -0.561 140 93 83
0.438176 -0.283896 -0.551 143 95 83
0.444141 -0.28235 -0.548 136 88 74
0.446456 -0.281835 -0.547 143 95 81
0.475514 -0.275137 -0.534 159 104 83
0.486369 -0.276683 -0.537 164 108 91
0.4932 -0.278229 -0.54 161 106 86
-0.137143 -0.330971 -0.64 90 90 98
-0.115723 -0.303563 -0.587 90 88 99
-0.107506 -0.305631 -0.591 67 67 79
-0.103667 -0.321663 -0.622 197 197 199
-0.0775305 -0.331489 -0.641 35 34 40
-0.0753229 -0.332523 -0.643 41 40 46
0.0688286 -0.226509 -0.438 204 165 158
0.0753305 -0.225991 -0.437 200 162 153
0.100217 -0.229611 -0.444 144 100 91
0.119756 -0.239954 -0.464 102 77 81
0.12399 -0.243057 -0.47 90 70 72
0.127119 -0.245643 -0.475 101 77 77
0.205089 -0.330454 -0.639 238 240 255
0.428162 -0.315457 -0.61 121 82 77
0.422397 -0.304597 -0.589 119 80 73
0.42423 -0.292703 -0.566 133 89 80
0.447043 -0.283911 -0.549 142 94 80
0.45209 -0.281843 -0.545 144 95 80
0.46268 -0.278223 -0.538 160 105 84
0.463866 -0.277706 -0.537 167 112 92
0.490349 -0.278223 -0.538 161 106 86
0.524758 -0.287531 -0.556 175 130 111
-0.128547 -0.322848 -0.622 85 83 94
-0.114605 -0.304681 -0.587 84 84 94
0.0614524 -0.230976 -0.445 208 169 162
0.065641 -0.227862 -0.439 205 166 159
0.072001 -0.226824 -0.437 201 162 155
0.0828219 -0.226824 -0.437 185 142 133
0.0963981 -0.229419 -0.442 144 101 92
0.107571 -0.233571 -0.45 132 93 88
0.434 -0.32181 -0.62 114 78 78
0.423261 -0.303124 -0.584 119 79 79
0.434374 -0.291186 -0.561 140 93 85
0.436303 -0.289629 -0.558 142 94 84
0.469411 -0.277171 -0.534 172 117 96
0.470429 -0.277171 -0.534 172 117 96
0.478566 -0.277171 -0.534 163 108 88
0.484557 -0.27769 -0.535 163 108 88
0.489437 -0.278729 -0.537 161 106 86
0.50318 -0.281843 -0.543 165 114 97
-0.388215 -0.336535 -0.646 245 246 238
-0.133442 -0.330284 -0.634 82 80 93
-0.0775305 -0.33393 -0.641 42 41 47
0.0606048 -0.231824 -0.445 210 170 162
0.0649524 -0.229219 -0.44 204 167 161
0.0751581 -0.227135 -0.436 200 162 153
0.0934476 -0.229219 -0.44 147 104 97
0.117734 -0.241201 -0.463 103 78 82
0.119129 -0.242243 -0.465 102 77 81
0.12053 -0.243285 -0.467 99 77 80
0.437067 -0.320907 -0.616 119 88 86
0.436106 -0.319344 -0.613 112 81 79
0.427294 -0.298506 -0.573 124 81 75
0.431777 -0.294859 -0.566 138 89 84
0.437867 -0.291733 -0.56 140 91 84
0.439491 -0.290691 -0.558 138 88 79
0.45396 -0.28444 -0.546 141 89 75
0.460286 -0.281314 -0.54 155 102 86
0.486484 -0.27923 -0.536 164 109 89
0.495367 -0.280793 -0.539 156 101 81
0.510224 -0.283919 -0.545 173 124 107
1.13635 -0.330805 -0.635 202 204 190
-0.388843 -0.337243 -0.645 246 247 239
-0.11519 -0.308486 -0.59 78 79 84
-0.106857 -0.313714 -0.6 87 85 98
-0.105152 -0.318943 -0.61 225 222 229
-0.088381 -0.334629 -0.64 38 42 45
0.0584533 -0.23424 -0.448 205 168 160
0.0604686 -0.232149 -0.444 207 170 161
0.067839 -0.228489 -0.437 202 165 157
0.0828219 -0.228489 -0.437 184 141 132
0.08468 -0.229011 -0.438 174 131 122
0.09746 -0.231626 -0.443 144 99 94
0.12246 -0.246266 -0.471 97 75 78
0.125573 -0.24888 -0.476 97 79 79
0.202337 -0.333583 -0.638 177 188 234
0.207274 -0.335674 -0.642 151 162 208
0.430586 -0.309009 -0.591 119 78 76
0.428833 -0.30378 -0.581 120 81 76
0.432982 -0.297506 -0.569 132 85 79
0.436697 -0.294891 -0.564 134 87 81
0.44398 -0.28914 -0.553 137 87 78
0.454791 -0.286003 -0.547 142 90 76
0.457281 -0.284957 -0.545 151 100 81
0.461487 -0.28182 -0.539 159 107 86
0.462513 -0.28182 -0.539 160 108 86
0.46268 -0.281297 -0.538 161 109 87
0.49046 -0.280774 -0.537 160 105 85
0.493423 -0.281297 -0.538 159 104 84
0.501327 -0.282866 -0.541 163 112 95
0.510324 -0.284434 -0.544 178 129 112
1.13577 -0.331491 -0.634 201 203 189
-0.112943 -0.30961 -0.59 76 76 86
-0.0946238 -0.336372 -0.641 52 54 53
-0.0896 -0.335848 -0.64 38 39 43
0.0693448 -0.228796 -0.436 197 158 151
0.076819 -0.228796 -0.436 190 150 142
0.0794924 -0.229321 -0.437 178 138 130
0.104767 -0.235618 -0.449 131 90 86
0.109392 -0.238242 -0.454 122 87 85
0.119897 -0.245589 -0.468 93 73 75
0.20419 -0.335848 -0.64 157 169 217
0.441223 -0.321154 -0.612 111 76 74
0.433507 -0.301213 -0.574 123 80 74
0.437 -0.299114 -0.57 129 86 79
0.4407 -0.29649 -0.565 130 86 77
0.442357 -0.295441 -0.563 133 86 78
0.442642 -0.294916 -0.562 131 84 74
0.455623 -0.28757 -0.548 145 93 80
0.457917 -0.287045 -0.547 150 98 84
0.45812 -0.28652 -0.546 151 100 83
0.471578 -0.279698 -0.533 175 119 102
0.4797 -0.279698 -0.533 169 114 94
0.494448 -0.282322 -0.538 157 102 82
0.495472 -0.282322 -0.538 157 102 81
0.5004 -0.283371 -0.54 166 110 93
1.13459 -0.33165 -0.632 203 205 191
-0.1314 -0.3318 -0.63 79 79 91
-0.116362 -0.313893 -0.596 74 72 83
-0.104346 -0.326007 -0.619 232 231 237
-0.103141 -0.329693 -0.626 223 225 222
-0.0920381 -0.337067 -0.64 44 45 49
-0.0906771 -0.33654 -0.639 41 42 47
-0.0829829 -0.33496 -0.636 31 32 37
-0.0764286 -0.33812 -0.642 113 112 118
0.0565171 -0.23858 -0.453 201 166 162
0.0794924 -0.230153 -0.437 179 139 131
0.0863486 -0.23068 -0.438 164 121 112
0.0888514 -0.23068 -0.438 152 112 104
0.0898905 -0.231207 -0.439 148 108 100
0.120153 -0.247007 -0.469 93 73 75
0.450827 -0.332853 -0.632 126 120 134
0.439429 -0.316 -0.6 111 81 73
0.44103 -0.300727 -0.571 126 83 76
0.443636 -0.298093 -0.566 127 83 74
0.456018 -0.290193 -0.551 138 90 78
0.465911 -0.28282 -0.537 169 113 96
0.47576 -0.280187 -0.532 167 112 92
0.4788 -0.280187 -0.532 167 112 92
0.51042 -0.28598 -0.543 170 121 104
0.515414 -0.287033 -0.545 176 131 112
-0.109367 -0.3145 -0.595 71 71 83
0.11761 -0.246314 -0.466 93 75 75
0.19928 -0.336171 -0.636 147 164 210
0.453479 -0.332471 -0.629 114 93 98
0.441007 -0.3071 -0.581 115 78 72
0.442367 -0.304986 -0.577 116 79 71
0.45662 -0.2923 -0.553 133 86 76
0.457068 -0.291243 -0.551 134 87 77
0.469411 -0.282257 -0.534 172 117 97
0.51939 -0.289129 -0.547 170 125 104
-0.121419 -0.32359 -0.61 77 77 87
-0.115807 -0.317755 -0.599 75 76 81
-0.105966 -0.32253 -0.608 176 174 185
0.0828219 -0.231818 -0.437 170 130 120
0.113713 -0.24455 -0.461 98 78 77
0.457084 -0.336322 -0.634 179 169 170
0.454629 -0.331017 -0.624 98 82 83
0.445856 -0.309268 -0.583 116 78 67
0.44654 -0.308207 -0.581 116 77 70
0.448643 -0.302902 -0.571 120 77 70
0.457673 -0.293353 -0.553 134 86 74
0.459381 -0.291762 -0.55 135 85 76
0.46473 -0.285396 -0.538 168 112 95
0.47576 -0.282213 -0.532 168 113 93
0.490671 -0.283805 -0.535 159 107 85
0.499473 -0.285927 -0.539 161 110 89
0.51844 -0.28964 -0.546 167 122 101
-0.0949476 -0.338062 -0.635 49 50 55
0.0546705 -0.240636 -0.452 200 165 161
0.0599238 -0.234248 -0.44 202 163 158
0.0809714 -0.232118 -0.436 178 138 128
0.0818019 -0.232118 -0.436 169 129 119
0.0979 -0.23691 -0.445 135 98 92
0.111471 -0.244363 -0.459 103 79 79
0.12169 -0.252881 -0.475 100 80 81
0.45019 -0.308781 -0.58 117 78 71
0.45306 -0.30186 -0.567 116 76 68
0.453614 -0.300795 -0.565 117 77 69
0.45625 -0.297601 -0.559 126 82 71
0.462471 -0.290148 -0.545 140 91 76
0.467957 -0.285889 -0.537 167 115 94
0.471578 -0.283759 -0.533 163 111 90
0.50957 -0.288018 -0.541 170 123 103
-0.373001 -0.342477 -0.641 249 250 242
-0.362012 -0.342477 -0.641 249 250 242
-0.120651 -0.326983 -0.612 79 80 85
-0.11524 -0.32164 -0.602 80 80 88
-0.100756 -0.334463 -0.626 169 171 170
-0.0947981 -0.338737 -0.634 50 49 55
0.0733286 -0.232414 -0.435 187 150 142
0.0793105 -0.232949 -0.436 177 134 125
0.109006 -0.243634 -0.456 108 82 83
0.195338 -0.339271 -0.635 178 190 230
0.460833 -0.29546 -0.553 128 84 75
0.49271 -0.285843 -0.535 158 106 84
0.5076 -0.288514 -0.54 170 123 103
-0.386443 -0.342626 -0.639 245 246 238
-0.135287 -0.341553 -0.637 88 89 94
-0.101297 -0.33351 -0.622 184 184 186
-0.0944991 -0.338872 -0.632 51 50 56
0.0535714 -0.241286 -0.45 201 166 160
0.0582476 -0.235924 -0.44 205 166 159
0.0749857 -0.233243 -0.435 187 145 133
0.0949286 -0.237532 -0.443 138 99 94
0.460766 -0.323859 -0.604 113 79 77
0.460331 -0.302411 -0.564 114 74 64
0.461089 -0.300803 -0.561 115 75 65
0.466779 -0.28847 -0.538 163 108 88
0.46898 -0.287934 -0.537 163 108 88
0.490771 -0.286326 -0.534 160 108 86
0.504607 -0.289007 -0.539 166 118 98
0.510601 -0.290079 -0.541 170 123 103
-0.136714 -0.343305 -0.638 168 169 171
-0.129205 -0.339538 -0.631 82 85 90
-0.11658 -0.3277 -0.609 84 87 96
-0.113322 -0.32501 -0.604 88 88 96
-0.109507 -0.323933 -0.602 80 80 92
-0.100273 -0.335233 -0.623 78 79 83
-0.0899676 -0.341152 -0.634 49 49 57
-0.0819 -0.342767 -0.637 141 142 146
0.0545486 -0.238914 -0.444 201 164 156
0.0604857 -0.235686 -0.438 202 163 156
0.06118 -0.235148 -0.437 204 165 158
0.0749857 -0.234071 -0.435 186 143 134
0.110838 -0.247524 -0.46 101 76 79
0.464938 -0.322319 -0.599 111 77 75
0.46629 -0.29111 -0.541 160 103 83
0.470149 -0.288419 -0.536 161 104 84
0.479923 -0.285729 -0.531 165 108 89
0.480934 -0.285729 -0.531 161 106 85
0.488837 -0.286805 -0.533 165 110 90
0.505633 -0.290033 -0.539 168 117 96
0.507687 -0.290033 -0.539 167 119 99
-0.380977 -0.34452 -0.638 245 246 238
0.0675286 -0.2349 -0.435 197 158 151
0.0691857 -0.2349 -0.435 195 156 149
0.0733286 -0.2349 -0.435 185 144 138
0.076819 -0.23544 -0.436 182 139 130
0.0844867 -0.23598 -0.437 159 116 109
0.108611 -0.24732 -0.458 101 80 79
0.1899 -0.34182 -0.633 188 197 226
0.471897 -0.33912 -0.628 57 60 101
0.47234 -0.33858 -0.627 63 66 107
0.472024 -0.3375 -0.625 89 80 101
0.469358 -0.31644 -0.586 107 73 64
0.467867 -0.3132 -0.58 110 73 64
0.46494 -0.30618 -0.567 112 74 63
0.464169 -0.29538 -0.547 141 89 75
0.47131 -0.2889 -0.535 160 102 82
0.516626 -0.29322 -0.543 166 119 99
-0.384623 -0.345735 -0.638 246 247 239
-0.383408 -0.345735 -0.638 246 247 239
-0.373686 -0.345735 -0.638 248 249 241
-0.123017 -0.338149 -0.624 90 93 98
0.0643619 -0.23627 -0.436 196 159 153
0.0793105 -0.23627 -0.436 174 131 122
0.0855143 -0.237354 -0.438 154 111 104
0.0972705 -0.24169 -0.446 127 92 90
0.106167 -0.246567 -0.455 98 83 80
0.117823 -0.256863 -0.474 101 75 84
0.477441 -0.340858 -0.629 89 87 98
0.478104 -0.335439 -0.619 108 80 77
0.476972 -0.332188 -0.613 108 80 77
0.475772 -0.328936 -0.607 109 79 77
0.475649 -0.325685 -0.601 105 74 69
0.468829 -0.291545 -0.538 160 101 83
0.472463 -0.289377 -0.534 162 104 84
0.499756 -0.290461 -0.536 161 109 88
0.50777 -0.291545 -0.538 163 115 95
-0.131027 -0.344775 -0.634 104 108 109
-0.1266 -0.3426 -0.63 102 105 110
-0.115386 -0.334443 -0.615 96 99 106
-0.107652 -0.332268 -0.611 89 92 99
-0.106663 -0.332811 -0.612 85 88 95
-0.0970238 -0.339881 -0.625 63 63 71
0.0507733 -0.243627 -0.448 196 161 157
0.0557333 -0.239276 -0.44 203 166 158
0.080141 -0.237101 -0.436 166 126 118
0.119477 -0.259397 -0.477 110 87 95
0.48204 -0.336074 -0.618 109 81 78
0.481643 -0.333355 -0.613 104 76 73
0.48082 -0.33118 -0.609 107 78 74
0.480109 -0.325198 -0.598 106 75 70
0.479638 -0.32411 -0.596 105 74 69
0.47068 -0.312147 -0.574 109 75 66
0.470657 -0.309971 -0.57 109 75 66
0.48498 -0.288763 -0.531 164 109 88
0.488933 -0.289307 -0.532 160 105 84
1.13397 -0.340969 -0.627 202 204 190
-0.370091 -0.347074 -0.636 249 250 242
-0.122219 -0.341617 -0.626 98 101 108
-0.11016 -0.333977 -0.612 94 97 102
-0.109172 -0.334523 -0.613 94 97 102
-0.100971 -0.338343 -0.62 75 73 84
-0.08862 -0.345437 -0.633 67 68 73
0.0547705 -0.239569 -0.439 202 165 157
0.0595152 -0.238477 -0.437 200 162 153
0.0793105 -0.237931 -0.436 166 126 118
0.10049 -0.245026 -0.449 117 88 90
0.112043 -0.253757 -0.465 93 73 84
0.487448 -0.342709 -0.628 105 86 88
0.46644 -0.29796 -0.546 150 94 79
0.472463 -0.291411 -0.534 160 102 82
0.475639 -0.290866 -0.533 165 107 85
0.476773 -0.29032 -0.532 166 111 91
1.13339 -0.342709 -0.628 203 204 188
-0.386443 -0.347738 -0.635 245 246 238
-0.372514 -0.348286 -0.636 248 249 241
-0.3604 -0.348286 -0.636 245 246 238
-0.113227 -0.337333 -0.616 102 103 108
-0.105354 -0.338429 -0.618 95 96 101
-0.0980571 -0.341714 -0.624 71 70 78
-0.0918 -0.345 -0.63 81 80 86
0.0496971 -0.244238 -0.446 201 164 156
0.052381 -0.240952 -0.44 202 163 156
0.0578505 -0.23931 -0.437 201 161 153
0.0625571 -0.238214 -0.435 200 159 153
0.0682 -0.237667 -0.434 190 150 142
0.0865457 -0.240405 -0.439 146 105 103
0.088419 -0.240952 -0.44 145 104 100
0.10821 -0.251905 -0.46 97 77 86
0.427762 -0.355952 -0.65 27 57 121
0.456238 -0.355952 -0.65 29 69 139
0.462429 -0.355952 -0.65 118 137 177
0.4914 -0.345 -0.63 140 128 130
0.467662 -0.298452 -0.545 153 94 76
0.469853 -0.294619 -0.538 158 101 81
0.470878 -0.294619 -0.538 157 100 80
0.474497 -0.292429 -0.534 161 103 81
0.48488 -0.291333 -0.532 164 109 88
0.488933 -0.291333 -0.532 165 110 89
-0.385834 -0.348398 -0.634 246 247 239
-0.377381 -0.348398 -0.634 246 247 239
-0.3683 -0.348948 -0.635 249 250 242
-0.101297 -0.341804 -0.622 88 87 93
0.0494743 -0.243989 -0.444 201 164 156
0.0546457 -0.240691 -0.438 201 163 154
0.0561857 -0.240142 -0.437 202 162 154
0.059379 -0.239592 -0.436 202 162 154
0.0665467 -0.238493 -0.434 188 148 140
0.0749857 -0.239043 -0.435 176 133 124
0.0828219 -0.240142 -0.437 156 115 111
0.110034 -0.254979 -0.464 96 76 85
0.111157 -0.255529 -0.465 93 75 87
0.462429 -0.35719 -0.65 117 135 175
0.467898 -0.356641 -0.649 168 168 194
0.46748 -0.30004 -0.546 147 94 78
0.469543 -0.296743 -0.54 157 100 81
0.474624 -0.292896 -0.533 167 111 88
0.492987 -0.292347 -0.532 166 111 90
0.494929 -0.292896 -0.533 164 112 90
-0.379796 -0.349606 -0.634 245 246 238
-0.371343 -0.349606 -0.634 249 250 242
-0.279564 -0.349606 -0.634 252 253 247
-0.128409 -0.349054 -0.633 219 223 224
-0.125798 -0.348503 -0.632 130 134 135
-0.109238 -0.341886 -0.62 109 110 114
0.0529771 -0.241526 -0.438 203 164 157
0.0561857 -0.240974 -0.437 202 162 154
0.0723333 -0.23932 -0.434 177 137 129
0.0945095 -0.245386 -0.445 128 94 93
0.361586 -0.357877 -0.649 23 60 131
0.381952 -0.358429 -0.65 90 100 135
0.4543 -0.357877 -0.649 25 65 135
0.500786 -0.339129 -0.615 106 81 85
0.496584 -0.334717 -0.607 110 81 83
0.478903 -0.317623 -0.576 107 77 75
0.474415 -0.313211 -0.568 119 82 74
0.4788 -0.29336 -0.532 171 115 92
0.482957 -0.292809 -0.531 173 119 95
0.485991 -0.292809 -0.531 168 114 90
0.491973 -0.29336 -0.532 165 113 91
1.13097 -0.345194 -0.626 202 204 191
1.13274 -0.344643 -0.625 203 205 192
-0.120409 -0.348047 -0.629 118 119 121
-0.118831 -0.34694 -0.627 114 117 122
-0.110953 -0.344727 -0.623 113 117 120
-0.0974895 -0.347493 -0.628 112 113 115
0.0521429 -0.24236 -0.438 202 162 154
0.0577181 -0.241253 -0.436 203 160 153
0.0838457 -0.24236 -0.438 151 112 107
0.0857095 -0.242913 -0.439 151 111 109
0.105994 -0.253427 -0.458 98 78 79
0.111874 -0.25896 -0.468 91 74 84
0.371475 -0.359113 -0.649 105 121 170
0.391254 -0.359113 -0.649 34 73 148
0.40238 -0.359113 -0.649 161 171 206
0.42834 -0.359113 -0.649 84 106 164
0.437667 -0.359667 -0.65 144 146 169
0.4543 -0.359113 -0.649 28 67 136
0.47117 -0.296587 -0.536 165 108 88
0.478911 -0.29382 -0.531 175 119 96
0.480934 -0.29382 -0.531 174 118 95
0.488014 -0.29382 -0.531 169 115 91
0.504938 -0.296033 -0.535 166 114 92
0.513847 -0.298247 -0.539 166 115 94
0.52468 -0.30212 -0.546 162 111 90
-0.376786 -0.351466 -0.633 247 248 240
-0.124397 -0.350355 -0.631 238 238 236
-0.0976448 -0.349245 -0.629 210 210 210
0.0609 -0.241529 -0.435 195 155 147
0.0615867 -0.240973 -0.434 193 153 145
0.0624133 -0.240973 -0.434 193 153 143
0.0696924 -0.240418 -0.433 182 139 130
0.0794924 -0.242639 -0.437 158 117 111
0.104022 -0.253744 -0.457 101 79 82
0.404852 -0.36035 -0.649 164 169 198
0.409797 -0.36035 -0.649 148 153 175
0.411033 -0.36035 -0.649 118 129 151
0.412869 -0.359794 -0.648 101 119 157
0.414103 -0.359794 -0.648 78 96 134
0.421509 -0.359794 -0.648 25 54 122
0.478009 -0.317041 -0.571 127 88 81
0.468185 -0.300939 -0.542 159 102 85
-0.110295 -0.348771 -0.626 178 178 178
-0.101078 -0.349886 -0.628 226 226 228
0.0475676 -0.246257 -0.442 201 160 154
0.0520238 -0.243471 -0.437 202 159 150
0.0528562 -0.243471 -0.437 202 159 150
0.0592429 -0.242357 -0.435 201 157 146
0.0640667 -0.2418 -0.434 193 150 141
0.0663933 -0.241243 -0.433 187 144 135
0.0758143 -0.242357 -0.435 165 121 118
0.0840371 -0.244586 -0.439 149 108 106
0.0905048 -0.246257 -0.442 131 97 95
0.0947219 -0.248486 -0.446 119 89 89
0.0957857 -0.249043 -0.447 116 86 86
0.11283 -0.262971 -0.472 95 75 86
0.358007 -0.360471 -0.647 32 65 142
0.386949 -0.361029 -0.648 55 87 160
0.411634 -0.361029 -0.648 119 131 157
0.43823 -0.361586 -0.649 128 127 145
0.441257 -0.361029 -0.648 164 166 179
0.471888 -0.359914 -0.646 141 145 157
0.508759 -0.344871 -0.619 103 83 82
0.4687 -0.303643 -0.545 155 98 81
0.470878 -0.299743 -0.538 167 110 91
0.472329 -0.298071 -0.535 176 120 97
0.481946 -0.295843 -0.531 174 118 93
0.487003 -0.295843 -0.531 169 113 86
0.499067 -0.2964 -0.532 166 114 92
0.506976 -0.298071 -0.535 164 114 91
0.5336 -0.307543 -0.552 151 110 90
0.0453476 -0.248776 -0.445 200 159 153
0.050359 -0.244304 -0.437 201 161 151
0.0528562 -0.244304 -0.437 201 161 151
0.0640667 -0.242627 -0.434 191 148 139
0.08694 -0.24654 -0.441 142 102 102
0.0896629 -0.247099 -0.442 139 97 99
0.107151 -0.258839 -0.463 92 77 80
0.113309 -0.264989 -0.474 101 81 92
0.361704 -0.361704 -0.647 25 61 137
0.394354 -0.362263 -0.648 64 103 170
0.420858 -0.361704 -0.647 76 106 168
0.423323 -0.361704 -0.647 38 68 128
0.435086 -0.362263 -0.648 155 166 198
0.445506 -0.361704 -0.647 77 103 160
0.459583 -0.361145 -0.646 128 136 173
0.468196 -0.361145 -0.646 169 172 179
0.469427 -0.361145 -0.646 169 172 179
0.488614 -0.327043 -0.585 123 86 77
0.470049 -0.306917 -0.549 149 96 80
0.470878 -0.300768 -0.538 163 108 88
0.47219 -0.29965 -0.536 174 118 95
0.50008 -0.297413 -0.532 165 115 92
-0.379201 -0.353961 -0.631 244 245 237
-0.0988429 -0.352839 -0.629 222 222 222
0.0451438 -0.248502 -0.443 198 158 150
0.0495267 -0.245136 -0.437 204 164 154
0.0615867 -0.243453 -0.434 191 151 141
0.0640667 -0.243453 -0.434 190 147 138
0.0648933 -0.243453 -0.434 192 149 140
0.0723333 -0.243453 -0.434 175 132 125
0.09176 -0.249063 -0.444 131 92 93
0.383293 -0.362375 -0.646 63 94 158
0.411594 -0.362375 -0.646 40 66 125
0.442356 -0.362375 -0.646 163 164 184
0.446048 -0.362375 -0.646 61 88 143
0.458352 -0.362375 -0.646 90 111 168
0.470236 -0.307402 -0.548 152 95 76
0.473348 -0.30011 -0.535 179 122 95
0.485991 -0.297866 -0.531 162 108 84
-0.101239 -0.354037 -0.629 223 223 223
0.0425229 -0.253849 -0.451 193 150 144
0.0456762 -0.247657 -0.44 199 161 148
0.0698533 -0.24428 -0.434 178 134 125
0.0739867 -0.24428 -0.434 167 124 117
0.076819 -0.245406 -0.436 163 120 113
0.363043 -0.363043 -0.645 46 77 144
0.368528 -0.363606 -0.646 75 98 142
0.388215 -0.363606 -0.646 81 111 173
0.42636 -0.363606 -0.646 61 83 141
0.428821 -0.363606 -0.646 46 68 126
0.441126 -0.363606 -0.646 109 103 117
0.447814 -0.363043 -0.645 86 110 158
0.4601 -0.363043 -0.645 161 176 209
0.482693 -0.36248 -0.644 107 117 152
0.499867 -0.36248 -0.644 156 161 183
0.469912 -0.306194 -0.544 161 105 88
0.471753 -0.30338 -0.539 169 112 93
0.475639 -0.300003 -0.533 182 124 100
0.480934 -0.298877 -0.531 181 125 100
0.487003 -0.298877 -0.531 172 116 91
0.491133 -0.298314 -0.53 173 121 97
0.510033 -0.301129 -0.535 160 115 94
0.618651 -0.351223 -0.624 204 206 205
0.0441 -0.24906 -0.441 200 160 150
0.0551 -0.245671 -0.435 202 160 148
0.0758143 -0.245671 -0.435 161 120 114
0.0793105 -0.246236 -0.436 154 113 109
0.083201 -0.24793 -0.439 144 104 102
0.09988 -0.256402 -0.454 101 81 83
0.10516 -0.26092 -0.462 94 75 79
0.349529 -0.364271 -0.645 66 88 146
0.387614 -0.364271 -0.645 96 125 183
0.419557 -0.364271 -0.645 74 95 138
0.44712 -0.363707 -0.644 83 105 154
0.463067 -0.363707 -0.644 172 177 196
0.475333 -0.363707 -0.644 146 152 184
0.479013 -0.363707 -0.644 155 162 191
0.482693 -0.363707 -0.644 102 109 138
0.469912 -0.30723 -0.544 164 107 90
0.482048 -0.299324 -0.53 180 122 98
0.491214 -0.298759 -0.529 178 124 100
0.499209 -0.299324 -0.53 171 115 98
0.512008 -0.302712 -0.536 157 111 95
0.518914 -0.304971 -0.54 157 112 91
0.608557 -0.347329 -0.615 213 204 207
0.0486943 -0.247633 -0.437 204 162 150
0.0502438 -0.247067 -0.436 207 165 153
0.0599333 -0.245933 -0.434 196 153 144
0.0723333 -0.245933 -0.434 171 126 120
0.0803248 -0.247633 -0.437 152 111 109
0.0861 -0.2499 -0.441 136 96 97
0.336197 -0.364367 -0.643 198 200 225
0.352667 -0.364933 -0.644 99 131 190
0.35512 -0.364933 -0.644 87 121 184
0.36984 -0.364933 -0.644 149 156 185
0.386386 -0.3655 -0.645 102 128 177
0.388843 -0.3655 -0.645 114 141 196
0.405413 -0.364933 -0.644 161 166 196
0.414643 -0.3655 -0.645 115 130 171
0.42504 -0.364933 -0.644 108 124 160
0.429386 -0.3655 -0.645 113 128 167
0.430614 -0.3655 -0.645 75 90 129
0.440443 -0.3655 -0.645 162 160 182
0.4501 -0.364367 -0.643 115 138 190
0.459387 -0.364933 -0.644 154 170 203
0.467973 -0.364933 -0.644 121 124 155
0.47582 -0.364367 -0.643 164 168 195
0.485618 -0.364367 -0.643 162 164 189
0.484893 -0.325267 -0.574 127 90 82
0.470878 -0.304867 -0.538 172 115 95
0.477787 -0.301467 -0.532 183 125 101
0.486086 -0.300333 -0.53 178 120 96
0.044 -0.250171 -0.44 200 157 141
0.0470295 -0.248466 -0.437 202 163 148
0.0672181 -0.246191 -0.433 176 131 125
0.0862952 -0.251309 -0.442 133 94 97
0.0955714 -0.255857 -0.45 111 84 89
0.34967 -0.365591 -0.643 84 109 173
0.358243 -0.365591 -0.643 152 176 214
0.360692 -0.365591 -0.643 116 143 188
0.363142 -0.365591 -0.643 104 131 176
0.37294 -0.365591 -0.643 173 178 197
0.388843 -0.366729 -0.645 114 139 193
0.3913 -0.366729 -0.645 83 110 165
0.409093 -0.36616 -0.644 101 113 155
0.411547 -0.36616 -0.644 122 138 174
0.431173 -0.36616 -0.644 107 120 154
0.434853 -0.36616 -0.644 108 123 154
0.463572 -0.365591 -0.643 173 169 196
0.488068 -0.365591 -0.643 164 169 191
0.475639 -0.303049 -0.533 179 123 98
0.488191 -0.300774 -0.529 185 128 101
0.491214 -0.300774 -0.529 179 123 98
0.492222 -0.300774 -0.529 178 122 97
0.494237 -0.300774 -0.529 179 121 99
0.496252 -0.300774 -0.529 179 122 102
0.50616 -0.30248 -0.532 156 114 92
0.532791 -0.312146 -0.549 156 111 88
0.541703 -0.316126 -0.556 151 108 89
0.0549733 -0.247587 -0.434 200 156 145
0.0682 -0.247587 -0.434 175 130 124
0.076819 -0.248728 -0.436 160 116 113
0.0913238 -0.254432 -0.446 115 89 90
0.394373 -0.367387 -0.644 135 147 187
0.402334 -0.366816 -0.643 154 158 185
0.407233 -0.366816 -0.643 114 123 162
0.42438 -0.366816 -0.643 159 164 193
0.472634 -0.366246 -0.642 166 171 193
0.477526 -0.366246 -0.642 166 171 193
0.479971 -0.366246 -0.642 164 169 191
0.487309 -0.366246 -0.642 165 170 192
0.488531 -0.366246 -0.642 165 170 192
0.495869 -0.366246 -0.642 155 160 189
0.50076 -0.366246 -0.642 80 83 116
0.510969 -0.365675 -0.641 84 107 157
0.479038 -0.320608 -0.562 138 98 90
0.475639 -0.304064 -0.533 180 123 94
0.478911 -0.302923 -0.531 184 129 99
0.07866 -0.25013 -0.437 154 113 111
0.0894238 -0.25471 -0.445 115 91 91
0.34967 -0.368041 -0.643 128 147 189
0.353344 -0.368041 -0.643 173 185 223
0.409046 -0.367469 -0.642 159 165 189
0.439617 -0.367469 -0.642 127 134 162
0.47386 -0.315382 -0.551 161 105 92
0.470571 -0.309086 -0.54 171 114 94
0.473211 -0.306796 -0.536 176 118 94
0.474624 -0.305079 -0.533 183 126 97
0.480029 -0.303362 -0.53 188 131 102
0.483153 -0.30279 -0.529 187 131 104
0.485169 -0.30279 -0.529 185 129 102
0.532865 -0.313665 -0.548 155 111 86
0.0688676 -0.248666 -0.433 172 129 123
0.0759886 -0.250389 -0.436 163 118 112
0.0896248 -0.256131 -0.446 115 91 91
0.369914 -0.368691 -0.642 74 88 125
0.383366 -0.368691 -0.642 83 104 149
0.399263 -0.368691 -0.642 126 130 159
0.427944 -0.368117 -0.641 160 165 187
0.43649 -0.368117 -0.641 79 89 124
0.438932 -0.368117 -0.641 104 114 141
0.48655 -0.368117 -0.641 169 170 191
0.497981 -0.367543 -0.64 133 135 158
0.499533 -0.338829 -0.59 125 90 86
0.474497 -0.306669 -0.534 183 123 95
0.47576 -0.30552 -0.532 188 128 100
0.508187 -0.30552 -0.532 163 114 99
0.0382276 -0.259862 -0.451 196 154 142
0.0614448 -0.24949 -0.433 190 143 137
0.063919 -0.24949 -0.433 183 138 132
0.0655686 -0.24949 -0.433 177 132 127
0.0696924 -0.24949 -0.433 169 124 119
0.0846114 -0.254676 -0.442 134 100 99
0.0864905 -0.255252 -0.443 126 92 93
0.0940657 -0.259862 -0.451 105 85 87
0.369914 -0.369914 -0.642 71 87 121
0.415734 -0.369338 -0.641 167 170 201
0.439467 -0.368762 -0.64 155 162 188
0.452876 -0.368762 -0.64 76 95 153
0.468724 -0.368762 -0.64 171 169 190
0.474819 -0.368762 -0.64 166 170 195
0.490667 -0.368762 -0.64 163 169 185
0.471753 -0.310567 -0.539 172 114 92
0.480029 -0.305381 -0.53 192 135 106
0.48943 -0.303076 -0.526 187 130 101
0.491434 -0.303076 -0.526 181 125 98
0.513149 -0.307686 -0.534 153 112 90
0.515129 -0.308262 -0.535 156 115 95
0.0385667 -0.257252 -0.445 197 153 142
0.0856467 -0.256096 -0.443 130 96 95
0.31098 -0.369403 -0.639 221 225 252
0.343162 -0.369981 -0.64 175 178 209
0.351695 -0.369981 -0.64 183 192 221
0.369338 -0.370559 -0.641 109 120 152
0.375443 -0.370559 -0.641 149 154 184
0.3968 -0.369981 -0.64 149 153 178
0.405333 -0.369981 -0.64 159 165 189
0.41021 -0.369981 -0.64 163 170 188
0.412648 -0.369981 -0.64 163 170 189
0.450438 -0.369981 -0.64 56 82 141
0.455314 -0.369981 -0.64 115 135 185
0.477257 -0.369981 -0.64 168 173 195
0.503289 -0.369403 -0.639 45 66 119
0.472314 -0.313328 -0.542 165 110 90
0.473211 -0.309859 -0.536 179 119 93
0.514166 -0.308703 -0.534 156 115 95
0.525028 -0.31275 -0.541 152 114 93
0.0404629 -0.25404 -0.438 199 152 142
0.041939 -0.25288 -0.436 197 151 138
0.0523724 -0.25114 -0.433 197 153 142
0.0837695 -0.25636 -0.442 137 102 100
0.086881 -0.2581 -0.445 121 87 86
0.0968457 -0.26448 -0.456 96 77 81
0.103851 -0.27144 -0.468 91 74 82
0.348038 -0.3712 -0.64 186 193 222
0.3712 -0.3712 -0.64 87 105 145
0.38461 -0.3712 -0.64 86 115 171
0.404114 -0.3712 -0.64 161 168 196
0.42174 -0.37062 -0.639 164 169 191
0.441214 -0.37062 -0.639 107 121 168
0.463123 -0.37062 -0.639 162 169 198
0.481234 -0.30624 -0.528 193 137 110
0.500399 -0.30566 -0.527 169 122 94
0.0540219 -0.251965 -0.433 196 152 139
0.0556714 -0.251965 -0.433 192 148 135
0.0589705 -0.251965 -0.433 185 141 130
0.0672181 -0.251965 -0.433 169 126 117
0.333583 -0.371255 -0.638 182 193 221
0.366324 -0.372419 -0.64 174 181 200
0.378514 -0.372419 -0.64 158 165 193
0.402266 -0.371837 -0.639 128 133 155
0.419865 -0.371255 -0.638 164 169 191
0.451461 -0.371255 -0.638 37 62 118
0.456322 -0.371255 -0.638 55 78 132
0.461906 -0.371837 -0.639 132 149 192
0.46434 -0.371837 -0.639 159 165 191
0.47286 -0.371837 -0.639 168 169 187
0.490349 -0.371255 -0.638 124 124 136
0.5005 -0.370673 -0.637 102 111 144
0.517487 -0.370673 -0.637 73 98 155
0.5187 -0.370673 -0.637 64 85 140
0.524767 -0.370673 -0.637 159 167 204
0.476143 -0.320048 -0.55 153 105 91
0.47278 -0.313647 -0.539 175 117 95
0.472928 -0.313065 -0.538 174 116 94
0.504366 -0.307246 -0.528 160 118 96
0.510266 -0.308991 -0.531 156 114 92
0.519154 -0.311901 -0.536 151 110 90
0.522116 -0.313065 -0.538 149 111 90
0.531048 -0.316556 -0.544 150 112 93
0.0523724 -0.25279 -0.433 197 151 138
0.0564962 -0.25279 -0.433 191 147 134
0.0663933 -0.25279 -0.433 171 129 117
0.320927 -0.371887 -0.637 149 177 227
0.32214 -0.371887 -0.637 132 162 214
0.336013 -0.37247 -0.638 108 123 154
0.34452 -0.37247 -0.638 190 195 215
0.345735 -0.37247 -0.638 188 193 215
0.35358 -0.373054 -0.639 183 188 207
0.354797 -0.373054 -0.639 182 187 206
0.39799 -0.37247 -0.638 131 143 181
0.410143 -0.37247 -0.638 161 166 188
0.450753 -0.371887 -0.637 36 61 118
0.468474 -0.37247 -0.638 128 125 134
0.479411 -0.37247 -0.638 110 116 150
0.521127 -0.371887 -0.637 87 104 148
0.5012 -0.34328 -0.588 130 100 92
0.495486 -0.33861 -0.58 133 96 87
0.473347 -0.316425 -0.542 170 113 93
0.474747 -0.310587 -0.532 182 125 98
0.477 -0.309419 -0.53 191 134 107
0.483419 -0.307084 -0.526 193 136 107
0.500451 -0.307084 -0.526 166 119 93
0.03654 -0.2583 -0.441 200 157 141
0.046599 -0.253614 -0.433 200 157 141
0.0548467 -0.253614 -0.433 195 151 138
0.0556714 -0.253614 -0.433 194 150 137
0.0688676 -0.253614 -0.433 166 123 114
0.0872714 -0.261814 -0.447 119 89 87
0.0904286 -0.263571 -0.45 116 88 85
0.0914886 -0.264157 -0.451 113 85 82
0.417993 -0.3731 -0.637 121 127 161
0.443473 -0.3731 -0.637 49 75 132
0.462398 -0.373686 -0.638 158 163 192
0.463613 -0.373686 -0.638 163 168 197
0.465313 -0.3731 -0.637 175 173 187
0.473807 -0.3731 -0.637 145 146 167
0.481087 -0.3731 -0.637 123 127 156
0.488367 -0.3731 -0.637 144 145 149
0.494433 -0.3731 -0.637 167 165 179
0.503349 -0.372514 -0.636 81 103 152
0.52152 -0.372514 -0.636 141 156 197
0.48504 -0.330343 -0.564 142 103 96
0.474379 -0.317457 -0.542 170 113 94
0.479223 -0.309257 -0.528 188 131 104
0.482417 -0.308086 -0.526 192 135 106
0.0371257 -0.257377 -0.438 197 155 139
0.0401857 -0.255614 -0.435 199 157 141
0.0425733 -0.255027 -0.434 200 154 139
0.0457743 -0.254439 -0.433 199 156 140
0.357888 -0.374901 -0.638 179 184 204
0.365179 -0.374901 -0.638 177 184 203
0.379762 -0.374901 -0.638 59 83 143
0.431874 -0.373726 -0.636 162 160 171
0.43672 -0.373726 -0.636 56 65 108
0.439143 -0.373726 -0.636 40 57 111
0.441566 -0.373726 -0.636 71 94 148
0.4641 -0.374313 -0.637 169 170 190
0.473063 -0.373726 -0.636 164 165 183
0.477909 -0.373726 -0.636 132 136 163
0.517886 -0.373726 -0.636 111 133 174
0.524329 -0.373138 -0.635 70 80 105
0.504883 -0.347283 -0.591 132 97 91
0.492547 -0.337293 -0.574 135 98 92
0.474624 -0.313201 -0.533 183 120 102
0.4761 -0.31085 -0.529 187 129 105
0.51528 -0.312613 -0.532 154 112 90
0.520224 -0.314376 -0.535 154 111 92
0.53612 -0.32084 -0.546 152 111 91
0.612746 -0.359035 -0.611 203 203 205
0.0386171 -0.257032 -0.436 199 156 139
0.0556714 -0.255264 -0.433 195 151 138
0.0581457 -0.255264 -0.433 184 140 129
0.0597952 -0.255264 -0.433 183 139 130
0.0874667 -0.264107 -0.448 116 85 90
0.36218 -0.375527 -0.637 179 185 209
0.379167 -0.375527 -0.637 36 66 130
0.393727 -0.375527 -0.637 33 62 120
0.400377 -0.374937 -0.636 166 167 187
0.42824 -0.374937 -0.636 109 106 113
0.434297 -0.374937 -0.636 128 133 162
0.443989 -0.374937 -0.636 53 83 137
0.450046 -0.374937 -0.636 56 86 148
0.45368 -0.374937 -0.636 77 103 162
0.464583 -0.374937 -0.636 164 170 196
0.490023 -0.374937 -0.636 166 164 177
0.497719 -0.374348 -0.635 54 67 109
0.503767 -0.374348 -0.635 128 145 171
0.514251 -0.374937 -0.636 56 88 147
0.495979 -0.340745 -0.578 139 102 96
0.478926 -0.325417 -0.552 151 109 97
0.480323 -0.310679 -0.527 188 130 106
0.483419 -0.31009 -0.526 190 133 106
0.49256 -0.30891 -0.524 179 127 103
-0.367867 -0.366686 -0.62 245 246 238
-0.366686 -0.366686 -0.62 244 245 237
0.0424752 -0.256089 -0.433 203 158 137
0.0698533 -0.25668 -0.434 161 121 111
0.0853771 -0.263777 -0.446 117 85 86
0.100071 -0.276197 -0.467 94 73 78
