ply
format ascii 1.0
comment Created by Open3D
element vertex 1271
property double x
property double y
property double z
property uchar red
property uchar green
property uchar blue
end_header
0.509489 -0.481805 -0.559 175 176 180
0.516942 -0.481805 -0.559 163 163 161
0.518143 -0.480943 -0.558 164 163 161
0.520269 -0.480943 -0.558 162 158 155
0.518446 -0.455086 -0.528 119 102 95
0.509605 -0.443881 -0.515 133 106 95
0.503479 -0.433538 -0.503 153 118 99
0.500043 -0.424919 -0.493 156 119 93
0.50244 -0.408543 -0.474 177 134 102
0.508048 -0.405095 -0.47 179 133 100
0.512126 -0.403371 -0.468 183 137 103
0.516814 -0.400786 -0.465 177 131 97
0.52228 -0.3982 -0.462 169 125 90
-0.322288 -0.46473 -0.538 225 226 218
-0.317164 -0.46473 -0.538 226 227 219
-0.313065 -0.46473 -0.538 225 226 218
-0.311015 -0.46473 -0.538 226 227 219
-0.265393 -0.465593 -0.539 227 228 222
-0.253073 -0.465593 -0.539 227 228 220
-0.229886 -0.466457 -0.54 229 230 222
-0.2052 -0.466457 -0.54 229 231 220
-0.201086 -0.466457 -0.54 229 230 222
-0.200057 -0.466457 -0.54 229 230 222
-0.184629 -0.466457 -0.54 231 232 224
-0.173314 -0.466457 -0.54 231 232 224
-0.157886 -0.466457 -0.54 231 233 222
-0.155829 -0.466457 -0.54 230 231 223
-0.153771 -0.466457 -0.54 232 233 225
-0.136538 -0.467321 -0.541 231 232 224
-0.131386 -0.467321 -0.541 230 231 223
-0.123142 -0.467321 -0.541 232 233 225
-0.121081 -0.467321 -0.541 232 233 225
-0.11799 -0.467321 -0.541 231 232 224
-0.116959 -0.467321 -0.541 231 232 224
-0.09738 -0.467321 -0.541 233 234 228
0.00154 -0.465593 -0.539 188 149 116
0.0109305 -0.431041 -0.499 195 152 120
0.0181257 -0.421539 -0.488 199 154 123
0.0282343 -0.419811 -0.486 198 151 121
0.0328629 -0.419811 -0.486 190 145 114
0.0357133 -0.420675 -0.487 189 144 113
0.0403514 -0.420675 -0.487 186 141 108
0.0432229 -0.421539 -0.488 182 137 106
0.0470371 -0.422403 -0.489 171 126 97
0.505067 -0.483733 -0.56 172 171 167
0.514517 -0.484597 -0.561 168 164 163
0.50132 -0.430177 -0.498 149 114 95
0.499657 -0.414629 -0.48 170 129 97
0.50169 -0.41031 -0.475 177 134 100
0.506437 -0.406854 -0.471 181 135 101
0.511921 -0.403399 -0.467 181 135 101
0.514157 -0.401671 -0.465 177 133 98
0.518354 -0.400808 -0.464 180 136 101
0.518119 -0.399944 -0.463 178 132 98
0.51964 -0.39908 -0.462 180 134 100
0.5244 -0.397352 -0.46 171 125 92
0.546929 -0.401671 -0.465 153 109 80
0.553131 -0.404263 -0.468 143 106 79
-0.315114 -0.465754 -0.538 225 226 218
-0.296669 -0.465754 -0.538 227 229 218
-0.295644 -0.465754 -0.538 227 229 218
-0.29257 -0.465754 -0.538 225 226 218
-0.280272 -0.465754 -0.538 228 229 221
-0.277198 -0.465754 -0.538 226 227 219
-0.274124 -0.465754 -0.538 226 227 221
-0.269 -0.465754 -0.538 227 228 222
-0.265926 -0.465754 -0.538 227 228 222
-0.262851 -0.465754 -0.538 226 227 221
-0.259233 -0.46662 -0.539 227 228 222
-0.25718 -0.46662 -0.539 228 229 223
-0.249993 -0.46662 -0.539 226 227 219
-0.222273 -0.46662 -0.539 227 229 218
-0.1836 -0.467486 -0.54 230 231 223
-0.179486 -0.467486 -0.54 230 231 223
-0.178457 -0.467486 -0.54 230 231 223
-0.155829 -0.467486 -0.54 230 232 221
-0.148629 -0.467486 -0.54 231 232 224
-0.145543 -0.467486 -0.54 231 232 224
-0.143486 -0.467486 -0.54 232 233 225
-0.1404 -0.467486 -0.54 231 232 224
-0.00360667 -0.468351 -0.541 229 225 216
-0.000513333 -0.46662 -0.539 182 155 128
0.000513333 -0.46662 -0.539 179 152 125
0.0108867 -0.43026 -0.497 194 151 119
0.0144667 -0.4242 -0.49 197 152 121
0.0180886 -0.421603 -0.487 198 153 120
0.02916 -0.420737 -0.486 197 151 118
0.0511781 -0.426797 -0.493 160 115 92
0.502933 -0.4848 -0.56 169 163 167
0.505969 -0.485666 -0.561 166 160 162
0.511152 -0.486531 -0.562 160 160 162
0.520641 -0.487397 -0.563 138 135 142
0.52333 -0.483934 -0.559 123 119 116
0.524395 -0.483934 -0.559 121 117 114
0.502281 -0.409483 -0.473 178 135 101
0.505714 -0.408617 -0.472 178 134 99
0.511234 -0.405154 -0.468 180 136 101
0.513488 -0.403423 -0.466 176 130 96
0.518119 -0.400826 -0.463 177 131 97
0.522028 -0.399094 -0.461 172 126 92
0.522906 -0.399094 -0.461 173 127 93
0.525883 -0.397363 -0.459 171 127 92
0.528506 -0.397363 -0.459 168 124 89
0.536077 -0.399094 -0.461 160 116 79
-0.319213 -0.466779 -0.538 225 226 218
-0.316139 -0.466779 -0.538 225 226 218
-0.291003 -0.465911 -0.537 225 227 216
-0.28998 -0.465911 -0.537 226 227 219
-0.281797 -0.465911 -0.537 227 229 218
-0.272074 -0.466779 -0.538 225 226 218
-0.270025 -0.466779 -0.538 226 227 219
-0.258752 -0.466779 -0.538 227 228 222
-0.224327 -0.467647 -0.539 228 230 219
-0.2233 -0.467647 -0.539 228 230 219
-0.221247 -0.467647 -0.539 228 230 219
-0.218167 -0.467647 -0.539 228 230 219
-0.21714 -0.467647 -0.539 228 230 219
-0.215087 -0.467647 -0.539 228 230 219
-0.205847 -0.467647 -0.539 227 229 218
-0.202767 -0.467647 -0.539 229 231 220
-0.18326 -0.467647 -0.539 230 232 221
-0.171967 -0.467647 -0.539 229 230 222
-0.16478 -0.467647 -0.539 231 232 224
-0.162727 -0.467647 -0.539 231 232 224
-0.150407 -0.467647 -0.539 232 233 225
-0.124971 -0.468514 -0.54 232 234 223
-0.1188 -0.468514 -0.54 232 234 223
-0.107486 -0.468514 -0.54 232 233 225
-0.0036 -0.468514 -0.54 220 210 200
0.0162667 -0.423398 -0.488 198 153 120
0.0273086 -0.421663 -0.486 196 150 116
0.03564 -0.421663 -0.486 191 144 114
0.0384962 -0.42253 -0.487 185 140 109
0.0422933 -0.423398 -0.488 182 137 106
0.0471333 -0.425133 -0.49 167 121 95
0.0531638 -0.428604 -0.494 155 110 87
0.0573886 -0.432074 -0.498 144 103 83
0.0640933 -0.439015 -0.506 124 91 76
0.0750686 -0.452897 -0.522 96 79 72
0.495095 -0.487602 -0.562 170 166 167
0.52493 -0.48847 -0.563 105 100 104
0.526525 -0.484999 -0.559 87 85 86
0.511584 -0.448559 -0.517 133 106 95
0.498867 -0.425133 -0.49 159 122 96
0.498985 -0.418192 -0.482 168 127 95
0.500786 -0.412119 -0.475 173 132 100
0.537833 -0.399972 -0.461 161 117 80
0.56685 -0.409516 -0.472 123 98 76
-0.326194 -0.466065 -0.536 225 226 220
-0.313506 -0.466934 -0.537 225 227 216
-0.309414 -0.466934 -0.537 226 228 217
-0.295094 -0.466934 -0.537 227 229 218
-0.28282 -0.466934 -0.537 227 228 222
-0.279751 -0.466934 -0.537 226 227 221
-0.260317 -0.466934 -0.537 228 229 224
-0.258752 -0.467804 -0.538 228 229 224
-0.252604 -0.467804 -0.538 227 228 222
-0.23254 -0.468673 -0.539 228 229 221
-0.22946 -0.468673 -0.539 228 229 221
-0.213033 -0.468673 -0.539 229 231 220
-0.199316 -0.467804 -0.538 229 231 220
-0.18292 -0.467804 -0.538 230 232 221
-0.18018 -0.468673 -0.539 230 232 221
-0.17402 -0.468673 -0.539 229 231 220
-0.160375 -0.467804 -0.538 230 232 221
-0.153487 -0.468673 -0.539 230 231 223
-0.135007 -0.468673 -0.539 231 232 224
-0.132953 -0.468673 -0.539 232 233 225
-0.131927 -0.468673 -0.539 231 232 224
-0.121886 -0.469543 -0.54 231 232 224
-0.120857 -0.469543 -0.54 231 232 224
-0.112629 -0.469543 -0.54 232 233 225
-0.1116 -0.469543 -0.54 232 233 225
-0.0972 -0.469543 -0.54 232 233 227
-0.0910286 -0.469543 -0.54 232 233 227
-0.0550286 -0.469543 -0.54 234 234 226
-0.0478286 -0.469543 -0.54 235 234 229
0.00902952 -0.433892 -0.499 195 150 117
0.0254048 -0.421719 -0.485 198 152 118
0.0384171 -0.422589 -0.486 186 141 110
0.0403514 -0.423458 -0.487 182 138 109
0.0461057 -0.425197 -0.489 168 124 97
0.0552686 -0.431284 -0.496 147 101 78
0.0607181 -0.436501 -0.502 128 92 76
0.0712571 -0.448674 -0.516 101 81 74
0.473715 -0.484325 -0.557 188 186 187
0.492759 -0.489542 -0.563 145 140 144
0.5049 -0.49302 -0.567 124 122 125
0.523101 -0.49389 -0.568 89 84 88
0.527273 -0.494759 -0.569 80 78 81
0.528654 -0.486064 -0.559 61 59 62
0.532171 -0.483455 -0.556 53 51 52
0.518446 -0.459109 -0.528 119 97 86
0.513562 -0.452152 -0.52 129 105 93
0.503182 -0.411285 -0.473 177 134 102
0.511921 -0.406068 -0.467 179 133 99
0.520895 -0.399981 -0.46 172 126 90
0.534914 -0.399981 -0.46 162 118 79
0.538711 -0.40085 -0.461 162 119 77
0.53959 -0.40085 -0.461 160 118 78
0.555508 -0.406068 -0.467 145 106 75
0.561762 -0.408676 -0.47 138 101 72
-0.32211 -0.467086 -0.536 224 225 217
-0.320069 -0.467086 -0.536 224 225 217
-0.319048 -0.467086 -0.536 225 226 218
-0.315551 -0.467957 -0.537 225 227 216
-0.284866 -0.467957 -0.537 227 228 220
-0.283843 -0.467957 -0.537 227 228 222
-0.277189 -0.467086 -0.536 226 227 221
-0.276168 -0.467086 -0.536 226 227 221
-0.234158 -0.468829 -0.538 227 228 220
-0.179846 -0.468829 -0.538 229 231 220
-0.174722 -0.468829 -0.538 229 231 220
-0.172672 -0.468829 -0.538 230 231 223
-0.15935 -0.468829 -0.538 231 233 222
-0.151433 -0.4697 -0.539 231 233 222
-0.145004 -0.468829 -0.538 230 231 223
-0.143979 -0.468829 -0.538 230 231 223
-0.136033 -0.4697 -0.539 231 232 224
-0.123713 -0.4697 -0.539 231 234 225
-0.119607 -0.4697 -0.539 230 233 224
-0.1155 -0.4697 -0.539 230 233 222
-0.0949667 -0.4697 -0.539 233 234 228
0.00252857 -0.462729 -0.531 182 143 112
0.0281762 -0.422643 -0.485 193 149 114
0.0365657 -0.423514 -0.486 188 145 113
0.041279 -0.424386 -0.487 181 137 108
0.05538 -0.4331 -0.497 144 99 76
0.0737905 -0.453143 -0.52 97 78 72
0.46841 -0.485386 -0.557 182 180 181
0.471593 -0.485386 -0.557 179 177 178
0.472654 -0.485386 -0.557 177 175 176
0.47861 -0.487129 -0.559 168 168 168
0.503386 -0.436586 -0.501 145 113 92
0.498395 -0.422643 -0.485 162 123 94
0.500786 -0.413929 -0.475 173 130 98
0.503182 -0.412186 -0.473 176 133 99
0.503916 -0.411314 -0.472 177 132 99
0.511921 -0.406957 -0.467 179 133 99
0.514157 -0.405214 -0.465 176 130 97
0.516587 -0.404343 -0.464 182 136 103
0.518515 -0.401729 -0.461 179 133 97
0.520271 -0.401729 -0.461 174 128 92
0.522386 -0.399986 -0.459 171 125 89
0.536667 -0.400857 -0.46 165 120 79
0.537543 -0.400857 -0.46 164 119 78
0.552243 -0.405214 -0.465 149 108 76
-0.324567 -0.467233 -0.535 225 226 218
-0.31088 -0.468107 -0.536 225 226 218
-0.298629 -0.468107 -0.536 226 227 219
-0.293524 -0.468107 -0.536 226 228 217
-0.291482 -0.468107 -0.536 226 227 219
-0.288419 -0.468107 -0.536 227 228 220
-0.270042 -0.468107 -0.536 227 228 222
-0.25677 -0.468107 -0.536 227 228 220
-0.255749 -0.468107 -0.536 227 228 220
-0.239282 -0.469853 -0.538 227 228 220
-0.217357 -0.46898 -0.537 228 230 219
-0.181557 -0.46898 -0.537 229 230 222
-0.178821 -0.469853 -0.538 229 230 222
-0.173374 -0.46898 -0.537 230 231 223
-0.132707 -0.469853 -0.538 232 233 225
-0.122459 -0.469853 -0.538 231 232 224
-0.0980467 -0.470727 -0.539 230 233 226
-0.0795667 -0.470727 -0.539 232 232 224
-0.0456867 -0.470727 -0.539 234 233 228
0.0107333 -0.427933 -0.49 198 154 125
0.0170905 -0.423567 -0.485 199 154 123
0.0676467 -0.446273 -0.511 106 83 77
0.0792476 -0.462867 -0.53 88 73 68
0.0835181 -0.469853 -0.538 82 71 67
0.445586 -0.4847 -0.555 190 188 189
0.468189 -0.48732 -0.558 161 159 160
0.534411 -0.499547 -0.572 53 52 57
0.532683 -0.48994 -0.561 50 48 53
0.531849 -0.488193 -0.559 49 48 54
0.513562 -0.454133 -0.52 125 103 92
0.502207 -0.434047 -0.497 148 115 96
0.499885 -0.428807 -0.491 156 118 95
0.4998 -0.427933 -0.49 158 121 95
0.503916 -0.412213 -0.472 176 131 98
0.508048 -0.410467 -0.47 174 129 96
0.517237 -0.404353 -0.463 179 133 99
0.517 -0.40348 -0.462 176 130 96
0.520019 -0.401733 -0.46 171 125 89
0.533751 -0.40086 -0.459 166 121 82
0.534626 -0.40086 -0.459 165 120 81
0.548986 -0.404353 -0.463 150 109 77
0.553129 -0.4061 -0.465 147 106 76
-0.32049 -0.468252 -0.535 225 226 218
-0.319471 -0.468252 -0.535 225 226 218
-0.309281 -0.468252 -0.535 225 226 218
-0.306224 -0.468252 -0.535 226 227 219
-0.30011 -0.468252 -0.535 226 227 219
-0.295566 -0.469128 -0.536 226 227 219
-0.290461 -0.469128 -0.536 226 227 219
-0.275147 -0.469128 -0.536 227 228 222
-0.265462 -0.468252 -0.535 227 228 222
-0.252686 -0.469128 -0.536 227 228 220
-0.243951 -0.470003 -0.537 228 229 223
-0.240883 -0.470003 -0.537 228 229 223
-0.238837 -0.470003 -0.537 228 229 221
-0.234746 -0.470003 -0.537 228 229 221
-0.210197 -0.470003 -0.537 228 229 221
-0.198575 -0.469128 -0.536 229 230 222
-0.197554 -0.469128 -0.536 229 230 222
-0.194491 -0.469128 -0.536 229 230 222
-0.190763 -0.470003 -0.537 229 230 222
-0.187694 -0.470003 -0.537 229 230 222
-0.18258 -0.470003 -0.537 229 231 220
-0.178489 -0.470003 -0.537 229 231 220
-0.167237 -0.470003 -0.537 229 230 222
-0.164169 -0.470003 -0.537 230 231 223
-0.147053 -0.470878 -0.538 230 231 223
-0.138855 -0.470878 -0.538 232 233 225
-0.13783 -0.470878 -0.538 232 233 225
-0.128608 -0.470878 -0.538 231 232 224
-0.127583 -0.470878 -0.538 232 233 225
-0.122459 -0.470878 -0.538 230 231 223
-0.119385 -0.470878 -0.538 231 232 224
-0.110162 -0.470878 -0.538 231 234 225
-0.109137 -0.470878 -0.538 230 233 224
-0.079419 -0.470878 -0.538 233 233 225
0.0198619 -0.42449 -0.485 198 155 121
0.0235086 -0.423615 -0.484 197 152 119
0.0281762 -0.42449 -0.485 191 146 113
0.0393429 -0.425366 -0.486 183 140 108
0.0450819 -0.427116 -0.488 168 124 97
0.0511781 -0.431492 -0.493 151 109 87
0.0543238 -0.434118 -0.496 142 99 80
0.0766457 -0.460375 -0.526 89 74 67
0.444529 -0.485757 -0.555 170 168 171
0.4477 -0.485757 -0.555 163 161 164
0.449814 -0.485757 -0.555 160 158 161
0.454043 -0.485757 -0.555 147 145 150
0.460156 -0.486632 -0.556 139 137 138
0.470092 -0.489258 -0.559 118 116 119
0.498595 -0.426241 -0.487 156 119 93
0.503916 -0.413112 -0.472 177 132 99
0.514819 -0.40611 -0.464 181 135 102
0.515473 -0.405235 -0.463 183 137 103
0.517 -0.40436 -0.462 174 128 94
0.534626 -0.401734 -0.459 167 122 83
0.549868 -0.405235 -0.463 148 107 75
0.557869 -0.407861 -0.466 144 103 75
-0.319891 -0.468394 -0.534 225 226 218
-0.312338 -0.469271 -0.535 226 227 219
-0.3103 -0.469271 -0.535 226 227 219
-0.30011 -0.469271 -0.535 226 227 219
-0.281272 -0.470149 -0.536 226 227 221
-0.269538 -0.469271 -0.535 226 227 221
-0.255271 -0.469271 -0.535 227 228 222
-0.248602 -0.470149 -0.536 227 228 222
-0.23986 -0.471026 -0.537 228 229 221
-0.223494 -0.471026 -0.537 227 228 220
-0.215931 -0.470149 -0.536 227 229 218
-0.19245 -0.470149 -0.536 228 229 221
-0.176114 -0.470149 -0.536 230 232 221
-0.162842 -0.470149 -0.536 230 231 223
-0.157009 -0.471026 -0.537 231 233 222
-0.150871 -0.471026 -0.537 231 233 222
-0.149849 -0.471026 -0.537 231 233 222
-0.14678 -0.471026 -0.537 230 231 223
-0.129391 -0.471026 -0.537 231 232 224
-0.126323 -0.471026 -0.537 232 233 225
-0.0988895 -0.471903 -0.538 233 235 224
-0.0937657 -0.471903 -0.538 231 233 222
-0.0865924 -0.471903 -0.538 234 234 226
-0.0855676 -0.471903 -0.538 234 234 226
-0.00768571 -0.471903 -0.538 227 217 208
0.0134229 -0.426291 -0.486 195 152 120
0.0207429 -0.424537 -0.484 200 157 123
0.0272524 -0.425414 -0.485 192 148 113
0.0432229 -0.428046 -0.488 172 128 99
0.0441524 -0.428046 -0.488 168 124 97
0.05538 -0.43594 -0.497 139 96 79
0.0586886 -0.439449 -0.501 133 95 82
0.0631295 -0.443834 -0.506 117 87 77
0.0740743 -0.457869 -0.522 91 73 73
0.426844 -0.485937 -0.554 170 169 174
0.431843 -0.486814 -0.555 160 159 164
0.4329 -0.486814 -0.555 158 156 161
0.438186 -0.486814 -0.555 150 148 153
0.446389 -0.487691 -0.556 132 127 131
0.452743 -0.487691 -0.556 116 111 117
0.454861 -0.487691 -0.556 110 105 111
0.459923 -0.488569 -0.557 102 97 104
0.463106 -0.488569 -0.557 91 89 92
0.469867 -0.4912 -0.56 81 79 84
0.545807 -0.516637 -0.589 53 50 57
0.53743 -0.496463 -0.566 43 42 48
0.537557 -0.495586 -0.565 41 40 48
0.52038 -0.465763 -0.531 110 98 98
0.497704 -0.420151 -0.479 165 124 94
0.49912 -0.41752 -0.476 173 129 100
0.500634 -0.415766 -0.474 174 131 99
0.510343 -0.410503 -0.468 176 131 98
0.515473 -0.406117 -0.463 179 133 99
0.517 -0.40524 -0.462 173 127 93
0.529685 -0.400854 -0.457 167 123 86
0.533461 -0.401731 -0.458 165 121 84
-0.311319 -0.47029 -0.535 225 226 218
-0.308262 -0.47029 -0.535 225 226 218
-0.299549 -0.469411 -0.534 226 227 219
-0.242476 -0.47117 -0.536 228 229 221
-0.233288 -0.47117 -0.536 227 228 220
-0.229204 -0.47117 -0.536 226 228 217
-0.178156 -0.47117 -0.536 230 232 221
-0.17203 -0.47117 -0.536 228 230 219
-0.140643 -0.472049 -0.537 231 232 224
-0.126323 -0.472049 -0.537 232 233 225
-0.0997286 -0.472049 -0.537 231 233 222
0.018899 -0.425459 -0.484 199 155 120
0.0216648 -0.425459 -0.484 199 154 121
0.0755 -0.4615 -0.525 86 74 74
0.403629 -0.486992 -0.554 181 181 181
0.429729 -0.487871 -0.555 128 127 132
0.451435 -0.48963 -0.557 79 77 82
0.459686 -0.490509 -0.558 66 63 70
0.460749 -0.490509 -0.558 64 61 68
0.464769 -0.491388 -0.559 64 62 67
0.52038 -0.466774 -0.531 108 96 96
0.510142 -0.410515 -0.467 178 133 100
0.5115 -0.408757 -0.465 181 135 102
0.514157 -0.408757 -0.465 177 131 97
0.519763 -0.403483 -0.459 172 126 90
0.52185 -0.401725 -0.457 168 122 86
0.5428 -0.404362 -0.46 157 113 74
0.545736 -0.405241 -0.461 150 110 75
0.54868 -0.40612 -0.462 149 108 78
-0.32396 -0.470429 -0.534 226 227 219
-0.321926 -0.470429 -0.534 225 227 216
-0.319891 -0.470429 -0.534 225 227 216
-0.292429 -0.470429 -0.534 226 228 217
-0.281767 -0.47131 -0.535 227 228 222
-0.278189 -0.470429 -0.534 225 226 218
-0.273103 -0.470429 -0.534 226 227 221
-0.261914 -0.470429 -0.534 226 227 221
-0.258863 -0.470429 -0.534 227 228 222
-0.255811 -0.470429 -0.534 227 228 222
-0.251743 -0.470429 -0.534 226 227 219
-0.250726 -0.470429 -0.534 226 227 219
-0.242476 -0.47219 -0.536 227 228 220
-0.241455 -0.47219 -0.536 228 229 221
-0.23635 -0.47219 -0.536 228 229 221
-0.226141 -0.47219 -0.536 228 229 221
-0.217973 -0.47219 -0.536 228 229 221
-0.205338 -0.47131 -0.535 229 230 222
-0.19245 -0.47219 -0.536 229 230 222
-0.163557 -0.47131 -0.535 231 232 224
-0.161519 -0.47131 -0.535 231 232 224
-0.15059 -0.47219 -0.536 230 232 221
-0.1253 -0.473071 -0.537 232 233 225
-0.102797 -0.473071 -0.537 231 232 224
-0.0946143 -0.473071 -0.537 232 233 225
-0.0884771 -0.473071 -0.537 231 232 224
-0.08234 -0.473071 -0.537 232 232 224
-0.0782486 -0.473071 -0.537 232 232 224
-0.0485857 -0.473071 -0.537 234 235 227
0.00149143 -0.459857 -0.522 189 145 116
0.00246667 -0.456333 -0.518 190 147 115
0.00790095 -0.429905 -0.488 194 147 117
0.0115476 -0.427262 -0.485 196 151 118
0.0281181 -0.426381 -0.484 193 149 114
0.0299619 -0.426381 -0.484 191 147 112
0.0554914 -0.438714 -0.498 139 97 81
0.0586886 -0.441357 -0.501 132 94 83
0.0691571 -0.45369 -0.515 98 77 74
0.0796962 -0.469548 -0.533 88 69 71
0.444009 -0.49069 -0.557 69 66 73
0.453309 -0.491571 -0.558 58 55 62
0.548177 -0.523286 -0.594 26 24 35
0.522303 -0.470429 -0.534 81 71 72
0.51455 -0.458976 -0.521 119 99 88
0.503217 -0.438714 -0.498 141 110 89
0.502071 -0.436071 -0.495 142 112 88
0.498486 -0.421095 -0.478 164 123 93
0.503916 -0.41581 -0.472 180 135 104
0.511031 -0.411405 -0.467 178 134 99
0.518889 -0.404357 -0.459 172 126 90
0.535206 -0.403476 -0.458 165 119 85
0.553395 -0.407881 -0.463 140 104 72
-0.30972 -0.471446 -0.534 225 226 218
-0.293446 -0.471446 -0.534 227 229 218
-0.291411 -0.471446 -0.534 226 228 217
-0.277171 -0.471446 -0.534 225 226 220
-0.274622 -0.470563 -0.533 225 226 220
-0.26853 -0.470563 -0.533 227 228 222
-0.250726 -0.471446 -0.534 227 228 220
-0.238967 -0.472329 -0.535 228 229 221
-0.21349 -0.472329 -0.535 227 229 218
-0.211452 -0.472329 -0.535 227 228 220
-0.200243 -0.472329 -0.535 229 230 222
-0.197186 -0.472329 -0.535 229 230 222
-0.191071 -0.472329 -0.535 228 229 221
-0.176805 -0.472329 -0.535 229 231 220
-0.174767 -0.472329 -0.535 228 229 221
-0.161519 -0.472329 -0.535 230 231 223
-0.15059 -0.473211 -0.536 229 231 220
-0.132213 -0.473211 -0.536 230 231 223
-0.130171 -0.473211 -0.536 231 232 224
-0.123025 -0.473211 -0.536 230 231 223
-0.11792 -0.473211 -0.536 231 234 225
-0.110773 -0.473211 -0.536 232 233 225
-0.0944381 -0.473211 -0.536 231 232 224
-0.00253333 -0.46968 -0.532 190 146 117
-0.00151143 -0.467031 -0.529 189 146 114
0.02346 -0.42642 -0.483 196 152 115
0.0364152 -0.427303 -0.484 187 142 109
0.0544333 -0.43878 -0.497 139 97 83
0.0586886 -0.442311 -0.501 131 93 84
0.059881 -0.444077 -0.503 127 89 80
0.0692914 -0.455554 -0.516 97 76 73
0.401909 -0.490869 -0.556 129 127 132
0.402968 -0.490869 -0.556 127 125 130
0.406145 -0.490869 -0.556 116 115 121
0.408263 -0.490869 -0.556 110 110 112
0.4181 -0.489986 -0.555 81 79 84
0.427033 -0.491751 -0.557 73 68 74
0.449862 -0.493517 -0.559 55 54 60
0.450927 -0.493517 -0.559 55 54 60
0.465363 -0.495283 -0.561 55 52 59
0.501998 -0.436131 -0.494 143 111 90
0.50082 -0.433483 -0.491 149 114 94
0.498395 -0.428186 -0.485 157 117 92
0.49795 -0.424654 -0.481 162 120 95
0.50138 -0.417591 -0.473 171 126 95
0.506073 -0.41406 -0.469 177 132 99
0.51436 -0.40788 -0.462 177 131 95
0.520375 -0.404349 -0.458 172 126 90
0.532296 -0.403466 -0.457 164 118 84
0.536078 -0.404349 -0.458 163 117 81
0.543676 -0.406114 -0.46 156 112 73
0.549249 -0.406997 -0.461 146 102 73
0.55132 -0.40788 -0.462 143 99 70
0.555159 -0.408763 -0.463 141 100 72
0.55572 -0.40788 -0.462 138 98 72
-0.322338 -0.471578 -0.533 225 227 216
-0.315231 -0.471578 -0.533 225 227 216
-0.314216 -0.471578 -0.533 224 226 215
-0.313201 -0.471578 -0.533 225 227 216
-0.312186 -0.471578 -0.533 225 226 218
-0.298531 -0.472463 -0.534 226 227 219
-0.283274 -0.472463 -0.534 227 228 220
-0.270561 -0.471578 -0.533 227 228 220
-0.247674 -0.472463 -0.534 227 228 220
-0.222246 -0.472463 -0.534 227 228 220
-0.220211 -0.472463 -0.534 227 228 220
-0.212074 -0.472463 -0.534 228 230 219
-0.186995 -0.473348 -0.535 229 231 220
-0.175786 -0.473348 -0.535 228 230 219
-0.173748 -0.473348 -0.535 228 229 221
-0.171389 -0.472463 -0.534 229 230 222
-0.154386 -0.473348 -0.535 230 232 221
-0.153367 -0.473348 -0.535 230 232 221
-0.134005 -0.473348 -0.535 231 233 222
-0.12789 -0.473348 -0.535 231 232 224
-0.121776 -0.473348 -0.535 231 232 224
-0.119738 -0.473348 -0.535 229 230 222
-0.10771 -0.474232 -0.536 232 234 223
-0.0995429 -0.474232 -0.536 231 232 224
-0.095459 -0.474232 -0.536 231 233 222
-0.0923962 -0.474232 -0.536 231 232 224
-0.0821867 -0.474232 -0.536 231 231 223
-0.07504 -0.474232 -0.536 233 233 225
-0.0495162 -0.474232 -0.536 232 232 222
-0.0158248 -0.474232 -0.536 232 232 222
0.00241905 -0.449459 -0.508 189 144 113
0.0106019 -0.428225 -0.484 197 152 119
0.0207 -0.42734 -0.483 197 153 118
0.0501371 -0.435303 -0.492 149 106 90
0.0621657 -0.44769 -0.506 120 86 77
0.380728 -0.491928 -0.556 150 149 155
0.383534 -0.492812 -0.557 147 146 152
0.386717 -0.492812 -0.557 137 136 142
0.446668 -0.494582 -0.559 63 62 70
0.506443 -0.446805 -0.505 128 105 89
0.498067 -0.426455 -0.482 160 118 93
0.498486 -0.422916 -0.478 168 124 95
0.50138 -0.418492 -0.473 171 126 95
0.502281 -0.418492 -0.473 170 125 94
0.50856 -0.414069 -0.468 176 130 97
0.511712 -0.412299 -0.466 181 135 101
0.516266 -0.406106 -0.459 171 125 89
0.539568 -0.405221 -0.458 160 116 77
0.550127 -0.407875 -0.461 144 101 69
0.555395 -0.407875 -0.461 136 96 70
-0.301018 -0.472593 -0.533 226 228 217
-0.298988 -0.472593 -0.533 226 228 217
-0.276652 -0.472593 -0.533 226 227 219
-0.268027 -0.471707 -0.532 226 227 219
-0.2314 -0.47348 -0.534 228 229 221
-0.229366 -0.47348 -0.534 227 228 220
-0.221229 -0.47348 -0.534 227 228 220
-0.199869 -0.47348 -0.534 228 230 219
-0.196817 -0.47348 -0.534 228 229 221
-0.193766 -0.47348 -0.534 228 229 221
-0.190714 -0.47348 -0.534 228 229 221
-0.175457 -0.47348 -0.534 229 231 220
-0.169354 -0.47348 -0.534 229 230 222
-0.16732 -0.47348 -0.534 230 231 223
-0.164269 -0.47348 -0.534 231 232 224
-0.154386 -0.474367 -0.535 230 232 221
-0.141138 -0.474367 -0.535 231 233 222
-0.12891 -0.474367 -0.535 230 231 223
-0.1177 -0.474367 -0.535 231 233 222
-0.111586 -0.474367 -0.535 231 233 222
-0.103433 -0.474367 -0.535 230 233 222
-0.095459 -0.475253 -0.536 231 233 222
-0.0913752 -0.475253 -0.536 232 232 222
-0.0861095 -0.474367 -0.535 232 232 222
-0.0850905 -0.474367 -0.535 231 231 221
-0.0678933 -0.475253 -0.536 233 233 223
-0.0454324 -0.475253 -0.536 232 234 223
-0.0148038 -0.475253 -0.536 233 230 223
0.00785238 -0.430033 -0.485 191 146 113
0.0253 -0.42826 -0.483 196 152 115
0.02714 -0.42826 -0.483 194 150 113
0.0373371 -0.429147 -0.484 182 136 102
0.0565533 -0.442447 -0.499 132 94 85
0.0644733 -0.451313 -0.509 112 83 77
0.0706829 -0.46018 -0.519 90 75 72
0.345394 -0.48944 -0.552 188 186 189
0.370803 -0.493873 -0.557 144 142 145
0.381412 -0.493873 -0.557 115 112 119
0.401249 -0.49742 -0.561 75 73 78
0.403386 -0.49742 -0.561 70 68 73
0.4272 -0.496533 -0.56 66 63 70
0.465452 -0.500967 -0.565 57 58 63
0.471667 -0.501853 -0.566 56 55 61
0.508543 -0.4522 -0.51 128 102 87
0.499523 -0.431807 -0.487 152 117 95
0.49926 -0.42294 -0.477 169 125 96
0.510614 -0.4123 -0.465 180 134 100
0.5115 -0.4123 -0.465 178 132 98
0.515391 -0.40698 -0.459 171 125 91
0.550127 -0.408753 -0.461 143 102 72
0.55386 -0.40698 -0.459 136 99 72
-0.31768 -0.47272 -0.532 225 227 216
-0.316667 -0.47272 -0.532 226 228 217
-0.3116 -0.47272 -0.532 226 227 219
-0.291333 -0.47272 -0.532 226 228 217
-0.271067 -0.47272 -0.532 226 227 219
-0.26904 -0.47272 -0.532 225 226 218
-0.248773 -0.47272 -0.532 227 228 220
-0.242134 -0.473609 -0.533 226 228 217
-0.226314 -0.474497 -0.534 227 228 220
-0.222845 -0.473609 -0.533 227 228 220
-0.203555 -0.473609 -0.533 229 230 222
-0.176474 -0.474497 -0.534 229 231 220
-0.173423 -0.474497 -0.534 229 231 220
-0.1602 -0.474497 -0.534 230 232 221
-0.141891 -0.474497 -0.534 230 232 221
-0.132737 -0.474497 -0.534 230 231 223
-0.120531 -0.474497 -0.534 232 234 223
-0.111586 -0.475386 -0.535 231 233 222
-0.110567 -0.475386 -0.535 231 233 222
-0.0799952 -0.475386 -0.535 230 232 221
-0.0188524 -0.475386 -0.535 229 232 225
-0.0178333 -0.475386 -0.535 232 231 226
-0.00762857 -0.474497 -0.534 184 159 128
-0.00352667 -0.470054 -0.529 190 149 117
0.00511238 -0.433623 -0.488 194 149 116
0.0179029 -0.428291 -0.482 197 153 118
0.0336495 -0.430069 -0.484 186 140 106
0.03542 -0.42918 -0.483 183 137 103
0.061081 -0.448729 -0.505 119 86 79
0.329623 -0.490491 -0.552 189 189 191
0.335931 -0.490491 -0.552 182 182 184
0.336983 -0.490491 -0.552 182 182 184
0.341807 -0.49138 -0.553 175 175 177
0.367467 -0.4976 -0.56 121 119 122
0.3696 -0.4976 -0.56 114 114 116
0.373466 -0.498489 -0.561 106 106 108
0.378809 -0.498489 -0.561 90 87 94
0.379877 -0.498489 -0.561 87 84 91
0.415948 -0.502043 -0.565 65 66 70
0.42262 -0.498489 -0.561 64 63 69
0.427655 -0.499377 -0.562 61 60 66
0.43914 -0.500266 -0.563 61 62 67
0.443143 -0.501154 -0.564 60 61 66
0.472251 -0.504709 -0.568 30 28 39
0.50434 -0.445174 -0.501 131 105 88
0.503153 -0.44162 -0.497 134 107 90
0.498985 -0.428291 -0.482 159 118 90
0.498743 -0.426514 -0.48 163 122 94
0.505362 -0.417629 -0.47 173 128 97
0.50518 -0.41674 -0.469 174 129 98
0.507669 -0.415851 -0.468 172 127 94
0.51172 -0.41052 -0.462 174 128 94
0.534606 -0.405189 -0.456 160 114 78
0.53839 -0.406077 -0.457 164 120 81
0.545117 -0.407854 -0.459 154 111 79
0.551005 -0.409631 -0.461 142 106 74
-0.297413 -0.473733 -0.532 225 227 216
-0.2964 -0.473733 -0.532 225 227 216
-0.288293 -0.473733 -0.532 226 228 217
-0.28782 -0.474624 -0.533 225 227 216
-0.235028 -0.474624 -0.533 226 227 219
-0.228936 -0.474624 -0.533 227 228 220
-0.224875 -0.474624 -0.533 226 227 219
-0.222845 -0.474624 -0.533 227 229 218
-0.215333 -0.473733 -0.532 228 230 219
-0.213307 -0.473733 -0.532 227 229 218
-0.209647 -0.474624 -0.533 228 229 221
-0.208631 -0.474624 -0.533 228 229 221
-0.205586 -0.474624 -0.533 229 230 222
-0.20254 -0.474624 -0.533 228 229 221
-0.18122 -0.474624 -0.533 228 230 219
-0.17919 -0.474624 -0.533 229 231 220
-0.171068 -0.474624 -0.533 229 231 220
-0.164976 -0.474624 -0.533 229 230 222
-0.160915 -0.474624 -0.533 229 231 220
-0.1599 -0.474624 -0.533 229 231 220
-0.146977 -0.475514 -0.534 229 231 220
-0.130703 -0.475514 -0.534 232 234 223
-0.127651 -0.475514 -0.534 232 234 223
-0.115446 -0.475514 -0.534 230 233 222
-0.108529 -0.476405 -0.535 231 233 222
-0.102223 -0.475514 -0.534 231 232 224
-0.0687857 -0.476405 -0.535 232 233 225
-0.0606333 -0.476405 -0.535 231 234 225
-0.0443286 -0.476405 -0.535 233 233 223
-0.0371952 -0.476405 -0.535 233 233 223
-0.033119 -0.476405 -0.535 232 232 224
-0.0219095 -0.476405 -0.535 233 232 227
-0.0208905 -0.476405 -0.535 232 231 226
-0.0178333 -0.476405 -0.535 235 232 227
0.00235714 -0.440786 -0.495 193 150 116
0.00782 -0.4301 -0.483 195 150 117
0.00964 -0.42921 -0.482 197 151 117
0.018821 -0.42921 -0.482 196 152 117
0.0215752 -0.42921 -0.482 195 149 113
0.0280019 -0.42921 -0.482 192 146 112
0.039181 -0.43099 -0.484 171 124 94
0.04212 -0.432771 -0.486 166 118 96
0.31853 -0.490652 -0.551 185 185 187
0.338204 -0.493324 -0.554 151 151 151
0.359357 -0.497776 -0.559 102 99 106
0.370508 -0.501338 -0.563 81 80 85
0.383263 -0.50401 -0.566 70 69 75
0.428103 -0.502229 -0.564 61 60 66
0.501998 -0.439895 -0.494 136 107 89
0.500634 -0.422086 -0.474 168 124 97
0.500479 -0.421195 -0.473 172 127 98
0.507473 -0.415852 -0.467 167 122 89
0.509252 -0.415852 -0.467 169 124 91
0.509729 -0.414071 -0.465 178 133 100
0.519567 -0.405167 -0.455 169 123 89
0.533433 -0.405167 -0.455 161 115 79
0.551562 -0.409619 -0.46 140 101 72
0.555067 -0.409619 -0.46 136 95 65
-0.286267 -0.474747 -0.532 225 227 216
-0.246747 -0.474747 -0.532 226 227 219
-0.240667 -0.474747 -0.532 227 229 218
-0.237058 -0.475639 -0.533 228 229 221
-0.226906 -0.475639 -0.533 226 227 219
-0.219387 -0.474747 -0.532 228 230 219
-0.201147 -0.474747 -0.532 229 231 220
-0.199494 -0.475639 -0.533 229 231 220
-0.194418 -0.475639 -0.533 229 231 220
-0.191372 -0.475639 -0.533 229 231 220
-0.173098 -0.475639 -0.533 229 230 222
-0.167007 -0.475639 -0.533 229 230 222
-0.155839 -0.475639 -0.533 229 230 222
-0.141626 -0.475639 -0.533 230 232 221
-0.118275 -0.475639 -0.533 230 231 223
-0.11726 -0.475639 -0.533 230 231 223
-0.114214 -0.475639 -0.533 230 233 222
-0.108326 -0.476531 -0.534 231 233 222
-0.07476 -0.476531 -0.534 231 232 224
-0.0452629 -0.476531 -0.534 232 232 222
-0.0208514 -0.476531 -0.534 232 231 226
-0.00964476 -0.475639 -0.533 194 167 140
-0.00147143 -0.459576 -0.515 191 151 116
0.0169495 -0.429235 -0.481 197 153 118
0.0243295 -0.430128 -0.482 197 153 118
0.0298381 -0.430128 -0.482 189 143 110
0.0589229 -0.448868 -0.503 120 86 77
0.070819 -0.464038 -0.52 83 69 68
0.0735 -0.4685 -0.525 81 70 68
0.300689 -0.491702 -0.551 188 188 190
0.301738 -0.491702 -0.551 190 188 193
0.311749 -0.492594 -0.552 173 172 177
0.3128 -0.492594 -0.552 172 171 176
0.327186 -0.495271 -0.555 146 144 149
0.334586 -0.495271 -0.555 123 121 126
0.343218 -0.497056 -0.557 102 100 105
0.349149 -0.497949 -0.558 89 87 92
0.352969 -0.498841 -0.559 80 77 84
0.502281 -0.422096 -0.473 172 127 96
0.507473 -0.416742 -0.467 166 121 88
0.509729 -0.414957 -0.465 178 132 99
0.521019 -0.405141 -0.454 170 124 90
0.529967 -0.406033 -0.455 167 121 87
0.55419 -0.410495 -0.46 136 100 74
-0.301467 -0.47576 -0.532 226 228 217
-0.297866 -0.474866 -0.531 225 226 218
-0.290786 -0.474866 -0.531 225 227 216
-0.285253 -0.47576 -0.532 226 227 219
-0.260443 -0.474866 -0.531 226 227 221
-0.259431 -0.474866 -0.531 228 229 223
-0.257409 -0.474866 -0.531 227 228 222
-0.255386 -0.474866 -0.531 227 228 222
-0.248306 -0.474866 -0.531 227 228 220
-0.231547 -0.47576 -0.532 227 228 222
-0.213307 -0.47576 -0.532 228 230 219
-0.21128 -0.47576 -0.532 227 229 218
-0.200133 -0.47576 -0.532 229 231 220
-0.198107 -0.47576 -0.532 229 231 220
-0.187973 -0.47576 -0.532 229 231 220
-0.184933 -0.47576 -0.532 229 231 220
-0.18122 -0.476654 -0.533 228 230 219
-0.160915 -0.476654 -0.533 229 230 222
-0.140347 -0.47576 -0.532 231 233 222
-0.127412 -0.476654 -0.533 230 231 223
-0.122336 -0.476654 -0.533 231 232 224
-0.0949248 -0.476654 -0.533 230 231 223
-0.0878181 -0.476654 -0.533 231 231 223
-0.0847724 -0.476654 -0.533 231 231 223
-0.0798457 -0.477549 -0.534 231 233 222
-0.0788286 -0.477549 -0.534 231 233 222
-0.03204 -0.477549 -0.534 232 232 224
-0.00245714 -0.461451 -0.516 189 149 114
0.00506 -0.43194 -0.483 195 152 117
0.016 -0.429257 -0.48 198 154 115
0.0307562 -0.431046 -0.482 188 142 106
0.03358 -0.43194 -0.483 184 138 104
0.038259 -0.432834 -0.484 174 129 98
0.0401857 -0.433729 -0.485 170 122 99
0.0566667 -0.447143 -0.5 124 90 81
0.0589229 -0.449826 -0.503 120 87 80
0.0612019 -0.452509 -0.506 112 82 74
0.305993 -0.49454 -0.553 163 162 168
0.3145 -0.496329 -0.555 141 140 146
0.316614 -0.496329 -0.555 136 135 141
0.317671 -0.496329 -0.555 132 131 137
0.319303 -0.497223 -0.556 128 127 133
0.321421 -0.497223 -0.556 123 121 126
0.326243 -0.498117 -0.557 109 107 112
0.328954 -0.499011 -0.558 101 99 104
0.34844 -0.502589 -0.562 72 69 76
0.34951 -0.502589 -0.562 71 68 75
0.355681 -0.505271 -0.565 68 65 74
0.357833 -0.505271 -0.565 68 65 74
0.416587 -0.522263 -0.584 59 58 66
0.432329 -0.510637 -0.571 21 19 30
0.434829 -0.509743 -0.57 15 13 24
0.519428 -0.473077 -0.529 68 58 56
0.501998 -0.441777 -0.494 140 109 89
0.50184 -0.439989 -0.492 142 110 89
0.4991 -0.43194 -0.483 152 116 92
0.498829 -0.423891 -0.474 168 124 95
0.503017 -0.422103 -0.472 172 127 96
0.504994 -0.418526 -0.468 174 129 98
0.520154 -0.406006 -0.454 171 127 90
0.533126 -0.406006 -0.454 163 117 83
0.540686 -0.407794 -0.456 157 112 79
0.550363 -0.410477 -0.459 139 104 76
0.55386 -0.410477 -0.459 136 100 76
-0.270557 -0.475877 -0.531 226 227 221
-0.254905 -0.474981 -0.53 227 228 222
-0.250867 -0.474981 -0.53 227 228 220
-0.247294 -0.475877 -0.531 227 228 220
-0.243249 -0.475877 -0.531 227 228 220
-0.232123 -0.475877 -0.531 227 228 220
-0.228507 -0.476773 -0.532 227 228 220
-0.195067 -0.476773 -0.532 228 230 219
-0.191013 -0.476773 -0.532 228 229 221
-0.19 -0.476773 -0.532 228 229 221
-0.187973 -0.476773 -0.532 228 230 219
-0.18392 -0.476773 -0.532 229 231 220
-0.166693 -0.476773 -0.532 229 230 222
-0.163653 -0.476773 -0.532 229 230 222
-0.16264 -0.476773 -0.532 229 230 222
-0.125382 -0.47767 -0.533 232 233 225
-0.108123 -0.47767 -0.533 230 231 223
-0.0989857 -0.47767 -0.533 231 232 224
-0.0979705 -0.47767 -0.533 231 232 224
-0.09594 -0.47767 -0.533 229 230 222
-0.0868029 -0.47767 -0.533 232 232 224
-0.0715743 -0.47767 -0.533 231 234 225
-0.0482238 -0.47767 -0.533 233 233 223
-0.0137057 -0.47767 -0.533 221 213 202
0.0492 -0.440926 -0.492 145 102 86
0.0578495 -0.449888 -0.502 120 87 78
0.060119 -0.452576 -0.505 113 83 75
0.0612019 -0.453472 -0.506 110 81 75
0.0636286 -0.457057 -0.51 103 78 71
0.0648533 -0.45885 -0.512 101 76 69
0.0696943 -0.465123 -0.519 87 69 65
0.285476 -0.492905 -0.55 177 175 180
0.308157 -0.497386 -0.555 126 125 131
0.312949 -0.498282 -0.556 112 109 116
0.323155 -0.50097 -0.559 85 83 88
0.329654 -0.502763 -0.561 79 76 83
0.334524 -0.503659 -0.562 73 70 77
0.35154 -0.50814 -0.567 66 65 73
0.357115 -0.509932 -0.569 66 65 73
0.517484 -0.471396 -0.526 96 88 86
0.501921 -0.441822 -0.493 141 110 90
0.50184 -0.440926 -0.492 143 111 90
0.499731 -0.424794 -0.474 170 126 99
0.500479 -0.423898 -0.473 171 126 97
0.504287 -0.420313 -0.469 173 128 95
0.513396 -0.410455 -0.458 175 129 95
0.515497 -0.408663 -0.456 172 126 90
0.519567 -0.407767 -0.455 173 127 93
0.520154 -0.40687 -0.454 172 128 91
0.543612 -0.409559 -0.457 152 107 74
0.552111 -0.411351 -0.459 137 103 78
0.552986 -0.411351 -0.459 136 102 77
0.553526 -0.410455 -0.458 136 100 76
0.552846 -0.408663 -0.456 136 99 73
-0.315889 -0.475092 -0.529 224 225 217
-0.314881 -0.475092 -0.529 224 225 217
-0.31085 -0.475092 -0.529 223 224 216
-0.304371 -0.47599 -0.53 225 226 218
-0.3009 -0.476889 -0.531 226 227 219
-0.291248 -0.47599 -0.53 225 227 216
-0.257447 -0.475092 -0.529 226 227 221
-0.252886 -0.47599 -0.53 226 227 219
-0.238191 -0.476889 -0.531 227 228 220
-0.22344 -0.477787 -0.532 227 229 218
-0.213514 -0.47599 -0.53 228 229 221
-0.202791 -0.476889 -0.531 227 229 218
-0.20178 -0.476889 -0.531 228 230 219
-0.188631 -0.476889 -0.531 228 229 221
-0.18762 -0.476889 -0.531 228 230 219
-0.172773 -0.477787 -0.532 229 231 220
-0.170747 -0.477787 -0.532 229 231 220
-0.154533 -0.477787 -0.532 230 232 221
-0.147163 -0.476889 -0.531 229 231 220
-0.139071 -0.476889 -0.531 230 232 221
-0.128428 -0.478685 -0.533 230 231 225
-0.106907 -0.477787 -0.532 230 231 223
-0.08968 -0.477787 -0.532 230 231 223
-0.0827419 -0.478685 -0.533 232 232 222
-0.0817267 -0.478685 -0.533 231 231 221
-0.0715743 -0.478685 -0.533 233 234 226
-0.057361 -0.478685 -0.533 230 232 221
-0.0543152 -0.478685 -0.533 232 232 222
-0.0248733 -0.478685 -0.533 232 231 226
-0.00960857 -0.476889 -0.531 183 147 115
-0.00858095 -0.47599 -0.53 184 148 116
0.0178286 -0.431086 -0.48 196 152 115
0.0261657 -0.432882 -0.482 186 140 106
0.0316743 -0.432882 -0.482 188 142 109
0.060119 -0.453538 -0.505 110 81 75
0.276048 -0.493952 -0.55 170 168 171
0.284946 -0.49485 -0.551 148 147 152
0.288617 -0.495749 -0.552 138 137 142
0.2997 -0.498443 -0.555 110 109 114
0.302358 -0.499341 -0.556 103 102 107
0.307146 -0.500239 -0.557 91 88 95
0.322174 -0.503831 -0.561 72 69 76
0.348445 -0.511016 -0.569 65 64 70
0.5064 -0.45264 -0.504 128 98 87
0.502849 -0.423003 -0.471 174 128 95
0.505694 -0.41941 -0.467 174 129 96
0.507473 -0.41941 -0.467 174 130 95
0.508162 -0.418512 -0.466 176 130 96
0.508632 -0.416716 -0.464 178 132 98
0.51149 -0.414022 -0.461 175 129 95
0.512369 -0.414022 -0.461 179 133 99
0.521597 -0.406837 -0.453 172 128 91
0.523323 -0.406837 -0.453 171 125 89
0.525911 -0.406837 -0.453 167 123 86
0.529667 -0.407735 -0.454 167 123 86
0.542423 -0.409531 -0.456 151 108 73
-0.30639 -0.477 -0.53 226 227 219
-0.302352 -0.477 -0.53 226 227 219
-0.284717 -0.4779 -0.531 227 228 222
-0.257447 -0.4761 -0.529 227 228 222
-0.248848 -0.477 -0.53 226 227 221
-0.246829 -0.477 -0.53 226 227 219
-0.241781 -0.477 -0.53 227 228 220
-0.240771 -0.477 -0.53 226 227 219
-0.235157 -0.4779 -0.531 228 229 221
-0.227066 -0.4779 -0.531 227 228 220
-0.209476 -0.477 -0.53 227 228 220
-0.192677 -0.4779 -0.531 228 230 219
-0.181893 -0.4788 -0.532 228 229 221
-0.167391 -0.4779 -0.531 229 231 220
-0.151209 -0.4779 -0.531 230 231 223
-0.130213 -0.4788 -0.532 229 230 224
-0.124133 -0.4788 -0.532 230 231 223
-0.0998133 -0.4788 -0.532 229 230 222
-0.0846133 -0.4788 -0.532 232 232 224
-0.0815733 -0.4788 -0.532 230 232 221
-0.04408 -0.4788 -0.532 233 233 223
-0.0157067 -0.4788 -0.532 225 222 215
-0.00239048 -0.4518 -0.502 189 149 113
0.0298381 -0.4338 -0.482 186 140 107
0.038259 -0.4356 -0.484 172 127 96
0.0577343 -0.4509 -0.501 114 85 77
0.0670648 -0.4626 -0.514 95 76 70
0.0747838 -0.4743 -0.527 81 67 64
0.261951 -0.4941 -0.549 179 177 182
0.262997 -0.4941 -0.549 178 176 181
0.28282 -0.4977 -0.553 125 123 124
0.287552 -0.4986 -0.554 112 110 115
0.313671 -0.5067 -0.563 80 79 87
0.32562 -0.5103 -0.567 76 73 82
0.328936 -0.5121 -0.569 76 74 79
0.517484 -0.4734 -0.526 62 64 63
0.507446 -0.4554 -0.506 126 98 86
0.503086 -0.4464 -0.496 135 104 84
0.501921 -0.4437 -0.493 142 109 90
0.50184 -0.4428 -0.492 144 109 89
0.4991 -0.4347 -0.483 150 113 87
0.499578 -0.4257 -0.473 163 122 92
0.499421 -0.4248 -0.472 164 123 93
0.504994 -0.4212 -0.468 172 127 96
0.516366 -0.4104 -0.456 172 126 90
0.532261 -0.4086 -0.454 166 121 82
0.534855 -0.4086 -0.454 163 119 82
-0.278124 -0.478009 -0.53 226 227 219
-0.255954 -0.476206 -0.528 227 228 222
-0.254949 -0.476206 -0.528 227 228 222
-0.251401 -0.477108 -0.529 226 227 221
-0.24481 -0.478009 -0.53 227 228 220
-0.2438 -0.478009 -0.53 227 228 220
-0.237743 -0.478009 -0.53 227 228 220
-0.229667 -0.478009 -0.53 227 228 220
-0.228657 -0.478009 -0.53 226 227 219
-0.226638 -0.478009 -0.53 227 228 220
-0.225043 -0.478911 -0.531 227 228 220
-0.181551 -0.478911 -0.531 229 231 220
-0.162029 -0.478009 -0.53 229 230 222
-0.149186 -0.478911 -0.531 229 230 222
-0.127946 -0.478911 -0.531 230 231 223
-0.126934 -0.478911 -0.531 230 231 225
-0.111763 -0.478911 -0.531 229 232 225
-0.100827 -0.479813 -0.532 229 230 222
-0.0986143 -0.478911 -0.531 231 232 224
-0.0815733 -0.479813 -0.532 231 232 224
-0.0763629 -0.478911 -0.531 230 232 221
-0.0694133 -0.479813 -0.532 231 232 224
-0.0633333 -0.479813 -0.532 231 232 224
-0.0602933 -0.479813 -0.532 231 231 221
-0.0582667 -0.479813 -0.532 231 231 221
-0.0511733 -0.479813 -0.532 231 231 221
-0.0309067 -0.479813 -0.532 232 232 222
-0.0136543 -0.478911 -0.531 201 182 165
-0.00853238 -0.475304 -0.527 188 147 115
-0.00645048 -0.469892 -0.521 192 149 115
0.0159667 -0.432012 -0.479 194 150 113
0.0205714 -0.432914 -0.48 195 149 113
0.0280019 -0.434718 -0.482 188 144 109
0.0401029 -0.436522 -0.484 166 121 90
0.0501371 -0.443737 -0.492 139 97 83
0.263955 -0.49695 -0.551 147 145 150
0.269127 -0.498753 -0.553 129 128 133
0.323567 -0.514988 -0.571 75 74 80
0.330733 -0.517693 -0.574 72 71 79
0.41839 -0.551064 -0.611 11 11 21
0.517484 -0.474402 -0.526 44 45 50
0.498976 -0.428405 -0.475 160 120 94
0.499731 -0.427503 -0.474 163 122 94
0.508632 -0.418484 -0.464 175 129 96
0.51149 -0.415778 -0.461 175 129 96
0.527637 -0.408563 -0.453 166 121 80
0.53399 -0.409465 -0.454 165 120 81
0.534855 -0.409465 -0.454 164 119 80
0.540367 -0.410367 -0.455 159 115 76
0.549706 -0.41217 -0.457 141 101 75
0.554058 -0.41217 -0.457 141 100 72
-0.309843 -0.478115 -0.529 223 224 218
-0.308835 -0.478115 -0.529 224 225 219
-0.299767 -0.478115 -0.529 224 226 215
-0.298759 -0.478115 -0.529 225 227 216
-0.296744 -0.478115 -0.529 226 228 217
-0.295736 -0.478115 -0.529 225 226 218
-0.287675 -0.478115 -0.529 226 227 219
-0.28519 -0.479019 -0.53 226 227 219
-0.282162 -0.479019 -0.53 226 227 219
-0.257966 -0.477211 -0.528 227 228 222
-0.25696 -0.477211 -0.528 227 228 222
-0.24737 -0.478115 -0.529 226 227 219
-0.244348 -0.478115 -0.529 227 228 220
-0.238302 -0.478115 -0.529 228 229 221
-0.227648 -0.479019 -0.53 227 228 220
-0.2226 -0.479019 -0.53 227 228 220
-0.183229 -0.479019 -0.53 229 231 220
-0.166067 -0.479019 -0.53 229 231 220
-0.147895 -0.479019 -0.53 230 231 223
-0.145876 -0.479019 -0.53 230 231 223
-0.111763 -0.479923 -0.531 229 232 225
-0.107717 -0.479923 -0.531 230 231 223
-0.104683 -0.479923 -0.531 230 231 225
-0.10266 -0.479923 -0.531 229 230 224
-0.101649 -0.479923 -0.531 228 229 223
-0.09558 -0.479923 -0.531 232 232 224
-0.0945686 -0.479923 -0.531 232 232 224
-0.04712 -0.480827 -0.532 233 233 223
-0.02478 -0.479923 -0.531 232 232 224
0.00138 -0.43654 -0.483 197 154 122
0.0104705 -0.432021 -0.478 194 150 115
0.0325924 -0.435636 -0.482 183 139 104
0.0344286 -0.435636 -0.482 180 135 102
0.0439714 -0.439251 -0.486 156 111 88
0.053379 -0.44829 -0.496 130 92 81
0.0544333 -0.449193 -0.497 127 89 78
0.0612019 -0.457328 -0.506 105 77 73
0.237467 -0.495288 -0.548 178 176 179
0.242083 -0.496191 -0.549 166 164 169
0.24881 -0.497095 -0.55 154 153 158
0.275882 -0.502518 -0.556 84 82 87
0.276941 -0.502518 -0.556 83 81 86
0.281683 -0.503422 -0.557 81 79 84
0.283251 -0.504326 -0.558 80 78 83
0.30618 -0.51246 -0.567 77 76 84
0.317596 -0.516979 -0.572 74 74 82
0.4368 -0.563977 -0.624 11 11 19
0.515542 -0.470885 -0.521 100 86 77
0.498866 -0.434732 -0.481 150 114 90
0.501054 -0.425694 -0.471 167 122 93
0.50996 -0.41756 -0.462 169 123 90
0.513396 -0.413945 -0.458 174 128 94
0.514016 -0.413041 -0.457 176 130 96
0.51756 -0.41033 -0.454 175 129 93
0.521307 -0.408522 -0.452 169 125 86
-0.319314 -0.478217 -0.528 223 224 216
-0.305812 -0.479123 -0.529 223 224 216
-0.288683 -0.479123 -0.529 226 227 219
-0.278607 -0.479123 -0.529 226 228 217
-0.261989 -0.478217 -0.528 226 227 221
-0.252937 -0.478217 -0.528 226 227 221
-0.221172 -0.479123 -0.529 228 229 221
-0.214119 -0.479123 -0.529 227 228 220
-0.210089 -0.479123 -0.529 227 228 220
-0.208073 -0.479123 -0.529 228 229 221
-0.173133 -0.480029 -0.53 229 231 220
-0.169095 -0.480029 -0.53 228 230 219
-0.162029 -0.480029 -0.53 228 229 221
-0.144867 -0.480029 -0.53 229 230 222
-0.134014 -0.480934 -0.531 229 230 222
-0.131991 -0.480934 -0.531 229 230 222
-0.129969 -0.480934 -0.531 229 230 222
-0.1166 -0.480029 -0.53 229 230 224
-0.106706 -0.480934 -0.531 229 230 222
-0.0986143 -0.480934 -0.531 230 231 223
-0.0923714 -0.480029 -0.53 232 232 222
-0.0804086 -0.480934 -0.531 231 231 221
-0.0723171 -0.480934 -0.531 233 233 223
-0.0692829 -0.480934 -0.531 232 232 224
-0.0591686 -0.480934 -0.531 230 230 220
-0.0399514 -0.480934 -0.531 231 231 221
-0.0257914 -0.480934 -0.531 232 232 224
-0.0156771 -0.480934 -0.531 206 192 181
0.00137429 -0.435649 -0.481 197 154 122
0.0059181 -0.432931 -0.478 197 152 119
0.0159667 -0.433837 -0.479 196 152 117
0.0251952 -0.435649 -0.481 189 143 109
0.0261114 -0.435649 -0.481 187 143 108
0.0430457 -0.440177 -0.486 155 110 89
0.0522229 -0.447423 -0.494 131 93 80
0.0556029 -0.451951 -0.499 121 84 76
0.0578495 -0.454669 -0.502 109 81 77
0.0589229 -0.455574 -0.503 107 79 75
0.0648533 -0.463726 -0.512 94 73 70
0.229116 -0.496331 -0.548 168 163 169
0.234763 -0.497237 -0.549 155 153 156
0.27156 -0.505389 -0.558 83 82 88
0.285282 -0.509011 -0.562 80 78 83
0.287934 -0.509917 -0.563 79 77 82
0.290594 -0.510823 -0.564 74 71 78
0.294338 -0.511729 -0.565 75 72 79
0.29754 -0.51354 -0.567 74 73 79
0.299147 -0.514446 -0.568 74 73 79
0.377496 -0.549769 -0.607 13 13 21
0.379276 -0.550674 -0.608 13 13 21
0.38106 -0.55158 -0.609 14 14 22
0.394186 -0.557014 -0.615 13 13 23
0.426103 -0.565166 -0.624 12 12 20
0.47502 -0.57694 -0.637 10 10 18
0.504166 -0.451046 -0.498 132 103 85
0.5041 -0.45014 -0.497 133 104 86
0.50184 -0.445611 -0.492 136 107 89
0.500349 -0.440177 -0.486 144 112 91
0.503571 -0.425686 -0.47 169 122 94
0.518146 -0.410289 -0.453 174 130 93
0.52475 -0.409383 -0.452 165 121 82
0.545567 -0.4121 -0.455 149 105 76
0.549371 -0.413006 -0.456 145 101 74
0.551797 -0.410289 -0.453 129 98 70
-0.308671 -0.478315 -0.527 223 224 216
-0.302217 -0.479223 -0.528 224 225 217
-0.262994 -0.479223 -0.528 226 227 221
-0.239863 -0.479223 -0.528 226 227 219
-0.213714 -0.479223 -0.528 227 228 220
-0.19699 -0.48013 -0.529 229 230 222
-0.195982 -0.48013 -0.529 228 229 221
-0.189936 -0.48013 -0.529 228 230 219
-0.181875 -0.48013 -0.529 229 230 222
-0.180868 -0.48013 -0.529 228 229 221
-0.167076 -0.481038 -0.53 229 231 220
-0.165057 -0.481038 -0.53 228 230 219
-0.145876 -0.481038 -0.53 230 231 223
-0.143857 -0.481038 -0.53 229 230 222
-0.13679 -0.481038 -0.53 230 231 223
-0.121648 -0.481038 -0.53 230 231 223
-0.097419 -0.481038 -0.53 230 231 223
-0.0913619 -0.481038 -0.53 231 231 221
-0.0842952 -0.481038 -0.53 232 232 222
-0.0692829 -0.481946 -0.531 232 232 224
0.000458095 -0.436565 -0.481 195 152 120
0.0113571 -0.432934 -0.477 195 150 117
0.0242286 -0.435657 -0.48 188 142 109
0.0636286 -0.462886 -0.51 93 72 67
0.215153 -0.496468 -0.547 169 167 172
0.222214 -0.498283 -0.549 157 155 160
0.23247 -0.500098 -0.551 125 123 126
0.236046 -0.501006 -0.552 113 111 114
0.24174 -0.501913 -0.553 100 99 104
0.253642 -0.504636 -0.556 86 85 91
0.265658 -0.507359 -0.559 83 82 88
0.280926 -0.511897 -0.564 78 77 83
0.307749 -0.522789 -0.576 74 73 79
0.40406 -0.565447 -0.623 9 12 19
0.437071 -0.574523 -0.633 9 12 21
0.45368 -0.577246 -0.636 8 11 18
0.45682 -0.578153 -0.637 9 12 19
0.481194 -0.582691 -0.642 9 12 19
0.516525 -0.474685 -0.523 82 80 85
0.510513 -0.463793 -0.511 117 94 80
0.5041 -0.451087 -0.497 132 103 85
0.500549 -0.442918 -0.488 142 110 89
0.50045 -0.44201 -0.487 146 111 89
0.507274 -0.42295 -0.466 174 127 99
0.5093 -0.420228 -0.463 171 124 94
0.509734 -0.418412 -0.461 168 122 89
0.532499 -0.410244 -0.452 167 122 83
0.551977 -0.413874 -0.456 143 103 77
-0.315698 -0.479319 -0.527 224 225 219
-0.31369 -0.479319 -0.527 224 225 219
-0.307668 -0.479319 -0.527 223 224 216
-0.291154 -0.480229 -0.528 225 226 220
-0.289599 -0.479319 -0.527 226 227 221
-0.265508 -0.479319 -0.527 225 226 220
-0.224777 -0.480229 -0.528 227 228 220
-0.180868 -0.481138 -0.529 228 229 221
-0.177845 -0.481138 -0.529 229 230 222
-0.176837 -0.481138 -0.529 228 231 222
-0.174822 -0.481138 -0.529 228 231 222
-0.161723 -0.481138 -0.529 229 231 220
-0.149631 -0.481138 -0.529 228 230 219
-0.148624 -0.481138 -0.529 228 230 219
-0.147616 -0.481138 -0.529 228 230 219
-0.146609 -0.481138 -0.529 228 230 219
-0.143586 -0.481138 -0.529 229 230 222
-0.13679 -0.482048 -0.53 230 231 223
-0.132752 -0.482048 -0.53 229 230 222
-0.130733 -0.482048 -0.53 229 230 222
-0.123667 -0.482048 -0.53 230 231 223
-0.121418 -0.481138 -0.529 229 230 222
-0.119403 -0.481138 -0.529 230 231 223
-0.0822762 -0.482048 -0.53 231 231 221
-0.0711714 -0.482048 -0.53 233 233 225
-0.0297248 -0.481138 -0.529 231 232 224
-0.0267524 -0.482048 -0.53 232 233 225
-0.0196857 -0.482048 -0.53 231 228 221
-0.0125476 -0.479319 -0.527 181 146 124
-0.01048 -0.47659 -0.524 182 146 114
0.00408857 -0.433843 -0.477 198 153 122
0.0353467 -0.43839 -0.482 173 129 100
0.060119 -0.45931 -0.505 105 78 69
0.0685733 -0.471133 -0.518 82 71 69
0.200933 -0.498419 -0.548 147 145 148
0.221974 -0.501148 -0.551 117 115 120
