ply
format ascii 1.0
comment Created by Open3D
element vertex 1313
property double x
property double y
property double z
property uchar red
property uchar green
property uchar blue
end_header
0.2938 -0.13988 -0.546 124 92 95
0.294796 -0.139368 -0.544 125 93 94
0.299353 -0.138599 -0.541 128 96 99
0.318277 -0.13655 -0.533 133 101 104
0.324163 -0.136037 -0.531 133 102 108
0.327197 -0.136037 -0.531 135 103 108
0.337782 -0.135012 -0.527 123 91 96
0.35148 -0.133731 -0.522 136 103 110
0.37527 -0.138855 -0.542 36 20 21
0.377691 -0.139368 -0.544 37 21 22
0.384989 -0.136806 -0.534 198 139 141
0.390805 -0.137062 -0.535 194 136 135
0.397833 -0.138087 -0.539 180 126 124
0.40849 -0.139624 -0.545 147 95 84
0.41548 -0.13988 -0.546 171 114 107
0.42172 -0.13988 -0.546 172 114 110
0.142443 -0.130854 -0.507 203 156 148
0.142843 -0.130338 -0.505 199 152 144
0.145671 -0.127757 -0.495 205 154 150
0.146961 -0.127241 -0.493 212 161 157
0.151048 -0.12595 -0.488 203 152 148
0.162044 -0.124402 -0.482 203 156 148
0.177283 -0.124144 -0.481 206 159 151
0.209026 -0.126725 -0.491 142 95 87
0.268034 -0.145566 -0.564 59 30 35
0.273662 -0.146856 -0.569 54 29 33
0.286405 -0.148405 -0.575 44 29 34
0.294933 -0.144533 -0.56 113 88 92
0.303943 -0.139371 -0.54 130 98 103
0.314806 -0.137823 -0.534 132 100 103
0.320308 -0.137565 -0.533 133 101 104
0.324773 -0.137307 -0.532 135 104 110
0.329995 -0.136532 -0.529 63 49 49
0.333767 -0.136016 -0.527 118 85 92
0.3415 -0.1355 -0.525 128 97 103
0.3575 -0.1355 -0.525 81 59 62
0.381836 -0.140404 -0.544 55 34 39
0.382497 -0.139888 -0.542 111 69 70
0.384083 -0.138597 -0.537 183 127 128
0.168121 -0.12506 -0.481 209 165 156
0.173618 -0.12506 -0.481 202 158 149
0.193139 -0.12584 -0.484 178 128 117
0.19631 -0.1261 -0.485 180 130 119
0.203101 -0.12688 -0.488 162 110 97
0.222757 -0.13078 -0.503 121 82 77
0.281642 -0.14872 -0.572 53 30 36
0.283226 -0.14898 -0.573 59 40 44
0.289187 -0.14924 -0.574 59 50 55
0.297842 -0.14092 -0.542 129 94 98
0.320308 -0.13858 -0.533 133 101 104
0.3435 -0.1365 -0.525 118 87 93
0.381512 -0.14248 -0.548 41 27 27
0.406991 -0.14118 -0.543 167 110 101
0.409813 -0.14144 -0.544 132 78 66
0.14543 -0.128595 -0.491 210 161 154
0.147 -0.128333 -0.49 203 154 147
0.148883 -0.127548 -0.487 200 151 144
0.165372 -0.125976 -0.481 205 158 148
0.170514 -0.125714 -0.48 206 162 153
0.177829 -0.125714 -0.48 198 154 143
0.184996 -0.126238 -0.482 197 153 142
0.2086 -0.128333 -0.49 142 99 90
0.233881 -0.135405 -0.517 91 55 55
0.310437 -0.140643 -0.537 133 101 104
0.31684 -0.139857 -0.534 133 101 104
0.318874 -0.139857 -0.534 132 100 103
0.32376 -0.139333 -0.532 134 105 109
0.337141 -0.137762 -0.526 117 87 95
0.344184 -0.136976 -0.523 116 87 92
0.394598 -0.140381 -0.536 190 135 130
0.40906 -0.142214 -0.543 140 85 78
0.411886 -0.142476 -0.544 138 83 76
0.421211 -0.142476 -0.544 172 117 110
0.141527 -0.131113 -0.497 200 151 144
0.143559 -0.12953 -0.491 208 161 153
0.14733 -0.128739 -0.488 203 156 148
0.179657 -0.126629 -0.48 199 155 144
0.202685 -0.128475 -0.487 158 110 98
0.216313 -0.131113 -0.497 132 87 82
0.217697 -0.131377 -0.498 126 82 79
0.218646 -0.131377 -0.498 126 82 79
0.250352 -0.142985 -0.542 44 23 28
0.262933 -0.147733 -0.56 42 17 23
0.294796 -0.143512 -0.544 121 91 93
0.305433 -0.142193 -0.539 130 98 101
0.307487 -0.142193 -0.539 130 98 101
0.314806 -0.140874 -0.534 133 101 104
0.319292 -0.14061 -0.533 132 102 104
0.322747 -0.140347 -0.532 131 100 105
0.337141 -0.138764 -0.526 116 87 92
0.34452 -0.137709 -0.522 136 107 112
0.352474 -0.137709 -0.522 137 106 112
0.359866 -0.139028 -0.527 43 23 25
0.38346 -0.142193 -0.539 139 97 98
0.393862 -0.141138 -0.535 184 129 126
0.423024 -0.143776 -0.545 172 117 112
0.428744 -0.144304 -0.547 170 112 110
0.431357 -0.144831 -0.549 164 106 104
0.432403 -0.144831 -0.549 164 106 104
0.445603 -0.14747 -0.559 166 108 106
0.172896 -0.127277 -0.479 206 162 151
0.181486 -0.127543 -0.48 207 160 152
0.19274 -0.12834 -0.483 178 126 115
0.198157 -0.128871 -0.485 168 116 105
0.209961 -0.130466 -0.491 134 94 84
0.220476 -0.132857 -0.5 124 80 77
0.228771 -0.135514 -0.51 111 76 72
0.276799 -0.151723 -0.571 53 36 42
0.282237 -0.151723 -0.571 61 46 51
0.2865 -0.152254 -0.573 53 38 43
0.287591 -0.152254 -0.573 52 37 42
0.308966 -0.142954 -0.538 131 99 102
0.336778 -0.140031 -0.527 123 92 98
0.345514 -0.138703 -0.522 126 97 102
0.350486 -0.138703 -0.522 129 100 105
0.363609 -0.141094 -0.531 34 25 26
0.38532 -0.14508 -0.546 84 55 57
0.384798 -0.142954 -0.538 170 115 120
0.420175 -0.144549 -0.544 172 117 112
0.138307 -0.135415 -0.506 202 153 146
0.140672 -0.132204 -0.494 200 151 144
0.144541 -0.130598 -0.488 203 156 148
0.153462 -0.128725 -0.481 200 156 145
0.160123 -0.12819 -0.479 208 166 154
0.200005 -0.129795 -0.485 162 114 102
0.260931 -0.149331 -0.558 37 18 24
0.295289 -0.145317 -0.543 125 93 96
0.301414 -0.144782 -0.541 128 96 99
0.307941 -0.143979 -0.538 131 99 104
0.311901 -0.143444 -0.536 132 100 103
0.318277 -0.142641 -0.533 132 101 106
0.321733 -0.142373 -0.532 131 102 106
0.352474 -0.139697 -0.522 136 107 112
0.39239 -0.142641 -0.533 184 126 125
0.405771 -0.144514 -0.54 179 124 119
0.413197 -0.145317 -0.543 137 84 76
0.420175 -0.145585 -0.544 176 118 114
0.424062 -0.145852 -0.545 177 119 115
0.436077 -0.147458 -0.551 161 106 101
0.452811 -0.150937 -0.564 160 105 102
0.140753 -0.132336 -0.491 202 155 149
0.143317 -0.131258 -0.487 201 152 145
0.146424 -0.130719 -0.485 204 157 149
0.148272 -0.12991 -0.482 204 157 147
0.14919 -0.12991 -0.482 207 160 150
0.156473 -0.129102 -0.479 207 163 152
0.160123 -0.129102 -0.479 209 165 154
0.176546 -0.129102 -0.479 207 163 152
0.185529 -0.129641 -0.481 190 146 135
0.209533 -0.132067 -0.49 134 94 86
0.220035 -0.134492 -0.499 129 84 81
0.24702 -0.144734 -0.537 45 30 33
0.260931 -0.150394 -0.558 26 13 20
0.279571 -0.153629 -0.57 41 26 33
0.292537 -0.154168 -0.572 46 31 38
0.294819 -0.15309 -0.568 52 35 41
0.293323 -0.147969 -0.549 117 85 90
0.294796 -0.146621 -0.544 122 90 93
0.295289 -0.146351 -0.543 123 91 94
0.308966 -0.145004 -0.538 132 100 105
0.327197 -0.143117 -0.531 131 102 106
0.328988 -0.142578 -0.529 130 101 106
0.332389 -0.142309 -0.528 130 105 109
0.349814 -0.140422 -0.521 130 103 110
0.386129 -0.144734 -0.537 179 120 122
0.38643 -0.144465 -0.536 185 125 124
0.4163 -0.146351 -0.543 157 102 95
0.423284 -0.146621 -0.544 176 118 116
0.139166 -0.133543 -0.492 203 156 148
0.192341 -0.130829 -0.482 175 122 114
0.239956 -0.142771 -0.526 57 35 38
0.269327 -0.154443 -0.569 54 37 43
0.293686 -0.154714 -0.57 44 29 34
0.2943 -0.1539 -0.567 57 40 46
0.300384 -0.146843 -0.541 127 95 98
0.30646 -0.1463 -0.539 130 98 103
0.312922 -0.145486 -0.536 132 102 104
0.319707 -0.1444 -0.532 131 102 106
0.323151 -0.144129 -0.531 133 104 108
0.335774 -0.143043 -0.527 125 95 103
0.3874 -0.1482 -0.546 94 65 69
0.39239 -0.144671 -0.533 194 134 134
0.426138 -0.147929 -0.545 177 122 117
0.438971 -0.149829 -0.552 162 107 104
0.137463 -0.135573 -0.496 203 156 148
0.147965 -0.131473 -0.481 207 163 152
0.152505 -0.130653 -0.478 204 160 149
0.160363 -0.13038 -0.477 207 160 152
0.16728 -0.130107 -0.476 211 164 156
0.174356 -0.130653 -0.478 201 157 148
0.175267 -0.130653 -0.478 204 160 151
0.17837 -0.130927 -0.479 205 161 150
0.200929 -0.132567 -0.485 157 109 97
0.20412 -0.13284 -0.486 149 100 93
0.266829 -0.154707 -0.566 53 33 42
0.2926 -0.1558 -0.57 44 29 34
0.294796 -0.148693 -0.544 122 90 93
0.301414 -0.147873 -0.541 129 97 100
0.316247 -0.145687 -0.533 131 102 106
0.321129 -0.14514 -0.531 131 102 106
0.32214 -0.14514 -0.531 132 103 107
0.326581 -0.144867 -0.53 139 110 114
0.330377 -0.14432 -0.528 131 100 106
0.333767 -0.144047 -0.527 135 105 113
0.33477 -0.144047 -0.527 122 92 100
0.337855 -0.143227 -0.524 134 105 110
0.343526 -0.14268 -0.522 134 105 110
0.390606 -0.15088 -0.552 85 69 72
0.414501 -0.148147 -0.542 147 89 85
0.429786 -0.149513 -0.547 173 118 115
0.432659 -0.149787 -0.548 173 118 115
0.13557 -0.138445 -0.503 205 158 150
0.1446 -0.132665 -0.482 201 157 144
0.150684 -0.131564 -0.478 205 161 150
0.158213 -0.131013 -0.476 210 163 153
0.166373 -0.131013 -0.476 211 164 156
0.16728 -0.131013 -0.476 210 163 155
0.168187 -0.131013 -0.476 209 162 154
0.179283 -0.131839 -0.479 193 149 138
0.181108 -0.131839 -0.479 196 152 141
0.191942 -0.13239 -0.481 170 117 109
0.232976 -0.141748 -0.515 75 50 53
0.276314 -0.156886 -0.57 40 21 27
0.293867 -0.154133 -0.56 107 77 85
0.319292 -0.146702 -0.533 130 101 105
0.321129 -0.146151 -0.531 132 103 107
0.335137 -0.144775 -0.526 124 94 102
0.337855 -0.144225 -0.524 136 106 114
0.339851 -0.144225 -0.524 134 104 112
0.341195 -0.14395 -0.523 134 105 110
0.342191 -0.14395 -0.523 134 105 110
0.354146 -0.14395 -0.523 106 83 89
0.389151 -0.150555 -0.547 86 61 65
0.390359 -0.146702 -0.533 193 133 132
0.42432 -0.14973 -0.544 178 123 118
0.134451 -0.140234 -0.506 210 163 153
0.141512 -0.134137 -0.484 197 158 143
0.1443 -0.133306 -0.481 196 157 140
0.152773 -0.13192 -0.476 208 166 154
0.157307 -0.13192 -0.476 210 163 153
0.17 -0.13192 -0.476 203 159 150
0.179283 -0.132751 -0.479 201 154 144
0.20412 -0.134691 -0.486 147 100 94
0.213633 -0.136631 -0.493 128 89 84
0.243249 -0.147163 -0.531 39 23 33
0.254631 -0.152151 -0.549 54 41 50
0.295832 -0.150766 -0.544 121 91 91
0.298391 -0.150489 -0.543 125 95 97
0.299907 -0.150211 -0.542 126 95 100
0.302445 -0.149934 -0.541 126 95 100
0.314376 -0.148271 -0.535 133 100 107
0.318277 -0.147717 -0.533 132 99 106
0.325571 -0.146886 -0.53 140 109 117
0.335137 -0.145777 -0.526 133 103 113
0.354146 -0.144946 -0.523 96 79 85
0.358862 -0.146054 -0.527 34 28 30
0.388472 -0.148549 -0.536 179 119 118
0.389786 -0.148271 -0.535 187 129 127
0.401263 -0.147994 -0.534 187 127 126
0.43187 -0.151597 -0.547 172 114 112
0.433703 -0.151874 -0.548 172 114 112
0.452276 -0.155754 -0.562 176 120 121
0.183845 -0.133664 -0.479 181 133 121
0.19918 -0.13478 -0.483 160 112 102
0.212263 -0.137291 -0.492 130 89 83
0.217768 -0.138408 -0.496 123 84 79
0.27583 -0.158778 -0.569 39 22 28
0.292277 -0.155988 -0.559 101 76 80
0.31146 -0.149849 -0.537 131 98 105
0.313357 -0.14929 -0.535 133 100 107
0.325571 -0.147895 -0.53 147 121 130
0.328988 -0.147616 -0.529 204 187 195
0.339851 -0.146221 -0.524 131 102 107
0.347503 -0.145663 -0.522 134 103 109
0.40921 -0.162685 -0.583 55 42 49
0.388897 -0.150128 -0.538 173 117 116
0.391374 -0.148732 -0.533 186 128 124
0.391653 -0.148453 -0.532 189 125 125
0.42432 -0.151802 -0.544 179 121 119
0.429252 -0.152081 -0.545 177 119 117
0.442672 -0.154592 -0.554 148 97 93
0.45954 -0.15822 -0.567 175 117 115
0.144612 -0.134576 -0.479 199 157 143
0.149147 -0.133733 -0.476 202 160 148
0.17272 -0.133733 -0.476 202 158 149
0.173627 -0.133733 -0.476 200 156 147
0.201436 -0.135981 -0.484 150 103 93
0.2037 -0.136262 -0.485 143 98 92
0.220986 -0.140195 -0.499 116 81 77
0.26838 -0.1593 -0.567 38 21 27
0.274746 -0.159862 -0.569 39 22 28
0.282332 -0.159862 -0.569 43 28 33
0.283416 -0.159862 -0.569 46 31 38
0.286086 -0.160143 -0.57 49 34 41
0.288257 -0.160143 -0.57 48 33 40
0.29106 -0.1593 -0.567 45 29 30
0.29376 -0.152838 -0.544 116 86 88
0.300384 -0.151995 -0.541 128 98 100
0.301414 -0.151995 -0.541 128 98 100
0.30646 -0.151433 -0.539 130 98 103
0.30999 -0.151152 -0.538 131 99 104
0.333394 -0.148343 -0.528 117 88 93
0.347503 -0.146657 -0.522 127 98 103
0.410614 -0.164357 -0.585 52 39 46
0.42432 -0.152838 -0.544 175 120 117
0.464957 -0.160424 -0.571 168 113 108
0.13448 -0.139166 -0.492 202 158 147
0.135523 -0.138317 -0.489 204 160 149
0.152452 -0.134357 -0.475 201 161 151
0.156071 -0.134357 -0.475 208 165 156
0.156976 -0.134357 -0.475 208 165 156
0.157549 -0.134074 -0.474 206 163 156
0.162063 -0.134074 -0.474 206 166 158
0.16748 -0.134074 -0.474 198 159 152
0.213633 -0.139449 -0.493 126 87 82
0.217768 -0.140297 -0.496 120 82 79
0.27859 -0.160663 -0.568 43 26 32
0.290193 -0.155854 -0.551 110 81 85
0.297842 -0.153309 -0.542 123 93 95
0.300384 -0.153026 -0.541 127 97 99
0.315823 -0.151046 -0.534 130 99 105
0.3375 -0.1485 -0.525 121 96 102
0.343188 -0.147934 -0.523 135 105 113
0.412432 -0.165754 -0.586 48 35 42
0.408296 -0.163209 -0.577 68 53 58
0.394473 -0.15642 -0.553 77 47 49
0.389493 -0.151611 -0.536 177 121 120
0.390074 -0.151046 -0.534 188 128 127
0.434747 -0.155006 -0.548 165 112 108
0.132875 -0.140388 -0.493 202 158 147
0.133933 -0.139533 -0.49 200 156 145
0.134969 -0.138679 -0.487 200 156 145
0.138173 -0.137255 -0.482 203 159 148
0.147929 -0.135262 -0.475 199 156 147
0.156646 -0.134977 -0.474 207 164 155
0.173627 -0.135547 -0.476 200 158 146
0.191144 -0.136401 -0.479 164 116 106
0.204624 -0.13811 -0.485 138 93 87
0.208678 -0.138964 -0.488 132 89 82
0.215443 -0.140957 -0.495 122 83 78
0.219594 -0.141811 -0.498 115 77 74
0.250352 -0.154341 -0.542 49 36 45
0.25754 -0.157473 -0.553 45 28 36
0.279672 -0.161745 -0.568 42 25 31
0.288257 -0.162314 -0.57 48 33 40
0.288835 -0.16203 -0.569 49 34 41
0.289919 -0.16203 -0.569 46 31 38
0.29106 -0.16146 -0.567 45 30 33
0.29172 -0.15548 -0.546 113 81 84
0.303943 -0.153771 -0.54 129 97 102
0.307487 -0.153487 -0.539 130 98 103
0.310437 -0.152917 -0.537 130 99 105
0.339851 -0.149215 -0.524 130 100 108
0.360224 -0.150639 -0.529 32 26 28
0.389786 -0.152348 -0.535 182 120 121
0.414767 -0.154056 -0.541 140 87 83
0.432911 -0.155765 -0.547 167 112 109
0.434747 -0.15605 -0.548 164 111 107
0.454417 -0.160036 -0.562 168 118 117
0.135338 -0.139033 -0.485 196 152 141
0.147929 -0.136167 -0.475 201 158 149
0.194286 -0.1376 -0.48 163 113 106
0.213633 -0.141327 -0.493 125 86 81
0.221429 -0.143333 -0.5 111 76 72
0.29017 -0.159673 -0.557 96 74 77
0.289669 -0.15824 -0.552 106 79 84
0.297842 -0.155373 -0.542 124 94 96
0.31088 -0.153653 -0.536 131 100 105
0.317262 -0.152793 -0.533 131 100 105
0.318277 -0.152793 -0.533 132 101 107
0.395974 -0.15222 -0.531 182 122 121
0.405071 -0.153367 -0.535 151 96 93
0.456298 -0.161393 -0.563 169 117 119
0.147617 -0.136783 -0.474 204 161 154
0.149423 -0.136783 -0.474 203 158 152
0.164424 -0.136494 -0.473 203 163 153
0.171091 -0.136783 -0.474 200 158 146
0.180351 -0.137649 -0.477 184 138 123
0.186192 -0.137937 -0.478 174 124 115
0.191144 -0.138226 -0.479 161 111 102
0.194286 -0.138514 -0.48 163 113 106
0.20102 -0.13938 -0.483 148 98 91
0.207323 -0.140534 -0.487 134 91 84
0.213633 -0.142266 -0.493 125 86 81
0.227426 -0.146306 -0.507 102 67 63
0.26946 -0.16362 -0.567 36 19 25
0.27054 -0.16362 -0.567 39 22 30
0.27486 -0.16362 -0.567 69 52 58
0.27702 -0.16362 -0.567 65 50 55
0.282918 -0.163909 -0.568 61 46 53
0.289144 -0.159003 -0.551 104 77 82
0.289667 -0.158714 -0.55 107 80 85
0.290701 -0.158137 -0.548 108 77 82
0.299907 -0.156406 -0.542 126 95 100
0.301886 -0.155829 -0.54 126 95 100
0.309414 -0.154963 -0.537 131 98 105
0.317262 -0.153809 -0.533 131 100 105
0.326581 -0.152943 -0.53 236 215 224
0.331383 -0.152366 -0.528 121 96 100
0.341848 -0.151211 -0.524 120 95 101
0.34452 -0.150634 -0.522 125 98 103
0.348497 -0.150634 -0.522 135 104 112
0.351157 -0.150923 -0.523 138 105 112
0.397672 -0.160446 -0.556 73 44 46
0.391091 -0.154097 -0.534 187 118 121
0.402542 -0.153809 -0.533 149 94 91
0.429252 -0.157271 -0.545 166 113 109
0.166226 -0.137395 -0.473 200 160 150
0.174167 -0.137976 -0.475 196 152 139
0.204624 -0.140881 -0.485 134 91 84
0.216823 -0.144076 -0.496 116 81 75
0.25324 -0.1586 -0.546 39 23 33
0.28914 -0.159471 -0.549 109 82 87
0.290701 -0.159181 -0.548 109 78 83
0.306916 -0.156276 -0.538 130 97 104
0.310437 -0.155986 -0.537 130 99 104
0.320117 -0.154243 -0.531 131 100 106
0.364646 -0.155114 -0.534 30 21 24
0.418767 -0.172833 -0.595 45 32 39
0.420326 -0.172543 -0.594 61 48 57
0.392198 -0.158019 -0.544 133 89 88
0.408631 -0.155986 -0.537 145 94 90
0.429252 -0.15831 -0.545 169 115 113
0.43029 -0.15831 -0.545 169 115 113
0.440275 -0.160052 -0.551 151 102 98
0.442927 -0.160633 -0.553 150 99 98
0.444783 -0.160924 -0.554 148 97 96
0.447448 -0.161505 -0.556 151 100 99
0.463596 -0.16499 -0.568 164 113 109
0.129643 -0.144729 -0.495 206 159 151
0.158682 -0.138004 -0.472 208 165 156
0.197439 -0.140635 -0.481 145 96 89
0.215443 -0.144729 -0.495 119 82 76
0.268034 -0.164903 -0.564 44 29 34
0.28911 -0.162856 -0.557 92 72 74
0.288617 -0.161394 -0.552 102 77 81
0.29017 -0.159932 -0.547 110 81 85
0.304407 -0.157593 -0.539 129 97 102
0.311901 -0.156716 -0.536 131 100 106
0.332389 -0.154377 -0.528 119 90 95
0.332763 -0.154085 -0.527 117 88 93
0.342846 -0.153208 -0.524 124 99 105
0.351157 -0.152915 -0.523 133 111 114
0.362267 -0.155547 -0.532 31 22 25
0.423864 -0.175136 -0.599 57 46 54
0.421457 -0.173674 -0.594 65 50 55
0.393405 -0.155839 -0.533 180 120 120
0.414 -0.157886 -0.54 139 90 86
0.423284 -0.159055 -0.544 156 105 101
0.428465 -0.159055 -0.544 170 116 114
0.429501 -0.159055 -0.544 170 116 114
0.135771 -0.141257 -0.48 201 157 146
0.144909 -0.139491 -0.474 207 164 155
0.158346 -0.138609 -0.471 205 160 154
0.186711 -0.140374 -0.477 168 120 108
0.199686 -0.141846 -0.482 141 93 89
0.205971 -0.143023 -0.486 138 93 87
0.21726 -0.14626 -0.497 114 79 75
0.219594 -0.146554 -0.498 112 77 73
0.24279 -0.155971 -0.53 48 28 30
0.264 -0.1648 -0.56 67 48 50
0.2835 -0.16686 -0.567 54 37 43
0.288446 -0.165977 -0.564 66 53 60
0.288619 -0.161857 -0.55 101 79 82
0.291688 -0.160091 -0.544 111 82 86
0.29681 -0.159503 -0.542 122 90 95
0.298874 -0.159503 -0.542 124 92 95
0.302914 -0.158914 -0.54 128 96 101
0.311901 -0.157737 -0.536 131 100 105
0.322543 -0.155971 -0.53 130 103 108
0.331003 -0.155677 -0.529 124 99 103
0.333767 -0.155089 -0.527 124 97 102
0.341195 -0.153911 -0.523 131 104 109
0.394361 -0.160974 -0.547 120 78 79
0.40787 -0.157737 -0.536 130 77 73
0.411442 -0.158326 -0.538 137 86 82
0.129119 -0.146022 -0.493 204 160 151
0.137027 -0.141579 -0.478 196 152 143
0.158346 -0.139506 -0.471 204 159 153
0.182693 -0.140987 -0.476 171 124 106
0.191655 -0.141579 -0.478 149 100 93
0.193881 -0.141875 -0.479 150 103 95
0.268154 -0.166459 -0.562 96 67 69
0.272921 -0.166755 -0.563 97 68 72
0.28566 -0.16794 -0.567 53 37 40
0.288493 -0.166459 -0.562 61 42 46
0.288566 -0.165274 -0.558 109 89 91
0.291186 -0.161424 -0.545 109 80 84
0.297842 -0.160535 -0.542 122 90 93
0.301886 -0.159943 -0.54 127 95 100
0.30646 -0.159647 -0.539 130 98 103
0.315823 -0.158166 -0.534 132 101 106
0.323151 -0.157277 -0.531 134 105 110
0.330619 -0.156981 -0.53 130 101 106
0.333394 -0.156389 -0.528 133 106 111
0.335774 -0.156092 -0.527 127 100 107
0.34085 -0.155204 -0.524 130 103 108
0.34452 -0.154611 -0.522 114 87 94
0.3545 -0.1555 -0.525 95 72 80
0.427663 -0.179491 -0.606 44 35 40
0.430414 -0.179195 -0.605 65 50 57
0.39442 -0.15787 -0.533 170 110 109
0.408891 -0.158758 -0.536 137 86 82
0.42354 -0.160831 -0.543 157 108 104
0.446643 -0.164386 -0.555 147 97 100
0.451991 -0.16557 -0.559 153 103 102
0.456558 -0.166459 -0.562 155 105 106
0.140394 -0.141297 -0.474 205 160 154
0.144297 -0.140701 -0.472 206 162 153
0.145196 -0.140701 -0.472 206 162 153
0.147893 -0.140701 -0.472 205 160 154
0.157449 -0.140403 -0.471 205 160 154
0.18762 -0.142191 -0.477 163 114 100
0.20194 -0.14398 -0.483 135 90 84
0.207323 -0.145172 -0.487 130 87 81
0.210467 -0.146067 -0.49 123 84 79
0.215443 -0.147557 -0.495 115 77 74
0.221871 -0.149346 -0.501 104 69 67
0.223715 -0.149942 -0.503 102 67 65
0.227874 -0.151432 -0.508 96 62 61
0.252312 -0.162164 -0.544 80 54 55
0.26412 -0.166337 -0.558 98 68 70
0.270883 -0.167231 -0.561 105 73 74
0.274577 -0.16753 -0.562 100 70 70
0.288018 -0.166635 -0.559 94 73 78
0.288087 -0.163058 -0.547 99 74 78
0.28964 -0.16276 -0.546 104 79 83
0.297842 -0.161568 -0.542 121 90 95
0.315823 -0.159183 -0.534 130 101 105
0.317857 -0.159183 -0.534 132 103 108
0.33477 -0.157096 -0.527 131 101 109
0.349165 -0.155904 -0.523 133 106 113
0.433063 -0.182434 -0.612 61 50 58
0.405331 -0.159183 -0.534 139 86 82
0.428711 -0.161866 -0.543 160 111 107
0.453867 -0.166933 -0.56 154 104 105
0.129137 -0.1458 -0.486 199 155 144
0.131473 -0.1443 -0.481 200 156 147
0.135547 -0.1428 -0.476 203 159 150
0.138589 -0.1422 -0.474 202 158 149
0.156551 -0.1413 -0.471 208 163 157
0.158346 -0.1413 -0.471 205 160 154
0.168571 -0.1416 -0.472 193 149 136
0.17869 -0.1425 -0.475 179 132 116
0.20194 -0.1449 -0.483 136 91 85
0.226013 -0.1518 -0.506 94 62 63
0.228323 -0.1527 -0.509 92 60 61
0.251849 -0.1629 -0.543 88 59 61
0.27302 -0.1683 -0.561 109 75 74
0.279851 -0.1692 -0.564 88 59 61
0.288071 -0.1665 -0.555 95 70 74
0.298874 -0.1626 -0.542 122 92 94
0.333767 -0.1581 -0.527 112 82 90
0.33477 -0.1581 -0.527 122 92 100
0.338853 -0.1572 -0.524 129 102 107
0.398747 -0.1596 -0.532 142 89 85
0.40711 -0.1605 -0.535 133 82 79
0.424574 -0.1629 -0.543 160 109 106
0.442374 -0.1653 -0.551 147 99 97
0.460331 -0.1692 -0.564 155 100 105
0.12926 -0.14582 -0.483 198 156 144
0.12991 -0.145518 -0.482 199 155 144
0.133733 -0.143707 -0.476 203 159 150
0.138903 -0.142499 -0.472 207 163 154
0.142499 -0.142499 -0.472 203 160 151
0.144889 -0.142197 -0.471 209 166 157
0.145786 -0.142197 -0.471 209 166 157
0.158905 -0.141895 -0.47 204 160 151
0.160695 -0.141895 -0.47 205 161 152
0.181405 -0.143405 -0.475 171 122 105
0.214067 -0.149141 -0.494 112 77 73
0.24279 -0.16001 -0.53 84 55 57
0.265291 -0.167859 -0.556 113 77 79
0.269917 -0.168765 -0.559 114 80 79
0.270982 -0.168765 -0.559 114 80 79
0.272533 -0.169067 -0.56 109 75 76
0.274089 -0.169369 -0.561 104 70 71
0.28674 -0.17118 -0.567 67 48 52
0.287312 -0.170878 -0.566 63 44 48
0.287531 -0.167859 -0.556 97 71 74
0.287049 -0.165746 -0.549 100 74 77
0.292724 -0.164236 -0.544 114 84 86
0.301886 -0.163029 -0.54 125 95 97
0.321733 -0.160613 -0.532 130 101 106
0.333767 -0.159104 -0.527 111 81 89
0.344184 -0.157896 -0.523 135 105 113
0.349165 -0.157896 -0.523 138 108 116
0.394881 -0.161519 -0.535 169 114 111
0.39516 -0.161217 -0.534 164 109 106
0.41426 -0.162727 -0.539 137 86 82
0.433405 -0.164538 -0.545 160 109 106
0.457629 -0.16967 -0.562 158 99 105
0.127948 -0.147348 -0.485 199 155 144
0.132197 -0.144917 -0.477 204 160 149
0.145786 -0.143094 -0.471 208 165 156
0.146683 -0.143094 -0.471 208 166 154
0.198355 -0.146132 -0.481 135 91 88
0.199271 -0.146132 -0.481 131 87 84
0.200604 -0.146436 -0.482 130 86 83
0.251385 -0.164665 -0.542 105 75 77
0.265871 -0.168614 -0.555 114 78 80
0.272047 -0.16983 -0.559 112 77 81
0.275157 -0.170437 -0.561 98 68 70
0.276718 -0.170741 -0.562 91 61 63
0.287423 -0.170741 -0.562 85 69 72
0.300857 -0.164057 -0.54 125 95 97
0.319292 -0.16193 -0.533 130 101 105
0.320308 -0.16193 -0.533 130 101 105
0.333394 -0.160411 -0.528 132 102 110
0.339851 -0.159196 -0.524 134 105 110
0.416057 -0.164057 -0.54 133 80 76
0.423792 -0.164665 -0.542 160 107 103
0.437079 -0.166184 -0.547 158 105 101
0.132548 -0.145214 -0.475 205 161 150
0.143094 -0.143991 -0.471 208 164 155
0.153533 -0.143686 -0.47 207 163 152
0.171803 -0.143991 -0.471 178 131 115
0.177938 -0.144603 -0.473 172 122 111
0.226907 -0.155303 -0.508 90 59 57
0.231995 -0.157443 -0.515 87 57 59
0.253349 -0.166309 -0.544 113 78 82
0.280926 -0.172423 -0.564 75 50 53
0.2825 -0.172729 -0.565 80 55 58
0.292724 -0.166309 -0.544 113 84 86
0.29376 -0.166309 -0.544 115 86 88
0.297357 -0.166003 -0.543 119 89 91
0.299353 -0.165391 -0.541 122 92 94
0.305433 -0.16478 -0.539 128 97 102
0.341848 -0.160194 -0.524 135 106 111
0.440366 -0.190766 -0.624 57 50 58
0.396919 -0.163557 -0.535 167 107 106
0.397194 -0.163251 -0.534 165 105 104
0.124854 -0.151041 -0.491 201 159 147
0.12595 -0.150118 -0.488 199 157 145
0.127809 -0.147965 -0.481 205 161 152
0.129102 -0.14735 -0.479 200 156 147
0.147267 -0.144581 -0.47 212 165 155
0.149952 -0.144581 -0.47 210 163 155
0.150848 -0.144581 -0.47 212 165 157
0.173597 -0.144889 -0.471 175 127 113
0.175764 -0.145196 -0.472 174 126 114
0.177938 -0.145504 -0.473 166 116 107
0.184634 -0.145811 -0.474 158 111 101
0.221358 -0.154425 -0.502 98 64 65
0.2232 -0.15504 -0.504 96 64 65
0.286862 -0.17319 -0.563 82 60 63
0.291688 -0.167345 -0.544 108 82 83
0.301886 -0.166114 -0.54 124 94 96
0.307941 -0.165499 -0.538 130 99 104
0.314806 -0.164269 -0.534 131 102 107
0.347172 -0.160885 -0.523 138 108 116
0.399017 -0.169806 -0.552 133 94 99
0.395619 -0.164884 -0.536 172 110 111
0.396919 -0.164576 -0.535 167 107 107
0.398211 -0.164269 -0.534 164 104 104
0.40711 -0.164576 -0.535 144 93 90
0.438121 -0.168268 -0.547 152 98 98
0.450625 -0.171036 -0.556 151 97 97
0.147267 -0.145476 -0.47 208 165 156
0.151743 -0.145476 -0.47 207 162 156
0.153533 -0.145476 -0.47 207 163 154
0.154429 -0.145476 -0.47 207 163 154
0.161247 -0.145167 -0.469 203 159 146
0.17974 -0.146405 -0.473 167 119 109
0.192163 -0.147643 -0.477 145 100 95
0.193476 -0.147952 -0.478 143 98 93
0.232446 -0.159714 -0.516 92 58 59
0.287531 -0.172095 -0.556 94 72 74
0.287049 -0.169929 -0.549 101 76 79
0.290651 -0.168381 -0.544 109 80 82
0.301886 -0.167143 -0.54 123 94 96
0.309414 -0.166214 -0.537 129 98 103
0.311901 -0.165905 -0.536 125 96 101
0.313357 -0.165595 -0.535 133 100 107
0.333394 -0.163429 -0.528 209 198 206
0.3344 -0.163429 -0.528 224 209 216
0.335774 -0.163119 -0.527 148 127 134
0.337141 -0.16281 -0.526 138 102 112
0.348169 -0.161881 -0.523 139 110 115
0.394753 -0.166833 -0.539 175 115 114
0.39664 -0.165905 -0.536 164 111 107
0.398481 -0.164976 -0.533 157 103 101
0.399496 -0.164976 -0.533 148 94 92
0.431814 -0.168071 -0.543 158 107 104
0.123919 -0.152911 -0.491 200 156 147
0.127922 -0.148863 -0.478 201 158 149
0.144273 -0.14606 -0.469 209 165 156
0.158229 -0.145749 -0.468 202 158 147
0.178461 -0.146994 -0.472 165 117 107
0.211755 -0.153534 -0.493 111 71 72
0.2461 -0.166614 -0.535 117 81 85
0.290651 -0.169417 -0.544 107 81 84
0.31088 -0.166926 -0.536 131 98 105
0.318693 -0.16568 -0.532 128 105 111
0.335406 -0.164434 -0.528 216 203 212
0.349165 -0.162877 -0.523 136 107 112
0.397894 -0.170974 -0.549 144 100 101
0.395486 -0.168171 -0.54 175 117 115
0.39578 -0.16786 -0.539 175 117 115
0.39607 -0.167549 -0.538 170 117 113
0.39664 -0.166926 -0.536 164 111 107
0.433646 -0.169417 -0.544 155 104 101
0.43732 -0.17004 -0.546 151 102 98
0.123837 -0.152593 -0.487 199 155 146
0.12558 -0.15134 -0.483 198 153 147
0.13171 -0.147893 -0.472 204 162 150
0.145167 -0.146953 -0.469 210 166 157
0.146953 -0.146953 -0.469 207 163 152
0.1675 -0.146953 -0.469 188 142 126
0.17018 -0.146953 -0.469 181 135 120
0.183731 -0.14852 -0.474 155 108 102
0.197029 -0.1504 -0.48 132 88 85
0.2086 -0.153533 -0.49 112 72 73
0.267503 -0.173587 -0.554 105 69 73
0.286352 -0.176093 -0.562 57 53 54
0.29322 -0.17014 -0.543 112 83 87
0.294745 -0.169827 -0.542 116 87 91
0.301886 -0.1692 -0.54 124 93 98
0.307487 -0.168887 -0.539 128 96 101
0.36024 -0.166693 -0.532 36 23 30
0.397938 -0.167633 -0.535 164 111 107
0.40711 -0.167633 -0.535 145 89 90
0.419919 -0.169513 -0.541 131 80 77
0.427922 -0.169827 -0.542 164 113 110
0.134733 -0.148162 -0.47 207 165 153
0.164117 -0.147216 -0.467 194 150 137
0.166251 -0.147531 -0.468 188 145 126
0.183344 -0.149108 -0.473 152 105 99
0.187738 -0.149738 -0.475 151 103 99
0.188643 -0.149738 -0.475 150 102 98
0.220402 -0.15825 -0.502 97 61 63
0.286911 -0.176849 -0.561 73 71 74
0.28756 -0.17212 -0.546 102 82 84
0.303943 -0.170229 -0.54 128 97 103
0.318277 -0.168022 -0.533 221 200 205
0.321733 -0.167707 -0.532 132 102 112
0.32759 -0.167076 -0.53 157 137 146
0.335774 -0.16613 -0.527 124 113 121
0.342846 -0.165185 -0.524 129 107 110
0.34518 -0.16487 -0.523 134 112 115
0.357201 -0.166761 -0.529 39 26 33
0.396218 -0.170544 -0.541 174 119 114
0.399229 -0.168337 -0.534 152 101 97
0.410677 -0.169283 -0.537 140 86 86
0.423792 -0.170859 -0.542 159 108 105
0.425857 -0.170859 -0.542 164 113 110
0.46084 -0.177164 -0.562 148 100 98
0.125452 -0.151911 -0.479 203 159 148
0.130534 -0.149374 -0.471 204 160 149
0.138913 -0.14874 -0.469 205 163 151
0.1407 -0.14874 -0.469 205 163 151
0.15789 -0.148106 -0.467 195 153 141
0.165896 -0.148106 -0.467 186 143 126
0.168926 -0.148423 -0.468 181 138 121
0.198355 -0.152546 -0.481 129 85 82
0.2158 -0.157937 -0.498 101 65 67
0.22914 -0.162694 -0.513 88 54 55
0.231463 -0.163646 -0.516 86 52 53
0.250921 -0.171574 -0.541 111 75 77
0.272134 -0.176649 -0.557 72 46 47
0.279355 -0.178551 -0.563 46 27 29
0.301886 -0.171257 -0.54 124 93 99
0.30338 -0.17094 -0.539 126 95 101
0.312483 -0.170306 -0.537 125 96 101
0.312922 -0.169989 -0.536 129 100 105
0.326581 -0.168086 -0.53 118 93 99
0.3405 -0.1665 -0.525 128 106 109
0.397071 -0.172843 -0.545 164 116 112
0.399229 -0.169354 -0.534 153 104 99
0.40711 -0.169671 -0.535 140 89 88
0.425071 -0.171574 -0.541 165 116 112
0.426102 -0.171574 -0.541 165 116 112
0.44286 -0.174111 -0.549 144 96 94
0.444714 -0.174429 -0.55 147 102 99
0.462732 -0.178551 -0.563 152 106 106
0.466276 -0.179503 -0.566 151 105 105
0.124144 -0.153462 -0.481 197 157 149
0.126851 -0.151229 -0.474 203 159 148
0.135943 -0.149314 -0.468 210 166 155
0.148423 -0.149314 -0.468 208 164 153
0.157552 -0.148676 -0.466 195 153 141
0.159328 -0.148676 -0.466 196 154 140
0.181158 -0.15059 -0.472 154 105 98
0.184245 -0.15091 -0.473 151 104 98
0.194793 -0.152824 -0.479 138 93 90
0.209026 -0.156652 -0.491 111 70 74
0.219009 -0.159843 -0.501 100 64 66
0.231911 -0.164948 -0.517 84 52 55
0.244165 -0.170052 -0.533 108 72 74
0.254852 -0.173881 -0.545 109 73 77
0.277294 -0.178986 -0.561 49 30 32
0.280926 -0.179943 -0.564 49 30 32
0.283576 -0.180262 -0.565 52 37 40
0.286352 -0.179305 -0.562 70 68 69
0.312922 -0.17101 -0.536 124 97 102
0.453957 -0.205786 -0.645 75 72 79
0.397071 -0.173881 -0.545 162 119 113
0.398403 -0.171329 -0.537 155 106 101
0.401263 -0.170371 -0.534 147 98 94
0.40228 -0.170371 -0.534 145 94 91
0.410677 -0.171329 -0.537 137 86 85
0.419919 -0.172605 -0.541 136 85 82
0.13416 -0.150206 -0.468 209 167 155
0.1404 -0.150206 -0.468 208 164 153
0.142183 -0.150206 -0.468 206 164 152
0.147531 -0.150206 -0.468 212 168 159
0.18904 -0.152773 -0.476 151 104 98
0.231911 -0.165932 -0.517 83 51 56
0.287014 -0.178129 -0.555 101 86 89
0.287045 -0.176845 -0.551 92 76 77
0.287049 -0.176203 -0.549 92 76 77
0.30338 -0.172993 -0.539 127 102 106
0.308513 -0.172993 -0.539 125 98 103
0.3515 -0.1685 -0.525 128 105 111
-0.136599 -0.209534 -0.649 193 190 185
0.182057 -0.152389 -0.472 153 106 100
0.18644 -0.153034 -0.474 152 105 99
0.18904 -0.15368 -0.476 150 102 98
0.20412 -0.156909 -0.486 119 77 79
0.244165 -0.172083 -0.533 102 71 69
0.248505 -0.173697 -0.538 105 71 72
0.250921 -0.174666 -0.541 106 72 73
0.286352 -0.181446 -0.562 82 80 81
0.286988 -0.179831 -0.557 96 82 82
0.28756 -0.17628 -0.546 97 78 80
0.298323 -0.174666 -0.541 102 83 85
0.318874 -0.172406 -0.534 201 182 188
0.326186 -0.171437 -0.531 126 105 114
0.32922 -0.171437 -0.531 229 222 230
0.338143 -0.169823 -0.526 222 217 223
0.402014 -0.172729 -0.535 146 95 92
0.40609 -0.172729 -0.535 134 84 83
0.424286 -0.174343 -0.54 170 121 117
0.430224 -0.174666 -0.541 162 113 108
0.431254 -0.174666 -0.541 161 114 108
0.45756 -0.180154 -0.558 155 111 110
-0.147952 -0.211095 -0.65 185 185 177
-0.139875 -0.210121 -0.647 188 188 180
-0.133095 -0.211095 -0.65 195 192 185
0.13416 -0.151989 -0.468 206 164 152
0.148995 -0.151664 -0.467 205 161 150
0.149885 -0.151664 -0.467 205 161 150
0.150451 -0.151339 -0.466 204 162 150
0.164653 -0.151339 -0.466 180 138 122
0.274667 -0.181867 -0.56 44 28 31
0.287045 -0.177645 -0.547 99 78 83
0.29681 -0.176021 -0.542 101 81 82
0.307941 -0.174722 -0.538 112 99 106
0.312922 -0.174072 -0.536 129 98 106
0.313943 -0.174072 -0.536 127 97 105
0.317433 -0.173748 -0.535 227 211 214
0.3344 -0.171474 -0.528 224 217 225
0.336411 -0.171474 -0.528 222 217 223
0.340147 -0.170825 -0.526 217 212 219
0.3415 -0.1705 -0.525 124 107 117
0.347836 -0.170175 -0.524 132 111 118
0.401745 -0.174072 -0.536 145 94 90
0.423257 -0.175371 -0.54 166 115 111
0.44044 -0.17732 -0.546 148 103 98
0.44681 -0.178619 -0.55 157 112 109
-0.141326 -0.21168 -0.648 188 188 180
-0.135363 -0.212007 -0.649 192 192 184
0.125151 -0.15386 -0.471 202 159 150
0.1401 -0.152553 -0.467 205 161 148
0.20589 -0.159413 -0.488 115 76 79
0.2461 -0.174767 -0.535 104 68 70
0.274667 -0.182933 -0.56 35 23 27
0.276226 -0.18326 -0.561 43 31 35
0.300384 -0.176727 -0.541 205 208 217
0.302445 -0.176727 -0.541 162 154 167
0.307941 -0.175747 -0.538 112 99 106
0.31204 -0.175747 -0.538 124 97 104
0.3405 -0.1715 -0.525 149 132 142
0.3495 -0.1715 -0.525 134 111 119
0.400793 -0.180647 -0.553 116 86 88
0.398279 -0.176727 -0.541 166 117 110
0.400449 -0.17542 -0.537 149 98 94
0.4284 -0.1764 -0.54 161 112 105
0.450537 -0.18032 -0.552 159 114 109
-0.140091 -0.212914 -0.648 189 189 181
0.123619 -0.155086 -0.472 200 158 146
0.124886 -0.154429 -0.47 203 161 149
0.137431 -0.153443 -0.467 208 164 151
0.14335 -0.153114 -0.466 207 163 150
0.146901 -0.153114 -0.466 206 162 149
0.159528 -0.152457 -0.464 196 152 139
0.167316 -0.153114 -0.466 178 131 121
0.182057 -0.155086 -0.472 151 102 97
0.188643 -0.156071 -0.475 139 92 86
0.200514 -0.159029 -0.484 123 82 78
0.201852 -0.159357 -0.485 119 78 74
0.212614 -0.162643 -0.495 104 65 68
0.234248 -0.170857 -0.52 87 56 54
0.25589 -0.179071 -0.545 106 70 72
0.276226 -0.184329 -0.561 43 31 35
0.280428 -0.184986 -0.563 50 45 49
0.283074 -0.185314 -0.564 89 87 92
0.291688 -0.178743 -0.544 103 82 87
0.320308 -0.175129 -0.533 125 98 107
0.321323 -0.175129 -0.533 129 102 111
0.324163 -0.174471 -0.531 127 97 105
0.330619 -0.174143 -0.53 226 223 230
0.39894 -0.180386 -0.549 123 96 101
0.39886 -0.1771 -0.539 161 111 104
0.403517 -0.176443 -0.537 142 91 87
0.404808 -0.176114 -0.536 139 86 82
0.427371 -0.177429 -0.54 166 117 112
-0.149966 -0.214149 -0.648 186 183 178
0.122079 -0.156315 -0.473 203 160 144
0.130036 -0.154002 -0.466 207 163 150
0.142463 -0.154002 -0.466 209 166 150
0.14335 -0.154002 -0.466 210 166 153
0.148357 -0.153671 -0.465 206 162 149
0.155109 -0.153341 -0.464 196 154 140
0.166957 -0.153671 -0.465 178 131 121
0.171233 -0.154332 -0.467 168 121 111
0.175166 -0.154663 -0.468 159 110 103
0.18904 -0.157307 -0.476 134 87 81
0.193881 -0.158298 -0.479 136 93 87
0.296323 -0.179449 -0.543 80 78 83
0.314964 -0.177135 -0.536 119 89 99
0.330619 -0.175152 -0.53 226 223 230
0.340147 -0.17383 -0.526 194 189 196
0.343844 -0.17317 -0.524 117 92 98
0.416566 -0.177796 -0.538 143 89 89
0.458862 -0.184075 -0.557 159 110 106
-0.152905 -0.216048 -0.65 184 181 174
-0.149966 -0.215383 -0.648 185 182 175
-0.146037 -0.21505 -0.647 186 185 180
-0.141326 -0.215383 -0.648 190 189 184
-0.13681 -0.216048 -0.65 191 191 183
0.124354 -0.155554 -0.468 203 161 147
0.124978 -0.155222 -0.467 202 160 146
0.127373 -0.15489 -0.466 202 158 145
0.130036 -0.15489 -0.466 208 164 151
0.1398 -0.15489 -0.466 204 161 145
0.152457 -0.154225 -0.464 201 159 145
0.179877 -0.156551 -0.471 156 105 101
0.182956 -0.156884 -0.472 151 102 97
0.184245 -0.157216 -0.473 149 100 95
0.186833 -0.157881 -0.475 150 101 96
0.19785 -0.160208 -0.482 127 86 82
0.20454 -0.16187 -0.487 114 75 78
0.212614 -0.164529 -0.495 105 66 69
0.249993 -0.179153 -0.539 106 67 70
0.261381 -0.18281 -0.55 93 61 62
0.28756 -0.18148 -0.546 99 76 84
0.297842 -0.18015 -0.542 65 78 84
0.32922 -0.176494 -0.531 229 219 227
0.407691 -0.187463 -0.564 76 60 70
0.401194 -0.178821 -0.538 153 102 98
0.408891 -0.178156 -0.536 136 82 80
0.434346 -0.179818 -0.541 156 107 102
0.43802 -0.180483 -0.543 155 106 101
0.45264 -0.183474 -0.552 159 108 105
0.470589 -0.188128 -0.566 154 102 104
0.130643 -0.155443 -0.465 208 164 151
0.138912 -0.155777 -0.466 204 161 145
0.142157 -0.155443 -0.465 205 162 146
0.148038 -0.155109 -0.464 206 162 149
0.15742 -0.154774 -0.463 186 142 129
0.179877 -0.157449 -0.471 155 104 100
0.180774 -0.157449 -0.471 155 104 100
0.185537 -0.158451 -0.474 150 101 96
0.196523 -0.160791 -0.481 131 88 82
0.210816 -0.164803 -0.493 108 69 72
0.212614 -0.165471 -0.495 103 67 69
0.283645 -0.188203 -0.563 68 65 74
0.28914 -0.183523 -0.549 101 78 88
0.299907 -0.181183 -0.542 157 172 179
0.315985 -0.179177 -0.536 208 187 196
0.317433 -0.178843 -0.535 155 135 144
0.319891 -0.178509 -0.534 125 102 110
0.330619 -0.177171 -0.53 225 222 231
0.331629 -0.177171 -0.53 220 217 228
0.337782 -0.176169 -0.527 227 221 233
0.34584 -0.175166 -0.524 136 113 119
0.399015 -0.181183 -0.542 161 112 107
0.39931 -0.180849 -0.541 161 112 107
0.41759 -0.179846 -0.538 139 85 83
-0.153669 -0.217851 -0.648 182 182 172
-0.144581 -0.217179 -0.646 186 187 179
0.11822 -0.16238 -0.483 199 156 150
0.120277 -0.159018 -0.473 203 156 150
0.141271 -0.156329 -0.465 206 162 149
0.14627 -0.155992 -0.464 210 166 155
0.148601 -0.155656 -0.463 205 161 148
0.170867 -0.156665 -0.466 164 116 106
0.172123 -0.157001 -0.467 160 112 102
0.173012 -0.157001 -0.467 158 109 102
0.185537 -0.159354 -0.474 151 102 97
0.192969 -0.161035 -0.479 138 93 90
0.207667 -0.164733 -0.49 111 72 73
0.238046 -0.176164 -0.524 100 64 66
0.280428 -0.189275 -0.563 59 58 66
0.28914 -0.184569 -0.549 100 77 87
0.297842 -0.182215 -0.542 141 156 161
0.330619 -0.178181 -0.53 224 221 230
0.337417 -0.177509 -0.528 222 219 226
0.343844 -0.176164 -0.524 103 77 86
0.34584 -0.176164 -0.524 132 109 115
0.3495 -0.1765 -0.525 139 113 122
0.352839 -0.177172 -0.527 89 72 80
0.362603 -0.180534 -0.537 43 32 40
0.412723 -0.180534 -0.537 143 87 88
0.416566 -0.18087 -0.538 144 90 90
0.447272 -0.184232 -0.548 159 108 105
0.45264 -0.185577 -0.552 156 105 102
0.457214 -0.186586 -0.555 155 104 101
-0.144581 -0.21841 -0.646 187 187 179
0.126214 -0.157214 -0.465 203 159 150
0.159184 -0.156538 -0.463 189 143 130
0.179877 -0.159243 -0.471 155 104 100
0.259387 -0.185276 -0.548 83 57 58
0.280428 -0.190348 -0.563 64 63 71
0.282572 -0.190348 -0.563 79 76 83
0.287934 -0.190348 -0.563 78 71 78
0.28964 -0.1846 -0.546 101 77 90
0.302445 -0.18291 -0.541 157 164 174
0.304971 -0.182571 -0.54 158 167 176
0.318874 -0.180543 -0.534 130 104 115
0.337782 -0.178176 -0.527 229 221 234
0.35956 -0.180543 -0.534 43 33 41
0.40034 -0.18291 -0.541 156 107 100
0.401657 -0.182571 -0.54 153 104 97
0.40685 -0.181219 -0.536 139 88 85
0.414769 -0.181557 -0.537 146 92 92
0.421447 -0.182233 -0.539 147 93 91
0.440899 -0.183924 -0.544 153 100 96
-0.155896 -0.21998 -0.647 182 182 174
-0.154425 -0.21964 -0.646 181 181 173
0.125943 -0.15776 -0.464 206 162 153
0.128594 -0.15776 -0.464 209 165 154
0.1392 -0.15776 -0.464 205 163 151
0.145955 -0.15742 -0.463 212 165 155
0.169979 -0.15844 -0.466 163 117 104
0.177327 -0.15946 -0.469 153 104 99
0.181671 -0.16014 -0.471 152 101 98
0.22128 -0.17136 -0.504 97 61 63
0.233347 -0.17612 -0.518 94 58 60
0.2395 -0.1785 -0.525 103 64 65
0.246195 -0.18122 -0.533 104 68 72
0.254951 -0.18462 -0.543 95 65 65
0.26741 -0.18904 -0.556 48 38 37
0.272047 -0.19006 -0.559 53 44 45
0.275157 -0.19074 -0.561 30 24 28
0.28579 -0.19142 -0.563 60 55 61
0.291186 -0.1853 -0.545 100 80 89
0.320909 -0.18156 -0.534 127 99 113
0.321323 -0.18122 -0.533 130 102 116
0.322747 -0.18088 -0.532 119 97 109
0.340147 -0.17884 -0.526 125 118 125
0.3495 -0.1785 -0.525 144 119 125
0.400048 -0.18428 -0.542 164 114 105
0.407609 -0.18258 -0.537 140 89 86
0.414769 -0.18258 -0.537 148 94 94
0.427607 -0.18326 -0.539 166 113 109
0.4446 -0.18564 -0.546 154 101 97
0.457446 -0.18836 -0.554 159 106 102
-0.15272 -0.220187 -0.644 182 182 174
-0.141544 -0.221896 -0.649 191 188 179
0.12053 -0.15967 -0.467 202 159 153
0.15532 -0.15796 -0.462 184 138 125
0.167843 -0.158986 -0.465 169 121 109
0.19918 -0.16514 -0.483 122 81 79
0.206733 -0.167533 -0.49 108 72 74
0.233347 -0.177107 -0.518 95 53 65
0.276718 -0.19215 -0.562 39 30 35
0.277789 -0.19215 -0.562 43 34 39
0.28914 -0.187706 -0.549 96 77 79
0.294796 -0.185996 -0.544 135 138 143
0.308513 -0.184287 -0.539 176 176 186
0.308966 -0.183945 -0.538 171 169 182
0.336778 -0.180184 -0.527 145 129 139
0.3425 -0.1795 -0.525 129 108 115
0.40034 -0.18497 -0.541 161 112 108
0.441935 -0.185996 -0.544 152 94 90
0.443786 -0.186338 -0.545 156 98 94
-0.145811 -0.222101 -0.646 190 187 178
0.11926 -0.161247 -0.469 203 158 153
0.129478 -0.159528 -0.464 209 165 154
0.138018 -0.159184 -0.463 206 164 152
0.142428 -0.159184 -0.463 208 164 153
0.14331 -0.159184 -0.463 207 163 152
0.144191 -0.159184 -0.463 206 162 151
0.1518 -0.15884 -0.462 196 152 139
0.15444 -0.15884 -0.462 186 142 129
0.160066 -0.159184 -0.463 177 130 120
0.160948 -0.159184 -0.463 177 129 119
0.16183 -0.159184 -0.463 175 127 117
0.175166 -0.160903 -0.468 155 106 99
0.191254 -0.163997 -0.477 134 89 83
0.196931 -0.165716 -0.482 123 82 78
0.199592 -0.166404 -0.484 118 78 76
0.208514 -0.169154 -0.492 106 70 72
0.241416 -0.181188 -0.527 96 62 63
0.24334 -0.181875 -0.529 98 64 65
0.265871 -0.190814 -0.555 42 30 32
0.282572 -0.193565 -0.563 86 75 81
0.327197 -0.182563 -0.531 148 127 136
0.338786 -0.181188 -0.527 129 106 114
0.344842 -0.180156 -0.524 137 111 120
0.40685 -0.184282 -0.536 139 85 83
0.416038 -0.184282 -0.536 140 89 86
0.463937 -0.191846 -0.558 163 109 109
0.470239 -0.193565 -0.563 166 113 109
-0.141762 -0.224714 -0.65 189 189 179
0.119006 -0.161794 -0.468 203 158 152
0.133013 -0.160411 -0.464 205 161 148
0.142428 -0.160066 -0.463 206 162 149
0.167482 -0.160411 -0.464 164 114 107
0.174274 -0.161794 -0.468 156 107 100
0.17898 -0.162831 -0.471 147 98 91
0.196931 -0.166634 -0.482 118 79 74
0.208514 -0.170091 -0.492 106 70 72
0.221719 -0.174586 -0.505 94 62 65
0.233347 -0.17908 -0.518 91 56 62
0.237137 -0.180463 -0.522 92 57 61
0.248138 -0.184957 -0.535 93 63 63
0.254482 -0.187377 -0.542 86 57 59
0.261856 -0.190489 -0.551 52 32 34
0.280428 -0.194637 -0.563 68 53 58
0.28914 -0.189797 -0.549 98 79 83
0.303943 -0.186686 -0.54 199 197 208
0.30999 -0.185994 -0.538 172 169 180
0.322747 -0.18392 -0.532 118 95 105
0.324163 -0.183574 -0.531 128 102 113
0.331003 -0.182883 -0.529 132 106 117
0.3344 -0.182537 -0.528 132 106 115
0.343844 -0.181154 -0.524 134 111 121
0.413839 -0.197403 -0.571 78 71 79
0.400612 -0.189106 -0.547 161 112 108
0.403993 -0.18634 -0.539 143 94 90
0.421929 -0.185649 -0.537 176 122 120
0.468569 -0.193946 -0.561 169 111 109
-0.162559 -0.225605 -0.649 181 178 171
-0.144016 -0.225605 -0.649 188 188 178
0.119006 -0.162686 -0.468 202 158 149
0.130081 -0.160948 -0.463 208 164 151
0.132727 -0.160948 -0.463 206 162 149
0.163593 -0.160948 -0.463 174 124 115
0.168729 -0.161643 -0.465 160 110 103
0.174274 -0.162686 -0.468 160 110 103
0.175166 -0.162686 -0.468 157 108 101
0.215714 -0.17381 -0.5 97 65 66
0.227718 -0.177981 -0.512 89 59 59
0.254482 -0.18841 -0.542 76 54 56
0.268371 -0.193971 -0.558 47 35 39
0.272533 -0.194667 -0.56 49 37 41
0.2815 -0.19571 -0.563 69 52 58
0.282572 -0.19571 -0.563 72 55 61
0.284717 -0.19571 -0.563 76 57 63
0.296869 -0.189105 -0.544 176 180 189
0.3286 -0.184238 -0.53 129 106 116
0.34584 -0.182152 -0.524 137 110 119
0.406586 -0.186671 -0.537 144 93 90
0.412975 -0.186324 -0.536 141 90 87
0.41808 -0.186324 -0.536 141 87 85
0.42602 -0.186671 -0.537 165 112 108
-0.157137 -0.224394 -0.642 184 181 172
-0.143 -0.22719 -0.65 188 188 176
0.119641 -0.163228 -0.467 203 159 150
0.125671 -0.16183 -0.463 207 165 151
0.13596 -0.16148 -0.462 207 164 147
0.179877 -0.164626 -0.471 147 98 91
0.189437 -0.166723 -0.477 140 91 86
0.24334 -0.184898 -0.529 89 59 57
0.245733 -0.185947 -0.532 88 58 56
0.264337 -0.193636 -0.554 45 32 39
0.286911 -0.196083 -0.561 85 66 72
0.295832 -0.190141 -0.544 130 135 139
0.317857 -0.186646 -0.534 121 101 112
0.327197 -0.185597 -0.531 126 103 113
0.32961 -0.185248 -0.53 131 105 114
0.34584 -0.18315 -0.524 137 110 119
0.352503 -0.184549 -0.528 89 70 76
0.40092 -0.19084 -0.546 162 111 108
0.423974 -0.187694 -0.537 159 104 101
0.427043 -0.187694 -0.537 168 113 110
0.44031 -0.189442 -0.542 149 94 91
0.445862 -0.19049 -0.545 146 91 86
0.45519 -0.192238 -0.55 154 99 94
0.45978 -0.193287 -0.553 151 106 101
-0.146037 -0.227374 -0.647 187 187 177
0.125671 -0.162711 -0.463 205 163 149
0.164475 -0.162711 -0.463 166 116 107
0.166239 -0.162711 -0.463 161 111 102
0.183344 -0.166226 -0.473 146 96 89
0.19826 -0.16974 -0.483 118 80 79
0.2263 -0.17958 -0.511 89 61 58
0.23569 -0.183094 -0.521 90 62 59
0.284211 -0.197503 -0.562 79 60 66
0.289129 -0.192231 -0.547 97 83 83
0.298391 -0.190826 -0.543 113 120 128
0.306 -0.189771 -0.54 211 211 223
0.313943 -0.188366 -0.536 146 126 138
0.314964 -0.188366 -0.536 210 190 202
0.341848 -0.184149 -0.524 133 108 114
0.355517 -0.186609 -0.531 51 36 41
0.401345 -0.192583 -0.548 156 105 102
0.409654 -0.188717 -0.537 140 89 86
0.430912 -0.189069 -0.538 165 110 107
0.438468 -0.190123 -0.541 150 95 90
-0.159831 -0.227193 -0.643 181 181 173
0.12628 -0.16324 -0.462 204 162 146
0.143257 -0.162533 -0.46 201 158 142
0.166239 -0.163593 -0.463 160 110 103
0.172123 -0.165007 -0.467 154 104 97
0.17554 -0.165713 -0.469 150 100 93
0.177705 -0.166067 -0.47 151 98 92
0.204449 -0.17278 -0.489 107 73 72
0.212527 -0.175607 -0.497 99 68 66
0.228163 -0.18126 -0.513 89 61 58
0.264337 -0.195747 -0.554 50 33 43
0.270982 -0.197513 -0.559 53 38 43
0.274667 -0.197867 -0.56 65 48 54
0.287014 -0.1961 -0.555 93 74 80
0.297357 -0.19186 -0.543 149 158 163
0.299426 -0.19186 -0.543 132 141 148
0.313943 -0.189387 -0.536 151 131 143
0.321733 -0.187973 -0.532 124 98 107
0.341848 -0.185147 -0.524 135 108 117
0.34584 -0.185147 -0.524 135 105 115
0.40502 -0.190447 -0.539 146 97 92
0.410677 -0.18974 -0.537 143 89 87
0.41808 -0.189387 -0.536 144 91 87
0.433767 -0.190447 -0.539 158 103 98
0.4356 -0.1908 -0.54 157 102 97
-0.15445 -0.227708 -0.641 182 182 172
0.114452 -0.168738 -0.475 204 161 145
0.114629 -0.167672 -0.472 204 161 145
0.11544 -0.166251 -0.468 202 156 143
0.116331 -0.166251 -0.468 202 156 143
0.137124 -0.16341 -0.46 203 164 149
0.138876 -0.16341 -0.46 203 161 147
0.139752 -0.16341 -0.46 202 160 146
0.141505 -0.16341 -0.46 203 161 147
0.173383 -0.166251 -0.468 157 104 100
0.185929 -0.168738 -0.475 135 90 84
0.191655 -0.169804 -0.478 123 80 74
0.192969 -0.170159 -0.479 123 82 78
0.200005 -0.17229 -0.485 114 79 77
0.212954 -0.176909 -0.498 98 68 66
0.220757 -0.179395 -0.505 92 62 62
0.270982 -0.198578 -0.559 53 38 43
0.275733 -0.198933 -0.56 66 50 53
0.289129 -0.194315 -0.547 96 81 84
0.291212 -0.194315 -0.547 99 80 84
0.295832 -0.19325 -0.544 79 87 90
0.308057 -0.191829 -0.54 171 174 183
0.318874 -0.189697 -0.534 130 107 115
0.338853 -0.186145 -0.524 133 108 114
0.401654 -0.194315 -0.547 160 109 108
0.407609 -0.190763 -0.537 146 97 93
0.408631 -0.190763 -0.537 145 94 91
0.421143 -0.190408 -0.536 163 110 104
0.423185 -0.190408 -0.536 151 98 94
0.430912 -0.191118 -0.538 156 103 99
0.442375 -0.192539 -0.542 138 87 83
-0.14904 -0.23 -0.644 186 186 176
-0.145252 -0.231786 -0.649 189 186 177
0.113787 -0.17 -0.476 204 160 147
0.148191 -0.163929 -0.459 198 152 136
0.149066 -0.163929 -0.459 196 149 133
0.14994 -0.163929 -0.459 194 147 131
0.159374 -0.164643 -0.461 171 123 111
0.168729 -0.166071 -0.465 157 104 98
0.188133 -0.17 -0.476 132 89 82
0.196013 -0.172143 -0.482 117 79 76
0.203101 -0.174286 -0.488 109 75 73
0.21158 -0.1775 -0.497 100 68 69
0.2184 -0.18 -0.504 93 63 63
0.23236 -0.185 -0.518 91 61 61
0.24426 -0.189643 -0.531 89 59 61
0.28163 -0.199643 -0.559 80 59 66
0.29017 -0.195357 -0.547 101 81 90
0.331003 -0.188929 -0.529 128 101 108
0.34085 -0.187143 -0.524 135 104 112
0.343844 -0.187143 -0.524 132 105 114
0.3475 -0.1875 -0.525 132 109 117
0.446426 -0.229643 -0.643 83 77 91
0.453064 -0.231786 -0.649 84 78 92
0.401524 -0.194286 -0.544 158 107 103
0.402112 -0.193571 -0.542 161 110 107
0.426248 -0.191429 -0.536 159 106 100
0.434793 -0.1925 -0.539 155 102 96
-0.303485 -0.233022 -0.649 249 250 244
-0.291909 -0.232663 -0.648 246 247 242
-0.161776 -0.23015 -0.641 183 180 173
-0.155429 -0.22979 -0.64 186 183 174
-0.152009 -0.23015 -0.641 185 185 175
0.11924 -0.16588 -0.462 205 161 148
0.129238 -0.165162 -0.46 204 162 148
0.135077 -0.164803 -0.459 205 163 149
0.135951 -0.164803 -0.459 205 163 149
0.141762 -0.164444 -0.458 201 158 142
0.169979 -0.167316 -0.466 156 103 97
0.226743 -0.183832 -0.512 94 64 64
0.238046 -0.188141 -0.524 92 60 61
0.239956 -0.188859 -0.526 91 59 60
0.246657 -0.191731 -0.534 82 57 60
0.253917 -0.194963 -0.543 60 38 41
0.284387 -0.198912 -0.554 92 75 81
0.286526 -0.196758 -0.548 94 78 81
0.288613 -0.196758 -0.548 97 80 86
0.293262 -0.195681 -0.545 100 85 90
0.304407 -0.193527 -0.539 164 168 179
0.307487 -0.193527 -0.539 124 124 132
0.328988 -0.189936 -0.529 129 102 109
0.333767 -0.189218 -0.527 130 103 110
0.338853 -0.188141 -0.524 135 108 113
0.344842 -0.188141 -0.524 138 112 121
0.410677 -0.192809 -0.537 145 92 86
