ply
format ascii 1.0
comment Created by Open3D
element vertex 1289
property double x
property double y
property double z
property uchar red
property uchar green
property uchar blue
end_header
0.378371 -0.363606 -0.646 161 162 182
0.414055 -0.363606 -0.646 44 70 127
0.437434 -0.363606 -0.646 164 162 184
0.443587 -0.363606 -0.646 161 163 178
0.486373 -0.36248 -0.644 145 158 193
0.508097 -0.361354 -0.642 128 141 176
0.51341 -0.360791 -0.641 149 164 205
0.513823 -0.347846 -0.618 108 83 87
0.474747 -0.29944 -0.532 184 124 100
0.483057 -0.298314 -0.53 181 120 99
0.486086 -0.298314 -0.53 176 118 96
0.0449 -0.253578 -0.449 192 154 143
0.0481905 -0.248495 -0.44 197 155 143
0.0647438 -0.244542 -0.433 196 154 142
0.0678857 -0.243977 -0.432 190 147 138
0.0687086 -0.243977 -0.432 187 147 137
0.072 -0.243977 -0.432 178 138 130
0.0736457 -0.243977 -0.432 181 139 127
0.07794 -0.244542 -0.433 169 126 117
0.0900952 -0.248495 -0.44 141 100 94
0.0991914 -0.252449 -0.447 117 87 87
0.115038 -0.265438 -0.47 95 75 77
0.120229 -0.271086 -0.48 105 87 99
0.123074 -0.273345 -0.484 104 86 98
0.324669 -0.362577 -0.642 84 122 185
0.337947 -0.363707 -0.644 194 205 227
0.390071 -0.364271 -0.645 92 125 179
0.440443 -0.364271 -0.645 137 130 148
0.441671 -0.364271 -0.645 120 121 139
0.453957 -0.364271 -0.645 106 130 178
0.464505 -0.364836 -0.646 170 175 204
0.469929 -0.364271 -0.645 169 173 200
0.49496 -0.363707 -0.644 148 157 190
0.469049 -0.306666 -0.543 166 107 91
0.469543 -0.304971 -0.54 168 109 91
0.489199 -0.298759 -0.529 178 118 94
0.492222 -0.298759 -0.529 177 119 97
0.49323 -0.298759 -0.529 178 120 98
0.4982 -0.299324 -0.53 171 116 96
0.505147 -0.300453 -0.532 163 112 95
0.510097 -0.301583 -0.534 154 108 93
0.526903 -0.30723 -0.544 158 113 90
0.0460914 -0.2516 -0.444 192 154 143
0.0489171 -0.248767 -0.439 199 157 145
0.0535657 -0.247067 -0.436 207 165 153
0.0615867 -0.245933 -0.434 202 160 148
0.0670629 -0.2448 -0.432 188 148 138
0.0818019 -0.247067 -0.436 156 115 109
0.1053 -0.257833 -0.455 101 78 84
0.109323 -0.261233 -0.461 95 74 79
0.28143 -0.363233 -0.641 228 236 255
0.343546 -0.364367 -0.643 191 198 216
0.34477 -0.364367 -0.643 175 182 200
0.398053 -0.364933 -0.644 161 169 192
0.47288 -0.364933 -0.644 143 152 185
0.490517 -0.364367 -0.643 164 169 198
0.50154 -0.364367 -0.643 153 157 184
0.511766 -0.3638 -0.642 102 119 162
0.512989 -0.3638 -0.642 110 129 172
0.52988 -0.3094 -0.546 154 109 90
0.0559286 -0.247329 -0.435 205 163 151
0.0589705 -0.246191 -0.433 198 154 143
0.0728229 -0.245623 -0.432 173 133 123
0.0762905 -0.246191 -0.433 171 128 119
0.09114 -0.25074 -0.441 136 97 92
0.09198 -0.25074 -0.441 134 96 93
0.104204 -0.258131 -0.454 100 78 80
0.266362 -0.363886 -0.64 164 186 233
0.28143 -0.364454 -0.641 216 227 249
0.289524 -0.363886 -0.64 156 173 227
0.300495 -0.363886 -0.64 155 169 214
0.302933 -0.363886 -0.64 203 213 249
0.305371 -0.363886 -0.64 230 237 255
0.316837 -0.364454 -0.641 121 147 184
0.344234 -0.365023 -0.642 129 134 153
0.350894 -0.365591 -0.643 90 120 172
0.354569 -0.365591 -0.643 140 170 222
0.375973 -0.36616 -0.644 177 178 196
0.38088 -0.36616 -0.644 141 149 172
0.396827 -0.36616 -0.644 147 165 201
0.404814 -0.366729 -0.645 168 172 184
0.418907 -0.36616 -0.644 104 118 153
0.442213 -0.36616 -0.644 162 164 185
0.455707 -0.36616 -0.644 87 101 148
0.456933 -0.36616 -0.644 98 112 159
0.515434 -0.365023 -0.642 116 139 191
0.52398 -0.363317 -0.639 160 166 188
0.472593 -0.303049 -0.533 179 123 98
0.487269 -0.300206 -0.528 184 128 101
0.49323 -0.300774 -0.529 177 121 96
0.496252 -0.300774 -0.529 177 123 99
0.504197 -0.301911 -0.531 161 113 93
0.507173 -0.30248 -0.532 158 110 90
0.0534429 -0.248157 -0.435 206 162 151
0.0542714 -0.248157 -0.435 207 163 152
0.0551 -0.248157 -0.435 208 164 153
0.0771152 -0.247016 -0.433 164 121 114
0.0921886 -0.25215 -0.442 130 95 93
0.09834 -0.255003 -0.447 110 86 86
0.103111 -0.258426 -0.453 100 78 80
0.113007 -0.267553 -0.469 94 73 78
0.116507 -0.271547 -0.476 104 84 86
0.295157 -0.364534 -0.639 151 169 219
0.301243 -0.364534 -0.639 155 167 209
0.309029 -0.365105 -0.64 224 228 255
0.321219 -0.365105 -0.64 153 180 227
0.343011 -0.366246 -0.642 170 176 198
0.382738 -0.366816 -0.643 110 122 160
0.428054 -0.366816 -0.643 148 154 186
0.429279 -0.366816 -0.643 158 164 196
0.442751 -0.366816 -0.643 133 142 171
0.453774 -0.366816 -0.643 74 94 144
0.470921 -0.366816 -0.643 112 123 153
0.481194 -0.366246 -0.642 163 168 190
0.486231 -0.326883 -0.573 135 96 91
0.491291 -0.301211 -0.528 178 122 95
0.518077 -0.306346 -0.537 151 114 95
0.0443 -0.253565 -0.443 194 155 138
0.0463029 -0.250703 -0.438 202 153 148
0.0471371 -0.250703 -0.438 204 155 150
0.0509571 -0.248986 -0.435 204 162 150
0.0566267 -0.248413 -0.434 200 156 145
0.0614448 -0.247841 -0.433 197 154 145
0.0789467 -0.248413 -0.434 159 116 110
0.0863486 -0.250703 -0.438 148 104 101
0.110509 -0.26673 -0.466 93 72 79
0.275683 -0.365751 -0.639 243 246 255
0.304894 -0.365751 -0.639 217 227 254
0.30781 -0.366324 -0.64 222 227 255
0.311467 -0.366324 -0.64 224 226 251
0.358909 -0.367469 -0.642 164 183 215
0.391311 -0.368041 -0.643 71 94 148
0.392536 -0.368041 -0.643 85 108 162
0.39866 -0.368041 -0.643 169 174 203
0.417606 -0.367469 -0.642 122 127 159
0.434726 -0.367469 -0.642 62 71 110
0.451846 -0.367469 -0.642 91 112 165
0.461123 -0.368041 -0.643 154 160 184
0.468966 -0.367469 -0.642 113 122 155
0.471411 -0.367469 -0.642 159 169 196
0.478003 -0.366896 -0.641 165 171 193
0.470727 -0.308513 -0.539 173 116 96
0.472593 -0.305079 -0.533 179 121 97
0.473733 -0.304507 -0.532 182 124 100
0.478009 -0.303362 -0.53 186 129 102
0.492297 -0.302217 -0.528 177 123 97
0.04224 -0.25728 -0.448 199 157 143
0.042901 -0.256131 -0.446 196 154 140
0.0524933 -0.24924 -0.434 205 158 148
0.06048 -0.248091 -0.432 196 152 141
0.0645943 -0.248091 -0.432 189 145 134
0.0977067 -0.25728 -0.448 111 85 88
0.102474 -0.260726 -0.454 101 78 84
0.105122 -0.263023 -0.458 97 74 80
0.260669 -0.366394 -0.638 191 206 247
0.266745 -0.366394 -0.638 209 224 255
0.278117 -0.366969 -0.639 223 224 242
0.283758 -0.366394 -0.638 169 183 220
0.298341 -0.366394 -0.638 149 161 201
0.314631 -0.366969 -0.639 191 197 221
0.33219 -0.367543 -0.64 182 196 223
0.362577 -0.368691 -0.642 168 177 210
0.400486 -0.368691 -0.642 161 162 183
0.416383 -0.368691 -0.642 164 169 199
0.431607 -0.368117 -0.641 107 120 154
0.434049 -0.368117 -0.641 62 74 112
0.450623 -0.368691 -0.642 108 131 185
0.468235 -0.368117 -0.641 139 145 179
0.475561 -0.368117 -0.641 167 173 195
0.479224 -0.368117 -0.641 167 174 193
0.490212 -0.368117 -0.641 166 171 191
0.504076 -0.367543 -0.64 145 153 190
0.518705 -0.367543 -0.64 107 123 174
0.471026 -0.308391 -0.537 174 116 94
0.492369 -0.302649 -0.527 183 129 103
0.501349 -0.303223 -0.528 167 119 96
0.0427086 -0.255829 -0.444 195 153 139
0.0548467 -0.24949 -0.433 204 158 145
0.0629486 -0.248914 -0.432 197 150 140
0.0669076 -0.248338 -0.431 178 135 126
0.0695314 -0.248914 -0.432 175 132 125
0.0728229 -0.248914 -0.432 168 128 120
0.0828219 -0.251795 -0.437 151 110 106
0.106689 -0.265624 -0.461 92 73 79
0.109856 -0.269081 -0.467 93 74 76
0.11283 -0.271962 -0.472 98 76 88
0.275251 -0.36761 -0.638 246 243 254
0.298341 -0.36761 -0.638 174 187 222
0.303202 -0.36761 -0.638 211 220 251
0.323151 -0.368186 -0.639 161 188 233
0.329237 -0.368186 -0.639 127 155 195
0.343162 -0.368762 -0.64 105 119 146
0.35957 -0.369338 -0.641 180 186 218
0.415734 -0.369338 -0.641 166 171 200
0.507733 -0.368762 -0.64 109 127 177
0.517486 -0.368762 -0.64 53 78 142
0.521143 -0.368762 -0.64 114 129 172
0.500657 -0.339952 -0.59 129 92 83
0.47268 -0.3146 -0.546 160 104 91
0.471443 -0.311719 -0.541 167 110 91
0.04242 -0.25494 -0.441 196 152 141
0.0431619 -0.254362 -0.44 198 151 141
0.0445324 -0.252628 -0.437 199 152 142
0.0500133 -0.250893 -0.434 209 161 149
0.0695314 -0.249737 -0.432 175 132 125
0.0936619 -0.257252 -0.445 117 86 84
0.10425 -0.264768 -0.458 96 75 82
0.268753 -0.368247 -0.637 247 245 255
0.277247 -0.368247 -0.637 216 221 243
0.305632 -0.368825 -0.638 212 216 251
0.319713 -0.368247 -0.637 154 169 212
0.343843 -0.369403 -0.639 184 189 221
0.355352 -0.369981 -0.64 145 152 178
0.375443 -0.370559 -0.641 149 157 194
0.381548 -0.370559 -0.641 126 135 164
0.388873 -0.370559 -0.641 66 99 153
0.424838 -0.369981 -0.64 164 167 186
0.438248 -0.369981 -0.64 91 98 127
0.445562 -0.369981 -0.64 75 95 154
0.451142 -0.370559 -0.641 80 105 159
0.459689 -0.370559 -0.641 146 158 200
0.469943 -0.369981 -0.64 173 172 190
0.47286 -0.369403 -0.639 169 174 193
0.480163 -0.369403 -0.639 147 149 172
0.489448 -0.369981 -0.64 162 168 190
0.504506 -0.369403 -0.639 56 75 115
0.517894 -0.369403 -0.639 59 84 138
0.52598 -0.368247 -0.637 149 149 173
0.472852 -0.315062 -0.545 159 106 92
0.501403 -0.304656 -0.527 166 119 99
0.0637714 -0.25056 -0.432 191 144 134
0.0645943 -0.25056 -0.432 192 145 135
0.0857095 -0.25462 -0.439 134 95 90
0.09176 -0.25752 -0.444 118 87 85
0.0938724 -0.25868 -0.446 114 84 84
0.108967 -0.27086 -0.467 91 72 76
0.112406 -0.27492 -0.474 97 78 82
0.270754 -0.36888 -0.636 245 245 253
0.291349 -0.36888 -0.636 207 213 239
0.299087 -0.36946 -0.637 227 233 255
0.332889 -0.37062 -0.639 190 202 226
0.43026 -0.37062 -0.639 161 166 188
0.441905 -0.3712 -0.64 125 134 175
0.449219 -0.3712 -0.64 77 103 162
0.482597 -0.37062 -0.639 134 140 166
0.509792 -0.37004 -0.638 32 61 121
0.513026 -0.37062 -0.639 36 60 124
0.475095 -0.319 -0.55 154 104 93
0.4716 -0.3132 -0.54 166 109 89
0.488429 -0.30508 -0.526 186 132 106
0.504366 -0.30624 -0.528 163 117 94
0.0436 -0.25371 -0.436 196 149 141
0.0468143 -0.253129 -0.435 193 149 140
0.0490733 -0.251965 -0.433 202 155 145
0.0523724 -0.251965 -0.433 200 156 145
0.0637714 -0.251383 -0.432 187 143 132
0.0736457 -0.251383 -0.432 169 124 118
0.0754657 -0.251965 -0.433 164 121 114
0.0762905 -0.251965 -0.433 163 120 113
0.0962143 -0.261275 -0.449 108 82 85
0.103603 -0.267094 -0.459 94 74 83
0.310007 -0.370673 -0.637 220 227 255
0.312433 -0.370673 -0.637 211 218 244
0.334798 -0.371255 -0.638 182 184 209
0.380952 -0.372419 -0.64 133 144 176
0.399238 -0.372419 -0.64 82 92 127
0.401676 -0.372419 -0.64 144 153 186
0.41021 -0.372419 -0.64 167 169 192
0.42174 -0.371837 -0.639 164 169 191
0.443649 -0.371837 -0.639 84 104 163
0.453386 -0.371837 -0.639 49 70 133
0.47455 -0.371255 -0.638 137 144 162
0.501286 -0.371255 -0.638 106 116 143
0.498643 -0.340414 -0.585 131 97 88
0.47348 -0.310737 -0.534 175 121 97
0.479123 -0.307828 -0.529 192 136 111
0.48233 -0.306664 -0.527 190 134 109
0.491434 -0.306082 -0.526 181 127 101
0.517217 -0.310737 -0.534 153 108 85
0.528119 -0.31481 -0.541 154 109 86
0.0645943 -0.252206 -0.432 183 139 126
0.0738162 -0.25279 -0.433 167 124 117
0.1001 -0.265633 -0.455 97 76 85
0.26791 -0.370719 -0.635 241 246 250
0.281214 -0.370719 -0.635 231 238 248
0.288471 -0.370719 -0.635 212 215 234
0.29089 -0.370719 -0.635 232 235 254
0.314366 -0.371303 -0.636 180 191 223
0.336013 -0.37247 -0.638 104 113 156
0.338444 -0.37247 -0.638 121 134 169
0.34452 -0.37247 -0.638 189 194 216
0.350596 -0.37247 -0.638 185 192 210
0.359103 -0.37247 -0.638 179 187 206
0.365179 -0.37247 -0.638 176 185 202
0.37062 -0.373054 -0.639 167 172 194
0.397397 -0.373054 -0.639 83 95 135
0.41322 -0.373054 -0.639 167 169 192
0.452169 -0.373054 -0.639 35 56 119
0.487918 -0.37247 -0.638 148 149 167
0.492779 -0.37247 -0.638 114 108 118
0.49521 -0.37247 -0.638 174 169 176
0.50007 -0.37247 -0.638 151 163 189
0.517487 -0.371887 -0.637 90 119 175
0.527126 -0.370135 -0.634 149 148 164
0.528333 -0.370135 -0.634 149 148 164
0.503757 -0.345031 -0.591 134 100 91
0.4945 -0.3065 -0.525 174 122 100
0.4955 -0.3065 -0.525 166 115 94
0.501453 -0.307084 -0.526 165 117 95
0.0443286 -0.254786 -0.435 198 151 141
0.0498981 -0.253614 -0.433 202 155 145
0.0571886 -0.253029 -0.432 197 150 142
0.0687086 -0.253029 -0.432 170 130 120
0.074641 -0.253614 -0.433 161 118 111
0.08694 -0.2583 -0.441 132 94 91
0.0921733 -0.261229 -0.446 114 84 84
0.288017 -0.371343 -0.634 222 228 244
0.299357 -0.371929 -0.635 226 232 255
0.309033 -0.371929 -0.635 182 191 220
0.374901 -0.373686 -0.638 94 109 142
0.382192 -0.373686 -0.638 49 74 131
0.400421 -0.373686 -0.638 163 170 196
0.437407 -0.3731 -0.637 85 93 129
0.48958 -0.3731 -0.637 106 104 115
0.517487 -0.3731 -0.637 99 130 184
0.52234 -0.3731 -0.637 125 143 191
0.508871 -0.349671 -0.597 132 99 92
0.489114 -0.333857 -0.57 141 100 94
0.472329 -0.313357 -0.535 176 118 98
0.474981 -0.310429 -0.53 180 126 100
0.4895 -0.3075 -0.525 188 134 110
0.03712 -0.263253 -0.448 189 146 137
0.0427695 -0.256202 -0.436 197 153 142
0.0450533 -0.255027 -0.434 199 153 140
0.04588 -0.255027 -0.434 200 152 140
0.0562352 -0.253264 -0.431 195 151 140
0.0570562 -0.253264 -0.431 193 149 140
0.0764667 -0.255027 -0.434 154 116 107
0.0890219 -0.260315 -0.443 123 93 91
0.091119 -0.26149 -0.445 115 87 86
0.0921733 -0.262078 -0.446 112 84 83
0.0932314 -0.262666 -0.447 107 81 82
0.269903 -0.37255 -0.634 185 193 212
0.272318 -0.37255 -0.634 167 172 202
0.273526 -0.37255 -0.634 182 187 216
0.274733 -0.37255 -0.634 212 217 246
0.295263 -0.37255 -0.634 229 236 255
0.31629 -0.373138 -0.635 125 141 190
0.32648 -0.373726 -0.636 119 149 209
0.404647 -0.374313 -0.637 114 116 129
0.407073 -0.374313 -0.637 162 164 176
0.4095 -0.374313 -0.637 132 133 154
0.411927 -0.374313 -0.637 128 133 155
0.434297 -0.373726 -0.636 160 163 180
0.454393 -0.374313 -0.637 61 85 145
0.455607 -0.374313 -0.637 48 70 128
0.473063 -0.373726 -0.636 163 165 178
0.474274 -0.373726 -0.636 156 158 171
0.48594 -0.374313 -0.637 173 172 188
0.48958 -0.374313 -0.637 137 140 147
0.490793 -0.374313 -0.637 165 163 176
0.494433 -0.374313 -0.637 169 167 180
0.5005 -0.374313 -0.637 53 67 104
0.516674 -0.373726 -0.636 108 140 191
0.519097 -0.373726 -0.636 108 132 176
0.52152 -0.373726 -0.636 162 179 222
0.527126 -0.37255 -0.634 180 181 202
0.529911 -0.371963 -0.633 144 142 156
0.505737 -0.34787 -0.592 136 99 93
0.47422 -0.319077 -0.543 167 114 96
0.47219 -0.314964 -0.536 171 113 93
0.479223 -0.310263 -0.528 186 130 105
0.4825 -0.3085 -0.525 190 134 109
0.4845 -0.3085 -0.525 193 137 112
0.506422 -0.309675 -0.527 164 118 95
0.0411086 -0.257032 -0.436 192 148 135
0.0418429 -0.256443 -0.435 194 150 137
0.0506057 -0.254674 -0.432 202 156 143
0.0537724 -0.254085 -0.431 197 153 140
0.06624 -0.254674 -0.432 175 131 120
0.0711771 -0.254674 -0.432 166 123 114
0.0871371 -0.26057 -0.442 130 92 89
0.0881781 -0.261159 -0.443 129 91 88
0.0957838 -0.265875 -0.451 102 80 82
0.105183 -0.274718 -0.466 90 73 81
0.241746 -0.373169 -0.633 201 211 238
0.296003 -0.373169 -0.633 228 235 253
0.300826 -0.373169 -0.633 223 229 255
0.309754 -0.373758 -0.634 183 196 230
0.338594 -0.374937 -0.636 190 196 218
0.345863 -0.374937 -0.636 180 185 188
0.367669 -0.374937 -0.636 168 183 202
0.37674 -0.375527 -0.637 56 74 122
0.41976 -0.374937 -0.636 128 136 159
0.427029 -0.374937 -0.636 165 164 180
0.4452 -0.374937 -0.636 42 71 131
0.450753 -0.375527 -0.637 53 81 144
0.461673 -0.375527 -0.637 73 84 129
0.46869 -0.374348 -0.635 141 138 155
0.485177 -0.374937 -0.636 170 169 187
0.486389 -0.374937 -0.636 134 133 151
0.492446 -0.374937 -0.636 167 167 179
0.500926 -0.374937 -0.636 81 96 137
0.50456 -0.374937 -0.636 136 152 186
0.522731 -0.374937 -0.636 158 167 198
0.49106 -0.336618 -0.571 141 102 103
0.474929 -0.32129 -0.545 161 113 99
0.474747 -0.313627 -0.532 175 119 96
0.486571 -0.30891 -0.524 186 130 103
0.0372105 -0.259637 -0.439 196 154 142
0.0578771 -0.254906 -0.431 193 149 138
0.0628029 -0.254906 -0.431 183 139 126
0.0678857 -0.255497 -0.432 175 131 120
0.0687086 -0.255497 -0.432 169 126 117
0.0793105 -0.257863 -0.436 151 108 102
0.0925867 -0.26496 -0.448 114 88 89
0.106981 -0.277971 -0.47 90 74 77
0.293591 -0.374374 -0.633 233 239 251
0.29962 -0.374374 -0.633 224 229 249
0.364671 -0.375557 -0.635 171 178 194
0.373138 -0.375557 -0.635 112 114 135
0.393109 -0.376149 -0.636 27 58 123
0.4028 -0.376149 -0.636 169 171 184
0.407646 -0.376149 -0.636 128 130 143
0.411843 -0.375557 -0.635 127 137 162
0.4452 -0.376149 -0.636 46 77 134
0.456595 -0.375557 -0.635 142 159 205
0.478367 -0.375557 -0.635 163 160 181
0.485177 -0.376149 -0.636 167 168 188
0.486389 -0.376149 -0.636 132 133 153
0.511024 -0.375557 -0.635 54 83 139
0.473348 -0.316414 -0.535 172 117 97
0.474866 -0.314049 -0.531 174 120 96
0.488631 -0.309317 -0.523 182 130 106
0.493612 -0.309317 -0.523 173 125 102
0.512374 -0.312866 -0.529 161 116 93
0.524259 -0.317006 -0.536 154 113 93
0.0363743 -0.260473 -0.439 194 150 139
0.0433 -0.256913 -0.433 199 156 140
0.0570562 -0.255727 -0.431 195 149 136
0.06034 -0.255727 -0.431 191 145 130
0.0678857 -0.25632 -0.432 176 132 121
0.279886 -0.374987 -0.632 204 208 220
0.283497 -0.374987 -0.632 234 236 249
0.30035 -0.374987 -0.632 221 226 248
0.339945 -0.376173 -0.634 184 195 213
0.348398 -0.376173 -0.634 162 163 183
0.361682 -0.376173 -0.634 174 179 201
0.389474 -0.37736 -0.636 55 89 152
0.399166 -0.37736 -0.636 157 169 207
0.407005 -0.376767 -0.635 132 135 144
0.422729 -0.376767 -0.635 163 164 182
0.448129 -0.376767 -0.635 53 89 147
0.454176 -0.376767 -0.635 125 143 183
0.472783 -0.376173 -0.634 179 173 185
0.492881 -0.376767 -0.635 171 168 187
0.497719 -0.376767 -0.635 61 75 122
0.504976 -0.376767 -0.635 126 137 167
0.51949 -0.376767 -0.635 149 154 184
0.512002 -0.354813 -0.598 132 101 98
0.475093 -0.322773 -0.544 164 110 98
0.4815 -0.3115 -0.525 186 130 107
0.489686 -0.30972 -0.522 182 130 106
0.5055 -0.3115 -0.525 162 117 94
0.522303 -0.31684 -0.534 154 113 93
0.0417467 -0.258333 -0.434 200 157 141
0.04896 -0.257143 -0.432 198 155 139
0.0506057 -0.257143 -0.432 193 150 134
0.0513095 -0.256548 -0.431 193 150 134
0.0619819 -0.256548 -0.431 182 139 123
0.0695314 -0.257143 -0.432 167 124 115
0.072 -0.257143 -0.432 163 120 113
0.108119 -0.282738 -0.475 92 76 79
0.30035 -0.37619 -0.632 222 227 249
0.320117 -0.376786 -0.633 52 85 154
0.327351 -0.376786 -0.633 65 96 161
0.339945 -0.377381 -0.634 183 191 210
0.34236 -0.377381 -0.634 185 193 212
0.346643 -0.376786 -0.633 111 109 122
0.350813 -0.377381 -0.634 127 133 159
0.356851 -0.377381 -0.634 147 159 185
0.359267 -0.377381 -0.634 153 161 182
0.376767 -0.377976 -0.635 63 92 152
0.391281 -0.377976 -0.635 77 108 165
0.396119 -0.377976 -0.635 40 62 109
0.407571 -0.377381 -0.634 104 103 109
0.414163 -0.376786 -0.633 149 154 174
0.453461 -0.377381 -0.634 125 143 181
0.461433 -0.377976 -0.635 75 83 122
0.483205 -0.377976 -0.635 168 170 185
0.490462 -0.377976 -0.635 152 146 156
0.500558 -0.377381 -0.634 155 161 185
0.506596 -0.377381 -0.634 105 120 159
0.507804 -0.377381 -0.634 93 108 147
0.513842 -0.377381 -0.634 82 109 156
0.526294 -0.376786 -0.633 104 112 125
0.48978 -0.3375 -0.567 140 103 95
0.473807 -0.320833 -0.539 166 113 99
0.475639 -0.317262 -0.533 169 117 95
0.4815 -0.3125 -0.525 185 131 105
0.501582 -0.31131 -0.523 168 122 98
0.0333305 -0.264534 -0.443 194 150 139
0.0424752 -0.258563 -0.433 200 157 140
0.0448457 -0.257966 -0.432 204 159 140
0.0464914 -0.257966 -0.432 203 156 136
0.0473143 -0.257966 -0.432 198 155 138
0.0644448 -0.257369 -0.431 172 128 115
0.10208 -0.277074 -0.464 92 73 77
0.272231 -0.376797 -0.631 235 241 255
0.301554 -0.377394 -0.632 214 219 241
0.303962 -0.377394 -0.632 208 213 233
0.32563 -0.377394 -0.632 81 110 176
0.34182 -0.377991 -0.633 185 192 210
0.39308 -0.378589 -0.634 145 164 207
0.460707 -0.378589 -0.634 115 120 152
0.472037 -0.377991 -0.633 172 168 185
0.474449 -0.377991 -0.633 171 168 189
0.479271 -0.377991 -0.633 137 143 159
0.481236 -0.378589 -0.634 168 170 191
0.509011 -0.378589 -0.634 93 116 157
0.522295 -0.378589 -0.634 171 177 193
0.530278 -0.377394 -0.632 137 138 159
0.499043 -0.345746 -0.579 138 104 95
0.474833 -0.32186 -0.539 168 115 97
0.474232 -0.320069 -0.536 169 114 94
0.478315 -0.314694 -0.527 181 127 103
0.0345438 -0.261784 -0.437 196 154 138
0.0448457 -0.258789 -0.432 204 159 138
0.0562352 -0.25819 -0.431 191 150 130
0.061161 -0.25819 -0.431 182 139 123
0.06624 -0.258789 -0.432 173 129 118
0.0695314 -0.258789 -0.432 172 128 119
0.100978 -0.277359 -0.463 93 72 77
0.243 -0.3774 -0.63 163 167 196
0.2694 -0.3774 -0.63 225 231 245
0.2718 -0.3774 -0.63 231 236 255
0.2742 -0.3774 -0.63 230 236 255
0.30949 -0.377999 -0.631 84 101 145
0.320308 -0.377999 -0.631 69 102 171
0.326317 -0.377999 -0.631 83 113 173
0.340076 -0.378598 -0.632 189 196 212
0.361111 -0.379197 -0.633 183 185 200
0.381004 -0.379796 -0.634 91 117 166
0.389457 -0.379796 -0.634 124 143 183
0.393666 -0.379197 -0.633 137 149 191
0.4009 -0.379197 -0.633 157 165 188
0.419528 -0.378598 -0.632 167 170 189
0.420731 -0.378598 -0.632 167 170 189
0.441894 -0.379197 -0.633 110 125 164
0.4431 -0.379197 -0.633 85 108 152
0.490123 -0.379197 -0.633 112 110 134
0.508209 -0.379197 -0.633 99 121 162
0.526667 -0.378598 -0.632 164 167 184
0.477005 -0.326481 -0.545 158 112 99
0.475565 -0.324085 -0.541 164 112 98
0.475714 -0.323486 -0.54 169 114 94
0.491674 -0.312703 -0.522 179 129 106
0.517412 -0.316896 -0.529 156 114 92
0.5194 -0.317495 -0.53 155 113 91
0.525354 -0.319891 -0.534 145 104 82
0.0312162 -0.269828 -0.449 196 154 138
0.0463838 -0.25901 -0.431 201 156 135
0.0480257 -0.25901 -0.431 197 155 133
0.0652657 -0.25901 -0.431 171 127 114
0.07866 -0.262616 -0.437 139 99 91
0.262982 -0.377999 -0.629 136 153 197
0.329923 -0.379201 -0.631 114 136 183
0.340076 -0.379802 -0.632 190 193 208
0.379197 -0.380403 -0.633 142 160 198
0.398489 -0.380403 -0.633 60 78 118
0.399694 -0.380403 -0.633 107 125 165
0.40147 -0.379802 -0.632 164 174 201
0.403878 -0.379802 -0.632 147 149 162
0.405082 -0.379802 -0.632 127 126 132
0.406286 -0.379802 -0.632 157 156 162
0.420731 -0.379802 -0.632 165 168 187
0.438789 -0.379802 -0.632 137 142 164
0.441196 -0.379802 -0.632 110 122 162
0.471291 -0.379802 -0.632 166 164 186
0.4853 -0.380403 -0.633 167 170 189
0.485737 -0.379802 -0.632 156 159 178
0.488917 -0.380403 -0.633 162 163 184
0.516649 -0.380403 -0.633 79 101 142
0.525463 -0.379802 -0.632 176 172 189
0.531 -0.3786 -0.63 95 99 128
0.494323 -0.343144 -0.571 140 106 97
0.475117 -0.322711 -0.537 169 114 93
0.494702 -0.313096 -0.521 175 125 102
0.502611 -0.313697 -0.522 166 120 96
0.507531 -0.314899 -0.524 160 115 92
0.0472048 -0.259831 -0.431 197 155 133
0.0569238 -0.259229 -0.43 185 144 124
0.0729914 -0.261037 -0.433 158 115 106
0.0748133 -0.26164 -0.434 152 116 104
0.0776495 -0.262846 -0.436 143 103 93
0.0900267 -0.27008 -0.448 107 82 86
0.0974829 -0.276711 -0.459 96 75 80
0.294132 -0.379197 -0.629 225 227 250
0.297727 -0.379197 -0.629 222 224 245
0.304915 -0.379197 -0.629 126 131 160
0.30851 -0.379197 -0.629 185 203 241
0.312104 -0.379197 -0.629 154 176 223
0.319292 -0.379197 -0.629 74 108 172
0.325283 -0.379197 -0.629 151 173 220
0.347951 -0.380403 -0.631 186 187 205
0.355163 -0.380403 -0.631 183 186 203
0.373783 -0.381006 -0.632 170 179 208
0.378598 -0.381006 -0.632 144 160 196
0.395451 -0.381006 -0.632 123 136 171
0.424873 -0.380403 -0.631 164 165 183
0.444808 -0.381006 -0.632 107 130 174
0.456846 -0.381006 -0.632 172 170 191
0.509813 -0.381006 -0.632 114 136 186
0.51824 -0.381006 -0.632 117 135 173
0.5298 -0.3798 -0.63 144 149 169
0.486933 -0.3376 -0.56 147 107 99
0.480333 -0.331571 -0.55 153 109 98
0.475386 -0.322529 -0.535 170 119 98
0.488748 -0.314089 -0.521 177 125 103
0.49371 -0.314089 -0.521 177 127 104
0.509528 -0.315897 -0.524 157 115 91
0.513476 -0.317103 -0.526 158 116 92
0.51744 -0.318309 -0.528 158 116 94
0.522403 -0.320117 -0.531 153 112 92
0.0390857 -0.261257 -0.432 205 160 141
0.0472048 -0.260652 -0.431 193 152 134
0.0552857 -0.260048 -0.43 187 144 125
0.0776495 -0.263676 -0.436 146 106 96
0.0848029 -0.26791 -0.443 125 90 86
0.278557 -0.380395 -0.629 235 238 255
0.301321 -0.380395 -0.629 208 210 235
0.30851 -0.380395 -0.629 199 214 247
0.318094 -0.380395 -0.629 92 124 183
0.322887 -0.380395 -0.629 159 190 244
0.328877 -0.380395 -0.629 182 193 223
0.3342 -0.381 -0.63 110 121 167
0.367182 -0.381605 -0.631 68 77 110
0.4134 -0.381 -0.63 117 126 157
0.423671 -0.381605 -0.631 162 167 187
0.442902 -0.381605 -0.631 105 126 173
0.457325 -0.381605 -0.631 179 171 192
0.469344 -0.381605 -0.631 120 126 158
0.470546 -0.381605 -0.631 144 150 182
0.503794 -0.38221 -0.632 114 110 135
0.509813 -0.38221 -0.632 102 125 177
0.51824 -0.38221 -0.632 118 136 176
0.521026 -0.381605 -0.631 168 167 181
0.524631 -0.381605 -0.631 174 170 185
0.531355 -0.380395 -0.629 81 95 124
0.509648 -0.35681 -0.59 136 107 99
0.47892 -0.3302 -0.546 159 111 97
0.48365 -0.31629 -0.523 185 131 107
0.0319 -0.2639 -0.435 200 157 138
0.0357943 -0.26208 -0.432 204 159 138
0.042279 -0.261473 -0.431 205 160 139
0.0488467 -0.261473 -0.431 192 151 131
0.0569238 -0.260867 -0.43 190 147 130
0.07866 -0.265113 -0.437 145 101 88
0.0796743 -0.26572 -0.438 137 99 88
0.0953171 -0.277247 -0.457 94 75 79
0.270937 -0.380987 -0.628 234 241 255
0.27333 -0.380987 -0.628 235 242 255
0.285291 -0.380987 -0.628 214 216 237
0.286488 -0.380987 -0.628 189 191 212
0.310411 -0.380987 -0.628 169 188 221
0.314 -0.380987 -0.628 113 137 183
0.368384 -0.382807 -0.631 109 118 147
0.369586 -0.382807 -0.631 102 107 127
0.37199 -0.382807 -0.631 173 175 188
0.377999 -0.382807 -0.631 122 138 172
0.387614 -0.382807 -0.631 119 130 175
0.4158 -0.3822 -0.63 155 159 184
0.423 -0.3822 -0.63 158 165 191
0.4254 -0.3822 -0.63 97 100 131
0.4266 -0.3822 -0.63 148 154 176
0.4338 -0.3822 -0.63 166 168 181
0.458527 -0.382807 -0.631 176 168 189
0.504199 -0.382807 -0.631 87 115 163
0.52343 -0.382807 -0.631 171 167 181
0.530157 -0.381593 -0.629 110 125 154
0.481381 -0.333667 -0.55 154 112 100
0.477476 -0.328813 -0.542 162 113 98
0.4815 -0.3185 -0.525 186 134 112
0.496724 -0.315467 -0.52 174 124 97
0.615671 -0.368247 -0.607 209 201 198
0.043921 -0.262294 -0.431 201 156 135
0.0472048 -0.262294 -0.431 193 150 131
0.0528286 -0.261686 -0.43 191 148 131
0.061019 -0.261686 -0.43 181 135 122
0.0677286 -0.262294 -0.431 173 129 118
0.0711771 -0.262903 -0.432 160 116 105
0.0906295 -0.274466 -0.451 92 72 74
0.172574 -0.381574 -0.627 239 241 254
0.231094 -0.381574 -0.627 245 249 255
0.234677 -0.381574 -0.627 245 247 255
0.241843 -0.381574 -0.627 192 197 219
0.281703 -0.382183 -0.628 235 237 250
0.297253 -0.382183 -0.628 224 222 243
0.328354 -0.382183 -0.628 188 202 229
0.343254 -0.382791 -0.629 166 164 177
0.369 -0.3834 -0.63 136 141 163
0.3822 -0.3834 -0.63 118 141 193
0.393 -0.3834 -0.63 178 179 200
0.3966 -0.3834 -0.63 169 166 193
0.429517 -0.382791 -0.629 124 131 149
0.4626 -0.3834 -0.63 172 175 190
0.4854 -0.3834 -0.63 54 65 110
0.499391 -0.384009 -0.631 176 174 185
0.502997 -0.384009 -0.631 147 140 158
0.516218 -0.384009 -0.631 91 103 141
0.5238 -0.3834 -0.63 165 172 191
0.477163 -0.326803 -0.537 169 118 89
0.479123 -0.321934 -0.529 173 121 99
0.485709 -0.317674 -0.522 183 128 107
0.486763 -0.317066 -0.521 181 126 105
0.500686 -0.316457 -0.52 169 122 96
0.521443 -0.321934 -0.529 152 114 93
0.53342 -0.326803 -0.537 149 111 88
0.0372667 -0.262505 -0.43 202 157 138
0.0511905 -0.262505 -0.43 192 149 130
0.0660867 -0.263115 -0.431 177 130 120
0.0713419 -0.264336 -0.433 156 112 101
0.0808762 -0.26861 -0.44 125 91 79
0.0987571 -0.283871 -0.465 95 76 82
0.229533 -0.382158 -0.626 242 247 251
0.266497 -0.382158 -0.626 135 141 175
0.268882 -0.382158 -0.626 196 201 241
0.278866 -0.382769 -0.627 234 239 255
0.300363 -0.382769 -0.627 121 131 158
0.316577 -0.382158 -0.626 144 171 218
0.320154 -0.382158 -0.626 128 156 204
0.321347 -0.382158 -0.626 132 160 208
0.331943 -0.383379 -0.628 176 188 212
0.340316 -0.383379 -0.628 184 190 202
0.347493 -0.383379 -0.628 151 160 189
0.354037 -0.38399 -0.629 185 182 203
0.356433 -0.38399 -0.629 184 187 206
0.366018 -0.38399 -0.629 159 165 191
0.385188 -0.38399 -0.629 78 102 150
0.394772 -0.38399 -0.629 173 175 196
0.40915 -0.38399 -0.629 137 143 175
0.436706 -0.38399 -0.629 150 150 176
0.442696 -0.38399 -0.629 110 133 185
0.44629 -0.38399 -0.629 96 122 173
0.487026 -0.38399 -0.629 58 67 108
0.5094 -0.3846 -0.63 105 129 177
0.5154 -0.3846 -0.63 82 95 129
0.481718 -0.334541 -0.548 156 112 99
0.478509 -0.330878 -0.542 162 116 100
0.480323 -0.321721 -0.527 181 129 107
0.480413 -0.32111 -0.526 174 122 100
0.5155 -0.3205 -0.525 154 112 88
0.540451 -0.330878 -0.542 154 116 93
0.54548 -0.33332 -0.546 154 116 93
0.0372667 -0.263324 -0.43 203 158 139
0.0389048 -0.263324 -0.43 196 151 132
0.0503714 -0.263324 -0.43 189 146 127
0.0585619 -0.263324 -0.43 180 134 118
0.0678857 -0.264549 -0.432 174 130 117
0.0713419 -0.265161 -0.433 154 110 97
0.07316 -0.265773 -0.434 154 110 99
0.0923 -0.278633 -0.455 93 74 78
0.09486 -0.281083 -0.459 94 75 79
0.310615 -0.38335 -0.626 154 163 192
0.315385 -0.38335 -0.626 153 178 219
0.31777 -0.38335 -0.626 153 180 225
0.322539 -0.38335 -0.626 134 152 192
0.33912 -0.384575 -0.628 191 197 223
0.340316 -0.384575 -0.628 172 180 193
0.353474 -0.384575 -0.628 181 181 207
0.360028 -0.385188 -0.629 162 171 200
0.363622 -0.385188 -0.629 160 163 194
0.390556 -0.384575 -0.628 174 176 197
0.391752 -0.384575 -0.628 173 175 196
0.39597 -0.385188 -0.629 179 175 198
0.40491 -0.384575 -0.628 118 130 168
0.413284 -0.384575 -0.628 81 109 174
0.431227 -0.384575 -0.628 161 168 184
0.434815 -0.384575 -0.628 171 172 193
0.477441 -0.385188 -0.629 59 80 135
0.479837 -0.385188 -0.629 150 157 186
0.508591 -0.385188 -0.629 119 142 192
0.514582 -0.385188 -0.629 75 88 120
0.516978 -0.385188 -0.629 149 154 173
0.498457 -0.350282 -0.572 144 108 96
0.480413 -0.322112 -0.526 174 122 100
0.508595 -0.31905 -0.521 166 121 98
0.0308571 -0.265371 -0.432 200 157 138
0.0851857 -0.273357 -0.445 111 83 79
0.231548 -0.383929 -0.625 243 246 253
0.23631 -0.383929 -0.625 161 165 194
0.241071 -0.383929 -0.625 209 214 234
0.268452 -0.383929 -0.625 141 146 184
0.281998 -0.384543 -0.626 183 186 205
0.28319 -0.384543 -0.626 194 191 208
0.299405 -0.383929 -0.625 157 167 194
0.339774 -0.385157 -0.627 133 141 162
0.343357 -0.385157 -0.627 178 180 201
0.376202 -0.385771 -0.628 96 110 149
0.384575 -0.385771 -0.628 74 101 148
0.425246 -0.385771 -0.628 162 166 191
0.452758 -0.385771 -0.628 165 166 186
0.457543 -0.385771 -0.628 168 168 176
0.494625 -0.385771 -0.628 167 170 189
0.498213 -0.385771 -0.628 165 168 177
0.504997 -0.386386 -0.629 88 107 149
0.506195 -0.386386 -0.629 100 119 161
0.513384 -0.386386 -0.629 86 104 152
0.520941 -0.385771 -0.628 163 161 182
0.531548 -0.383929 -0.625 169 170 191
0.51128 -0.3612 -0.588 146 109 100
0.478316 -0.329257 -0.536 167 119 99
0.480323 -0.323729 -0.527 176 124 102
0.482654 -0.321271 -0.523 177 122 102
0.491853 -0.3182 -0.518 179 124 103
0.494813 -0.3182 -0.518 177 122 101
0.5175 -0.3225 -0.525 157 116 94
0.540485 -0.332329 -0.541 151 114 95
0.0264 -0.271124 -0.44 200 158 136
0.0379971 -0.264346 -0.429 192 146 130
0.0528286 -0.264962 -0.43 194 149 130
0.0652657 -0.265578 -0.431 174 130 117
0.0769952 -0.269275 -0.437 135 96 91
0.07902 -0.270508 -0.439 128 93 87
0.0914333 -0.280367 -0.455 95 76 80
0.0927057 -0.281599 -0.457 95 76 80
0.0969857 -0.286529 -0.465 92 73 77
0.101357 -0.291458 -0.473 94 75 79
0.263269 -0.384503 -0.624 231 238 254
0.272024 -0.385119 -0.625 231 233 254
0.273214 -0.385119 -0.625 228 230 251
0.282738 -0.385119 -0.625 197 198 218
0.332738 -0.385119 -0.625 194 196 221
0.381574 -0.386351 -0.627 94 117 171
0.396537 -0.386968 -0.628 169 166 183
0.449649 -0.386351 -0.627 100 124 172
0.468309 -0.386968 -0.628 144 155 177
0.504194 -0.386968 -0.628 93 111 151
0.507783 -0.386968 -0.628 92 115 159
0.518549 -0.386968 -0.628 168 167 181
0.483643 -0.338289 -0.549 154 112 100
0.480573 -0.333975 -0.542 158 115 98
0.493827 -0.319187 -0.518 175 123 102
0.507619 -0.320419 -0.52 170 124 101
0.51058 -0.321035 -0.521 167 120 100
0.514532 -0.322268 -0.523 167 121 98
0.519488 -0.324116 -0.526 160 115 94
0.0396314 -0.265163 -0.429 201 156 137
0.0404486 -0.265163 -0.429 202 157 138
0.0446381 -0.265781 -0.43 197 151 135
0.0644448 -0.266399 -0.431 173 129 116
0.0741571 -0.268871 -0.435 139 98 96
0.100244 -0.291741 -0.472 92 73 79
0.169371 -0.385691 -0.624 220 226 242
0.2288 -0.385691 -0.624 242 245 254
0.239497 -0.385691 -0.624 237 244 255
0.283474 -0.385691 -0.624 127 134 160
0.300114 -0.385691 -0.624 214 216 241
0.314377 -0.385691 -0.624 133 160 203
0.321509 -0.385691 -0.624 92 126 174
0.368437 -0.387546 -0.627 184 184 208
0.375603 -0.387546 -0.627 98 110 152
0.394145 -0.388164 -0.628 148 152 163
0.420986 -0.387546 -0.627 64 82 120
0.421507 -0.386928 -0.626 99 108 149
0.422699 -0.386928 -0.626 54 63 104
0.449649 -0.387546 -0.627 103 129 178
0.450843 -0.387546 -0.627 159 161 182
0.45562 -0.387546 -0.627 168 170 182
0.459203 -0.387546 -0.627 165 167 190
0.460397 -0.387546 -0.627 145 147 170
0.462786 -0.387546 -0.627 101 111 138
0.465174 -0.387546 -0.627 166 171 200
0.498614 -0.387546 -0.627 163 164 184
0.521306 -0.387546 -0.627 142 144 165
0.519975 -0.369621 -0.598 141 107 105
0.483806 -0.338716 -0.548 157 113 100
0.515529 -0.323264 -0.523 165 119 96
0.0261 -0.2697 -0.435 194 153 131
0.0283886 -0.26784 -0.432 194 152 130
0.0379971 -0.26598 -0.429 198 155 136
0.0634762 -0.2666 -0.43 173 129 116
0.2403 -0.38626 -0.623 234 241 255
0.241487 -0.38626 -0.623 234 241 255
0.242673 -0.38626 -0.623 221 224 241
0.24386 -0.38626 -0.623 196 199 216
0.27872 -0.38688 -0.624 217 220 239
0.296073 -0.38626 -0.623 197 203 227
0.314377 -0.38688 -0.624 136 161 202
0.346387 -0.38812 -0.626 101 122 167
0.348771 -0.38812 -0.626 46 75 135
0.376797 -0.38874 -0.627 85 104 146
0.415014 -0.38874 -0.627 160 165 205
0.419122 -0.38812 -0.626 118 134 168
0.427469 -0.38812 -0.626 175 175 203
0.453701 -0.38812 -0.626 161 165 177
0.4807 -0.38874 -0.627 167 173 189
0.503391 -0.38874 -0.627 117 132 173
0.512946 -0.38874 -0.627 112 131 174
0.525244 -0.38812 -0.626 124 133 166
0.526436 -0.38812 -0.626 155 158 175
0.530357 -0.3875 -0.625 169 168 186
0.486763 -0.32302 -0.521 172 120 99
0.507631 -0.32178 -0.519 169 124 105
0.51059 -0.3224 -0.52 159 116 97
0.0429 -0.266797 -0.429 201 156 137
0.0569238 -0.267419 -0.43 186 139 121
0.0715067 -0.269907 -0.434 146 106 96
0.2759 -0.387447 -0.623 178 179 207
0.30794 -0.387447 -0.623 149 164 197
0.309127 -0.387447 -0.623 127 142 175
0.33869 -0.38869 -0.625 48 70 117
0.344643 -0.38869 -0.625 148 168 195
0.352349 -0.389312 -0.626 154 169 202
0.357118 -0.389312 -0.626 76 92 141
0.35831 -0.389312 -0.626 43 59 108
0.409583 -0.389312 -0.626 70 86 120
0.41316 -0.389312 -0.626 141 143 181
0.419643 -0.38869 -0.625 138 149 177
0.429167 -0.38869 -0.625 178 174 201
0.433929 -0.38869 -0.625 150 155 174
0.435119 -0.38869 -0.625 135 146 176
0.448931 -0.389312 -0.626 113 137 183
0.453701 -0.389312 -0.626 115 118 133
0.46369 -0.38869 -0.625 170 171 191
0.470833 -0.38869 -0.625 169 169 193
0.472779 -0.389312 -0.626 170 168 192
0.48013 -0.328988 -0.529 166 117 100
0.494843 -0.321525 -0.517 173 122 101
0.534509 -0.332097 -0.534 154 116 97
0.0453514 -0.267614 -0.429 197 152 131
0.05434 -0.267614 -0.429 185 140 119
0.0660867 -0.268862 -0.431 163 120 104
0.265979 -0.38801 -0.622 225 232 250
0.273088 -0.38801 -0.622 127 133 165
0.2759 -0.388633 -0.623 169 176 205
0.290859 -0.38801 -0.622 102 120 156
0.299152 -0.38801 -0.622 210 212 237
0.306261 -0.38801 -0.622 191 193 216
0.325074 -0.389257 -0.624 190 202 214
0.339881 -0.389881 -0.625 95 121 170
0.343452 -0.389881 -0.625 168 188 212
0.414881 -0.389881 -0.625 160 170 195
0.4375 -0.389881 -0.625 99 127 167
0.439881 -0.389881 -0.625 87 118 162
0.466071 -0.389881 -0.625 172 174 189
0.485119 -0.389881 -0.625 166 171 193
0.48631 -0.389881 -0.625 170 170 196
0.498214 -0.389881 -0.625 155 162 178
0.480481 -0.333738 -0.535 166 115 98
0.479813 -0.331867 -0.532 170 119 102
0.481415 -0.328124 -0.526 175 122 104
0.495851 -0.321886 -0.516 173 121 100
0.026681 -0.269683 -0.431 190 148 126
0.0338324 -0.267806 -0.428 198 155 136
0.0502543 -0.268431 -0.429 190 144 121
0.0518886 -0.268431 -0.429 185 140 117
0.0577429 -0.269057 -0.43 181 135 111
0.0687086 -0.270309 -0.432 151 111 101
0.07956 -0.276566 -0.442 119 85 84
0.102643 -0.299717 -0.479 95 79 82
0.246626 -0.388569 -0.621 157 173 206
0.275457 -0.389194 -0.622 151 157 189
0.295598 -0.389194 -0.622 208 206 230
0.306951 -0.388569 -0.621 117 136 169
0.314554 -0.389194 -0.622 119 145 194
0.318109 -0.389194 -0.622 103 131 179
0.338149 -0.390446 -0.624 100 120 153
0.346469 -0.390446 -0.624 73 99 134
0.354789 -0.390446 -0.624 162 167 199
0.36369 -0.391071 -0.625 178 184 206
0.37856 -0.390446 -0.624 118 142 180
0.397577 -0.390446 -0.624 157 163 189
0.402331 -0.390446 -0.624 165 170 189
0.415406 -0.390446 -0.624 165 172 198
0.423726 -0.390446 -0.624 102 108 134
0.42848 -0.390446 -0.624 156 162 188
0.462949 -0.390446 -0.624 171 173 196
0.477976 -0.391071 -0.625 171 174 189
0.495833 -0.391071 -0.625 79 86 115
0.519643 -0.391071 -0.625 64 73 104
0.524754 -0.390446 -0.624 169 170 191
0.488389 -0.345394 -0.552 157 116 98
0.484714 -0.326623 -0.522 170 119 100
0.484778 -0.325997 -0.521 175 124 105
0.497833 -0.322243 -0.515 172 121 102
0.517526 -0.326623 -0.522 160 117 100
0.0379086 -0.268621 -0.428 197 152 133
0.07068 -0.272387 -0.434 142 101 95
0.291574 -0.389751 -0.621 107 123 156
0.312185 -0.390379 -0.622 116 140 188
0.315739 -0.390379 -0.622 128 150 199
0.32574 -0.391007 -0.623 193 196 213
0.349473 -0.391007 -0.623 115 141 202
0.36192 -0.391634 -0.624 139 144 182
0.376183 -0.391634 -0.624 109 125 161
0.387447 -0.391007 -0.623 176 179 198
0.435611 -0.391634 -0.624 141 146 176
0.4368 -0.391634 -0.624 137 150 184
0.442262 -0.392262 -0.625 92 117 173
0.451063 -0.391634 -0.624 148 161 193
0.45344 -0.391634 -0.624 160 165 187
0.457006 -0.391634 -0.624 76 79 114
0.458194 -0.391634 -0.624 115 118 153
0.480777 -0.391634 -0.624 167 170 185
0.499794 -0.391634 -0.624 100 117 161
0.4815 -0.3295 -0.525 174 123 104
0.489954 -0.323851 -0.516 180 129 108
0.49391 -0.323224 -0.515 179 127 106
0.501757 -0.323224 -0.515 176 127 110
0.514552 -0.326362 -0.52 162 116 100
0.0198743 -0.279509 -0.444 193 155 136
0.0273743 -0.270066 -0.429 198 157 137
0.05434 -0.270066 -0.429 183 136 116
0.0585619 -0.270695 -0.43 177 131 107
0.0775238 -0.27699 -0.44 116 85 83
0.0807657 -0.279509 -0.444 111 82 84
0.234419 -0.390305 -0.62 235 233 255
0.286381 -0.390305 -0.62 198 205 231
0.288743 -0.390305 -0.62 182 193 223
0.297489 -0.390934 -0.621 201 205 230
0.325217 -0.391564 -0.622 194 196 217
0.328771 -0.391564 -0.622 189 199 224
0.33351 -0.391564 -0.622 139 141 164
0.337607 -0.392193 -0.623 175 180 202
0.364297 -0.392823 -0.624 134 142 179
0.366674 -0.392823 -0.624 171 178 207
0.381513 -0.392193 -0.623 118 136 174
0.420673 -0.392193 -0.623 172 176 201
0.42186 -0.392193 -0.623 174 179 201
0.439177 -0.392823 -0.624 77 105 152
0.490286 -0.392823 -0.624 128 127 132
0.509303 -0.392823 -0.624 29 67 130
0.530511 -0.390934 -0.621 152 149 166
0.516637 -0.37079 -0.589 144 106 95
0.492812 -0.350645 -0.557 151 112 97
0.482914 -0.339943 -0.54 161 116 95
0.481038 -0.333648 -0.53 167 119 99
0.488934 -0.325464 -0.517 177 125 104
0.495888 -0.323575 -0.514 176 125 104
0.496867 -0.323575 -0.514 173 122 101
0.5106 -0.326093 -0.518 162 116 100
0.522503 -0.32987 -0.524 156 113 96
0.533529 -0.334277 -0.531 149 108 90
0.0361933 -0.26962 -0.427 193 148 127
0.0602 -0.271514 -0.43 177 130 110
0.06624 -0.272777 -0.432 158 112 99
0.0688676 -0.273409 -0.433 148 105 98
0.0746686 -0.276566 -0.438 124 93 91
0.0879667 -0.2873 -0.455 95 74 79
0.089419 -0.289194 -0.458 93 72 77
0.339434 -0.392749 -0.622 189 190 218
0.348912 -0.392749 -0.622 155 172 215
0.351282 -0.392749 -0.622 182 189 215
0.355407 -0.39338 -0.623 178 186 207
0.366087 -0.39338 -0.623 161 173 211
0.376767 -0.39338 -0.623 98 119 162
0.39338 -0.39338 -0.623 70 80 107
0.395753 -0.39338 -0.623 150 156 182
0.39694 -0.39338 -0.623 175 177 200
0.405247 -0.39338 -0.623 171 176 198
0.412367 -0.39338 -0.623 169 170 190
0.421183 -0.392749 -0.622 174 179 199
0.46265 -0.392749 -0.622 167 171 182
0.472887 -0.39338 -0.623 117 122 151
0.478051 -0.392749 -0.622 152 153 171
0.51798 -0.39338 -0.623 92 114 164
0.524257 -0.392749 -0.622 162 163 168
0.483047 -0.34034 -0.539 163 118 97
0.488971 -0.325817 -0.516 182 130 109
0.489954 -0.325817 -0.516 180 128 107
0.495888 -0.324554 -0.514 178 128 105
0.505681 -0.325186 -0.515 164 118 95
0.53454 -0.335289 -0.531 149 108 90
0.0296867 -0.270433 -0.427 201 156 135
0.0361933 -0.270433 -0.427 196 151 130
0.0542133 -0.271067 -0.428 181 133 111
0.0698533 -0.274867 -0.434 141 101 93
0.0811295 -0.282467 -0.446 106 80 81
0.0869086 -0.287533 -0.454 95 74 79
0.31 -0.392667 -0.62 133 151 187
0.311181 -0.392667 -0.62 131 150 193
0.326533 -0.392667 -0.62 187 194 222
0.356021 -0.393933 -0.622 181 189 208
0.361945 -0.393933 -0.622 89 102 146
0.387386 -0.3933 -0.621 162 172 199
0.399857 -0.393933 -0.622 170 172 193
0.406966 -0.393933 -0.622 166 171 191
0.421689 -0.3933 -0.621 172 177 197
0.45034 -0.394567 -0.623 134 147 192
0.467389 -0.393933 -0.622 149 152 169
0.478051 -0.393933 -0.622 137 140 159
0.504116 -0.393933 -0.622 20 51 115
0.515607 -0.394567 -0.623 39 70 127
0.48173 -0.337567 -0.533 170 122 102
0.485933 -0.328067 -0.518 175 124 103
0.488971 -0.3268 -0.516 180 129 108
0.519511 -0.329967 -0.521 160 118 96
0.521503 -0.3306 -0.522 161 119 97
0.540605 -0.338833 -0.535 150 109 89
0.0187286 -0.277599 -0.437 197 159 138
0.0501371 -0.271882 -0.428 186 138 118
0.0778762 -0.280775 -0.442 110 84 83
0.0949371 -0.297291 -0.468 93 73 84
0.244257 -0.392577 -0.618 160 171 201
0.317086 -0.393848 -0.62 111 138 181
0.324171 -0.393848 -0.62 190 193 212
0.369643 -0.394483 -0.621 122 122 148
0.383837 -0.394483 -0.621 134 148 185
0.42642 -0.394483 -0.621 105 111 127
0.436585 -0.395118 -0.622 108 127 183
0.453171 -0.395118 -0.622 76 90 137
0.461465 -0.395118 -0.622 168 167 173
0.478466 -0.394483 -0.621 112 115 134
0.48516 -0.395118 -0.622 128 127 125
0.499377 -0.395118 -0.622 34 64 124
0.500562 -0.395118 -0.622 28 58 118
0.502931 -0.395118 -0.622 23 53 115
0.526114 -0.393848 -0.62 167 170 179
0.534146 -0.391942 -0.617 133 141 154
0.484073 -0.342393 -0.539 164 119 98
0.4833 -0.341123 -0.537 166 121 100
0.48372 -0.331594 -0.522 176 125 106
0.501763 -0.325877 -0.513 166 120 96
0.50274 -0.325877 -0.513 168 122 98
0.0193819 -0.275883 -0.433 200 157 138
0.0288057 -0.271423 -0.426 199 154 131
0.0385429 -0.271423 -0.426 197 150 130
0.0401657 -0.271423 -0.426 196 149 129
0.0493219 -0.272697 -0.428 191 145 122
0.0902 -0.29436 -0.462 93 72 77
0.293697 -0.393754 -0.618 152 160 199
0.303114 -0.393754 -0.618 198 199 229
0.317753 -0.394391 -0.619 138 170 211
0.328365 -0.394391 -0.619 68 87 120
0.330723 -0.394391 -0.619 146 151 171
0.399214 -0.395666 -0.621 174 181 191
0.407494 -0.395666 -0.621 116 120 145
0.40986 -0.395666 -0.621 153 159 183
0.414591 -0.395666 -0.621 168 175 194
0.418648 -0.395029 -0.62 181 183 198
0.428095 -0.395029 -0.62 87 99 123
0.441797 -0.395666 -0.621 45 72 139
0.454809 -0.395666 -0.621 170 177 195
0.471369 -0.395666 -0.621 125 132 158
0.483197 -0.395666 -0.621 111 110 108
0.492269 -0.396303 -0.622 165 172 188
0.493453 -0.396303 -0.622 161 168 184
0.504489 -0.395666 -0.621 20 48 113
0.534453 -0.39248 -0.616 156 164 177
0.485735 -0.345331 -0.542 161 116 95
0.482146 -0.337049 -0.529 167 121 97
0.48598 -0.329403 -0.517 169 119 96
0.492969 -0.326854 -0.513 179 131 108
0.493946 -0.326854 -0.513 179 129 106
0.49981 -0.326217 -0.512 167 121 98
0.504694 -0.326854 -0.513 169 121 99
0.52549 -0.333226 -0.523 155 117 94
0.0427 -0.272873 -0.427 195 147 127
0.0710057 -0.278625 -0.436 133 96 88
0.0792524 -0.284376 -0.445 107 82 85
0.0876743 -0.292684 -0.458 94 73 78
0.0903952 -0.295879 -0.463 91 72 76
0.235635 -0.394292 -0.617 219 220 250
0.323126 -0.394931 -0.618 186 192 218
0.363143 -0.39621 -0.62 125 140 173
0.37141 -0.39621 -0.62 113 120 149
0.37259 -0.39621 -0.62 119 137 187
0.375557 -0.396849 -0.621 56 86 148
0.378495 -0.39621 -0.62 67 104 157
0.410381 -0.39621 -0.62 146 153 181
0.423868 -0.39557 -0.619 151 152 157
0.428584 -0.39557 -0.619 62 84 133
0.436362 -0.39621 -0.62 61 84 151
0.44699 -0.39621 -0.62 47 78 135
0.490294 -0.396849 -0.621 167 167 177
0.504489 -0.396849 -0.621 29 63 127
0.508037 -0.396849 -0.621 37 71 134
0.524087 -0.39557 -0.619 120 120 130
0.501853 -0.361701 -0.566 144 110 100
0.482746 -0.340612 -0.533 166 121 100
0.482853 -0.339973 -0.532 169 123 100
0.4825 -0.3355 -0.525 173 126 100
0.485933 -0.331027 -0.518 175 127 105
0.491991 -0.327831 -0.513 181 133 110
0.495909 -0.327192 -0.512 176 126 103
0.505671 -0.327831 -0.513 166 121 100
0.0393543 -0.273046 -0.426 195 149 126
0.0435133 -0.273687 -0.427 191 143 123
0.0493219 -0.274328 -0.428 185 137 115
0.0501371 -0.274328 -0.428 180 134 111
0.0682 -0.278173 -0.434 139 99 89
0.0711686 -0.280096 -0.437 130 93 87
0.288521 -0.395468 -0.617 199 206 225
0.295572 -0.395468 -0.617 128 135 179
0.320771 -0.396109 -0.618 168 184 209
0.337251 -0.396109 -0.618 188 197 206
0.34723 -0.39675 -0.619 174 179 201
0.361378 -0.39675 -0.619 184 183 197
0.380857 -0.39739 -0.62 90 121 185
0.406182 -0.39675 -0.619 101 112 140
0.416793 -0.39675 -0.619 179 174 181
0.430942 -0.39675 -0.619 46 81 139
0.432121 -0.39675 -0.619 45 80 138
0.434479 -0.39675 -0.619 43 67 131
0.441553 -0.39675 -0.619 39 64 131
0.455257 -0.39739 -0.62 160 164 191
0.461162 -0.39739 -0.62 110 105 109
0.462343 -0.39739 -0.62 110 105 109
0.467067 -0.39739 -0.62 150 151 156
0.479283 -0.39675 -0.619 100 95 101
0.500133 -0.39739 -0.62 76 108 157
0.525266 -0.39675 -0.619 141 143 156
0.528803 -0.39675 -0.619 165 164 180
0.53328 -0.394827 -0.616 171 173 188
0.491702 -0.353165 -0.551 156 113 97
0.482146 -0.339064 -0.529 167 121 98
0.482654 -0.335218 -0.523 168 120 98
0.483906 -0.332654 -0.519 175 127 104
0.485883 -0.332654 -0.519 175 127 105
0.516508 -0.331372 -0.517 165 122 103
0.526474 -0.334577 -0.522 155 114 94
0.0207886 -0.275143 -0.428 198 156 131
0.0247486 -0.273857 -0.426 199 157 132
0.02556 -0.273857 -0.426 199 158 130
0.0619819 -0.277071 -0.431 159 113 97
0.0663933 -0.278357 -0.433 142 100 88
0.0673733 -0.279 -0.434 140 100 92
0.0796086 -0.287357 -0.447 104 79 82
0.0933533 -0.3015 -0.469 91 74 80
0.2904 -0.396 -0.616 198 203 222
0.295093 -0.396 -0.616 162 167 205
0.30096 -0.396 -0.616 185 197 237
0.309173 -0.396 -0.616 79 110 167
0.329654 -0.396643 -0.617 189 194 216
0.349023 -0.397286 -0.618 168 174 196
0.401994 -0.397286 -0.618 139 142 157
0.40788 -0.397286 -0.618 123 132 163
0.410234 -0.397286 -0.618 140 146 172
0.469429 -0.398571 -0.62 168 167 181
0.473388 -0.397929 -0.619 159 166 176
0.475746 -0.397929 -0.619 166 166 174
0.485178 -0.397929 -0.619 163 167 179
0.489505 -0.398571 -0.62 148 153 175
0.491867 -0.398571 -0.62 90 100 127
0.494229 -0.398571 -0.62 109 124 155
0.497771 -0.398571 -0.62 128 148 183
0.501685 -0.397929 -0.619 56 87 142
0.506401 -0.397929 -0.619 69 101 160
0.523534 -0.381214 -0.593 137 110 101
0.491857 -0.353571 -0.55 154 112 96
0.482957 -0.341357 -0.531 168 123 100
0.48372 -0.335571 -0.522 172 124 101
0.0168686 -0.278537 -0.432 200 160 134
0.0184286 -0.277248 -0.43 196 156 131
0.0239371 -0.274669 -0.426 199 158 130
0.0247486 -0.274669 -0.426 199 158 130
0.08082 -0.289498 -0.449 100 76 76
0.238386 -0.396529 -0.615 215 221 243
0.285243 -0.396529 -0.615 203 208 227
0.286414 -0.396529 -0.615 200 205 224
0.296267 -0.397173 -0.616 162 166 195
0.302814 -0.396529 -0.615 150 154 183
0.312693 -0.397173 -0.616 58 96 169
0.32208 -0.397173 -0.616 112 135 179
0.330293 -0.397173 -0.616 185 190 212
0.33264 -0.397173 -0.616 188 191 206
0.347283 -0.397818 -0.617 146 156 183
0.348458 -0.397818 -0.617 154 164 191
0.351377 -0.398463 -0.618 164 172 191
0.353731 -0.398463 -0.618 180 187 203
0.365503 -0.398463 -0.618 92 98 120
0.378451 -0.398463 -0.618 39 73 137
0.380806 -0.398463 -0.618 37 71 135
0.423673 -0.397818 -0.617 177 182 188
0.436131 -0.398463 -0.618 43 68 132
0.462776 -0.399108 -0.619 98 97 105
0.473388 -0.399108 -0.619 159 166 176
0.474567 -0.399108 -0.619 167 167 175
0.480863 -0.398463 -0.618 156 160 163
0.505222 -0.399108 -0.619 64 93 151
0.533586 -0.396529 -0.615 160 158 172
0.533888 -0.395884 -0.614 165 163 177
0.483786 -0.335921 -0.521 172 126 102
0.495914 -0.328829 -0.51 179 131 109
0.504673 -0.329473 -0.511 162 118 93
0.50958 -0.330763 -0.513 164 119 96
0.520467 -0.333987 -0.518 157 115 93
0.52246 -0.334631 -0.519 154 112 90
