ply
format ascii 1.0
comment Created by Open3D
element vertex 1280
property double x
property double y
property double z
property uchar red
property uchar green
property uchar blue
end_header
0.483297 -0.353343 -0.498 174 134 109
0.489713 -0.349795 -0.493 184 140 115
0.494343 -0.349086 -0.492 183 137 113
0.51728 -0.346248 -0.488 166 124 99
1.08099 -0.429971 -0.606 204 206 192
0.0573029 -0.392709 -0.552 208 152 129
0.0626714 -0.380614 -0.535 202 156 132
0.0760752 -0.376346 -0.529 206 160 134
0.113253 -0.389863 -0.548 144 100 89
0.115972 -0.391997 -0.551 144 96 84
0.169103 -0.416897 -0.586 69 86 114
0.180265 -0.416897 -0.586 77 109 166
0.181381 -0.416897 -0.586 90 122 179
0.184414 -0.416186 -0.585 85 112 167
0.193329 -0.416186 -0.585 198 204 220
0.210402 -0.416897 -0.586 109 139 193
0.220824 -0.417609 -0.587 196 211 244
0.437634 -0.424011 -0.596 74 117 168
0.462249 -0.424723 -0.597 65 96 150
0.501143 -0.426857 -0.6 73 109 167
0.514857 -0.426857 -0.6 163 174 194
0.526785 -0.406937 -0.572 148 118 116
0.494376 -0.374923 -0.527 160 126 114
0.482349 -0.354291 -0.498 175 135 110
0.486002 -0.351446 -0.494 175 133 108
0.499711 -0.347889 -0.489 181 137 108
0.511582 -0.346466 -0.487 176 130 104
0.515292 -0.346466 -0.487 170 125 96
0.526071 -0.349311 -0.491 160 120 95
0.541557 -0.356426 -0.501 149 114 92
0.07406 -0.377353 -0.529 205 157 134
0.0999143 -0.383773 -0.538 179 123 100
0.107049 -0.38734 -0.543 159 108 89
0.126005 -0.401607 -0.563 122 93 89
0.150128 -0.418013 -0.586 43 51 87
0.153476 -0.418013 -0.586 60 75 104
0.159057 -0.418013 -0.586 151 150 168
0.172451 -0.418013 -0.586 68 96 135
0.173568 -0.418013 -0.586 70 103 148
0.194443 -0.4173 -0.585 204 207 224
0.200014 -0.4173 -0.585 83 115 162
0.217099 -0.418013 -0.586 120 144 192
0.442175 -0.425147 -0.596 89 132 185
0.44331 -0.425147 -0.596 79 121 171
0.470996 -0.426573 -0.598 84 124 176
0.47897 -0.426573 -0.598 71 87 113
0.4935 -0.3745 -0.525 154 125 111
0.48431 -0.358093 -0.502 175 135 110
0.483246 -0.353813 -0.496 178 136 111
0.489713 -0.351673 -0.493 183 141 117
0.490652 -0.351673 -0.493 183 141 117
0.492469 -0.35096 -0.492 182 141 113
0.499711 -0.34882 -0.489 183 137 113
0.501478 -0.348107 -0.488 179 135 108
0.510531 -0.34668 -0.486 176 131 102
0.512383 -0.34668 -0.486 175 130 101
0.514234 -0.34668 -0.486 169 125 96
0.522997 -0.34882 -0.489 166 121 92
0.0670067 -0.378361 -0.529 205 159 135
0.07392 -0.377646 -0.528 203 157 133
0.078799 -0.37693 -0.527 203 159 130
0.105819 -0.387659 -0.542 161 110 93
0.108282 -0.38909 -0.544 151 103 89
0.12298 -0.399818 -0.559 128 91 85
0.141829 -0.417699 -0.584 47 54 82
0.1755 -0.418414 -0.585 100 127 170
0.196335 -0.417699 -0.584 156 166 178
0.208929 -0.418414 -0.585 135 164 208
0.220448 -0.41913 -0.586 171 188 231
0.357414 -0.422706 -0.591 222 224 239
0.360791 -0.422706 -0.591 229 231 243
0.43164 -0.424851 -0.594 114 150 198
0.439167 -0.425567 -0.595 117 158 202
0.46566 -0.426997 -0.597 89 122 175
0.466797 -0.426997 -0.597 112 143 190
0.507153 -0.428428 -0.599 86 115 159
0.516281 -0.428428 -0.599 171 173 188
0.516558 -0.427712 -0.598 173 171 192
0.52681 -0.427712 -0.598 54 77 111
0.525106 -0.40697 -0.569 148 119 111
0.48432 -0.36048 -0.504 174 133 111
0.483317 -0.356904 -0.499 174 132 110
0.483297 -0.356189 -0.498 175 133 111
0.486043 -0.354043 -0.495 184 140 115
0.49869 -0.349036 -0.488 183 137 111
0.504051 -0.347606 -0.486 178 132 106
0.506829 -0.347606 -0.486 177 133 106
0.507633 -0.34689 -0.485 178 135 103
0.522857 -0.349036 -0.488 168 123 92
0.0595029 -0.382954 -0.534 203 158 135
0.065999 -0.379369 -0.529 203 159 134
0.0747838 -0.377934 -0.527 201 155 131
0.0777952 -0.377934 -0.527 203 157 131
0.0798029 -0.377934 -0.527 204 158 132
0.104593 -0.387974 -0.541 164 111 93
0.108282 -0.390126 -0.544 149 103 90
0.12471 -0.403034 -0.562 123 92 90
0.126229 -0.404469 -0.564 121 90 88
0.142941 -0.418811 -0.584 45 55 82
0.1443 -0.419529 -0.585 66 76 103
0.155443 -0.419529 -0.585 97 104 123
0.156557 -0.419529 -0.585 118 125 144
0.169929 -0.419529 -0.585 78 96 136
0.171043 -0.419529 -0.585 82 109 152
0.177425 -0.418811 -0.584 134 157 198
0.188226 -0.418094 -0.583 203 202 216
0.220071 -0.419529 -0.585 163 182 225
0.2223 -0.419529 -0.585 208 214 238
0.233443 -0.419529 -0.585 175 187 209
0.4573 -0.4267 -0.595 142 152 179
0.470556 -0.427417 -0.596 130 156 189
0.510863 -0.428851 -0.598 123 148 188
0.506283 -0.389409 -0.543 146 123 117
0.485261 -0.364309 -0.508 173 132 112
0.484314 -0.362874 -0.506 175 134 112
0.484157 -0.354986 -0.495 182 138 113
0.485957 -0.353551 -0.493 181 137 112
1.06822 -0.433154 -0.604 203 205 191
1.07052 -0.433154 -0.604 203 206 189
1.07167 -0.433154 -0.604 204 207 190
1.07397 -0.433154 -0.604 203 206 189
1.07512 -0.433154 -0.604 203 206 189
0.0611914 -0.381814 -0.531 200 156 131
0.107049 -0.390443 -0.543 154 106 92
0.142941 -0.419924 -0.584 53 60 88
0.157402 -0.419924 -0.584 142 150 161
0.164076 -0.419924 -0.584 119 116 125
0.166586 -0.420643 -0.585 157 157 169
0.205234 -0.419924 -0.584 174 197 231
0.214133 -0.419924 -0.584 140 159 191
0.219695 -0.419924 -0.584 177 195 235
0.220808 -0.419924 -0.584 210 216 242
0.433172 -0.426395 -0.593 145 178 213
0.445967 -0.427833 -0.595 176 194 218
0.4607 -0.427833 -0.595 80 101 132
0.499774 -0.429271 -0.597 125 153 190
0.506597 -0.429271 -0.597 97 123 158
0.515419 -0.42999 -0.598 178 178 188
0.487131 -0.368152 -0.512 164 131 116
0.485261 -0.365276 -0.508 170 132 111
0.483273 -0.357367 -0.497 176 134 110
0.486002 -0.35521 -0.494 183 139 114
0.491531 -0.353771 -0.492 181 137 110
0.492403 -0.353052 -0.491 181 137 110
0.50843 -0.348019 -0.484 180 135 106
0.514884 -0.348019 -0.484 172 127 98
0.517795 -0.348738 -0.485 170 124 98
0.523641 -0.350176 -0.487 166 120 94
0.0574686 -0.384989 -0.534 200 159 131
0.0658743 -0.380663 -0.528 205 159 133
0.0717724 -0.379942 -0.527 205 158 132
0.0786495 -0.379221 -0.526 203 153 130
0.0806533 -0.379221 -0.526 199 152 126
0.0883333 -0.382105 -0.53 180 130 103
0.145166 -0.421036 -0.584 101 107 133
0.148503 -0.421036 -0.584 86 97 119
0.163795 -0.420315 -0.583 150 147 158
0.17601 -0.420315 -0.583 142 166 200
0.18236 -0.419594 -0.582 150 172 209
0.186794 -0.419594 -0.582 203 209 223
0.19933 -0.420315 -0.583 150 166 202
0.203772 -0.420315 -0.583 171 194 226
0.208214 -0.420315 -0.583 136 151 182
0.231931 -0.421036 -0.584 206 217 237
0.260186 -0.421757 -0.585 229 241 255
0.432043 -0.427525 -0.593 137 165 204
0.434302 -0.427525 -0.593 151 179 216
0.440691 -0.428246 -0.594 121 154 197
0.446349 -0.428246 -0.594 199 203 215
0.456531 -0.428246 -0.594 129 139 164
0.476232 -0.429688 -0.596 120 136 162
0.483854 -0.430409 -0.597 173 184 204
0.4975 -0.430409 -0.597 91 124 159
0.512283 -0.430409 -0.597 177 176 190
0.525929 -0.430409 -0.597 121 135 161
0.527066 -0.430409 -0.597 107 123 146
0.527874 -0.412385 -0.572 141 118 112
0.511762 -0.396524 -0.55 138 117 114
0.49726 -0.381384 -0.529 148 125 119
0.483317 -0.359755 -0.499 171 129 105
0.495901 -0.351825 -0.488 182 136 112
0.511196 -0.348941 -0.484 179 133 107
0.516728 -0.348941 -0.484 171 125 99
0.519643 -0.349662 -0.485 168 122 98
0.52164 -0.350383 -0.486 167 121 97
0.522566 -0.350383 -0.486 167 121 97
0.05356 -0.39468 -0.546 199 157 133
0.0637419 -0.380946 -0.527 204 158 132
0.068761 -0.380946 -0.527 208 161 135
0.0707686 -0.380946 -0.527 205 158 132
0.0717724 -0.380946 -0.527 203 156 130
0.0756438 -0.380223 -0.526 203 157 133
0.0893429 -0.383114 -0.53 174 124 97
0.0985219 -0.387451 -0.536 170 113 93
0.103371 -0.390343 -0.54 163 112 95
0.169348 -0.421426 -0.583 92 114 155
0.34664 -0.42504 -0.588 193 207 234
0.443338 -0.428654 -0.593 169 186 212
0.452006 -0.429377 -0.594 198 199 219
0.496667 -0.430823 -0.596 92 122 156
0.502343 -0.430823 -0.596 138 161 202
0.504613 -0.430823 -0.596 107 133 166
0.530724 -0.430823 -0.596 143 156 173
0.50908 -0.39468 -0.546 141 120 115
0.506383 -0.391789 -0.542 144 123 118
0.487783 -0.355646 -0.492 184 138 114
0.494123 -0.353477 -0.489 184 138 112
0.494971 -0.352754 -0.488 182 137 108
0.500349 -0.351309 -0.486 177 131 105
0.51304 -0.349863 -0.484 174 128 102
1.06812 -0.43516 -0.602 203 205 191
0.0581571 -0.384849 -0.531 204 158 134
0.0656248 -0.381225 -0.526 208 162 136
0.0881667 -0.383399 -0.529 177 125 101
0.121915 -0.405142 -0.559 123 93 93
0.12342 -0.406591 -0.561 123 93 93
0.15908 -0.421811 -0.582 163 162 180
0.171274 -0.421811 -0.582 103 133 171
0.198989 -0.421811 -0.582 200 202 225
0.2134 -0.421811 -0.582 199 207 230
0.217834 -0.421811 -0.582 172 181 210
0.227092 -0.422536 -0.583 240 240 252
0.239308 -0.422536 -0.583 193 215 254
0.253067 -0.423261 -0.584 239 243 254
0.34664 -0.42616 -0.588 213 221 242
0.454633 -0.429784 -0.593 100 116 149
0.455763 -0.429784 -0.593 123 139 172
0.47124 -0.430509 -0.594 175 187 203
0.4743 -0.431233 -0.595 172 184 200
0.475433 -0.431233 -0.595 170 182 198
0.494396 -0.431958 -0.596 149 161 187
0.496967 -0.431233 -0.595 96 122 157
0.5117 -0.431233 -0.595 173 177 188
0.518236 -0.431958 -0.596 150 155 174
0.523912 -0.431958 -0.596 164 172 193
0.526183 -0.431958 -0.596 153 161 180
0.513623 -0.400069 -0.552 135 111 107
0.485278 -0.36673 -0.506 174 132 110
0.491468 -0.355858 -0.491 183 137 113
0.49674 -0.352959 -0.487 182 138 111
0.51658 -0.35006 -0.483 172 128 101
0.519493 -0.350785 -0.484 171 125 99
0.0509943 -0.40112 -0.552 197 155 130
0.05984 -0.38368 -0.528 203 159 132
0.0627381 -0.382953 -0.527 207 161 135
0.0716362 -0.382227 -0.526 199 151 128
0.100939 -0.390947 -0.538 167 110 91
0.119143 -0.404027 -0.556 130 96 94
0.150211 -0.42292 -0.582 126 127 147
0.154646 -0.42292 -0.582 68 77 108
0.155754 -0.42292 -0.582 71 80 111
0.18426 -0.422193 -0.581 203 208 230
0.230029 -0.42292 -0.582 232 237 255
0.231137 -0.42292 -0.582 207 219 245
0.427209 -0.42946 -0.591 156 175 205
0.431711 -0.42946 -0.591 122 148 197
0.439208 -0.430187 -0.592 102 135 178
0.4845 -0.432367 -0.595 108 119 151
0.485633 -0.432367 -0.595 137 148 180
0.490167 -0.432367 -0.595 180 187 205
0.4947 -0.432367 -0.595 131 138 166
0.506033 -0.432367 -0.595 80 109 151
0.529833 -0.432367 -0.595 161 173 185
0.488107 -0.372053 -0.512 171 130 108
0.4843 -0.36406 -0.501 176 134 110
0.489597 -0.356793 -0.491 183 137 113
0.492333 -0.356067 -0.49 181 135 111
0.494123 -0.35534 -0.489 184 138 112
0.535577 -0.35752 -0.492 150 114 88
1.06749 -0.436727 -0.601 203 206 189
0.0492457 -0.405086 -0.556 199 157 133
0.0513857 -0.397071 -0.545 199 157 132
0.063621 -0.383229 -0.526 209 163 139
0.0869943 -0.384686 -0.528 183 128 108
0.0891743 -0.385414 -0.529 183 126 106
0.0903524 -0.386143 -0.53 178 121 101
0.104593 -0.394157 -0.541 162 109 95
0.114923 -0.401443 -0.551 142 97 91
0.120634 -0.406543 -0.558 127 96 93
0.1411 -0.4233 -0.581 82 81 89
0.163233 -0.4233 -0.581 180 182 195
0.166553 -0.4233 -0.581 147 157 169
0.17098 -0.4233 -0.581 84 118 156
0.176513 -0.4233 -0.581 112 143 187
0.182838 -0.422571 -0.58 207 214 233
0.216353 -0.4233 -0.581 231 234 251
0.350523 -0.427671 -0.587 162 177 206
0.435089 -0.430586 -0.591 117 154 196
0.436214 -0.430586 -0.591 104 137 182
0.43734 -0.430586 -0.591 106 139 184
0.444094 -0.430586 -0.591 198 205 221
0.447101 -0.431314 -0.592 204 205 223
0.448229 -0.431314 -0.592 204 205 223
0.453867 -0.431314 -0.592 93 112 144
0.488211 -0.432771 -0.594 181 189 208
0.490474 -0.432771 -0.594 185 191 205
0.499526 -0.432771 -0.594 104 133 177
0.5117 -0.4335 -0.595 175 182 192
0.527567 -0.4335 -0.595 162 176 185
0.4843 -0.365014 -0.501 175 133 109
0.48412 -0.359914 -0.494 181 137 112
0.489597 -0.357729 -0.491 185 139 115
0.4914 -0.357 -0.49 182 136 112
0.50462 -0.3519 -0.483 183 134 104
0.50633 -0.351171 -0.482 180 134 108
0.508166 -0.351171 -0.482 181 135 109
0.516429 -0.351171 -0.482 173 127 101
0.524262 -0.353357 -0.485 156 119 92
0.04898 -0.403953 -0.553 200 158 134
0.0695 -0.3835 -0.525 203 157 131
0.0705 -0.3835 -0.525 202 156 130
0.1577 -0.424407 -0.581 82 97 130
0.203829 -0.423676 -0.58 222 231 246
0.204933 -0.423676 -0.58 217 226 241
0.226313 -0.424407 -0.581 245 241 255
0.228527 -0.424407 -0.581 236 238 255
0.441843 -0.431711 -0.591 164 185 212
0.447471 -0.431711 -0.591 186 191 210
0.4531 -0.431711 -0.591 126 146 179
0.497263 -0.433903 -0.594 89 114 154
0.499526 -0.433903 -0.594 94 125 171
0.524417 -0.433903 -0.594 170 171 175
0.526347 -0.41491 -0.568 143 120 114
0.51281 -0.401762 -0.55 137 112 105
0.50196 -0.390074 -0.534 151 123 112
0.496444 -0.38423 -0.526 152 124 113
0.494609 -0.382039 -0.523 153 125 114
0.48412 -0.360855 -0.494 178 137 109
0.487727 -0.358664 -0.491 184 138 114
0.498395 -0.354281 -0.485 184 137 109
0.499211 -0.35355 -0.484 181 134 106
0.50278 -0.35282 -0.483 179 132 104
0.510776 -0.351359 -0.481 175 128 102
0.511692 -0.351359 -0.481 176 129 103
0.518265 -0.35209 -0.482 172 125 99
0.519183 -0.35209 -0.482 165 125 99
0.0460686 -0.407204 -0.556 199 157 132
0.0549152 -0.38743 -0.529 201 157 132
0.057719 -0.385965 -0.527 208 164 139
0.0596133 -0.385232 -0.526 209 163 139
0.0683695 -0.383768 -0.524 203 157 131
0.088 -0.386697 -0.528 179 127 106
0.09612 -0.391091 -0.534 169 117 95
0.116183 -0.404274 -0.552 137 100 92
0.168767 -0.425513 -0.581 100 124 162
0.17098 -0.425513 -0.581 97 133 183
0.185831 -0.424049 -0.579 173 180 199
0.382948 -0.429908 -0.587 136 156 191
0.450849 -0.432837 -0.591 105 128 159
0.474164 -0.43357 -0.592 194 202 215
0.475291 -0.43357 -0.592 192 200 213
0.477547 -0.43357 -0.592 197 201 213
0.479802 -0.43357 -0.592 166 169 184
0.500944 -0.434302 -0.593 107 137 189
0.522154 -0.435034 -0.594 168 177 194
0.524664 -0.434302 -0.593 173 174 178
0.529182 -0.434302 -0.593 167 169 181
0.50196 -0.391091 -0.534 149 122 111
0.500151 -0.388894 -0.531 149 122 111
0.486791 -0.359599 -0.491 182 136 110
0.497368 -0.354472 -0.484 183 136 108
0.503575 -0.353008 -0.482 179 132 102
0.504493 -0.353008 -0.482 180 133 105
0.507111 -0.352275 -0.481 180 135 106
0.512457 -0.351543 -0.48 175 130 101
0.527033 -0.355205 -0.485 155 118 91
0.530134 -0.35667 -0.487 154 117 90
0.640095 -0.418922 -0.572 208 207 203
0.0484486 -0.401654 -0.547 203 161 136
0.053 -0.389171 -0.53 199 157 132
0.063379 -0.384766 -0.524 204 158 132
0.0643771 -0.384766 -0.524 203 157 131
0.07322 -0.384031 -0.523 196 150 124
0.101964 -0.395046 -0.538 164 112 91
0.108083 -0.398717 -0.543 155 104 87
0.117659 -0.406794 -0.554 131 96 90
0.138409 -0.425151 -0.579 116 111 118
0.15054 -0.425151 -0.579 161 161 169
0.157157 -0.425151 -0.579 81 96 125
0.159363 -0.425151 -0.579 96 111 142
0.177314 -0.425886 -0.58 118 149 196
0.180317 -0.425151 -0.579 192 201 230
0.188813 -0.424417 -0.578 159 170 202
0.208991 -0.425151 -0.579 230 234 246
0.2123 -0.425151 -0.579 228 238 250
0.224819 -0.425886 -0.58 165 173 209
0.42392 -0.43176 -0.588 210 219 236
0.444467 -0.433229 -0.59 200 209 224
0.455705 -0.433229 -0.59 201 210 219
0.467734 -0.433963 -0.591 194 201 211
0.471909 -0.434697 -0.592 194 203 212
0.477547 -0.434697 -0.592 196 200 211
0.498971 -0.434697 -0.592 94 126 175
0.507992 -0.434697 -0.592 169 187 201
0.524664 -0.435431 -0.593 174 175 180
0.528052 -0.435431 -0.593 167 170 179
0.523714 -0.414137 -0.564 145 122 114
0.511054 -0.401654 -0.547 142 118 108
0.505633 -0.39578 -0.539 149 122 113
0.494657 -0.383297 -0.522 153 126 115
0.484971 -0.361269 -0.492 182 138 113
0.488534 -0.359066 -0.489 186 140 114
0.494885 -0.357597 -0.487 185 138 110
0.497471 -0.356129 -0.485 184 137 109
0.50094 -0.35466 -0.483 180 133 105
0.514286 -0.352457 -0.48 176 130 104
0.519022 -0.353191 -0.481 163 122 94
0.0503486 -0.393126 -0.534 198 156 131
0.0672429 -0.385028 -0.523 203 157 133
0.0803467 -0.385764 -0.524 186 136 109
0.140857 -0.42699 -0.58 123 123 133
0.141962 -0.42699 -0.58 129 129 139
0.143067 -0.42699 -0.58 137 135 146
0.171494 -0.426254 -0.579 109 150 204
0.172597 -0.426254 -0.579 109 150 204
0.180006 -0.425518 -0.578 194 203 234
0.182208 -0.425518 -0.578 216 222 246
0.2123 -0.426254 -0.579 206 213 221
0.222226 -0.426254 -0.579 168 178 205
0.415372 -0.432144 -0.587 197 210 227
0.41649 -0.432144 -0.587 180 193 210
0.43064 -0.43288 -0.588 119 151 198
0.43586 -0.433616 -0.589 88 129 175
0.440348 -0.433616 -0.589 180 201 232
0.495589 -0.435825 -0.592 87 118 164
0.503482 -0.435825 -0.592 86 118 179
0.516757 -0.436561 -0.593 143 159 175
0.522405 -0.436561 -0.593 140 144 145
0.527162 -0.435825 -0.592 170 173 180
0.521067 -0.412267 -0.56 145 120 113
0.489082 -0.37693 -0.512 164 128 114
0.48528 -0.37104 -0.504 174 134 109
0.484971 -0.362206 -0.492 182 138 111
0.4858 -0.360733 -0.49 183 139 112
0.486733 -0.360733 -0.49 184 140 113
0.487667 -0.360733 -0.49 187 141 115
0.487603 -0.359997 -0.489 187 141 115
0.4991 -0.35558 -0.483 182 137 108
0.501739 -0.354844 -0.482 179 134 105
0.506971 -0.353371 -0.48 180 133 105
0.509714 -0.353371 -0.48 175 129 103
0.511543 -0.353371 -0.48 176 129 103
0.0510771 -0.391929 -0.531 197 155 130
0.07308 -0.385286 -0.522 196 150 124
0.0835 -0.3875 -0.525 183 133 108
0.088 -0.389714 -0.528 177 123 99
0.0937333 -0.392667 -0.532 172 117 96
0.108083 -0.400786 -0.543 156 105 88
0.11221 -0.404476 -0.548 145 103 91
0.137069 -0.426619 -0.578 113 108 115
0.154951 -0.427357 -0.579 166 173 191
0.166794 -0.426619 -0.578 142 167 207
0.202025 -0.426619 -0.578 229 235 249
0.346507 -0.431048 -0.584 198 203 209
0.450445 -0.434738 -0.589 199 210 228
0.45381 -0.434738 -0.589 205 210 216
0.472237 -0.436214 -0.591 193 194 198
0.477866 -0.436214 -0.591 198 207 216
0.480117 -0.436214 -0.591 190 200 212
0.515886 -0.436952 -0.592 165 179 188
0.530545 -0.436952 -0.592 149 154 158
0.492017 -0.358714 -0.486 183 138 109
0.522855 -0.355762 -0.482 163 123 97
1.0895 -0.441381 -0.598 204 207 190
0.0555 -0.3885 -0.525 204 160 133
0.0602695 -0.38702 -0.523 208 164 139
0.0689705 -0.38554 -0.521 202 156 130
0.0720857 -0.38628 -0.522 198 152 126
0.0856629 -0.38924 -0.526 176 121 100
0.0890057 -0.39072 -0.528 177 122 102
0.108083 -0.40182 -0.543 157 106 89
0.137069 -0.42772 -0.578 113 110 119
0.140614 -0.42846 -0.579 127 129 141
0.143674 -0.42772 -0.578 147 147 157
0.156886 -0.42772 -0.578 161 169 188
0.157713 -0.42698 -0.577 128 139 161
0.174199 -0.42698 -0.577 83 119 181
0.178595 -0.42698 -0.577 166 188 238
0.19618 -0.42698 -0.577 226 235 244
0.213034 -0.42772 -0.578 227 228 232
0.217438 -0.42772 -0.578 234 243 255
0.391671 -0.4329 -0.585 212 218 230
0.435498 -0.43438 -0.587 85 120 176
0.457176 -0.43586 -0.589 166 167 171
0.477057 -0.4366 -0.59 195 205 215
0.478991 -0.43734 -0.591 192 202 212
0.497003 -0.43734 -0.591 45 90 147
0.501506 -0.43734 -0.591 43 81 144
0.510511 -0.43734 -0.591 90 113 145
0.519517 -0.43734 -0.591 152 151 149
0.520643 -0.43734 -0.591 164 163 161
0.521769 -0.43734 -0.591 177 180 187
0.508448 -0.40108 -0.542 148 121 112
0.483246 -0.36704 -0.496 176 134 112
0.484867 -0.3626 -0.49 184 140 113
0.490247 -0.36038 -0.487 185 140 111
0.496446 -0.35816 -0.484 183 138 109
0.49726 -0.35742 -0.483 182 137 108
0.498067 -0.35668 -0.482 182 137 108
0.51139 -0.35446 -0.479 178 131 103
0.0543962 -0.388758 -0.524 203 159 132
0.057281 -0.388016 -0.523 204 160 133
0.0709552 -0.386532 -0.521 199 153 127
0.07294 -0.386532 -0.521 195 149 123
0.172001 -0.428079 -0.577 79 113 177
0.182674 -0.427337 -0.576 139 159 196
0.210468 -0.428079 -0.577 215 216 221
0.375429 -0.433272 -0.584 111 143 184
0.383215 -0.433272 -0.584 224 232 243
0.384328 -0.433272 -0.584 224 232 243
0.444443 -0.435498 -0.587 158 180 229
0.44856 -0.43624 -0.588 213 216 231
0.45416 -0.43624 -0.588 188 189 194
0.466151 -0.436982 -0.589 174 182 195
0.477057 -0.437724 -0.59 193 203 213
0.478181 -0.437724 -0.59 192 202 212
0.487171 -0.437724 -0.59 113 130 160
0.506009 -0.438466 -0.591 102 133 188
0.513889 -0.438466 -0.591 177 185 208
0.5319 -0.438466 -0.591 123 126 145
0.483179 -0.366501 -0.494 177 137 112
0.484034 -0.365017 -0.492 182 138 113
0.488465 -0.36205 -0.488 184 140 113
0.49634 -0.35834 -0.483 181 136 107
0.506057 -0.356114 -0.48 179 132 104
0.531652 -0.359824 -0.485 156 119 93
0.0590467 -0.387525 -0.521 199 160 131
0.0947467 -0.395707 -0.532 172 117 96
0.0995429 -0.398682 -0.536 172 116 93
0.146469 -0.428434 -0.576 136 129 136
0.151954 -0.428434 -0.576 188 188 196
0.155515 -0.429178 -0.577 182 189 205
0.15744 -0.428434 -0.576 187 199 215
0.174994 -0.428434 -0.576 73 108 172
0.220359 -0.429178 -0.577 233 241 252
0.221458 -0.429178 -0.577 219 227 238
0.377653 -0.434385 -0.584 172 201 245
0.382103 -0.434385 -0.584 227 234 244
0.393227 -0.434385 -0.584 208 213 216
0.441453 -0.435872 -0.586 75 105 165
0.447797 -0.436616 -0.587 207 209 222
0.455624 -0.436616 -0.587 202 202 204
0.462 -0.43736 -0.588 175 187 199
0.489419 -0.438848 -0.59 56 88 147
0.508524 -0.438848 -0.59 57 89 148
0.515267 -0.438848 -0.59 182 185 194
0.523133 -0.438848 -0.59 162 162 170
0.524257 -0.438848 -0.59 136 136 144
0.525719 -0.420252 -0.565 145 122 114
0.51666 -0.411327 -0.553 145 122 114
0.499337 -0.392731 -0.528 151 123 112
0.49192 -0.383806 -0.516 159 125 113
0.48624 -0.37488 -0.504 173 133 107
0.490166 -0.361491 -0.486 185 140 111
0.491091 -0.361491 -0.486 183 138 107
0.494602 -0.360004 -0.484 183 138 109
0.49542 -0.35926 -0.483 182 137 108
0.499782 -0.357772 -0.481 181 132 102
0.500698 -0.357772 -0.481 182 133 103
0.505003 -0.356285 -0.479 179 132 102
0.513053 -0.355541 -0.478 175 128 102
0.519601 -0.356285 -0.479 164 123 95
0.04466 -0.40194 -0.539 200 158 133
0.0590467 -0.388517 -0.521 200 159 131
0.0811895 -0.390009 -0.523 179 129 106
0.139886 -0.429531 -0.576 115 113 134
0.14208 -0.429531 -0.576 129 126 145
0.146469 -0.429531 -0.576 143 144 149
0.148405 -0.428786 -0.575 173 174 179
0.162926 -0.429531 -0.576 96 113 157
0.201326 -0.429531 -0.576 214 219 238
0.440337 -0.436989 -0.586 86 120 181
0.45227 -0.437734 -0.587 177 176 181
0.45786 -0.437734 -0.587 169 172 177
0.4676 -0.43848 -0.588 165 173 192
0.499533 -0.439971 -0.59 25 66 130
0.528978 -0.439226 -0.589 117 124 142
0.486243 -0.376586 -0.505 168 131 112
0.486233 -0.375094 -0.503 174 136 117
0.483246 -0.369874 -0.496 175 134 112
0.483097 -0.366891 -0.492 181 137 110
0.483986 -0.366146 -0.491 180 138 114
0.4945 -0.36018 -0.483 182 137 106
0.501486 -0.357943 -0.48 181 134 104
0.04602 -0.396986 -0.531 205 161 134
0.0514019 -0.391752 -0.524 203 159 130
0.0599238 -0.388762 -0.52 200 159 131
0.0790457 -0.390257 -0.522 185 135 112
0.0900114 -0.394743 -0.528 177 125 103
0.146214 -0.429881 -0.575 159 160 165
0.153881 -0.429881 -0.575 188 192 203
0.158262 -0.429881 -0.575 147 155 176
0.159357 -0.429881 -0.575 117 130 165
0.161548 -0.429881 -0.575 94 115 162
0.196595 -0.429881 -0.575 207 213 229
0.2112 -0.430629 -0.576 222 224 236
0.351367 -0.434367 -0.581 205 209 221
0.425486 -0.43661 -0.584 100 139 204
0.445157 -0.437357 -0.585 194 211 231
0.449267 -0.438105 -0.586 212 216 219
0.45786 -0.438852 -0.587 174 174 182
0.4732 -0.4396 -0.588 156 156 154
0.498687 -0.440348 -0.589 26 74 136
0.499809 -0.440348 -0.589 37 78 142
0.523369 -0.440348 -0.589 156 156 168
0.532344 -0.440348 -0.589 122 131 146
0.534588 -0.440348 -0.589 131 138 148
0.518529 -0.414929 -0.555 150 122 111
0.498448 -0.393248 -0.526 152 125 116
0.486463 -0.363343 -0.486 184 138 112
0.490081 -0.362595 -0.485 184 139 110
0.491836 -0.361848 -0.484 183 138 109
0.501486 -0.358857 -0.48 180 133 103
0.515614 -0.356614 -0.477 170 125 94
0.546056 -0.368576 -0.493 153 116 89
0.0409295 -0.407741 -0.544 199 155 130
0.0504038 -0.39275 -0.524 201 158 126
0.0530924 -0.390502 -0.521 204 161 127
0.0579429 -0.389752 -0.52 200 156 127
0.0823429 -0.39275 -0.524 178 126 104
0.106851 -0.406242 -0.542 151 109 95
0.13284 -0.430227 -0.574 79 76 93
0.164547 -0.430227 -0.574 99 124 178
0.16892 -0.430227 -0.574 71 106 164
0.18204 -0.430227 -0.574 183 207 253
0.186413 -0.430227 -0.574 233 236 255
0.189693 -0.430227 -0.574 226 233 249
0.196253 -0.430227 -0.574 199 206 222
0.19844 -0.430227 -0.574 195 201 217
0.22069 -0.430976 -0.575 222 228 240
0.389663 -0.436223 -0.582 216 223 229
0.435497 -0.437722 -0.584 117 157 219
0.444043 -0.438471 -0.585 196 213 239
0.446271 -0.438471 -0.585 209 216 222
0.450383 -0.439221 -0.586 167 170 175
0.48104 -0.44072 -0.588 208 209 214
0.50232 -0.44072 -0.588 82 122 184
0.5068 -0.44072 -0.588 30 73 126
0.51128 -0.44072 -0.588 168 181 200
0.5348 -0.44072 -0.588 149 153 162
0.514905 -0.412238 -0.55 150 122 111
0.501229 -0.397248 -0.53 150 123 114
0.488164 -0.380758 -0.508 160 128 113
0.483097 -0.368766 -0.492 181 136 113
0.486463 -0.364269 -0.486 185 139 113
0.489157 -0.363519 -0.485 186 141 110
0.504859 -0.358272 -0.478 181 134 106
0.50577 -0.358272 -0.478 181 134 106
0.507437 -0.357523 -0.477 181 134 106
0.51834 -0.357523 -0.477 168 123 92
0.521248 -0.358272 -0.478 167 122 91
0.535348 -0.363519 -0.485 161 116 85
0.0399667 -0.409529 -0.545 197 150 124
0.040779 -0.407274 -0.542 201 154 128
0.0811895 -0.392997 -0.523 177 125 103
0.0855 -0.3945 -0.525 178 126 105
0.135027 -0.43132 -0.574 100 99 117
0.151427 -0.43132 -0.574 196 194 207
0.16426 -0.430569 -0.573 116 143 190
0.176266 -0.430569 -0.573 104 139 195
0.184997 -0.430569 -0.573 229 236 252
0.19516 -0.43132 -0.574 223 230 248
0.205 -0.43132 -0.574 192 197 216
0.206093 -0.43132 -0.574 208 207 223
0.210833 -0.432071 -0.575 227 233 245
0.38014 -0.43658 -0.581 229 234 254
0.437722 -0.438834 -0.584 108 140 197
0.441059 -0.438834 -0.584 107 133 182
0.4485 -0.439586 -0.585 180 183 192
0.463777 -0.440337 -0.586 135 147 169
0.48328 -0.44184 -0.588 194 201 220
0.50344 -0.44184 -0.588 78 121 174
0.50904 -0.44184 -0.588 104 128 172
0.52472 -0.44184 -0.588 174 178 189
0.53368 -0.44184 -0.588 163 167 176
0.485267 -0.377217 -0.502 164 131 114
0.483214 -0.371957 -0.495 176 131 108
0.483179 -0.371206 -0.494 176 131 108
0.483097 -0.369703 -0.492 181 136 113
0.483877 -0.367449 -0.489 185 141 116
0.48907 -0.363691 -0.484 186 141 112
0.50577 -0.359183 -0.478 180 133 103
0.513627 -0.35768 -0.476 173 126 96
0.51544 -0.35768 -0.476 170 123 93
0.534244 -0.363691 -0.484 162 117 86
0.0371905 -0.414333 -0.55 192 154 135
0.0747809 -0.391733 -0.52 180 130 107
0.084339 -0.394747 -0.524 181 126 106
0.0991714 -0.40228 -0.534 163 112 91
0.100376 -0.403033 -0.535 162 114 94
0.101585 -0.403787 -0.536 161 113 93
0.169421 -0.430907 -0.572 73 118 177
0.17954 -0.43166 -0.573 138 166 213
0.188271 -0.43166 -0.573 232 238 252
0.191546 -0.43166 -0.573 228 235 251
0.193729 -0.43166 -0.573 232 239 255
0.433641 -0.439193 -0.583 142 185 238
0.435862 -0.439193 -0.583 145 173 220
0.472395 -0.442207 -0.587 209 210 215
0.488049 -0.442207 -0.587 140 164 210
0.49224 -0.44296 -0.588 116 150 198
0.503702 -0.442207 -0.587 96 135 178
0.511529 -0.442207 -0.587 155 159 170
0.514883 -0.442207 -0.587 189 190 195
0.517713 -0.416593 -0.553 149 121 110
0.500307 -0.360093 -0.478 180 133 103
0.501217 -0.360093 -0.478 183 136 106
0.506529 -0.35934 -0.477 180 133 103
0.530016 -0.362353 -0.481 163 118 87
0.0403276 -0.404808 -0.536 198 157 139
0.052 -0.392724 -0.52 203 159 130
0.0587067 -0.391213 -0.518 202 158 129
0.0625324 -0.390458 -0.517 202 158 129
0.0675867 -0.391213 -0.518 191 146 117
0.06956 -0.391213 -0.518 194 147 119
0.0821857 -0.39499 -0.523 180 128 107
0.0910171 -0.398766 -0.528 174 123 104
0.09558 -0.401031 -0.531 173 121 100
0.107049 -0.410094 -0.543 145 103 89
0.132609 -0.432751 -0.573 122 119 130
0.135883 -0.432751 -0.573 109 108 122
0.136974 -0.432751 -0.573 95 94 108
0.146797 -0.432751 -0.573 183 187 190
0.151163 -0.432751 -0.573 196 197 215
0.159615 -0.431996 -0.572 154 177 211
0.166152 -0.431996 -0.572 103 132 172
0.1716 -0.431996 -0.572 94 131 183
0.175958 -0.431996 -0.572 154 177 218
0.204643 -0.432751 -0.573 227 230 245
0.212283 -0.432751 -0.573 235 243 255
0.452183 -0.441059 -0.584 215 219 231
0.477171 -0.44257 -0.586 196 202 200
0.499495 -0.44257 -0.586 81 118 170
0.505076 -0.44257 -0.586 178 195 221
0.514883 -0.443325 -0.587 189 189 197
0.520473 -0.443325 -0.587 179 189 198
0.529441 -0.42973 -0.569 148 121 114
0.505882 -0.404808 -0.536 148 121 114
0.484246 -0.376109 -0.498 173 132 112
0.490722 -0.364025 -0.482 184 139 110
0.492452 -0.36327 -0.481 183 138 109
0.494171 -0.362514 -0.48 183 138 107
0.501217 -0.361004 -0.478 183 136 106
0.501077 -0.360249 -0.477 183 136 106
0.536088 -0.365535 -0.484 157 116 86
0.03692 -0.4134 -0.546 194 150 123
0.0509114 -0.392957 -0.519 206 160 134
0.0595781 -0.391443 -0.517 205 161 132
0.0625324 -0.391443 -0.517 201 157 128
0.0779019 -0.394471 -0.521 183 131 109
0.0831819 -0.395986 -0.523 182 127 107
0.102989 -0.407343 -0.538 153 110 94
0.108481 -0.412643 -0.545 136 99 90
0.135883 -0.433843 -0.573 123 123 135
0.168037 -0.432329 -0.571 106 141 183
0.169125 -0.432329 -0.571 105 141 193
0.1713 -0.432329 -0.571 113 146 191
0.172388 -0.432329 -0.571 149 182 227
0.180316 -0.433086 -0.572 150 171 198
0.187943 -0.433086 -0.572 231 238 248
0.19557 -0.433086 -0.572 236 242 254
0.436223 -0.440657 -0.582 183 204 233
0.454408 -0.442171 -0.584 219 221 233
0.49503 -0.443686 -0.586 62 111 177
0.496414 -0.442929 -0.585 63 112 178
0.529632 -0.443686 -0.586 178 182 193
0.487205 -0.382357 -0.505 164 128 114
0.483817 -0.369486 -0.488 180 138 114
0.484747 -0.369486 -0.488 181 139 115
0.489804 -0.364943 -0.482 184 139 110
0.491536 -0.364186 -0.481 183 138 109
0.494967 -0.362671 -0.479 183 136 106
0.503653 -0.3604 -0.476 181 134 104
0.508024 -0.359643 -0.475 173 126 98
0.0777524 -0.394705 -0.52 183 128 108
0.0820286 -0.396223 -0.522 184 129 109
0.0967733 -0.403813 -0.532 168 121 95
0.101774 -0.407609 -0.537 159 112 94
0.110122 -0.415958 -0.548 131 97 87
0.128657 -0.432657 -0.57 112 107 104
0.131058 -0.433416 -0.571 133 124 125
0.133467 -0.434175 -0.572 147 136 144
0.150899 -0.434175 -0.572 190 194 219
0.160143 -0.432657 -0.57 194 203 220
0.17565 -0.433416 -0.571 199 214 237
0.176738 -0.433416 -0.571 212 227 250
0.180001 -0.433416 -0.571 176 194 216
0.197749 -0.434175 -0.572 203 207 218
0.198838 -0.434175 -0.572 220 227 237
0.205375 -0.434175 -0.572 232 241 255
0.211912 -0.434175 -0.572 241 245 254
0.462194 -0.443284 -0.584 210 214 223
0.464419 -0.443284 -0.584 215 224 233
0.465531 -0.443284 -0.584 208 217 226
0.466644 -0.443284 -0.584 211 220 229
0.484157 -0.444043 -0.585 154 174 207
0.486386 -0.444043 -0.585 199 212 229
0.491957 -0.444043 -0.585 124 159 199
0.525168 -0.444802 -0.586 186 184 195
0.524134 -0.425826 -0.561 148 121 110
0.5123 -0.413681 -0.545 147 123 113
0.483179 -0.37497 -0.494 170 131 114
0.484747 -0.370415 -0.488 183 139 114
0.485537 -0.368897 -0.486 185 141 114
0.489804 -0.365861 -0.482 183 140 108
0.49164 -0.365861 -0.482 183 139 110
0.499396 -0.362825 -0.478 181 134 106
0.500307 -0.362825 -0.478 181 134 106
0.0574971 -0.392651 -0.516 203 160 128
0.0744933 -0.394173 -0.518 186 131 110
0.0820286 -0.397217 -0.522 179 124 104
0.110122 -0.417002 -0.548 127 98 90
0.141934 -0.434504 -0.571 186 184 185
0.14411 -0.434504 -0.571 187 186 191
0.151723 -0.434504 -0.571 142 161 191
0.153629 -0.433743 -0.57 76 93 123
0.165571 -0.433743 -0.57 130 150 183
0.175343 -0.433743 -0.57 204 211 230
0.176429 -0.433743 -0.57 218 225 244
0.180771 -0.433743 -0.57 152 169 195
0.188702 -0.434504 -0.571 228 237 246
0.191965 -0.434504 -0.571 231 240 249
0.4399 -0.442113 -0.581 205 208 227
0.4462 -0.442874 -0.582 147 158 178
0.467756 -0.444396 -0.584 209 218 227
0.478586 -0.445157 -0.585 128 135 151
0.481929 -0.445157 -0.585 109 124 147
0.484442 -0.444396 -0.584 197 208 226
0.494186 -0.445157 -0.585 85 126 172
0.504214 -0.445157 -0.585 154 161 187
0.528729 -0.445157 -0.585 174 172 194
0.504066 -0.405588 -0.533 150 121 115
0.494813 -0.394173 -0.518 158 125 116
0.491047 -0.388847 -0.511 159 127 116
0.502747 -0.362213 -0.476 182 135 107
0.508588 -0.35993 -0.473 177 130 102
0.0356171 -0.413469 -0.542 189 148 120
0.036379 -0.410417 -0.538 191 150 122
0.0432514 -0.398211 -0.522 199 158 130
0.0536695 -0.394397 -0.517 203 160 128
0.0604457 -0.393634 -0.516 200 157 125
0.07238 -0.394397 -0.517 185 137 114
0.0766143 -0.395923 -0.519 183 128 107
0.0808791 -0.397449 -0.521 181 126 105
0.0851743 -0.398974 -0.523 181 129 107
0.0932048 -0.403551 -0.529 177 125 103
0.138671 -0.435591 -0.571 177 176 181
0.164197 -0.434066 -0.569 136 159 193
0.169616 -0.434066 -0.569 129 155 190
0.188702 -0.435591 -0.571 224 235 255
0.193052 -0.435591 -0.571 230 239 246
0.19414 -0.435591 -0.571 216 212 209
0.209367 -0.435591 -0.571 234 244 254
0.44654 -0.44322 -0.581 146 165 195
0.44986 -0.44322 -0.581 217 221 232
0.457286 -0.443983 -0.582 218 221 238
0.477768 -0.445509 -0.584 97 113 136
0.479992 -0.445509 -0.584 122 140 154
0.488891 -0.445509 -0.584 163 179 202
0.505577 -0.445509 -0.584 185 187 199
0.490094 -0.388294 -0.509 159 127 114
0.485218 -0.380666 -0.499 168 131 113
0.484157 -0.377614 -0.495 170 133 114
0.496665 -0.364646 -0.478 180 133 103
0.508588 -0.360831 -0.473 179 132 104
0.51129 -0.360831 -0.473 177 130 102
0.538853 -0.369223 -0.484 154 115 82
0.0412629 -0.399206 -0.522 200 158 134
0.0603286 -0.393852 -0.515 199 156 124
0.0663429 -0.394617 -0.516 197 152 123
0.0744933 -0.396147 -0.518 184 129 108
0.0807238 -0.397676 -0.52 181 126 105
0.0861705 -0.39997 -0.523 183 131 109
0.100751 -0.410677 -0.537 160 114 99
0.103371 -0.412971 -0.54 149 106 99
0.12474 -0.43362 -0.567 100 88 90
0.130829 -0.435914 -0.57 110 105 111
0.136257 -0.435914 -0.57 145 145 155
0.178287 -0.43515 -0.569 227 231 242
0.205743 -0.435914 -0.57 238 242 254
0.440248 -0.443562 -0.58 219 223 234
0.442113 -0.444327 -0.581 216 220 231
0.44654 -0.444327 -0.581 111 128 156
0.452073 -0.444327 -0.581 216 221 227
0.459503 -0.445091 -0.582 207 214 222
0.480281 -0.445856 -0.583 155 171 186
0.486944 -0.445856 -0.583 184 190 206
0.494717 -0.445856 -0.583 104 141 183
0.503352 -0.446621 -0.584 156 166 178
0.504465 -0.446621 -0.584 183 187 198
0.514476 -0.446621 -0.584 172 181 198
0.517813 -0.446621 -0.584 185 187 200
0.527825 -0.446621 -0.584 135 141 173
0.518767 -0.422913 -0.553 150 124 111
0.495754 -0.365556 -0.478 179 134 103
0.505885 -0.361732 -0.473 177 130 102
0.509489 -0.361732 -0.473 178 133 104
0.527426 -0.364791 -0.477 164 119 86
0.0411838 -0.399433 -0.521 200 159 131
0.0440762 -0.398667 -0.52 205 162 130
0.04588 -0.397133 -0.518 204 161 129
0.0702743 -0.3956 -0.516 186 139 111
0.0807238 -0.398667 -0.52 182 130 108
0.145772 -0.436233 -0.569 192 198 214
0.146856 -0.436233 -0.569 187 198 218
0.171482 -0.435467 -0.568 166 187 218
0.190209 -0.436233 -0.569 231 237 249
0.4565 -0.445433 -0.581 219 221 234
0.487217 -0.4462 -0.582 166 182 205
0.494717 -0.446967 -0.583 133 163 199
0.506932 -0.446967 -0.583 193 197 206
0.512251 -0.447733 -0.584 81 92 110
0.528031 -0.446967 -0.583 146 159 178
0.505957 -0.410167 -0.535 150 121 115
0.504133 -0.407867 -0.532 149 120 114
0.484747 -0.374133 -0.488 181 139 115
0.48714 -0.3703 -0.483 183 139 112
0.489804 -0.369533 -0.482 184 140 113
0.491536 -0.368767 -0.481 183 139 110
0.504405 -0.364167 -0.475 178 131 103
0.51182 -0.3611 -0.471 173 126 96
0.519399 -0.362633 -0.473 171 125 92
0.03264 -0.418103 -0.544 192 149 115
0.0342657 -0.412723 -0.537 194 151 119
0.0401914 -0.400426 -0.521 199 158 128
0.0430857 -0.399657 -0.52 204 161 129
0.0467762 -0.397351 -0.517 203 160 126
0.0642524 -0.395814 -0.515 195 150 119
0.0712571 -0.396583 -0.516 182 135 107
0.103371 -0.415029 -0.54 144 105 98
0.136018 -0.437317 -0.569 133 136 153
0.146856 -0.437317 -0.569 190 197 216
0.149844 -0.436549 -0.568 111 123 145
0.15309 -0.436549 -0.568 199 206 224
0.203214 -0.437317 -0.569 225 233 254
0.438386 -0.445003 -0.579 217 223 237
0.4524 -0.445771 -0.58 209 215 227
0.483891 -0.447309 -0.582 208 208 216
0.490543 -0.447309 -0.582 126 155 185
0.511374 -0.448077 -0.583 145 151 165
0.521369 -0.448077 -0.583 174 178 190
0.52359 -0.448077 -0.583 157 160 177
0.502298 -0.406574 -0.529 150 121 117
0.495754 -0.367377 -0.478 182 137 106
0.504246 -0.364303 -0.474 178 131 103
0.505714 -0.362766 -0.472 177 130 102
0.512717 -0.361997 -0.471 172 126 93
0.514511 -0.361997 -0.471 174 128 95
0.528133 -0.36584 -0.476 166 120 86
0.538463 -0.370451 -0.482 154 113 83
0.0743495 -0.398336 -0.517 184 136 113
0.0873333 -0.40373 -0.524 177 129 106
0.1044 -0.416057 -0.54 144 105 98
0.139025 -0.43763 -0.568 177 180 195
0.143605 -0.438401 -0.569 186 188 203
0.15822 -0.43686 -0.567 206 211 230
0.16146 -0.43686 -0.567 143 167 195
0.17226 -0.43686 -0.567 166 181 210
0.192038 -0.43763 -0.568 231 234 249
0.197448 -0.43763 -0.568 209 220 240
0.440591 -0.446106 -0.579 221 221 231
0.45019 -0.446876 -0.58 202 208 230
0.455714 -0.446876 -0.58 214 216 228
0.457924 -0.446876 -0.58 176 192 208
0.461238 -0.446876 -0.58 120 145 199
0.464552 -0.446876 -0.58 208 212 224
0.488593 -0.447647 -0.581 116 149 180
0.50828 -0.448417 -0.582 194 193 207
0.519148 -0.449188 -0.583 158 165 184
0.530451 -0.448417 -0.582 166 172 188
0.490514 -0.369829 -0.48 182 138 109
0.494717 -0.367517 -0.477 183 138 109
0.495626 -0.367517 -0.477 183 138 109
0.50244 -0.365206 -0.474 180 133 105
0.505885 -0.364435 -0.473 178 131 103
0.53106 -0.367517 -0.477 162 117 86
0.0418524 -0.399321 -0.517 203 160 126
0.0476686 -0.398549 -0.516 201 158 124
0.0660857 -0.397004 -0.514 189 144 115
0.0920229 -0.407817 -0.528 171 124 108
0.09558 -0.410134 -0.531 156 117 100
0.0981543 -0.412451 -0.534 151 112 95
0.10318 -0.416313 -0.539 145 105 93
0.123442 -0.437168 -0.566 97 91 101
0.13122 -0.43794 -0.567 130 133 150
0.13338 -0.43794 -0.567 59 67 113
0.144434 -0.438712 -0.568 188 190 215
0.1485 -0.43794 -0.567 192 199 215
0.195284 -0.438712 -0.568 227 231 242
0.209349 -0.438712 -0.568 230 237 255
0.429178 -0.445664 -0.577 138 162 198
0.454929 -0.447209 -0.579 206 213 229
0.461546 -0.447209 -0.579 172 186 215
0.466762 -0.447981 -0.58 187 195 214
0.46978 -0.448753 -0.581 158 172 198
0.478633 -0.448753 -0.581 213 210 221
0.48306 -0.448753 -0.581 203 204 206
0.49966 -0.448753 -0.581 118 138 163
0.504087 -0.448753 -0.581 196 194 207
0.510497 -0.449526 -0.582 190 193 200
0.518257 -0.449526 -0.582 133 152 182
0.527126 -0.449526 -0.582 103 126 158
0.497679 -0.40241 -0.521 153 123 112
0.485194 -0.384646 -0.498 167 130 112
0.485537 -0.375377 -0.486 182 137 114
0.486305 -0.373832 -0.484 178 136 111
0.48806 -0.37306 -0.483 183 139 112
0.493142 -0.36997 -0.479 185 140 111
0.495626 -0.368426 -0.477 183 138 109
0.50244 -0.366109 -0.474 180 133 105
0.503182 -0.365336 -0.473 178 131 103
0.513419 -0.363019 -0.47 174 129 98
0.514314 -0.363019 -0.47 173 128 97
0.520099 -0.364564 -0.472 165 122 88
0.529947 -0.367653 -0.476 161 116 85
0.0336276 -0.408049 -0.527 198 154 125
0.0344343 -0.405726 -0.524 197 153 124
0.0408676 -0.400306 -0.517 201 156 125
0.0448067 -0.400306 -0.517 200 160 125
0.0552086 -0.397209 -0.513 199 156 122
0.09558 -0.411146 -0.531 158 115 98
0.106014 -0.420437 -0.543 134 99 93
0.160097 -0.438246 -0.566 141 163 186
0.176269 -0.438246 -0.566 236 243 249
0.468971 -0.449086 -0.58 117 140 171
0.493276 -0.449086 -0.58 149 175 212
0.520474 -0.450634 -0.582 133 155 179
0.51794 -0.426631 -0.551 151 123 111
0.48816 -0.39024 -0.504 161 125 109
0.48619 -0.387143 -0.5 167 130 114
0.487227 -0.374754 -0.484 176 135 107
0.488788 -0.372431 -0.481 182 138 109
0.492343 -0.371657 -0.48 184 140 111
0.497167 -0.367786 -0.475 182 137 108
0.50554 -0.364689 -0.471 179 134 103
0.521897 -0.365463 -0.472 163 120 88
0.527929 -0.367786 -0.475 159 120 89
0.0302305 -0.41759 -0.538 195 154 124
0.0326857 -0.409829 -0.528 199 155 126
0.0514 -0.398962 -0.514 203 160 126
0.0701381 -0.399738 -0.515 185 135 110
0.0873333 -0.406724 -0.524 176 128 105
0.0979705 -0.41371 -0.533 154 111 94
0.10764 -0.4238 -0.546 126 96 94
0.12452 -0.439324 -0.566 63 69 93
0.151472 -0.439324 -0.566 207 215 228
0.159814 -0.438548 -0.565 132 158 195
0.430629 -0.447086 -0.576 138 173 215
0.449739 -0.448638 -0.578 89 115 152
0.455244 -0.448638 -0.578 189 207 229
0.468163 -0.449414 -0.579 84 110 143
0.47781 -0.45019 -0.58 191 191 203
0.478914 -0.45019 -0.58 156 156 168
0.49659 -0.45019 -0.58 109 133 177
0.510727 -0.450967 -0.581 185 187 199
0.521793 -0.450967 -0.581 152 168 194
0.525314 -0.45019 -0.58 59 92 145
0.487968 -0.374124 -0.482 183 139 114
0.488788 -0.373348 -0.481 182 138 111
0.488686 -0.372571 -0.48 181 137 110
0.491317 -0.371795 -0.479 184 140 111
0.50138 -0.367138 -0.473 181 136 105
0.502118 -0.366362 -0.472 176 131 100
0.517 -0.36481 -0.47 172 127 96
0.655093 -0.440876 -0.568 207 204 197
0.02926 -0.419393 -0.539 194 153 123
0.0552086 -0.399163 -0.513 200 155 124
0.06498 -0.399163 -0.513 189 142 114
0.0659571 -0.399163 -0.513 189 142 114
0.10621 -0.423284 -0.544 131 101 93
0.125598 -0.440402 -0.566 73 84 106
0.145004 -0.440402 -0.566 161 173 213
0.15551 -0.439624 -0.565 219 221 234
0.43392 -0.448183 -0.576 190 219 251
0.46185 -0.449739 -0.578 175 192 222
0.478089 -0.450517 -0.579 179 183 184
0.486911 -0.450517 -0.579 107 139 188
0.493529 -0.450517 -0.579 146 172 209
0.49659 -0.451295 -0.58 108 139 183
0.515371 -0.451295 -0.58 57 78 131
0.49202 -0.397607 -0.511 158 126 113
0.485135 -0.385935 -0.496 167 130 112
0.485383 -0.376598 -0.484 180 138 114
0.48714 -0.37582 -0.483 179 135 110
0.488686 -0.373486 -0.48 181 137 108
0.490514 -0.373486 -0.48 180 136 107
0.491317 -0.372708 -0.479 183 139 110
0.497167 -0.369595 -0.475 181 138 106
0.498071 -0.369595 -0.475 181 138 106
0.504643 -0.366483 -0.471 180 133 103
0.50554 -0.366483 -0.471 180 133 103
0.545307 -0.376598 -0.484 153 116 89
0.0315 -0.4095 -0.525 198 157 129
0.0368571 -0.40248 -0.516 201 160 130
0.0570514 -0.39936 -0.512 196 151 120
0.06498 -0.40014 -0.513 189 142 116
0.0753343 -0.40326 -0.517 182 134 111
0.0817143 -0.4056 -0.52 184 136 114
0.0885 -0.4095 -0.525 172 126 103
0.120857 -0.43992 -0.564 65 64 80
0.142595 -0.4407 -0.565 76 96 146
0.164903 -0.43992 -0.564 180 197 223
0.33118 -0.44538 -0.571 165 193 232
0.429881 -0.4485 -0.575 138 170 208
0.46185 -0.45084 -0.578 169 189 222
0.469556 -0.45084 -0.578 93 116 158
0.489373 -0.45084 -0.578 131 163 201
0.502351 -0.45162 -0.579 189 192 201
0.515371 -0.4524 -0.58 52 72 122
0.526614 -0.45162 -0.579 143 159 182
0.527717 -0.45162 -0.579 157 173 196
0.516164 -0.42744 -0.548 149 120 112
0.484971 -0.38376 -0.492 172 131 111
0.484611 -0.37908 -0.486 177 135 111
0.48622 -0.37674 -0.483 181 137 112
0.494587 -0.37128 -0.476 182 137 106
0.497167 -0.3705 -0.475 180 137 103
0.497776 -0.36894 -0.473 181 138 106
0.503916 -0.36816 -0.472 177 130 100
0.515007 -0.36582 -0.469 175 130 97
0.526607 -0.36894 -0.473 160 119 89
0.0272571 -0.422229 -0.54 193 154 125
0.0322524 -0.407372 -0.521 197 158 129
0.0348914 -0.403463 -0.516 198 157 129
0.0377667 -0.402681 -0.515 204 160 131
0.0435676 -0.401899 -0.514 201 157 128
0.0473914 -0.401117 -0.513 202 159 127
0.0483686 -0.401117 -0.513 201 158 126
0.0493457 -0.401117 -0.513 200 157 125
0.055101 -0.400335 -0.512 197 154 122
0.0599771 -0.400335 -0.512 194 149 120
0.0838562 -0.407372 -0.521 180 132 110
0.120857 -0.440994 -0.564 60 62 77
0.13291 -0.441776 -0.565 41 61 112
0.139367 -0.441776 -0.565 114 138 166
0.150937 -0.440994 -0.564 210 218 231
0.16168 -0.440994 -0.564 150 183 216
0.451474 -0.450377 -0.576 176 195 228
0.459951 -0.451159 -0.577 133 157 193
0.48607 -0.451941 -0.578 110 139 183
0.491575 -0.451941 -0.578 145 172 201
0.500383 -0.451941 -0.578 189 197 208
0.49393 -0.401899 -0.514 155 123 110
0.491064 -0.39799 -0.509 160 126 114
0.485061 -0.386261 -0.494 168 131 113
0.489492 -0.374532 -0.479 181 137 108
0.491991 -0.372969 -0.477 183 139 110
0.492773 -0.372187 -0.476 183 138 109
0.497167 -0.371405 -0.475 179 136 104
0.497776 -0.369841 -0.473 179 136 104
0.509451 -0.365931 -0.468 174 129 98
0.510343 -0.365931 -0.468 174 129 98
0.5451 -0.37766 -0.483 152 115 86
0.0295562 -0.412284 -0.526 190 150 124
0.0386724 -0.402878 -0.514 205 161 132
0.05694 -0.400527 -0.511 194 149 120
0.073081 -0.403662 -0.515 186 136 113
0.0850114 -0.409149 -0.522 176 128 106
0.10498 -0.425609 -0.543 130 101 97
0.126229 -0.442069 -0.564 93 103 115
0.443024 -0.45069 -0.575 222 225 232
0.469029 -0.451474 -0.576 106 120 147
0.475338 -0.452258 -0.577 201 209 211
0.516689 -0.453826 -0.579 158 171 190
0.498634 -0.409149 -0.522 154 125 111
0.49393 -0.402878 -0.514 154 125 109
0.485537 -0.380931 -0.486 179 137 113
0.485462 -0.380148 -0.485 180 138 114
0.491083 -0.373877 -0.477 183 139 112
0.497023 -0.371526 -0.474 177 134 102
0.508753 -0.367607 -0.469 176 131 100
0.54715 -0.379364 -0.484 151 114 85
0.0293876 -0.410929 -0.523 185 145 119
0.0320667 -0.407 -0.518 198 157 129
0.0347562 -0.403857 -0.514 202 161 133
0.0463238 -0.402286 -0.512 202 156 130
0.0511 -0.4015 -0.511 199 154 125
0.0530467 -0.4015 -0.511 197 152 123
0.0549933 -0.4015 -0.511 194 149 120
0.0608333 -0.4015 -0.511 191 145 119
0.0805686 -0.407786 -0.519 179 131 109
0.0906724 -0.413286 -0.526 166 119 99
0.121931 -0.443143 -0.564 45 50 72
0.141018 -0.442357 -0.563 109 127 167
0.14209 -0.442357 -0.563 94 112 152
0.152814 -0.442357 -0.563 214 221 231
0.160321 -0.442357 -0.563 138 163 193
0.44772 -0.451 -0.574 189 201 217
0.45069 -0.451786 -0.575 208 213 232
0.452881 -0.451786 -0.575 214 216 229
0.48 -0.452571 -0.576 204 217 223
0.500616 -0.453357 -0.577 193 196 203
0.505888 -0.454143 -0.578 192 197 203
0.50919 -0.454143 -0.578 190 194 206
0.511392 -0.454143 -0.578 115 123 136
0.516897 -0.454143 -0.578 174 188 197
0.498634 -0.410143 -0.522 153 126 107
0.495828 -0.406214 -0.517 154 127 108
0.49393 -0.403857 -0.514 155 126 108
0.4851 -0.388929 -0.495 166 131 109
0.485383 -0.380286 -0.484 183 138 115
0.49096 -0.374 -0.476 183 139 112
0.495217 -0.372429 -0.474 179 136 104
0.498522 -0.370857 -0.472 180 135 104
0.506073 -0.3685 -0.469 180 135 104
0.53448 -0.374 -0.476 156 117 86
0.0404724 -0.403261 -0.512 202 158 129
0.0433981 -0.403261 -0.512 202 156 132
0.0472067 -0.402473 -0.511 201 157 130
0.0491533 -0.402473 -0.511 200 155 126
0.05402 -0.402473 -0.511 195 148 122
0.0608333 -0.402473 -0.511 191 145 119
0.0657 -0.402473 -0.511 192 144 121
0.0668038 -0.403261 -0.512 193 143 120
0.072939 -0.404836 -0.514 184 136 113
0.0827048 -0.409562 -0.52 180 134 111
0.0943905 -0.417438 -0.53 155 114 94
0.127077 -0.44343 -0.563 142 154 170
0.158176 -0.44343 -0.563 141 164 196
0.163248 -0.442642 -0.562 179 196 224
0.190348 -0.44343 -0.563 209 219 244
0.449907 -0.452093 -0.574 218 221 236
0.455071 -0.452881 -0.575 189 200 206
0.457262 -0.452881 -0.575 96 113 139
0.458357 -0.452881 -0.575 143 163 187
0.47232 -0.453669 -0.576 165 169 181
0.478903 -0.453669 -0.576 204 217 223
0.489874 -0.453669 -0.576 154 178 212
0.493166 -0.453669 -0.576 133 165 203
0.501715 -0.454456 -0.577 194 197 202
0.514695 -0.455244 -0.578 173 182 199
0.520399 -0.454456 -0.577 162 168 180
0.488135 -0.395385 -0.502 160 128 107
0.485462 -0.381995 -0.485 178 137 115
0.485383 -0.381208 -0.484 181 139 115
0.509252 -0.367818 -0.467 174 129 96
0.51858 -0.369393 -0.469 167 122 91
0.521476 -0.370181 -0.47 163 120 88
0.0241267 -0.425553 -0.539 194 152 130
0.0413667 -0.403447 -0.511 202 157 128
0.0501267 -0.403447 -0.511 195 147 124
0.0578 -0.402657 -0.51 192 146 120
0.0666733 -0.403447 -0.511 192 142 119
0.0932048 -0.417658 -0.529 162 117 96
0.0983381 -0.422395 -0.535 141 107 95
0.103946 -0.428711 -0.543 130 102 91
0.122788 -0.444502 -0.563 106 110 122
0.131133 -0.443712 -0.562 81 86 115
0.133274 -0.443712 -0.562 145 155 180
0.142909 -0.443712 -0.562 162 172 197
0.156031 -0.444502 -0.563 193 206 222
0.442574 -0.452397 -0.573 134 142 155
0.443666 -0.452397 -0.573 198 204 220
0.463833 -0.453976 -0.575 215 219 231
0.479167 -0.453976 -0.575 199 212 218
0.482452 -0.453976 -0.575 188 193 199
0.494263 -0.454766 -0.576 120 153 188
0.509409 -0.455555 -0.577 100 109 124
0.5005 -0.4145 -0.525 154 125 111
0.486113 -0.392393 -0.497 164 129 110
0.48705 -0.38055 -0.482 177 135 111
0.486955 -0.379761 -0.481 178 136 112
0.494452 -0.375024 -0.475 182 138 103
0.499421 -0.372655 -0.472 180 136 101
0.501781 -0.371076 -0.47 178 134 99
0.503571 -0.371076 -0.47 180 136 99
0.508363 -0.368708 -0.467 176 132 97
0.5148 -0.369497 -0.468 170 126 91
0.516583 -0.369497 -0.468 171 127 92
0.520367 -0.370287 -0.469 165 122 90
0.526174 -0.371866 -0.471 161 120 90
0.536293 -0.375813 -0.476 157 118 89
0.645686 -0.440554 -0.558 203 206 197
0.0256943 -0.418666 -0.529 193 150 118
0.0290505 -0.409169 -0.517 199 152 126
0.0568286 -0.403629 -0.51 193 146 120
0.0636286 -0.403629 -0.51 193 146 120
0.0782886 -0.409169 -0.517 180 132 109
0.118077 -0.443991 -0.561 71 69 83
0.132204 -0.444783 -0.562 132 126 152
