ply
format ascii 1.0
comment Created by Open3D
element vertex 1320
property double x
property double y
property double z
property uchar red
property uchar green
property uchar blue
end_header
0.246745 -0.23711 -0.562 78 63 70
0.250303 -0.235423 -0.558 79 62 70
0.266619 -0.232048 -0.55 89 68 75
0.271912 -0.231204 -0.548 93 72 79
0.282866 -0.22825 -0.541 111 88 96
0.286457 -0.227829 -0.54 113 90 98
0.298988 -0.224875 -0.533 125 99 108
0.305381 -0.22361 -0.53 128 102 113
0.327874 -0.221078 -0.524 148 128 139
0.3492 -0.227829 -0.54 60 54 64
0.357762 -0.232048 -0.55 62 62 74
0.395019 -0.248924 -0.59 95 96 114
0.456243 -0.229938 -0.545 149 100 93
0.463774 -0.231626 -0.549 138 89 82
0.475186 -0.234157 -0.555 147 98 94
-0.311443 -0.273357 -0.645 253 254 246
-0.301904 -0.27251 -0.643 254 255 250
-0.294243 -0.273357 -0.645 254 255 251
-0.289777 -0.273781 -0.646 255 255 251
-0.280429 -0.275476 -0.65 104 102 103
-0.0585695 -0.268695 -0.634 68 68 78
0.0813114 -0.189443 -0.447 200 158 146
0.0822714 -0.187748 -0.443 199 160 145
0.0867848 -0.184781 -0.436 203 163 151
0.115895 -0.182238 -0.43 185 143 127
0.116714 -0.182238 -0.43 182 140 124
0.12524 -0.183933 -0.434 175 129 113
0.142503 -0.188171 -0.444 127 88 81
0.150763 -0.191138 -0.451 115 81 79
0.278729 -0.230976 -0.545 106 83 93
0.280809 -0.230129 -0.543 108 85 93
0.284927 -0.229281 -0.541 112 89 97
0.28798 -0.228433 -0.539 114 91 99
0.292503 -0.227162 -0.536 121 96 102
0.301467 -0.225467 -0.532 127 101 110
0.303934 -0.225043 -0.531 127 101 112
0.309257 -0.223771 -0.528 130 102 116
0.32111 -0.222924 -0.526 132 104 116
0.397486 -0.250895 -0.592 98 99 117
0.435177 -0.267848 -0.632 99 96 115
0.401246 -0.239029 -0.564 98 84 101
0.398717 -0.230129 -0.543 147 90 83
0.408129 -0.226738 -0.535 149 94 87
0.442185 -0.22801 -0.538 143 90 84
0.447943 -0.228857 -0.54 142 89 83
0.45916 -0.2314 -0.546 150 100 93
-0.301147 -0.27416 -0.644 254 255 251
-0.284503 -0.275863 -0.648 255 255 251
-0.0875705 -0.273734 -0.643 72 72 82
-0.0541629 -0.272031 -0.639 67 67 75
-0.0507486 -0.273309 -0.642 68 68 76
0.083201 -0.186889 -0.439 199 162 146
0.126067 -0.18476 -0.434 171 125 109
0.242251 -0.240103 -0.564 79 63 76
0.263955 -0.234569 -0.551 86 65 72
0.270869 -0.233291 -0.548 94 73 82
0.291003 -0.228609 -0.537 119 96 104
0.295014 -0.227757 -0.535 119 96 102
0.30682 -0.225203 -0.529 130 102 116
0.310263 -0.224777 -0.528 134 106 120
0.32111 -0.223926 -0.526 132 106 119
0.3265 -0.2235 -0.525 192 175 185
0.339064 -0.225203 -0.529 51 42 47
0.358412 -0.234569 -0.551 69 72 81
0.363376 -0.237123 -0.557 74 77 92
0.388777 -0.248617 -0.584 101 98 117
0.40764 -0.25628 -0.602 101 98 117
0.397245 -0.234569 -0.551 138 88 79
0.398415 -0.231589 -0.544 148 91 84
0.39931 -0.230311 -0.541 142 89 83
0.401194 -0.229034 -0.538 145 92 86
0.40454 -0.228609 -0.537 148 95 89
0.413469 -0.227331 -0.534 145 95 86
0.420357 -0.227757 -0.535 144 91 83
-0.3036 -0.275387 -0.644 251 252 246
-0.297467 -0.275387 -0.644 253 254 248
-0.151729 -0.275814 -0.645 198 198 188
-0.149734 -0.27667 -0.647 199 199 189
-0.147725 -0.277525 -0.649 201 199 187
-0.09002 -0.274959 -0.643 73 72 80
-0.0661771 -0.26769 -0.626 68 68 78
-0.0597771 -0.27111 -0.634 69 69 77
-0.05538 -0.273249 -0.639 67 67 77
0.0807657 -0.189863 -0.444 199 159 147
0.0997457 -0.184304 -0.431 203 164 149
0.128014 -0.186014 -0.435 167 118 101
0.133372 -0.187725 -0.439 147 103 92
0.13619 -0.188152 -0.44 142 102 94
0.149904 -0.192856 -0.451 111 80 78
0.15538 -0.195422 -0.457 99 74 77
0.166067 -0.200981 -0.47 88 67 74
0.240064 -0.243315 -0.569 82 64 78
0.247114 -0.238611 -0.558 83 63 74
0.252583 -0.237756 -0.556 80 63 73
0.259647 -0.236473 -0.553 85 64 71
0.265571 -0.23519 -0.55 89 68 77
0.278217 -0.232625 -0.544 106 83 91
0.280291 -0.23177 -0.542 108 85 93
0.281324 -0.23177 -0.542 109 86 94
0.286457 -0.230914 -0.54 114 91 99
0.295014 -0.228776 -0.535 118 95 103
0.297972 -0.227921 -0.533 122 96 105
0.300003 -0.227921 -0.533 123 97 108
0.30682 -0.22621 -0.529 130 102 116
0.311269 -0.225783 -0.528 133 105 119
0.318105 -0.224928 -0.526 131 103 117
0.320109 -0.224928 -0.526 128 104 117
0.322112 -0.224928 -0.526 126 102 115
0.444509 -0.274531 -0.642 78 75 94
0.399823 -0.240322 -0.562 109 93 104
0.398717 -0.232197 -0.543 145 92 86
0.400913 -0.230487 -0.539 143 93 86
0.404269 -0.230059 -0.538 146 96 89
0.411434 -0.228349 -0.534 145 95 86
0.41652 -0.228349 -0.534 141 91 82
0.42851 -0.228776 -0.535 146 94 81
0.429529 -0.228776 -0.535 144 92 79
0.435643 -0.228776 -0.535 142 92 81
0.47433 -0.236901 -0.554 153 103 96
0.485666 -0.239894 -0.561 149 99 92
-0.308234 -0.277472 -0.646 252 253 247
-0.29269 -0.277902 -0.647 252 253 248
-0.291458 -0.277902 -0.647 252 253 248
-0.284942 -0.278761 -0.649 253 253 251
-0.0996667 -0.27919 -0.65 174 175 167
-0.08918 -0.273607 -0.637 67 65 78
-0.0776019 -0.267164 -0.622 59 62 69
-0.0576333 -0.273607 -0.637 66 66 74
0.0821771 -0.188131 -0.438 196 163 146
0.10361 -0.184695 -0.43 206 164 148
0.104429 -0.184695 -0.43 201 162 145
0.119449 -0.185125 -0.431 178 137 119
0.122194 -0.185554 -0.432 171 128 111
0.254243 -0.238386 -0.555 82 62 71
0.270869 -0.235379 -0.548 94 71 79
0.293049 -0.230654 -0.537 120 94 103
0.296033 -0.229795 -0.535 119 93 104
0.322112 -0.22593 -0.526 126 102 115
0.3335 -0.2255 -0.525 142 116 129
0.340346 -0.228077 -0.531 50 40 48
0.373798 -0.24397 -0.568 90 88 109
0.410167 -0.229795 -0.535 147 97 88
0.415503 -0.229366 -0.534 141 91 82
0.441363 -0.230654 -0.537 140 90 79
0.448971 -0.231943 -0.54 141 93 81
0.46124 -0.23452 -0.546 148 100 90
0.46881 -0.236238 -0.55 144 96 86
0.494971 -0.24397 -0.568 145 96 91
-0.295471 -0.278271 -0.645 252 253 248
-0.294699 -0.278703 -0.646 252 253 248
-0.28944 -0.279566 -0.648 253 254 249
-0.143794 -0.279566 -0.648 201 199 186
-0.0958448 -0.276546 -0.641 72 73 77
0.0828219 -0.188534 -0.437 197 164 147
0.0834629 -0.188103 -0.436 199 162 143
0.0909257 -0.186377 -0.432 205 166 149
0.0970571 -0.185514 -0.43 202 164 145
0.106313 -0.185946 -0.431 199 161 142
0.112619 -0.185514 -0.43 186 144 128
0.134514 -0.189829 -0.44 141 98 89
0.140811 -0.191554 -0.444 121 87 86
0.149045 -0.194574 -0.451 104 76 75
0.151431 -0.195437 -0.453 101 75 76
0.15572 -0.197594 -0.458 97 75 78
0.263955 -0.237717 -0.551 89 68 73
0.27508 -0.23556 -0.546 103 80 88
0.276652 -0.235129 -0.545 104 81 89
0.28798 -0.23254 -0.539 116 90 101
0.307828 -0.228226 -0.529 132 104 118
0.314694 -0.227363 -0.527 130 102 116
0.3255 -0.2265 -0.525 170 144 157
0.398687 -0.23858 -0.553 139 94 89
0.415503 -0.230383 -0.534 140 90 81
0.424657 -0.230383 -0.534 150 98 87
0.456637 -0.234266 -0.543 150 100 91
0.469857 -0.237286 -0.55 149 99 92
0.472617 -0.238149 -0.552 150 100 93
0.492357 -0.243757 -0.565 145 96 91
-0.307954 -0.2808 -0.648 251 252 247
-0.293143 -0.2808 -0.648 253 254 249
-0.157137 -0.2782 -0.642 244 244 242
-0.149333 -0.277333 -0.64 200 202 191
-0.14335 -0.279933 -0.646 200 198 185
-0.139071 -0.281233 -0.649 205 203 190
-0.0554667 -0.277333 -0.64 69 69 79
0.0832714 -0.1885 -0.435 199 163 141
0.0931781 -0.186767 -0.431 206 164 148
0.0962381 -0.186333 -0.43 206 165 147
0.100333 -0.186333 -0.43 206 165 145
0.117807 -0.186767 -0.431 175 132 115
0.172143 -0.208867 -0.482 138 132 166
0.252583 -0.240933 -0.556 81 64 72
0.258006 -0.240067 -0.554 85 64 71
0.269271 -0.2379 -0.549 95 72 80
0.270869 -0.237467 -0.548 96 73 81
0.2735 -0.237033 -0.547 99 76 84
0.276652 -0.236167 -0.545 107 81 90
0.282356 -0.234867 -0.542 114 88 99
0.283389 -0.234867 -0.542 114 88 99
0.29052 -0.233133 -0.538 116 90 101
0.300453 -0.230533 -0.532 126 98 112
0.315698 -0.228367 -0.527 130 102 116
0.3225 -0.2275 -0.525 130 102 116
0.381919 -0.250033 -0.577 107 105 126
0.388111 -0.252633 -0.583 106 105 123
0.399823 -0.243533 -0.562 118 97 106
0.399103 -0.2418 -0.558 130 95 93
0.39988 -0.2366 -0.546 136 92 91
0.40502 -0.233567 -0.539 137 90 84
0.425674 -0.2314 -0.534 152 100 89
0.479414 -0.2405 -0.555 147 97 88
0.487803 -0.2431 -0.561 145 95 86
0.510727 -0.251767 -0.581 142 97 92
-0.146895 -0.278552 -0.64 210 211 205
-0.103331 -0.279423 -0.642 76 77 82
-0.0462143 -0.281599 -0.647 70 73 80
-0.0450514 -0.282034 -0.648 68 71 78
0.0884571 -0.188023 -0.432 202 166 150
0.0890733 -0.187588 -0.431 201 165 149
0.100333 -0.187152 -0.43 204 167 148
0.132536 -0.19107 -0.439 141 97 88
0.133372 -0.19107 -0.439 132 93 86
0.164975 -0.205432 -0.472 80 61 63
0.166577 -0.206303 -0.474 105 89 100
0.243888 -0.25505 -0.586 84 57 76
0.241177 -0.245474 -0.564 83 63 74
0.259061 -0.241122 -0.554 86 65 72
0.293049 -0.233723 -0.537 116 90 99
0.31085 -0.230241 -0.529 134 106 120
0.351787 -0.23677 -0.544 48 47 53
0.369671 -0.24591 -0.565 114 117 132
0.400633 -0.258967 -0.595 107 104 123
0.411503 -0.263754 -0.606 69 68 86
0.401224 -0.237205 -0.545 136 88 84
0.408891 -0.233288 -0.536 140 91 86
0.414243 -0.232852 -0.535 138 86 75
0.433605 -0.232852 -0.535 144 94 85
0.454764 -0.235899 -0.542 143 90 84
0.470905 -0.239381 -0.55 144 94 87
-0.152751 -0.279334 -0.639 237 237 237
-0.0950971 -0.274526 -0.628 74 74 82
-0.0936019 -0.273651 -0.626 74 74 82
-0.0820762 -0.271029 -0.62 74 72 83
-0.0797143 -0.271029 -0.62 73 73 83
-0.0741667 -0.27234 -0.623 69 72 81
-0.0699771 -0.274526 -0.628 69 72 79
-0.0578143 -0.279334 -0.639 68 68 78
0.0792 -0.192343 -0.44 200 163 145
0.0798562 -0.191906 -0.439 200 163 145
0.0861876 -0.189283 -0.433 206 169 151
0.0907152 -0.188409 -0.431 204 166 147
0.104429 -0.187971 -0.43 200 162 143
0.106886 -0.187971 -0.43 196 157 140
0.107705 -0.187971 -0.43 194 152 136
0.134209 -0.191906 -0.439 132 91 85
0.242077 -0.253106 -0.579 83 65 77
0.249854 -0.243489 -0.557 84 64 75
0.2607 -0.24174 -0.553 86 67 73
0.277181 -0.237806 -0.544 109 83 94
0.280809 -0.237369 -0.543 114 86 98
0.283389 -0.236931 -0.542 116 88 100
0.292026 -0.234746 -0.537 117 89 101
0.311858 -0.231249 -0.529 133 105 119
0.315291 -0.230811 -0.528 132 104 118
0.3235 -0.2295 -0.525 131 103 117
0.341628 -0.232997 -0.533 43 36 43
0.352433 -0.238243 -0.545 50 49 57
0.365333 -0.2448 -0.56 119 122 137
0.400633 -0.2601 -0.595 117 114 133
0.439143 -0.278023 -0.636 69 66 87
0.399823 -0.245674 -0.562 119 98 107
0.399467 -0.2448 -0.56 134 96 95
0.399818 -0.244363 -0.559 134 96 95
0.401224 -0.238243 -0.545 133 86 80
0.402854 -0.237369 -0.543 137 90 84
0.425452 -0.233871 -0.535 152 98 88
0.432586 -0.233871 -0.535 145 95 84
0.47281 -0.240866 -0.551 143 94 87
0.477687 -0.24174 -0.553 140 96 87
0.49734 -0.24786 -0.567 150 101 97
-0.13064 -0.282747 -0.644 244 243 239
-0.0959867 -0.274844 -0.626 74 73 81
-0.0543324 -0.28143 -0.641 68 68 78
-0.0531943 -0.281869 -0.642 69 69 79
-0.0509067 -0.282747 -0.644 70 70 80
-0.0474467 -0.284064 -0.647 68 68 76
-0.0438848 -0.284942 -0.649 72 72 80
0.0874314 -0.18923 -0.431 203 165 146
0.0896857 -0.18879 -0.43 204 166 147
0.110162 -0.18879 -0.43 189 146 130
0.122477 -0.190108 -0.433 168 122 107
0.167072 -0.209865 -0.478 173 175 200
0.239029 -0.247623 -0.564 83 66 76
0.24075 -0.247184 -0.563 83 66 76
0.2448 -0.245867 -0.56 82 64 76
0.247114 -0.244989 -0.558 84 64 75
0.248177 -0.244989 -0.558 84 64 75
0.24924 -0.244989 -0.558 85 65 76
0.254098 -0.24455 -0.557 82 65 73
0.279774 -0.238403 -0.543 112 84 96
0.291545 -0.236208 -0.538 117 89 101
0.299549 -0.234451 -0.534 124 96 108
0.317706 -0.231378 -0.527 131 103 117
0.32987 -0.230061 -0.524 136 112 125
0.342269 -0.234451 -0.534 45 38 46
0.403889 -0.238403 -0.543 138 91 85
0.404177 -0.237964 -0.542 132 85 79
0.423414 -0.23489 -0.535 151 99 88
0.430548 -0.23489 -0.535 147 97 86
0.44814 -0.236647 -0.539 146 93 85
0.452894 -0.237525 -0.541 141 88 80
0.461623 -0.238842 -0.544 149 99 90
0.4654 -0.23972 -0.546 144 94 85
0.486257 -0.244989 -0.558 153 100 94
-0.120916 -0.281328 -0.638 183 183 183
-0.1183 -0.280887 -0.637 133 133 135
-0.0994048 -0.275595 -0.625 71 69 80
-0.0900514 -0.272509 -0.618 75 74 82
-0.0831229 -0.27295 -0.619 74 72 83
-0.0766629 -0.275154 -0.624 73 73 81
-0.0623886 -0.280446 -0.636 69 69 79
-0.0543324 -0.28265 -0.641 70 70 80
-0.0438848 -0.286178 -0.649 70 70 78
0.0775238 -0.194019 -0.44 204 167 149
0.0837133 -0.190932 -0.433 206 167 150
0.103369 -0.189169 -0.429 204 166 147
0.106637 -0.189169 -0.429 192 151 133
0.127478 -0.192255 -0.436 148 105 98
0.143787 -0.197547 -0.448 107 78 80
0.147327 -0.19887 -0.451 102 74 71
0.24075 -0.248256 -0.563 84 66 78
0.2448 -0.246933 -0.56 82 64 76
0.263383 -0.243406 -0.552 90 69 76
0.269271 -0.242083 -0.549 93 70 78
0.272458 -0.241201 -0.547 99 73 82
0.292026 -0.236791 -0.537 117 89 101
0.296587 -0.23635 -0.536 119 91 103
0.3255 -0.2315 -0.525 170 150 161
0.335406 -0.232823 -0.528 147 123 136
0.345857 -0.237232 -0.538 46 36 45
0.353727 -0.241201 -0.547 46 43 52
0.37643 -0.252225 -0.572 113 112 130
0.400633 -0.262367 -0.595 113 112 130
0.403792 -0.26369 -0.598 109 108 126
0.416062 -0.269422 -0.611 88 87 105
0.400166 -0.246051 -0.558 136 97 92
0.401186 -0.244729 -0.555 133 92 88
0.403432 -0.241642 -0.548 130 85 80
0.405492 -0.238555 -0.541 132 85 79
0.4068 -0.238114 -0.54 132 85 79
0.419101 -0.23635 -0.536 147 97 88
0.431567 -0.23591 -0.535 145 95 84
0.432586 -0.23591 -0.535 143 93 82
0.458706 -0.239437 -0.543 153 103 94
-0.150788 -0.283871 -0.641 113 113 115
-0.136632 -0.279886 -0.632 207 208 212
-0.09476 -0.273686 -0.618 70 68 79
-0.0843019 -0.274129 -0.619 75 74 82
-0.0714 -0.279 -0.63 72 72 80
-0.0681229 -0.280329 -0.633 72 72 80
-0.0509067 -0.2852 -0.644 68 68 78
0.0968314 -0.189986 -0.429 200 162 143
0.0984657 -0.189986 -0.429 198 159 142
0.100917 -0.189986 -0.429 201 164 145
0.102551 -0.189986 -0.429 201 163 144
0.104186 -0.189986 -0.429 199 161 142
0.11808 -0.191314 -0.432 171 125 110
0.121652 -0.191757 -0.433 166 118 106
0.13482 -0.1953 -0.441 124 86 83
0.141446 -0.197514 -0.446 109 79 79
0.239452 -0.250214 -0.565 83 65 77
0.241177 -0.249771 -0.564 84 66 78
0.241822 -0.249329 -0.563 83 65 77
0.248 -0.248 -0.56 86 66 75
0.254098 -0.246671 -0.557 86 66 75
0.25576 -0.246229 -0.556 86 66 75
0.259647 -0.2449 -0.553 88 67 74
0.27508 -0.2418 -0.546 107 81 90
0.27769 -0.241357 -0.545 111 84 93
0.284927 -0.239586 -0.541 117 89 101
0.300566 -0.236486 -0.534 126 98 110
0.30552 -0.2356 -0.532 132 104 118
0.32111 -0.232943 -0.526 132 104 118
0.375341 -0.253314 -0.572 118 115 132
0.400533 -0.248 -0.56 135 97 94
0.415017 -0.237371 -0.536 137 90 82
0.489258 -0.247557 -0.559 148 100 96
0.512277 -0.256414 -0.579 151 104 96
-0.119834 -0.278421 -0.626 68 68 76
-0.117262 -0.277976 -0.625 65 65 73
-0.101658 -0.274418 -0.617 64 63 71
-0.0832571 -0.275752 -0.62 75 75 83
-0.0601543 -0.283758 -0.638 72 72 82
-0.0486038 -0.287316 -0.646 89 89 99
0.0851657 -0.192137 -0.432 201 162 145
0.0968314 -0.190803 -0.429 200 162 143
0.118903 -0.192137 -0.432 165 117 105
0.121652 -0.192582 -0.433 162 114 104
0.123587 -0.193027 -0.434 155 107 97
0.1247 -0.193471 -0.435 155 107 97
0.140596 -0.198364 -0.446 108 77 75
0.142933 -0.199253 -0.448 107 77 77
0.24192 -0.256183 -0.576 83 65 77
0.239876 -0.251735 -0.566 83 65 77
0.259061 -0.246398 -0.554 87 67 76
0.263383 -0.245509 -0.552 89 69 78
0.274542 -0.243285 -0.547 106 80 89
0.294545 -0.238392 -0.536 120 93 102
0.298071 -0.237948 -0.535 125 97 109
0.299549 -0.237503 -0.534 125 97 109
0.304507 -0.236613 -0.532 132 104 118
0.316297 -0.234834 -0.528 133 105 119
0.317303 -0.234834 -0.528 133 105 119
0.324116 -0.233945 -0.526 123 100 110
0.3295 -0.2335 -0.525 136 120 130
0.35075 -0.24195 -0.544 42 39 46
0.366638 -0.249956 -0.562 105 107 120
0.39368 -0.26152 -0.588 108 106 119
0.435177 -0.28109 -0.632 79 76 93
0.404169 -0.244174 -0.549 127 86 80
0.415017 -0.238392 -0.536 134 87 81
0.41808 -0.238392 -0.536 140 91 84
0.443409 -0.238837 -0.537 145 95 86
0.460774 -0.241506 -0.543 150 100 91
0.464548 -0.242395 -0.545 147 97 90
-0.0770314 -0.28006 -0.627 72 72 82
-0.0759581 -0.280507 -0.628 74 74 84
-0.0624867 -0.284527 -0.637 73 71 82
0.0750143 -0.198767 -0.445 205 168 152
0.0753505 -0.197427 -0.442 204 167 151
0.0763371 -0.19564 -0.438 200 164 150
0.0769952 -0.195193 -0.437 199 163 147
0.07848 -0.194747 -0.436 203 166 148
0.145609 -0.201447 -0.451 105 76 78
0.164906 -0.21306 -0.477 239 237 248
0.240954 -0.252813 -0.566 84 67 77
0.242251 -0.25192 -0.564 85 65 76
0.249687 -0.249687 -0.559 85 66 72
0.253037 -0.248793 -0.557 83 66 76
0.263383 -0.24656 -0.552 89 69 78
0.283896 -0.241647 -0.541 117 89 101
0.29052 -0.240307 -0.538 117 89 101
0.302033 -0.238073 -0.533 132 104 116
0.311858 -0.236287 -0.529 133 105 119
0.316297 -0.23584 -0.528 132 104 118
0.322112 -0.234947 -0.526 133 107 120
0.3295 -0.2345 -0.525 135 119 129
0.347143 -0.2412 -0.54 45 36 41
0.388111 -0.260407 -0.583 117 113 128
0.400893 -0.251027 -0.562 136 95 91
0.408307 -0.242093 -0.542 127 84 78
0.424206 -0.239413 -0.536 150 100 89
0.443409 -0.23986 -0.537 151 98 90
0.45122 -0.240753 -0.539 143 90 82
0.469378 -0.244327 -0.547 147 97 90
0.474231 -0.24522 -0.549 144 95 90
0.490323 -0.249687 -0.559 145 100 95
-0.125771 -0.278114 -0.62 73 74 79
-0.112675 -0.274974 -0.613 62 61 69
-0.108816 -0.274077 -0.611 63 63 71
-0.106489 -0.274077 -0.611 61 62 67
-0.097019 -0.273629 -0.61 70 69 77
-0.0613695 -0.286189 -0.638 72 70 81
-0.0555533 -0.287534 -0.641 73 71 82
-0.0521333 -0.28888 -0.644 73 71 82
0.0849686 -0.193334 -0.431 202 164 145
0.0911114 -0.192437 -0.429 202 164 145
0.114257 -0.192886 -0.43 175 129 116
0.125817 -0.195577 -0.436 146 98 86
0.13398 -0.19782 -0.441 120 82 79
0.139747 -0.200063 -0.446 106 77 81
0.14208 -0.20096 -0.448 100 75 79
0.147117 -0.203203 -0.453 102 76 77
0.24138 -0.25434 -0.567 87 67 78
0.242681 -0.253443 -0.565 85 65 76
0.243967 -0.252546 -0.563 86 66 77
0.246306 -0.251649 -0.561 86 66 77
0.27612 -0.24492 -0.546 109 83 94
0.276652 -0.244471 -0.545 111 85 96
0.282866 -0.242677 -0.541 119 91 103
0.289007 -0.24178 -0.539 118 90 102
0.295094 -0.240883 -0.537 121 94 103
0.316297 -0.236846 -0.528 132 104 118
0.338323 -0.238191 -0.531 82 66 76
0.36729 -0.252546 -0.563 113 115 128
0.440524 -0.286189 -0.638 74 70 87
0.400893 -0.252097 -0.562 135 94 90
0.423185 -0.240434 -0.536 150 100 91
0.434624 -0.239986 -0.535 138 88 77
0.444431 -0.240883 -0.537 152 99 91
0.449358 -0.241331 -0.538 146 93 85
0.463695 -0.244023 -0.544 147 97 88
0.46748 -0.24492 -0.546 148 98 89
0.47042 -0.245369 -0.547 147 97 88
-0.130706 -0.279746 -0.621 100 101 105
-0.129314 -0.279295 -0.62 94 95 99
-0.127927 -0.278845 -0.619 84 85 89
-0.122414 -0.277043 -0.615 64 65 70
-0.117154 -0.275691 -0.612 62 62 70
-0.1131 -0.27434 -0.609 60 60 68
-0.0888743 -0.278394 -0.618 75 75 85
-0.0671286 -0.286052 -0.635 73 72 80
-0.0648114 -0.286503 -0.636 72 71 79
-0.0521333 -0.290107 -0.644 70 68 79
-0.0486038 -0.291008 -0.646 65 63 74
0.0738333 -0.199561 -0.443 205 167 154
0.0804143 -0.195056 -0.433 203 164 147
0.0841476 -0.194155 -0.431 203 165 146
0.0911114 -0.193254 -0.429 204 165 148
0.100917 -0.193254 -0.429 196 159 140
0.106389 -0.192804 -0.428 194 151 134
0.13314 -0.19866 -0.441 118 88 88
0.136275 -0.199561 -0.443 114 82 83
0.151689 -0.206769 -0.459 105 77 76
0.248443 -0.252717 -0.561 86 66 77
0.263383 -0.248663 -0.552 89 68 75
0.302033 -0.240104 -0.533 133 105 117
0.30552 -0.239653 -0.532 134 106 120
0.311438 -0.238752 -0.53 130 102 116
0.314881 -0.238302 -0.529 131 103 117
0.3275 -0.2365 -0.525 177 164 173
0.344832 -0.242356 -0.538 46 35 43
0.35204 -0.24596 -0.546 43 38 45
0.409617 -0.262177 -0.582 78 75 92
0.406491 -0.259474 -0.576 111 84 91
0.405641 -0.248212 -0.551 129 84 81
0.420665 -0.242356 -0.538 140 91 84
0.42829 -0.241455 -0.536 149 99 88
0.444431 -0.241906 -0.537 153 100 92
0.448333 -0.242356 -0.538 146 94 83
0.487691 -0.250465 -0.556 144 97 91
0.497931 -0.254069 -0.564 146 97 92
1.14162 -0.292359 -0.649 203 205 192
-0.103138 -0.27369 -0.605 52 53 58
-0.0921067 -0.278667 -0.616 70 70 78
-0.0849829 -0.282286 -0.624 75 75 83
-0.0579048 -0.289524 -0.64 75 74 82
-0.0474467 -0.29269 -0.647 117 115 126
0.0795895 -0.195881 -0.433 201 164 146
0.0839524 -0.194524 -0.43 202 164 145
0.0872286 -0.194524 -0.43 204 165 148
0.0992829 -0.194071 -0.429 199 161 142
0.157001 -0.211262 -0.467 232 226 228
0.259529 -0.251071 -0.555 89 68 75
0.267104 -0.249262 -0.551 91 70 77
0.275584 -0.247452 -0.547 106 80 89
0.27612 -0.247 -0.546 111 85 94
0.283896 -0.244738 -0.541 120 92 104
0.285429 -0.244286 -0.54 116 88 100
0.29909 -0.242024 -0.535 129 101 113
0.300566 -0.241571 -0.534 129 103 116
0.30552 -0.240667 -0.532 132 106 119
0.321721 -0.238405 -0.527 132 106 119
0.367943 -0.255143 -0.564 119 116 127
0.395019 -0.266905 -0.59 107 104 121
0.405818 -0.271881 -0.601 68 68 78
0.423371 -0.280476 -0.62 70 68 89
0.406377 -0.249714 -0.552 128 83 78
0.416313 -0.243833 -0.539 134 87 79
0.434624 -0.242024 -0.535 144 92 81
0.43952 -0.242476 -0.536 151 99 88
0.442386 -0.242929 -0.537 149 97 86
-0.113904 -0.273026 -0.601 82 81 89
-0.10492 -0.27348 -0.602 54 55 60
-0.0951609 -0.278477 -0.613 68 68 76
-0.0752381 -0.287109 -0.632 72 72 80
-0.0672343 -0.288926 -0.636 74 73 81
-0.0637 -0.28938 -0.637 73 72 80
0.130324 -0.199886 -0.44 123 89 87
0.248062 -0.256671 -0.565 88 71 77
0.266537 -0.250766 -0.552 92 71 78
0.27769 -0.247586 -0.545 111 85 94
0.2844 -0.245314 -0.54 118 90 102
0.294619 -0.244406 -0.538 122 94 106
0.298629 -0.243497 -0.536 129 101 115
0.305079 -0.242134 -0.533 134 108 121
0.309419 -0.240771 -0.53 134 108 121
0.318309 -0.239863 -0.528 134 106 120
0.320717 -0.239409 -0.527 133 107 120
0.3285 -0.2385 -0.525 145 124 133
0.360606 -0.252583 -0.556 55 52 61
0.376653 -0.26076 -0.574 104 100 114
0.40122 -0.25758 -0.567 133 93 93
0.401246 -0.256217 -0.564 135 95 95
0.401249 -0.254854 -0.561 134 92 93
0.409397 -0.249403 -0.549 119 74 69
0.40999 -0.248494 -0.547 118 75 68
0.41028 -0.24804 -0.546 118 75 68
0.414767 -0.245769 -0.541 124 84 76
0.423739 -0.244406 -0.538 148 98 89
0.427043 -0.243951 -0.537 146 96 85
0.453273 -0.24486 -0.539 145 95 84
0.47164 -0.24804 -0.546 148 99 92
-0.0998457 -0.276451 -0.606 59 60 65
-0.0863095 -0.285119 -0.625 75 74 82
-0.073061 -0.289225 -0.634 71 71 79
-0.05564 -0.292874 -0.642 70 69 77
-0.0451905 -0.296524 -0.65 69 67 78
0.0787648 -0.19753 -0.433 201 164 148
0.0870257 -0.195706 -0.429 204 165 148
0.106389 -0.19525 -0.428 182 141 123
0.114523 -0.196618 -0.431 165 117 103
0.131758 -0.201636 -0.442 121 87 85
0.24786 -0.25866 -0.567 86 67 73
0.264913 -0.252273 -0.553 91 70 77
0.268153 -0.251361 -0.551 94 73 80
0.279253 -0.248168 -0.544 117 90 99
0.280809 -0.247711 -0.543 117 90 99
0.297608 -0.244518 -0.536 130 102 116
0.30011 -0.244062 -0.535 129 101 115
0.318309 -0.240869 -0.528 133 105 119
0.32111 -0.239956 -0.526 138 112 123
0.3285 -0.2395 -0.525 152 131 140
0.406493 -0.274627 -0.602 66 62 76
0.411026 -0.276908 -0.607 82 70 90
0.406145 -0.253642 -0.556 128 84 81
0.410143 -0.250905 -0.55 118 73 68
0.42931 -0.244518 -0.536 148 95 87
0.441562 -0.244518 -0.536 146 94 83
0.466804 -0.248168 -0.544 153 103 94
0.487871 -0.253186 -0.555 148 101 93
0.48981 -0.253642 -0.556 149 102 94
-0.12122 -0.27898 -0.609 63 64 69
-0.108779 -0.273941 -0.598 69 70 75
-0.104746 -0.275315 -0.601 90 91 96
-0.0971781 -0.279896 -0.611 60 61 66
-0.0915238 -0.284019 -0.62 67 67 75
-0.0799267 -0.289058 -0.631 76 75 81
-0.0731762 -0.29089 -0.635 71 71 79
-0.0579952 -0.293639 -0.641 70 69 77
0.0771152 -0.198355 -0.433 202 163 148
0.0802286 -0.197897 -0.432 199 160 145
0.0808638 -0.197439 -0.431 193 154 139
0.0839524 -0.196981 -0.43 201 162 147
0.0870257 -0.196523 -0.429 204 165 150
0.0960143 -0.196523 -0.429 205 164 146
0.102312 -0.196065 -0.428 195 153 137
0.126683 -0.201104 -0.439 134 93 89
0.128355 -0.201104 -0.439 126 90 90
0.131758 -0.202478 -0.442 119 85 84
0.150267 -0.210724 -0.46 97 77 86
0.159018 -0.216679 -0.473 249 254 250
0.245637 -0.264321 -0.577 91 69 81
0.249171 -0.261114 -0.57 88 68 77
0.2511 -0.25974 -0.567 88 69 75
0.263173 -0.254701 -0.556 92 71 78
0.285429 -0.247371 -0.54 119 91 103
0.29257 -0.246455 -0.538 123 95 107
0.303617 -0.244623 -0.534 130 104 117
0.305651 -0.244623 -0.534 131 105 118
0.313873 -0.242332 -0.529 126 100 111
0.330128 -0.240958 -0.526 151 130 139
0.403327 -0.274399 -0.599 70 66 80
0.440524 -0.292265 -0.638 77 70 88
0.400893 -0.25745 -0.562 133 92 90
0.411783 -0.251036 -0.548 117 74 68
0.419143 -0.247371 -0.54 129 82 76
0.423739 -0.246455 -0.538 144 91 83
0.441562 -0.245539 -0.536 145 95 84
0.464911 -0.248746 -0.543 150 100 91
0.480333 -0.251952 -0.55 143 95 85
0.484183 -0.252869 -0.552 144 97 89
-0.125771 -0.2852 -0.62 92 93 98
-0.121618 -0.28106 -0.611 89 90 95
-0.0865857 -0.28842 -0.627 70 73 82
-0.07208 -0.29256 -0.636 72 72 80
-0.0674457 -0.29348 -0.638 73 72 80
-0.0604371 -0.29486 -0.641 72 71 79
-0.0592162 -0.29486 -0.641 72 71 79
0.0713019 -0.20378 -0.443 201 161 149
0.0800429 -0.19826 -0.431 203 161 147
0.117529 -0.19918 -0.433 148 104 93
0.119453 -0.19964 -0.434 147 103 94
0.120557 -0.2001 -0.435 146 103 96
0.135195 -0.2047 -0.445 110 79 77
0.147869 -0.21068 -0.458 88 67 72
0.160027 -0.21896 -0.476 254 255 253
0.261867 -0.2576 -0.56 89 68 75
0.277131 -0.25208 -0.548 112 84 98
0.284927 -0.24886 -0.541 121 95 106
0.293594 -0.24748 -0.538 120 97 105
0.29714 -0.24702 -0.537 124 101 109
0.304634 -0.24564 -0.534 127 104 114
0.316297 -0.24288 -0.528 124 98 109
0.320717 -0.24242 -0.527 129 108 117
0.369248 -0.26036 -0.566 91 90 98
0.405142 -0.25714 -0.559 123 82 80
0.40548 -0.25668 -0.558 122 81 79
0.407204 -0.25576 -0.556 121 80 78
0.411489 -0.25254 -0.549 117 74 68
0.414157 -0.25162 -0.547 116 75 69
0.429089 -0.24702 -0.537 146 93 85
0.469738 -0.2507 -0.545 149 101 91
0.493697 -0.25668 -0.558 145 98 90
-0.121618 -0.282224 -0.611 125 128 133
-0.105538 -0.276681 -0.599 114 114 122
-0.103601 -0.277605 -0.601 62 62 70
-0.0935829 -0.285457 -0.618 63 62 70
-0.0927048 -0.286381 -0.62 62 61 69
-0.0777686 -0.292386 -0.633 76 75 83
-0.0615619 -0.295619 -0.64 72 71 77
-0.0545867 -0.297467 -0.644 74 73 79
0.0814952 -0.198619 -0.43 206 164 150
0.0982362 -0.197695 -0.428 191 149 133
0.131758 -0.204162 -0.442 124 86 85
0.137506 -0.206471 -0.447 107 79 78
0.141313 -0.208319 -0.451 104 74 82
0.154993 -0.216633 -0.469 255 253 255
0.253543 -0.267905 -0.58 84 67 77
0.254643 -0.265595 -0.575 91 69 81
0.261125 -0.260052 -0.563 89 68 77
0.270669 -0.255895 -0.554 96 75 84
0.285957 -0.24989 -0.541 121 95 108
0.290571 -0.249429 -0.54 120 94 107
0.308991 -0.245271 -0.531 127 106 113
0.32612 -0.242962 -0.526 151 136 143
0.38148 -0.266981 -0.578 91 89 100
0.440524 -0.294695 -0.638 78 69 86
0.440354 -0.293771 -0.636 75 67 90
0.406875 -0.257281 -0.557 120 79 75
0.409643 -0.256357 -0.555 116 72 69
0.436457 -0.247581 -0.536 137 87 76
0.441562 -0.247581 -0.536 143 93 82
0.464055 -0.250352 -0.542 150 102 90
0.471814 -0.251738 -0.545 147 99 87
1.14162 -0.299776 -0.649 204 206 193
-0.116387 -0.279213 -0.602 124 127 132
-0.114666 -0.277822 -0.599 124 127 132
-0.101649 -0.279677 -0.603 56 56 64
-0.07098 -0.295447 -0.637 73 72 78
0.0697019 -0.20825 -0.449 207 163 152
0.08866 -0.198974 -0.429 206 164 148
0.100447 -0.198047 -0.427 188 150 131
0.110981 -0.199438 -0.43 163 117 102
0.12781 -0.204076 -0.44 129 88 86
0.147638 -0.213352 -0.46 90 79 96
0.259925 -0.267618 -0.577 87 67 79
0.275447 -0.256487 -0.553 105 79 90
0.276 -0.256023 -0.552 107 81 92
0.322725 -0.244428 -0.527 130 109 118
0.415671 -0.254631 -0.549 114 75 68
0.420695 -0.251385 -0.542 128 83 77
0.424041 -0.250921 -0.541 132 83 76
0.425071 -0.250921 -0.541 132 83 76
0.444625 -0.248602 -0.536 148 98 87
0.45738 -0.249993 -0.539 148 100 86
0.465946 -0.251849 -0.543 147 99 87
0.470776 -0.252776 -0.545 147 99 87
0.471814 -0.252776 -0.545 147 99 87
1.14039 -0.301012 -0.649 202 204 191
-0.09918 -0.28362 -0.609 62 60 71
-0.062879 -0.298523 -0.641 72 71 79
0.076759 -0.200723 -0.431 202 164 151
0.1118 -0.200257 -0.43 160 114 99
0.115611 -0.201189 -0.432 150 105 99
0.126971 -0.204914 -0.44 127 86 84
0.132354 -0.206777 -0.444 117 83 81
0.266519 -0.268717 -0.577 85 65 77
0.269935 -0.264526 -0.568 90 66 80
0.282881 -0.253814 -0.545 122 94 106
0.28547 -0.253349 -0.544 119 93 104
0.295167 -0.25102 -0.539 122 96 105
0.296117 -0.250089 -0.537 126 100 109
0.304634 -0.248691 -0.534 122 101 110
0.308991 -0.247294 -0.531 128 105 115
0.422871 -0.289209 -0.621 95 91 106
0.437931 -0.296194 -0.636 79 71 86
0.401607 -0.262197 -0.563 129 89 89
0.407606 -0.259869 -0.558 121 77 74
0.417002 -0.255211 -0.548 117 79 70
0.434203 -0.250089 -0.537 138 90 80
0.460286 -0.251486 -0.54 142 94 80
0.462169 -0.251951 -0.541 145 97 83
0.485405 -0.256609 -0.551 143 95 85
-0.0931533 -0.291327 -0.623 61 60 68
-0.087 -0.2946 -0.63 67 65 76
-0.0723067 -0.298341 -0.638 75 74 80
-0.0699857 -0.298809 -0.639 74 73 79
-0.0524571 -0.303017 -0.648 71 70 76
-0.0489048 -0.303952 -0.65 71 70 78
0.0738162 -0.202479 -0.433 202 164 151
0.0790381 -0.201076 -0.43 207 168 153
0.0876381 -0.200141 -0.428 207 165 151
0.0925295 -0.200141 -0.428 203 162 144
0.102887 -0.199673 -0.427 176 135 117
0.1037 -0.199673 -0.427 172 129 112
0.109906 -0.200609 -0.429 165 119 104
0.112619 -0.201076 -0.43 158 111 101
0.114789 -0.202011 -0.432 153 104 97
0.148601 -0.216508 -0.463 186 187 215
0.270524 -0.303952 -0.65 152 162 197
0.274746 -0.266075 -0.569 85 64 79
0.28911 -0.254852 -0.545 121 98 108
0.30711 -0.249241 -0.533 128 103 107
0.378405 -0.268881 -0.575 79 75 89
0.387001 -0.272622 -0.583 75 73 86
0.414411 -0.286183 -0.612 78 81 100
0.426786 -0.292262 -0.625 97 99 114
0.433287 -0.295068 -0.631 75 67 80
0.411017 -0.27683 -0.592 70 66 80
0.403733 -0.261867 -0.56 123 83 81
0.411119 -0.260464 -0.557 117 76 72
0.416891 -0.258126 -0.552 116 77 72
0.418046 -0.256255 -0.548 117 78 71
0.422248 -0.254385 -0.544 117 76 70
0.434203 -0.251111 -0.537 136 88 78
0.437271 -0.251111 -0.537 141 91 82
0.465088 -0.25345 -0.542 147 98 83
0.472852 -0.254852 -0.545 149 99 88
0.4758 -0.25532 -0.546 148 98 87
0.488389 -0.258126 -0.552 146 98 86
1.13773 -0.301147 -0.644 202 204 193
-0.12006 -0.28594 -0.609 114 117 124
-0.10728 -0.279836 -0.596 108 108 116
-0.0969571 -0.289696 -0.617 60 58 69
-0.0892581 -0.29533 -0.629 63 61 72
0.0738162 -0.203304 -0.433 203 165 154
0.0796714 -0.201426 -0.429 207 167 155
0.0955667 -0.200487 -0.427 194 153 135
0.129525 -0.207999 -0.443 114 83 80
0.278327 -0.272793 -0.581 77 59 75
0.279081 -0.267159 -0.569 84 64 76
0.279672 -0.26669 -0.568 90 70 82
0.2832 -0.262933 -0.56 90 73 81
0.284927 -0.259647 -0.553 115 89 98
0.288094 -0.257769 -0.549 117 94 102
0.292724 -0.255421 -0.544 120 99 108
0.318309 -0.247909 -0.528 126 105 114
0.320717 -0.247439 -0.527 123 103 112
0.335033 -0.248378 -0.529 129 112 118
0.40031 -0.269976 -0.575 96 73 81
0.4048 -0.262933 -0.56 123 82 80
0.412814 -0.260586 -0.555 116 75 71
0.418809 -0.257769 -0.549 118 77 71
0.420409 -0.25683 -0.547 115 74 68
0.444625 -0.251665 -0.536 145 95 84
0.449546 -0.252134 -0.537 151 102 88
0.472852 -0.25589 -0.545 149 99 88
0.483643 -0.257769 -0.549 142 94 82
-0.0971143 -0.291343 -0.618 61 59 70
-0.0894 -0.297 -0.63 62 60 71
-0.0837971 -0.298414 -0.633 68 67 75
-0.0735219 -0.300771 -0.638 75 74 82
-0.0595857 -0.304071 -0.645 71 70 78
0.0695038 -0.206014 -0.437 206 166 156
0.100211 -0.200829 -0.426 183 145 126
0.113143 -0.203657 -0.432 146 106 96
0.129525 -0.208843 -0.443 108 80 77
0.148357 -0.219214 -0.465 195 198 229
0.150206 -0.220629 -0.468 189 197 234
0.282638 -0.278143 -0.59 68 56 70
0.2943 -0.256929 -0.545 120 97 107
0.298323 -0.255043 -0.541 121 100 109
0.302254 -0.253157 -0.537 122 99 107
0.316896 -0.249386 -0.529 125 104 113
0.330755 -0.248443 -0.527 134 113 120
0.351 -0.2574 -0.546 39 34 38
0.362551 -0.263529 -0.559 40 35 41
0.383905 -0.273429 -0.58 81 77 91
0.396358 -0.279086 -0.592 59 57 71
0.396829 -0.268714 -0.57 109 78 84
0.408997 -0.262586 -0.557 117 76 72
0.418524 -0.259286 -0.55 118 78 70
0.428954 -0.255514 -0.542 125 80 74
0.453457 -0.253629 -0.538 156 107 93
0.46612 -0.255514 -0.542 146 94 81
0.494214 -0.261643 -0.555 148 101 91
-0.0927048 -0.297253 -0.628 58 56 67
-0.0689838 -0.303407 -0.641 75 74 82
-0.0677629 -0.303407 -0.641 75 74 82
-0.0595857 -0.3053 -0.645 71 70 78
0.0669314 -0.209213 -0.442 203 166 158
0.0686714 -0.206847 -0.437 205 165 157
0.0713419 -0.204953 -0.433 203 167 153
0.076581 -0.203533 -0.43 205 167 154
0.0915 -0.202113 -0.427 199 157 141
0.0985886 -0.20164 -0.426 182 144 125
0.135857 -0.213 -0.45 101 77 77
0.287761 -0.306247 -0.647 244 244 252
0.287854 -0.30246 -0.639 214 216 237
0.293884 -0.262227 -0.554 116 90 99
0.295441 -0.260807 -0.551 121 95 104
0.306224 -0.253233 -0.535 124 101 111
0.311014 -0.25134 -0.531 129 108 117
0.314881 -0.250393 -0.529 126 105 114
0.327122 -0.248973 -0.526 164 144 153
0.335667 -0.250867 -0.53 124 107 113
0.406207 -0.264593 -0.559 120 79 75
0.418235 -0.260807 -0.551 118 78 70
0.42484 -0.25844 -0.546 115 72 66
0.426138 -0.257967 -0.545 120 77 71
0.428711 -0.25702 -0.543 122 79 72
0.450569 -0.25418 -0.537 147 95 81
0.451591 -0.25418 -0.537 149 97 83
0.471117 -0.25702 -0.543 152 100 89
0.484689 -0.25986 -0.549 145 97 87
-0.100505 -0.289895 -0.61 74 72 85
-0.0874143 -0.300826 -0.633 60 59 67
-0.0862086 -0.300826 -0.633 60 59 67
-0.07826 -0.302727 -0.637 72 71 79
-0.0714257 -0.304628 -0.641 74 73 81
-0.0619467 -0.306053 -0.644 72 71 79
-0.0537743 -0.30843 -0.649 71 70 76
0.072 -0.205303 -0.432 205 169 155
0.0780371 -0.203877 -0.429 206 166 154
0.0947533 -0.202927 -0.427 191 150 132
0.109089 -0.203877 -0.429 156 110 97
0.110162 -0.204352 -0.43 156 110 97
0.11206 -0.204828 -0.431 152 104 92
0.116147 -0.206253 -0.434 137 94 87
0.124457 -0.209105 -0.44 125 87 84
0.293342 -0.265658 -0.559 101 79 91
0.31117 -0.253302 -0.533 133 110 120
0.3699 -0.26946 -0.567 94 89 96
0.376653 -0.272787 -0.574 87 84 93
0.38082 -0.274212 -0.577 85 82 91
0.429746 -0.258054 -0.543 121 78 71
0.431019 -0.257579 -0.542 127 84 77
0.433543 -0.256629 -0.54 133 86 76
0.436036 -0.255678 -0.538 136 89 79
0.457556 -0.255678 -0.538 153 100 86
0.467152 -0.257579 -0.542 149 95 83
-0.10787 -0.282946 -0.593 105 105 113
-0.101333 -0.290103 -0.608 79 80 85
-0.0989857 -0.293443 -0.615 70 69 77
-0.0896838 -0.301554 -0.632 58 56 69
-0.0863448 -0.302509 -0.634 59 57 71
-0.0737524 -0.305371 -0.64 73 72 80
-0.0573057 -0.308711 -0.647 71 70 76
-0.0549257 -0.309189 -0.648 72 71 77
0.0906867 -0.20374 -0.427 199 157 141
0.101834 -0.203263 -0.426 172 130 114
0.110162 -0.205171 -0.43 155 109 96
0.120279 -0.208511 -0.437 135 91 88
0.306053 -0.30728 -0.644 244 243 255
0.29646 -0.27054 -0.567 88 70 86
0.296513 -0.268631 -0.563 94 76 90
0.300095 -0.261474 -0.548 124 98 109
0.318911 -0.252409 -0.529 133 110 120
0.32032 -0.251931 -0.528 132 109 119
0.321326 -0.251931 -0.528 127 106 115
0.38082 -0.275311 -0.577 81 75 85
0.395689 -0.281991 -0.591 59 55 70
0.405818 -0.286763 -0.601 62 56 70
0.399095 -0.275789 -0.578 77 65 85
0.415236 -0.264337 -0.554 120 79 73
0.41584 -0.263383 -0.552 120 79 73
0.417943 -0.263383 -0.552 120 79 73
0.418235 -0.262906 -0.551 121 80 74
0.4238 -0.26052 -0.546 116 73 66
0.433543 -0.257657 -0.54 135 87 75
0.436629 -0.257657 -0.54 134 86 74
0.451591 -0.256226 -0.537 150 99 82
0.492594 -0.263383 -0.552 147 95 82
1.1395 -0.307757 -0.645 201 203 190
-0.104223 -0.28647 -0.598 64 64 72
-0.101986 -0.289824 -0.605 80 81 86
-0.0998314 -0.293656 -0.613 74 73 81
-0.0898257 -0.303237 -0.633 57 55 66
-0.0573057 -0.309944 -0.647 71 70 76
-0.0537743 -0.310902 -0.649 72 71 77
0.0668533 -0.208865 -0.436 206 162 159
0.0786705 -0.205032 -0.428 205 165 155
0.08662 -0.204553 -0.427 202 160 148
0.0923133 -0.204553 -0.427 196 154 138
0.0969657 -0.204074 -0.426 188 147 129
0.105327 -0.204553 -0.427 157 113 100
0.107454 -0.205511 -0.429 155 111 98
0.146327 -0.223715 -0.467 152 160 206
0.3077 -0.260123 -0.543 127 101 110
0.342146 -0.257249 -0.537 40 34 38
0.3699 -0.27162 -0.567 98 93 100
0.3795 -0.275452 -0.575 74 68 78
0.39996 -0.284554 -0.594 61 57 71
0.399467 -0.268267 -0.56 125 84 82
0.408263 -0.26635 -0.556 123 80 74
0.433315 -0.259165 -0.541 133 87 72
0.471282 -0.259644 -0.542 149 96 80
1.14019 -0.308507 -0.644 202 204 191
1.13798 -0.30659 -0.64 202 204 191
-0.08056 -0.305886 -0.636 66 65 73
0.0667 -0.209214 -0.435 203 166 158
0.0793 -0.205367 -0.427 205 165 155
0.08662 -0.205367 -0.427 199 160 145
0.0945314 -0.204886 -0.426 184 142 126
0.0969657 -0.204886 -0.426 187 146 128
0.106389 -0.205848 -0.428 151 107 94
0.122502 -0.211138 -0.439 123 85 82
0.31096 -0.309733 -0.644 170 176 200
0.307653 -0.26741 -0.556 120 98 110
0.355264 -0.265005 -0.551 43 37 41
0.383682 -0.27799 -0.578 46 40 50
0.399818 -0.268852 -0.559 128 87 85
0.408263 -0.26741 -0.556 123 80 74
0.418235 -0.265005 -0.551 125 85 77
0.419854 -0.264043 -0.549 122 82 74
0.431573 -0.261638 -0.544 129 83 70
0.455683 -0.258271 -0.537 155 99 86
0.456706 -0.258271 -0.537 157 101 86
0.49081 -0.264524 -0.55 148 97 80
1.14031 -0.308771 -0.642 201 203 190
-0.0991467 -0.29744 -0.616 78 77 83
-0.0586286 -0.312891 -0.648 73 72 80
0.0667 -0.210043 -0.435 203 166 158
0.08418 -0.20618 -0.427 201 161 149
0.0896629 -0.205697 -0.426 199 160 145
0.11532 -0.20956 -0.434 142 99 92
0.116414 -0.210043 -0.435 139 96 89
0.12615 -0.213906 -0.443 106 80 81
0.133582 -0.217769 -0.451 88 68 69
0.13797 -0.220666 -0.457 89 75 90
0.227857 -0.308063 -0.638 251 255 255
0.323552 -0.255914 -0.53 124 101 111
0.325349 -0.254949 -0.528 136 110 121
0.339852 -0.258329 -0.535 61 42 48
0.372289 -0.274746 -0.569 70 65 71
0.389663 -0.281023 -0.582 42 36 48
0.392271 -0.272814 -0.565 133 92 86
0.394837 -0.270883 -0.561 128 87 85
0.416891 -0.266537 -0.552 127 84 77
0.4356 -0.260743 -0.54 140 91 76
0.439927 -0.26026 -0.539 143 94 79
0.458751 -0.259294 -0.537 154 101 85
0.474379 -0.261709 -0.542 149 98 81
0.479238 -0.262674 -0.544 146 95 78
0.482195 -0.263157 -0.545 150 99 80
-0.125394 -0.302491 -0.624 99 102 109
-0.110508 -0.285525 -0.589 95 96 101
-0.0922371 -0.306854 -0.633 60 59 67
-0.0806867 -0.308793 -0.637 63 62 70
-0.06808 -0.312187 -0.644 73 72 80
0.0658714 -0.210871 -0.435 200 163 157
0.0665467 -0.210387 -0.434 202 165 159
0.0687086 -0.209417 -0.432 204 167 159
0.0731343 -0.207963 -0.429 203 164 157
0.0961543 -0.206509 -0.426 185 147 128
0.0977771 -0.206509 -0.426 177 139 120
0.100211 -0.206509 -0.426 172 130 114
0.105573 -0.207478 -0.428 154 110 99
0.113667 -0.210387 -0.434 146 99 89
0.124181 -0.214265 -0.442 111 83 82
0.235131 -0.314126 -0.648 250 251 255
0.323762 -0.315095 -0.65 188 198 234
0.327922 -0.313156 -0.646 181 195 234
0.322529 -0.259348 -0.535 130 104 117
0.349319 -0.264195 -0.545 44 34 43
0.37643 -0.277284 -0.572 35 28 35
0.388757 -0.280677 -0.579 36 34 39
0.391109 -0.275345 -0.568 124 87 94
0.397333 -0.271467 -0.56 129 88 86
0.402291 -0.270497 -0.558 129 88 84
0.403354 -0.270497 -0.558 126 85 81
0.403692 -0.270012 -0.557 127 84 78
0.407204 -0.269528 -0.556 125 82 76
0.408586 -0.269043 -0.555 124 83 77
0.429252 -0.264195 -0.545 126 79 69
0.433084 -0.262741 -0.542 134 86 72
0.434116 -0.262741 -0.542 137 89 75
0.437657 -0.261771 -0.54 139 90 76
0.438686 -0.261771 -0.54 142 93 79
0.453813 -0.259832 -0.536 152 99 83
0.455855 -0.259832 -0.536 153 100 86
0.468673 -0.261287 -0.539 148 95 79
0.493801 -0.267104 -0.551 150 96 84
0.507941 -0.272436 -0.562 154 106 92
1.14031 -0.311217 -0.642 202 204 193
1.13629 -0.308793 -0.637 213 213 201
-0.0806867 -0.310007 -0.637 62 61 69
-0.0750886 -0.311953 -0.641 69 68 76
-0.0646 -0.314387 -0.646 72 71 79
0.0809267 -0.207807 -0.427 205 165 153
0.08236 -0.20732 -0.426 205 163 151
0.0847943 -0.20732 -0.426 201 159 147
0.104758 -0.208293 -0.428 154 110 97
0.12306 -0.21462 -0.441 112 81 78
0.127004 -0.217053 -0.446 108 83 86
0.33439 -0.315847 -0.649 187 201 240
0.321514 -0.27156 -0.558 109 96 106
0.32132 -0.269613 -0.554 123 103 112
0.332638 -0.257933 -0.53 137 114 124
0.340488 -0.260853 -0.536 54 37 45
0.403692 -0.271073 -0.557 129 86 80
0.406875 -0.271073 -0.557 127 84 78
0.413433 -0.269127 -0.553 127 84 77
0.41584 -0.26864 -0.552 127 82 76
0.417186 -0.268153 -0.551 126 83 76
0.417476 -0.267667 -0.55 127 84 77
0.42588 -0.26572 -0.546 126 82 73
0.430537 -0.264747 -0.544 134 86 74
0.4389 -0.262313 -0.539 149 99 88
0.479391 -0.26426 -0.543 149 96 82
-0.112751 -0.287769 -0.589 96 97 102
-0.104049 -0.291677 -0.597 78 79 84
-0.0854057 -0.310731 -0.636 56 55 63
-0.0795981 -0.311709 -0.638 60 59 67
-0.0728733 -0.314151 -0.643 69 68 74
-0.0669571 -0.315129 -0.645 70 69 77
0.0685495 -0.210574 -0.431 203 165 156
0.0994 -0.208131 -0.426 170 128 112
0.130146 -0.220346 -0.451 102 80 82
0.1339 -0.2223 -0.455 99 77 80
0.234258 -0.317083 -0.649 220 218 223
0.326716 -0.271646 -0.556 123 103 112
0.328236 -0.261874 -0.536 131 105 114
0.337183 -0.260897 -0.534 128 107 116
0.374685 -0.278974 -0.571 36 29 36
0.393769 -0.274089 -0.561 135 93 94
0.3952 -0.2736 -0.56 129 89 87
0.413737 -0.269691 -0.552 131 86 80
0.422221 -0.267737 -0.548 124 81 74
0.436181 -0.264806 -0.542 144 91 83
0.437657 -0.263829 -0.54 146 94 83
-0.10808 -0.2884 -0.588 86 86 94
-0.101167 -0.297719 -0.607 92 93 98
-0.0739829 -0.314886 -0.642 67 66 74
-0.0694143 -0.316357 -0.645 70 69 75
-0.0575714 -0.31881 -0.65 72 71 77
0.0670629 -0.211886 -0.432 201 162 155
0.0791143 -0.208943 -0.426 202 162 150
0.0831714 -0.208943 -0.426 203 161 147
0.09372 -0.208943 -0.426 184 143 125
0.12138 -0.2163 -0.441 116 81 77
0.134194 -0.223657 -0.456 90 71 77
0.142487 -0.230033 -0.469 236 234 245
0.144297 -0.231505 -0.472 232 234 255
0.351301 -0.316848 -0.646 97 104 156
0.33108 -0.273686 -0.558 128 106 118
0.342393 -0.264367 -0.539 52 37 44
0.364497 -0.275648 -0.562 47 37 45
0.388143 -0.279571 -0.57 127 96 94
0.396624 -0.274176 -0.559 131 90 88
0.413737 -0.270743 -0.552 132 87 81
0.417476 -0.269762 -0.55 128 83 77
0.435376 -0.265348 -0.541 145 93 82
0.442185 -0.263876 -0.538 153 101 87
0.445454 -0.263386 -0.537 154 103 86
0.458062 -0.262405 -0.535 160 107 89
-0.100505 -0.300352 -0.61 91 90 98
-0.0955514 -0.310692 -0.631 72 73 78
-0.0856743 -0.314139 -0.638 56 54 67
-0.07176 -0.317093 -0.644 68 67 75
-0.0599552 -0.319555 -0.649 73 72 80
0.0945314 -0.209754 -0.426 181 140 122
0.119429 -0.216648 -0.44 122 83 76
0.123051 -0.218617 -0.444 110 82 79
0.129573 -0.222556 -0.452 96 75 74
0.33332 -0.26884 -0.546 129 105 118
0.332743 -0.265886 -0.54 129 107 119
0.352524 -0.27081 -0.55 47 35 45
0.40085 -0.273764 -0.556 132 88 85
0.413737 -0.271794 -0.552 134 89 83
0.415381 -0.27081 -0.55 131 86 80
0.416429 -0.27081 -0.55 131 86 80
0.420409 -0.269332 -0.547 127 83 74
0.434116 -0.26687 -0.542 145 93 82
0.435376 -0.266378 -0.541 145 93 82
0.451771 -0.263916 -0.536 153 100 84
0.456024 -0.263424 -0.535 154 101 83
0.47278 -0.265393 -0.539 152 99 83
0.497999 -0.271302 -0.551 158 106 92
-0.130024 -0.313871 -0.635 98 98 106
-0.119628 -0.297066 -0.601 96 95 101
-0.0926743 -0.314366 -0.636 66 67 72
-0.0742133 -0.31832 -0.644 65 64 72
-0.0695219 -0.319309 -0.646 69 68 76
-0.0588095 -0.321286 -0.65 72 72 80
0.0713333 -0.211554 -0.428 208 170 161
0.0872286 -0.210566 -0.426 194 151 135
0.0961543 -0.210566 -0.426 168 127 107
0.0977771 -0.210566 -0.426 167 126 106
0.115285 -0.216003 -0.437 131 93 84
0.132457 -0.225394 -0.456 94 78 79
0.367297 -0.319309 -0.646 151 155 190
0.37818 -0.283226 -0.573 50 41 46
0.379271 -0.283226 -0.573 54 37 43
0.411327 -0.27334 -0.553 130 85 79
0.41909 -0.270869 -0.548 130 85 79
0.427429 -0.268891 -0.544 142 92 81
0.45075 -0.264937 -0.536 152 101 82
0.458223 -0.263949 -0.534 158 107 88
0.466065 -0.264937 -0.536 153 100 84
0.470878 -0.265926 -0.538 154 101 83
0.475714 -0.266914 -0.54 150 97 79
-0.102911 -0.296226 -0.597 99 99 107
-0.101333 -0.301684 -0.608 98 98 106
-0.0999943 -0.304661 -0.614 94 93 101
-0.0984505 -0.307142 -0.619 87 86 94
-0.09282 -0.316073 -0.637 68 69 74
-0.0600476 -0.322524 -0.65 71 70 78
0.0637714 -0.214354 -0.432 205 168 162
0.0750571 -0.211377 -0.426 205 165 157
0.0765 -0.210881 -0.425 204 164 154
0.0847943 -0.211377 -0.426 191 149 135
0.103128 -0.21237 -0.428 142 100 86
0.111187 -0.215347 -0.434 136 93 86
0.120813 -0.219316 -0.442 109 81 77
0.372795 -0.321035 -0.647 96 105 136
0.339352 -0.269928 -0.544 133 110 126
0.355088 -0.27489 -0.554 48 36 48
0.381454 -0.284317 -0.573 110 78 81
0.391955 -0.279355 -0.563 139 95 92
0.396267 -0.277867 -0.56 140 96 95
0.40051 -0.276378 -0.557 134 89 86
0.405739 -0.27489 -0.554 137 92 87
0.410273 -0.274393 -0.553 133 88 82
0.414037 -0.273401 -0.551 133 88 82
0.417002 -0.271912 -0.548 135 88 80
0.429746 -0.269431 -0.543 149 97 84
0.44198 -0.267447 -0.539 154 101 85
0.467086 -0.265958 -0.536 155 102 84
0.471903 -0.26695 -0.538 155 99 82
0.474833 -0.267447 -0.539 151 95 78
0.480717 -0.268439 -0.541 149 96 78
-0.117497 -0.296865 -0.596 97 96 102
-0.112177 -0.291884 -0.586 99 99 107
-0.10957 -0.290888 -0.584 95 95 103
-0.102911 -0.297363 -0.597 102 102 110
-0.0977429 -0.309815 -0.622 86 86 94
-0.0957029 -0.314796 -0.632 78 79 84
-0.0859429 -0.318781 -0.64 53 51 62
-0.0707524 -0.32177 -0.646 68 67 75
0.0590857 -0.219162 -0.44 202 169 164
0.0642952 -0.214181 -0.43 204 165 160
0.0688876 -0.213185 -0.428 206 167 160
0.11886 -0.21966 -0.441 116 82 80
0.121087 -0.220656 -0.443 104 78 77
0.125013 -0.223147 -0.448 89 65 61
0.380357 -0.318283 -0.639 99 105 139
0.348746 -0.273454 -0.549 44 31 38
0.351066 -0.27445 -0.551 45 30 35
0.386781 -0.282918 -0.568 142 100 101
0.389731 -0.281922 -0.566 142 94 92
0.39804 -0.277937 -0.558 137 96 94
0.399449 -0.277439 -0.557 131 87 84
0.409531 -0.274949 -0.552 133 88 82
0.425356 -0.270964 -0.544 148 98 87
0.428711 -0.270466 -0.543 151 99 86
0.472928 -0.267975 -0.538 152 99 81
0.4788 -0.268971 -0.54 155 99 82
0.498283 -0.273454 -0.549 156 107 90
-0.128795 -0.3145 -0.629 98 98 106
-0.0998314 -0.3065 -0.613 95 94 102
-0.0957029 -0.316 -0.632 80 81 86
-0.0949476 -0.3175 -0.635 78 79 84
0.0805476 -0.2125 -0.425 199 157 145
0.0910714 -0.2125 -0.425 181 138 121
0.0926905 -0.2125 -0.425 181 138 122
0.102551 -0.2145 -0.429 143 99 90
0.120514 -0.222 -0.444 109 78 75
0.125571 -0.225 -0.45 87 66 63
0.346868 -0.2755 -0.551 127 104 112
0.377523 -0.2885 -0.577 96 73 79
0.379721 -0.2885 -0.577 127 96 101
0.396267 -0.28 -0.56 142 97 94
0.409531 -0.276 -0.552 139 91 87
0.415381 -0.275 -0.55 138 89 84
0.425356 -0.272 -0.544 154 102 91
0.469128 -0.268 -0.536 155 102 84
0.473071 -0.2685 -0.537 151 98 80
0.49452 -0.273 -0.546 156 107 92
0.502197 -0.2755 -0.551 157 108 93
-0.125366 -0.310177 -0.618 99 98 106
-0.1173 -0.298633 -0.595 98 97 103
-0.114995 -0.295622 -0.589 100 99 107
-0.105076 -0.296124 -0.59 64 64 72
-0.0800971 -0.322223 -0.642 50 48 59
0.0626571 -0.215819 -0.43 202 165 159
0.0633286 -0.215317 -0.429 203 166 160
0.0664419 -0.214815 -0.428 204 165 158
0.0679133 -0.214313 -0.427 208 169 162
0.0718114 -0.213811 -0.426 212 173 168
0.0935 -0.21331 -0.425 173 129 116
0.102551 -0.215317 -0.429 143 98 92
0.10361 -0.215819 -0.43 142 97 91
0.354463 -0.280063 -0.558 49 28 35
0.358506 -0.281569 -0.561 43 30 39
0.361497 -0.283074 -0.564 43 30 40
0.382354 -0.289097 -0.576 148 106 107
0.382786 -0.288595 -0.575 150 109 105
0.388945 -0.285082 -0.568 143 99 100
0.396624 -0.280565 -0.559 142 96 96
0.40051 -0.279561 -0.557 133 88 85
0.40606 -0.277553 -0.553 137 89 85
0.416717 -0.275546 -0.549 137 90 84
0.42432 -0.273036 -0.544 153 101 88
0.425609 -0.272534 -0.543 156 104 91
0.444234 -0.270025 -0.538 155 102 86
0.451948 -0.268519 -0.535 154 101 85
0.467233 -0.268519 -0.535 158 105 89
0.474094 -0.269523 -0.537 157 101 86
0.489734 -0.272534 -0.543 154 102 88
-0.097179 -0.315385 -0.626 86 87 92
-0.0966 -0.3174 -0.63 84 85 90
-0.0920381 -0.322438 -0.64 71 72 76
-0.0685029 -0.326469 -0.648 68 67 75
0.0726229 -0.214623 -0.426 208 169 164
0.0740714 -0.214119 -0.425 204 165 158
0.0886429 -0.214119 -0.425 185 143 127
0.0951191 -0.214119 -0.425 160 114 101
0.117446 -0.222684 -0.442 119 84 82
0.38998 -0.316896 -0.629 112 102 127
0.3854 -0.289187 -0.574 144 103 99
0.387736 -0.287675 -0.571 145 101 102
0.404357 -0.279614 -0.555 137 89 85
0.415381 -0.277095 -0.55 137 90 82
0.415671 -0.276591 -0.549 139 92 84
0.418325 -0.275584 -0.547 142 93 86
0.429746 -0.273569 -0.543 153 101 87
0.436407 -0.272561 -0.541 151 99 85
0.44991 -0.269538 -0.535 156 103 89
0.454154 -0.269034 -0.534 159 106 90
0.479967 -0.271553 -0.539 152 99 85
-0.10957 -0.295337 -0.584 102 101 109
-0.0967533 -0.319106 -0.631 87 88 93
-0.0886571 -0.324669 -0.642 58 59 63
-0.0825429 -0.324669 -0.642 48 46 57
0.0575857 -0.219986 -0.435 203 166 160
0.078119 -0.214929 -0.425 199 159 149
0.0854048 -0.214929 -0.425 185 144 126
0.0886429 -0.214929 -0.425 183 140 124
