ply
format ascii 1.0
comment Created by Open3D
element vertex 1314
property double x
property double y
property double z
property uchar red
property uchar green
property uchar blue
end_header
0.255677 -0.145877 -0.549 85 42 51
0.27702 -0.15066 -0.567 20 8 10
0.28798 -0.14322 -0.539 120 88 91
0.289007 -0.14322 -0.539 122 90 93
0.297514 -0.141891 -0.534 130 98 101
0.299549 -0.141891 -0.534 130 98 101
0.302033 -0.141626 -0.533 131 99 102
0.304507 -0.14136 -0.532 133 101 106
0.32032 -0.140297 -0.528 134 103 108
0.337257 -0.138171 -0.52 131 102 107
0.341219 -0.138171 -0.52 134 105 110
0.390917 -0.141094 -0.531 189 129 129
0.412706 -0.143751 -0.541 151 100 96
0.42588 -0.14508 -0.546 173 115 113
0.133226 -0.126049 -0.471 199 156 147
0.134733 -0.125781 -0.47 204 161 152
0.135629 -0.125781 -0.47 203 163 153
0.151339 -0.12471 -0.466 204 164 154
0.165007 -0.124978 -0.467 207 162 156
0.167675 -0.124978 -0.467 190 146 137
0.1716 -0.125246 -0.468 185 139 124
0.173383 -0.125246 -0.468 183 137 122
0.17554 -0.125513 -0.469 177 129 115
0.177327 -0.125513 -0.469 166 118 106
0.2086 -0.131133 -0.49 114 74 75
0.225231 -0.137289 -0.513 128 97 102
0.27448 -0.150937 -0.564 30 21 26
0.288 -0.154149 -0.576 51 43 58
0.291514 -0.152543 -0.57 32 27 34
0.284927 -0.144782 -0.541 116 89 94
0.296587 -0.143444 -0.536 129 97 100
0.305957 -0.142106 -0.531 134 103 108
0.306969 -0.142106 -0.531 131 101 103
0.323729 -0.141035 -0.527 141 112 117
0.324116 -0.140768 -0.526 140 111 116
0.340563 -0.138894 -0.519 135 104 110
0.402766 -0.143444 -0.536 173 118 115
0.429528 -0.146655 -0.548 170 115 112
0.126238 -0.12991 -0.482 201 154 144
0.13199 -0.127485 -0.473 194 151 142
0.14099 -0.125868 -0.467 206 163 154
0.1519 -0.125329 -0.465 206 166 156
0.173383 -0.126137 -0.468 179 132 116
0.177327 -0.126407 -0.469 167 117 108
0.190954 -0.127754 -0.474 140 95 90
0.197118 -0.128832 -0.478 126 85 83
0.25254 -0.147969 -0.549 82 41 49
0.262807 -0.149047 -0.553 84 45 50
0.26635 -0.149855 -0.556 70 34 38
0.280165 -0.153359 -0.569 52 51 59
0.290866 -0.154437 -0.573 48 46 57
0.293524 -0.144465 -0.536 128 96 99
0.320717 -0.142039 -0.527 130 101 106
0.323729 -0.142039 -0.527 175 148 155
0.336913 -0.140422 -0.521 132 101 107
0.353825 -0.14123 -0.524 108 81 86
0.384989 -0.143926 -0.534 180 122 120
0.38586 -0.143117 -0.531 188 133 130
0.398481 -0.143656 -0.533 172 117 114
0.409127 -0.145273 -0.539 166 115 111
0.124402 -0.130829 -0.482 198 156 142
0.132943 -0.127571 -0.47 194 154 142
0.150129 -0.126214 -0.465 205 167 156
0.169454 -0.126757 -0.467 186 140 125
0.174274 -0.127029 -0.468 176 129 113
0.176057 -0.127029 -0.468 170 122 110
0.179113 -0.1273 -0.469 166 116 109
0.181286 -0.127571 -0.47 166 113 107
0.184363 -0.127843 -0.471 153 103 96
0.18835 -0.128114 -0.472 147 99 95
0.19448 -0.1292 -0.476 130 89 87
0.217967 -0.136529 -0.503 102 67 71
0.256723 -0.149014 -0.549 101 58 65
0.275554 -0.153086 -0.564 59 46 53
0.28985 -0.154986 -0.571 63 58 65
0.288493 -0.152543 -0.562 77 65 67
0.303493 -0.1444 -0.532 131 100 105
0.309419 -0.143857 -0.53 133 101 106
0.333936 -0.141414 -0.521 134 101 108
0.383773 -0.146029 -0.538 133 87 89
0.385283 -0.144671 -0.533 180 125 122
0.409127 -0.1463 -0.539 165 114 110
0.441357 -0.150643 -0.555 154 98 97
0.12136 -0.13448 -0.492 203 159 148
0.12506 -0.131473 -0.481 197 157 145
0.126746 -0.13038 -0.477 199 157 145
0.128024 -0.129833 -0.475 198 158 146
0.137137 -0.127373 -0.466 202 159 150
0.1398 -0.127373 -0.466 201 161 151
0.140688 -0.127373 -0.466 201 161 151
0.153341 -0.126827 -0.464 199 161 152
0.181286 -0.128467 -0.47 163 110 106
0.183971 -0.128467 -0.47 153 102 98
0.18526 -0.12874 -0.471 148 97 93
0.287934 -0.14678 -0.537 122 90 95
0.291482 -0.146507 -0.536 126 94 97
0.296033 -0.146233 -0.535 128 98 100
0.297052 -0.146233 -0.535 128 98 100
0.304946 -0.14514 -0.531 132 101 106
0.310429 -0.144867 -0.53 134 103 108
0.344517 -0.14186 -0.519 131 98 105
0.384389 -0.146507 -0.536 162 108 106
0.390181 -0.144867 -0.53 183 128 125
0.3922 -0.144867 -0.53 188 130 128
0.414767 -0.147873 -0.541 147 97 90
0.121113 -0.135142 -0.491 202 158 147
0.121731 -0.133766 -0.486 200 160 148
0.131767 -0.129087 -0.469 198 161 145
0.133269 -0.128811 -0.468 201 164 148
0.133873 -0.128536 -0.467 200 163 147
0.138025 -0.128261 -0.466 204 161 152
0.149806 -0.12771 -0.464 208 168 160
0.153341 -0.12771 -0.464 202 162 154
0.174791 -0.128536 -0.467 167 119 107
0.182687 -0.129087 -0.469 155 101 99
0.2522 -0.15028 -0.546 119 78 86
0.268951 -0.153308 -0.557 118 87 95
0.28566 -0.15606 -0.567 90 72 84
0.28944 -0.147528 -0.536 126 94 97
0.309419 -0.145876 -0.53 133 102 107
0.352153 -0.14395 -0.523 121 94 103
0.412018 -0.161565 -0.587 78 56 58
0.392021 -0.152482 -0.554 80 56 56
0.385913 -0.148904 -0.541 120 76 77
0.385283 -0.146702 -0.533 177 122 119
0.395974 -0.146151 -0.531 181 123 121
0.398747 -0.146427 -0.532 160 105 100
0.423284 -0.14973 -0.544 171 116 111
0.126851 -0.131366 -0.474 200 158 146
0.128114 -0.130811 -0.472 200 158 146
0.129362 -0.130257 -0.47 200 158 146
0.140386 -0.128871 -0.465 200 160 150
0.143619 -0.128594 -0.464 207 167 159
0.150365 -0.128317 -0.463 203 164 157
0.154774 -0.128317 -0.463 203 164 157
0.15796 -0.12804 -0.462 202 162 152
0.173012 -0.129426 -0.467 179 132 116
0.22338 -0.14162 -0.511 98 68 70
0.253814 -0.151043 -0.545 132 91 97
0.284866 -0.154369 -0.557 66 53 70
0.283919 -0.151597 -0.547 105 80 86
0.297514 -0.147994 -0.534 130 98 103
0.321721 -0.146054 -0.527 211 195 206
0.331233 -0.144946 -0.523 112 83 87
0.337597 -0.143837 -0.519 131 100 108
0.3545 -0.1455 -0.525 84 63 72
0.356854 -0.146054 -0.527 51 38 45
0.396986 -0.147163 -0.531 159 101 99
0.398747 -0.14744 -0.532 153 100 96
0.414767 -0.149934 -0.541 139 90 86
0.417598 -0.150211 -0.542 152 99 95
0.434494 -0.152151 -0.549 162 106 105
0.121803 -0.133664 -0.479 199 157 145
0.124667 -0.132827 -0.476 195 153 141
0.130594 -0.130594 -0.468 203 161 149
0.135071 -0.129757 -0.465 201 161 151
0.135957 -0.129757 -0.465 205 162 153
0.147154 -0.129478 -0.464 205 165 155
0.150365 -0.129199 -0.463 202 164 155
0.15532 -0.12892 -0.462 203 163 153
0.166071 -0.129757 -0.465 191 145 130
0.184867 -0.131152 -0.47 140 92 88
0.20194 -0.13478 -0.483 113 72 76
0.22023 -0.141198 -0.506 117 83 84
0.222943 -0.142314 -0.51 91 59 60
0.247255 -0.151244 -0.542 128 85 94
0.24978 -0.151523 -0.543 132 89 98
0.265967 -0.154313 -0.553 123 84 89
0.286421 -0.150128 -0.538 115 86 91
0.286911 -0.149849 -0.537 118 87 92
0.295014 -0.14929 -0.535 127 96 101
0.297514 -0.149011 -0.534 129 98 103
0.300003 -0.148732 -0.533 129 97 102
0.311438 -0.147895 -0.53 133 103 105
0.34254 -0.144826 -0.519 116 85 91
0.343529 -0.144826 -0.519 117 88 93
0.390574 -0.153197 -0.549 83 52 57
0.441617 -0.154592 -0.554 153 99 97
0.453886 -0.157383 -0.564 169 115 113
0.135665 -0.130362 -0.464 205 163 151
0.14331 -0.130081 -0.463 213 170 161
0.18358 -0.131767 -0.469 139 94 91
0.207243 -0.137386 -0.489 106 65 69
0.240554 -0.150029 -0.534 129 82 92
0.282694 -0.157052 -0.559 69 52 60
0.282877 -0.153681 -0.547 109 80 85
0.296033 -0.15031 -0.535 127 96 101
0.310003 -0.149186 -0.531 133 101 104
0.314881 -0.148624 -0.529 134 102 107
0.323729 -0.148062 -0.527 228 208 217
0.335921 -0.146376 -0.521 102 77 83
0.38948 -0.1534 -0.546 94 58 60
0.39976 -0.149467 -0.532 151 96 91
0.419663 -0.152276 -0.542 160 107 103
0.43187 -0.153681 -0.547 163 109 107
0.130643 -0.131529 -0.465 202 160 148
0.140664 -0.130963 -0.463 207 164 155
0.157618 -0.130397 -0.461 198 156 144
0.163593 -0.130963 -0.463 186 142 129
0.16483 -0.131246 -0.464 189 141 127
0.182297 -0.132377 -0.468 139 93 93
0.184867 -0.132943 -0.47 136 90 90
0.18965 -0.133791 -0.473 132 88 87
0.261474 -0.155006 -0.548 121 79 83
0.28944 -0.151611 -0.536 124 93 98
0.310429 -0.149914 -0.53 132 102 104
0.312866 -0.149631 -0.529 134 103 108
0.315889 -0.149631 -0.529 134 103 108
0.344517 -0.146803 -0.519 128 101 106
0.347162 -0.147086 -0.52 134 105 110
0.350486 -0.147651 -0.522 130 101 106
0.3545 -0.1485 -0.525 72 51 60
0.39321 -0.149914 -0.53 178 118 117
0.394219 -0.149914 -0.53 173 113 112
0.397997 -0.150197 -0.531 149 94 91
0.412207 -0.15246 -0.539 134 87 81
0.459269 -0.160663 -0.568 165 111 109
0.118893 -0.137255 -0.482 200 156 145
0.120386 -0.135831 -0.477 194 152 140
0.12298 -0.134692 -0.473 201 159 147
0.1389 -0.131845 -0.463 208 165 156
0.149715 -0.131275 -0.461 204 166 157
0.172271 -0.132414 -0.465 166 120 105
0.175305 -0.132699 -0.466 150 103 93
0.181406 -0.133269 -0.468 140 94 94
0.190954 -0.134977 -0.474 127 83 84
0.213473 -0.141527 -0.497 96 60 62
0.2345 -0.1495 -0.525 126 87 90
0.244974 -0.152917 -0.537 139 92 100
0.257493 -0.15491 -0.544 128 86 88
0.278435 -0.159182 -0.559 77 61 64
0.281683 -0.158612 -0.557 68 51 57
0.282333 -0.156619 -0.55 105 74 82
0.282881 -0.155195 -0.545 109 78 84
0.289919 -0.152348 -0.535 124 93 98
0.316297 -0.150354 -0.528 132 101 106
0.321721 -0.15007 -0.527 187 166 173
0.323114 -0.149785 -0.526 189 166 174
0.348822 -0.148361 -0.521 134 105 110
0.386129 -0.152917 -0.537 143 99 100
0.39119 -0.150924 -0.53 176 116 115
0.410417 -0.153202 -0.538 133 85 81
0.43108 -0.15548 -0.546 160 109 108
0.117611 -0.14104 -0.492 200 156 147
0.130362 -0.133013 -0.464 205 165 153
0.140664 -0.132727 -0.463 208 168 158
0.155862 -0.132153 -0.461 195 152 143
0.157276 -0.131867 -0.46 196 154 142
0.184867 -0.134733 -0.47 134 88 88
0.194889 -0.13674 -0.477 117 75 76
0.272214 -0.1591 -0.555 94 65 70
0.282847 -0.154513 -0.539 113 82 88
0.32987 -0.150213 -0.524 122 97 103
0.332944 -0.149353 -0.521 121 94 101
0.345181 -0.149067 -0.52 131 104 111
0.386729 -0.153367 -0.535 162 111 108
0.39321 -0.151933 -0.53 174 114 113
0.408631 -0.15394 -0.537 127 79 75
0.410417 -0.154227 -0.538 133 85 81
0.415029 -0.1548 -0.54 133 82 79
0.428214 -0.156233 -0.545 163 112 111
0.440023 -0.15824 -0.552 149 98 97
0.119629 -0.136783 -0.474 199 157 145
0.130963 -0.133609 -0.463 202 160 148
0.13508 -0.13332 -0.462 205 163 151
0.13684 -0.13332 -0.462 205 162 153
0.147638 -0.132743 -0.46 206 166 156
0.16113 -0.133031 -0.461 179 133 120
0.162009 -0.133031 -0.461 176 132 119
0.179239 -0.134763 -0.467 142 94 90
0.290938 -0.154386 -0.535 123 92 97
0.321721 -0.152077 -0.527 133 104 108
0.323114 -0.151789 -0.526 136 105 110
0.32612 -0.151789 -0.526 128 97 102
0.331233 -0.150923 -0.523 130 100 108
0.335921 -0.150346 -0.521 132 105 114
0.336267 -0.150057 -0.52 132 105 114
0.39321 -0.152943 -0.53 167 109 107
0.440023 -0.159291 -0.552 150 99 98
0.442672 -0.159869 -0.554 149 98 97
0.454153 -0.162466 -0.563 162 110 112
0.119769 -0.136814 -0.471 200 158 146
0.1222 -0.136524 -0.47 201 159 145
0.14269 -0.13391 -0.461 207 165 153
0.154648 -0.133619 -0.46 201 158 149
0.162009 -0.13391 -0.461 176 132 119
0.167121 -0.13449 -0.463 173 127 114
0.193573 -0.138267 -0.476 117 77 78
0.20412 -0.141171 -0.486 106 72 71
0.250089 -0.155986 -0.537 132 90 94
0.253073 -0.156567 -0.539 132 87 90
0.276378 -0.161795 -0.557 76 49 56
0.276941 -0.161505 -0.556 99 72 79
0.27911 -0.160924 -0.554 105 82 88
0.27966 -0.160633 -0.553 88 67 72
0.282343 -0.156857 -0.54 109 82 87
0.283347 -0.156276 -0.538 115 86 90
0.290938 -0.155405 -0.535 124 92 95
0.292429 -0.155114 -0.534 125 94 100
0.297514 -0.155114 -0.534 127 96 101
0.433063 -0.177771 -0.612 63 46 54
0.40609 -0.155405 -0.535 133 84 80
0.419919 -0.157148 -0.541 156 107 103
0.424574 -0.157729 -0.543 167 116 115
0.444529 -0.161214 -0.555 146 96 95
0.117167 -0.138881 -0.475 196 152 141
0.13508 -0.13508 -0.462 205 163 151
0.14501 -0.134495 -0.46 201 158 149
0.2184 -0.14736 -0.504 98 58 59
0.233607 -0.152915 -0.523 136 91 96
0.264043 -0.160517 -0.549 81 54 61
0.266054 -0.161102 -0.551 78 51 58
0.277439 -0.162856 -0.557 105 78 85
0.27919 -0.16081 -0.55 75 56 60
0.281324 -0.15847 -0.542 104 81 87
0.290938 -0.156424 -0.535 124 92 95
0.298988 -0.155839 -0.533 129 98 103
0.336913 -0.15233 -0.521 131 104 111
0.357531 -0.154377 -0.528 36 23 30
0.38804 -0.156131 -0.534 177 117 119
0.389344 -0.155839 -0.533 181 116 120
0.447191 -0.162856 -0.557 153 99 97
0.115843 -0.140374 -0.477 199 155 144
0.116262 -0.139786 -0.475 196 152 141
0.132153 -0.135666 -0.461 208 164 153
0.137422 -0.135666 -0.461 210 167 151
0.14501 -0.135371 -0.46 204 161 145
0.15572 -0.134783 -0.458 174 131 115
0.167121 -0.136254 -0.463 169 123 110
0.170133 -0.136549 -0.464 159 113 100
0.196618 -0.140963 -0.479 112 72 73
0.197943 -0.141257 -0.48 111 71 72
0.220666 -0.149203 -0.507 100 64 66
0.256073 -0.159209 -0.541 110 70 71
0.269127 -0.16274 -0.553 70 48 51
0.284371 -0.158326 -0.538 119 90 94
0.292976 -0.157443 -0.535 123 94 96
0.323114 -0.154794 -0.526 131 98 105
0.331867 -0.154206 -0.524 122 92 100
0.335921 -0.153323 -0.521 132 103 108
0.346837 -0.153323 -0.521 133 108 112
0.120153 -0.138913 -0.469 203 161 149
0.12168 -0.138617 -0.468 203 161 149
0.122935 -0.138025 -0.466 199 157 143
0.12716 -0.13684 -0.462 206 164 150
0.132153 -0.136544 -0.461 207 163 150
0.169767 -0.137136 -0.463 156 110 97
0.175814 -0.137729 -0.465 144 96 92
0.237401 -0.156092 -0.527 136 95 93
0.242237 -0.157277 -0.531 125 81 82
0.271157 -0.164386 -0.555 68 43 47
0.276874 -0.165274 -0.558 76 51 55
0.27911 -0.16409 -0.554 101 78 84
0.279751 -0.162016 -0.547 102 81 86
0.315291 -0.156389 -0.528 131 102 107
0.32111 -0.155796 -0.526 131 95 105
0.404314 -0.158166 -0.534 126 77 72
0.440275 -0.163201 -0.551 146 96 89
0.132743 -0.137124 -0.46 207 164 148
0.179239 -0.13921 -0.467 136 91 86
0.20454 -0.145172 -0.487 104 65 68
0.247674 -0.159183 -0.534 120 75 80
0.268073 -0.164847 -0.553 65 39 42
0.277439 -0.166039 -0.557 73 50 56
0.280291 -0.161568 -0.542 108 81 86
0.299549 -0.159183 -0.534 131 100 105
0.301467 -0.158587 -0.532 130 99 104
0.30552 -0.158587 -0.532 131 100 105
0.30798 -0.158289 -0.531 132 103 107
0.309419 -0.15799 -0.53 130 101 105
0.316702 -0.157096 -0.527 131 102 107
0.32111 -0.156798 -0.526 134 99 106
0.323114 -0.156798 -0.526 134 99 106
0.327122 -0.156798 -0.526 127 100 107
0.3305 -0.1565 -0.525 125 100 106
0.331867 -0.156202 -0.524 129 100 105
0.334577 -0.155606 -0.522 133 102 110
0.341219 -0.15501 -0.52 137 106 114
0.443931 -0.186011 -0.624 85 62 68
0.388767 -0.159481 -0.535 176 115 114
0.393951 -0.158289 -0.531 158 103 98
0.409654 -0.160077 -0.537 139 91 87
0.42095 -0.16127 -0.541 156 105 102
0.434995 -0.163058 -0.547 155 104 100
0.132743 -0.138 -0.46 208 165 149
0.134495 -0.138 -0.46 209 167 153
0.149613 -0.1374 -0.458 196 154 138
0.166399 -0.1383 -0.461 165 117 103
0.180514 -0.1404 -0.468 133 92 88
0.187451 -0.1416 -0.472 120 78 80
0.210303 -0.1482 -0.494 92 58 59
0.224353 -0.1533 -0.511 106 67 68
0.24472 -0.1596 -0.532 122 75 81
0.25853 -0.1632 -0.544 80 48 51
0.279154 -0.1656 -0.552 72 51 58
0.305957 -0.1593 -0.531 131 100 105
0.337906 -0.1563 -0.521 134 104 112
0.339238 -0.156 -0.52 134 104 112
0.34783 -0.1563 -0.521 135 105 113
0.349491 -0.1566 -0.522 127 97 105
0.430537 -0.1632 -0.544 156 105 101
0.11315 -0.145216 -0.481 201 157 146
0.114026 -0.144009 -0.477 200 156 145
0.117862 -0.14099 -0.467 199 157 145
0.126885 -0.139178 -0.461 207 163 152
0.129238 -0.138876 -0.46 207 163 150
0.13099 -0.138876 -0.46 208 164 151
0.140017 -0.138272 -0.458 209 165 152
0.146675 -0.13797 -0.457 205 161 148
0.160431 -0.138574 -0.459 176 130 114
0.165162 -0.138876 -0.46 163 115 101
0.172785 -0.140084 -0.464 146 102 93
0.202776 -0.146424 -0.485 105 66 69
0.254571 -0.163029 -0.54 88 54 55
0.27919 -0.166048 -0.55 82 61 70
0.288419 -0.161821 -0.536 120 91 95
0.297972 -0.160915 -0.533 127 98 102
0.3074 -0.16001 -0.53 129 100 105
0.312448 -0.16001 -0.53 157 128 133
0.318309 -0.159406 -0.528 128 98 106
0.327122 -0.158802 -0.526 168 151 159
0.340229 -0.15699 -0.52 135 106 111
0.441992 -0.189596 -0.628 79 67 71
0.402542 -0.160915 -0.533 130 79 76
0.411442 -0.162425 -0.538 129 79 78
0.41426 -0.162727 -0.539 132 81 78
0.419919 -0.16333 -0.541 150 99 96
0.113787 -0.144613 -0.476 199 155 144
0.11397 -0.143702 -0.473 199 157 145
0.11761 -0.141575 -0.466 202 160 148
0.161306 -0.139449 -0.459 174 128 112
0.16218 -0.139449 -0.459 172 126 110
0.172412 -0.140664 -0.463 146 102 93
0.173669 -0.140968 -0.464 147 102 96
0.18526 -0.143094 -0.471 123 79 78
0.19398 -0.144917 -0.477 115 72 79
0.210303 -0.150082 -0.494 92 56 58
0.228957 -0.15707 -0.517 118 73 76
0.255043 -0.164361 -0.541 85 53 54
0.267503 -0.16831 -0.554 61 31 39
0.270587 -0.168918 -0.556 58 31 36
0.279253 -0.165272 -0.544 102 75 80
0.287934 -0.163146 -0.537 119 90 94
0.293995 -0.162538 -0.535 124 95 100
0.300003 -0.16193 -0.533 129 100 105
0.311438 -0.161019 -0.53 150 121 126
0.312866 -0.160715 -0.529 169 139 147
0.315889 -0.160715 -0.529 134 104 112
0.31871 -0.160108 -0.527 133 103 111
0.324116 -0.159804 -0.526 131 106 112
0.32612 -0.159804 -0.526 194 177 187
0.334577 -0.158589 -0.522 134 105 110
0.390443 -0.164969 -0.543 130 95 99
0.397733 -0.161627 -0.532 150 92 91
0.400773 -0.161627 -0.532 136 82 80
0.417858 -0.164361 -0.541 133 82 79
0.112444 -0.146131 -0.478 200 156 145
0.113309 -0.144909 -0.474 196 154 142
0.118872 -0.141851 -0.464 201 159 147
0.125733 -0.140629 -0.46 208 164 151
0.144617 -0.139406 -0.456 200 157 141
0.151028 -0.139711 -0.457 191 150 132
0.157121 -0.139711 -0.457 181 135 119
0.179623 -0.143074 -0.468 135 90 87
0.186552 -0.144297 -0.472 121 79 80
0.195297 -0.146131 -0.478 111 70 74
0.214332 -0.152551 -0.499 90 54 54
0.223914 -0.155914 -0.51 101 62 63
0.226209 -0.156831 -0.513 105 66 67
0.24472 -0.16264 -0.532 123 76 86
0.278607 -0.16906 -0.553 71 56 61
0.285396 -0.164474 -0.538 113 86 91
0.287934 -0.164169 -0.537 118 89 93
0.28944 -0.163863 -0.536 121 92 96
0.294463 -0.163251 -0.534 124 95 99
0.298988 -0.162946 -0.533 130 101 106
0.322112 -0.160806 -0.526 130 101 105
0.3275 -0.1605 -0.525 191 185 197
0.335571 -0.159583 -0.522 133 104 109
0.336566 -0.159583 -0.522 135 104 110
0.337906 -0.159277 -0.521 137 106 112
0.450246 -0.195046 -0.638 95 60 67
0.390343 -0.165086 -0.54 153 109 108
0.39368 -0.16264 -0.532 166 108 106
0.39672 -0.16264 -0.532 155 99 98
0.4477 -0.169671 -0.555 148 99 94
0.115193 -0.143658 -0.467 199 157 145
0.121 -0.14212 -0.462 208 166 152
0.12661 -0.141505 -0.46 204 162 148
0.135655 -0.14089 -0.458 210 166 153
0.206311 -0.150426 -0.489 100 66 65
0.20809 -0.151041 -0.491 97 63 62
0.249623 -0.164884 -0.536 111 72 73
0.27737 -0.171959 -0.559 73 67 69
0.28944 -0.164884 -0.536 120 91 96
0.298988 -0.163961 -0.533 131 102 107
0.301018 -0.163961 -0.533 130 99 105
0.31871 -0.162115 -0.527 128 101 108
0.322112 -0.161808 -0.526 130 103 108
0.337906 -0.16027 -0.521 139 106 115
0.339238 -0.159962 -0.52 136 106 114
0.3432 -0.159962 -0.52 136 109 116
0.354847 -0.162115 -0.527 47 36 40
0.362949 -0.164884 -0.536 38 26 30
0.390647 -0.165807 -0.539 162 113 108
0.391535 -0.164884 -0.536 175 120 117
0.391824 -0.164576 -0.535 174 116 115
0.395435 -0.163961 -0.533 163 108 105
0.404314 -0.164269 -0.534 143 92 91
0.115586 -0.143929 -0.465 198 159 144
0.141452 -0.141452 -0.457 208 164 153
0.167277 -0.14269 -0.461 159 112 102
0.185653 -0.146095 -0.472 123 79 76
0.201436 -0.14981 -0.484 106 71 67
0.210303 -0.152905 -0.494 93 62 59
0.230387 -0.160333 -0.518 114 72 73
0.247674 -0.165286 -0.534 113 69 66
0.277937 -0.172714 -0.558 72 61 65
0.280286 -0.167143 -0.54 100 80 82
0.30841 -0.164048 -0.53 131 100 106
0.312866 -0.163738 -0.529 229 208 215
0.314881 -0.163738 -0.529 198 177 184
0.317706 -0.163119 -0.527 134 103 109
0.335921 -0.161262 -0.521 138 106 119
0.340883 -0.161262 -0.521 129 103 106
0.401527 -0.164976 -0.533 152 98 96
0.427922 -0.167762 -0.542 160 110 103
0.454933 -0.173333 -0.56 145 101 102
0.111973 -0.14824 -0.476 196 154 142
0.11836 -0.14388 -0.462 202 160 146
0.126334 -0.142946 -0.459 207 163 150
0.13797 -0.142323 -0.457 205 161 150
0.147767 -0.1417 -0.455 198 156 142
0.154171 -0.142011 -0.456 184 141 122
0.172785 -0.144503 -0.464 148 104 95
0.183076 -0.146371 -0.47 130 87 81
0.206311 -0.152289 -0.489 102 64 63
0.24279 -0.165057 -0.53 120 76 75
0.262429 -0.171286 -0.55 53 28 34
0.268469 -0.173154 -0.556 45 30 37
0.272623 -0.173777 -0.558 49 32 38
0.278143 -0.171286 -0.55 77 58 64
0.290938 -0.166614 -0.535 119 92 97
0.291957 -0.166614 -0.535 120 93 102
0.296497 -0.166303 -0.534 124 95 99
0.325118 -0.163811 -0.526 227 221 231
0.32612 -0.163811 -0.526 226 220 230
0.331867 -0.163189 -0.524 197 194 203
0.333226 -0.162877 -0.523 166 156 165
0.35552 -0.164434 -0.528 41 30 36
0.364303 -0.167549 -0.538 36 27 32
0.401527 -0.165991 -0.533 148 97 96
0.413233 -0.16786 -0.539 136 84 86
0.415029 -0.168171 -0.54 136 84 86
0.418889 -0.168483 -0.541 144 90 88
0.43261 -0.169417 -0.544 153 104 100
0.440769 -0.170974 -0.549 144 96 94
0.113171 -0.146013 -0.466 202 158 147
0.120476 -0.144133 -0.46 206 162 149
0.121089 -0.14382 -0.459 207 163 150
0.130421 -0.143507 -0.458 211 165 152
0.143433 -0.142567 -0.455 201 157 144
0.1469 -0.142567 -0.455 201 157 144
0.151233 -0.142567 -0.455 188 145 128
0.163929 -0.14382 -0.459 166 118 106
0.176192 -0.146013 -0.466 144 99 93
0.190452 -0.148833 -0.475 117 77 78
0.231373 -0.162307 -0.518 115 73 74
0.239409 -0.165127 -0.527 116 75 73
0.248138 -0.167633 -0.535 107 67 65
0.25844 -0.17108 -0.546 49 28 33
0.278729 -0.170767 -0.545 110 87 95
0.280272 -0.168573 -0.538 109 79 87
0.284866 -0.16826 -0.537 117 86 92
0.297514 -0.16732 -0.534 124 99 103
0.300003 -0.167007 -0.533 124 98 101
0.305381 -0.166067 -0.53 128 98 106
0.317706 -0.165127 -0.527 133 104 109
0.3285 -0.1645 -0.525 223 217 229
0.333863 -0.164187 -0.524 195 190 197
0.337906 -0.163247 -0.521 138 111 118
0.353843 -0.165127 -0.527 60 41 45
0.45582 -0.20022 -0.639 90 63 70
0.39516 -0.16732 -0.534 155 106 102
0.415287 -0.168887 -0.539 137 85 89
0.431814 -0.17014 -0.543 151 103 99
0.442619 -0.172333 -0.55 149 101 99
0.128676 -0.144379 -0.458 210 164 151
0.134489 -0.144064 -0.457 210 166 155
0.143433 -0.143433 -0.455 199 155 142
0.175305 -0.146901 -0.466 143 98 92
0.195706 -0.150999 -0.479 112 73 74
0.211671 -0.156043 -0.495 96 62 60
0.217967 -0.158565 -0.503 91 60 57
0.229052 -0.162348 -0.515 108 70 69
0.246195 -0.168022 -0.533 110 70 68
0.256457 -0.17149 -0.544 56 34 36
0.258913 -0.172435 -0.547 47 28 32
0.317706 -0.16613 -0.527 130 101 106
0.32111 -0.165815 -0.526 128 98 108
0.322112 -0.165815 -0.526 128 98 108
0.334222 -0.16487 -0.523 209 203 213
0.353843 -0.16613 -0.527 56 37 41
0.398211 -0.168337 -0.534 149 100 96
0.408891 -0.168968 -0.536 135 84 83
0.443667 -0.173381 -0.55 152 107 104
0.110391 -0.151277 -0.477 197 153 144
0.124314 -0.145251 -0.458 205 163 149
0.126931 -0.145251 -0.458 207 163 150
0.135359 -0.144934 -0.457 207 163 150
0.15504 -0.144617 -0.456 184 139 120
0.158862 -0.144934 -0.457 173 125 113
0.168155 -0.146203 -0.461 155 108 100
0.17153 -0.146837 -0.463 150 103 97
0.183971 -0.149057 -0.47 129 86 80
0.203194 -0.154131 -0.486 107 67 67
0.215283 -0.158254 -0.499 97 62 58
0.267986 -0.176014 -0.555 53 40 47
0.305957 -0.168403 -0.531 127 102 105
0.3074 -0.168086 -0.53 123 98 102
0.32111 -0.166817 -0.526 135 105 115
0.341219 -0.164914 -0.52 104 88 91
0.344852 -0.165231 -0.521 134 109 115
0.346509 -0.165549 -0.522 133 108 114
0.348169 -0.165866 -0.523 130 104 113
0.349165 -0.165866 -0.523 116 90 99
0.3927 -0.17094 -0.539 168 123 117
0.400246 -0.169354 -0.534 142 91 88
0.40609 -0.169671 -0.535 135 81 79
0.415287 -0.17094 -0.539 136 81 84
0.419143 -0.171257 -0.54 149 98 94
0.434682 -0.172526 -0.544 149 102 96
0.131589 -0.145486 -0.456 207 163 152
0.133326 -0.145486 -0.456 211 165 152
0.1365 -0.145167 -0.455 208 162 149
0.139967 -0.145167 -0.455 207 161 148
0.195297 -0.152505 -0.478 117 77 77
0.199686 -0.153781 -0.482 107 69 66
0.2701 -0.177071 -0.555 60 45 52
0.295566 -0.17101 -0.536 192 187 193
0.319107 -0.167819 -0.526 127 102 106
0.397938 -0.17069 -0.535 153 100 94
0.40787 -0.17101 -0.536 135 79 78
0.413491 -0.171648 -0.538 136 82 82
0.433883 -0.173243 -0.543 150 101 96
0.435718 -0.173562 -0.544 149 102 96
0.446572 -0.175795 -0.551 154 109 104
0.111157 -0.149243 -0.465 201 157 146
0.134767 -0.146033 -0.455 210 164 151
0.139659 -0.145712 -0.454 207 161 148
0.17153 -0.148601 -0.463 151 103 99
0.172785 -0.148922 -0.464 149 101 97
0.19398 -0.153094 -0.477 117 77 77
0.235238 -0.166895 -0.52 114 74 75
0.268558 -0.177808 -0.554 51 40 46
0.271157 -0.178129 -0.555 58 45 52
0.27871 -0.175561 -0.547 91 70 77
0.293524 -0.17203 -0.536 151 151 151
0.303049 -0.171068 -0.533 139 126 136
0.312448 -0.170105 -0.53 201 184 192
0.3295 -0.1685 -0.525 224 220 234
0.346509 -0.167537 -0.522 137 112 118
0.39364 -0.17524 -0.546 110 82 79
0.443906 -0.176203 -0.549 158 113 108
0.109024 -0.153357 -0.475 204 157 149
0.128983 -0.147223 -0.456 206 160 147
0.134767 -0.1469 -0.455 210 164 151
0.147442 -0.146577 -0.454 194 147 137
0.160603 -0.147546 -0.457 162 114 102
0.163571 -0.147869 -0.458 160 112 102
0.169033 -0.148837 -0.461 155 106 101
0.17116 -0.14916 -0.462 152 104 100
0.187451 -0.152389 -0.472 127 83 82
0.198355 -0.155294 -0.481 110 72 71
0.211244 -0.159491 -0.494 105 67 64
0.262906 -0.177894 -0.551 31 25 29
0.284371 -0.173697 -0.538 108 92 93
0.294545 -0.173051 -0.536 188 195 203
0.308991 -0.171437 -0.531 117 95 98
0.312448 -0.171114 -0.53 171 154 162
0.31871 -0.170146 -0.527 124 102 105
0.3255 -0.1695 -0.525 221 220 228
0.32987 -0.169177 -0.524 219 219 229
0.333863 -0.169177 -0.524 225 219 229
0.335859 -0.169177 -0.524 225 220 227
0.360907 -0.173051 -0.536 43 34 39
0.400246 -0.172406 -0.534 139 88 85
0.403297 -0.172406 -0.534 135 84 81
0.436754 -0.175634 -0.544 153 103 96
0.438595 -0.175957 -0.545 155 106 101
0.4592 -0.1808 -0.56 150 104 104
0.109856 -0.151664 -0.467 202 158 147
0.116463 -0.148741 -0.458 206 162 149
0.13793 -0.147442 -0.454 206 160 147
0.150036 -0.147442 -0.454 188 141 125
0.162699 -0.148741 -0.458 163 113 104
0.174552 -0.15069 -0.464 146 99 93
0.202776 -0.15751 -0.485 106 72 70
0.211244 -0.160432 -0.494 101 66 64
0.218054 -0.162706 -0.501 101 66 64
0.250089 -0.174397 -0.537 54 35 39
0.268558 -0.179918 -0.554 34 27 34
0.274329 -0.180243 -0.555 69 64 68
0.275386 -0.180243 -0.555 72 67 71
0.28847 -0.174722 -0.538 104 87 93
0.322112 -0.170825 -0.526 168 140 154
0.338898 -0.169201 -0.521 115 96 102
0.341875 -0.169201 -0.521 116 99 105
0.342868 -0.169201 -0.521 127 110 116
0.34386 -0.169201 -0.521 131 114 120
0.394361 -0.177645 -0.547 101 76 79
0.395619 -0.174072 -0.536 159 108 105
0.397661 -0.174072 -0.536 155 104 101
0.404314 -0.173423 -0.534 137 83 81
0.430457 -0.175371 -0.54 154 105 100
0.438595 -0.176995 -0.545 152 107 102
0.130147 -0.148307 -0.454 209 162 152
0.198355 -0.157127 -0.481 110 72 71
0.199686 -0.157453 -0.482 107 71 71
0.214851 -0.16268 -0.498 100 66 64
0.235774 -0.16954 -0.519 110 72 69
0.252982 -0.176727 -0.541 36 17 19
0.272779 -0.180973 -0.554 48 46 51
0.275945 -0.180973 -0.554 69 64 68
0.277095 -0.179667 -0.55 51 45 49
0.280805 -0.176727 -0.541 101 82 84
0.306969 -0.17346 -0.531 110 94 104
0.317303 -0.17248 -0.528 129 106 112
0.322112 -0.171827 -0.526 168 140 154
0.325118 -0.171827 -0.526 225 222 229
0.32987 -0.171173 -0.524 226 225 233
0.3505 -0.1715 -0.525 94 71 79
0.396357 -0.17542 -0.537 158 107 103
0.399976 -0.174767 -0.535 142 91 88
0.416814 -0.17542 -0.537 142 91 88
0.426813 -0.175747 -0.538 159 110 105
0.439633 -0.178033 -0.545 155 107 103
0.108574 -0.156729 -0.477 206 157 152
0.108106 -0.154757 -0.471 198 154 145
0.115338 -0.150157 -0.457 207 161 148
0.124367 -0.1495 -0.455 207 161 148
0.138183 -0.148514 -0.452 199 151 139
0.139044 -0.148514 -0.452 200 152 138
0.140766 -0.148514 -0.452 198 150 136
0.156433 -0.1495 -0.455 172 126 111
0.180129 -0.153443 -0.467 142 94 90
0.218054 -0.164614 -0.501 100 67 62
0.219009 -0.164614 -0.501 100 67 62
0.24481 -0.174143 -0.53 72 50 52
0.24721 -0.175129 -0.533 53 31 33
0.264913 -0.1817 -0.553 33 21 23
0.303617 -0.175457 -0.534 185 183 196
0.316297 -0.173486 -0.528 131 108 116
0.317303 -0.173486 -0.528 128 107 114
0.32612 -0.172829 -0.526 223 220 227
0.394361 -0.179729 -0.547 96 74 76
0.39738 -0.176443 -0.537 153 102 98
0.415017 -0.176114 -0.536 138 89 85
0.42966 -0.1771 -0.539 155 106 101
0.109962 -0.152019 -0.46 204 160 149
0.124367 -0.150367 -0.455 203 159 146
0.173294 -0.15301 -0.463 151 104 98
0.17708 -0.154002 -0.466 142 95 89
0.202776 -0.160281 -0.485 102 69 64
0.240042 -0.17317 -0.524 96 66 66
0.261381 -0.181762 -0.55 31 19 21
0.269127 -0.182753 -0.553 39 33 37
0.2765 -0.182753 -0.553 49 45 46
0.279774 -0.178788 -0.541 101 82 86
0.282343 -0.178457 -0.54 104 85 87
0.293049 -0.177466 -0.537 164 174 183
0.295566 -0.177135 -0.536 136 149 157
0.317706 -0.174161 -0.527 125 106 112
0.323114 -0.17383 -0.526 215 203 215
0.324116 -0.17383 -0.526 226 214 226
0.3275 -0.1735 -0.525 221 221 229
0.336566 -0.172509 -0.522 164 148 158
0.344852 -0.172178 -0.521 136 113 121
0.402667 -0.185067 -0.56 72 60 64
0.42966 -0.178127 -0.539 155 104 101
-0.145476 -0.216048 -0.65 186 185 180
0.122633 -0.151233 -0.455 205 161 148
0.125823 -0.150901 -0.454 204 160 147
0.1356 -0.150236 -0.452 205 161 148
0.15436 -0.150901 -0.454 171 122 108
0.162344 -0.151898 -0.457 160 112 100
0.174552 -0.154225 -0.464 150 101 94
0.195297 -0.158878 -0.478 116 78 75
0.209451 -0.163531 -0.492 103 70 65
0.221799 -0.167188 -0.503 100 65 61
0.223643 -0.167852 -0.505 101 66 62
0.231094 -0.170511 -0.513 107 70 64
0.232976 -0.171176 -0.515 107 70 64
0.277095 -0.18281 -0.55 47 38 41
0.294071 -0.178489 -0.537 123 132 141
0.295094 -0.178489 -0.537 146 156 165
0.32111 -0.174832 -0.526 181 163 177
0.335218 -0.173835 -0.523 219 209 217
0.45428 -0.184139 -0.554 159 105 103
-0.14278 -0.216951 -0.649 189 188 183
0.106753 -0.15678 -0.469 203 155 153
0.119167 -0.1521 -0.455 208 164 151
0.127271 -0.151431 -0.453 206 162 149
0.128134 -0.151431 -0.453 206 162 149
0.146468 -0.150763 -0.451 183 131 117
0.187451 -0.157783 -0.472 125 84 78
0.18875 -0.158117 -0.473 122 81 77
0.218571 -0.167143 -0.5 100 65 61
0.274949 -0.184526 -0.552 45 36 41
0.283873 -0.18018 -0.539 106 87 91
0.294545 -0.179177 -0.536 154 161 169
0.295566 -0.179177 -0.536 158 165 173
0.30798 -0.177506 -0.531 113 102 110
0.310003 -0.177506 -0.531 141 124 134
0.311014 -0.177506 -0.531 185 169 179
0.3305 -0.1755 -0.525 203 190 200
0.33989 -0.174163 -0.521 117 96 103
0.415262 -0.178843 -0.535 142 91 88
0.44171 -0.182186 -0.545 153 102 99
0.444372 -0.182854 -0.547 159 105 103
0.1157 -0.152967 -0.455 210 166 153
0.11977 -0.15263 -0.454 206 164 150
0.145609 -0.151622 -0.451 186 134 120
0.148186 -0.151622 -0.451 180 128 115
0.152294 -0.152294 -0.453 178 126 113
0.15609 -0.15263 -0.454 163 113 102
0.17116 -0.15532 -0.462 150 102 92
0.195297 -0.160699 -0.478 117 79 76
0.234866 -0.17381 -0.517 100 66 65
0.247674 -0.179526 -0.534 51 30 35
0.281314 -0.181543 -0.54 100 83 89
0.30552 -0.178853 -0.532 178 178 188
0.312448 -0.178181 -0.53 192 179 188
0.31871 -0.177172 -0.527 126 103 113
0.33989 -0.175155 -0.521 125 104 111
0.343526 -0.175491 -0.522 134 113 120
0.397095 -0.18087 -0.538 159 109 102
0.39738 -0.180534 -0.537 152 101 97
0.404314 -0.179526 -0.534 140 86 84
0.408383 -0.179526 -0.534 141 87 87
-0.139286 -0.219762 -0.65 190 191 183
0.106689 -0.155862 -0.461 201 159 147
0.11804 -0.153495 -0.454 207 165 149
0.125269 -0.152819 -0.452 207 164 148
0.135555 -0.151805 -0.449 203 157 141
0.141857 -0.152143 -0.45 188 139 124
0.147327 -0.152481 -0.451 176 124 110
0.151097 -0.152819 -0.452 175 126 112
0.17204 -0.1562 -0.462 149 101 91
0.196618 -0.161948 -0.479 115 80 76
0.20412 -0.164314 -0.486 106 73 68
0.24242 -0.178176 -0.527 63 37 40
0.268153 -0.18629 -0.551 60 48 52
0.2755 -0.18629 -0.551 62 51 55
0.280805 -0.18291 -0.541 97 84 91
0.28847 -0.181895 -0.538 155 143 153
0.294545 -0.181219 -0.536 172 169 180
0.306969 -0.179529 -0.531 151 139 151
0.310429 -0.17919 -0.53 191 175 186
0.311438 -0.17919 -0.53 209 193 204
0.313873 -0.178852 -0.529 131 109 121
0.327874 -0.177162 -0.524 129 106 114
0.328872 -0.177162 -0.524 127 104 112
0.39458 -0.183586 -0.543 140 105 103
0.408383 -0.180543 -0.534 142 88 86
-0.14727 -0.21998 -0.647 188 185 178
0.115446 -0.15436 -0.454 208 164 151
0.122094 -0.15402 -0.453 210 164 149
0.122957 -0.15402 -0.453 209 163 148
0.12613 -0.15368 -0.452 206 163 147
0.146468 -0.15334 -0.451 182 130 116
0.16779 -0.1564 -0.46 154 104 93
0.18875 -0.16082 -0.473 122 81 75
0.197943 -0.1632 -0.48 114 79 75
0.20589 -0.16592 -0.488 103 73 65
0.212614 -0.1683 -0.495 103 70 63
0.245271 -0.18054 -0.531 49 33 36
0.261381 -0.187 -0.55 49 43 47
0.268153 -0.18734 -0.551 65 53 57
0.275 -0.187 -0.55 74 63 67
0.27716 -0.18564 -0.546 89 70 72
0.282343 -0.1836 -0.54 97 84 91
0.292026 -0.18258 -0.537 186 193 203
0.30552 -0.18088 -0.532 194 188 200
0.308991 -0.18054 -0.531 129 111 125
0.312448 -0.1802 -0.53 200 184 195
0.312866 -0.17986 -0.529 147 131 142
0.31871 -0.17918 -0.527 125 99 110
0.3275 -0.1785 -0.525 131 110 117
0.33756 -0.17748 -0.522 132 106 115
0.394886 -0.18428 -0.542 156 111 106
0.400995 -0.1819 -0.535 144 93 89
0.420357 -0.1819 -0.535 163 112 108
0.427043 -0.18258 -0.537 156 105 101
0.45182 -0.18734 -0.551 159 105 103
0.463467 -0.1904 -0.56 161 107 105
0.106457 -0.157276 -0.46 201 157 144
0.115191 -0.154883 -0.453 206 162 149
0.138121 -0.153515 -0.449 194 151 134
0.202776 -0.165824 -0.485 106 72 63
0.231545 -0.175739 -0.514 97 64 57
0.267104 -0.18839 -0.551 62 47 54
0.276626 -0.187022 -0.547 85 69 72
0.306094 -0.182235 -0.533 209 203 215
0.306533 -0.181893 -0.532 207 201 213
0.33989 -0.178132 -0.521 132 111 118
0.40228 -0.182577 -0.534 142 91 87
0.424206 -0.183261 -0.536 164 113 109
0.427043 -0.183603 -0.537 159 108 105
0.434571 -0.184629 -0.54 150 97 93
0.4446 -0.18668 -0.546 146 93 87
0.461811 -0.190783 -0.558 158 107 103
0.111987 -0.15609 -0.454 203 159 146
0.116054 -0.155746 -0.453 204 161 145
0.130714 -0.154714 -0.45 203 162 144
0.131571 -0.154714 -0.45 200 161 144
0.151958 -0.155402 -0.452 167 117 106
0.159383 -0.156777 -0.456 159 109 98
0.169033 -0.158496 -0.461 150 102 92
0.182297 -0.160903 -0.468 132 89 83
0.184867 -0.16159 -0.47 129 86 80
0.187054 -0.161934 -0.471 127 84 78
0.213989 -0.17053 -0.496 102 69 62
0.262906 -0.189439 -0.551 55 45 53
0.266537 -0.189783 -0.552 62 47 54
0.287446 -0.18497 -0.538 96 85 93
0.305079 -0.18325 -0.533 211 205 217
0.3255 -0.1805 -0.525 129 106 116
0.3275 -0.1805 -0.525 127 104 114
0.331867 -0.180156 -0.524 127 106 115
0.335921 -0.179125 -0.521 131 110 117
0.342531 -0.179469 -0.522 131 110 117
0.395614 -0.186689 -0.543 156 106 99
0.410664 -0.18325 -0.533 148 95 89
-0.151964 -0.223331 -0.646 183 183 175
-0.146037 -0.223677 -0.647 187 186 181
-0.143794 -0.224023 -0.648 188 187 182
0.104932 -0.159374 -0.461 201 153 149
0.127286 -0.155571 -0.45 204 163 145
0.133845 -0.155226 -0.449 202 159 143
0.143571 -0.155571 -0.45 184 135 120
0.15609 -0.156954 -0.454 160 110 99
0.159383 -0.157646 -0.456 157 107 96
0.178855 -0.161103 -0.466 136 91 85
0.207667 -0.1694 -0.49 108 71 65
0.220402 -0.173549 -0.502 101 68 63
0.249066 -0.185649 -0.537 52 39 46
0.266054 -0.190489 -0.551 65 50 57
0.28182 -0.18634 -0.539 102 85 91
0.28998 -0.185649 -0.537 166 167 172
0.293524 -0.185303 -0.536 149 158 165
0.298531 -0.184611 -0.534 191 194 203
0.327874 -0.181154 -0.524 128 105 115
0.397833 -0.18634 -0.539 160 111 106
0.39812 -0.185994 -0.538 158 109 105
0.43274 -0.18634 -0.539 155 102 96
0.433767 -0.18634 -0.539 150 97 93
0.447498 -0.189106 -0.547 153 100 96
0.459329 -0.191871 -0.555 155 101 99
-0.157371 -0.225257 -0.648 177 177 169
-0.145029 -0.225257 -0.648 188 188 180
0.109392 -0.157819 -0.454 204 160 149
0.110014 -0.157471 -0.453 204 160 149
0.127286 -0.156429 -0.45 204 162 146
0.137813 -0.155733 -0.448 193 147 131
0.139831 -0.156081 -0.449 188 141 125
0.166914 -0.159905 -0.46 151 103 93
0.169033 -0.160252 -0.461 146 99 91
0.18358 -0.163033 -0.469 127 87 79
0.234786 -0.180414 -0.519 86 57 53
0.268714 -0.19119 -0.55 70 55 60
0.275584 -0.190148 -0.547 87 70 76
0.287934 -0.186671 -0.537 89 78 84
0.28998 -0.186671 -0.537 140 141 146
0.292503 -0.186324 -0.536 123 132 141
0.297052 -0.185976 -0.535 163 170 178
0.298531 -0.185629 -0.534 181 185 194
0.330869 -0.182152 -0.524 127 104 112
0.331233 -0.181805 -0.523 128 105 113
0.333226 -0.181805 -0.523 128 105 113
0.340543 -0.181457 -0.522 129 108 117
0.343526 -0.181457 -0.522 132 109 119
0.424206 -0.186324 -0.536 161 108 104
0.44668 -0.1898 -0.546 144 93 89
-0.15885 -0.226841 -0.649 179 179 171
0.110014 -0.158334 -0.453 204 160 149
0.123857 -0.157286 -0.45 204 161 145
0.130133 -0.156587 -0.448 203 161 145
0.135253 -0.156587 -0.448 201 158 141
0.147 -0.157286 -0.45 176 128 114
0.148714 -0.157286 -0.45 173 125 111
0.158167 -0.159033 -0.455 156 106 97
0.166914 -0.160781 -0.46 148 99 92
0.193071 -0.166723 -0.477 113 76 70
0.195706 -0.167422 -0.479 110 75 71
0.20809 -0.171616 -0.491 103 68 64
0.270317 -0.191889 -0.549 78 63 68
0.274542 -0.19119 -0.547 86 69 75
0.280286 -0.188743 -0.54 103 83 92
0.283873 -0.188393 -0.539 106 87 91
0.28998 -0.187694 -0.537 113 114 119
0.299549 -0.186646 -0.534 174 174 184
0.300566 -0.186646 -0.534 178 178 188
0.305079 -0.186296 -0.533 182 179 190
0.314286 -0.184549 -0.528 124 104 113
0.400449 -0.187694 -0.537 157 108 101
0.413469 -0.186646 -0.534 149 99 92
0.4173 -0.186995 -0.535 163 113 106
0.419338 -0.186995 -0.535 153 103 96
0.426248 -0.187345 -0.536 154 104 97
0.433767 -0.188393 -0.539 152 102 95
0.44031 -0.189442 -0.542 138 87 83
-0.151493 -0.22632 -0.644 186 183 174
0.105531 -0.160251 -0.456 200 156 145
0.120429 -0.158143 -0.45 208 164 151
0.126148 -0.157791 -0.449 201 159 143
0.12928 -0.15744 -0.448 202 160 144
0.1344 -0.15744 -0.448 199 158 140
0.135253 -0.15744 -0.448 199 158 140
0.162699 -0.160954 -0.458 155 107 97
0.178855 -0.163766 -0.466 130 87 81
0.189149 -0.166577 -0.474 118 79 74
0.270869 -0.192583 -0.548 79 62 68
0.280286 -0.189771 -0.54 103 83 92
0.297052 -0.188014 -0.535 141 148 158
0.306094 -0.187311 -0.533 174 171 182
0.317103 -0.184851 -0.526 124 103 110
0.318105 -0.184851 -0.526 125 99 108
0.4094 -0.187663 -0.534 136 86 79
0.44031 -0.190474 -0.542 138 89 85
0.462274 -0.195394 -0.556 147 102 99
0.110632 -0.159707 -0.452 204 160 147
0.136107 -0.158293 -0.448 192 146 130
0.137813 -0.158293 -0.448 188 141 123
0.144963 -0.158647 -0.449 180 129 112
0.147 -0.159 -0.45 176 128 114
0.15609 -0.160413 -0.454 155 107 97
0.162699 -0.161827 -0.458 153 104 97
0.182297 -0.16536 -0.468 127 86 80
0.194387 -0.168893 -0.478 108 73 69
0.213903 -0.17596 -0.498 99 66 61
0.297052 -0.189033 -0.535 119 126 136
0.319107 -0.185853 -0.526 128 101 108
0.3225 -0.1855 -0.525 127 101 110
0.3245 -0.1855 -0.525 128 102 111
0.3265 -0.1855 -0.525 129 103 112
0.328872 -0.185147 -0.524 129 103 112
0.3475 -0.1855 -0.525 123 102 111
0.397249 -0.191153 -0.541 156 110 110
0.405331 -0.18868 -0.534 150 100 93
0.423185 -0.189387 -0.536 152 102 95
0.434793 -0.190447 -0.539 151 100 96
-0.145252 -0.23055 -0.649 191 188 181
0.105933 -0.161278 -0.454 202 158 147
0.111493 -0.160568 -0.452 201 157 146
0.113215 -0.160568 -0.452 200 156 143
0.120429 -0.159857 -0.45 204 162 146
0.1344 -0.159147 -0.448 191 148 132
0.140373 -0.159147 -0.448 183 136 120
0.143252 -0.159502 -0.449 181 130 113
0.156954 -0.161278 -0.454 154 105 98
0.17028 -0.16412 -0.462 136 89 83
0.177968 -0.165541 -0.466 127 82 77
0.189149 -0.168383 -0.474 112 75 69
0.212527 -0.176553 -0.497 100 67 62
0.220757 -0.179395 -0.505 93 62 59
0.222597 -0.180106 -0.507 89 59 57
0.237952 -0.186855 -0.526 74 49 53
0.25324 -0.19396 -0.546 58 45 55
0.25719 -0.195381 -0.55 64 47 53
0.270869 -0.19467 -0.548 84 61 69
0.275614 -0.193605 -0.545 100 77 85
0.279257 -0.191829 -0.54 103 84 90
0.287398 -0.190408 -0.536 105 88 96
0.290461 -0.190408 -0.536 114 119 125
0.292503 -0.190408 -0.536 191 200 209
0.305079 -0.189342 -0.533 164 164 174
0.308991 -0.188631 -0.531 192 175 185
0.317103 -0.186855 -0.526 129 104 110
0.320109 -0.186855 -0.526 130 104 113
0.404052 -0.190052 -0.535 154 103 99
0.442375 -0.192539 -0.542 136 87 82
0.44608 -0.19325 -0.544 145 96 91
0.474901 -0.201065 -0.566 143 90 86
-0.160329 -0.230357 -0.645 184 181 174
0.102298 -0.164643 -0.461 202 155 149
0.107189 -0.161429 -0.452 200 156 143
0.121016 -0.160357 -0.449 202 160 146
0.1341 -0.159643 -0.447 191 144 124
0.135803 -0.159643 -0.447 188 143 122
0.147857 -0.160714 -0.45 169 119 108
0.148714 -0.160714 -0.45 167 117 106
0.154883 -0.161786 -0.453 157 107 100
0.17116 -0.165 -0.462 136 88 84
0.173669 -0.165714 -0.464 130 86 85
0.20622 -0.175357 -0.491 96 65 60
0.217009 -0.179643 -0.503 93 64 60
0.225768 -0.182857 -0.512 84 59 55
0.251276 -0.194286 -0.544 65 44 51
0.266619 -0.196429 -0.55 76 53 61
0.26718 -0.196071 -0.549 81 55 64
0.270869 -0.195714 -0.548 86 63 71
0.279257 -0.192857 -0.54 100 83 89
0.303049 -0.190357 -0.533 164 152 166
0.306533 -0.19 -0.532 124 104 115
0.32111 -0.187857 -0.526 128 101 110
0.331233 -0.186786 -0.523 132 105 114
0.33223 -0.186786 -0.523 131 104 113
0.338554 -0.186429 -0.522 164 145 151
0.340543 -0.186429 -0.522 133 108 114
0.342191 -0.186786 -0.523 129 104 110
0.400463 -0.197857 -0.554 102 87 106
0.400449 -0.191786 -0.537 160 111 106
0.415262 -0.191071 -0.535 153 102 98
0.466063 -0.199286 -0.558 153 99 99
-0.157137 -0.230509 -0.642 182 182 174
-0.156157 -0.230868 -0.643 182 182 174
0.112106 -0.16193 -0.451 200 158 144
0.116143 -0.161571 -0.45 204 162 148
0.1216 -0.160853 -0.448 204 162 146
0.128703 -0.160135 -0.446 198 155 139
0.15609 -0.163008 -0.454 153 104 97
0.160603 -0.164085 -0.457 150 101 96
0.224353 -0.183473 -0.511 85 59 58
0.228514 -0.185269 -0.516 81 57 57
0.232713 -0.187064 -0.521 78 53 56
0.2522 -0.19604 -0.546 67 46 53
0.259177 -0.198194 -0.552 70 49 58
0.28182 -0.193527 -0.539 105 88 94
0.302033 -0.191372 -0.533 153 147 159
0.3195 -0.1885 -0.525 129 102 111
0.343188 -0.187782 -0.523 130 104 113
0.397983 -0.194604 -0.542 165 115 108
0.431134 -0.192809 -0.537 161 108 100
0.433987 -0.193168 -0.538 149 96 88
0.448976 -0.195681 -0.545 146 96 95
0.451666 -0.196399 -0.547 147 97 96
-0.154691 -0.231731 -0.642 184 184 176
0.106951 -0.16279 -0.451 203 161 145
0.148714 -0.162429 -0.45 162 112 101
0.160603 -0.164955 -0.457 149 100 93
0.173669 -0.167482 -0.464 126 85 83
0.179239 -0.168565 -0.467 121 80 78
0.186948 -0.17073 -0.473 113 75 72
0.205285 -0.177228 -0.491 97 66 63
0.208843 -0.178671 -0.495 98 67 64
0.236397 -0.190222 -0.527 74 52 55
0.246343 -0.194914 -0.54 67 47 56
0.25162 -0.197441 -0.547 68 47 56
0.280286 -0.194914 -0.54 107 88 94
0.288419 -0.19347 -0.536 112 95 103
0.290461 -0.19347 -0.536 111 94 102
0.305079 -0.192388 -0.533 122 102 111
0.3465 -0.1895 -0.525 132 105 112
0.400793 -0.199607 -0.553 110 87 97
0.398415 -0.196358 -0.544 167 114 108
0.398717 -0.195997 -0.543 168 115 109
0.40711 -0.19311 -0.535 146 93 87
0.412205 -0.19311 -0.535 152 99 93
0.422164 -0.19347 -0.536 148 95 89
-0.154691 -0.232954 -0.642 184 184 174
0.14464 -0.16256 -0.448 163 115 103
0.147529 -0.162923 -0.449 161 111 102
0.160603 -0.165826 -0.457 144 97 89
0.164803 -0.166551 -0.459 141 91 90
0.205703 -0.178526 -0.492 96 65 62
0.230729 -0.189049 -0.521 77 55 57
0.266619 -0.199571 -0.55 80 57 67
0.278227 -0.196669 -0.542 104 84 93
0.280286 -0.195943 -0.54 108 87 96
0.2849 -0.19558 -0.539 113 92 101
0.299549 -0.193766 -0.534 158 145 154
0.30552 -0.19304 -0.532 121 96 102
0.333583 -0.189411 -0.522 152 125 134
0.343844 -0.190137 -0.524 128 105 115
0.344842 -0.190137 -0.524 134 107 114
0.448152 -0.197394 -0.544 148 98 97
0.127853 -0.162684 -0.446 195 152 135
0.13465 -0.162684 -0.446 189 144 125
0.14006 -0.163049 -0.447 173 128 109
0.15402 -0.165237 -0.453 153 104 97
0.158167 -0.165967 -0.455 144 97 91
0.17746 -0.170344 -0.467 119 78 74
0.17835 -0.170344 -0.467 119 78 74
0.195095 -0.175815 -0.482 99 68 65
0.217769 -0.184934 -0.507 87 59 58
0.246677 -0.198066 -0.543 69 48 57
0.261753 -0.201713 -0.553 75 54 63
0.282343 -0.196971 -0.54 110 87 97
0.28944 -0.195512 -0.536 117 98 104
0.291957 -0.195148 -0.535 115 98 104
0.302033 -0.194418 -0.533 125 104 111
0.30552 -0.194053 -0.532 124 101 107
0.306533 -0.194053 -0.532 120 97 103
0.312448 -0.193324 -0.53 131 108 118
0.313873 -0.192959 -0.529 132 102 114
0.32488 -0.191135 -0.524 129 102 111
0.358511 -0.195877 -0.537 60 53 61
0.40194 -0.196607 -0.539 161 108 102
0.40685 -0.195512 -0.536 146 96 89
0.410933 -0.195512 -0.536 152 102 95
0.4389 -0.196607 -0.539 144 91 85
0.456454 -0.200254 -0.549 144 96 94
0.103286 -0.165 -0.45 205 160 141
0.105 -0.165 -0.45 204 159 140
0.111857 -0.165 -0.45 208 165 148
0.121057 -0.163533 -0.446 205 164 146
0.122756 -0.163533 -0.446 205 162 145
0.130402 -0.163533 -0.446 197 151 135
0.138357 -0.1639 -0.447 178 133 112
0.139209 -0.1639 -0.447 175 130 111
0.159383 -0.1672 -0.456 143 94 89
0.17657 -0.171233 -0.467 120 81 76
0.216803 -0.1859 -0.507 86 57 59
0.247586 -0.199833 -0.545 70 49 58
0.296497 -0.1958 -0.534 120 100 111
0.297514 -0.1958 -0.534 123 103 115
0.300003 -0.195433 -0.533 128 106 118
0.305957 -0.1947 -0.531 121 98 104
0.315291 -0.1936 -0.528 130 103 112
0.322884 -0.192133 -0.524 131 104 113
0.401443 -0.202033 -0.551 138 99 100
0.411954 -0.196533 -0.536 153 103 96
0.424433 -0.196167 -0.535 148 95 89
0.425452 -0.196167 -0.535 150 97 91
0.426471 -0.196167 -0.535 149 99 92
0.449189 -0.199467 -0.544 144 93 90
0.46735 -0.204233 -0.557 142 88 86
-0.302714 -0.239571 -0.65 255 255 251
-0.148731 -0.238834 -0.648 187 187 177
0.105622 -0.165489 -0.449 203 161 139
0.107332 -0.165489 -0.449 203 160 141
0.109898 -0.165489 -0.449 206 163 144
0.117071 -0.164751 -0.447 207 166 148
0.130402 -0.164383 -0.446 195 152 135
0.148714 -0.165857 -0.45 156 108 98
0.155225 -0.167331 -0.454 149 102 94
0.16852 -0.17028 -0.462 134 89 84
0.173157 -0.171386 -0.465 127 86 84
0.215411 -0.186497 -0.506 87 58 62
0.230061 -0.193131 -0.524 81 58 64
0.232382 -0.194237 -0.527 79 56 62
0.248949 -0.201977 -0.548 71 50 59
0.263955 -0.203083 -0.551 79 59 68
0.283873 -0.19866 -0.539 113 87 96
0.286421 -0.198291 -0.538 115 89 98
0.286911 -0.197923 -0.537 113 90 100
0.290461 -0.197554 -0.536 121 98 106
0.314286 -0.194606 -0.528 132 102 114
0.316702 -0.194237 -0.527 131 105 114
0.318105 -0.193869 -0.526 133 106 115
0.3225 -0.1935 -0.525 134 107 116
0.341195 -0.192763 -0.523 135 112 122
0.425452 -0.197186 -0.535 150 97 89
0.440953 -0.19866 -0.539 142 92 85
0.4575 -0.202346 -0.549 145 93 95
-0.296068 -0.240439 -0.649 192 194 189
-0.294048 -0.24081 -0.65 199 201 196
-0.29281 -0.24081 -0.65 202 204 199
-0.15762 -0.236734 -0.639 185 182 175
0.100079 -0.167085 -0.451 199 161 138
0.103911 -0.166344 -0.449 203 160 141
0.118509 -0.165232 -0.446 207 166 146
0.125871 -0.164862 -0.445 197 154 135
0.13295 -0.165232 -0.446 187 146 128
0.138048 -0.165232 -0.446 176 131 110
0.14006 -0.165603 -0.447 170 124 108
0.146673 -0.166344 -0.449 158 112 99
0.21084 -0.185979 -0.502 91 62 64
0.233705 -0.196352 -0.53 78 55 61
0.271912 -0.203021 -0.548 93 67 76
0.288419 -0.198575 -0.536 116 93 103
0.310429 -0.196352 -0.53 172 157 164
0.313873 -0.195982 -0.529 132 102 114
0.317706 -0.195241 -0.527 132 106 115
0.330959 -0.193018 -0.521 129 102 111
0.332944 -0.193018 -0.521 152 125 134
0.40454 -0.198946 -0.537 161 108 102
0.405563 -0.198946 -0.537 156 103 97
0.408891 -0.198575 -0.536 150 95 90
0.439927 -0.199687 -0.539 136 86 77
0.448363 -0.201169 -0.543 143 94 89
-0.292359 -0.241675 -0.649 145 146 141
-0.151729 -0.240186 -0.645 187 185 173
-0.147952 -0.242048 -0.65 187 187 175
0.0974829 -0.170923 -0.459 204 158 142
0.0975 -0.169433 -0.455 202 157 138
0.111111 -0.166454 -0.447 206 163 144
0.124176 -0.16571 -0.445 200 157 138
0.141763 -0.166454 -0.447 165 117 103
0.143787 -0.166827 -0.448 162 114 100
0.14464 -0.166827 -0.448 158 110 96
0.160954 -0.17055 -0.458 137 94 87
0.171017 -0.172785 -0.464 129 86 80
0.247311 -0.204437 -0.549 68 52 62
0.256357 -0.206671 -0.555 74 54 65
0.2735 -0.203692 -0.547 94 68 79
0.315291 -0.196617 -0.528 130 104 113
0.329606 -0.194383 -0.522 129 102 111
0.341195 -0.194755 -0.523 133 110 120
0.400786 -0.202203 -0.543 168 115 111
0.405563 -0.199969 -0.537 154 101 95
0.424433 -0.199224 -0.535 153 101 90
0.42749 -0.199224 -0.535 167 114 106
0.449397 -0.202203 -0.543 143 94 89
0.466729 -0.206671 -0.555 137 92 87
-0.161776 -0.239917 -0.641 184 181 172
-0.15762 -0.239169 -0.639 186 183 174
-0.15272 -0.24104 -0.644 187 185 173
0.098579 -0.169177 -0.452 203 157 141
0.101346 -0.168054 -0.449 204 159 140
0.104533 -0.16768 -0.448 203 161 139
0.125871 -0.166557 -0.445 198 153 134
0.132101 -0.166931 -0.446 187 146 124
