ply
format ascii 1.0
comment Created by Open3D
element vertex 1310
property double x
property double y
property double z
property uchar red
property uchar green
property uchar blue
end_header
0.414994 -0.13315 -0.544 185 130 125
0.135523 -0.12062 -0.489 205 156 149
0.135896 -0.120127 -0.487 205 156 149
0.157216 -0.116673 -0.473 208 159 154
0.168929 -0.116673 -0.473 208 159 152
0.179217 -0.11692 -0.474 186 136 125
0.192566 -0.117907 -0.478 152 105 97
0.21021 -0.122347 -0.496 126 81 84
0.263757 -0.1369 -0.555 96 59 66
0.286191 -0.14282 -0.579 25 10 13
0.294831 -0.143807 -0.583 31 18 25
0.315476 -0.130733 -0.53 133 101 104
0.321326 -0.13024 -0.528 131 98 105
0.34419 -0.128267 -0.52 133 101 106
0.352791 -0.128513 -0.521 132 101 107
0.392843 -0.131967 -0.535 185 129 130
0.437916 -0.137147 -0.556 147 93 83
0.442923 -0.13838 -0.561 156 102 92
0.139429 -0.119314 -0.48 198 149 142
0.141579 -0.118817 -0.478 200 153 143
0.150326 -0.117823 -0.474 208 161 153
0.157216 -0.117574 -0.473 205 158 152
0.16082 -0.117574 -0.473 207 158 153
0.161721 -0.117574 -0.473 206 157 152
0.2058 -0.1218 -0.49 124 85 86
0.250311 -0.136963 -0.551 74 37 44
0.261753 -0.13746 -0.553 91 54 61
0.265291 -0.138206 -0.556 96 59 66
0.2916 -0.134229 -0.54 126 97 101
0.294619 -0.133731 -0.538 130 98 101
0.297608 -0.133234 -0.536 131 99 102
0.301129 -0.132986 -0.535 133 101 104
0.315476 -0.131743 -0.53 133 101 104
0.333863 -0.130251 -0.524 116 85 93
0.334222 -0.130003 -0.523 118 87 95
0.341875 -0.129506 -0.521 136 105 111
0.348471 -0.129009 -0.519 131 100 106
0.3794 -0.134726 -0.542 41 22 26
0.37973 -0.134477 -0.541 69 39 47
0.382237 -0.132489 -0.533 198 140 139
0.392109 -0.132737 -0.534 186 130 131
0.39738 -0.133483 -0.537 175 121 111
0.400913 -0.13398 -0.539 166 114 103
0.42484 -0.13572 -0.546 166 107 99
0.435286 -0.137709 -0.554 149 95 85
0.137255 -0.12073 -0.482 200 152 142
0.1428 -0.119227 -0.476 202 155 145
0.153612 -0.118475 -0.473 211 162 157
0.171269 -0.118225 -0.472 194 147 139
0.175764 -0.118225 -0.472 185 135 126
0.181926 -0.118726 -0.474 174 122 111
0.19918 -0.12098 -0.483 141 95 95
0.253 -0.137762 -0.55 77 40 48
0.261753 -0.138513 -0.553 92 52 61
0.271366 -0.140768 -0.562 90 52 63
0.282627 -0.143773 -0.574 19 8 12
0.289393 -0.145527 -0.581 22 13 16
0.293113 -0.135007 -0.539 129 97 102
0.304634 -0.133754 -0.534 131 101 103
0.324732 -0.132001 -0.527 131 102 107
0.3285 -0.1315 -0.525 80 61 65
0.332865 -0.13125 -0.524 117 86 94
0.333863 -0.13125 -0.524 117 86 94
0.33989 -0.130498 -0.521 121 90 96
0.34221 -0.130248 -0.52 129 98 104
0.345181 -0.130248 -0.52 126 95 101
0.348471 -0.129997 -0.519 132 101 107
0.379066 -0.136009 -0.543 41 25 28
0.383252 -0.133504 -0.533 200 144 143
0.420175 -0.136259 -0.544 174 115 107
0.427702 -0.13701 -0.547 160 103 94
0.432143 -0.137762 -0.55 160 103 94
0.446647 -0.141018 -0.563 179 122 113
0.133 -0.123667 -0.49 208 159 152
0.1428 -0.120133 -0.476 203 156 146
0.149108 -0.119376 -0.473 212 163 158
0.158682 -0.119124 -0.472 209 160 155
0.167672 -0.119124 -0.472 207 160 152
0.18012 -0.119629 -0.474 179 127 116
0.203612 -0.12291 -0.487 133 87 89
0.298629 -0.135276 -0.536 131 99 102
0.319919 -0.13351 -0.529 134 102 107
0.350133 -0.131238 -0.52 135 104 112
0.408307 -0.13679 -0.542 142 89 81
0.1425 -0.120786 -0.475 202 155 147
0.144006 -0.120531 -0.474 208 161 153
0.158346 -0.119769 -0.471 211 164 158
0.167317 -0.119769 -0.471 203 156 148
0.170009 -0.119769 -0.471 194 147 137
0.194793 -0.121803 -0.479 148 98 97
0.250766 -0.140366 -0.552 77 37 45
0.27448 -0.143417 -0.564 52 33 37
0.294254 -0.144689 -0.569 27 15 19
0.310003 -0.135026 -0.531 134 102 105
0.311014 -0.135026 -0.531 134 102 105
0.351124 -0.132229 -0.52 135 102 111
0.356138 -0.132991 -0.523 74 53 58
0.382114 -0.137314 -0.54 118 82 82
0.132567 -0.124252 -0.485 203 154 149
0.138267 -0.121947 -0.476 206 157 150
0.161934 -0.120666 -0.471 206 157 152
0.168214 -0.120666 -0.471 199 152 142
0.191254 -0.122203 -0.477 153 102 99
0.214237 -0.128351 -0.501 125 80 77
0.25719 -0.140905 -0.55 85 44 52
0.259757 -0.141161 -0.551 92 51 59
0.262807 -0.141673 -0.553 92 51 59
0.294716 -0.146541 -0.572 29 27 32
0.293737 -0.145516 -0.568 19 7 11
0.302148 -0.137062 -0.535 131 99 102
0.328124 -0.134756 -0.526 131 100 105
0.331867 -0.134244 -0.524 122 91 97
0.335218 -0.133988 -0.523 120 91 96
0.336566 -0.133731 -0.522 117 88 93
0.3432 -0.133219 -0.52 133 102 108
0.346494 -0.132963 -0.519 121 90 96
0.385 -0.140905 -0.55 58 48 49
0.389906 -0.136037 -0.531 191 131 133
0.402219 -0.13783 -0.538 166 111 104
0.414231 -0.139111 -0.543 170 113 106
0.129794 -0.126983 -0.492 204 155 150
0.134295 -0.12337 -0.478 202 153 146
0.135831 -0.123111 -0.477 203 154 147
0.140701 -0.121821 -0.472 205 158 150
0.167857 -0.121305 -0.47 202 155 147
0.173229 -0.121305 -0.47 181 133 123
0.188643 -0.122595 -0.475 156 103 99
0.189947 -0.122853 -0.476 151 100 97
0.191254 -0.123111 -0.477 151 100 97
0.242395 -0.140662 -0.545 123 81 85
0.252273 -0.142727 -0.553 82 40 50
0.264337 -0.142985 -0.554 88 46 56
0.287899 -0.149179 -0.578 27 18 21
0.302148 -0.138081 -0.535 131 99 102
0.30856 -0.137307 -0.532 133 101 104
0.331867 -0.135242 -0.524 129 99 107
0.384984 -0.141178 -0.547 78 63 68
0.395435 -0.137565 -0.533 179 126 120
0.408584 -0.13963 -0.541 151 93 89
0.411404 -0.139888 -0.542 145 90 83
0.415266 -0.140146 -0.543 169 112 105
0.438713 -0.142727 -0.553 151 96 91
0.444806 -0.144017 -0.558 175 120 115
0.127452 -0.1313 -0.505 201 158 151
0.129267 -0.1274 -0.49 202 155 149
0.132751 -0.12454 -0.479 199 152 144
0.160695 -0.1222 -0.47 214 169 163
0.164276 -0.1222 -0.47 209 160 155
0.171438 -0.1222 -0.47 188 138 129
0.182443 -0.12298 -0.473 168 115 111
0.18644 -0.12324 -0.474 161 108 102
0.188643 -0.1235 -0.475 154 104 97
0.256143 -0.143 -0.55 84 42 52
0.290101 -0.15028 -0.578 27 18 21
0.291705 -0.14612 -0.562 104 89 94
0.28756 -0.14196 -0.546 123 91 94
0.288579 -0.14144 -0.544 120 88 89
0.290571 -0.1404 -0.54 127 92 96
0.311014 -0.13806 -0.531 133 101 104
0.319919 -0.13754 -0.529 134 102 107
0.384083 -0.13962 -0.537 162 110 114
0.420437 -0.14118 -0.543 174 116 112
0.43792 -0.14352 -0.552 152 97 90
0.128595 -0.128595 -0.491 202 155 149
0.145476 -0.123095 -0.47 205 156 151
0.25451 -0.14431 -0.551 83 39 52
0.257658 -0.14431 -0.551 87 41 54
0.264337 -0.145095 -0.554 81 39 49
0.289543 -0.141429 -0.54 123 92 97
0.312448 -0.13881 -0.53 133 101 104
0.33756 -0.136714 -0.522 133 104 109
0.38571 -0.140119 -0.535 186 131 128
0.412436 -0.141952 -0.542 139 89 80
0.450135 -0.14719 -0.562 164 104 103
0.12599 -0.132696 -0.503 208 157 153
0.152313 -0.123727 -0.469 207 160 154
0.157673 -0.123727 -0.469 211 164 156
0.169648 -0.12399 -0.47 193 147 132
0.177186 -0.124254 -0.471 175 125 114
0.187343 -0.125046 -0.474 155 106 102
0.189548 -0.12531 -0.475 149 100 96
0.251071 -0.146414 -0.555 90 57 68
0.29356 -0.151427 -0.574 37 32 38
0.294619 -0.14193 -0.538 129 97 102
0.303049 -0.14061 -0.533 132 100 103
0.33223 -0.137972 -0.523 130 98 101
0.337906 -0.137445 -0.521 132 101 107
0.349143 -0.137181 -0.52 133 104 109
0.418369 -0.143249 -0.543 169 111 107
0.420437 -0.143249 -0.543 169 114 109
0.146953 -0.12462 -0.469 211 162 157
0.151989 -0.124354 -0.468 207 160 152
0.186047 -0.125683 -0.473 155 104 100
0.207155 -0.130466 -0.491 115 75 75
0.208938 -0.130997 -0.493 114 74 74
0.2387 -0.14322 -0.539 101 70 75
0.28709 -0.151989 -0.572 80 74 84
0.289049 -0.143751 -0.541 120 91 95
0.30552 -0.14136 -0.532 132 102 104
0.323729 -0.140031 -0.527 132 101 109
0.332865 -0.139234 -0.524 132 97 103
0.33989 -0.138437 -0.521 134 103 109
0.34419 -0.138171 -0.52 135 104 110
0.387313 -0.141626 -0.533 188 133 128
0.127684 -0.129528 -0.484 203 154 149
0.130653 -0.127922 -0.478 204 157 149
0.132548 -0.127119 -0.475 208 161 153
0.149314 -0.125246 -0.468 213 166 158
0.156446 -0.125246 -0.468 211 164 156
0.171073 -0.125513 -0.469 181 133 121
0.193071 -0.127654 -0.477 138 90 90
0.259286 -0.14719 -0.55 80 33 43
0.265392 -0.148261 -0.554 75 30 37
0.268951 -0.149064 -0.557 66 33 42
0.276138 -0.15067 -0.563 51 34 44
0.288763 -0.15281 -0.571 57 46 54
0.288071 -0.145852 -0.545 121 90 96
0.30011 -0.143176 -0.535 130 100 102
0.304064 -0.142641 -0.533 131 101 103
0.321721 -0.141035 -0.527 130 101 105
0.3295 -0.1405 -0.525 136 103 110
0.336214 -0.139965 -0.523 132 99 106
0.38734 -0.145317 -0.543 126 81 84
0.401263 -0.142909 -0.534 174 116 114
0.123333 -0.134762 -0.5 202 155 149
0.128457 -0.129371 -0.48 200 153 145
0.129102 -0.129102 -0.479 201 154 146
0.134408 -0.127215 -0.472 203 161 149
0.154332 -0.125868 -0.467 208 163 157
0.155222 -0.125868 -0.467 209 164 158
0.193071 -0.128563 -0.477 133 87 87
0.203612 -0.131258 -0.487 118 78 78
0.237814 -0.144734 -0.537 69 42 47
0.270012 -0.150125 -0.557 53 20 27
0.292087 -0.145273 -0.539 126 94 95
0.298629 -0.144465 -0.536 131 99 104
0.310003 -0.143117 -0.531 133 103 105
0.314881 -0.142578 -0.529 133 102 107
0.317904 -0.142578 -0.529 133 102 107
0.333863 -0.14123 -0.524 126 99 108
0.341219 -0.140152 -0.52 133 102 108
0.349143 -0.140152 -0.52 134 105 110
0.353469 -0.140691 -0.522 103 80 86
0.386729 -0.144195 -0.535 178 123 120
0.388894 -0.143117 -0.531 195 131 131
0.419403 -0.146351 -0.543 164 109 102
0.12584 -0.131371 -0.484 201 158 149
0.131366 -0.128657 -0.474 194 152 140
0.134733 -0.127571 -0.47 202 160 148
0.145437 -0.126757 -0.467 209 165 156
0.151339 -0.126486 -0.466 206 161 155
0.184754 -0.128114 -0.472 155 104 100
0.198768 -0.130829 -0.482 126 82 83
0.207155 -0.133271 -0.491 109 71 70
0.24388 -0.1482 -0.546 49 22 27
0.254168 -0.148743 -0.548 137 88 94
0.258814 -0.149014 -0.549 136 85 90
0.275157 -0.152271 -0.561 59 40 46
0.28798 -0.152271 -0.561 67 46 53
0.30552 -0.1444 -0.532 133 101 104
0.310003 -0.144129 -0.531 132 101 106
0.316896 -0.143586 -0.529 133 102 107
0.318911 -0.143586 -0.529 133 102 107
0.3285 -0.1425 -0.525 136 105 111
0.335571 -0.141686 -0.522 136 101 108
0.3432 -0.141143 -0.52 135 102 109
0.41118 -0.1463 -0.539 157 102 97
0.471993 -0.1577 -0.581 153 104 100
0.122297 -0.13448 -0.492 203 160 151
0.124402 -0.131747 -0.482 199 159 149
0.125976 -0.131473 -0.481 200 156 147
0.145437 -0.127647 -0.467 210 166 157
0.157552 -0.127373 -0.466 207 163 154
0.166251 -0.12792 -0.468 188 140 130
0.17554 -0.128193 -0.469 168 115 107
0.185653 -0.129013 -0.472 149 100 96
0.193071 -0.13038 -0.477 133 87 87
0.286003 -0.149513 -0.547 117 82 89
0.306533 -0.145413 -0.532 132 102 104
0.311014 -0.14514 -0.531 132 101 106
0.321721 -0.144047 -0.527 133 103 111
0.3285 -0.1435 -0.525 135 105 113
0.336913 -0.142407 -0.521 133 102 108
0.337906 -0.142407 -0.521 132 101 107
0.339238 -0.142133 -0.52 133 102 108
0.341219 -0.142133 -0.52 133 102 108
0.412432 -0.160173 -0.586 66 55 61
0.387451 -0.146507 -0.536 174 118 117
0.422506 -0.14842 -0.543 172 117 112
0.451471 -0.15334 -0.561 171 117 115
0.45846 -0.15498 -0.567 170 116 114
0.123074 -0.133215 -0.484 196 158 147
0.127387 -0.131013 -0.476 200 156 147
0.13921 -0.128536 -0.467 204 160 149
0.146901 -0.128261 -0.466 211 167 158
0.152227 -0.128261 -0.466 208 164 155
0.15967 -0.128536 -0.467 211 164 156
0.183466 -0.129637 -0.471 146 97 93
0.188246 -0.130463 -0.474 142 92 91
0.211154 -0.136518 -0.496 105 62 69
0.221867 -0.140922 -0.512 187 140 148
0.248357 -0.151106 -0.549 124 83 87
0.25428 -0.15028 -0.546 145 94 99
0.283645 -0.154959 -0.563 77 56 65
0.289543 -0.148629 -0.54 117 88 90
0.297608 -0.147528 -0.536 129 98 103
0.30011 -0.147252 -0.535 130 99 104
0.312448 -0.145876 -0.53 134 103 109
0.323729 -0.14505 -0.527 215 195 206
0.333863 -0.144225 -0.524 85 66 72
0.341219 -0.143124 -0.52 132 103 108
0.359543 -0.145326 -0.528 37 25 29
0.38804 -0.146977 -0.534 180 124 123
0.39119 -0.145876 -0.53 184 129 126
0.393475 -0.145601 -0.529 187 129 128
0.43108 -0.15028 -0.546 168 113 110
0.432911 -0.150555 -0.547 163 108 105
0.129287 -0.131089 -0.473 199 157 145
0.13266 -0.12998 -0.469 202 158 149
0.138025 -0.129149 -0.466 204 160 149
0.18039 -0.130257 -0.47 150 99 96
0.189149 -0.131366 -0.474 142 94 92
0.203612 -0.134969 -0.487 112 71 75
0.221867 -0.141897 -0.512 164 122 124
0.268558 -0.153537 -0.554 113 79 80
0.285413 -0.154091 -0.556 70 45 49
0.285995 -0.151043 -0.545 115 83 88
0.289543 -0.149657 -0.54 121 89 92
0.296117 -0.148826 -0.537 129 97 102
0.297608 -0.148549 -0.536 130 98 103
0.30711 -0.147717 -0.533 133 103 105
0.350133 -0.144114 -0.52 131 106 112
0.388613 -0.14744 -0.532 188 125 120
0.414 -0.149657 -0.54 133 82 78
0.421728 -0.150211 -0.542 165 112 106
0.434747 -0.151874 -0.548 162 107 104
0.441873 -0.15326 -0.553 148 95 91
0.12337 -0.133385 -0.478 201 154 146
0.12531 -0.132548 -0.475 198 156 142
0.1398 -0.130036 -0.466 207 163 154
0.14335 -0.130036 -0.466 206 163 154
0.151573 -0.129478 -0.464 205 162 155
0.164653 -0.130036 -0.466 186 140 127
0.179113 -0.130873 -0.469 151 100 97
0.190452 -0.132548 -0.475 136 91 88
0.193071 -0.133106 -0.477 132 86 86
0.195706 -0.133664 -0.479 125 81 80
0.20538 -0.136454 -0.489 107 66 70
0.218734 -0.141477 -0.507 132 90 92
0.2315 -0.1465 -0.525 100 58 60
0.250352 -0.151244 -0.542 143 97 99
0.256929 -0.152081 -0.545 137 88 92
0.25844 -0.15236 -0.546 131 86 89
0.28547 -0.151802 -0.544 118 86 91
0.319713 -0.147058 -0.527 133 102 107
0.322725 -0.147058 -0.527 167 136 144
0.335571 -0.145663 -0.522 95 70 76
0.340883 -0.145384 -0.521 119 94 100
0.389344 -0.148732 -0.533 186 125 122
0.390917 -0.148174 -0.531 182 123 119
0.404314 -0.149011 -0.534 146 93 89
0.427429 -0.151802 -0.544 168 115 109
0.43029 -0.152081 -0.545 167 114 110
0.122459 -0.134295 -0.478 199 155 144
0.124667 -0.133733 -0.476 197 155 143
0.138025 -0.130924 -0.466 205 161 152
0.147154 -0.130362 -0.464 211 167 158
0.151247 -0.130081 -0.463 205 162 155
0.155992 -0.130362 -0.464 198 154 143
0.173012 -0.131205 -0.467 158 107 103
0.174274 -0.131486 -0.468 157 106 102
0.176949 -0.131486 -0.468 154 100 100
0.185653 -0.13261 -0.472 142 94 92
0.207577 -0.138229 -0.492 105 65 66
0.228744 -0.146376 -0.521 115 70 73
0.240883 -0.150871 -0.537 135 89 92
0.256457 -0.152838 -0.544 139 90 94
0.2795 -0.157052 -0.559 74 51 59
0.280565 -0.157052 -0.559 78 57 64
0.29052 -0.151152 -0.538 124 94 96
0.293049 -0.150871 -0.537 128 96 101
0.3026 -0.150029 -0.534 131 101 103
0.311438 -0.148905 -0.53 133 101 104
0.311858 -0.148624 -0.529 133 101 104
0.3285 -0.1475 -0.525 130 100 108
0.335571 -0.146657 -0.522 99 73 82
0.33989 -0.146376 -0.521 119 92 99
0.3432 -0.146095 -0.52 117 90 97
0.397248 -0.148905 -0.53 163 108 103
0.427429 -0.152838 -0.544 167 114 108
0.434747 -0.153962 -0.548 162 107 102
0.125046 -0.134074 -0.474 201 159 147
0.135071 -0.131529 -0.465 204 160 149
0.137729 -0.131529 -0.465 209 165 156
0.145387 -0.131246 -0.464 209 165 156
0.15301 -0.130963 -0.463 208 163 157
0.164653 -0.131811 -0.466 185 139 126
0.168204 -0.131811 -0.466 170 122 108
0.1809 -0.13266 -0.469 141 93 91
0.181793 -0.13266 -0.469 141 93 91
0.24748 -0.152177 -0.538 136 92 93
0.249993 -0.15246 -0.539 138 94 95
0.281126 -0.157834 -0.558 83 60 68
0.283919 -0.154723 -0.547 106 79 84
0.294545 -0.151611 -0.536 128 97 102
0.307547 -0.15048 -0.532 133 103 105
0.345506 -0.146803 -0.519 129 102 109
0.358862 -0.149066 -0.527 39 27 31
0.389197 -0.151894 -0.537 167 108 104
0.388767 -0.151329 -0.535 174 115 111
0.118954 -0.138394 -0.486 202 158 149
0.1235 -0.135262 -0.475 197 154 145
0.124782 -0.134692 -0.473 198 155 146
0.135071 -0.132414 -0.465 204 160 151
0.141851 -0.13213 -0.464 205 161 152
0.145955 -0.131845 -0.463 210 167 158
0.148601 -0.131845 -0.463 211 167 158
0.176057 -0.133269 -0.468 152 101 100
0.232943 -0.149785 -0.526 127 81 84
0.239537 -0.152063 -0.534 141 95 98
0.241005 -0.152348 -0.535 144 92 96
0.262997 -0.156334 -0.549 85 55 55
0.2701 -0.158043 -0.555 90 63 68
0.283911 -0.156334 -0.549 106 79 84
0.30011 -0.152348 -0.535 129 99 101
0.325118 -0.149785 -0.526 136 110 113
0.3285 -0.1495 -0.525 132 103 108
0.340883 -0.148361 -0.521 126 99 106
0.421457 -0.169149 -0.594 64 45 49
0.389493 -0.152632 -0.536 174 114 113
0.390074 -0.152063 -0.534 182 121 118
0.415029 -0.153771 -0.54 129 80 75
0.442927 -0.157473 -0.553 148 97 96
0.457109 -0.160606 -0.564 165 114 111
0.118308 -0.140753 -0.491 203 159 150
0.118893 -0.138173 -0.482 199 155 146
0.136549 -0.133013 -0.464 207 163 154
0.15742 -0.132727 -0.463 188 141 131
0.172642 -0.133587 -0.466 156 105 101
0.190853 -0.136453 -0.476 126 80 80
0.227866 -0.14878 -0.519 128 83 86
0.243497 -0.153653 -0.536 137 91 93
0.283394 -0.157093 -0.548 106 79 84
0.28798 -0.154513 -0.539 121 89 92
0.294071 -0.15394 -0.537 126 95 100
0.29909 -0.153367 -0.535 129 98 103
0.306094 -0.152793 -0.533 131 101 103
0.306533 -0.152507 -0.532 132 102 104
0.319713 -0.151073 -0.527 132 101 106
0.323729 -0.151073 -0.527 132 102 104
0.332865 -0.150213 -0.524 129 100 105
0.426424 -0.172287 -0.601 65 46 50
0.389493 -0.153653 -0.536 174 114 113
0.390359 -0.152793 -0.533 181 121 120
0.427429 -0.155947 -0.544 165 114 110
0.429501 -0.155947 -0.544 165 114 110
0.450927 -0.160247 -0.559 157 109 109
0.467677 -0.16426 -0.573 155 110 105
0.118647 -0.138803 -0.481 199 155 144
0.122079 -0.136494 -0.473 196 154 142
0.138018 -0.133609 -0.463 210 167 158
0.14388 -0.13332 -0.462 209 166 159
0.292503 -0.154674 -0.536 125 94 99
0.317904 -0.152654 -0.529 133 104 108
0.322725 -0.152077 -0.527 133 104 108
0.34484 -0.14948 -0.518 136 105 111
0.393951 -0.153231 -0.531 171 113 109
0.395229 -0.152943 -0.53 160 105 100
0.424574 -0.156694 -0.543 165 116 112
0.131529 -0.135071 -0.465 206 163 154
0.14916 -0.1342 -0.462 211 164 156
0.156538 -0.13449 -0.463 189 142 132
0.160411 -0.134781 -0.464 184 136 124
0.163063 -0.134781 -0.464 183 135 123
0.242134 -0.154824 -0.533 136 87 90
0.273195 -0.161795 -0.557 66 43 53
0.281177 -0.161505 -0.556 87 67 76
0.282877 -0.15889 -0.547 107 80 85
0.301583 -0.155114 -0.534 130 100 102
0.30856 -0.154533 -0.532 132 102 104
0.321721 -0.153081 -0.527 129 100 105
0.322725 -0.153081 -0.527 129 100 105
0.3565 -0.1525 -0.525 40 23 29
0.394963 -0.154243 -0.531 160 103 96
0.396986 -0.154243 -0.531 149 94 87
0.403557 -0.154824 -0.533 129 79 72
0.413233 -0.156567 -0.539 131 82 77
0.415029 -0.156857 -0.54 129 80 75
0.117907 -0.139758 -0.478 199 157 145
0.126757 -0.136542 -0.467 203 161 149
0.163947 -0.135665 -0.464 172 124 110
0.175681 -0.136542 -0.467 149 98 94
0.24168 -0.155547 -0.532 132 83 86
0.253073 -0.157593 -0.539 114 75 76
0.281767 -0.161687 -0.553 80 59 66
0.283896 -0.158178 -0.541 123 88 94
0.292026 -0.157009 -0.537 125 97 96
0.324116 -0.153792 -0.526 126 97 102
0.351124 -0.152038 -0.52 75 52 60
0.353469 -0.152623 -0.522 48 31 37
0.389786 -0.156424 -0.535 181 122 118
0.391374 -0.155839 -0.533 174 119 116
0.455488 -0.164318 -0.562 153 108 105
0.119376 -0.139197 -0.473 203 159 148
0.131246 -0.136549 -0.464 207 165 153
0.189548 -0.139786 -0.475 125 76 79
0.19918 -0.14214 -0.483 108 66 68
0.20403 -0.143611 -0.488 100 60 61
0.237294 -0.155677 -0.529 145 96 99
0.239762 -0.155971 -0.53 138 88 87
0.254571 -0.158914 -0.54 102 69 64
0.272134 -0.163917 -0.557 66 40 49
0.283896 -0.159209 -0.541 122 91 96
0.300566 -0.157149 -0.534 129 100 102
0.306094 -0.156854 -0.533 129 100 102
0.317303 -0.155383 -0.528 130 104 107
0.441086 -0.182457 -0.62 89 68 73
0.391066 -0.159209 -0.541 145 101 100
0.408891 -0.157737 -0.536 126 75 71
0.421728 -0.159503 -0.542 151 100 97
0.427677 -0.159797 -0.543 157 109 105
0.460886 -0.166566 -0.566 153 108 102
0.115938 -0.143652 -0.485 197 153 142
0.118726 -0.140394 -0.474 202 158 147
0.124978 -0.138321 -0.467 205 163 151
0.165714 -0.137432 -0.464 166 116 109
0.183466 -0.139506 -0.471 135 87 87
0.200929 -0.143652 -0.485 106 64 66
0.224254 -0.151946 -0.513 118 78 79
0.251111 -0.159054 -0.537 114 75 70
0.267503 -0.16409 -0.554 59 34 40
0.268558 -0.16409 -0.554 59 34 40
0.270587 -0.164682 -0.556 55 32 40
0.285927 -0.159647 -0.539 118 89 94
0.28998 -0.159054 -0.537 123 93 95
0.291003 -0.159054 -0.537 126 95 100
0.294545 -0.158758 -0.536 126 95 100
0.3275 -0.1555 -0.525 132 103 108
0.361586 -0.157277 -0.531 36 23 30
0.390947 -0.15935 -0.538 166 116 115
0.396986 -0.157277 -0.531 146 91 86
0.416313 -0.159647 -0.539 126 75 71
0.431573 -0.161128 -0.544 157 109 105
0.445033 -0.163793 -0.553 147 100 94
0.125598 -0.138912 -0.466 207 164 155
0.140056 -0.137422 -0.461 204 160 149
0.151143 -0.137124 -0.46 195 151 138
0.155862 -0.137422 -0.461 184 138 125
0.165714 -0.138316 -0.464 167 114 108
0.188643 -0.141595 -0.475 125 79 79
0.220567 -0.15173 -0.509 111 71 72
0.236397 -0.157096 -0.527 139 89 92
0.272134 -0.166039 -0.557 54 33 42
0.274749 -0.166337 -0.558 95 78 88
0.281221 -0.165145 -0.554 103 87 97
0.281257 -0.164549 -0.552 105 88 96
0.31871 -0.157096 -0.527 128 101 106
0.320717 -0.157096 -0.527 127 96 101
0.33223 -0.155904 -0.523 128 101 110
0.335921 -0.155308 -0.521 133 102 110
0.340229 -0.15501 -0.52 137 107 115
0.34484 -0.154413 -0.518 137 107 115
0.350133 -0.15501 -0.52 93 78 85
0.440366 -0.186011 -0.624 90 73 79
0.393405 -0.158885 -0.533 169 111 107
0.395974 -0.158289 -0.531 158 103 98
0.399009 -0.158289 -0.531 142 87 82
0.416313 -0.160673 -0.539 124 75 70
0.43524 -0.16276 -0.546 153 105 101
0.453056 -0.166635 -0.559 151 101 100
0.11692 -0.1422 -0.474 199 157 145
0.120153 -0.1407 -0.469 199 160 145
0.140629 -0.138 -0.46 207 163 154
0.182181 -0.141 -0.47 134 88 88
0.22611 -0.1545 -0.515 124 79 82
0.243249 -0.1593 -0.531 128 79 83
0.24472 -0.1596 -0.532 126 77 81
0.261474 -0.1644 -0.548 63 37 46
0.271073 -0.1671 -0.557 51 31 40
0.285927 -0.1617 -0.539 114 87 92
0.298531 -0.1602 -0.534 129 98 104
0.303049 -0.1599 -0.533 131 100 105
0.312866 -0.1587 -0.529 162 131 137
0.316297 -0.1584 -0.528 132 101 107
0.319713 -0.1581 -0.527 130 100 108
0.326876 -0.1572 -0.524 177 154 164
0.340893 -0.1554 -0.518 136 106 114
0.394143 -0.1602 -0.534 172 113 109
0.39645 -0.1599 -0.533 167 109 105
0.42198 -0.1623 -0.541 157 106 103
0.438922 -0.1644 -0.548 147 98 93
0.117974 -0.142197 -0.471 201 159 147
0.130081 -0.139782 -0.463 208 164 153
0.139752 -0.138876 -0.46 202 158 149
0.165357 -0.139782 -0.463 168 117 113
0.182569 -0.142197 -0.471 132 86 88
0.247674 -0.161217 -0.534 125 79 82
0.249623 -0.161821 -0.536 122 82 82
0.255514 -0.163632 -0.542 90 56 54
0.25948 -0.16484 -0.546 65 36 40
0.277937 -0.168463 -0.558 103 83 92
0.280748 -0.16635 -0.551 124 108 119
0.291003 -0.162123 -0.537 125 94 99
0.293524 -0.161821 -0.536 126 95 101
0.306969 -0.160311 -0.531 132 101 106
0.328872 -0.158198 -0.524 200 190 199
0.338248 -0.15699 -0.52 137 106 114
0.340893 -0.156387 -0.518 137 106 114
0.449338 -0.19171 -0.635 96 81 86
0.392511 -0.163934 -0.543 138 96 97
0.392843 -0.161519 -0.535 177 118 114
0.397466 -0.160915 -0.533 163 105 101
0.115114 -0.144006 -0.474 199 157 145
0.123557 -0.141271 -0.465 206 162 151
0.126827 -0.140968 -0.464 205 163 151
0.136544 -0.140056 -0.461 206 162 153
0.144694 -0.139449 -0.459 204 160 149
0.153771 -0.139752 -0.46 189 147 131
0.158152 -0.139752 -0.46 179 133 118
0.16148 -0.14036 -0.462 169 121 109
0.183855 -0.143398 -0.472 132 86 88
0.22338 -0.155247 -0.511 105 69 69
0.255986 -0.164969 -0.543 87 53 51
0.282356 -0.164665 -0.542 108 82 91
0.287446 -0.16345 -0.538 116 89 94
0.291003 -0.163146 -0.537 124 95 100
0.30798 -0.161323 -0.531 133 102 108
0.310429 -0.161019 -0.53 129 102 107
0.325118 -0.159804 -0.526 165 143 155
0.32987 -0.159196 -0.524 149 146 155
0.333583 -0.158589 -0.522 130 109 116
0.339238 -0.157981 -0.52 137 106 114
0.340229 -0.157981 -0.52 137 106 114
0.347483 -0.157677 -0.519 140 109 117
0.348471 -0.157677 -0.519 123 92 100
0.393126 -0.162234 -0.534 171 113 109
0.39976 -0.161627 -0.532 145 92 88
0.424041 -0.164361 -0.541 162 111 108
0.447949 -0.16831 -0.554 150 101 97
0.13068 -0.14124 -0.462 207 163 152
0.137124 -0.140629 -0.46 209 165 154
0.146124 -0.140017 -0.458 197 153 142
0.199592 -0.147966 -0.484 107 68 69
0.204449 -0.149494 -0.489 102 63 66
0.231721 -0.159277 -0.521 121 76 79
0.275241 -0.170894 -0.559 91 72 78
0.280748 -0.168449 -0.551 75 53 65
0.2849 -0.16478 -0.539 110 85 91
0.312448 -0.162029 -0.53 144 119 125
0.322725 -0.161111 -0.527 134 103 108
0.328872 -0.160194 -0.524 178 176 187
0.32987 -0.160194 -0.524 152 151 159
0.334929 -0.159277 -0.521 135 104 112
0.401787 -0.16264 -0.532 148 95 91
0.406349 -0.163251 -0.534 137 86 83
0.44714 -0.16906 -0.553 150 101 97
0.453309 -0.170589 -0.558 152 103 99
0.115687 -0.144273 -0.469 201 159 147
0.118751 -0.143658 -0.467 205 163 151
0.120272 -0.14335 -0.466 207 165 153
0.12804 -0.14212 -0.462 207 163 154
0.13391 -0.141812 -0.461 204 160 151
0.135666 -0.141812 -0.461 203 159 148
0.149613 -0.14089 -0.458 189 147 133
0.16925 -0.142735 -0.464 159 108 104
0.21744 -0.15504 -0.504 96 60 62
0.2197 -0.155963 -0.507 102 63 66
0.22709 -0.158424 -0.515 115 75 76
0.2294 -0.159347 -0.518 121 76 79
0.262906 -0.169498 -0.551 46 29 37
0.273111 -0.171959 -0.559 86 70 73
0.276874 -0.171651 -0.558 82 66 76
0.277937 -0.171651 -0.558 79 62 72
0.288957 -0.165191 -0.537 122 90 101
0.318309 -0.162423 -0.528 132 102 112
0.319314 -0.162423 -0.528 135 103 114
0.324116 -0.161808 -0.526 133 106 115
0.325118 -0.161808 -0.526 213 195 207
0.327122 -0.161808 -0.526 225 219 231
0.32987 -0.161192 -0.524 199 198 206
0.330869 -0.161192 -0.524 181 180 188
0.340893 -0.159347 -0.518 137 106 114
0.347483 -0.159654 -0.519 136 105 113
0.393577 -0.164884 -0.536 174 119 116
0.397466 -0.163961 -0.533 162 107 104
0.432849 -0.167037 -0.543 149 100 96
0.461406 -0.173497 -0.564 142 99 92
0.46494 -0.17442 -0.567 145 101 92
0.112467 -0.14919 -0.482 198 156 144
0.12716 -0.143 -0.462 205 161 150
0.138 -0.142381 -0.46 208 165 156
0.144379 -0.141762 -0.458 203 159 148
0.163765 -0.14269 -0.461 165 115 108
0.168003 -0.14331 -0.463 163 114 107
0.18644 -0.146714 -0.474 126 80 82
0.252514 -0.167143 -0.54 95 60 64
0.256929 -0.16869 -0.545 63 41 44
0.281307 -0.169619 -0.548 107 77 87
0.30552 -0.164667 -0.532 125 95 105
0.3295 -0.1625 -0.525 222 216 228
0.410933 -0.165905 -0.536 139 83 82
0.122144 -0.144191 -0.463 210 166 155
0.139145 -0.142634 -0.458 205 162 153
0.151358 -0.142634 -0.458 186 144 128
0.155186 -0.142946 -0.459 183 137 124
0.16925 -0.144503 -0.464 158 107 103
0.213382 -0.155403 -0.499 97 58 59
0.217009 -0.156649 -0.503 97 61 61
0.233706 -0.162254 -0.521 118 77 81
0.273111 -0.174089 -0.559 113 100 109
0.274176 -0.174089 -0.559 95 79 90
0.280206 -0.171909 -0.552 89 68 77
0.287446 -0.167549 -0.538 119 89 99
0.300003 -0.165991 -0.533 128 98 106
0.313873 -0.164746 -0.529 161 140 149
0.316297 -0.164434 -0.528 127 100 109
0.322725 -0.164123 -0.527 127 97 105
0.32612 -0.163811 -0.526 233 223 231
0.406349 -0.166303 -0.534 138 83 86
0.412723 -0.167237 -0.537 135 82 78
0.41734 -0.16786 -0.539 139 83 82
0.453557 -0.173466 -0.557 148 103 100
0.135077 -0.14382 -0.459 207 164 155
0.144934 -0.143193 -0.457 201 157 146
0.177327 -0.146953 -0.469 145 97 93
0.185146 -0.148207 -0.473 128 82 84
0.204449 -0.15322 -0.489 103 64 65
0.2385 -0.1645 -0.525 119 73 75
0.26789 -0.174527 -0.557 54 44 52
0.276874 -0.17484 -0.558 101 89 101
0.2849 -0.168887 -0.539 115 85 97
0.293995 -0.167633 -0.535 114 93 98
0.298531 -0.16732 -0.534 130 109 116
0.324732 -0.165127 -0.527 162 141 148
0.336566 -0.16356 -0.522 179 163 173
0.344517 -0.16262 -0.519 133 106 111
0.349814 -0.163247 -0.521 84 65 71
0.35585 -0.165127 -0.527 38 28 36
0.393727 -0.168887 -0.539 171 124 118
0.398211 -0.16732 -0.534 152 103 99
0.464376 -0.177033 -0.565 154 108 108
0.126885 -0.145325 -0.461 205 161 150
0.146675 -0.144064 -0.457 194 150 139
0.189947 -0.150053 -0.476 124 80 81
0.196523 -0.15163 -0.481 112 70 72
0.224886 -0.160771 -0.51 116 74 76
0.234248 -0.163924 -0.52 118 76 77
0.258343 -0.17275 -0.548 46 31 34
0.273111 -0.176218 -0.559 58 48 57
0.279561 -0.175588 -0.557 71 58 75
0.281835 -0.172435 -0.547 100 80 89
0.2849 -0.169913 -0.539 112 84 96
0.287934 -0.169283 -0.537 116 90 99
0.28998 -0.169283 -0.537 115 92 98
0.293995 -0.168652 -0.535 109 97 101
0.304507 -0.167707 -0.532 127 104 112
0.317303 -0.166446 -0.528 132 105 110
0.333226 -0.16487 -0.523 220 217 226
0.394457 -0.170229 -0.54 167 122 116
0.412723 -0.169283 -0.537 137 83 81
0.419393 -0.169913 -0.539 148 93 96
0.443906 -0.173066 -0.549 154 106 106
0.457315 -0.176218 -0.559 162 116 118
0.119498 -0.146837 -0.463 207 165 153
0.12038 -0.146837 -0.463 206 164 152
0.13623 -0.144934 -0.457 198 154 143
0.149287 -0.144934 -0.457 187 141 126
0.15223 -0.145251 -0.458 184 138 123
0.162887 -0.146203 -0.461 163 113 106
0.170133 -0.147154 -0.464 154 103 99
0.180774 -0.149374 -0.471 138 90 86
0.188643 -0.150643 -0.475 125 79 81
0.189947 -0.15096 -0.476 124 80 81
0.19785 -0.152863 -0.482 111 70 74
0.283371 -0.171257 -0.54 107 81 90
0.285927 -0.17094 -0.539 113 87 96
0.28998 -0.170306 -0.537 115 94 99
0.30552 -0.16872 -0.532 127 106 115
0.311858 -0.167769 -0.529 209 190 196
0.323729 -0.167134 -0.527 121 100 107
0.337906 -0.165231 -0.521 132 117 124
0.339238 -0.164914 -0.52 129 106 112
0.340229 -0.164914 -0.52 129 106 112
0.395403 -0.173477 -0.547 112 88 88
0.412723 -0.170306 -0.537 135 82 78
0.413746 -0.170306 -0.537 137 84 80
0.110391 -0.152186 -0.477 198 155 146
0.112284 -0.148676 -0.466 205 162 153
0.11836 -0.1474 -0.462 204 162 150
0.125129 -0.147081 -0.461 208 164 153
0.13623 -0.145805 -0.457 199 155 144
0.1786 -0.149952 -0.47 143 95 91
0.181671 -0.150271 -0.471 140 92 88
0.26128 -0.176114 -0.552 44 29 36
0.281843 -0.173243 -0.543 98 81 89
0.317303 -0.168457 -0.528 127 100 105
0.322725 -0.168138 -0.527 129 99 107
0.34254 -0.165586 -0.519 133 106 111
0.396126 -0.174838 -0.548 107 83 83
0.410933 -0.17101 -0.536 134 80 80
0.422714 -0.171648 -0.538 171 123 113
0.424764 -0.171648 -0.538 164 118 105
0.109929 -0.152452 -0.475 199 155 146
0.154848 -0.146996 -0.458 178 130 118
0.158683 -0.147317 -0.459 169 119 110
0.16925 -0.148922 -0.464 158 107 103
0.172642 -0.149564 -0.466 151 102 97
0.177327 -0.150527 -0.469 148 98 97
0.182569 -0.151169 -0.471 136 90 90
0.189947 -0.152773 -0.476 122 80 81
0.22032 -0.16176 -0.504 111 71 72
0.224004 -0.163044 -0.508 114 74 75
0.285429 -0.173314 -0.54 109 89 98
0.294545 -0.17203 -0.536 125 133 136
0.304064 -0.171068 -0.533 161 153 166
0.324732 -0.169142 -0.527 216 196 205
0.334222 -0.167858 -0.523 221 218 227
0.336913 -0.167216 -0.521 176 169 177
0.337906 -0.167216 -0.521 137 122 129
0.396126 -0.175882 -0.548 100 78 80
0.39607 -0.172672 -0.538 165 116 109
0.403557 -0.171068 -0.533 136 83 79
0.422714 -0.172672 -0.538 170 121 114
0.469831 -0.182622 -0.569 140 100 98
0.110746 -0.150774 -0.467 204 157 151
0.128957 -0.148191 -0.459 207 163 152
0.132166 -0.147869 -0.458 207 163 154
0.151028 -0.147546 -0.457 181 135 122
0.163765 -0.148837 -0.461 166 113 107
0.177327 -0.15142 -0.469 150 100 99
0.193476 -0.154326 -0.478 117 79 78
0.2171 -0.161751 -0.501 108 68 69
0.227273 -0.16498 -0.511 116 74 76
0.252417 -0.174989 -0.542 48 33 36
0.279561 -0.179831 -0.557 65 60 66
0.280671 -0.179186 -0.555 65 54 60
0.281307 -0.176926 -0.548 88 75 82
0.281326 -0.175634 -0.544 98 83 90
0.298071 -0.172729 -0.535 113 127 140
0.29909 -0.172729 -0.535 95 109 122
0.300566 -0.172406 -0.534 102 109 125
0.303049 -0.172083 -0.533 180 177 188
0.316297 -0.170469 -0.528 126 103 113
0.318309 -0.170469 -0.528 128 103 109
0.321326 -0.170469 -0.528 126 101 107
0.325736 -0.170146 -0.527 227 220 228
0.335571 -0.168531 -0.522 232 231 239
0.34419 -0.167886 -0.52 136 110 119
0.346837 -0.168209 -0.521 135 112 122
0.350161 -0.168854 -0.523 97 75 87
0.354173 -0.169823 -0.526 44 33 39
0.396357 -0.173374 -0.537 163 114 109
0.398957 -0.172729 -0.535 150 100 93
0.400246 -0.172406 -0.534 139 90 86
0.402542 -0.172083 -0.533 137 86 83
0.448671 -0.177894 -0.551 157 113 110
0.109024 -0.154262 -0.475 202 155 149
0.114591 -0.149715 -0.461 207 158 153
0.117226 -0.149715 -0.461 211 162 155
0.130421 -0.148741 -0.458 213 166 156
0.131877 -0.148416 -0.457 210 163 153
0.1443 -0.147767 -0.455 198 149 144
0.14896 -0.148091 -0.456 190 144 131
0.163765 -0.149715 -0.461 167 112 107
0.168885 -0.150365 -0.463 161 108 102
0.183855 -0.153288 -0.472 135 92 86
0.187343 -0.153937 -0.474 124 80 79
0.215283 -0.162056 -0.499 104 68 68
0.234333 -0.168227 -0.518 112 73 74
0.26683 -0.180892 -0.557 48 33 40
0.268371 -0.181217 -0.558 49 39 47
0.282343 -0.175371 -0.54 105 86 92
0.297608 -0.174072 -0.536 114 123 132
0.304634 -0.173423 -0.534 202 206 217
0.324732 -0.17115 -0.527 233 213 225
0.330128 -0.170825 -0.526 222 222 230
0.39578 -0.175047 -0.539 168 118 111
0.39607 -0.174722 -0.538 165 116 111
0.396357 -0.174397 -0.537 161 112 107
0.399976 -0.173748 -0.535 145 95 86
0.401527 -0.173098 -0.533 139 88 85
0.402542 -0.173098 -0.533 136 85 82
0.421929 -0.174397 -0.537 168 119 115
0.433315 -0.175696 -0.541 150 105 100
0.4551 -0.180243 -0.555 149 105 102
0.458623 -0.181217 -0.558 149 105 102
-0.141762 -0.212333 -0.65 190 187 180
0.109433 -0.153207 -0.469 203 156 150
0.117226 -0.150593 -0.461 209 162 154
0.129549 -0.149613 -0.458 212 165 155
0.132457 -0.14896 -0.456 211 164 156
0.139659 -0.148307 -0.454 194 147 137
0.162533 -0.150267 -0.46 163 113 104
0.16588 -0.15092 -0.462 164 111 105
0.259757 -0.179993 -0.551 31 25 29
0.280671 -0.1813 -0.555 72 65 73
0.318309 -0.17248 -0.528 130 104 115
0.323337 -0.17248 -0.528 130 102 117
0.325736 -0.172153 -0.527 229 217 227
0.345845 -0.170193 -0.521 135 109 120
0.356867 -0.173133 -0.53 44 33 41
0.42966 -0.176073 -0.539 155 106 99
0.43802 -0.17738 -0.543 150 105 99
0.447043 -0.17934 -0.549 160 112 108
0.46051 -0.182607 -0.559 153 105 103
-0.140308 -0.213243 -0.649 190 190 182
0.110679 -0.152129 -0.463 203 156 148
0.132457 -0.149829 -0.456 210 166 157
0.1365 -0.1495 -0.455 196 149 139
0.13793 -0.149171 -0.454 199 152 142
0.141389 -0.149171 -0.454 196 148 138
0.148091 -0.149829 -0.456 189 142 132
0.168003 -0.152129 -0.463 158 108 101
0.222681 -0.165929 -0.505 106 67 68
0.231995 -0.169214 -0.515 108 69 70
0.263757 -0.182357 -0.555 44 33 39
0.26635 -0.182686 -0.556 52 39 46
0.280748 -0.181043 -0.551 82 69 79
0.295566 -0.176114 -0.536 126 136 145
0.311438 -0.174143 -0.53 186 162 175
0.329126 -0.172829 -0.526 224 223 231
0.341219 -0.170857 -0.52 105 88 98
0.423974 -0.176443 -0.537 163 114 107
0.124586 -0.151689 -0.459 205 161 150
0.127804 -0.151358 -0.458 205 161 152
0.132167 -0.150367 -0.455 208 164 155
0.135335 -0.150036 -0.454 201 154 144
0.137626 -0.149706 -0.453 199 152 142
0.15451 -0.151028 -0.457 169 121 111
0.156592 -0.151358 -0.458 166 116 107
0.168003 -0.15301 -0.463 157 107 100
0.189947 -0.157307 -0.476 120 80 80
0.208514 -0.162594 -0.492 102 68 66
0.213473 -0.164247 -0.497 102 67 65
0.231995 -0.170195 -0.515 108 69 70
0.26789 -0.184075 -0.557 71 61 70
0.268951 -0.184075 -0.557 71 61 70
0.270012 -0.184075 -0.557 72 62 71
0.277937 -0.184406 -0.558 88 89 93
0.280793 -0.18077 -0.547 97 80 90
0.281326 -0.179779 -0.544 98 81 91
0.282343 -0.178457 -0.54 104 87 95
0.291003 -0.177466 -0.537 92 99 107
0.306669 -0.176474 -0.534 124 131 141
0.316297 -0.174491 -0.528 122 100 112
0.358213 -0.175813 -0.532 47 34 43
0.396514 -0.178457 -0.54 162 113 108
0.406349 -0.176474 -0.534 138 84 82
0.408383 -0.176474 -0.534 139 85 85
0.423974 -0.177466 -0.537 163 113 106
0.431713 -0.178127 -0.539 153 102 98
-0.146489 -0.215715 -0.649 187 186 181
0.108077 -0.155222 -0.467 204 160 151
0.128983 -0.151566 -0.456 206 162 151
0.143118 -0.150901 -0.454 191 143 133
0.16588 -0.15356 -0.462 157 104 96
0.167121 -0.153892 -0.463 159 106 98
0.186047 -0.157216 -0.473 122 81 75
0.192566 -0.158878 -0.478 116 77 78
0.20403 -0.162202 -0.488 104 70 68
0.26635 -0.184804 -0.556 47 34 41
0.26741 -0.184804 -0.556 51 40 48
0.279059 -0.184804 -0.556 51 44 51
0.281324 -0.18015 -0.542 101 84 94
0.325736 -0.175165 -0.527 223 211 221
0.3315 -0.1745 -0.525 216 211 218
0.396445 -0.181812 -0.547 117 88 92
0.396343 -0.180815 -0.544 146 106 104
0.396649 -0.180483 -0.543 154 114 112
0.398403 -0.178489 -0.537 150 101 96
0.431713 -0.179153 -0.539 151 101 94
0.43274 -0.179153 -0.539 150 100 93
-0.147497 -0.216617 -0.648 189 186 179
0.107417 -0.156446 -0.468 201 157 148
0.107846 -0.155777 -0.466 203 159 150
0.112346 -0.153437 -0.459 204 160 149
0.115843 -0.153437 -0.459 205 161 150
0.121697 -0.153103 -0.458 204 160 147
0.16925 -0.155109 -0.464 157 104 96
0.174791 -0.156111 -0.467 146 98 88
0.179113 -0.15678 -0.469 140 93 83
0.202269 -0.162463 -0.486 106 73 66
0.20403 -0.163131 -0.488 105 71 69
0.220841 -0.168146 -0.503 105 70 68
0.247119 -0.178843 -0.535 47 32 37
0.273195 -0.186197 -0.557 69 59 67
0.301129 -0.178843 -0.535 173 172 186
0.306669 -0.178509 -0.534 171 173 186
0.314467 -0.177171 -0.53 187 169 181
0.324732 -0.176169 -0.527 210 190 201
0.325736 -0.176169 -0.527 206 189 199
0.3325 -0.1755 -0.525 160 147 156
0.341875 -0.174163 -0.521 121 100 109
0.344852 -0.174163 -0.521 134 111 121
0.365304 -0.180849 -0.541 53 42 50
0.419101 -0.179177 -0.536 153 102 98
0.422951 -0.179511 -0.537 164 114 107
-0.143572 -0.217515 -0.647 188 188 180
-0.141326 -0.217851 -0.648 190 190 182
-0.139071 -0.218188 -0.649 192 192 184
0.110597 -0.154311 -0.459 205 161 150
0.131876 -0.15263 -0.454 205 162 146
0.14194 -0.152294 -0.453 183 135 125
0.146577 -0.15263 -0.454 184 136 124
0.150367 -0.152967 -0.455 174 126 116
0.15625 -0.153639 -0.457 164 111 103
0.219446 -0.168768 -0.502 105 71 69
0.233881 -0.17381 -0.517 103 64 65
0.247581 -0.180198 -0.536 45 33 37
0.274823 -0.186922 -0.556 82 69 76
0.280805 -0.183224 -0.545 97 77 89
0.2849 -0.181207 -0.539 108 88 97
0.285927 -0.181207 -0.539 107 87 96
0.301129 -0.179862 -0.535 192 190 204
0.305651 -0.179526 -0.534 181 179 193
0.32612 -0.176836 -0.526 140 117 127
0.397894 -0.184569 -0.549 109 82 87
0.400449 -0.180534 -0.537 144 95 91
0.404314 -0.179526 -0.534 141 90 89
0.41808 -0.180198 -0.536 138 87 83
0.468094 -0.189275 -0.563 164 104 103
-0.143572 -0.218748 -0.647 191 188 181
0.126377 -0.154171 -0.456 202 159 142
0.127246 -0.154171 -0.456 203 160 143
0.139044 -0.152819 -0.452 190 140 131
0.145712 -0.153495 -0.454 183 130 124
0.150367 -0.153833 -0.455 171 121 112
0.162533 -0.155524 -0.46 159 106 98
0.182569 -0.159243 -0.471 131 93 82
0.184754 -0.159581 -0.472 123 84 77
0.222681 -0.170738 -0.505 106 71 69
0.232446 -0.174457 -0.516 102 66 66
0.25532 -0.1846 -0.546 46 33 42
0.264814 -0.187643 -0.555 60 44 54
0.265871 -0.187643 -0.555 59 43 53
0.280263 -0.185276 -0.548 88 73 80
0.281835 -0.18291 -0.541 101 86 93
0.296587 -0.181219 -0.536 203 203 213
0.30011 -0.180881 -0.535 205 203 216
0.305651 -0.180543 -0.534 182 179 190
0.323729 -0.178176 -0.527 127 104 112
0.33989 -0.176148 -0.521 131 108 118
0.397894 -0.185614 -0.549 102 77 83
0.396649 -0.183586 -0.543 156 117 118
0.412451 -0.180543 -0.534 147 91 90
0.433767 -0.182233 -0.539 153 100 94
0.106298 -0.15878 -0.467 201 157 154
0.11559 -0.15572 -0.458 208 165 149
0.118208 -0.15572 -0.458 206 163 147
0.119952 -0.15572 -0.458 205 164 146
0.12464 -0.15504 -0.456 205 162 145
0.125509 -0.15504 -0.456 204 161 144
0.129282 -0.15436 -0.454 195 152 135
0.138183 -0.15368 -0.452 192 144 132
0.153303 -0.15504 -0.456 168 118 109
0.159557 -0.15606 -0.459 166 113 107
0.163765 -0.15674 -0.461 157 105 92
0.183855 -0.16048 -0.472 127 89 76
0.187343 -0.16116 -0.474 125 86 81
0.242332 -0.17986 -0.529 47 36 40
0.259757 -0.18734 -0.551 54 40 53
0.269613 -0.18836 -0.554 67 52 57
0.28998 -0.18258 -0.537 132 131 139
0.294545 -0.18224 -0.536 164 169 175
0.306094 -0.18122 -0.533 203 197 209
0.311014 -0.18054 -0.531 164 144 156
0.32111 -0.17884 -0.526 120 101 107
0.3285 -0.1785 -0.525 125 101 114
0.333583 -0.17748 -0.522 124 102 114
0.398619 -0.187 -0.55 95 70 76
0.39695 -0.18428 -0.542 162 114 110
0.403033 -0.1819 -0.535 144 93 92
0.406349 -0.18156 -0.534 140 88 90
0.412451 -0.18156 -0.534 149 93 92
0.429089 -0.18258 -0.537 152 104 94
0.430912 -0.18292 -0.538 156 103 95
0.441123 -0.18462 -0.543 150 97 91
-0.141762 -0.222238 -0.65 193 190 181
0.117079 -0.15625 -0.457 205 162 146
0.122903 -0.155909 -0.456 207 164 148
0.123771 -0.155909 -0.456 206 163 147
0.130723 -0.154883 -0.453 204 161 145
0.138183 -0.154541 -0.452 192 144 132
0.139905 -0.154541 -0.452 188 140 130
0.149171 -0.155225 -0.454 175 122 114
0.159557 -0.156934 -0.459 165 112 104
0.18644 -0.162063 -0.474 128 87 81
0.213903 -0.170269 -0.498 104 69 63
0.215283 -0.17061 -0.499 103 68 62
0.28847 -0.183945 -0.538 90 79 87
0.313873 -0.180868 -0.529 133 112 121
0.32111 -0.179842 -0.526 127 101 110
0.322112 -0.179842 -0.526 127 101 110
0.3265 -0.1795 -0.525 131 105 114
0.3285 -0.1795 -0.525 132 106 115
0.330869 -0.179158 -0.524 132 106 115
0.399344 -0.18839 -0.551 90 65 71
0.397543 -0.184629 -0.54 164 116 112
0.411679 -0.182235 -0.533 148 95 91
0.425227 -0.183261 -0.536 166 113 109
0.463937 -0.190783 -0.558 155 111 100
-0.154664 -0.222445 -0.647 182 182 174
-0.150733 -0.222101 -0.646 187 184 177
-0.14278 -0.223132 -0.649 192 189 180
0.122034 -0.156777 -0.456 204 162 148
0.124367 -0.156433 -0.455 204 160 147
0.147117 -0.155746 -0.453 179 127 116
0.174417 -0.160215 -0.466 141 94 88
0.179113 -0.161247 -0.469 135 88 82
0.182181 -0.16159 -0.47 130 89 83
0.294071 -0.184626 -0.537 135 144 151
0.30711 -0.18325 -0.533 218 218 226
0.308991 -0.182563 -0.531 124 107 115
0.3235 -0.1805 -0.525 130 105 111
0.327874 -0.180156 -0.524 130 104 113
0.336913 -0.179125 -0.521 134 108 117
0.397379 -0.187032 -0.544 148 109 110
0.40017 -0.18497 -0.538 157 108 104
0.400449 -0.184626 -0.537 153 104 100
0.401471 -0.184626 -0.537 150 101 97
0.401745 -0.184282 -0.536 147 98 94
0.41652 -0.183594 -0.534 131 81 74
0.430111 -0.184626 -0.537 159 104 97
0.431937 -0.18497 -0.538 158 103 96
0.473823 -0.194596 -0.566 152 99 91
0.105849 -0.164906 -0.477 203 156 148
0.121767 -0.1573 -0.455 204 162 146
0.132156 -0.156263 -0.452 202 159 143
0.139044 -0.156263 -0.452 188 142 127
0.142488 -0.156263 -0.452 184 136 122
0.14421 -0.156263 -0.452 179 130 116
0.159905 -0.159029 -0.46 161 106 99
0.180007 -0.16214 -0.469 134 87 81
0.199592 -0.167326 -0.484 107 72 68
0.231911 -0.178734 -0.517 84 54 54
0.260229 -0.190834 -0.552 58 41 51
0.312866 -0.182883 -0.529 195 179 190
0.322112 -0.181846 -0.526 128 103 109
0.330869 -0.181154 -0.524 129 103 112
0.336267 -0.179771 -0.52 134 107 116
0.398415 -0.188069 -0.544 160 111 107
0.398571 -0.186686 -0.54 163 114 110
0.405071 -0.184957 -0.535 145 94 91
0.109245 -0.158862 -0.457 204 160 149
0.110115 -0.158862 -0.457 204 160 149
0.117433 -0.158167 -0.455 205 161 150
0.1235 -0.158167 -0.455 204 160 147
0.124958 -0.157819 -0.454 204 160 147
0.15538 -0.158862 -0.457 164 110 100
0.15625 -0.158862 -0.457 164 110 100
0.157465 -0.15921 -0.458 164 109 102
0.180007 -0.163033 -0.469 135 87 83
0.18644 -0.164771 -0.474 122 83 78
0.218925 -0.174852 -0.503 99 68 63
0.2263 -0.177633 -0.511 88 60 59
0.232809 -0.180414 -0.519 84 55 57
0.242237 -0.184586 -0.531 60 37 43
0.279774 -0.188757 -0.543 102 81 90
0.283896 -0.188062 -0.541 108 87 96
0.332944 -0.18111 -0.521 130 104 113
0.341219 -0.180762 -0.52 134 108 117
0.398415 -0.189105 -0.544 159 110 106
0.398279 -0.188062 -0.541 161 110 107
0.42829 -0.186324 -0.536 157 104 96
-0.160087 -0.226841 -0.649 181 180 175
0.104932 -0.16113 -0.461 198 155 146
0.105994 -0.160082 -0.458 200 156 145
0.110743 -0.159383 -0.456 203 159 148
0.111611 -0.159383 -0.456 204 160 147
0.1209 -0.159033 -0.455 205 164 146
0.130146 -0.157635 -0.451 205 161 148
0.16412 -0.16148 -0.462 154 101 95
0.1705 -0.162529 -0.465 143 92 88
0.181286 -0.164276 -0.47 133 85 83
0.207577 -0.171966 -0.492 106 71 67
0.21936 -0.17616 -0.504 96 65 60
0.229052 -0.180005 -0.515 83 54 56
0.26864 -0.192937 -0.552 76 55 62
0.293049 -0.187694 -0.537 104 108 119
0.29909 -0.186995 -0.535 163 172 181
0.308991 -0.185597 -0.531 128 111 119
0.319107 -0.18385 -0.526 131 102 107
0.325878 -0.18315 -0.524 129 104 110
0.340229 -0.181752 -0.52 131 108 116
0.351835 -0.184199 -0.527 58 45 52
0.40711 -0.186995 -0.535 147 96 92
0.442375 -0.189442 -0.542 145 94 90
0.456238 -0.192238 -0.55 148 97 94
0.479586 -0.198879 -0.569 142 97 94
0.109874 -0.160251 -0.456 204 160 147
0.11977 -0.159549 -0.454 205 164 146
0.122957 -0.159197 -0.453 203 160 143
0.12382 -0.159197 -0.453 203 160 143
0.14421 -0.158846 -0.452 177 128 114
0.207999 -0.173254 -0.493 103 70 63
0.218833 -0.177471 -0.505 93 64 58
0.253704 -0.192231 -0.547 59 43 54
0.271302 -0.193637 -0.551 81 58 64
0.275044 -0.192583 -0.548 90 67 75
0.289007 -0.18942 -0.539 109 92 102
0.298071 -0.188014 -0.535 114 127 135
0.311438 -0.186257 -0.53 191 175 186
0.315698 -0.185203 -0.527 126 103 111
0.336267 -0.182743 -0.52 129 106 114
0.424433 -0.188014 -0.535 156 103 97
0.42829 -0.188366 -0.536 151 98 92
0.469867 -0.1968 -0.56 145 99 101
-0.1505 -0.2279 -0.645 185 185 175
0.111367 -0.160767 -0.455 201 158 142
0.113967 -0.160767 -0.455 204 161 145
0.123547 -0.159707 -0.452 202 159 142
0.140454 -0.159353 -0.451 185 136 122
0.14421 -0.159707 -0.452 176 127 113
0.156592 -0.161827 -0.458 161 109 98
0.1705 -0.1643 -0.465 136 88 84
0.176949 -0.16536 -0.468 129 84 81
0.185146 -0.167127 -0.473 116 77 72
0.201757 -0.172073 -0.487 100 66 64
0.212006 -0.17596 -0.498 98 68 60
0.301583 -0.18868 -0.534 196 203 213
0.308991 -0.18762 -0.531 123 103 112
0.315291 -0.18656 -0.528 128 102 111
0.318105 -0.185853 -0.526 131 102 107
0.3185 -0.1855 -0.525 135 106 111
0.346176 -0.184793 -0.523 132 111 120
0.432157 -0.18974 -0.537 155 105 98
-0.154932 -0.228418 -0.643 182 182 174
0.109633 -0.161633 -0.455 202 159 143
0.115446 -0.161278 -0.454 204 161 144
0.119506 -0.160923 -0.453 204 163 145
0.12671 -0.160212 -0.451 200 157 140
0.1521 -0.161633 -0.455 159 111 99
0.158683 -0.163054 -0.459 152 102 91
0.167121 -0.164475 -0.463 143 96 90
0.174791 -0.165896 -0.467 129 84 81
0.202171 -0.173356 -0.488 99 65 63
0.210633 -0.176553 -0.497 98 69 61
0.246343 -0.191829 -0.54 70 44 53
0.27612 -0.19396 -0.546 94 72 75
0.27769 -0.193605 -0.545 101 80 87
0.293524 -0.190408 -0.536 206 204 217
0.323882 -0.186145 -0.524 129 102 109
0.3306 -0.185434 -0.522 134 109 115
0.400714 -0.195381 -0.55 124 91 98
0.400048 -0.192539 -0.542 161 112 107
0.40034 -0.192184 -0.541 161 112 107
0.414243 -0.190052 -0.535 142 92 83
0.416281 -0.190052 -0.535 157 107 98
0.436847 -0.191473 -0.539 139 89 82
0.461051 -0.196091 -0.552 148 105 99
-0.158607 -0.229643 -0.643 182 181 176
-0.155914 -0.229286 -0.642 184 181 174
-0.149503 -0.230714 -0.646 187 187 179
-0.148502 -0.231071 -0.647 188 188 180
0.121825 -0.161429 -0.452 203 160 144
0.122414 -0.161071 -0.451 204 161 145
0.130714 -0.160714 -0.45 195 152 136
0.140143 -0.160714 -0.45 180 134 118
0.147653 -0.161429 -0.452 162 112 101
0.157809 -0.163929 -0.459 158 103 96
0.1705 -0.166071 -0.465 136 88 84
0.174791 -0.166786 -0.467 126 85 81
0.181671 -0.168214 -0.471 123 82 80
0.192457 -0.171429 -0.48 107 72 68
0.235393 -0.188214 -0.527 75 53 56
0.240104 -0.190357 -0.533 68 47 54
0.266537 -0.197143 -0.552 81 56 62
0.271302 -0.196786 -0.551 86 61 67
0.27612 -0.195 -0.546 96 71 75
0.285429 -0.192857 -0.54 110 90 99
0.3205 -0.1875 -0.525 129 102 109
0.332944 -0.186071 -0.521 132 105 112
0.333936 -0.186071 -0.521 129 104 108
0.339238 -0.185714 -0.52 133 112 121
0.413224 -0.191071 -0.535 139 89 82
0.426471 -0.191071 -0.535 147 97 90
0.440743 -0.192857 -0.54 140 91 87
0.460216 -0.196786 -0.551 142 97 92
-0.153469 -0.230509 -0.642 183 183 175
0.110257 -0.163008 -0.454 203 160 144
0.123 -0.161571 -0.45 202 161 143
0.134143 -0.161571 -0.45 188 142 127
0.138429 -0.161571 -0.45 186 138 124
0.166239 -0.166239 -0.463 140 93 87
0.209687 -0.178447 -0.497 98 67 64
0.27612 -0.19604 -0.546 97 72 76
0.279774 -0.194963 -0.543 104 84 95
0.285429 -0.193886 -0.54 113 93 102
0.28798 -0.193527 -0.539 113 93 104
0.292026 -0.192809 -0.537 117 97 106
0.299549 -0.191731 -0.534 159 155 170
0.311858 -0.189936 -0.529 175 154 163
0.31328 -0.189577 -0.528 130 102 114
0.3185 -0.1885 -0.525 131 105 114
0.323882 -0.188141 -0.524 127 100 109
0.34452 -0.187423 -0.522 132 109 117
0.40034 -0.194245 -0.541 166 117 112
0.422395 -0.19209 -0.535 149 96 90
0.439927 -0.193527 -0.539 137 86 83
0.44465 -0.194245 -0.541 134 85 81
0.107033 -0.164233 -0.455 203 160 144
0.108528 -0.163872 -0.454 201 158 142
0.111122 -0.163872 -0.454 205 162 145
0.114329 -0.163511 -0.453 205 162 146
0.116054 -0.163511 -0.453 204 162 146
0.122143 -0.162429 -0.45 203 162 144
0.14389 -0.16279 -0.451 168 116 105
0.14475 -0.16279 -0.451 167 115 104
0.165357 -0.167121 -0.463 140 92 90
0.173902 -0.168565 -0.467 129 85 82
