ply
format ascii 1.0
comment Created by Open3D
element vertex 1286
property double x
property double y
property double z
property uchar red
property uchar green
property uchar blue
end_header
0.0651343 -0.356271 -0.459 87 68 70
0.23931 -0.44631 -0.575 201 208 224
0.321452 -0.44631 -0.575 194 201 219
0.4018 -0.445533 -0.574 122 125 144
0.403987 -0.445533 -0.574 196 203 221
0.41492 -0.445533 -0.574 142 162 195
0.417107 -0.445533 -0.574 156 179 213
0.43788 -0.445533 -0.574 150 154 157
0.45696 -0.447086 -0.576 215 212 219
0.517303 -0.447086 -0.576 146 152 164
0.521691 -0.447086 -0.576 170 170 178
0.527357 -0.44631 -0.575 165 168 173
0.531738 -0.44631 -0.575 163 163 171
0.497697 -0.389648 -0.502 171 129 107
0.49842 -0.385767 -0.497 176 132 107
0.508914 -0.378781 -0.488 180 133 107
0.509844 -0.378781 -0.488 179 132 106
-0.0282648 -0.325244 -0.418 185 149 115
-0.00426381 -0.316685 -0.407 190 145 114
0.000387619 -0.316685 -0.407 187 142 111
0.0169133 -0.321353 -0.413 164 116 94
0.0315248 -0.326022 -0.419 151 102 87
0.038181 -0.328356 -0.422 137 93 80
0.0407848 -0.329912 -0.424 128 92 78
0.0490733 -0.336915 -0.433 107 79 75
0.0529771 -0.340806 -0.438 101 76 72
0.0833333 -0.389048 -0.5 88 83 103
0.0882591 -0.398385 -0.512 154 174 207
0.22468 -0.446627 -0.574 126 152 189
0.238893 -0.446627 -0.574 200 206 222
0.239987 -0.446627 -0.574 204 210 224
0.327453 -0.446627 -0.574 190 200 225
0.337293 -0.446627 -0.574 154 165 183
0.33948 -0.446627 -0.574 186 192 214
0.34604 -0.446627 -0.574 204 207 214
0.416013 -0.446627 -0.574 133 157 185
0.440067 -0.446627 -0.574 203 204 208
0.469029 -0.448183 -0.576 93 109 135
0.475611 -0.448183 -0.576 179 177 198
0.483548 -0.447405 -0.575 64 109 174
0.49536 -0.448183 -0.576 128 148 185
0.500846 -0.448183 -0.576 175 183 196
0.505234 -0.448183 -0.576 176 176 176
0.508526 -0.448183 -0.576 187 185 198
0.515109 -0.448183 -0.576 138 145 161
0.524071 -0.447405 -0.575 175 175 183
0.525167 -0.447405 -0.575 169 169 177
0.527357 -0.447405 -0.575 166 169 176
0.508389 -0.410834 -0.528 147 113 101
0.49784 -0.395272 -0.508 164 124 99
0.496772 -0.391382 -0.503 171 129 107
0.49766 -0.389826 -0.501 171 126 103
0.510654 -0.378932 -0.487 180 133 107
0.512383 -0.378154 -0.486 179 132 106
0.543489 -0.380489 -0.489 149 110 77
-0.0292695 -0.32838 -0.421 185 149 113
-0.0189467 -0.31668 -0.406 191 151 116
-0.0019381 -0.31746 -0.407 186 143 109
0.00272 -0.31824 -0.408 181 136 105
0.00740095 -0.31902 -0.409 180 135 104
0.0097619 -0.3198 -0.41 175 132 100
0.0113514 -0.32058 -0.411 176 131 100
0.0153029 -0.32136 -0.412 168 122 96
0.0169133 -0.32214 -0.413 164 116 93
0.0298571 -0.32604 -0.418 150 103 87
0.0348829 -0.32838 -0.421 143 97 84
0.0472048 -0.33618 -0.431 110 82 71
0.0616943 -0.35334 -0.453 88 69 71
0.0867724 -0.39702 -0.509 167 178 208
0.226867 -0.44772 -0.574 123 147 185
0.414197 -0.44694 -0.573 134 159 190
0.418563 -0.44694 -0.573 112 146 192
0.432751 -0.44694 -0.573 102 118 151
0.457262 -0.4485 -0.575 181 182 184
0.51531 -0.4485 -0.575 106 117 135
0.527533 -0.44772 -0.574 164 167 174
0.536437 -0.44694 -0.573 44 60 86
0.503657 -0.4056 -0.52 150 113 97
0.522687 -0.37518 -0.481 170 125 94
0.53222 -0.37674 -0.483 168 124 89
0.534244 -0.37752 -0.484 166 122 87
0.54442 -0.38142 -0.489 148 112 80
-0.0173571 -0.316671 -0.405 190 150 115
-0.00966667 -0.317453 -0.406 191 151 115
0.0019381 -0.318235 -0.407 181 136 103
0.0225286 -0.32449 -0.415 160 113 93
0.0241676 -0.325272 -0.416 159 112 92
0.0266086 -0.326054 -0.417 154 107 89
0.0399771 -0.331528 -0.424 129 89 79
0.0435133 -0.333873 -0.427 117 84 75
0.05418 -0.34482 -0.441 95 74 71
0.0677571 -0.363586 -0.465 89 68 73
0.07314 -0.372969 -0.477 86 72 71
0.0759 -0.37766 -0.483 82 68 68
0.115347 -0.448813 -0.574 180 193 212
0.11644 -0.448813 -0.574 152 165 184
0.118627 -0.448813 -0.574 180 186 212
0.20246 -0.448031 -0.573 141 162 189
0.204643 -0.448031 -0.573 84 106 145
0.207917 -0.448031 -0.573 195 197 218
0.238477 -0.448031 -0.573 198 207 224
0.246117 -0.448031 -0.573 198 208 220
0.326883 -0.448031 -0.573 195 202 220
0.382546 -0.448031 -0.573 207 214 224
0.38582 -0.448031 -0.573 201 210 217
0.441483 -0.448031 -0.573 200 201 206
0.444757 -0.448031 -0.573 213 216 223
0.445849 -0.448031 -0.573 206 213 219
0.452093 -0.448813 -0.574 205 209 220
0.470405 -0.449595 -0.575 80 98 120
0.478071 -0.449595 -0.575 113 141 181
0.479167 -0.449595 -0.575 133 163 213
0.502167 -0.449595 -0.575 188 187 185
0.504357 -0.449595 -0.575 178 181 186
0.51332 -0.448813 -0.574 122 137 156
0.52316 -0.448813 -0.574 162 162 164
0.526614 -0.448031 -0.573 161 165 174
0.50843 -0.412064 -0.527 150 114 100
0.499809 -0.401117 -0.513 159 118 100
0.499807 -0.399553 -0.511 165 120 101
0.500116 -0.386261 -0.494 178 130 107
0.523603 -0.376096 -0.481 170 125 94
0.548517 -0.383915 -0.491 145 114 83
-0.0289219 -0.326065 -0.416 184 146 110
-0.00812 -0.318227 -0.406 194 151 117
-0.000387619 -0.31901 -0.407 182 139 105
0.0282648 -0.327632 -0.418 151 104 86
0.0391695 -0.332335 -0.424 129 91 78
0.0679029 -0.365255 -0.466 88 67 72
0.11842 -0.449123 -0.573 167 172 194
0.247209 -0.449123 -0.573 141 150 165
0.342163 -0.449123 -0.573 164 166 179
0.35573 -0.448339 -0.572 130 153 194
0.37643 -0.448339 -0.572 193 193 191
0.391684 -0.448339 -0.572 213 213 223
0.397131 -0.448339 -0.572 196 198 197
0.433086 -0.448339 -0.572 185 199 225
0.435265 -0.448339 -0.572 209 215 229
0.465213 -0.449907 -0.574 206 209 216
0.46931 -0.45069 -0.575 176 187 205
0.471773 -0.449907 -0.574 98 113 152
0.53098 -0.449123 -0.573 151 156 160
0.501749 -0.404446 -0.516 159 116 99
0.497697 -0.393472 -0.502 171 125 102
0.501057 -0.387202 -0.494 180 133 105
0.520854 -0.377012 -0.481 175 130 99
-0.0298571 -0.328429 -0.418 184 149 119
-0.0279267 -0.3245 -0.413 183 144 111
-0.0158143 -0.318214 -0.405 189 149 113
-0.0019381 -0.319786 -0.407 184 141 107
0.0209476 -0.326071 -0.415 164 116 93
0.0391695 -0.333143 -0.424 128 92 78
0.0482486 -0.340214 -0.433 107 80 73
0.220629 -0.449429 -0.572 108 133 174
0.232613 -0.449429 -0.572 116 140 176
0.321954 -0.449429 -0.572 194 197 212
0.324133 -0.449429 -0.572 177 185 198
0.341566 -0.449429 -0.572 152 157 179
0.45756 -0.451 -0.574 205 202 211
0.465213 -0.451 -0.574 208 213 219
0.475053 -0.451 -0.574 66 99 152
0.48708 -0.451 -0.574 70 106 166
0.49036 -0.451 -0.574 57 93 153
0.501511 -0.450214 -0.573 175 180 186
0.531143 -0.449429 -0.572 152 161 170
0.527291 -0.433714 -0.552 128 104 94
0.504648 -0.408571 -0.52 152 113 98
0.500786 -0.403071 -0.513 165 120 101
0.497526 -0.391286 -0.498 176 130 107
0.49842 -0.3905 -0.497 176 130 106
0.508799 -0.382643 -0.487 175 128 98
0.53498 -0.3795 -0.483 158 114 87
0.54108 -0.381857 -0.486 145 116 86
0.567671 -0.395214 -0.503 143 108 80
-0.0119571 -0.318986 -0.405 190 150 114
-0.0111857 -0.318986 -0.405 189 149 113
-0.0104143 -0.318986 -0.405 189 149 113
0.00272 -0.321349 -0.408 178 133 102
0.0113238 -0.322924 -0.41 166 120 94
0.0129171 -0.323711 -0.411 167 121 95
0.0161267 -0.325287 -0.413 168 120 97
0.0177 -0.325287 -0.413 165 117 94
0.023319 -0.326862 -0.415 158 112 88
0.040881 -0.334738 -0.425 116 83 74
0.0502438 -0.343402 -0.436 101 76 72
0.0788667 -0.385933 -0.49 90 80 78
0.350757 -0.44973 -0.571 132 152 185
0.352932 -0.44973 -0.571 114 143 187
0.379035 -0.44973 -0.571 211 215 218
0.448339 -0.450518 -0.572 161 170 185
0.456763 -0.451306 -0.573 186 188 200
0.4775 -0.451306 -0.573 65 99 163
0.50806 -0.451306 -0.573 154 157 162
0.509727 -0.38357 -0.487 181 136 107
0.526171 -0.378057 -0.48 171 127 92
0.528184 -0.378845 -0.481 170 126 91
0.553569 -0.388296 -0.493 144 111 80
-0.0304333 -0.327652 -0.415 187 147 112
-0.0204429 -0.319757 -0.405 190 150 115
-0.0188533 -0.318968 -0.404 190 150 114
-0.0119276 -0.318968 -0.404 191 151 115
0.0066219 -0.322915 -0.409 174 129 100
0.0097381 -0.322915 -0.409 169 123 97
0.0185314 -0.326863 -0.414 163 115 92
0.023319 -0.327652 -0.415 160 112 89
0.0266086 -0.329231 -0.417 156 110 87
0.0454571 -0.339495 -0.43 111 80 78
0.205016 -0.450818 -0.571 109 126 154
0.219155 -0.450818 -0.571 162 167 186
0.255047 -0.450818 -0.571 177 185 187
0.455671 -0.452397 -0.573 160 169 184
0.466861 -0.451608 -0.572 186 191 195
0.489741 -0.451608 -0.572 51 83 142
0.49192 -0.451608 -0.572 52 91 148
0.505877 -0.452397 -0.573 181 186 189
0.506084 -0.451608 -0.572 183 188 191
0.510442 -0.451608 -0.572 179 182 189
0.526951 -0.450818 -0.571 172 168 169
0.528039 -0.450818 -0.571 166 169 178
0.532543 -0.450029 -0.57 79 94 125
0.5085 -0.4145 -0.525 149 113 97
0.497697 -0.396341 -0.502 171 129 105
0.5053 -0.386077 -0.489 178 131 105
0.514592 -0.38055 -0.482 180 131 101
0.524343 -0.378971 -0.48 173 128 95
-0.00348 -0.32132 -0.406 178 133 102
-0.00116 -0.32132 -0.406 181 136 105
0.0097381 -0.323694 -0.409 169 123 97
0.0105429 -0.324486 -0.41 169 123 97
0.0208971 -0.327651 -0.414 163 115 92
0.0307267 -0.331609 -0.419 148 102 86
0.050359 -0.345854 -0.437 100 76 74
0.053461 -0.349811 -0.442 96 72 70
0.321914 -0.451114 -0.57 206 206 208
0.340371 -0.451114 -0.57 96 116 141
0.352314 -0.451114 -0.57 106 133 188
0.475577 -0.452697 -0.572 67 105 168
0.482114 -0.452697 -0.572 39 72 139
0.49083 -0.452697 -0.572 57 89 150
0.494099 -0.452697 -0.572 116 125 142
0.508263 -0.452697 -0.572 176 179 184
0.498653 -0.397297 -0.502 174 128 105
0.506231 -0.387009 -0.489 179 132 106
0.506126 -0.386217 -0.488 178 131 105
0.509606 -0.384634 -0.486 184 134 107
0.518106 -0.380677 -0.481 177 130 100
0.523429 -0.379886 -0.48 175 130 97
0.528914 -0.379886 -0.48 168 123 90
-0.00884952 -0.320507 -0.404 190 147 113
0.0153029 -0.326853 -0.412 165 117 94
0.0274029 -0.33082 -0.417 150 105 86
0.0588448 -0.357793 -0.451 89 69 68
0.118886 -0.4522 -0.57 114 133 175
0.206829 -0.4522 -0.57 123 140 170
0.243743 -0.4522 -0.57 107 121 160
0.318657 -0.4522 -0.57 179 184 190
0.479096 -0.452993 -0.571 47 87 148
0.487797 -0.452993 -0.571 101 142 196
0.488885 -0.452993 -0.571 111 144 187
0.489972 -0.452993 -0.571 109 142 185
0.517163 -0.452993 -0.571 181 182 186
0.498689 -0.399047 -0.503 172 126 103
0.500116 -0.391907 -0.494 176 129 103
0.501057 -0.391907 -0.494 175 129 103
0.50868 -0.38556 -0.486 185 135 110
0.512118 -0.383973 -0.484 176 126 99
0.5216 -0.3808 -0.48 162 117 86
0.533681 -0.381593 -0.481 163 119 90
-0.022701 -0.321276 -0.404 188 148 113
0.0208971 -0.329229 -0.414 164 118 94
0.0274029 -0.331614 -0.417 150 105 86
0.0357695 -0.33559 -0.422 132 92 80
0.0374657 -0.336386 -0.423 128 90 79
0.0400714 -0.337976 -0.425 120 86 76
0.0589752 -0.359448 -0.452 90 70 69
0.228543 -0.453286 -0.57 126 150 188
0.319182 -0.45249 -0.569 185 189 198
0.36145 -0.45249 -0.569 71 99 149
0.367953 -0.45249 -0.569 204 214 226
0.410222 -0.45249 -0.569 77 108 173
0.441652 -0.45249 -0.569 203 208 212
0.458431 -0.454081 -0.571 216 215 220
0.464957 -0.454081 -0.571 209 208 214
0.466045 -0.454081 -0.571 199 201 214
0.474746 -0.454081 -0.571 132 164 205
0.489114 -0.453286 -0.57 135 164 196
0.494543 -0.453286 -0.57 110 121 141
0.500043 -0.392052 -0.493 176 130 104
0.516114 -0.381714 -0.48 174 127 97
0.519771 -0.381714 -0.48 178 131 101
0.520686 -0.381714 -0.48 171 124 94
0.5405 -0.3841 -0.483 159 118 88
0.55094 -0.388871 -0.489 153 114 83
-0.0348829 -0.335597 -0.421 184 145 112
-0.0234705 -0.322046 -0.404 187 147 112
-0.00882762 -0.321249 -0.403 188 143 110
-0.00731048 -0.322046 -0.404 187 142 109
-0.000386667 -0.32364 -0.406 180 135 104
0.0161267 -0.32922 -0.413 165 117 94
0.0201086 -0.330017 -0.414 163 115 92
0.0208971 -0.330017 -0.414 163 117 94
0.0217381 -0.330814 -0.415 162 116 93
0.0266086 -0.332409 -0.417 149 104 85
0.0409771 -0.339583 -0.426 118 85 76
0.0599686 -0.361106 -0.453 89 69 68
0.0611 -0.3627 -0.455 88 68 67
0.0723829 -0.381034 -0.478 89 70 72
0.110007 -0.453574 -0.569 219 223 234
0.206466 -0.453574 -0.569 157 171 197
0.21622 -0.453574 -0.569 156 159 168
0.228142 -0.453574 -0.569 116 141 181
0.426811 -0.452777 -0.568 179 198 231
0.461971 -0.454371 -0.57 169 170 175
0.4826 -0.454371 -0.57 97 135 197
0.483686 -0.454371 -0.57 78 118 177
0.487172 -0.453574 -0.569 154 176 199
0.530674 -0.452777 -0.568 106 119 138
0.508555 -0.416906 -0.523 149 114 95
0.50274 -0.408934 -0.513 157 119 100
0.50269 -0.391397 -0.491 179 132 106
0.505196 -0.389006 -0.488 177 130 102
0.50843 -0.385817 -0.484 182 132 107
0.528531 -0.381034 -0.478 166 122 93
0.53643 -0.383426 -0.481 157 113 84
0.551871 -0.389803 -0.489 151 112 83
-0.0195257 -0.321217 -0.402 188 145 110
-0.0179943 -0.321217 -0.402 186 143 108
-0.014201 -0.322016 -0.403 186 143 109
-0.0126657 -0.322016 -0.403 189 146 112
0.00895905 -0.32681 -0.409 171 125 99
0.0153029 -0.329208 -0.412 164 116 93
0.0184867 -0.330007 -0.413 163 115 92
0.0201086 -0.330806 -0.414 162 114 91
0.0307267 -0.334801 -0.419 142 99 83
0.06482 -0.369959 -0.463 88 68 70
0.0798324 -0.396328 -0.496 88 77 85
0.231393 -0.454658 -0.569 170 184 213
0.256952 -0.453859 -0.568 140 143 148
0.262362 -0.453859 -0.568 206 208 220
0.318621 -0.453859 -0.568 176 182 194
0.453574 -0.454658 -0.569 214 215 219
0.455742 -0.454658 -0.569 215 214 220
0.472829 -0.455457 -0.57 178 193 214
0.475 -0.455457 -0.57 155 176 203
0.483686 -0.455457 -0.57 90 130 189
0.495843 -0.454658 -0.569 122 138 163
0.502346 -0.454658 -0.569 186 186 194
0.513364 -0.453859 -0.568 175 178 185
0.52851 -0.453859 -0.568 75 85 112
0.530674 -0.453859 -0.568 134 145 163
0.499423 -0.397926 -0.498 171 124 98
0.500043 -0.39393 -0.493 174 127 101
0.50184 -0.393131 -0.492 178 131 105
0.501755 -0.392332 -0.491 182 135 109
0.507633 -0.387538 -0.485 184 134 109
0.509352 -0.386739 -0.484 186 136 109
0.520513 -0.382744 -0.479 179 130 100
0.529442 -0.381945 -0.478 163 118 89
-0.0273857 -0.324386 -0.405 187 146 114
-0.0226448 -0.322784 -0.403 182 142 107
-0.0103371 -0.321983 -0.402 189 146 112
0.02496 -0.333196 -0.416 153 106 88
0.0257524 -0.333196 -0.416 149 104 85
0.0299286 -0.335599 -0.419 142 99 82
0.0307267 -0.335599 -0.419 141 98 82
0.0375543 -0.339604 -0.424 127 91 75
0.0410733 -0.342007 -0.427 117 83 74
0.0589752 -0.36203 -0.452 88 66 68
0.11109 -0.455742 -0.569 218 221 236
0.201775 -0.454941 -0.568 208 209 227
0.230987 -0.454941 -0.568 165 178 212
0.245051 -0.454941 -0.568 199 202 217
0.4293 -0.45414 -0.567 175 183 196
0.454658 -0.455742 -0.569 213 212 217
0.463329 -0.455742 -0.569 180 186 200
0.50343 -0.455742 -0.569 183 187 198
0.506872 -0.454941 -0.568 181 184 193
0.502727 -0.409287 -0.511 163 117 91
0.502506 -0.391666 -0.489 180 133 105
0.5152 -0.384457 -0.48 178 128 101
0.517029 -0.384457 -0.48 180 129 102
0.528334 -0.382054 -0.477 168 121 91
0.530352 -0.382855 -0.478 166 121 90
0.54326 -0.38686 -0.483 158 114 85
0.630643 -0.436519 -0.545 200 192 171
0.0464914 -0.346834 -0.432 109 79 77
0.0494133 -0.350046 -0.436 100 74 73
0.075601 -0.390991 -0.487 90 75 80
0.232069 -0.456023 -0.568 161 179 217
0.23856 -0.456023 -0.568 98 119 162
0.27162 -0.45522 -0.567 202 206 217
0.4131 -0.45522 -0.567 130 164 212
0.43146 -0.45522 -0.567 198 207 224
0.4347 -0.45522 -0.567 214 212 223
0.44226 -0.45522 -0.567 214 213 221
0.44334 -0.45522 -0.567 214 215 220
0.459269 -0.456023 -0.568 209 211 224
0.468748 -0.456826 -0.569 175 188 205
0.469831 -0.456826 -0.569 193 206 223
0.48067 -0.456826 -0.569 92 131 174
0.489562 -0.456023 -0.568 185 192 198
0.507954 -0.456023 -0.568 178 181 190
0.520971 -0.433543 -0.54 130 105 100
0.499524 -0.401429 -0.5 171 127 100
0.500186 -0.397414 -0.495 177 132 103
0.502506 -0.392597 -0.489 181 134 106
0.505786 -0.389386 -0.485 185 136 106
-0.00729238 -0.324319 -0.403 185 140 107
0.00582857 -0.328343 -0.408 172 125 97
0.0097619 -0.329952 -0.41 170 123 97
0.0113238 -0.329952 -0.41 167 120 94
0.0216857 -0.333171 -0.414 159 111 88
0.0392619 -0.342024 -0.425 124 88 74
0.20142 -0.4563 -0.567 205 209 218
0.23166 -0.4563 -0.567 136 163 210
0.2349 -0.4563 -0.567 153 173 210
0.23706 -0.4563 -0.567 70 88 128
0.385419 -0.455495 -0.566 214 217 226
0.416684 -0.455495 -0.566 100 135 177
0.474415 -0.457105 -0.568 115 144 174
0.480907 -0.457105 -0.568 106 140 178
0.492808 -0.457105 -0.568 183 191 202
0.50274 -0.4563 -0.567 185 184 192
0.50922 -0.4563 -0.567 174 177 186
0.51894 -0.4563 -0.567 160 161 166
0.52572 -0.4394 -0.546 124 105 99
0.507619 -0.418476 -0.52 146 113 98
0.501689 -0.408014 -0.507 165 126 97
0.500671 -0.406405 -0.505 168 127 99
0.510776 -0.38709 -0.481 176 129 99
0.513371 -0.386286 -0.48 178 132 99
0.533994 -0.384676 -0.478 165 118 90
0.538971 -0.386286 -0.48 163 116 88
0.539886 -0.386286 -0.48 159 114 85
-0.0322514 -0.32912 -0.408 186 145 113
-0.0249476 -0.325087 -0.403 187 147 112
-0.0172286 -0.32428 -0.402 188 145 111
-0.0156971 -0.32428 -0.402 185 145 109
-0.0103371 -0.32428 -0.402 183 140 106
-0.00654095 -0.325893 -0.404 181 136 103
-0.00192857 -0.3267 -0.405 182 137 104
0.0019381 -0.328313 -0.407 176 129 99
0.0121343 -0.33154 -0.411 169 122 96
0.0137 -0.33154 -0.411 166 118 95
0.0168724 -0.332347 -0.412 162 114 91
0.01932 -0.33396 -0.414 160 112 89
0.0495267 -0.352513 -0.437 95 75 74
0.0547943 -0.359773 -0.446 88 70 68
0.0759114 -0.39446 -0.489 88 76 78
0.261438 -0.456573 -0.566 170 181 199
0.406981 -0.456573 -0.566 194 202 221
0.412371 -0.456573 -0.566 135 170 212
0.437168 -0.456573 -0.566 212 210 221
0.45522 -0.45738 -0.567 214 213 221
0.47466 -0.45738 -0.567 107 134 164
0.478743 -0.458187 -0.568 113 147 184
0.479825 -0.458187 -0.568 108 138 176
0.4833 -0.45738 -0.567 93 126 161
0.48438 -0.45738 -0.567 99 132 167
0.48546 -0.45738 -0.567 112 129 149
0.48762 -0.45738 -0.567 174 184 193
0.48978 -0.45738 -0.567 194 199 203
0.505088 -0.456573 -0.566 182 185 202
0.523415 -0.456573 -0.566 102 107 127
0.524493 -0.456573 -0.566 129 134 154
0.527728 -0.456573 -0.566 163 167 178
0.509551 -0.421887 -0.523 142 109 100
0.508595 -0.420273 -0.521 143 111 96
0.504699 -0.414627 -0.514 157 118 103
0.499609 -0.404947 -0.502 169 125 100
0.499423 -0.40172 -0.498 172 127 96
0.500186 -0.3993 -0.495 178 131 105
0.507509 -0.390427 -0.484 176 130 97
0.524507 -0.383973 -0.476 170 124 91
0.52632 -0.383973 -0.476 171 122 90
1.02006 -0.45738 -0.567 136 137 129
-0.0289286 -0.327471 -0.405 188 147 115
-0.0179495 -0.324237 -0.401 188 145 111
-0.0156581 -0.324237 -0.401 188 145 111
-0.00957143 -0.325046 -0.402 187 142 109
-0.00347143 -0.327471 -0.405 180 137 103
0.0137 -0.332323 -0.411 165 118 92
0.0177 -0.33394 -0.413 161 113 90
0.0184867 -0.33394 -0.413 160 112 89
0.0332 -0.3396 -0.42 132 92 82
0.0527381 -0.358197 -0.443 91 70 67
0.226939 -0.457651 -0.566 73 110 178
0.236642 -0.457651 -0.566 188 194 226
0.370748 -0.456843 -0.565 210 212 227
0.378281 -0.456843 -0.565 209 212 219
0.384738 -0.456843 -0.565 214 214 226
0.412719 -0.456843 -0.565 136 169 214
0.413795 -0.456843 -0.565 143 176 221
0.415948 -0.456843 -0.565 124 156 197
0.419176 -0.456843 -0.565 166 187 218
0.432855 -0.457651 -0.566 134 154 191
0.44874 -0.45846 -0.567 217 218 223
0.44982 -0.45846 -0.567 215 213 218
0.45522 -0.45846 -0.567 215 215 225
0.4833 -0.45846 -0.567 103 128 158
0.489994 -0.457651 -0.566 186 196 205
0.4995 -0.45846 -0.567 92 103 131
0.5094 -0.457651 -0.566 162 165 182
0.514957 -0.456843 -0.565 152 158 174
0.520338 -0.456843 -0.565 76 95 125
0.504862 -0.392157 -0.485 178 131 101
0.513214 -0.387306 -0.479 175 129 93
0.517606 -0.386497 -0.478 179 133 99
0.525413 -0.38488 -0.476 170 124 90
0.529947 -0.38488 -0.476 166 120 87
0.53176 -0.38488 -0.476 164 118 85
0.533786 -0.385689 -0.477 163 117 84
0.998167 -0.456843 -0.565 151 152 144
1.0057 -0.456843 -0.565 132 133 127
1.01071 -0.457651 -0.566 123 124 118
1.01682 -0.45846 -0.567 111 112 106
1.03268 -0.459269 -0.568 104 105 100
1.03484 -0.459269 -0.568 103 104 99
-0.0320933 -0.329053 -0.406 189 146 112
-0.0304714 -0.328243 -0.405 189 146 112
-0.0272505 -0.326622 -0.403 192 149 117
-0.0110752 -0.325001 -0.401 182 137 106
-0.00423238 -0.327432 -0.404 181 134 104
0.01932 -0.335537 -0.414 157 109 86
0.0315248 -0.33959 -0.419 135 95 85
0.0429 -0.347694 -0.429 109 79 71
0.0732914 -0.39227 -0.484 87 72 77
0.0806371 -0.406049 -0.501 154 157 174
0.194252 -0.457919 -0.565 194 196 209
0.199633 -0.457919 -0.565 208 210 225
0.217929 -0.457919 -0.565 120 145 202
0.227614 -0.457919 -0.565 99 135 197
0.263129 -0.457919 -0.565 196 202 214
0.378281 -0.457919 -0.565 215 216 221
0.410567 -0.457919 -0.565 112 144 182
0.411643 -0.457919 -0.565 133 165 203
0.454417 -0.45873 -0.566 209 207 220
0.479213 -0.45873 -0.566 154 185 214
0.485682 -0.45873 -0.566 129 149 173
0.500775 -0.45873 -0.566 144 151 180
0.5085 -0.457919 -0.565 159 167 190
0.50064 -0.40848 -0.504 165 123 98
0.501378 -0.394702 -0.487 174 129 98
0.50646 -0.39146 -0.483 176 130 96
0.50738 -0.39146 -0.483 176 130 96
0.507248 -0.39065 -0.482 176 130 96
0.507111 -0.389839 -0.481 176 130 96
0.533573 -0.385787 -0.476 167 121 87
0.635833 -0.44171 -0.545 196 197 189
0.907771 -0.456298 -0.563 202 205 188
0.969969 -0.456298 -0.563 153 154 148
0.993465 -0.45873 -0.566 143 144 138
0.99738 -0.45954 -0.567 134 135 129
-0.0233543 -0.326577 -0.402 188 145 111
-0.00957143 -0.326577 -0.402 188 141 111
0.00270667 -0.329827 -0.406 173 128 99
0.00348 -0.329827 -0.406 170 125 96
0.00581429 -0.330639 -0.407 170 123 95
0.00738286 -0.331451 -0.408 172 125 97
0.0113238 -0.333076 -0.41 167 117 92
0.0374657 -0.343637 -0.423 125 87 76
0.0571267 -0.366384 -0.451 90 69 64
0.06292 -0.37532 -0.462 89 69 68
0.0734429 -0.394005 -0.485 85 73 77
0.0762219 -0.398879 -0.491 90 83 91
0.230843 -0.458995 -0.565 71 107 167
0.3572 -0.458183 -0.564 190 201 219
0.366869 -0.458183 -0.564 178 188 213
0.373314 -0.458183 -0.564 209 211 226
0.384057 -0.458183 -0.564 210 212 224
0.386206 -0.458183 -0.564 211 215 227
0.421657 -0.458183 -0.564 154 166 182
0.438846 -0.458183 -0.564 217 217 227
0.443929 -0.458995 -0.565 207 206 222
0.446081 -0.458995 -0.565 156 160 171
0.459808 -0.459808 -0.566 103 123 148
0.467354 -0.459808 -0.566 209 209 217
0.486976 -0.458995 -0.565 169 183 196
0.495586 -0.458995 -0.565 184 192 203
0.504195 -0.458995 -0.565 125 146 177
0.518186 -0.458995 -0.565 66 93 136
0.529086 -0.458183 -0.564 163 163 173
0.512474 -0.427312 -0.526 134 109 102
0.502698 -0.413502 -0.509 161 121 96
0.499367 -0.403753 -0.497 169 125 100
0.500186 -0.402129 -0.495 176 132 103
0.50554 -0.39238 -0.483 176 130 97
0.51139 -0.38913 -0.479 174 128 92
0.519067 -0.386693 -0.476 176 130 96
0.960949 -0.458183 -0.564 144 144 134
0.977293 -0.459808 -0.566 113 115 114
1.00483 -0.463057 -0.57 110 112 109
1.00877 -0.46387 -0.571 110 112 109
-0.0399771 -0.345257 -0.424 179 138 106
-0.020241 -0.326529 -0.401 191 146 113
-0.0179048 -0.325714 -0.4 189 145 110
-0.00269333 -0.328971 -0.404 179 134 101
0.00426381 -0.331414 -0.407 170 123 95
0.00503905 -0.331414 -0.407 170 123 95
0.00738286 -0.332229 -0.408 170 123 95
0.0184867 -0.3363 -0.413 158 107 86
0.0266086 -0.339557 -0.417 134 91 74
0.04588 -0.3534 -0.434 104 76 73
0.0642143 -0.378643 -0.465 89 69 68
0.0720705 -0.392486 -0.482 88 72 75
0.187463 -0.459257 -0.564 180 187 205
0.189611 -0.459257 -0.564 165 172 188
0.202503 -0.459257 -0.564 204 206 218
0.204651 -0.459257 -0.564 202 203 221
0.213246 -0.459257 -0.564 98 119 164
0.227211 -0.459257 -0.564 46 84 147
0.353977 -0.459257 -0.564 134 163 197
0.453614 -0.460071 -0.565 188 194 210
0.461148 -0.460071 -0.565 191 203 217
0.468681 -0.460071 -0.565 205 204 218
0.469757 -0.460071 -0.565 181 195 206
0.474062 -0.460071 -0.565 124 155 183
0.504377 -0.459257 -0.564 120 144 180
0.512971 -0.459257 -0.564 145 164 206
0.516194 -0.459257 -0.564 81 108 153
0.524109 -0.385971 -0.474 170 124 91
-0.0395057 -0.341984 -0.419 184 141 109
-0.0344981 -0.33219 -0.407 185 142 110
-0.0327857 -0.330557 -0.405 185 140 109
-0.020241 -0.327292 -0.401 190 145 112
-0.0133667 -0.327292 -0.401 185 140 107
0.00115714 -0.330557 -0.405 173 127 94
0.0224743 -0.337903 -0.414 152 106 83
0.04026 -0.348513 -0.427 114 81 72
0.19928 -0.460331 -0.564 200 206 220
0.369435 -0.459515 -0.563 208 205 224
0.376942 -0.459515 -0.563 209 212 227
0.404824 -0.459515 -0.563 174 185 191
0.411989 -0.460331 -0.564 158 181 222
0.41662 -0.459515 -0.563 120 150 188
0.438068 -0.459515 -0.563 186 193 209
0.450663 -0.460331 -0.564 185 188 207
0.456034 -0.460331 -0.564 124 142 166
0.464629 -0.460331 -0.564 208 211 216
0.502229 -0.460331 -0.564 71 96 136
0.513134 -0.459515 -0.563 113 137 185
0.515279 -0.459515 -0.563 67 95 145
0.528148 -0.459515 -0.563 165 163 176
0.506663 -0.421154 -0.516 148 111 95
0.501378 -0.397485 -0.487 178 133 102
0.505411 -0.393404 -0.482 179 133 100
0.538107 -0.388507 -0.476 161 116 85
0.540146 -0.389323 -0.477 159 116 84
0.53992 -0.388507 -0.476 160 117 85
0.893312 -0.458699 -0.562 183 184 176
0.979557 -0.467677 -0.573 113 115 112
-0.0263514 -0.328056 -0.401 186 143 111
-0.0248238 -0.328056 -0.401 189 146 114
-0.00804 -0.328874 -0.402 183 136 106
0.0241095 -0.33951 -0.415 139 94 73
0.0393543 -0.348509 -0.426 115 83 72
0.066979 -0.386141 -0.472 86 68 68
0.193565 -0.460588 -0.563 168 175 191
0.206433 -0.460588 -0.563 200 202 215
0.223591 -0.460588 -0.563 70 100 170
0.226809 -0.460588 -0.563 62 98 158
0.34906 -0.460588 -0.563 145 168 202
0.410186 -0.460588 -0.563 145 172 201
0.411258 -0.460588 -0.563 166 190 226
0.435923 -0.460588 -0.563 160 172 198
0.453081 -0.460588 -0.563 134 153 185
0.457109 -0.461406 -0.564 151 174 206
0.468926 -0.461406 -0.564 182 196 205
0.475371 -0.461406 -0.564 159 184 204
0.479669 -0.461406 -0.564 177 194 214
0.492759 -0.460588 -0.563 194 201 209
0.509917 -0.460588 -0.563 76 103 150
0.522786 -0.460588 -0.563 159 162 169
0.52493 -0.460588 -0.563 164 166 178
0.526003 -0.460588 -0.563 164 166 178
0.500426 -0.40823 -0.499 166 125 95
0.511232 -0.39105 -0.478 174 128 95
0.517253 -0.389413 -0.476 174 129 96
0.522303 -0.387777 -0.474 173 128 95
0.526607 -0.386959 -0.473 165 119 86
0.533137 -0.387777 -0.474 166 121 90
0.552234 -0.394322 -0.482 150 111 80
0.64012 -0.44668 -0.546 197 197 185
0.00660571 -0.33456 -0.408 170 120 95
0.0274029 -0.34194 -0.417 135 92 73
0.0393543 -0.34932 -0.426 117 83 73
0.0440229 -0.35424 -0.432 102 77 72
0.0518943 -0.36326 -0.443 92 73 69
0.0644905 -0.38294 -0.467 85 69 69
0.235388 -0.46166 -0.563 122 141 173
0.411598 -0.46084 -0.562 169 196 225
0.426585 -0.46084 -0.562 212 215 224
0.433008 -0.46084 -0.562 151 156 185
0.43729 -0.46084 -0.562 149 172 203
0.43943 -0.46084 -0.562 175 190 213
0.445574 -0.46166 -0.563 135 153 177
0.479669 -0.46248 -0.564 173 189 215
0.499193 -0.46166 -0.563 99 125 160
0.512223 -0.46084 -0.562 49 82 133
0.520787 -0.46084 -0.562 166 165 171
0.521857 -0.46084 -0.562 169 172 179
0.499029 -0.40344 -0.492 172 128 99
0.504493 -0.39524 -0.482 177 132 99
0.50774 -0.39278 -0.479 179 133 99
0.51544 -0.39032 -0.476 179 133 100
0.54264 -0.39032 -0.476 156 115 85
-0.02948 -0.330406 -0.402 180 136 101
-0.0179048 -0.328762 -0.4 185 140 107
-0.00650857 -0.330406 -0.402 175 128 98
-0.00574286 -0.330406 -0.402 175 128 98
-0.0042219 -0.331228 -0.403 175 128 98
0.00192857 -0.332871 -0.405 173 126 98
0.0121048 -0.336981 -0.41 166 116 91
0.0192733 -0.339447 -0.413 154 108 85
0.023319 -0.34109 -0.415 137 96 76
0.0385429 -0.350131 -0.426 116 83 74
0.0469219 -0.35835 -0.436 99 75 71
0.231758 -0.46191 -0.562 182 199 225
0.23711 -0.46191 -0.562 176 180 205
0.408387 -0.46191 -0.562 138 168 192
0.43836 -0.46191 -0.562 139 168 208
0.445853 -0.46191 -0.562 174 190 226
0.446924 -0.46191 -0.562 185 201 237
0.463805 -0.462732 -0.563 211 213 212
0.468094 -0.462732 -0.563 188 202 211
0.474529 -0.462732 -0.563 151 176 207
0.47989 -0.462732 -0.563 158 178 203
0.496166 -0.46191 -0.562 189 200 206
0.499193 -0.462732 -0.563 95 121 154
0.501518 -0.46191 -0.562 80 104 142
0.502589 -0.46191 -0.562 56 84 131
0.505671 -0.421637 -0.513 148 111 95
0.504657 -0.419171 -0.51 150 113 95
0.499029 -0.404377 -0.492 173 129 100
0.499885 -0.403555 -0.491 176 133 101
0.502899 -0.397802 -0.484 178 133 100
0.509411 -0.39287 -0.478 176 130 96
0.511232 -0.39287 -0.478 174 128 94
0.526392 -0.387939 -0.472 163 118 87
0.531111 -0.388761 -0.473 166 121 90
0.534715 -0.388761 -0.473 163 120 88
0.550857 -0.394514 -0.48 148 111 82
0.837867 -0.460267 -0.56 189 191 178
-0.0217143 -0.329524 -0.4 192 148 113
-0.0126029 -0.330348 -0.401 182 138 103
-0.00574286 -0.331171 -0.402 178 129 99
0.000384762 -0.332819 -0.404 175 125 98
0.0137 -0.338586 -0.411 162 114 91
0.0184867 -0.340233 -0.413 155 110 89
0.0208971 -0.341057 -0.414 150 105 84
0.0699429 -0.395429 -0.48 78 68 69
0.34782 -0.462157 -0.561 160 176 210
0.351026 -0.462157 -0.561 142 169 199
0.406591 -0.462157 -0.561 121 149 186
0.4301 -0.462157 -0.561 208 206 217
0.441854 -0.462157 -0.561 160 194 229
0.471545 -0.462981 -0.562 107 136 180
0.479038 -0.462981 -0.562 147 173 206
0.488672 -0.462981 -0.562 190 191 196
0.499557 -0.462157 -0.561 116 140 176
0.521997 -0.462157 -0.561 171 175 178
0.518279 -0.43909 -0.533 131 100 98
0.50362 -0.417671 -0.507 152 114 95
0.517071 -0.39131 -0.475 172 126 93
0.523003 -0.389662 -0.473 174 129 98
0.527071 -0.388014 -0.471 169 124 93
0.532686 -0.388838 -0.472 163 120 88
0.554989 -0.397076 -0.482 146 111 81
0.574888 -0.40861 -0.496 141 107 79
-0.0367333 -0.33524 -0.406 180 139 107
-0.0342438 -0.333589 -0.404 186 143 109
-0.0301705 -0.331111 -0.401 187 143 108
-0.0148571 -0.330286 -0.4 184 140 105
-0.00497714 -0.331937 -0.402 175 129 96
0.000384762 -0.333589 -0.404 174 124 97
0.0216857 -0.341846 -0.414 146 103 84
0.0672629 -0.391389 -0.474 86 70 71
0.080319 -0.416986 -0.505 109 129 179
0.186466 -0.463226 -0.561 192 194 206
0.224934 -0.463226 -0.561 99 131 178
0.449065 -0.464051 -0.562 95 120 176
0.452276 -0.464051 -0.562 78 111 162
0.456558 -0.464051 -0.562 202 205 212
0.468569 -0.463226 -0.561 104 136 177
0.480323 -0.463226 -0.561 107 136 176
0.48994 -0.463226 -0.561 191 195 196
0.496166 -0.464051 -0.562 190 195 199
0.502763 -0.463226 -0.561 52 83 130
0.522116 -0.444234 -0.538 120 103 96
0.508627 -0.42772 -0.518 142 109 102
0.506657 -0.424417 -0.514 148 112 98
0.49895 -0.405426 -0.491 174 130 101
0.499885 -0.405426 -0.491 175 131 102
0.499711 -0.403774 -0.489 176 132 103
0.510163 -0.393866 -0.477 174 128 95
0.51272 -0.39304 -0.476 178 132 98
0.520497 -0.391389 -0.474 174 127 97
0.526174 -0.388911 -0.471 167 122 89
0.527969 -0.388911 -0.471 168 123 90
0.53922 -0.390563 -0.473 156 116 81
0.54536 -0.39304 -0.476 153 112 80
0.552686 -0.396343 -0.48 146 110 78
0.830814 -0.463226 -0.561 162 162 152
0.832951 -0.463226 -0.561 157 157 147
0.857529 -0.463226 -0.561 127 127 119
-0.0375067 -0.336013 -0.406 180 140 104
-0.0358714 -0.335186 -0.405 181 141 106
-0.034159 -0.33353 -0.403 184 141 107
-0.0333914 -0.33353 -0.403 185 142 108
-0.00878381 -0.331875 -0.401 178 132 99
0.00503905 -0.336841 -0.407 169 119 94
0.0097381 -0.338496 -0.409 163 116 90
0.0184867 -0.341807 -0.413 149 104 83
0.0241095 -0.343462 -0.415 141 98 79
0.0543076 -0.371601 -0.449 91 72 68
0.3408 -0.463467 -0.56 191 199 212
0.3568 -0.463467 -0.56 205 211 223
0.419733 -0.463467 -0.56 188 199 219
0.426133 -0.463467 -0.56 207 210 217
0.444267 -0.463467 -0.56 124 157 208
0.45254 -0.464294 -0.561 95 128 179
0.462157 -0.464294 -0.561 211 214 221
0.463226 -0.464294 -0.561 209 212 219
0.466431 -0.464294 -0.561 182 185 200
0.471774 -0.464294 -0.561 101 133 180
0.483733 -0.463467 -0.56 81 118 162
0.505067 -0.463467 -0.56 38 72 133
0.506133 -0.463467 -0.56 38 72 133
0.521067 -0.463467 -0.56 164 168 171
0.512522 -0.433672 -0.524 134 103 98
0.499423 -0.402223 -0.486 177 133 106
0.505003 -0.39643 -0.479 176 131 98
0.508346 -0.394774 -0.477 173 128 95
0.52438 -0.389809 -0.471 171 125 92
0.548323 -0.394774 -0.477 150 111 78
0.554753 -0.398085 -0.481 148 112 80
0.827609 -0.464294 -0.561 132 132 124
0.834849 -0.46595 -0.563 129 129 121
0.850297 -0.466777 -0.564 122 122 114
-0.0414 -0.343423 -0.414 187 147 112
-0.0350133 -0.335128 -0.404 180 140 105
-0.0300952 -0.33181 -0.4 185 145 109
0.0241095 -0.344252 -0.415 140 97 78
0.0307267 -0.34757 -0.419 132 93 76
0.033279 -0.34923 -0.421 124 87 71
0.035939 -0.351718 -0.424 117 83 74
0.0394467 -0.354207 -0.427 111 81 70
0.0715952 -0.402319 -0.485 83 71 71
0.0774638 -0.413932 -0.499 79 111 160
0.2064 -0.464533 -0.56 97 116 149
0.208533 -0.464533 -0.56 149 166 194
0.444267 -0.464533 -0.56 121 157 215
0.457883 -0.465363 -0.561 206 205 210
0.479467 -0.464533 -0.56 86 123 178
0.492267 -0.464533 -0.56 192 198 196
0.506294 -0.463704 -0.559 37 69 130
0.518007 -0.463704 -0.559 154 162 175
0.522266 -0.463704 -0.559 163 166 173
0.505661 -0.424716 -0.512 145 111 99
0.499711 -0.405637 -0.489 176 132 107
0.50253 -0.399001 -0.481 177 132 101
0.504229 -0.398171 -0.48 178 133 100
0.517597 -0.392365 -0.473 174 128 95
0.547173 -0.394853 -0.476 150 111 78
0.803363 -0.463704 -0.559 158 157 152
0.830559 -0.467022 -0.563 118 118 110
0.836331 -0.467851 -0.564 122 122 114
0.851156 -0.46951 -0.566 123 124 116
0.86149 -0.468681 -0.565 119 120 112
0.870562 -0.46951 -0.566 117 118 110
-0.0333086 -0.334234 -0.402 181 141 106
-0.0110476 -0.332571 -0.4 182 136 102
-0.00574286 -0.334234 -0.402 178 132 99
-0.00191905 -0.335066 -0.403 173 124 94
-0.00115429 -0.335897 -0.404 174 125 95
0.0097381 -0.340054 -0.409 161 114 88
0.0216857 -0.344211 -0.414 145 102 83
0.029061 -0.347537 -0.418 133 96 78
0.0316 -0.3492 -0.42 127 90 74
0.0368333 -0.353357 -0.425 112 83 69
0.0386333 -0.35502 -0.427 110 82 71
0.0612924 -0.384951 -0.463 87 69 67
0.0649048 -0.390771 -0.47 86 68 66
0.06622 -0.393266 -0.473 84 68 68
0.0745029 -0.409063 -0.492 100 108 127
0.349774 -0.464769 -0.559 156 182 209
0.439214 -0.464769 -0.559 71 106 164
0.445603 -0.464769 -0.559 70 98 161
0.446668 -0.464769 -0.559 72 100 163
0.4688 -0.4656 -0.56 91 125 171
0.469867 -0.4656 -0.56 91 127 177
0.4944 -0.4656 -0.56 189 198 207
0.510553 -0.464769 -0.559 45 77 128
0.514812 -0.464769 -0.559 94 120 153
0.500133 -0.402411 -0.484 175 131 102
0.501614 -0.399917 -0.481 179 136 104
0.50253 -0.399917 -0.481 177 132 101
0.509254 -0.396591 -0.477 179 134 101
0.51508 -0.394097 -0.474 179 133 99
0.518498 -0.393266 -0.473 176 130 97
0.524162 -0.390771 -0.47 170 124 90
0.638229 -0.448971 -0.54 190 197 189
0.816923 -0.466431 -0.561 123 123 115
0.840375 -0.470589 -0.566 119 119 111
0.8451 -0.47142 -0.567 117 117 109
0.872556 -0.472251 -0.568 119 120 112
-0.0373219 -0.336667 -0.404 182 142 107
-0.01634 -0.3325 -0.399 184 138 104
-0.00725619 -0.334167 -0.401 180 134 101
-0.00497714 -0.335 -0.402 174 128 95
0.0176571 -0.343333 -0.412 151 104 84
0.0224743 -0.345 -0.414 142 102 77
0.0298571 -0.348333 -0.418 130 94 78
0.0404486 -0.3575 -0.429 107 79 75
0.0413619 -0.358333 -0.43 106 78 74
0.193254 -0.465833 -0.559 204 208 220
0.453056 -0.465833 -0.559 167 176 185
0.484999 -0.465833 -0.559 177 184 202
0.493517 -0.465833 -0.559 175 179 190
0.50964 -0.465 -0.558 50 83 134
0.516371 -0.441667 -0.53 124 100 90
0.515983 -0.395 -0.474 177 131 97
0.806604 -0.468333 -0.562 103 102 97
0.832829 -0.471667 -0.566 113 112 107
0.860429 -0.475 -0.57 122 123 115
0.864771 -0.475 -0.57 116 117 109
0.86759 -0.474167 -0.569 118 119 111
-0.02388 -0.332425 -0.398 192 148 113
-0.0208476 -0.332425 -0.398 183 139 104
0.00425333 -0.339107 -0.406 170 123 95
0.00736476 -0.339942 -0.407 162 115 89
0.00893714 -0.340777 -0.408 166 116 91
0.0144476 -0.342448 -0.41 156 108 85
0.0241095 -0.346624 -0.415 141 100 78
0.029061 -0.34913 -0.418 131 94 75
0.0307267 -0.349965 -0.419 128 92 76
0.0423771 -0.360823 -0.432 103 79 67
0.0461971 -0.364999 -0.437 99 77 66
0.0566419 -0.379198 -0.454 86 68 64
0.065181 -0.394232 -0.472 86 68 64
0.0779295 -0.41929 -0.502 95 128 173
0.3534 -0.466063 -0.558 119 145 182
0.357651 -0.466063 -0.558 206 209 214
0.395914 -0.466063 -0.558 215 213 216
0.430989 -0.466063 -0.558 213 218 222
0.477754 -0.466063 -0.558 82 125 193
0.484999 -0.466898 -0.559 162 177 206
0.486064 -0.466898 -0.559 169 184 213
0.493517 -0.466898 -0.559 145 144 158
0.511766 -0.466063 -0.558 40 76 126
0.514452 -0.44017 -0.527 124 102 89
0.499423 -0.405926 -0.486 178 133 104
0.50253 -0.40175 -0.481 179 132 102
0.51508 -0.395903 -0.474 176 130 97
0.8084 -0.471074 -0.564 101 102 97
0.827052 -0.47191 -0.565 119 119 111
0.846314 -0.476086 -0.57 122 121 116
0.849974 -0.476921 -0.571 119 118 113
0.868464 -0.476921 -0.571 119 120 112
-0.03002 -0.33402 -0.399 185 142 107
0.0160486 -0.344066 -0.411 154 108 85
0.0423771 -0.361646 -0.432 105 81 71
0.192909 -0.467126 -0.558 202 206 218
0.195034 -0.467126 -0.558 203 206 221
0.201411 -0.467126 -0.558 97 112 143
0.202474 -0.467126 -0.558 109 129 156
0.462874 -0.467126 -0.558 190 199 208
0.473503 -0.467126 -0.558 48 89 153
0.486257 -0.467126 -0.558 147 164 184
0.490509 -0.467126 -0.558 185 187 200
0.521458 -0.466289 -0.557 103 120 136
0.50002 -0.40434 -0.483 169 125 96
0.508929 -0.397643 -0.475 178 132 99
0.513092 -0.395969 -0.473 178 132 98
0.517402 -0.395131 -0.472 174 128 94
0.518301 -0.395131 -0.472 173 127 93
0.519894 -0.394294 -0.471 175 129 95
0.528171 -0.391783 -0.468 169 124 91
0.843057 -0.477171 -0.57 121 120 115
0.846711 -0.478009 -0.571 123 122 117
0.854043 -0.479683 -0.573 118 117 112
-0.0246381 -0.333941 -0.398 191 148 113
-0.0133 -0.33478 -0.399 183 137 104
-0.00038381 -0.338136 -0.403 174 124 97
0.00192857 -0.339814 -0.405 172 122 95
0.00502667 -0.340653 -0.406 167 120 94
0.0120752 -0.34317 -0.409 158 110 87
0.0241095 -0.348205 -0.415 142 99 82
0.0316752 -0.353239 -0.421 124 90 78
0.342157 -0.46735 -0.557 124 156 197
0.352767 -0.46735 -0.557 101 135 173
0.394144 -0.46735 -0.557 210 209 217
0.421729 -0.46735 -0.557 210 209 215
0.437643 -0.46735 -0.557 62 101 170
0.45012 -0.468189 -0.558 116 141 181
0.451183 -0.468189 -0.558 137 150 169
0.458862 -0.46735 -0.557 210 216 232
0.520224 -0.44889 -0.535 118 98 91
0.501477 -0.420363 -0.501 156 113 94
0.500349 -0.407777 -0.486 175 131 102
0.504859 -0.401065 -0.478 181 136 103
0.521476 -0.394352 -0.47 175 129 95
0.550548 -0.398548 -0.475 152 113 82
0.81665 -0.477418 -0.569 100 99 95
0.817734 -0.477418 -0.569 102 101 97
0.828943 -0.478257 -0.57 120 119 114
0.861405 -0.482452 -0.575 105 106 100
0.866467 -0.481613 -0.574 96 97 91
0.8932 -0.486648 -0.58 107 108 100
-0.0446619 -0.348995 -0.415 183 138 105
-0.00268 -0.338063 -0.402 171 122 92
-0.00115143 -0.338904 -0.403 173 124 94
0.00971429 -0.343109 -0.408 160 112 89
0.0160486 -0.345631 -0.411 154 107 87
0.0265448 -0.349836 -0.416 133 94 79
0.029061 -0.351518 -0.418 129 91 78
0.0368333 -0.357405 -0.425 113 83 73
0.0406371 -0.36245 -0.431 105 78 71
0.045261 -0.366655 -0.436 97 73 69
0.18938 -0.46841 -0.557 191 195 207
0.198929 -0.46841 -0.557 140 154 183
0.454618 -0.46841 -0.557 125 148 179
0.473715 -0.46841 -0.557 51 99 163
0.521196 -0.45075 -0.536 116 95 90
0.507646 -0.433931 -0.516 134 105 91
0.506636 -0.430568 -0.512 140 108 95
0.502521 -0.422999 -0.503 153 110 91
0.501486 -0.403657 -0.48 176 131 100
0.510566 -0.398611 -0.474 177 131 98
0.520581 -0.395248 -0.47 176 132 97
0.53149 -0.392725 -0.467 161 121 86
0.830397 -0.480184 -0.571 118 117 112
0.832941 -0.481025 -0.572 119 118 114
0.872357 -0.483548 -0.575 114 117 110
0.873027 -0.482707 -0.574 101 104 97
0.892095 -0.487752 -0.58 103 106 97
-0.0444467 -0.3481 -0.413 183 139 104
-0.0395324 -0.339671 -0.403 186 141 108
-0.0245762 -0.334614 -0.397 190 146 111
-0.0215514 -0.334614 -0.397 185 140 107
-0.00952381 -0.337143 -0.4 174 127 97
-0.00572857 -0.337986 -0.401 173 123 96
-0.00191429 -0.338829 -0.402 172 122 95
0.00192381 -0.340514 -0.404 172 122 95
0.00424286 -0.341357 -0.405 169 122 96
0.0208971 -0.348943 -0.414 145 100 81
0.0224743 -0.348943 -0.414 144 101 82
0.0387238 -0.360743 -0.428 108 79 71
0.05248 -0.3776 -0.448 88 70 68
0.0740143 -0.417214 -0.495 191 197 213
0.271646 -0.468629 -0.556 201 207 221
0.347897 -0.468629 -0.556 113 141 189
0.348956 -0.468629 -0.556 108 136 184
0.359547 -0.468629 -0.556 202 209 217
0.362724 -0.468629 -0.556 207 212 215
0.396613 -0.468629 -0.556 206 209 226
0.436857 -0.468629 -0.556 61 95 159
0.487508 -0.469471 -0.557 171 185 198
0.505695 -0.468629 -0.556 38 69 133
0.518404 -0.468629 -0.556 154 164 176
0.500313 -0.4189 -0.497 155 118 91
0.500186 -0.417214 -0.495 157 120 91
0.500043 -0.415529 -0.493 163 122 94
0.499966 -0.414686 -0.492 165 124 96
0.501486 -0.404571 -0.48 174 131 99
0.50409 -0.403729 -0.479 174 129 98
0.50562 -0.402043 -0.477 179 134 103
0.51039 -0.398671 -0.473 178 132 99
0.524606 -0.394457 -0.468 172 126 93
0.525914 -0.392771 -0.466 169 124 91
0.545014 -0.396986 -0.471 155 114 82
0.829293 -0.4838 -0.574 33 33 33
0.838763 -0.482957 -0.573 114 115 110
0.839854 -0.482957 -0.573 113 114 108
0.842037 -0.482957 -0.573 108 109 101
0.857417 -0.485486 -0.576 109 110 102
0.866599 -0.486329 -0.577 111 114 107
0.876069 -0.485486 -0.576 101 104 95
0.884184 -0.486329 -0.577 100 103 94
-0.0432371 -0.345508 -0.409 185 140 107
-0.03382 -0.33706 -0.399 186 143 109
-0.0298695 -0.33537 -0.397 189 146 111
-0.02382 -0.33537 -0.397 184 140 105
-0.008 -0.337905 -0.4 178 128 101
-0.00268 -0.339594 -0.402 171 121 96
0.00424286 -0.342129 -0.405 170 123 97
0.0308 -0.3548 -0.42 126 90 76
0.03692 -0.359869 -0.426 111 82 74
0.0443286 -0.367471 -0.435 97 76 71
0.0483 -0.37254 -0.441 91 70 67
0.0711086 -0.412244 -0.488 89 84 90
0.194335 -0.469688 -0.556 143 160 190
0.195394 -0.469688 -0.556 124 144 179
0.218693 -0.469688 -0.556 143 162 194
0.364842 -0.469688 -0.556 201 198 209
0.436857 -0.469688 -0.556 57 92 160
0.440034 -0.469688 -0.556 57 86 156
0.456979 -0.469688 -0.556 149 173 199
0.46651 -0.469688 -0.556 98 132 180
0.501459 -0.469688 -0.556 62 91 147
0.519586 -0.468843 -0.555 164 174 186
0.522169 -0.453637 -0.537 114 95 88
0.500116 -0.417312 -0.494 158 121 94
0.51858 -0.396193 -0.469 180 134 100
0.523485 -0.394504 -0.467 173 127 94
0.529465 -0.393659 -0.466 166 121 88
0.558577 -0.403796 -0.478 148 108 82
0.83328 -0.486583 -0.576 71 72 74
0.872505 -0.488272 -0.578 90 93 86
0.87759 -0.487428 -0.577 91 94 85
0.884615 -0.488272 -0.578 90 93 86
-0.0378086 -0.339513 -0.401 185 142 107
-0.0329771 -0.336973 -0.398 187 144 109
-0.0313819 -0.336127 -0.397 188 145 111
-0.027601 -0.336127 -0.397 187 144 110
-0.0199886 -0.33528 -0.396 183 138 105
0.0104914 -0.34544 -0.408 158 110 87
0.023319 -0.351367 -0.415 139 97 81
0.0291305 -0.354753 -0.419 128 90 79
0.0308733 -0.356447 -0.421 125 88 79
0.0424752 -0.366607 -0.433 102 77 72
0.0525971 -0.380153 -0.449 87 69 67
0.06854 -0.40894 -0.483 86 72 71
0.0757143 -0.423333 -0.5 135 161 196
0.353614 -0.4699 -0.555 159 185 220
0.422329 -0.4699 -0.555 187 199 215
0.427614 -0.4699 -0.555 84 108 152
0.431843 -0.4699 -0.555 88 125 169
0.446389 -0.470747 -0.556 62 98 160
0.467786 -0.4699 -0.555 107 148 202
0.495995 -0.471593 -0.557 191 196 200
0.497056 -0.471593 -0.557 194 199 203
0.509788 -0.471593 -0.557 31 72 136
0.51205 -0.470747 -0.556 63 100 144
0.501429 -0.423333 -0.5 156 114 92
0.4998 -0.414867 -0.49 166 127 98
0.51039 -0.400473 -0.473 179 132 102
0.511109 -0.399627 -0.472 181 134 104
0.525671 -0.3937 -0.465 167 122 91
0.536828 -0.395393 -0.467 161 116 85
0.541807 -0.397087 -0.469 161 117 88
0.846787 -0.485987 -0.574 101 102 94
0.863697 -0.489373 -0.578 105 106 98
0.8685 -0.49022 -0.579 89 91 88
0.871809 -0.49022 -0.579 88 90 85
0.885043 -0.49022 -0.579 36 37 29
0.888781 -0.491067 -0.58 98 99 93
-0.0385724 -0.340277 -0.401 183 139 104
-0.0260229 -0.336034 -0.396 182 143 102
0.00038381 -0.341974 -0.403 170 123 93
0.0334371 -0.358946 -0.423 118 86 75
0.0494743 -0.376766 -0.444 90 69 64
0.0547914 -0.384403 -0.453 84 69 66
0.3663 -0.470957 -0.555 144 159 180
0.420214 -0.470957 -0.555 158 173 194
0.421271 -0.470957 -0.555 187 202 223
0.438186 -0.470957 -0.555 59 86 153
0.445586 -0.470957 -0.555 70 110 172
0.480278 -0.471806 -0.556 102 145 188
0.482396 -0.471806 -0.556 85 122 164
0.507666 -0.472654 -0.557 66 105 164
0.528043 -0.470957 -0.555 115 114 128
0.499523 -0.413254 -0.487 162 123 94
0.499319 -0.411557 -0.485 170 131 102
0.501486 -0.407314 -0.48 174 129 98
0.503178 -0.406466 -0.479 177 132 101
0.51129 -0.401374 -0.473 169 123 90
0.523485 -0.396283 -0.467 172 125 95
0.846071 -0.487929 -0.575 101 102 94
0.850452 -0.487929 -0.575 70 71 63
0.858906 -0.489626 -0.577 101 102 94
-0.0484 -0.3572 -0.42 183 142 110
-0.0401 -0.341041 -0.401 184 141 107
-0.0328943 -0.337639 -0.397 187 143 106
-0.0207429 -0.336789 -0.396 181 137 102
-0.0192343 -0.336789 -0.396 184 138 105
0.00115143 -0.342742 -0.403 167 120 94
0.0104914 -0.346994 -0.408 156 108 86
0.0216857 -0.352097 -0.414 140 98 82
0.0484095 -0.37591 -0.442 91 70 65
0.0527143 -0.382714 -0.45 85 70 65
0.357198 -0.471164 -0.554 191 199 220
0.362474 -0.471164 -0.554 98 118 151
0.394131 -0.471164 -0.554 195 205 217
0.419457 -0.471164 -0.554 185 198 217
0.421568 -0.471164 -0.554 202 214 230
0.485386 -0.473715 -0.557 183 193 203
0.499178 -0.473715 -0.557 152 164 178
0.51352 -0.44565 -0.524 119 102 92
0.50256 -0.42864 -0.504 144 108 86
0.503803 -0.405677 -0.477 178 133 102
0.50876 -0.403126 -0.474 177 130 102
0.512717 -0.400574 -0.471 176 130 97
0.517 -0.399724 -0.47 176 130 97
0.516793 -0.398873 -0.469 176 130 97
0.530986 -0.395471 -0.465 162 117 86
0.541543 -0.398023 -0.468 159 115 86
0.555976 -0.403976 -0.475 143 109 81
0.561309 -0.406528 -0.478 137 107 81
0.855609 -0.490725 -0.577 63 64 58
0.877733 -0.493276 -0.58 124 127 120
0.883257 -0.493276 -0.58 93 96 89
0.891846 -0.494977 -0.582 96 99 92
-0.0435857 -0.345214 -0.405 184 144 109
-0.0192343 -0.337543 -0.396 183 137 104
-0.00947619 -0.339248 -0.398 179 130 100
0.0241676 -0.35459 -0.416 130 91 76
0.0258143 -0.355443 -0.417 128 91 75
0.0398162 -0.367376 -0.431 101 76 71
0.0444305 -0.371638 -0.436 94 73 70
0.197857 -0.472219 -0.554 180 195 226
0.364585 -0.472219 -0.554 81 117 167
0.413126 -0.472219 -0.554 119 162 215
0.425789 -0.472219 -0.554 193 206 222
0.438451 -0.472219 -0.554 55 86 151
0.458271 -0.473071 -0.555 210 217 227
0.465671 -0.473071 -0.555 121 154 189
0.466729 -0.473071 -0.555 111 144 179
0.4699 -0.473071 -0.555 103 140 185
0.490509 -0.475629 -0.558 201 204 213
0.49476 -0.475629 -0.558 170 171 166
0.496886 -0.475629 -0.558 168 169 173
0.499011 -0.475629 -0.558 159 159 167
0.502361 -0.474776 -0.557 127 128 133
0.508577 -0.475629 -0.558 146 147 151
0.520522 -0.473924 -0.556 159 159 159
0.518357 -0.452614 -0.531 112 98 89
0.500186 -0.421929 -0.495 159 119 94
0.499211 -0.412552 -0.484 172 131 103
0.505467 -0.405733 -0.476 177 132 103
0.50728 -0.405733 -0.476 181 134 106
0.508929 -0.404881 -0.475 178 131 103
0.514511 -0.401471 -0.471 176 130 97
0.517 -0.400619 -0.47 175 129 95
0.528076 -0.395505 -0.464 168 123 92
0.847543 -0.490971 -0.576 101 102 97
0.850834 -0.490971 -0.576 66 67 61
0.85451 -0.491824 -0.577 27 30 23
0.87482 -0.495233 -0.581 100 102 97
-0.0443571 -0.345986 -0.405 183 143 107
0.0058 -0.34684 -0.406 161 115 91
0.00971429 -0.348549 -0.408 154 107 87
0.0292 -0.3588 -0.42 123 87 75
0.0344048 -0.363071 -0.425 116 82 72
0.0361933 -0.36478 -0.427 110 81 75
0.347073 -0.47242 -0.553 80 117 170
0.372353 -0.47242 -0.553 51 83 142
0.39974 -0.47242 -0.553 91 124 165
0.421568 -0.473274 -0.554 202 209 219
0.426844 -0.473274 -0.554 201 210 227
0.454043 -0.474129 -0.555 200 213 221
0.461443 -0.474129 -0.555 207 217 229
0.485386 -0.475837 -0.557 155 167 179
0.493517 -0.477546 -0.559 170 170 170
0.494582 -0.477546 -0.559 171 171 171
0.498841 -0.477546 -0.559 172 173 175
0.500074 -0.476691 -0.558 173 174 176
0.510703 -0.476691 -0.558 168 169 171
0.51708 -0.476691 -0.558 167 167 169
0.525929 -0.474129 -0.555 149 148 146
0.521243 -0.457043 -0.535 112 98 89
0.51352 -0.447646 -0.524 118 102 89
0.499423 -0.415183 -0.486 168 126 101
0.499903 -0.411766 -0.482 174 131 99
0.528076 -0.396389 -0.464 167 122 89
0.530728 -0.396389 -0.464 165 120 87
0.542165 -0.398951 -0.467 157 114 80
0.843486 -0.495486 -0.58 120 119 117
0.853411 -0.492923 -0.577 30 33 26
0.865967 -0.49634 -0.581 101 106 100
0.878942 -0.498049 -0.583 113 115 112
0.878543 -0.497194 -0.582 115 117 114
0.887826 -0.498049 -0.583 99 101 96
-0.04524 -0.347613 -0.406 185 142 107
-0.0416276 -0.343332 -0.401 186 144 106
-0.04 -0.342476 -0.4 186 141 102
-0.0221952 -0.338195 -0.395 179 135 98
-0.0177257 -0.339051 -0.396 181 135 102
-0.0102343 -0.340764 -0.398 179 130 100
0.34286 -0.473473 -0.553 77 114 169
0.351287 -0.473473 -0.553 98 132 180
0.41554 -0.473473 -0.553 113 147 182
0.416593 -0.473473 -0.553 161 182 203
0.418402 -0.47433 -0.554 187 208 229
0.43423 -0.47433 -0.554 134 149 178
0.454043 -0.475186 -0.555 205 214 221
