ply
format ascii 1.0
comment Created by Open3D
element vertex 1293
property double x
property double y
property double z
property uchar red
property uchar green
property uchar blue
end_header
0.149114 -0.386528 -0.614 164 164 188
0.152623 -0.386528 -0.614 155 156 176
0.162883 -0.385898 -0.613 180 183 200
0.168446 -0.385269 -0.612 184 184 208
0.171943 -0.385269 -0.612 174 179 201
0.185931 -0.385269 -0.612 56 81 138
0.194091 -0.385269 -0.612 79 113 176
0.200757 -0.384639 -0.611 201 212 244
0.201921 -0.384639 -0.611 199 205 229
0.216695 -0.38401 -0.61 180 182 203
0.2318 -0.38401 -0.61 228 230 255
0.319055 -0.38275 -0.608 163 190 243
0.43326 -0.38338 -0.609 127 146 179
0.462659 -0.38275 -0.608 123 132 161
0.4727 -0.38338 -0.609 111 120 151
0.47386 -0.38338 -0.609 144 155 183
0.481189 -0.38275 -0.608 99 112 154
0.490453 -0.38275 -0.608 170 177 185
0.494271 -0.382121 -0.607 168 171 188
0.450209 -0.331759 -0.527 159 117 105
0.448644 -0.32987 -0.524 162 120 108
0.445089 -0.322946 -0.513 177 125 101
0.447247 -0.321687 -0.511 179 125 101
0.467889 -0.319169 -0.507 169 121 98
0.482287 -0.321687 -0.511 152 111 93
0.487076 -0.323575 -0.514 152 111 93
0.49284 -0.326093 -0.518 148 107 89
0.0424657 -0.316346 -0.501 204 159 136
0.0503 -0.317609 -0.503 195 152 133
0.05136 -0.31824 -0.504 190 149 129
0.0671143 -0.329606 -0.522 136 103 98
0.0696324 -0.332131 -0.526 131 101 99
0.0724533 -0.33592 -0.532 119 93 94
0.0769124 -0.342234 -0.542 110 87 95
0.0965743 -0.374437 -0.593 180 176 190
0.117346 -0.387066 -0.613 112 129 175
0.132525 -0.387066 -0.613 84 104 154
0.15471 -0.387066 -0.613 105 106 126
0.16817 -0.385803 -0.611 184 185 206
0.169334 -0.385803 -0.611 185 186 207
0.172826 -0.385803 -0.611 181 192 224
0.176317 -0.385803 -0.611 48 68 119
0.185628 -0.385803 -0.611 47 75 138
0.190283 -0.385803 -0.611 64 93 159
0.210886 -0.385171 -0.61 210 216 232
0.336427 -0.383909 -0.608 210 213 228
0.337585 -0.383909 -0.608 215 218 233
0.342217 -0.383909 -0.608 177 175 186
0.365379 -0.383909 -0.608 188 190 213
0.368853 -0.383909 -0.608 191 198 214
0.41981 -0.383909 -0.608 134 138 163
0.424442 -0.383909 -0.608 136 144 167
0.436023 -0.383909 -0.608 91 118 171
0.456869 -0.383909 -0.608 175 178 193
0.477714 -0.383909 -0.608 127 146 186
0.491959 -0.383277 -0.607 171 170 184
0.4572 -0.340971 -0.54 152 114 105
0.470786 -0.320134 -0.507 169 121 99
0.0424657 -0.3173 -0.501 201 159 135
0.0462829 -0.3173 -0.501 199 157 135
0.0503 -0.318567 -0.503 195 152 133
0.0930429 -0.3705 -0.585 173 163 174
0.125519 -0.388233 -0.613 57 71 120
0.1428 -0.3876 -0.612 167 165 186
0.171381 -0.386333 -0.61 181 182 202
0.178645 -0.386967 -0.611 78 96 142
0.185324 -0.386333 -0.61 44 75 140
0.195781 -0.386333 -0.61 77 112 180
0.2175 -0.3857 -0.609 193 193 203
0.330092 -0.384433 -0.607 131 154 188
0.387902 -0.384433 -0.607 197 200 217
0.389058 -0.384433 -0.607 192 203 221
0.412182 -0.384433 -0.607 178 183 205
0.420275 -0.384433 -0.607 139 145 171
0.429525 -0.384433 -0.607 188 191 208
0.430681 -0.384433 -0.607 179 182 199
0.480397 -0.384433 -0.607 57 84 139
0.496584 -0.384433 -0.607 97 115 161
0.456531 -0.340733 -0.538 154 114 106
0.457556 -0.340733 -0.538 154 114 106
0.446371 -0.323 -0.51 181 126 105
0.482314 -0.323 -0.51 157 111 95
0.042381 -0.317619 -0.5 204 158 134
0.0492438 -0.31889 -0.502 198 155 136
0.0822238 -0.353828 -0.557 108 87 94
0.123184 -0.389401 -0.613 48 66 116
0.152126 -0.388766 -0.612 131 138 164
0.153041 -0.38813 -0.611 119 126 152
0.165843 -0.38813 -0.611 176 185 200
0.173705 -0.387495 -0.61 139 149 174
0.174867 -0.387495 -0.61 91 103 151
0.19314 -0.38686 -0.609 90 125 189
0.19546 -0.38686 -0.609 64 94 154
0.20126 -0.38686 -0.609 207 214 233
0.20822 -0.38686 -0.609 217 217 241
0.214827 -0.386225 -0.608 224 222 244
0.227566 -0.386225 -0.608 225 228 247
0.33532 -0.384954 -0.606 217 216 230
0.350326 -0.384954 -0.606 212 215 234
0.35148 -0.384954 -0.606 202 205 224
0.356097 -0.384954 -0.606 190 192 213
0.368247 -0.38559 -0.607 195 197 212
0.371103 -0.384954 -0.606 101 127 164
0.384954 -0.384954 -0.606 198 203 223
0.396497 -0.384954 -0.606 170 177 206
0.413338 -0.38559 -0.607 155 161 193
0.429971 -0.384954 -0.606 174 176 191
0.45843 -0.38559 -0.607 166 167 187
0.475772 -0.38559 -0.607 105 134 194
0.48884 -0.384954 -0.606 172 177 183
0.458229 -0.343029 -0.54 156 114 102
0.45064 -0.332865 -0.524 166 119 113
0.461183 -0.32143 -0.506 190 135 114
0.028601 -0.324306 -0.509 206 164 140
0.0319686 -0.319209 -0.501 203 161 136
0.0357857 -0.319209 -0.501 205 161 136
0.0462829 -0.319209 -0.501 200 156 129
0.05136 -0.32112 -0.504 185 143 127
0.065001 -0.331951 -0.521 145 104 100
0.0701619 -0.337686 -0.53 119 94 100
0.11034 -0.390569 -0.613 97 111 146
0.147222 -0.389294 -0.611 154 152 174
0.155369 -0.389294 -0.611 150 151 169
0.176029 -0.388657 -0.61 81 92 137
0.19546 -0.38802 -0.609 108 131 183
0.23066 -0.386746 -0.607 225 227 248
0.3434 -0.386109 -0.606 192 197 217
0.3838 -0.386109 -0.606 193 199 221
0.384954 -0.386109 -0.606 194 200 222
0.390726 -0.386109 -0.606 188 193 213
0.410349 -0.386109 -0.606 169 185 219
0.411503 -0.386109 -0.606 156 172 206
0.41612 -0.386109 -0.606 82 100 148
0.453805 -0.386746 -0.607 182 180 185
0.45652 -0.386109 -0.606 182 182 190
0.457674 -0.386109 -0.606 178 181 200
0.459983 -0.386109 -0.606 144 157 191
0.490843 -0.372729 -0.585 145 116 112
0.447343 -0.324943 -0.51 179 126 108
0.448405 -0.324306 -0.509 183 127 110
0.460271 -0.321757 -0.505 185 133 112
0.466043 -0.321757 -0.505 178 126 102
0.5684 -0.369543 -0.58 156 138 124
0.0395238 -0.319524 -0.5 206 160 136
0.0626533 -0.331027 -0.518 151 106 101
0.145819 -0.389819 -0.61 173 171 192
0.146981 -0.389819 -0.61 171 169 190
0.183558 -0.388541 -0.608 74 118 181
0.1885 -0.38918 -0.609 63 103 173
0.207878 -0.388541 -0.608 214 219 238
0.209849 -0.387902 -0.607 222 223 244
0.213317 -0.387902 -0.607 223 220 239
0.329005 -0.386624 -0.605 144 153 184
0.341681 -0.386624 -0.605 201 207 233
0.3509 -0.386624 -0.605 179 187 200
0.358967 -0.386624 -0.605 191 201 228
0.382014 -0.386624 -0.605 156 178 215
0.384319 -0.386624 -0.605 193 199 221
0.385471 -0.386624 -0.605 201 203 216
0.393034 -0.387263 -0.606 184 190 204
0.394189 -0.387263 -0.606 186 192 206
0.406886 -0.387263 -0.606 94 116 165
0.411503 -0.387263 -0.606 142 164 203
0.422348 -0.386624 -0.605 191 194 209
0.429262 -0.386624 -0.605 182 182 194
0.433871 -0.386624 -0.605 97 123 172
0.44036 -0.387263 -0.606 104 133 177
0.443823 -0.387263 -0.606 110 131 178
0.45652 -0.387263 -0.606 182 182 190
0.482271 -0.386624 -0.605 160 181 212
0.484576 -0.386624 -0.605 173 175 188
0.49149 -0.386624 -0.605 174 171 178
0.0545629 -0.324963 -0.507 170 128 116
0.0568286 -0.326886 -0.51 169 126 110
0.0734067 -0.345473 -0.539 108 91 99
0.0849295 -0.364061 -0.568 112 92 103
0.111326 -0.392263 -0.612 65 86 133
0.133038 -0.390981 -0.61 73 87 136
0.14001 -0.390981 -0.61 173 172 188
0.196297 -0.389699 -0.608 189 207 243
0.202088 -0.389699 -0.608 184 195 225
0.20638 -0.389058 -0.607 220 223 238
0.208692 -0.389058 -0.607 215 221 237
0.363576 -0.387776 -0.605 198 205 215
0.368728 -0.387135 -0.604 141 156 179
0.381383 -0.387135 -0.604 145 163 201
0.384319 -0.387776 -0.605 191 202 230
0.386624 -0.387776 -0.605 201 207 223
0.393538 -0.387776 -0.605 180 182 195
0.409671 -0.387776 -0.605 145 170 224
0.410824 -0.387776 -0.605 132 157 211
0.443823 -0.388417 -0.606 110 134 180
0.461529 -0.387776 -0.605 152 166 203
0.463833 -0.387776 -0.605 91 121 171
0.477297 -0.388417 -0.606 35 68 139
0.477662 -0.387776 -0.605 57 90 161
0.492643 -0.387776 -0.605 171 178 197
0.494948 -0.387776 -0.605 100 123 164
0.449427 -0.332013 -0.518 164 120 107
0.448314 -0.326886 -0.51 177 128 111
0.46608 -0.32304 -0.504 177 126 105
0.0292219 -0.323357 -0.503 206 165 137
0.0328571 -0.321429 -0.5 206 162 135
0.0493419 -0.323357 -0.503 189 148 128
0.05136 -0.324 -0.504 179 137 123
0.0652505 -0.336214 -0.523 138 99 100
0.0783314 -0.354857 -0.552 105 82 90
0.15254 -0.3915 -0.609 175 174 190
0.1537 -0.3915 -0.609 176 175 191
0.16878 -0.3915 -0.609 173 178 200
0.169661 -0.390857 -0.608 148 157 186
0.180084 -0.390857 -0.608 111 129 153
0.184716 -0.390857 -0.608 95 137 195
0.21412 -0.389571 -0.606 229 226 235
0.372179 -0.388286 -0.604 126 150 194
0.387776 -0.388929 -0.605 188 191 198
0.39979 -0.388286 -0.604 78 107 165
0.406214 -0.388929 -0.605 77 112 168
0.420951 -0.387643 -0.603 193 192 208
0.432004 -0.388286 -0.604 94 125 171
0.434305 -0.388286 -0.604 104 130 181
0.435455 -0.388286 -0.604 101 127 178
0.446548 -0.388929 -0.605 98 120 167
0.466138 -0.388929 -0.605 49 85 145
0.470748 -0.388929 -0.605 38 71 138
0.491829 -0.388286 -0.604 170 176 202
0.497906 -0.387643 -0.603 79 107 172
0.485738 -0.369643 -0.575 148 115 106
0.46704 -0.324 -0.504 178 126 105
0.485229 -0.327857 -0.51 151 106 87
0.0375438 -0.321736 -0.499 205 161 134
0.0641314 -0.336566 -0.522 139 99 97
0.077 -0.354619 -0.55 106 83 93
0.14442 -0.39266 -0.609 176 175 191
0.14558 -0.39266 -0.609 176 175 191
0.170538 -0.39137 -0.607 104 114 149
0.212966 -0.390726 -0.606 224 223 239
0.219529 -0.390081 -0.605 228 227 243
0.34974 -0.388791 -0.603 118 139 186
0.376781 -0.389436 -0.604 131 160 202
0.384834 -0.389436 -0.604 197 206 215
0.388286 -0.389436 -0.604 157 161 162
0.39979 -0.389436 -0.604 62 92 152
0.402574 -0.388791 -0.603 72 110 172
0.431289 -0.388791 -0.603 87 120 165
0.434305 -0.389436 -0.604 95 125 179
0.442358 -0.389436 -0.604 89 122 176
0.45231 -0.390081 -0.605 183 186 203
0.458465 -0.389436 -0.604 175 178 195
0.490678 -0.389436 -0.604 174 175 195
0.497906 -0.388791 -0.603 71 101 163
0.498227 -0.388147 -0.602 59 89 151
0.462343 -0.348171 -0.54 158 118 108
0.449767 -0.332052 -0.515 169 123 107
0.4545 -0.325605 -0.505 174 123 104
0.46512 -0.32496 -0.504 176 124 103
0.468988 -0.324315 -0.503 169 118 99
0.4728 -0.32496 -0.504 164 116 96
0.495851 -0.332697 -0.516 146 111 92
0.0263648 -0.380887 -0.589 195 158 132
0.0630162 -0.336913 -0.521 140 102 101
0.09128 -0.38024 -0.588 187 176 180
0.11194 -0.39382 -0.609 138 151 185
0.123337 -0.393173 -0.608 68 91 143
0.126811 -0.393173 -0.608 122 144 193
0.138392 -0.393173 -0.608 151 160 193
0.140709 -0.393173 -0.608 171 173 196
0.146499 -0.393173 -0.608 176 175 189
0.331363 -0.38994 -0.603 176 188 210
0.332511 -0.38994 -0.603 138 150 172
0.350889 -0.38994 -0.603 73 103 163
0.37386 -0.38994 -0.603 128 150 197
0.375009 -0.38994 -0.603 123 154 200
0.395683 -0.38994 -0.603 123 146 190
0.404871 -0.38994 -0.603 45 84 149
0.4214 -0.389293 -0.602 185 187 202
0.468043 -0.38994 -0.603 27 61 133
0.475722 -0.390587 -0.604 23 61 132
0.480677 -0.38994 -0.603 104 131 174
0.495609 -0.38994 -0.603 73 104 161
0.496757 -0.38994 -0.603 61 92 149
0.5 -0.388 -0.6 45 74 134
0.456809 -0.342733 -0.53 157 118 101
0.450167 -0.330447 -0.511 172 125 105
0.452362 -0.328507 -0.508 174 126 104
0.45744 -0.32592 -0.504 179 128 109
0.462281 -0.325273 -0.503 179 126 108
0.476624 -0.326567 -0.505 166 118 96
0.505567 -0.338207 -0.523 147 109 88
0.0808209 -0.364497 -0.562 104 84 95
0.0824743 -0.367091 -0.566 111 91 102
0.11523 -0.394331 -0.608 117 128 160
0.116389 -0.394331 -0.608 93 108 147
0.118705 -0.394331 -0.608 82 103 150
0.122179 -0.394331 -0.608 84 106 156
0.137009 -0.393683 -0.607 89 101 139
0.138165 -0.393683 -0.607 124 136 174
0.141633 -0.393683 -0.607 174 172 186
0.174874 -0.393034 -0.606 189 196 215
0.185263 -0.393034 -0.606 120 146 195
0.206852 -0.392386 -0.605 216 218 239
0.362374 -0.391089 -0.603 199 209 221
0.3698 -0.39044 -0.602 105 136 183
0.3819 -0.391089 -0.603 114 137 179
0.405347 -0.39044 -0.602 67 101 175
0.422547 -0.39044 -0.602 186 189 208
0.42828 -0.39044 -0.602 109 133 171
0.449666 -0.391089 -0.603 167 179 203
0.484123 -0.391089 -0.603 54 73 115
0.491014 -0.391089 -0.603 84 95 123
0.474983 -0.360606 -0.556 149 117 102
0.4545 -0.3405 -0.525 159 122 104
0.471862 -0.326231 -0.503 171 120 99
0.47472 -0.32688 -0.504 171 120 101
0.49393 -0.333366 -0.514 145 110 90
0.569856 -0.374226 -0.577 127 109 109
0.0271971 -0.325889 -0.501 204 162 137
0.042381 -0.325238 -0.5 197 153 128
0.0515638 -0.329141 -0.506 169 132 114
0.0526314 -0.329791 -0.507 164 127 109
0.0537029 -0.330442 -0.508 161 124 106
0.0595781 -0.336296 -0.517 151 107 94
0.0645 -0.3415 -0.525 125 93 96
0.117353 -0.394839 -0.607 85 100 139
0.11851 -0.394839 -0.607 83 104 151
0.119666 -0.394839 -0.607 75 96 143
0.137009 -0.394839 -0.607 67 81 120
0.140477 -0.394839 -0.607 164 169 199
0.166794 -0.394189 -0.606 84 96 134
0.177183 -0.394189 -0.606 129 144 167
0.197633 -0.393538 -0.605 210 210 234
0.203059 -0.392888 -0.604 128 137 170
0.213413 -0.392888 -0.604 200 205 224
0.351453 -0.391587 -0.602 104 136 193
0.354893 -0.391587 -0.602 203 211 224
0.35948 -0.391587 -0.602 199 207 220
0.37033 -0.390936 -0.601 105 137 186
0.371475 -0.390936 -0.601 102 132 182
0.387 -0.391587 -0.602 194 197 216
0.392733 -0.391587 -0.602 190 196 218
0.412227 -0.391587 -0.602 117 147 197
0.416121 -0.390936 -0.601 172 178 204
0.417266 -0.390936 -0.601 177 183 209
0.426424 -0.390936 -0.601 183 185 206
0.453507 -0.391587 -0.602 163 172 189
0.461151 -0.392237 -0.603 93 111 157
0.488717 -0.392237 -0.603 168 171 190
0.495933 -0.391587 -0.602 41 70 126
0.491323 -0.376626 -0.579 146 116 108
0.46852 -0.35516 -0.546 156 124 103
0.457819 -0.344752 -0.53 155 119 105
0.452271 -0.337597 -0.519 164 125 108
0.450951 -0.333694 -0.513 168 125 108
0.47951 -0.32849 -0.505 164 117 99
0.488143 -0.331743 -0.51 153 112 90
0.5589 -0.36882 -0.567 137 113 103
0.564918 -0.372072 -0.572 142 118 108
0.570955 -0.375325 -0.577 108 114 128
0.0238933 -0.334019 -0.512 203 159 130
0.0560762 -0.334019 -0.512 158 115 99
0.131011 -0.395343 -0.606 164 170 192
0.148326 -0.395343 -0.606 183 182 200
0.158714 -0.395343 -0.606 187 186 204
0.171129 -0.39469 -0.605 195 200 220
0.215357 -0.393386 -0.603 143 154 186
0.356593 -0.392081 -0.601 200 206 220
0.387502 -0.392081 -0.601 193 200 218
0.388647 -0.392081 -0.601 192 199 217
0.395515 -0.392081 -0.601 172 189 217
0.428713 -0.392081 -0.601 70 99 143
0.43516 -0.392733 -0.602 44 88 161
0.439016 -0.392081 -0.601 44 86 158
0.465746 -0.393386 -0.603 32 63 130
0.47988 -0.392733 -0.602 88 108 167
0.487907 -0.392733 -0.602 169 172 189
0.46784 -0.354895 -0.544 150 119 98
0.453472 -0.330105 -0.506 177 130 110
0.466143 -0.327495 -0.502 180 126 102
0.47188 -0.327495 -0.502 172 124 104
0.47856 -0.3288 -0.504 164 119 100
0.0261905 -0.327143 -0.5 206 164 139
0.0355714 -0.325834 -0.498 205 161 136
0.042381 -0.327143 -0.5 196 151 128
0.0573857 -0.336957 -0.515 151 109 93
0.0766429 -0.363129 -0.555 107 85 97
0.111389 -0.396497 -0.606 157 162 194
0.122729 -0.395843 -0.605 77 94 138
0.123881 -0.395843 -0.605 75 92 136
0.135405 -0.395843 -0.605 103 114 144
0.168545 -0.395189 -0.604 198 205 224
0.170846 -0.395189 -0.604 192 200 219
0.176598 -0.395189 -0.604 119 140 161
0.352014 -0.393226 -0.601 189 200 230
0.360571 -0.392571 -0.6 201 207 223
0.373143 -0.392571 -0.6 67 107 168
0.388647 -0.393226 -0.601 189 201 217
0.400094 -0.393226 -0.601 38 76 149
0.411542 -0.393226 -0.601 68 98 162
0.437871 -0.393226 -0.601 44 86 160
0.44703 -0.393226 -0.601 87 105 141
0.459622 -0.393226 -0.601 44 79 145
0.470707 -0.39388 -0.602 16 61 126
0.473 -0.39388 -0.602 11 56 123
0.474147 -0.39388 -0.602 11 56 123
0.45114 -0.33434 -0.511 172 125 107
0.452437 -0.331723 -0.507 173 128 107
0.452509 -0.331069 -0.506 174 129 108
0.46423 -0.328451 -0.502 176 128 108
0.469011 -0.328451 -0.502 173 126 106
0.472836 -0.328451 -0.502 165 119 96
0.4988 -0.337611 -0.516 147 108 91
0.506611 -0.340883 -0.521 148 110 91
0.57514 -0.378831 -0.579 138 133 137
0.0237524 -0.38059 -0.58 197 160 134
0.0346229 -0.326783 -0.498 205 161 136
0.03652 -0.326783 -0.498 204 160 135
0.0433333 -0.328095 -0.5 192 150 126
0.0495381 -0.331376 -0.505 173 136 117
0.0562952 -0.337282 -0.514 152 113 98
0.0598086 -0.340563 -0.519 144 104 92
0.076781 -0.364842 -0.556 106 85 94
0.0834943 -0.375997 -0.573 132 115 125
0.0868733 -0.381247 -0.581 170 160 168
0.0885857 -0.383871 -0.585 169 164 170
0.122729 -0.396995 -0.605 84 97 141
0.143471 -0.396995 -0.605 148 152 181
0.144624 -0.396995 -0.605 156 160 189
0.175448 -0.396339 -0.604 146 168 192
0.177749 -0.396339 -0.604 114 136 160
0.1812 -0.396339 -0.604 148 163 194
0.20812 -0.395027 -0.602 164 177 209
0.361714 -0.393714 -0.6 197 200 231
0.378226 -0.393058 -0.599 96 130 191
0.388 -0.393714 -0.6 162 169 179
0.391429 -0.393714 -0.6 97 119 156
0.394857 -0.393714 -0.6 100 126 175
0.433714 -0.393714 -0.6 26 70 135
0.434857 -0.393714 -0.6 27 71 136
0.445143 -0.393714 -0.6 54 96 154
0.449714 -0.393714 -0.6 156 165 182
0.455429 -0.393714 -0.6 117 129 169
0.473359 -0.39437 -0.601 29 61 134
0.487096 -0.39437 -0.601 178 181 200
0.496885 -0.393058 -0.599 60 89 149
0.48225 -0.368779 -0.562 152 115 106
0.458103 -0.346469 -0.528 160 123 107
0.45114 -0.335313 -0.511 172 127 108
0.45648 -0.33072 -0.504 175 127 107
0.45749 -0.330064 -0.503 174 126 106
0.474749 -0.329408 -0.502 165 120 97
0.566106 -0.374685 -0.571 139 112 105
0.0243343 -0.329706 -0.501 204 164 138
0.0289314 -0.327731 -0.498 205 165 139
0.0374686 -0.327731 -0.498 201 159 134
0.0433333 -0.329048 -0.5 191 149 125
0.045419 -0.330364 -0.502 184 143 123
0.0507 -0.333654 -0.507 164 127 108
0.0664981 -0.350765 -0.533 114 89 93
0.0678933 -0.352739 -0.536 112 87 91
0.103138 -0.398148 -0.605 171 181 206
0.106595 -0.398148 -0.605 169 177 196
0.134252 -0.398148 -0.605 168 170 191
0.351984 -0.394199 -0.599 162 182 215
0.37138 -0.394199 -0.599 65 101 163
0.447429 -0.394857 -0.6 146 172 205
0.452 -0.394857 -0.6 165 170 189
0.457714 -0.394857 -0.6 153 164 196
0.472214 -0.395515 -0.601 24 58 130
0.486286 -0.394857 -0.6 175 176 194
0.488571 -0.394857 -0.6 175 178 193
0.492 -0.394857 -0.6 133 145 161
0.492069 -0.379063 -0.576 147 120 113
0.48074 -0.367875 -0.559 156 117 110
0.4522 -0.335629 -0.51 173 128 107
0.45333 -0.334312 -0.508 179 131 111
0.476661 -0.330364 -0.502 161 116 93
0.0288733 -0.32802 -0.497 204 164 138
0.0307667 -0.32802 -0.497 205 165 139
0.0403952 -0.32934 -0.499 197 152 129
0.045419 -0.33132 -0.502 181 140 120
0.0553162 -0.33924 -0.514 149 113 97
0.0565143 -0.34056 -0.516 146 110 98
0.0613829 -0.34584 -0.524 129 98 93
0.10872 -0.39864 -0.604 173 178 198
0.119074 -0.39864 -0.604 130 141 169
0.124827 -0.39864 -0.604 107 118 150
0.167117 -0.39798 -0.603 194 195 215
0.198616 -0.39666 -0.601 216 219 236
0.350843 -0.39534 -0.599 109 141 188
0.386212 -0.39534 -0.599 177 179 191
0.398763 -0.39534 -0.599 24 67 136
0.412905 -0.39468 -0.598 110 141 195
0.438696 -0.39534 -0.599 47 95 169
0.440978 -0.39534 -0.599 59 104 172
0.446683 -0.39534 -0.599 152 178 213
0.452388 -0.39534 -0.599 135 134 150
0.466857 -0.396 -0.6 24 67 135
0.472214 -0.39666 -0.601 31 65 136
0.475649 -0.39666 -0.601 35 72 140
0.494286 -0.396 -0.6 70 90 141
0.498333 -0.39468 -0.598 79 115 175
0.490597 -0.37818 -0.573 157 118 113
0.478357 -0.3663 -0.555 154 118 104
0.455462 -0.3333 -0.505 175 127 107
0.480485 -0.33198 -0.503 159 116 97
0.497854 -0.33858 -0.513 149 111 92
0.0206495 -0.387876 -0.586 200 174 157
0.0242371 -0.33029 -0.499 203 163 137
0.0615 -0.3475 -0.525 126 97 93
0.0668724 -0.354781 -0.536 112 87 90
0.07896 -0.373314 -0.564 104 81 87
0.0806019 -0.375962 -0.568 114 91 97
0.106419 -0.39979 -0.604 175 180 199
0.114283 -0.399129 -0.603 105 118 160
0.123676 -0.39979 -0.604 81 95 134
0.124827 -0.39979 -0.604 104 113 144
0.161374 -0.399129 -0.603 160 171 203
0.165693 -0.398467 -0.602 193 196 213
0.345701 -0.395819 -0.598 51 84 161
0.35823 -0.395819 -0.598 171 187 212
0.367343 -0.395819 -0.598 65 105 166
0.390124 -0.395819 -0.598 131 151 184
0.401514 -0.395819 -0.598 26 65 144
0.404931 -0.395819 -0.598 30 72 148
0.40607 -0.395819 -0.598 27 69 145
0.425434 -0.395819 -0.598 159 183 211
0.433408 -0.395819 -0.598 40 89 155
0.435686 -0.395819 -0.598 33 80 152
0.443659 -0.395819 -0.598 70 114 175
0.452388 -0.396481 -0.599 174 176 188
0.464938 -0.396481 -0.599 31 65 129
0.481714 -0.397143 -0.6 163 168 188
0.494916 -0.395819 -0.598 71 104 155
0.476823 -0.365371 -0.552 156 120 108
0.45333 -0.336248 -0.508 179 132 112
0.458449 -0.332938 -0.503 175 128 108
0.461397 -0.331614 -0.501 176 128 108
0.467143 -0.330952 -0.5 173 125 105
0.48817 -0.334924 -0.506 155 113 91
0.0217286 -0.336551 -0.507 202 160 135
0.042381 -0.331905 -0.5 193 149 124
0.0519714 -0.338543 -0.51 155 118 100
0.0555314 -0.342526 -0.516 145 109 95
0.0616171 -0.349164 -0.526 123 95 92
0.0656057 -0.354474 -0.534 115 89 90
0.0776095 -0.373061 -0.562 108 82 85
0.114093 -0.399613 -0.602 116 130 175
0.115431 -0.400277 -0.603 118 134 170
0.127853 -0.399613 -0.602 169 171 194
0.144146 -0.400277 -0.603 105 127 177
0.16684 -0.399613 -0.602 195 201 217
0.172573 -0.399613 -0.602 157 173 207
0.181445 -0.39895 -0.601 129 154 195
0.188 -0.398286 -0.6 126 149 190
0.191429 -0.398286 -0.6 179 188 219
0.194857 -0.398286 -0.6 219 218 236
0.201714 -0.398286 -0.6 210 213 228
0.366729 -0.396294 -0.597 76 116 178
0.371277 -0.396294 -0.597 39 87 159
0.372414 -0.396294 -0.597 34 82 154
0.38329 -0.396958 -0.598 186 194 215
0.390124 -0.396958 -0.598 151 157 173
0.400375 -0.396958 -0.598 32 71 148
0.408803 -0.396294 -0.597 68 105 175
0.43113 -0.396958 -0.598 64 103 170
0.437231 -0.396294 -0.597 52 96 167
0.443659 -0.396958 -0.598 62 106 167
0.458092 -0.397622 -0.599 161 168 176
0.488898 -0.397622 -0.599 176 178 199
0.464326 -0.354474 -0.534 158 120 109
0.45333 -0.337215 -0.508 179 134 115
0.455462 -0.335224 -0.505 178 131 113
0.460443 -0.332569 -0.501 177 130 110
0.494943 -0.338543 -0.51 154 112 90
0.0269257 -0.330194 -0.496 205 165 139
0.033539 -0.330194 -0.496 201 159 134
0.0355 -0.33086 -0.497 198 156 131
0.04656 -0.33552 -0.504 172 131 109
0.0498324 -0.338183 -0.508 165 128 110
0.055639 -0.344174 -0.517 142 109 94
0.112759 -0.400094 -0.601 99 116 162
0.119827 -0.40076 -0.602 130 140 176
0.12556 -0.40076 -0.602 124 130 162
0.129 -0.40076 -0.602 170 174 186
0.13266 -0.401426 -0.603 173 179 193
0.140467 -0.40076 -0.602 52 76 124
0.15308 -0.40076 -0.602 98 123 180
0.155373 -0.40076 -0.602 65 91 150
0.15996 -0.40076 -0.602 103 130 177
0.166563 -0.400094 -0.601 196 203 219
0.173431 -0.400094 -0.601 137 157 194
0.353083 -0.397431 -0.597 154 181 202
0.357631 -0.397431 -0.597 196 203 221
0.36218 -0.397431 -0.597 179 188 205
0.391746 -0.397431 -0.597 181 173 194
0.400843 -0.397431 -0.597 28 70 142
0.405391 -0.397431 -0.597 35 74 151
0.423586 -0.397431 -0.597 188 196 209
0.426997 -0.397431 -0.597 73 117 178
0.444054 -0.397431 -0.597 112 132 167
0.445191 -0.397431 -0.597 162 182 217
0.45505 -0.398097 -0.598 144 150 162
0.470996 -0.398097 -0.598 44 75 132
0.484665 -0.398097 -0.598 173 181 192
0.453883 -0.341511 -0.513 171 128 111
0.45552 -0.33552 -0.504 176 129 111
0.0199924 -0.341821 -0.512 199 162 133
0.0325943 -0.331139 -0.496 201 159 134
0.0345533 -0.331807 -0.497 198 156 131
0.0373933 -0.331807 -0.497 198 154 129
0.03834 -0.331807 -0.497 196 152 127
0.101311 -0.401239 -0.601 176 189 198
0.107035 -0.401239 -0.601 179 179 187
0.10818 -0.401239 -0.601 154 163 194
0.109325 -0.401239 -0.601 121 130 161
0.134733 -0.401907 -0.602 175 179 190
0.137027 -0.401907 -0.602 172 180 201
0.145053 -0.401907 -0.602 64 89 145
0.1462 -0.401907 -0.602 74 99 155
0.178857 -0.400571 -0.6 106 138 187
0.181143 -0.400571 -0.6 87 123 173
0.187687 -0.399904 -0.599 116 142 193
0.370655 -0.397901 -0.596 55 103 175
0.384278 -0.397901 -0.596 198 206 227
0.410389 -0.397901 -0.596 115 144 188
0.422876 -0.397901 -0.596 188 196 207
0.434229 -0.397901 -0.596 56 96 158
0.439905 -0.397901 -0.596 83 119 177
0.473274 -0.399236 -0.598 62 88 137
0.492126 -0.397901 -0.596 86 110 144
0.483934 -0.373199 -0.559 153 121 110
0.4595 -0.3505 -0.525 160 124 110
0.453973 -0.341821 -0.512 170 127 111
0.460406 -0.335145 -0.502 173 125 105
0.5584 -0.373867 -0.56 146 118 94
0.0183543 -0.391002 -0.584 203 174 156
0.0250362 -0.332084 -0.496 204 164 138
0.0619686 -0.354178 -0.529 117 93 91
0.0848057 -0.389663 -0.582 146 146 174
0.102286 -0.401714 -0.6 175 187 199
0.140467 -0.403053 -0.602 103 132 172
0.141613 -0.403053 -0.602 61 92 136
0.15855 -0.402384 -0.601 149 167 207
0.167429 -0.401714 -0.6 202 205 220
0.1797 -0.401045 -0.599 85 125 184
0.181982 -0.401045 -0.599 87 123 181
0.34795 -0.399036 -0.596 142 169 224
0.392225 -0.399036 -0.596 133 138 158
0.420606 -0.399036 -0.596 193 200 208
0.429688 -0.399036 -0.596 86 122 180
0.455798 -0.399036 -0.596 104 111 119
0.48954 -0.399706 -0.597 171 178 188
0.488263 -0.377611 -0.564 154 121 112
0.47389 -0.36489 -0.545 159 121 110
0.45749 -0.33677 -0.503 167 118 101
0.458493 -0.336101 -0.502 168 117 100
0.464286 -0.334762 -0.5 178 129 112
0.0205581 -0.337057 -0.502 204 163 135
0.0259286 -0.332357 -0.495 204 164 138
0.0287571 -0.332357 -0.495 201 161 135
0.0315857 -0.332357 -0.495 201 159 134
0.0466524 -0.339071 -0.505 164 126 105
0.0534619 -0.345786 -0.515 141 107 95
0.0570619 -0.349814 -0.521 135 102 97
0.0595 -0.3525 -0.525 122 94 90
0.148247 -0.403529 -0.601 53 82 148
0.149143 -0.402857 -0.6 54 84 154
0.159429 -0.402857 -0.6 180 193 227
0.171713 -0.402186 -0.599 178 193 216
0.178559 -0.402186 -0.599 104 136 187
0.356433 -0.3995 -0.595 171 172 177
0.381367 -0.3995 -0.595 193 199 221
0.4131 -0.3995 -0.595 135 151 166
0.418767 -0.3995 -0.595 188 198 208
0.431233 -0.3995 -0.595 109 141 198
0.44331 -0.400171 -0.596 150 167 195
0.450122 -0.400171 -0.596 184 190 206
0.451257 -0.400171 -0.596 183 189 205
0.46261 -0.400171 -0.596 131 150 182
0.469071 -0.400843 -0.597 152 168 194
0.487585 -0.400171 -0.596 177 179 192
0.455652 -0.345786 -0.515 167 124 107
0.454222 -0.341757 -0.509 168 122 106
0.492989 -0.339743 -0.506 152 111 89
0.495905 -0.341086 -0.508 147 106 84
0.504699 -0.345114 -0.514 154 114 89
0.0249352 -0.332627 -0.494 204 164 138
0.0278143 -0.3333 -0.495 204 162 137
0.0558543 -0.34946 -0.519 135 101 89
0.118286 -0.404 -0.6 65 90 144
0.125143 -0.404 -0.6 99 116 159
0.129714 -0.404 -0.6 175 177 202
0.143668 -0.404673 -0.601 54 81 134
0.411967 -0.400633 -0.595 94 112 132
0.430509 -0.39996 -0.594 130 162 211
0.4505 -0.400633 -0.595 186 189 204
0.452767 -0.400633 -0.595 179 183 192
0.483044 -0.401307 -0.596 169 174 193
0.485314 -0.401307 -0.596 169 172 187
0.493869 -0.39996 -0.594 93 116 160
0.466502 -0.358887 -0.533 152 119 104
0.456537 -0.34744 -0.516 165 123 107
0.46619 -0.336667 -0.5 164 115 98
0.47 -0.336667 -0.5 167 119 99
0.472857 -0.336667 -0.5 160 114 91
0.502735 -0.344747 -0.512 154 114 89
0.0287571 -0.334243 -0.495 204 162 137
0.0325286 -0.334243 -0.495 198 156 131
0.0354286 -0.334918 -0.496 197 153 128
0.048961 -0.343696 -0.509 154 117 98
0.0665886 -0.365979 -0.542 100 84 85
0.0998333 -0.404468 -0.599 179 186 205
0.114666 -0.404468 -0.599 66 92 153
0.117143 -0.405143 -0.6 53 83 137
0.125143 -0.405143 -0.6 99 118 161
0.128357 -0.404468 -0.599 173 173 201
0.129498 -0.404468 -0.599 178 178 206
0.132 -0.405143 -0.6 176 174 196
0.141378 -0.405818 -0.601 123 142 174
0.146857 -0.405143 -0.6 33 66 133
0.158022 -0.404468 -0.599 171 185 212
0.160304 -0.404468 -0.599 160 170 197
0.161175 -0.403792 -0.598 175 185 212
0.16801 -0.403792 -0.598 187 193 209
0.173705 -0.403792 -0.598 99 126 179
0.181374 -0.403117 -0.597 81 116 180
0.390909 -0.401091 -0.594 91 104 136
0.396566 -0.401091 -0.594 120 140 177
0.427114 -0.401091 -0.594 90 114 160
0.436166 -0.401091 -0.594 139 169 207
0.4554 -0.401091 -0.594 68 82 111
0.485633 -0.401767 -0.595 168 171 190
0.493675 -0.38421 -0.569 141 116 111
0.467143 -0.337619 -0.5 170 123 105
0.483333 -0.337619 -0.5 161 116 95
0.494916 -0.34167 -0.506 151 111 86
0.0249352 -0.334509 -0.494 203 163 137
0.0490571 -0.345343 -0.51 151 114 96
0.0696667 -0.372429 -0.55 104 85 89
0.0712286 -0.375137 -0.554 104 85 89
0.111057 -0.404931 -0.598 86 111 165
0.142286 -0.406286 -0.6 98 125 178
0.17114 -0.404254 -0.597 121 140 173
0.173414 -0.404254 -0.597 88 117 173
0.412841 -0.401546 -0.593 181 193 215
0.425266 -0.401546 -0.593 138 152 181
0.449743 -0.402223 -0.594 182 185 200
0.456531 -0.402223 -0.594 142 154 180
0.468633 -0.4029 -0.595 148 161 180
0.468394 -0.361594 -0.534 159 122 106
0.456726 -0.348051 -0.514 168 125 109
0.455334 -0.343311 -0.507 173 127 111
0.458449 -0.340603 -0.503 164 117 99
0.459489 -0.339249 -0.501 174 127 109
0.46619 -0.338571 -0.5 168 121 103
0.470961 -0.337894 -0.499 165 119 96
0.472862 -0.337894 -0.499 159 113 90
0.498808 -0.343989 -0.508 155 115 90
0.0186086 -0.340203 -0.501 206 162 135
0.0249352 -0.33545 -0.494 202 162 136
0.0268171 -0.33545 -0.494 204 162 137
0.0277581 -0.33545 -0.494 203 161 136
0.0456905 -0.342919 -0.505 160 122 103
0.126075 -0.40675 -0.599 129 145 181
0.13178 -0.40675 -0.599 148 152 177
0.134062 -0.40675 -0.599 79 92 126
0.145471 -0.40675 -0.599 35 69 133
0.158897 -0.40607 -0.598 66 97 152
0.161175 -0.40607 -0.598 75 102 155
0.173124 -0.404712 -0.596 80 110 170
0.347329 -0.402675 -0.593 82 113 168
0.348458 -0.402675 -0.593 93 124 179
0.356365 -0.402675 -0.593 200 210 220
0.39025 -0.402675 -0.593 87 102 133
0.395898 -0.402675 -0.593 112 123 141
0.401546 -0.402675 -0.593 110 126 160
0.404934 -0.402675 -0.593 165 182 202
0.406064 -0.402675 -0.593 144 156 178
0.411711 -0.402675 -0.593 85 105 132
0.419618 -0.402675 -0.593 191 198 208
0.423007 -0.402675 -0.593 187 195 208
0.428654 -0.402675 -0.593 111 139 179
0.43882 -0.402675 -0.593 86 118 159
0.453504 -0.402675 -0.593 114 125 155
0.468977 -0.403354 -0.594 170 178 197
0.474634 -0.403354 -0.594 163 170 188
0.476897 -0.403354 -0.594 166 173 201
0.50038 -0.401317 -0.591 71 100 144
0.494759 -0.386378 -0.569 146 117 109
0.47613 -0.369402 -0.544 154 118 104
0.4584 -0.34224 -0.504 172 125 107
0.461397 -0.340203 -0.501 180 131 114
0.461429 -0.339524 -0.5 178 131 113
0.464286 -0.339524 -0.5 172 125 107
0.487163 -0.340203 -0.501 154 112 87
0.491982 -0.341561 -0.503 153 113 87
0.0149143 -0.394952 -0.58 204 177 156
0.0221124 -0.33639 -0.494 206 162 133
0.030581 -0.33639 -0.494 199 158 130
0.0315219 -0.33639 -0.494 196 154 129
0.0515 -0.35069 -0.515 142 105 96
0.0589457 -0.360224 -0.529 121 91 89
0.0785762 -0.387462 -0.569 104 89 94
0.117891 -0.40721 -0.598 51 85 146
0.125865 -0.40721 -0.598 93 113 150
0.133838 -0.40721 -0.598 64 81 124
0.14295 -0.40721 -0.598 52 82 142
0.149785 -0.40721 -0.598 27 64 134
0.158897 -0.40721 -0.598 54 87 141
0.160906 -0.406529 -0.597 63 90 143
0.173124 -0.405848 -0.596 74 107 161
0.381699 -0.403124 -0.592 196 202 214
0.38621 -0.403124 -0.592 188 199 219
0.397028 -0.403805 -0.593 158 169 189
0.420038 -0.403124 -0.592 188 196 209
0.446727 -0.403805 -0.593 181 187 201
0.474634 -0.404486 -0.594 166 173 191
0.476897 -0.404486 -0.594 173 181 204
0.478029 -0.404486 -0.594 166 174 197
0.49841 -0.401762 -0.59 68 101 146
0.47029 -0.36431 -0.535 156 118 105
0.456232 -0.345924 -0.508 169 126 109
0.459489 -0.341157 -0.501 175 128 110
0.466209 -0.339795 -0.499 164 117 97
0.489071 -0.341157 -0.501 156 116 90
0.510586 -0.35069 -0.515 146 109 83
0.0325286 -0.338014 -0.495 195 153 128
0.0334714 -0.338014 -0.495 194 152 127
0.057719 -0.359866 -0.527 118 94 84
0.0947924 -0.406983 -0.596 107 126 166
0.106145 -0.406983 -0.596 88 106 142
0.108597 -0.407666 -0.597 68 95 148
0.113146 -0.407666 -0.597 47 76 134
0.12338 -0.407666 -0.597 58 80 138
0.14726 -0.407666 -0.597 39 72 139
0.149534 -0.407666 -0.597 31 65 136
0.159769 -0.407666 -0.597 127 151 195
0.385082 -0.404251 -0.592 194 199 218
0.402675 -0.404934 -0.593 155 167 189
0.415528 -0.404251 -0.592 146 160 186
0.424549 -0.404251 -0.592 151 159 180
0.431314 -0.404251 -0.592 114 147 190
0.432442 -0.404251 -0.592 107 138 182
0.43357 -0.404251 -0.592 107 138 182
0.454994 -0.404251 -0.592 178 183 202
0.456122 -0.404251 -0.592 173 182 191
0.472706 -0.404934 -0.593 179 182 197
0.48739 -0.404934 -0.593 170 175 197
0.488823 -0.404251 -0.592 155 162 188
0.499533 -0.402886 -0.59 68 100 147
0.461067 -0.355086 -0.52 161 121 111
0.45744 -0.34416 -0.504 171 125 109
0.4584 -0.34416 -0.504 174 128 112
0.458449 -0.343477 -0.503 168 123 104
0.459407 -0.343477 -0.503 169 124 105
0.47001 -0.340746 -0.499 166 121 100
0.472862 -0.340746 -0.499 165 120 97
0.473811 -0.340063 -0.498 169 124 101
0.0268171 -0.338272 -0.494 202 163 132
0.0469295 -0.347859 -0.508 153 111 95
0.082021 -0.395792 -0.578 90 95 127
0.0983629 -0.408803 -0.597 113 123 150
0.10728 -0.408118 -0.596 63 90 143
0.112009 -0.408803 -0.597 46 75 131
0.13112 -0.408118 -0.596 162 167 189
0.144986 -0.408803 -0.597 35 72 140
0.381054 -0.404694 -0.591 197 196 210
0.397486 -0.405379 -0.592 175 186 204
0.400869 -0.405379 -0.592 120 132 148
0.403124 -0.405379 -0.592 179 192 209
0.406946 -0.404694 -0.591 173 181 200
0.451611 -0.405379 -0.592 100 116 150
0.451974 -0.404694 -0.591 151 167 201
0.46176 -0.405379 -0.592 176 181 200
0.468188 -0.406064 -0.593 175 182 200
0.469317 -0.406064 -0.593 174 181 199
0.486568 -0.405379 -0.592 165 170 190
0.487695 -0.405379 -0.592 166 171 191
0.502052 -0.403325 -0.589 129 143 180
0.467914 -0.362924 -0.53 158 119 102
0.45713 -0.348544 -0.509 173 127 112
0.457328 -0.34649 -0.506 176 130 115
0.467171 -0.341011 -0.498 164 119 98
0.470017 -0.341011 -0.498 169 124 103
0.482349 -0.341011 -0.498 161 116 93
0.0147343 -0.39346 -0.573 198 162 136
0.0277581 -0.339213 -0.494 203 162 134
0.0344838 -0.340587 -0.496 189 147 122
0.0415114 -0.34402 -0.501 173 132 110
0.0493457 -0.35226 -0.513 144 106 95
0.0553943 -0.359813 -0.524 122 95 88
0.0713571 -0.3811 -0.555 106 86 88
0.104833 -0.408567 -0.595 113 131 169
0.117497 -0.409253 -0.596 53 87 148
0.134526 -0.409253 -0.596 133 149 185
0.144743 -0.409253 -0.596 34 72 137
0.153825 -0.409253 -0.596 123 152 208
0.388934 -0.40582 -0.591 183 202 235
0.39006 -0.40582 -0.591 193 197 222
0.391186 -0.40582 -0.591 187 191 216
0.401317 -0.40582 -0.591 166 172 186
0.4137 -0.40582 -0.591 73 92 124
0.427209 -0.40582 -0.591 87 110 151
0.458729 -0.40582 -0.591 162 167 170
0.468526 -0.406507 -0.592 179 185 197
0.496162 -0.405133 -0.59 79 111 168
0.499809 -0.404447 -0.589 74 100 149
0.464308 -0.342647 -0.499 173 128 109
0.47854 -0.341273 -0.497 164 119 96
0.480433 -0.341273 -0.497 165 120 97
0.484246 -0.34196 -0.498 162 117 94
0.485194 -0.34196 -0.498 159 117 95
0.504637 -0.349513 -0.509 147 107 82
0.0268171 -0.340154 -0.494 203 162 132
0.0459619 -0.349794 -0.508 150 110 98
0.0517 -0.355991 -0.517 134 100 91
0.0644048 -0.372517 -0.541 101 86 91
0.0714857 -0.382846 -0.556 106 86 88
0.0935 -0.4097 -0.595 128 142 179
0.1309 -0.4097 -0.595 178 186 205
0.150419 -0.410389 -0.596 37 67 131
0.160367 -0.4097 -0.595 197 205 218
0.182418 -0.408323 -0.593 113 152 207
0.388276 -0.406257 -0.59 184 201 229
0.405133 -0.406257 -0.59 184 196 210
0.438848 -0.406257 -0.59 153 168 199
0.444467 -0.406257 -0.59 85 94 123
0.457952 -0.406257 -0.59 140 144 145
0.482369 -0.406946 -0.591 114 125 153
0.486871 -0.406946 -0.591 155 168 200
0.491374 -0.406946 -0.591 110 134 180
0.498687 -0.405569 -0.589 31 63 122
0.4581 -0.350483 -0.509 164 125 108
0.464308 -0.343597 -0.499 177 130 112
0.466209 -0.343597 -0.499 173 126 108
0.467171 -0.342909 -0.498 169 122 102
0.470017 -0.342909 -0.498 170 123 103
0.470966 -0.342909 -0.498 168 121 101
0.4757 -0.34222 -0.497 169 123 100
0.476647 -0.34222 -0.497 165 119 96
0.033539 -0.342476 -0.496 192 148 123
0.0344838 -0.342476 -0.496 190 146 121
0.0482743 -0.353524 -0.512 141 104 96
0.065919 -0.37631 -0.545 102 85 91
0.0716143 -0.384595 -0.557 106 86 88
0.0730667 -0.386667 -0.56 105 85 87
0.0959276 -0.411524 -0.596 165 173 196
0.1207 -0.410833 -0.595 68 94 151
0.1309 -0.410833 -0.595 178 186 205
0.166605 -0.409452 -0.593 201 209 222
0.391648 -0.407381 -0.59 191 198 214
0.392771 -0.407381 -0.59 188 195 211
0.396143 -0.407381 -0.59 191 195 206
0.414124 -0.407381 -0.59 120 135 156
0.442219 -0.407381 -0.59 178 185 213
0.444467 -0.407381 -0.59 92 106 135
0.487171 -0.407381 -0.59 128 143 182
0.5012 -0.406 -0.588 76 103 156
0.461361 -0.356976 -0.517 160 123 107
0.458231 -0.350071 -0.507 173 130 114
0.493843 -0.345929 -0.501 149 111 90
0.575224 -0.390119 -0.565 180 162 150
0.0156514 -0.344806 -0.498 203 162 130
0.0173724 -0.341344 -0.493 202 161 131
0.0416771 -0.348268 -0.503 163 125 106
0.04272 -0.34896 -0.504 159 121 102
0.0471143 -0.353114 -0.51 143 103 93
0.0566076 -0.364192 -0.526 115 91 87
0.0730667 -0.387733 -0.56 106 86 88
0.110314 -0.411274 -0.594 63 89 148
0.112577 -0.411274 -0.594 71 100 156
0.118433 -0.411967 -0.595 71 102 159
0.125233 -0.411967 -0.595 173 180 199
0.1343 -0.411967 -0.595 177 184 203
0.1377 -0.411967 -0.595 136 145 174
0.138833 -0.411967 -0.595 101 130 186
0.153309 -0.411274 -0.594 112 135 185
0.156703 -0.411274 -0.594 178 185 211
0.38874 -0.407812 -0.589 193 200 210
0.39435 -0.407812 -0.589 188 198 210
0.398837 -0.407812 -0.589 186 192 206
0.408934 -0.407812 -0.589 186 195 204
0.411178 -0.407812 -0.589 178 187 202
0.415666 -0.407812 -0.589 121 135 164
0.447079 -0.407812 -0.589 162 175 192
0.448201 -0.407812 -0.589 169 182 199
0.473686 -0.408505 -0.59 168 177 186
0.4584 -0.34896 -0.504 173 127 111
0.460443 -0.346883 -0.501 174 127 109
0.462407 -0.345498 -0.499 176 129 111
0.469069 -0.344806 -0.498 172 126 103
0.470966 -0.344806 -0.498 170 124 101
0.477577 -0.343421 -0.496 169 123 100
0.479467 -0.343421 -0.496 166 120 97
0.480411 -0.343421 -0.496 166 120 97
0.490921 -0.345498 -0.499 157 112 89
0.0345533 -0.34506 -0.497 185 143 118
0.0492495 -0.355474 -0.512 140 103 95
0.0579381 -0.367277 -0.529 112 88 86
0.07614 -0.39366 -0.567 105 88 98
0.119366 -0.412406 -0.594 84 114 168
0.129767 -0.4131 -0.595 176 188 200
0.137469 -0.412406 -0.594 108 126 166
0.144257 -0.412406 -0.594 70 101 165
0.15444 -0.412406 -0.594 92 110 158
0.15843 -0.411017 -0.592 195 201 217
0.358449 -0.408934 -0.589 199 210 232
0.415666 -0.408934 -0.589 147 153 177
0.419031 -0.408934 -0.589 98 117 149
0.42728 -0.40824 -0.588 54 89 147
0.443713 -0.408934 -0.589 84 101 131
0.472562 -0.409629 -0.59 177 172 178
0.493077 -0.408934 -0.589 30 60 122
0.500348 -0.407546 -0.587 27 58 113
0.476002 -0.373526 -0.538 147 110 101
0.468277 -0.365889 -0.527 156 120 104
0.477557 -0.343671 -0.495 165 121 96
0.481329 -0.343671 -0.495 166 121 98
0.48419 -0.344366 -0.496 166 121 98
0.50359 -0.351309 -0.506 147 109 90
0.0164333 -0.343222 -0.493 202 165 136
0.0267629 -0.343222 -0.493 199 160 129
0.0406381 -0.349488 -0.502 170 125 106
0.104481 -0.412841 -0.593 107 122 151
0.10674 -0.412841 -0.593 88 113 154
0.112388 -0.412841 -0.593 98 125 170
0.115776 -0.412841 -0.593 74 104 156
0.121424 -0.412841 -0.593 92 125 170
0.124812 -0.412841 -0.593 177 187 199
0.136108 -0.412841 -0.593 86 109 161
0.144257 -0.413537 -0.594 90 121 178
0.150791 -0.412841 -0.593 78 105 150
0.15531 -0.412841 -0.593 106 124 172
0.164069 -0.412145 -0.592 202 204 216
0.36344 -0.40936 -0.588 159 182 214
0.39592 -0.40936 -0.588 179 183 192
0.39928 -0.40936 -0.588 185 193 204
0.40936 -0.40936 -0.588 185 189 198
0.41048 -0.40936 -0.588 187 191 200
0.42392 -0.40936 -0.588 120 144 192
0.43512 -0.40936 -0.588 45 77 136
0.44184 -0.40936 -0.588 80 98 136
0.44856 -0.40936 -0.588 177 185 198
0.467273 -0.410056 -0.589 152 158 170
0.471761 -0.410056 -0.589 137 132 138
0.480736 -0.410056 -0.589 167 173 187
0.49448 -0.40936 -0.588 15 45 109
0.49784 -0.40936 -0.588 38 70 131
0.500348 -0.408664 -0.587 37 70 124
0.464286 -0.348095 -0.5 174 126 106
0.477557 -0.344614 -0.495 167 121 98
0.481329 -0.344614 -0.495 167 121 98
0.482271 -0.344614 -0.495 166 120 97
0.48608 -0.34531 -0.496 164 118 95
0.496706 -0.348791 -0.501 152 114 91
0.01146 -0.400009 -0.573 209 174 146
0.033539 -0.346255 -0.496 191 150 122
0.0395238 -0.349048 -0.5 170 128 104
0.0494419 -0.358821 -0.514 131 102 88
0.0733276 -0.39233 -0.562 99 83 84
0.105432 -0.413272 -0.592 96 107 135
0.116906 -0.41397 -0.593 87 108 153
0.147403 -0.41397 -0.593 123 150 195
0.156175 -0.413272 -0.592 155 156 184
0.163791 -0.412574 -0.591 200 200 210
0.167169 -0.412574 -0.591 186 190 201
0.415372 -0.409782 -0.587 171 180 197
0.419845 -0.409782 -0.587 64 92 142
0.44184 -0.41048 -0.588 80 101 148
0.450033 -0.409782 -0.587 164 164 164
0.455624 -0.409782 -0.587 147 145 156
0.46536 -0.41048 -0.588 130 142 164
0.4732 -0.41048 -0.588 163 164 168
0.480736 -0.411178 -0.589 159 163 174
0.48664 -0.41048 -0.588 39 68 126
0.49672 -0.41048 -0.588 28 60 121
0.467159 -0.34835 -0.499 174 126 106
0.46812 -0.347651 -0.498 175 127 107
0.492783 -0.347651 -0.498 152 114 91
0.500605 -0.351142 -0.503 149 112 93
0.50256 -0.35184 -0.504 149 112 94
0.0220229 -0.3444 -0.492 202 161 131
0.0355714 -0.3486 -0.498 181 139 114
0.0438533 -0.3542 -0.506 153 112 94
0.072 -0.392 -0.56 101 86 93
0.123474 -0.4144 -0.592 176 185 202
0.13159 -0.4151 -0.593 174 173 189
0.158163 -0.4137 -0.591 178 192 221
0.163791 -0.4137 -0.591 186 189 196
0.171381 -0.413 -0.59 111 136 176
0.39301 -0.4109 -0.587 167 164 171
0.429908 -0.4109 -0.587 15 59 124
0.436989 -0.4102 -0.586 38 72 143
0.451499 -0.4102 -0.586 158 158 160
0.462332 -0.4109 -0.587 109 120 148
0.4732 -0.4116 -0.588 128 127 132
0.48552 -0.4116 -0.588 24 59 117
0.493517 -0.3913 -0.559 144 117 110
0.463306 -0.3507 -0.501 175 128 110
0.470966 -0.3486 -0.498 175 127 104
0.477533 -0.3458 -0.494 167 121 98
0.479415 -0.3458 -0.494 167 120 100
0.486986 -0.3465 -0.495 157 110 90
0.498614 -0.3507 -0.501 150 112 89
0.57231 -0.3913 -0.559 160 148 136
0.0102962 -0.399384 -0.569 199 177 156
0.0483686 -0.360077 -0.513 136 103 86
0.108631 -0.414826 -0.591 112 131 164
0.109757 -0.414826 -0.591 129 148 181
0.150537 -0.415528 -0.592 133 150 180
0.160143 -0.414124 -0.59 199 198 214
0.16239 -0.414124 -0.59 206 204 217
0.391225 -0.411316 -0.586 162 162 170
0.415781 -0.411316 -0.586 171 178 186
0.418013 -0.411316 -0.586 105 124 154
0.439221 -0.411316 -0.586 29 67 132
0.445918 -0.411316 -0.586 174 177 184
0.461214 -0.412018 -0.587 104 117 152
0.462332 -0.412018 -0.587 94 107 142
0.469041 -0.412018 -0.587 165 164 178
0.483576 -0.412018 -0.587 75 89 126
0.488049 -0.412018 -0.587 54 85 131
0.491403 -0.412018 -0.587 48 80 137
0.492521 -0.412018 -0.587 30 62 119
0.501986 -0.410614 -0.585 123 152 192
0.491043 -0.389557 -0.555 147 115 104
0.461323 -0.353058 -0.503 173 126 106
0.462381 -0.350952 -0.5 174 127 107
0.463333 -0.350952 -0.5 174 127 107
0.476592 -0.346741 -0.494 172 126 103
0.478474 -0.346741 -0.494 164 118 95
0.481297 -0.346741 -0.494 165 119 96
0.497619 -0.350952 -0.5 147 109 86
0.505481 -0.354462 -0.505 147 112 90
0.0154629 -0.346274 -0.492 203 164 135
0.0315857 -0.348386 -0.495 190 149 121
0.0483686 -0.361054 -0.513 135 104 86
0.0662819 -0.385688 -0.548 104 88 88
0.0749276 -0.398356 -0.566 106 90 93
0.0917457 -0.415951 -0.591 133 138 167
0.101877 -0.415951 -0.591 186 190 201
0.11426 -0.415951 -0.591 141 158 201
0.132271 -0.415951 -0.591 161 169 192
0.135649 -0.415951 -0.591 83 105 152
0.141277 -0.415951 -0.591 167 185 221
0.14578 -0.415951 -0.591 170 187 213
0.146906 -0.415951 -0.591 174 190 215
0.164359 -0.414544 -0.589 209 206 223
0.167725 -0.414544 -0.589 192 199 218
0.351042 -0.412432 -0.586 202 209 217
0.352158 -0.412432 -0.586 196 211 230
0.445157 -0.411729 -0.585 183 185 197
0.490285 -0.413136 -0.587 91 122 168
0.461129 -0.356831 -0.507 169 126 109
0.466209 -0.351201 -0.499 176 130 106
0.472843 -0.348386 -0.495 170 122 99
0.473786 -0.348386 -0.495 173 125 102
0.486943 -0.347682 -0.494 165 119 96
0.500523 -0.352609 -0.501 147 111 87
0.516389 -0.36035 -0.512 147 109 88
0.526438 -0.365981 -0.52 150 109 89
0.0135886 -0.347211 -0.492 201 162 133
0.0154314 -0.346506 -0.491 204 163 135
0.0191333 -0.3458 -0.49 201 162 133
0.0557114 -0.371911 -0.527 108 89 85
0.0749276 -0.399434 -0.566 107 91 94
0.108448 -0.416371 -0.59 118 138 173
0.127769 -0.417077 -0.591 182 187 206
0.140151 -0.417077 -0.591 167 181 208
0.147781 -0.416371 -0.59 169 182 201
0.160993 -0.415666 -0.589 198 201 220
0.397243 -0.412843 -0.585 119 131 155
0.4173 -0.412843 -0.585 106 123 153
0.421757 -0.412843 -0.585 39 77 148
0.46601 -0.413549 -0.586 169 178 195
0.468242 -0.413549 -0.586 175 178 187
0.476055 -0.413549 -0.586 160 163 168
0.477171 -0.413549 -0.586 171 175 184
0.484985 -0.413549 -0.586 145 169 207
0.4953 -0.412843 -0.585 45 81 141
0.497529 -0.412843 -0.585 82 114 165
0.500871 -0.412843 -0.585 120 136 162
0.479076 -0.379674 -0.538 150 114 102
0.46812 -0.351446 -0.498 180 134 110
0.4719 -0.349329 -0.495 169 121 98
0.480323 -0.347917 -0.493 168 122 98
0.48314 -0.347917 -0.493 171 125 101
0.497574 -0.352151 -0.499 149 111 88
0.502478 -0.354269 -0.502 148 112 88
0.013561 -0.347441 -0.491 201 162 133
0.0267629 -0.348856 -0.493 196 155 127
0.0418429 -0.357348 -0.505 154 115 98
0.0904667 -0.417495 -0.59 125 130 160
0.0960857 -0.417495 -0.59 174 184 196
0.102829 -0.417495 -0.59 159 159 169
0.126643 -0.418203 -0.591 179 186 205
0.133397 -0.418203 -0.591 124 138 167
0.16968 -0.41608 -0.588 130 150 185
0.17528 -0.41608 -0.588 138 170 217
0.439947 -0.41325 -0.584 61 86 126
0.453295 -0.41325 -0.584 176 180 191
0.479404 -0.414665 -0.586 130 138 161
0.481636 -0.414665 -0.586 54 68 107
0.504711 -0.412542 -0.583 105 112 128
0.488714 -0.38919 -0.55 148 111 102
0.465238 -0.35381 -0.5 176 130 107
0.466209 -0.353102 -0.499 174 128 105
0.468127 -0.351687 -0.497 174 126 104
0.475651 -0.349564 -0.494 170 122 99
0.475628 -0.348856 -0.493 173 125 102
0.503434 -0.355225 -0.502 145 109 85
0.00708191 -0.405848 -0.572 210 185 163
0.00903429 -0.395914 -0.558 199 165 137
0.0181629 -0.346957 -0.489 201 158 126
0.021 -0.347667 -0.49 204 161 129
0.0219333 -0.347667 -0.49 203 160 128
0.0229133 -0.348376 -0.491 202 157 124
0.0238486 -0.348376 -0.491 200 155 122
0.0277019 -0.349795 -0.493 196 152 123
0.0408 -0.3576 -0.504 154 115 98
0.0419257 -0.359019 -0.506 153 114 97
0.0429743 -0.359729 -0.507 148 111 93
0.0765429 -0.404429 -0.57 109 88 95
0.120605 -0.41791 -0.589 179 182 201
0.122849 -0.41791 -0.589 181 185 212
0.137667 -0.418619 -0.59 182 189 208
0.141038 -0.418619 -0.59 177 184 203
0.15736 -0.4172 -0.588 78 93 134
0.1652 -0.4172 -0.588 202 208 224
0.16632 -0.4172 -0.588 202 208 224
0.467443 -0.415071 -0.585 176 179 186
0.480814 -0.415071 -0.585 64 76 114
0.493341 -0.414362 -0.584 49 85 143
0.501128 -0.414362 -0.584 140 152 176
0.50249 -0.413652 -0.583 128 131 146
0.504711 -0.413652 -0.583 136 142 156
0.480101 -0.381724 -0.538 151 114 105
0.464558 -0.364695 -0.514 160 121 106
0.463793 -0.362567 -0.511 166 124 108
0.462195 -0.35831 -0.505 172 125 105
0.466223 -0.353343 -0.498 175 129 106
0.47002 -0.352633 -0.497 173 125 103
0.470019 -0.351924 -0.496 170 122 100
0.471909 -0.351924 -0.496 173 125 102
0.48216 -0.349086 -0.492 167 121 97
0.0162667 -0.347177 -0.488 202 161 131
0.0200257 -0.347889 -0.489 199 158 130
0.0356429 -0.355003 -0.499 176 136 111
0.040881 -0.359271 -0.505 156 114 90
0.0441133 -0.362117 -0.509 143 107 85
0.0473914 -0.364963 -0.513 126 99 82
0.0533981 -0.372789 -0.524 109 90 83
0.0652381 -0.389863 -0.548 104 88 89
0.11368 -0.41832 -0.588 93 111 159
0.125305 -0.419743 -0.59 180 187 213
0.160447 -0.417609 -0.587 116 136 171
0.161565 -0.417609 -0.587 163 183 218
0.166037 -0.417609 -0.587 202 208 224
0.167155 -0.417609 -0.587 186 198 224
0.1761 -0.417609 -0.587 115 147 196
0.415873 -0.414763 -0.583 48 69 98
0.416984 -0.414763 -0.583 143 166 200
0.419205 -0.414763 -0.583 167 182 215
0.426978 -0.414763 -0.583 57 102 161
0.433641 -0.414763 -0.583 130 154 190
0.492229 -0.415474 -0.584 58 89 143
0.46306 -0.360694 -0.507 169 123 107
0.469073 -0.35358 -0.497 173 127 103
0.472843 -0.352157 -0.495 171 124 98
0.479349 -0.350023 -0.492 167 119 96
0.480286 -0.350023 -0.492 165 117 95
0.48216 -0.350023 -0.492 170 124 100
0.00596095 -0.405887 -0.569 208 188 177
0.0126 -0.349533 -0.49 201 162 133
0.0200257 -0.34882 -0.489 199 158 130
0.0486514 -0.36808 -0.516 123 95 84
0.0652381 -0.390907 -0.548 108 86 88
0.1204 -0.41944 -0.588 176 183 202
0.1428 -0.41944 -0.588 181 186 205
0.153738 -0.418727 -0.587 194 200 212
0.15821 -0.418727 -0.587 88 117 161
0.377007 -0.415873 -0.583 125 140 181
0.45474 -0.415873 -0.583 178 183 189
0.460292 -0.415873 -0.583 167 169 184
0.467756 -0.416587 -0.584 174 177 192
0.477768 -0.416587 -0.584 75 87 111
0.486944 -0.415873 -0.583 128 140 166
0.496938 -0.415873 -0.583 103 126 160
0.503846 -0.41516 -0.582 157 161 172
0.504087 -0.414447 -0.581 154 160 174
0.466223 -0.35524 -0.498 173 129 104
0.497473 -0.354527 -0.497 151 114 88
0.00992 -0.354758 -0.496 203 164 133
