ply
format ascii 1.0
comment Created by Open3D
element vertex 1311
property double x
property double y
property double z
property uchar red
property uchar green
property uchar blue
end_header
0.430548 -0.254252 -0.535 127 80 72
0.433605 -0.254252 -0.535 127 80 72
0.446914 -0.256629 -0.54 124 79 73
-0.118266 -0.278174 -0.583 98 98 106
-0.114737 -0.277697 -0.582 89 89 97
-0.11144 -0.28056 -0.588 63 64 69
-0.106771 -0.289149 -0.606 88 88 96
-0.0644 -0.30728 -0.644 71 72 77
0.14212 -0.22044 -0.462 198 156 134
0.155862 -0.219963 -0.461 160 115 96
0.370286 -0.274834 -0.576 137 101 103
0.376671 -0.267677 -0.561 127 85 87
0.400995 -0.255271 -0.535 140 92 88
0.409123 -0.253363 -0.531 140 93 83
0.434415 -0.255749 -0.536 127 80 72
0.435436 -0.255749 -0.536 126 79 73
0.483748 -0.269586 -0.565 132 91 85
-0.123891 -0.284554 -0.594 95 95 103
-0.114019 -0.279764 -0.584 85 86 91
-0.110695 -0.282638 -0.59 72 73 78
-0.106314 -0.292219 -0.61 87 87 95
-0.104843 -0.294614 -0.615 83 83 91
-0.0946486 -0.303237 -0.633 56 55 63
-0.0935905 -0.303716 -0.634 56 55 63
-0.0806867 -0.305153 -0.637 66 65 73
0.131246 -0.222278 -0.464 206 160 144
0.132727 -0.221799 -0.463 204 158 142
0.147638 -0.220362 -0.46 192 147 128
0.150267 -0.220362 -0.46 179 132 116
0.165186 -0.222757 -0.465 145 99 86
0.170709 -0.224194 -0.468 143 97 82
0.175914 -0.225152 -0.47 140 96 85
0.205511 -0.240961 -0.503 205 201 226
0.3894 -0.3018 -0.63 128 93 99
0.372482 -0.271141 -0.566 134 94 95
0.378523 -0.267788 -0.559 121 79 80
0.385286 -0.267309 -0.558 125 81 80
0.39676 -0.26156 -0.546 133 85 83
0.410134 -0.254374 -0.531 139 90 83
0.411146 -0.254374 -0.531 137 88 81
0.435436 -0.25677 -0.536 122 75 69
0.446914 -0.258686 -0.54 123 78 72
-0.1362 -0.303 -0.63 96 99 106
-0.125865 -0.28761 -0.598 96 96 104
-0.118266 -0.280395 -0.583 94 94 102
-0.0749714 -0.30781 -0.64 71 70 78
0.126209 -0.235186 -0.489 187 155 134
0.12558 -0.2323 -0.483 181 149 128
0.13684 -0.2222 -0.462 203 160 141
0.13948 -0.2222 -0.462 201 158 139
0.174647 -0.225567 -0.469 140 98 84
0.186192 -0.229895 -0.478 106 80 81
0.37352 -0.2828 -0.588 138 99 104
0.372729 -0.281357 -0.585 135 100 106
0.371422 -0.274624 -0.571 131 90 94
0.371857 -0.274143 -0.57 130 91 94
0.37356 -0.272219 -0.566 133 93 94
0.39811 -0.262119 -0.545 132 84 82
0.401745 -0.25779 -0.536 137 90 84
0.406603 -0.256348 -0.533 138 91 83
-0.119376 -0.281506 -0.583 94 94 102
-0.105013 -0.29744 -0.616 85 85 93
-0.103667 -0.300337 -0.622 83 82 90
-0.0935905 -0.306131 -0.634 54 54 62
-0.0923829 -0.306131 -0.634 53 53 61
-0.0899676 -0.306131 -0.634 51 51 59
-0.086481 -0.306614 -0.635 52 52 62
-0.07276 -0.309994 -0.642 71 70 78
0.125781 -0.226943 -0.47 203 162 144
0.126137 -0.225977 -0.468 188 147 129
0.130081 -0.223563 -0.463 203 158 139
0.140934 -0.222597 -0.461 194 151 132
0.141812 -0.222597 -0.461 198 155 136
0.142381 -0.222114 -0.46 202 157 138
0.150267 -0.222114 -0.46 176 129 111
0.159184 -0.223563 -0.463 151 104 88
0.1643 -0.224529 -0.465 143 100 84
0.165186 -0.224529 -0.465 149 103 90
0.166429 -0.225011 -0.466 151 105 92
0.177186 -0.227426 -0.471 133 93 81
0.180641 -0.228391 -0.473 125 88 79
0.3918 -0.3042 -0.63 128 91 98
0.373675 -0.281506 -0.583 131 95 99
0.372857 -0.280057 -0.58 131 95 99
0.371857 -0.275229 -0.57 132 93 96
0.384964 -0.268469 -0.556 127 83 82
0.395146 -0.266054 -0.551 131 87 84
0.396195 -0.266054 -0.551 130 86 83
0.39811 -0.263157 -0.545 131 83 79
0.40034 -0.261226 -0.541 131 86 80
0.404052 -0.258329 -0.535 137 90 84
0.405331 -0.257846 -0.534 134 91 82
0.416203 -0.256397 -0.531 128 81 73
0.418226 -0.256397 -0.531 126 82 73
0.44034 -0.259294 -0.537 129 81 77
0.449803 -0.261226 -0.541 131 82 78
0.465667 -0.265571 -0.55 132 84 80
-0.110695 -0.28601 -0.59 85 86 91
-0.109757 -0.286494 -0.591 103 104 109
-0.098421 -0.307339 -0.634 68 68 76
-0.0961571 -0.307824 -0.635 58 58 66
-0.0739829 -0.311217 -0.642 72 71 79
0.124886 -0.227838 -0.47 200 158 142
0.126757 -0.226384 -0.467 190 147 130
0.127986 -0.225414 -0.465 202 159 143
0.139178 -0.223475 -0.461 202 159 142
0.147317 -0.222506 -0.459 187 141 125
0.170709 -0.226869 -0.468 148 102 89
0.391071 -0.302976 -0.625 133 91 93
0.380633 -0.291342 -0.601 130 88 92
0.377189 -0.286979 -0.592 126 86 86
0.383905 -0.269528 -0.556 127 83 80
0.396195 -0.267104 -0.551 131 86 80
0.3978 -0.26468 -0.546 126 81 75
0.40108 -0.262741 -0.542 127 84 75
0.406603 -0.258378 -0.533 134 91 82
0.425892 -0.258378 -0.533 132 85 79
0.428726 -0.258863 -0.534 130 83 77
0.456442 -0.26371 -0.544 128 81 75
0.458319 -0.264195 -0.545 130 83 77
-0.11786 -0.282753 -0.581 98 98 106
-0.110508 -0.286647 -0.589 91 92 97
0.125246 -0.22776 -0.468 198 155 139
0.126486 -0.226787 -0.466 201 158 142
0.13068 -0.22484 -0.462 202 159 142
0.140629 -0.223867 -0.46 202 156 140
0.144694 -0.22338 -0.459 194 148 132
0.14994 -0.22338 -0.459 174 128 112
0.152895 -0.223867 -0.46 166 119 103
0.396703 -0.308547 -0.634 126 92 93
0.373577 -0.28032 -0.576 130 90 91
0.376671 -0.27302 -0.561 127 85 86
0.384271 -0.2701 -0.555 132 88 85
0.3885 -0.2701 -0.555 135 92 85
0.394811 -0.26864 -0.552 133 88 83
0.396195 -0.268153 -0.551 133 88 82
0.418226 -0.25842 -0.531 128 83 77
0.427709 -0.25988 -0.534 132 87 81
0.438499 -0.260853 -0.536 128 83 78
1.13442 -0.310493 -0.638 204 204 192
-0.104514 -0.302914 -0.62 90 90 98
-0.0925286 -0.310243 -0.635 53 53 61
-0.0785057 -0.312197 -0.639 64 62 73
0.39597 -0.307311 -0.629 129 90 91
0.382846 -0.271646 -0.556 127 83 80
0.395146 -0.269203 -0.551 134 89 83
0.405829 -0.261874 -0.536 134 90 81
0.447943 -0.263829 -0.54 124 79 74
0.452699 -0.264806 -0.542 127 82 76
0.458319 -0.266271 -0.545 126 81 75
-0.114737 -0.285457 -0.582 93 93 101
-0.105842 -0.301152 -0.614 95 94 102
-0.0950971 -0.311943 -0.636 58 58 66
-0.0797229 -0.313414 -0.639 57 55 66
0.12892 -0.2266 -0.462 202 159 142
0.130397 -0.22611 -0.461 202 159 142
0.135666 -0.22611 -0.461 206 160 144
0.139752 -0.225619 -0.46 199 153 137
0.146996 -0.224638 -0.458 179 134 115
0.160411 -0.227581 -0.464 153 105 91
0.170709 -0.229543 -0.468 147 101 86
0.375463 -0.276629 -0.564 131 89 91
0.383214 -0.272214 -0.555 132 88 87
0.396195 -0.270252 -0.551 136 91 85
0.403714 -0.264857 -0.54 128 85 76
0.410664 -0.261424 -0.533 129 84 78
0.417214 -0.260443 -0.531 125 81 72
0.431567 -0.262405 -0.535 133 86 80
0.434624 -0.262405 -0.535 126 79 73
0.459357 -0.26731 -0.545 128 83 78
0.490424 -0.279081 -0.569 127 89 86
1.12857 -0.309981 -0.632 202 206 189
-0.109183 -0.292474 -0.594 109 109 119
-0.0831133 -0.313647 -0.637 51 49 60
0.124089 -0.229942 -0.467 198 156 140
0.12892 -0.22748 -0.462 201 158 141
0.137124 -0.226495 -0.46 204 158 142
0.149066 -0.226003 -0.459 173 124 107
0.161295 -0.228465 -0.464 154 106 92
0.174124 -0.231419 -0.47 136 89 79
0.196586 -0.243729 -0.495 100 87 94
0.378909 -0.274749 -0.558 124 82 84
0.40256 -0.267855 -0.544 125 82 75
0.412933 -0.261947 -0.532 128 84 75
0.437478 -0.263916 -0.536 127 80 74
0.446087 -0.265393 -0.539 131 84 78
0.450833 -0.266378 -0.541 125 80 75
0.470514 -0.271794 -0.552 132 88 85
-0.132857 -0.306457 -0.62 98 101 108
-0.127429 -0.296571 -0.6 98 101 108
-0.105842 -0.303491 -0.614 92 93 98
-0.100995 -0.313871 -0.635 80 81 86
-0.0976733 -0.31486 -0.637 70 70 78
-0.0966114 -0.315354 -0.638 63 63 71
0.124089 -0.230831 -0.467 200 158 144
0.125943 -0.229349 -0.464 203 161 145
0.139752 -0.227371 -0.46 203 157 141
0.196586 -0.244671 -0.495 100 87 94
0.378909 -0.275811 -0.558 123 82 80
0.381787 -0.274823 -0.556 132 88 85
0.392367 -0.27334 -0.553 139 94 88
0.401224 -0.269386 -0.545 122 79 72
0.407343 -0.265926 -0.538 133 89 80
0.4094 -0.263949 -0.534 129 85 76
0.419013 -0.26296 -0.532 127 83 74
0.432586 -0.264443 -0.535 125 78 70
0.436457 -0.264937 -0.536 126 79 73
0.437478 -0.264937 -0.536 127 80 74
-0.112177 -0.290768 -0.586 64 65 70
-0.106948 -0.301188 -0.607 103 104 109
-0.106014 -0.305157 -0.615 96 97 102
0.1219 -0.23966 -0.483 200 158 142
0.126553 -0.229736 -0.463 203 161 145
0.1377 -0.227751 -0.459 198 155 138
0.152019 -0.228248 -0.46 167 118 104
0.168926 -0.232217 -0.468 147 99 85
0.179595 -0.23569 -0.475 115 84 81
0.18126 -0.236683 -0.477 109 85 85
0.382657 -0.292752 -0.59 130 91 92
0.37746 -0.28134 -0.567 126 86 86
0.383214 -0.275386 -0.555 135 92 85
0.384271 -0.275386 -0.555 138 94 85
0.38569 -0.27489 -0.554 140 96 87
0.39376 -0.273897 -0.552 137 93 84
0.398213 -0.271912 -0.548 131 87 78
0.402262 -0.270424 -0.545 125 82 75
0.405492 -0.268439 -0.541 130 85 79
0.407609 -0.266454 -0.537 133 89 80
0.410417 -0.264966 -0.534 128 85 76
0.41371 -0.26447 -0.533 125 81 72
0.41496 -0.263973 -0.532 124 81 72
0.419013 -0.263973 -0.532 129 85 76
0.424877 -0.26447 -0.533 132 88 79
0.44034 -0.266454 -0.537 120 75 69
0.453731 -0.268935 -0.542 126 83 77
0.466911 -0.272409 -0.549 128 87 81
1.13507 -0.316073 -0.637 202 205 194
1.13272 -0.315081 -0.635 204 208 194
-0.112177 -0.291884 -0.586 66 67 71
-0.10502 -0.310313 -0.623 95 96 101
-0.0878286 -0.316789 -0.636 43 43 53
0.12104 -0.237093 -0.476 199 157 141
0.129238 -0.229124 -0.46 204 160 147
0.162529 -0.231614 -0.465 156 108 98
0.172333 -0.234105 -0.47 135 91 78
0.38099 -0.290888 -0.584 128 90 89
0.391657 -0.274949 -0.552 139 95 86
0.392709 -0.274949 -0.552 137 93 84
0.404923 -0.270466 -0.543 132 87 81
0.409148 -0.266481 -0.535 128 84 75
0.411434 -0.265983 -0.534 128 85 76
0.420816 -0.265485 -0.533 128 83 77
0.422847 -0.265485 -0.533 128 83 77
0.477959 -0.277439 -0.557 126 87 82
1.13214 -0.315792 -0.634 203 207 193
-0.132429 -0.309 -0.618 100 103 110
-0.12264 -0.294 -0.588 105 105 113
-0.11144 -0.294 -0.588 77 76 81
-0.103251 -0.317 -0.634 92 93 98
-0.0916067 -0.3185 -0.637 49 49 57
0.12231 -0.2335 -0.467 201 159 145
0.127763 -0.2305 -0.461 205 162 146
0.1377 -0.2295 -0.459 197 151 136
0.145251 -0.229 -0.458 179 132 116
0.166786 -0.2335 -0.467 150 100 91
0.174494 -0.2355 -0.471 127 90 81
0.196433 -0.2485 -0.497 183 183 211
0.382097 -0.279 -0.558 128 85 79
0.398529 -0.2735 -0.547 128 83 77
0.400612 -0.2735 -0.547 129 84 78
0.404923 -0.2715 -0.543 128 85 78
0.405492 -0.2705 -0.541 126 83 76
0.441363 -0.2685 -0.537 127 84 77
0.444234 -0.269 -0.538 128 85 78
0.448971 -0.27 -0.54 133 89 86
0.458514 -0.272 -0.544 129 88 82
1.13272 -0.3175 -0.635 209 211 198
-0.126496 -0.301645 -0.601 104 107 114
-0.106036 -0.312185 -0.622 99 98 104
0.120133 -0.238907 -0.476 200 158 144
0.135951 -0.230374 -0.459 203 157 144
0.154106 -0.231378 -0.461 163 114 99
0.17018 -0.235393 -0.469 135 90 84
0.192583 -0.246937 -0.492 73 65 76
0.37962 -0.28458 -0.567 125 85 85
0.380554 -0.28207 -0.562 124 83 79
0.380946 -0.281569 -0.561 124 83 79
0.383534 -0.279561 -0.557 135 92 85
0.38569 -0.278055 -0.554 143 99 90
0.395476 -0.276048 -0.55 134 90 81
0.39957 -0.274542 -0.547 129 85 76
0.40521 -0.272032 -0.542 130 85 79
0.414486 -0.268017 -0.534 130 87 78
0.414725 -0.267515 -0.533 127 84 75
0.433605 -0.268519 -0.535 127 82 76
0.476243 -0.278557 -0.555 129 90 85
-0.135551 -0.315889 -0.627 97 100 107
-0.121107 -0.295232 -0.586 109 109 117
-0.106207 -0.313873 -0.623 98 97 102
0.140582 -0.230241 -0.457 195 149 134
0.148191 -0.231249 -0.459 169 122 104
0.161643 -0.234271 -0.465 152 104 94
0.187457 -0.244851 -0.486 96 73 81
0.381107 -0.285156 -0.566 124 85 80
0.393047 -0.277599 -0.551 141 96 90
0.466061 -0.276088 -0.548 127 88 83
-0.12934 -0.30798 -0.609 102 102 110
-0.110314 -0.300394 -0.594 226 225 231
0.122671 -0.235157 -0.465 203 160 144
0.123908 -0.234146 -0.463 202 160 144
0.126007 -0.233134 -0.461 203 160 144
0.128083 -0.232123 -0.459 204 161 145
0.138841 -0.231111 -0.457 201 155 140
0.148191 -0.232123 -0.459 171 124 106
0.14994 -0.232123 -0.459 168 119 105
0.181486 -0.242743 -0.48 100 78 81
0.382043 -0.287751 -0.569 121 81 81
0.38569 -0.280166 -0.554 140 97 90
0.394757 -0.277637 -0.549 137 93 84
0.4033 -0.275614 -0.545 130 85 79
0.405669 -0.275109 -0.544 131 86 80
0.412205 -0.270557 -0.535 130 86 77
0.419801 -0.269546 -0.533 128 85 76
0.433605 -0.270557 -0.535 129 85 76
0.442386 -0.271569 -0.537 128 85 78
0.467957 -0.277637 -0.549 129 90 85
-0.114214 -0.296957 -0.585 88 88 100
-0.11107 -0.30051 -0.592 156 155 163
-0.1089 -0.30711 -0.605 208 207 212
0.118726 -0.240611 -0.474 199 157 141
0.121786 -0.236043 -0.465 202 159 143
0.125733 -0.233505 -0.46 203 160 144
0.129831 -0.232997 -0.459 206 163 146
0.140582 -0.231982 -0.457 192 146 130
0.151143 -0.233505 -0.46 166 117 103
0.158302 -0.235028 -0.463 155 107 97
0.160411 -0.235535 -0.464 152 104 94
0.18354 -0.24518 -0.483 94 74 83
0.383376 -0.28579 -0.563 128 87 83
0.385329 -0.281729 -0.555 142 99 93
0.388153 -0.280713 -0.553 142 99 92
0.455796 -0.27513 -0.542 125 85 77
0.459551 -0.276145 -0.544 128 89 82
0.48439 -0.285282 -0.562 118 83 77
-0.135551 -0.319471 -0.627 94 95 100
-0.115131 -0.297562 -0.584 99 99 107
0.119897 -0.238457 -0.468 201 153 141
0.134783 -0.233362 -0.458 200 157 141
0.144064 -0.232852 -0.457 182 136 120
0.168393 -0.238967 -0.469 139 94 89
0.174703 -0.241514 -0.474 118 85 78
0.182242 -0.24559 -0.482 96 74 77
0.3885 -0.282786 -0.555 142 97 92
0.391657 -0.281257 -0.552 140 95 89
0.39717 -0.279219 -0.548 136 91 85
0.412723 -0.273614 -0.537 128 85 76
0.41652 -0.272086 -0.534 125 82 73
0.441363 -0.273614 -0.537 130 87 80
1.1298 -0.319981 -0.628 206 208 195
-0.104294 -0.323734 -0.633 165 169 168
0.118619 -0.240371 -0.47 202 156 140
0.12276 -0.23628 -0.462 202 160 144
0.129549 -0.234234 -0.458 206 163 146
0.146124 -0.234234 -0.458 171 125 109
0.149066 -0.234746 -0.459 169 120 106
0.154106 -0.235769 -0.461 162 112 101
0.156538 -0.236791 -0.463 160 112 100
0.18262 -0.24702 -0.483 98 76 79
0.188067 -0.2506 -0.49 85 71 86
0.387414 -0.295094 -0.577 122 84 83
0.386717 -0.284866 -0.557 139 96 90
0.387082 -0.284354 -0.556 141 98 92
0.392709 -0.282309 -0.552 141 96 90
0.394429 -0.281286 -0.55 140 95 89
0.4033 -0.278729 -0.545 136 91 85
0.404632 -0.278217 -0.544 135 90 84
0.406242 -0.277194 -0.542 134 89 83
0.410153 -0.27566 -0.539 134 89 83
0.435436 -0.274126 -0.536 130 87 78
0.474527 -0.28282 -0.553 125 88 80
-0.12081 -0.302867 -0.59 88 88 96
-0.110286 -0.308 -0.6 229 230 235
0.139406 -0.23408 -0.456 189 143 127
0.143193 -0.234593 -0.457 184 137 121
0.160757 -0.2387 -0.465 150 102 92
0.179657 -0.2464 -0.48 95 73 76
0.386289 -0.28798 -0.561 133 92 88
0.396126 -0.281307 -0.548 142 98 89
0.39717 -0.281307 -0.548 141 97 88
0.462471 -0.279767 -0.545 133 95 86
-0.121219 -0.305021 -0.592 83 83 91
0.0105238 -0.334905 -0.65 222 220 225
0.0241429 -0.334905 -0.65 236 233 240
0.0315714 -0.334905 -0.65 243 240 247
0.107095 -0.334905 -0.65 253 253 253
0.125667 -0.334905 -0.65 245 248 255
0.129381 -0.334905 -0.65 220 228 239
0.121 -0.23804 -0.462 204 161 144
0.121616 -0.237525 -0.461 204 161 144
0.135931 -0.234949 -0.456 196 153 134
0.144934 -0.235464 -0.457 175 128 112
0.146124 -0.235979 -0.458 172 125 109
0.154106 -0.237525 -0.461 160 111 94
0.387733 -0.288533 -0.56 139 96 87
0.3978 -0.28132 -0.546 143 96 88
0.407829 -0.278229 -0.54 139 89 80
0.429743 -0.275137 -0.534 129 86 79
0.452894 -0.278744 -0.541 132 89 82
0.480943 -0.287503 -0.558 124 90 81
1.1352 -0.325115 -0.631 211 215 200
-0.135984 -0.325283 -0.629 84 84 92
-0.108057 -0.320629 -0.62 223 222 227
-0.106031 -0.325283 -0.629 195 195 193
0.013 -0.336143 -0.65 224 222 227
0.115772 -0.244609 -0.473 202 159 142
0.124314 -0.236851 -0.458 206 163 144
0.147869 -0.236851 -0.458 171 122 107
0.151143 -0.237886 -0.46 160 113 97
0.168752 -0.243057 -0.47 123 87 89
0.171631 -0.244609 -0.473 122 87 85
0.188279 -0.254951 -0.493 90 77 94
0.392066 -0.299426 -0.579 119 87 88
0.391131 -0.297874 -0.576 119 87 88
0.393076 -0.286497 -0.554 142 98 89
0.395082 -0.283394 -0.548 145 98 90
0.40182 -0.280809 -0.543 147 99 89
0.407553 -0.279774 -0.541 143 95 85
0.409127 -0.27874 -0.539 141 93 83
0.410153 -0.27874 -0.539 141 93 83
0.415791 -0.277706 -0.537 138 91 83
0.425674 -0.276154 -0.534 130 86 77
0.427709 -0.276154 -0.534 139 92 84
0.442386 -0.277706 -0.537 125 81 70
0.480081 -0.288049 -0.557 119 85 75
0.483733 -0.2896 -0.56 119 85 75
-0.11704 -0.3052 -0.588 76 76 86
-0.111243 -0.31091 -0.599 115 113 126
0.00309048 -0.336862 -0.649 217 215 218
0.0179248 -0.336862 -0.649 232 230 235
0.0784981 -0.336862 -0.649 216 222 238
0.113111 -0.336862 -0.649 251 252 255
0.121963 -0.238243 -0.459 206 163 144
0.127804 -0.237724 -0.458 206 163 144
0.128395 -0.237205 -0.457 208 165 146
0.149066 -0.238243 -0.459 160 112 98
0.14994 -0.238243 -0.459 159 111 97
0.156538 -0.240319 -0.463 154 105 91
0.158644 -0.240838 -0.464 152 104 94
0.173262 -0.246548 -0.475 108 82 85
0.4182 -0.327 -0.63 108 90 104
0.39996 -0.308314 -0.594 117 85 86
0.390119 -0.293262 -0.565 133 92 90
0.399451 -0.282362 -0.544 148 101 91
0.401524 -0.282362 -0.544 147 100 90
0.409127 -0.279767 -0.539 143 95 85
0.42364 -0.277171 -0.534 140 93 83
0.43076 -0.277171 -0.534 133 86 76
0.446284 -0.279248 -0.538 129 85 74
0.449167 -0.279767 -0.539 130 88 76
0.469192 -0.284438 -0.548 127 87 79
-0.116117 -0.306841 -0.589 73 73 83
-0.107883 -0.32247 -0.619 229 228 233
-0.00802286 -0.337577 -0.648 212 211 209
0.00432 -0.337577 -0.648 218 216 217
0.0117257 -0.337577 -0.648 225 223 228
0.0450514 -0.337577 -0.648 253 251 254
0.09072 -0.337577 -0.648 252 253 255
0.127749 -0.337577 -0.648 195 212 255
0.115193 -0.243285 -0.467 198 156 140
0.133033 -0.237033 -0.455 198 155 136
0.1339 -0.237033 -0.455 197 154 135
0.149066 -0.239117 -0.459 163 115 103
0.153228 -0.240159 -0.461 152 103 89
0.159871 -0.242243 -0.465 138 95 89
0.163577 -0.243806 -0.468 130 90 88
0.18772 -0.25735 -0.494 100 91 110
0.392021 -0.288608 -0.554 145 98 92
0.416038 -0.27923 -0.536 138 91 81
0.425674 -0.278189 -0.534 135 88 78
0.443409 -0.279751 -0.537 125 81 70
0.45122 -0.280793 -0.539 129 85 74
0.47386 -0.287045 -0.551 123 83 73
-0.127229 -0.318943 -0.61 75 77 89
-0.112009 -0.312146 -0.597 67 65 78
0.0327086 -0.338811 -0.648 248 246 251
0.11597 -0.242083 -0.463 207 165 149
0.131589 -0.238423 -0.456 203 160 143
0.147317 -0.239991 -0.459 168 120 106
0.161103 -0.243651 -0.466 135 94 88
0.40521 -0.283389 -0.542 145 97 85
0.405492 -0.282866 -0.541 145 97 85
0.407829 -0.282343 -0.54 146 98 88
0.412467 -0.281297 -0.538 144 96 86
-0.132313 -0.326927 -0.623 78 81 90
-0.0191019 -0.339521 -0.647 205 205 203
-0.0141724 -0.339521 -0.647 207 207 207
0.0277286 -0.339521 -0.647 243 240 247
0.106601 -0.339521 -0.647 241 241 249
0.116348 -0.241915 -0.461 208 166 150
0.133033 -0.238767 -0.455 198 155 136
0.143193 -0.239816 -0.457 171 123 109
0.15235 -0.241915 -0.461 163 113 102
0.15776 -0.24349 -0.464 142 98 89
0.174721 -0.251361 -0.479 99 79 78
0.286178 -0.34057 -0.649 236 240 251
0.310143 -0.341095 -0.65 179 181 204
0.31881 -0.341095 -0.65 142 162 197
0.325 -0.341095 -0.65 166 184 230
0.425211 -0.340046 -0.648 66 79 132
0.396893 -0.303312 -0.578 123 88 84
0.393726 -0.295966 -0.564 139 95 86
0.399148 -0.285995 -0.545 144 98 85
0.404462 -0.283896 -0.541 146 98 86
0.434829 -0.280223 -0.534 130 83 73
0.47214 -0.288094 -0.549 131 87 76
0.475771 -0.289669 -0.552 129 82 72
-0.111021 -0.318107 -0.604 75 74 80
-0.106207 -0.328113 -0.623 228 228 230
0.129567 -0.239633 -0.455 198 155 136
0.270926 -0.34128 -0.648 245 247 255
0.29854 -0.341807 -0.649 213 215 240
0.321286 -0.342333 -0.65 155 177 218
0.328714 -0.342333 -0.65 125 148 190
0.3948 -0.29704 -0.564 139 96 89
0.395187 -0.291773 -0.554 144 100 91
0.406523 -0.284927 -0.541 142 94 82
0.409127 -0.283873 -0.539 146 98 86
0.420589 -0.28124 -0.534 146 98 84
0.425892 -0.280713 -0.533 140 92 82
0.448523 -0.28282 -0.537 130 84 71
-0.117694 -0.315557 -0.597 76 79 86
-0.106876 -0.327714 -0.62 226 226 228
0.00922857 -0.341457 -0.646 224 222 225
0.0707524 -0.341457 -0.646 143 164 209
0.117335 -0.242086 -0.458 203 162 144
0.126377 -0.241029 -0.456 207 164 147
0.129567 -0.2405 -0.455 198 155 136
0.146124 -0.242086 -0.458 163 114 100
0.155992 -0.245257 -0.464 147 100 92
0.163033 -0.2479 -0.469 119 89 87
0.169286 -0.250543 -0.474 116 85 80
0.2808 -0.342514 -0.648 192 202 227
0.33119 -0.343571 -0.65 137 157 192
0.42759 -0.341457 -0.646 166 170 205
0.418972 -0.326129 -0.617 117 87 89
0.397487 -0.289129 -0.547 138 91 83
0.3978 -0.2886 -0.546 138 91 83
0.408584 -0.285957 -0.541 141 95 82
0.413746 -0.283843 -0.537 145 95 84
0.423862 -0.281729 -0.533 142 94 80
-0.108816 -0.324121 -0.611 203 202 210
-0.108181 -0.325712 -0.614 225 223 228
-0.0116714 -0.342157 -0.645 211 211 211
0.0202714 -0.342157 -0.645 241 238 245
0.11308 -0.24508 -0.462 202 160 144
0.1518 -0.24508 -0.462 159 109 98
0.267214 -0.342157 -0.645 232 240 255
0.27667 -0.343218 -0.647 238 237 251
0.287761 -0.343218 -0.647 226 230 255
0.293143 -0.343749 -0.648 207 213 245
0.300549 -0.343749 -0.648 148 154 190
0.303017 -0.343749 -0.648 185 190 222
0.312891 -0.343749 -0.648 227 224 253
0.321531 -0.343749 -0.648 160 188 228
0.368333 -0.34481 -0.65 162 168 202
0.402273 -0.308207 -0.581 119 88 86
0.396611 -0.298128 -0.562 138 95 88
0.398213 -0.290701 -0.548 136 89 79
0.398529 -0.29017 -0.547 139 92 82
0.445646 -0.284335 -0.536 128 82 69
0.464911 -0.288049 -0.543 132 86 73
0.488672 -0.298128 -0.562 138 102 90
0.0755571 -0.343386 -0.645 169 182 227
0.116463 -0.24383 -0.458 204 163 145
0.11795 -0.243298 -0.457 208 167 149
0.143193 -0.243298 -0.457 162 114 102
0.145569 -0.244363 -0.459 161 113 101
0.154225 -0.247025 -0.464 147 100 92
0.157552 -0.24809 -0.466 136 95 89
0.164276 -0.250219 -0.47 114 84 82
0.279933 -0.343918 -0.646 188 194 220
0.291458 -0.34445 -0.647 172 180 216
0.295155 -0.34445 -0.647 186 194 231
0.321035 -0.34445 -0.647 146 175 217
0.322766 -0.344983 -0.648 130 159 201
0.326469 -0.344983 -0.648 136 164 211
0.345515 -0.345515 -0.649 162 176 203
0.364058 -0.345515 -0.649 118 140 197
0.36653 -0.345515 -0.649 148 170 227
0.375762 -0.346048 -0.65 182 188 214
0.381952 -0.346048 -0.65 84 110 159
0.390619 -0.346048 -0.65 90 113 167
0.411667 -0.346048 -0.65 118 141 193
0.399384 -0.302925 -0.569 137 91 91
0.398619 -0.29281 -0.55 140 93 83
0.40256 -0.289615 -0.544 140 93 83
0.423862 -0.283759 -0.533 140 92 78
0.440738 -0.284824 -0.535 126 78 64
0.0693067 -0.34408 -0.644 152 173 216
0.122903 -0.243634 -0.456 205 162 145
0.142323 -0.244169 -0.457 163 117 102
0.156329 -0.248443 -0.465 133 94 89
0.173618 -0.256991 -0.481 95 73 75
0.276242 -0.345149 -0.646 238 240 253
0.277472 -0.345149 -0.646 230 232 245
0.282394 -0.345149 -0.646 152 165 200
0.283625 -0.345149 -0.646 155 170 211
0.289777 -0.345149 -0.646 159 172 214
0.295155 -0.345683 -0.647 165 178 222
0.29762 -0.345683 -0.647 135 149 194
0.306247 -0.345683 -0.647 221 222 250
0.311176 -0.345683 -0.647 215 222 248
0.325234 -0.346217 -0.648 118 150 201
0.35046 -0.346751 -0.649 62 88 149
0.36035 -0.346751 -0.649 37 75 150
0.370239 -0.346751 -0.649 187 188 206
0.393095 -0.347286 -0.65 85 114 174
0.399286 -0.347286 -0.65 167 175 211
0.414143 -0.347286 -0.65 47 77 149
0.415381 -0.347286 -0.65 33 63 135
0.422159 -0.346751 -0.649 21 58 126
0.430717 -0.345683 -0.647 67 74 120
0.408934 -0.314694 -0.589 121 89 92
0.399818 -0.298666 -0.559 138 95 88
0.399408 -0.295994 -0.554 137 93 84
0.4173 -0.285843 -0.535 147 99 85
0.422847 -0.284774 -0.533 143 94 79
0.447688 -0.286377 -0.536 134 87 71
0.455507 -0.287446 -0.538 135 89 76
-0.11078 -0.32654 -0.609 84 85 90
0.0116352 -0.34477 -0.643 229 227 230
0.0789971 -0.34477 -0.643 201 212 232
0.110171 -0.257371 -0.48 201 159 145
0.109433 -0.251473 -0.469 201 161 149
0.111714 -0.246648 -0.46 201 162 147
0.112973 -0.245575 -0.458 204 162 146
0.148837 -0.247184 -0.461 155 105 98
0.162486 -0.25201 -0.47 117 87 87
0.179667 -0.262733 -0.49 91 73 73
0.273781 -0.346379 -0.646 244 247 254
0.274586 -0.345843 -0.645 240 243 250
0.282394 -0.346379 -0.646 146 160 195
0.336343 -0.347451 -0.648 192 203 233
0.352932 -0.347988 -0.649 39 69 142
0.355405 -0.347988 -0.649 57 87 160
0.406714 -0.348524 -0.65 142 153 183
0.402963 -0.306165 -0.571 131 90 84
0.402389 -0.293832 -0.548 140 93 83
0.402696 -0.293296 -0.547 135 88 80
0.403738 -0.293296 -0.547 136 89 81
0.432999 -0.28579 -0.533 139 90 75
0.447871 -0.286862 -0.535 137 88 73
0.453637 -0.287934 -0.537 139 91 77
0.459433 -0.289007 -0.539 130 84 71
-0.11078 -0.3277 -0.609 84 85 90
0.0716486 -0.345995 -0.643 246 251 255
0.0802219 -0.345995 -0.643 201 211 236
0.108733 -0.250752 -0.466 199 160 145
0.126688 -0.244295 -0.454 198 157 139
0.144379 -0.246448 -0.458 153 104 97
0.152129 -0.249138 -0.463 146 97 90
0.155443 -0.250214 -0.465 136 93 87
0.15789 -0.25129 -0.467 127 88 83
0.164076 -0.253981 -0.472 110 82 81
0.169804 -0.25721 -0.478 100 78 80
0.267214 -0.347071 -0.645 204 212 251
0.29593 -0.34761 -0.646 130 151 198
0.300851 -0.34761 -0.646 197 212 251
0.304543 -0.34761 -0.646 221 223 248
0.32423 -0.34761 -0.646 99 133 196
0.330894 -0.348148 -0.647 113 142 200
0.335824 -0.348148 -0.647 190 201 231
0.340046 -0.348686 -0.648 192 200 223
0.344983 -0.348686 -0.648 193 200 228
0.353623 -0.348686 -0.648 41 71 144
0.364731 -0.348686 -0.648 164 186 235
0.37642 -0.349224 -0.649 178 184 216
0.415978 -0.349224 -0.649 28 58 130
0.422159 -0.349224 -0.649 21 58 128
0.432953 -0.345995 -0.643 161 161 187
0.407741 -0.292724 -0.544 138 91 81
0.445833 -0.287881 -0.535 134 85 70
0.44889 -0.287881 -0.535 141 92 77
-0.113471 -0.32994 -0.611 95 96 101
-0.10736 -0.33264 -0.616 71 72 77
-0.10146 -0.33642 -0.623 54 53 61
0.0776514 -0.34668 -0.642 219 225 237
0.108119 -0.2565 -0.475 196 157 142
0.123229 -0.24516 -0.454 201 160 142
0.125823 -0.24516 -0.454 200 159 141
0.142634 -0.24732 -0.458 152 105 95
0.179098 -0.26514 -0.491 90 79 85
0.26108 -0.34668 -0.642 190 205 248
0.2852 -0.34776 -0.644 124 144 194
0.290557 -0.3483 -0.645 139 155 207
0.295471 -0.3483 -0.645 140 160 210
0.299157 -0.3483 -0.645 193 207 246
0.302843 -0.3483 -0.645 218 223 253
0.306529 -0.3483 -0.645 216 217 245
0.312187 -0.34776 -0.644 201 207 233
0.318814 -0.3483 -0.645 119 153 214
0.343218 -0.34938 -0.647 182 191 222
0.363497 -0.34992 -0.648 126 151 205
0.374606 -0.34992 -0.648 182 188 220
0.394963 -0.35046 -0.649 75 102 155
0.407325 -0.35046 -0.649 59 81 139
0.41845 -0.35046 -0.649 28 62 126
0.402573 -0.29916 -0.554 138 95 88
0.410645 -0.29214 -0.541 141 93 81
0.420589 -0.28836 -0.534 147 96 79
0.44889 -0.2889 -0.535 141 92 77
0.452792 -0.28944 -0.536 143 94 79
-0.116368 -0.33273 -0.614 100 101 105
-0.10935 -0.33273 -0.614 83 83 91
-0.0152619 -0.347361 -0.641 212 210 211
-0.011599 -0.347361 -0.641 215 213 214
0.011599 -0.347361 -0.641 233 231 234
0.01282 -0.347361 -0.641 233 231 236
0.0763095 -0.347361 -0.641 254 254 255
0.0811933 -0.347361 -0.641 181 186 215
0.0836352 -0.347361 -0.641 221 228 247
0.0860771 -0.347361 -0.641 245 254 249
0.10317 -0.347361 -0.641 250 251 253
0.104391 -0.347361 -0.641 253 254 255
0.107436 -0.255779 -0.472 198 156 140
0.107647 -0.254153 -0.469 196 154 138
0.107614 -0.251986 -0.465 195 155 143
0.108445 -0.249818 -0.461 199 159 147
0.110356 -0.248192 -0.458 202 162 150
0.1157 -0.246567 -0.455 207 165 149
0.132449 -0.245483 -0.453 176 135 115
0.134174 -0.245483 -0.453 174 133 111
0.14382 -0.248734 -0.459 154 107 99
0.14828 -0.25036 -0.462 147 97 96
0.167631 -0.258489 -0.477 101 79 82
0.289329 -0.349529 -0.645 125 141 193
0.30728 -0.348987 -0.644 219 220 250
0.366633 -0.350612 -0.647 75 93 141
0.367866 -0.350612 -0.647 68 86 134
0.38448 -0.351154 -0.648 31 73 147
0.39312 -0.351154 -0.648 47 85 156
0.414103 -0.351154 -0.648 29 51 111
0.428252 -0.350612 -0.647 107 115 151
0.413422 -0.319182 -0.589 128 90 89
0.411675 -0.29317 -0.541 144 96 84
0.416566 -0.291545 -0.538 143 94 80
0.41808 -0.290461 -0.536 146 94 80
0.420589 -0.289377 -0.534 149 97 83
0.429953 -0.288835 -0.533 147 95 81
0.442136 -0.288835 -0.533 137 88 73
0.445 -0.289377 -0.534 139 90 73
0.44889 -0.289919 -0.535 140 91 76
-0.103667 -0.33825 -0.622 74 75 80
0.0738676 -0.348582 -0.641 251 250 255
0.110986 -0.248521 -0.457 207 165 153
0.119167 -0.247433 -0.455 205 164 146
0.176506 -0.265923 -0.489 95 75 84
0.262711 -0.34967 -0.643 183 196 241
0.2852 -0.350213 -0.644 136 156 209
0.315867 -0.350213 -0.644 126 161 219
0.319547 -0.350213 -0.644 96 131 197
0.328643 -0.350757 -0.645 103 133 197
0.374028 -0.351845 -0.647 179 183 208
0.377725 -0.351845 -0.647 103 116 151
0.383246 -0.352389 -0.648 38 73 137
0.388183 -0.352389 -0.648 30 74 149
0.435949 -0.349126 -0.642 165 169 194
0.421831 -0.28985 -0.533 145 96 81
0.447871 -0.290938 -0.535 141 92 77
-0.116136 -0.337797 -0.619 107 108 112
-0.106876 -0.338343 -0.62 91 92 96
0.0713143 -0.349257 -0.64 236 238 250
0.106667 -0.349257 -0.64 202 203 223
0.111367 -0.2483 -0.455 207 167 155
0.114833 -0.2483 -0.455 208 166 152
0.12986 -0.247209 -0.453 186 143 124
0.13447 -0.247754 -0.454 171 125 109
0.161379 -0.257577 -0.472 113 82 77
0.166723 -0.260306 -0.477 98 77 82
0.258231 -0.349803 -0.641 166 183 237
0.266386 -0.350894 -0.643 193 202 243
0.274959 -0.350894 -0.643 221 226 246
0.298693 -0.35144 -0.644 140 157 213
0.29992 -0.35144 -0.644 146 163 219
0.333557 -0.351986 -0.645 109 129 179
0.349529 -0.351986 -0.645 39 67 130
0.368528 -0.352531 -0.646 129 133 168
0.391907 -0.352531 -0.646 57 100 168
0.408534 -0.353077 -0.647 119 123 152
0.410999 -0.353077 -0.647 95 110 149
0.423899 -0.352531 -0.646 90 110 171
0.428821 -0.352531 -0.646 155 166 196
0.42395 -0.329611 -0.604 121 87 86
0.420878 -0.326337 -0.598 123 84 79
0.408771 -0.311057 -0.57 124 83 77
0.406246 -0.306691 -0.562 124 83 77
0.410739 -0.299051 -0.548 134 90 79
0.411886 -0.296869 -0.544 138 91 81
0.420357 -0.291957 -0.535 143 94 79
0.422847 -0.290866 -0.533 151 100 83
0.426107 -0.29032 -0.532 145 97 83
0.431173 -0.29032 -0.532 140 93 77
0.438267 -0.29032 -0.532 139 90 75
-0.112781 -0.339524 -0.62 110 111 115
0.118905 -0.248619 -0.454 203 161 145
0.158905 -0.257381 -0.47 119 84 80
0.163869 -0.259571 -0.474 106 81 84
0.165467 -0.260667 -0.476 103 78 81
0.317826 -0.352119 -0.643 71 106 170
0.322725 -0.352119 -0.643 60 99 174
0.33304 -0.352667 -0.644 114 136 177
0.347071 -0.353214 -0.645 83 113 165
0.362375 -0.353762 -0.646 119 148 208
0.37345 -0.353762 -0.646 184 185 206
0.37591 -0.353762 -0.646 173 178 208
0.387584 -0.35431 -0.647 43 90 158
0.4172 -0.322 -0.588 118 84 82
0.408414 -0.309405 -0.565 123 82 78
0.408167 -0.302833 -0.553 127 87 79
0.421606 -0.292429 -0.534 142 90 76
0.431173 -0.291333 -0.532 139 90 75
0.440293 -0.291333 -0.532 133 84 69
0.448051 -0.292429 -0.534 144 92 78
0.456876 -0.293524 -0.536 148 96 82
0.07242 -0.351146 -0.639 252 252 255
0.104295 -0.258276 -0.47 198 160 151
0.108137 -0.250583 -0.456 205 165 153
0.109874 -0.250583 -0.456 209 169 157
0.155554 -0.257177 -0.468 124 84 84
0.159243 -0.258826 -0.471 119 84 80
0.267194 -0.352794 -0.642 186 197 229
0.26964 -0.352794 -0.642 203 205 228
0.275754 -0.352794 -0.642 159 164 194
0.281869 -0.352794 -0.642 138 152 197
0.284314 -0.352794 -0.642 123 141 191
0.314886 -0.352794 -0.642 79 113 174
0.325174 -0.353344 -0.643 75 115 185
0.337947 -0.353893 -0.644 198 202 229
0.342853 -0.353893 -0.644 175 184 213
0.35144 -0.353893 -0.644 43 73 145
0.358129 -0.354443 -0.645 32 72 142
0.364271 -0.354443 -0.645 151 177 236
0.3913 -0.354443 -0.645 57 91 163
0.398671 -0.354443 -0.645 174 176 201
0.3999 -0.354443 -0.645 179 181 206
0.401129 -0.354443 -0.645 166 179 198
0.403586 -0.354443 -0.645 158 166 187
0.406043 -0.354443 -0.645 119 124 154
0.432139 -0.337408 -0.614 115 88 81
0.418414 -0.321471 -0.585 125 85 86
0.415943 -0.318724 -0.58 124 83 81
0.408669 -0.306634 -0.558 127 84 75
0.41886 -0.295094 -0.537 143 95 81
0.419101 -0.294545 -0.536 144 96 82
0.421606 -0.293446 -0.534 140 91 77
0.450086 -0.293446 -0.534 147 96 79
0.0759524 -0.351811 -0.638 249 253 254
0.0832438 -0.351811 -0.638 246 247 249
0.10384 -0.260274 -0.472 201 163 154
0.12613 -0.249246 -0.452 194 151 132
0.151014 -0.256414 -0.465 137 92 95
0.16331 -0.261929 -0.475 112 82 82
0.168121 -0.265237 -0.481 96 75 82
0.184205 -0.278471 -0.505 191 196 228
0.276546 -0.353466 -0.641 177 185 221
0.314886 -0.354017 -0.642 97 132 196
0.322223 -0.354017 -0.642 71 113 187
0.342321 -0.354569 -0.643 190 196 218
0.356347 -0.35512 -0.644 31 69 140
0.357573 -0.35512 -0.644 35 73 144
0.367957 -0.355671 -0.645 181 187 211
0.386985 -0.356223 -0.646 64 106 166
0.409093 -0.35512 -0.644 52 75 127
0.415227 -0.35512 -0.644 73 101 164
0.4171 -0.355671 -0.645 73 101 164
0.423813 -0.35512 -0.644 37 68 125
0.427493 -0.35512 -0.644 85 107 154
0.440686 -0.352914 -0.64 80 103 157
0.410794 -0.307697 -0.558 127 87 79
0.414501 -0.298874 -0.542 137 91 78
0.431173 -0.29336 -0.532 140 91 76
0.437443 -0.292809 -0.531 141 90 73
0.444347 -0.29336 -0.532 148 97 80
0.449243 -0.293911 -0.533 146 95 78
0.466779 -0.296669 -0.538 149 101 78
0.106633 -0.252873 -0.457 203 165 152
0.107269 -0.25232 -0.456 203 165 152
0.119506 -0.25066 -0.453 197 154 138
0.122957 -0.25066 -0.453 190 147 130
0.174067 -0.271133 -0.49 95 73 85
0.298989 -0.35524 -0.642 197 215 255
0.30829 -0.354687 -0.641 184 188 200
0.311953 -0.354687 -0.641 145 167 214
0.325384 -0.354687 -0.641 81 123 195
0.363142 -0.355793 -0.643 111 137 196
0.378427 -0.356347 -0.644 99 107 128
0.389467 -0.356347 -0.644 65 94 164
0.41032 -0.356347 -0.644 57 86 146
0.42136 -0.356347 -0.644 73 100 153
0.435949 -0.35524 -0.642 133 129 143
0.440153 -0.354687 -0.641 83 94 140
0.430414 -0.334767 -0.605 118 83 81
0.417858 -0.299353 -0.541 141 93 81
0.42364 -0.29548 -0.534 145 98 82
0.426107 -0.294373 -0.532 150 101 87
0.429351 -0.29382 -0.531 149 100 85
0.10269 -0.263738 -0.475 202 163 146
0.10252 -0.258741 -0.466 197 160 144
0.152227 -0.258741 -0.466 128 86 87
0.154993 -0.260407 -0.469 124 83 79
0.287534 -0.355908 -0.641 124 141 195
0.289976 -0.355908 -0.641 117 134 186
0.299744 -0.355908 -0.641 206 220 249
0.324163 -0.355908 -0.641 99 139 208
0.330783 -0.356463 -0.642 155 170 201
0.333229 -0.356463 -0.642 194 204 231
0.335674 -0.356463 -0.642 189 199 226
0.34668 -0.356463 -0.642 62 88 147
0.372293 -0.357573 -0.644 185 186 207
0.389467 -0.357573 -0.644 75 102 169
0.413357 -0.357018 -0.643 138 163 217
0.426166 -0.356463 -0.642 72 94 143
0.439467 -0.355352 -0.64 102 111 152
0.435394 -0.339806 -0.612 118 87 84
0.4182 -0.318707 -0.574 115 80 78
0.415992 -0.315375 -0.568 116 81 79
0.41652 -0.30316 -0.546 128 85 76
0.425093 -0.295387 -0.532 151 102 87
0.429351 -0.294831 -0.531 150 101 86
0.43561 -0.294276 -0.53 144 93 76
0.441489 -0.294831 -0.531 141 90 73
1.12947 -0.343137 -0.618 201 203 189
0.0636 -0.354343 -0.636 208 215 244
0.103071 -0.267986 -0.481 196 162 152
0.110877 -0.252386 -0.453 207 168 153
0.14564 -0.2574 -0.462 142 94 90
0.151339 -0.259629 -0.466 128 88 86
0.264729 -0.356014 -0.639 202 216 255
0.288305 -0.356571 -0.64 113 130 186
0.290743 -0.356571 -0.64 114 135 192
0.318781 -0.356571 -0.64 84 120 182
0.32 -0.356571 -0.64 80 116 178
0.341256 -0.357129 -0.641 164 169 188
0.371715 -0.358243 -0.643 187 189 210
0.397435 -0.358243 -0.643 172 170 192
0.399885 -0.358243 -0.643 122 123 143
0.4066 -0.357686 -0.642 63 87 135
0.443473 -0.3549 -0.637 124 138 183
0.424373 -0.325371 -0.584 114 79 77
0.41742 -0.3159 -0.567 117 80 74
0.417171 -0.310886 -0.558 120 81 74
0.418235 -0.306986 -0.551 126 83 74
0.418046 -0.305314 -0.548 129 86 77
0.435795 -0.294729 -0.529 143 92 75
0.436803 -0.294729 -0.529 143 92 75
0.446546 -0.295843 -0.531 148 97 78
0.454319 -0.296957 -0.533 149 98 79
0.101177 -0.261634 -0.468 202 164 155
0.104892 -0.255485 -0.457 203 161 149
0.112354 -0.25269 -0.452 198 159 144
0.115191 -0.253249 -0.453 198 159 142
0.13797 -0.255485 -0.457 142 95 87
0.258643 -0.357231 -0.639 158 175 227
0.262294 -0.357231 -0.639 159 179 229
0.280551 -0.357231 -0.639 166 181 224
0.282986 -0.357231 -0.639 139 155 204
0.290743 -0.35779 -0.64 109 130 185
0.291962 -0.35779 -0.64 105 126 181
0.300495 -0.35779 -0.64 209 223 252
0.302933 -0.35779 -0.64 212 220 243
0.309763 -0.357231 -0.639 176 181 200
0.313414 -0.357231 -0.639 117 145 192
0.318283 -0.357231 -0.639 104 139 197
0.340035 -0.35835 -0.641 176 178 199
0.361354 -0.358909 -0.642 50 80 140
0.3638 -0.358909 -0.642 81 105 151
0.42306 -0.35835 -0.641 144 158 197
0.430386 -0.35835 -0.641 151 154 195
0.438248 -0.35779 -0.64 133 144 174
0.419157 -0.310271 -0.555 120 80 72
0.41909 -0.306358 -0.548 130 87 78
0.420175 -0.304122 -0.544 130 86 77
0.42364 -0.298531 -0.534 150 102 88
0.429552 -0.296295 -0.53 152 101 84
0.43378 -0.295736 -0.529 148 95 79
0.464176 -0.29909 -0.535 161 113 91
0.470003 -0.300209 -0.537 166 115 98
0.480274 -0.304122 -0.544 169 121 99
0.101093 -0.267013 -0.476 199 161 152
0.100745 -0.261404 -0.466 202 164 155
0.10186 -0.259721 -0.463 196 158 145
0.112354 -0.25355 -0.452 195 156 139
0.118381 -0.25355 -0.452 194 153 133
0.12986 -0.254111 -0.453 170 124 108
0.134767 -0.255233 -0.455 151 104 94
0.167326 -0.271501 -0.484 88 69 75
0.274036 -0.357888 -0.638 233 238 255
0.29394 -0.358449 -0.639 114 137 187
0.3195 -0.358449 -0.639 125 157 214
0.323151 -0.358449 -0.639 117 148 202
0.326803 -0.358449 -0.639 146 173 220
0.369914 -0.360131 -0.642 185 185 211
0.396817 -0.360131 -0.642 180 176 201
0.405967 -0.35957 -0.641 150 165 196
0.41085 -0.35957 -0.641 165 170 199
0.43025 -0.330401 -0.589 112 78 76
0.428443 -0.328157 -0.585 113 79 77
0.421402 -0.318621 -0.568 112 77 73
0.42145 -0.306841 -0.547 128 84 73
0.436983 -0.296183 -0.528 143 87 72
0.447557 -0.297866 -0.531 154 101 85
0.465195 -0.30011 -0.535 166 115 96
0.105933 -0.255537 -0.454 205 165 153
0.10805 -0.254411 -0.452 203 163 151
0.109771 -0.254411 -0.452 203 164 149
0.11752 -0.254411 -0.452 198 156 140
0.1371 -0.257226 -0.457 143 99 90
0.183473 -0.28762 -0.511 162 175 217
0.26553 -0.359103 -0.638 227 234 255
0.276467 -0.359103 -0.638 173 179 213
0.305632 -0.359103 -0.638 213 219 241
0.311709 -0.359103 -0.638 146 157 189
0.332889 -0.359666 -0.639 194 201 227
0.334629 -0.360229 -0.64 191 202 224
0.344381 -0.360229 -0.64 104 125 168
0.346819 -0.360229 -0.64 149 165 199
0.349257 -0.360229 -0.64 169 184 227
0.439997 -0.359666 -0.639 95 114 156
0.444687 -0.35854 -0.637 89 113 177
0.421729 -0.313511 -0.557 124 81 74
0.4209 -0.309009 -0.549 127 86 80
0.422492 -0.307883 -0.547 123 83 73
0.423414 -0.301129 -0.535 145 94 75
0.434971 -0.297189 -0.528 150 94 77
0.435977 -0.297189 -0.528 149 93 76
0.459395 -0.300003 -0.533 158 110 90
0.114937 -0.255272 -0.452 199 160 145
0.140629 -0.25979 -0.46 137 94 87
0.154757 -0.266003 -0.471 116 82 81
0.247737 -0.359189 -0.636 164 180 214
0.262687 -0.359753 -0.637 180 190 225
0.284973 -0.360318 -0.638 157 174 218
0.288619 -0.360318 -0.638 175 196 241
0.292265 -0.360318 -0.638 141 157 206
0.297873 -0.359753 -0.637 166 179 213
0.300771 -0.360318 -0.638 198 206 227
0.312924 -0.360318 -0.638 118 134 170
0.326803 -0.360883 -0.639 162 184 231
0.329237 -0.360883 -0.639 198 200 225
0.349929 -0.360883 -0.639 156 169 204
0.352914 -0.361448 -0.64 140 159 192
0.370559 -0.362012 -0.641 182 188 220
0.394362 -0.361448 -0.64 166 172 196
0.401049 -0.360883 -0.639 91 105 142
0.407134 -0.360883 -0.639 174 178 207
0.424174 -0.360883 -0.639 167 172 201
0.429043 -0.360883 -0.639 72 77 115
0.437563 -0.360883 -0.639 143 151 172
0.440524 -0.360318 -0.638 93 110 153
0.421667 -0.310619 -0.55 122 81 75
0.423185 -0.302712 -0.536 140 91 76
0.46041 -0.301018 -0.533 161 113 93
0.470149 -0.302712 -0.536 170 122 102
0.478656 -0.305536 -0.541 166 118 96
0.121555 -0.255567 -0.451 184 141 124
0.124132 -0.255567 -0.451 177 136 114
0.25662 -0.360967 -0.637 181 195 232
0.26754 -0.360967 -0.637 236 240 252
0.294233 -0.360967 -0.637 134 147 189
0.295447 -0.360967 -0.637 126 139 181
0.29666 -0.360967 -0.637 121 134 176
0.346277 -0.3621 -0.639 168 181 213
0.348711 -0.3621 -0.639 170 179 210
0.393143 -0.362667 -0.64 177 181 208
0.403483 -0.3621 -0.639 171 178 206
0.405917 -0.3621 -0.639 174 176 199
0.412003 -0.3621 -0.639 172 178 202
0.432017 -0.361533 -0.638 79 88 119
0.449129 -0.3587 -0.633 139 156 200
0.440242 -0.338867 -0.598 114 79 75
0.43769 -0.336033 -0.593 113 78 74
0.425199 -0.319033 -0.563 117 78 71
0.424041 -0.306567 -0.541 140 91 77
0.423974 -0.3043 -0.537 146 97 82
0.429552 -0.300333 -0.53 163 107 92
0.43296 -0.2992 -0.528 156 100 83
0.436983 -0.2992 -0.528 155 100 80
0.443856 -0.299767 -0.529 155 99 82
0.104606 -0.256994 -0.452 201 162 147
0.109529 -0.256426 -0.451 200 161 146
0.111247 -0.256426 -0.451 201 162 147
0.112965 -0.256426 -0.451 200 161 146
0.114683 -0.256426 -0.451 197 158 143
0.118119 -0.256426 -0.451 190 151 136
0.143 -0.26268 -0.462 137 94 88
0.161035 -0.272346 -0.479 102 77 80
0.252583 -0.361611 -0.636 182 196 235
0.286503 -0.361611 -0.636 179 194 227
0.337229 -0.362749 -0.638 100 109 140
0.34209 -0.362749 -0.638 186 191 221
0.34506 -0.363317 -0.639 189 194 223
0.350596 -0.362749 -0.638 128 138 163
0.380357 -0.363317 -0.639 88 109 154
0.428371 -0.362749 -0.638 157 161 186
0.433767 -0.36218 -0.637 129 134 164
0.424825 -0.308166 -0.542 139 90 76
0.424286 -0.307029 -0.54 141 92 78
0.424527 -0.30646 -0.539 145 93 79
0.424997 -0.305323 -0.537 153 100 86
0.428133 -0.30248 -0.532 163 107 92
0.434971 -0.300206 -0.528 155 100 80
0.435977 -0.300206 -0.528 154 99 79
0.445871 -0.300774 -0.529 155 103 82
0.111 -0.256714 -0.45 199 160 145
0.113571 -0.256714 -0.45 201 162 145
0.131011 -0.258996 -0.454 149 107 95
0.158546 -0.272117 -0.477 101 76 79
0.168123 -0.278963 -0.489 88 73 80
0.170091 -0.280674 -0.492 167 164 183
0.242951 -0.361111 -0.633 239 243 254
0.248557 -0.362252 -0.635 183 197 236
0.277586 -0.362252 -0.635 186 192 224
0.29331 -0.362252 -0.635 188 197 228
0.304674 -0.362823 -0.636 208 215 243
0.316789 -0.362823 -0.636 140 162 211
0.32942 -0.363393 -0.637 192 202 229
0.3367 -0.363393 -0.637 82 90 126
0.374901 -0.363964 -0.638 171 183 207
0.379762 -0.363964 -0.638 90 111 156
0.387053 -0.363964 -0.638 137 160 212
0.390699 -0.363964 -0.638 179 185 211
0.408287 -0.363393 -0.637 175 177 198
0.433767 -0.363393 -0.637 96 104 140
0.436193 -0.363393 -0.637 129 146 192
0.42502 -0.315473 -0.553 119 76 69
0.426354 -0.314903 -0.552 119 76 69
0.425352 -0.312621 -0.548 119 76 69
0.42602 -0.306346 -0.537 152 99 85
0.426248 -0.305775 -0.536 153 100 86
0.450752 -0.302352 -0.53 156 104 83
0.0976114 -0.267874 -0.468 198 160 151
0.121555 -0.258144 -0.451 182 141 119
0.125269 -0.258716 -0.452 169 128 108
0.128997 -0.259289 -0.453 150 108 92
0.150527 -0.268447 -0.469 124 83 81
0.1633 -0.27646 -0.483 92 73 75
0.172767 -0.284473 -0.497 207 208 229
0.261862 -0.363462 -0.635 219 224 254
0.276376 -0.363462 -0.635 215 220 250
0.2921 -0.363462 -0.635 210 217 245
0.362749 -0.365179 -0.638 184 196 220
0.40222 -0.364607 -0.637 176 174 195
0.407646 -0.364034 -0.636 176 177 198
0.417993 -0.364607 -0.637 176 177 198
0.427029 -0.364034 -0.636 172 174 187
0.42975 -0.30279 -0.529 168 112 95
0.449902 -0.30279 -0.529 156 104 83
0.455649 -0.303934 -0.531 162 110 89
0.46056 -0.304507 -0.532 165 114 93
0.0969857 -0.267043 -0.465 198 159 152
0.10032 -0.261874 -0.456 204 164 154
0.119837 -0.259003 -0.451 181 143 122
0.130147 -0.260726 -0.454 147 104 95
0.132167 -0.2613 -0.455 136 93 87
0.1457 -0.267043 -0.465 129 88 84
0.23978 -0.362374 -0.631 241 244 253
0.280771 -0.364097 -0.634 218 223 252
0.283187 -0.364097 -0.634 206 212 236
0.349497 -0.365246 -0.636 188 190 213
0.350709 -0.365246 -0.636 190 192 215
0.386447 -0.36582 -0.637 129 155 216
0.418549 -0.365246 -0.636 173 175 198
0.420971 -0.365246 -0.636 177 179 202
0.437931 -0.365246 -0.636 52 80 143
0.440354 -0.365246 -0.636 25 55 125
0.44863 -0.364097 -0.634 31 65 129
0.428567 -0.321026 -0.559 115 78 72
0.428671 -0.318729 -0.555 117 76 70
0.427681 -0.316431 -0.551 118 75 68
0.428066 -0.308391 -0.537 152 101 84
0.444023 -0.303223 -0.528 151 95 78
0.446034 -0.303223 -0.528 155 100 80
0.464613 -0.30552 -0.532 166 115 94
0.487386 -0.312986 -0.545 158 106 92
0.104374 -0.259862 -0.451 201 163 154
0.116401 -0.259862 -0.451 187 145 129
0.132457 -0.262743 -0.456 136 93 86
0.144814 -0.267929 -0.465 131 90 84
0.156729 -0.274843 -0.477 95 69 68
0.168217 -0.283486 -0.492 173 165 178
0.241364 -0.364152 -0.632 241 244 253
0.242951 -0.364729 -0.633 239 241 255
0.255009 -0.364729 -0.633 187 197 233
0.279564 -0.365305 -0.634 223 228 255
0.350709 -0.366457 -0.636 193 197 222
0.376149 -0.366457 -0.636 130 144 189
0.408214 -0.365881 -0.635 158 163 185
0.416126 -0.366457 -0.636 150 154 183
0.422729 -0.365881 -0.635 171 176 196
0.428776 -0.365881 -0.635 148 150 165
0.437243 -0.365881 -0.635 38 62 124
0.439662 -0.365881 -0.635 31 58 129
0.454438 -0.364152 -0.632 111 131 182
0.4566 -0.363 -0.63 165 162 183
0.436155 -0.303652 -0.527 156 101 81
0.471446 -0.307686 -0.534 165 116 99
0.486491 -0.313448 -0.544 152 109 90
0.0994514 -0.263611 -0.456 202 164 153
0.118978 -0.260721 -0.451 176 136 111
0.123547 -0.261299 -0.452 164 123 103
0.130433 -0.263033 -0.455 137 97 87
0.146013 -0.269392 -0.466 123 86 80
0.148423 -0.270549 -0.468 119 85 83
0.269477 -0.365934 -0.633 157 162 192
0.276711 -0.365934 -0.633 225 230 250
0.280329 -0.365934 -0.633 226 230 255
0.289974 -0.365934 -0.633 214 220 242
0.320623 -0.366512 -0.634 115 137 187
0.330805 -0.36709 -0.635 110 122 162
0.332014 -0.36709 -0.635 128 143 176
0.357414 -0.36709 -0.635 183 194 216
0.361043 -0.36709 -0.635 186 194 215
0.414262 -0.36709 -0.635 130 139 170
0.431724 -0.366512 -0.634 117 131 170
0.440177 -0.366512 -0.634 48 75 144
0.436155 -0.304656 -0.527 151 100 83
0.462587 -0.307547 -0.532 162 111 92
0.480993 -0.311593 -0.539 156 109 89
0.105857 -0.261 -0.45 197 159 146
0.109043 -0.26042 -0.449 196 157 142
0.109898 -0.26042 -0.449 196 157 142
0.118119 -0.26158 -0.451 170 129 109
0.118978 -0.26158 -0.451 178 138 113
0.129282 -0.26332 -0.454 137 97 85
0.131589 -0.26448 -0.456 135 95 85
0.144814 -0.2697 -0.465 122 83 76
0.14874 -0.27202 -0.469 115 84 82
0.161794 -0.28072 -0.484 100 75 78
0.163389 -0.28188 -0.486 91 66 69
0.246991 -0.36598 -0.631 177 186 215
0.284701 -0.36656 -0.632 215 220 240
0.320117 -0.36714 -0.633 96 118 175
0.323038 -0.36772 -0.634 163 181 227
0.335114 -0.36772 -0.634 193 206 225
0.341152 -0.36772 -0.634 191 192 212
0.349606 -0.36772 -0.634 168 174 198
0.357414 -0.3683 -0.635 185 193 214
0.362252 -0.3683 -0.635 188 195 214
0.370719 -0.3683 -0.635 99 113 142
0.384024 -0.3683 -0.635 29 64 130
0.386443 -0.3683 -0.635 39 74 138
0.396119 -0.3683 -0.635 163 168 188
0.411194 -0.36772 -0.634 100 109 142
0.4431 -0.36714 -0.633 29 59 121
0.446717 -0.36714 -0.633 77 111 183
0.450857 -0.348 -0.6 119 81 72
0.445029 -0.30624 -0.528 152 97 76
0.107332 -0.261275 -0.449 198 160 149
0.133618 -0.26593 -0.457 135 95 85
0.248193 -0.367182 -0.631 177 183 215
0.253402 -0.367764 -0.632 180 190 225
0.257013 -0.367764 -0.632 187 198 230
0.293866 -0.367182 -0.631 215 222 240
0.309266 -0.368346 -0.633 156 168 206
0.323734 -0.368346 -0.633 142 167 223
0.326146 -0.368346 -0.633 110 128 176
0.333907 -0.368928 -0.634 192 203 225
0.365881 -0.36951 -0.635 180 187 206
0.36951 -0.36951 -0.635 115 126 156
0.370719 -0.36951 -0.635 100 111 141
0.376173 -0.368928 -0.634 39 73 144
0.404517 -0.368346 -0.633 161 159 172
0.406929 -0.368346 -0.633 141 149 168
0.408134 -0.368346 -0.633 134 141 169
0.410546 -0.368346 -0.633 100 109 142
0.414817 -0.368928 -0.634 144 153 182
0.420855 -0.368928 -0.634 177 178 196
0.446717 -0.368346 -0.633 89 122 189
0.460668 -0.366018 -0.629 174 166 177
0.430503 -0.323539 -0.556 122 84 75
0.429786 -0.318302 -0.547 121 81 69
0.430111 -0.312483 -0.537 146 93 75
0.434971 -0.307246 -0.528 156 101 81
0.45494 -0.307828 -0.529 158 103 82
0.46374 -0.308991 -0.531 162 109 91
0.484839 -0.31481 -0.541 154 105 90
0.120696 -0.263298 -0.451 164 122 98
0.164733 -0.286067 -0.49 121 100 105
0.240982 -0.368384 -0.631 232 238 255
0.2502 -0.3678 -0.63 181 189 225
0.256607 -0.368384 -0.631 192 202 237
0.269828 -0.368384 -0.631 224 230 254
0.283049 -0.368384 -0.631 218 220 243
0.311185 -0.368968 -0.632 102 122 172
0.317204 -0.368968 -0.632 62 93 157
0.319611 -0.368968 -0.632 68 98 158
0.322019 -0.368968 -0.632 98 126 189
0.334586 -0.369551 -0.633 196 202 224
0.346643 -0.369551 -0.633 156 163 191
0.355644 -0.370135 -0.634 157 162 184
0.360474 -0.370135 -0.634 188 191 210
0.378589 -0.370135 -0.634 48 81 148
0.382211 -0.370135 -0.634 53 86 153
0.391872 -0.370135 -0.634 116 138 185
0.39308 -0.370135 -0.634 150 172 219
0.403878 -0.368968 -0.632 169 166 177
0.422603 -0.369551 -0.633 130 128 141
0.424343 -0.368968 -0.632 174 172 185
0.439992 -0.368968 -0.632 54 88 149
0.441196 -0.368968 -0.632 62 96 157
0.458527 -0.368384 -0.631 139 149 185
