ply
format ascii 1.0
comment Created by Open3D
element vertex 1294
property double x
property double y
property double z
property uchar red
property uchar green
property uchar blue
end_header
-0.0497571 -0.280729 -0.645 70 69 75
-0.0438848 -0.28247 -0.649 69 68 76
0.0480057 -0.235899 -0.542 210 176 167
0.0490381 -0.235899 -0.542 210 176 167
0.0522314 -0.236334 -0.543 206 171 165
0.365912 -0.257661 -0.592 155 109 122
0.40454 -0.233723 -0.537 155 106 101
0.4028 -0.231547 -0.532 159 106 100
0.404177 -0.227194 -0.522 158 107 103
0.41249 -0.224148 -0.515 161 106 101
0.416414 -0.224148 -0.515 156 101 94
0.446931 -0.227194 -0.522 122 84 75
-0.118286 -0.262286 -0.6 114 117 122
-0.075 -0.2754 -0.63 73 72 80
0.0448257 -0.236494 -0.541 215 181 172
0.07106 -0.245237 -0.561 159 124 131
0.323637 -0.218134 -0.499 123 97 100
0.328967 -0.21726 -0.497 121 98 104
0.332857 -0.218571 -0.5 61 48 58
0.403033 -0.233871 -0.535 154 103 99
0.4035 -0.2295 -0.525 166 113 109
0.4056 -0.227314 -0.52 164 111 105
0.405809 -0.226877 -0.519 163 110 104
0.431818 -0.226003 -0.517 125 85 75
0.435613 -0.22644 -0.518 122 84 73
0.458103 -0.230811 -0.528 115 81 72
-0.0971781 -0.268258 -0.611 65 64 72
-0.0930038 -0.273088 -0.622 59 58 66
-0.0637 -0.279673 -0.637 73 72 78
0.0383771 -0.242354 -0.552 209 174 168
0.0398933 -0.238842 -0.544 207 168 161
0.0408543 -0.238403 -0.543 211 172 165
0.0696171 -0.244989 -0.558 158 123 129
0.0868 -0.25816 -0.588 135 103 118
0.408184 -0.226988 -0.517 161 106 99
0.409169 -0.226988 -0.517 161 106 99
0.432803 -0.226988 -0.517 124 84 74
0.475565 -0.237525 -0.541 122 83 76
0.490327 -0.242793 -0.553 119 90 82
-0.089881 -0.275595 -0.625 59 58 66
-0.0864476 -0.276036 -0.626 62 61 69
-0.0716267 -0.278682 -0.632 72 71 77
-0.0521333 -0.283973 -0.644 71 70 76
-0.0438848 -0.286178 -0.649 70 69 77
0.05876 -0.24076 -0.546 190 155 153
0.063381 -0.242524 -0.55 175 141 140
0.0658333 -0.243847 -0.553 167 133 134
0.0696171 -0.246051 -0.558 158 123 129
0.07506 -0.25002 -0.567 150 114 124
0.0764086 -0.250902 -0.569 144 111 120
0.0901 -0.262367 -0.595 130 99 114
0.0947571 -0.265894 -0.603 123 97 110
0.113447 -0.280887 -0.637 118 96 109
0.357743 -0.251343 -0.57 148 106 116
0.326539 -0.221358 -0.502 129 103 106
0.32934 -0.220035 -0.499 124 93 99
0.331905 -0.220476 -0.5 68 47 52
0.337148 -0.222681 -0.505 51 38 48
0.401471 -0.236791 -0.537 153 103 96
0.410343 -0.227531 -0.516 157 104 98
0.411326 -0.227531 -0.516 157 104 98
0.4223 -0.22709 -0.515 147 98 91
0.434627 -0.228413 -0.518 128 88 78
0.443238 -0.229295 -0.52 127 89 80
0.469128 -0.23635 -0.536 118 81 73
-0.0638 -0.282543 -0.638 74 73 79
-0.0509857 -0.285643 -0.645 70 69 75
0.0610629 -0.242686 -0.548 183 149 147
0.0646629 -0.244457 -0.552 171 137 136
0.0764086 -0.251986 -0.569 145 112 121
0.0932981 -0.266157 -0.601 123 97 108
0.11538 -0.283871 -0.641 150 144 154
0.117329 -0.285643 -0.645 148 142 152
0.411326 -0.228514 -0.516 159 106 100
0.414274 -0.228514 -0.516 156 103 95
0.434627 -0.2294 -0.518 132 89 80
-0.112369 -0.261075 -0.587 103 106 113
-0.0936019 -0.278421 -0.626 60 59 67
-0.0832676 -0.279755 -0.629 62 61 67
0.0359886 -0.250846 -0.564 211 177 167
0.0378905 -0.242395 -0.545 207 172 166
0.0722571 -0.249956 -0.562 152 119 126
0.111705 -0.281979 -0.634 119 99 108
0.354889 -0.247732 -0.557 138 102 112
0.402789 -0.234834 -0.528 151 102 98
0.414452 -0.229052 -0.515 154 101 93
0.415433 -0.229052 -0.515 157 104 96
0.434627 -0.230387 -0.518 132 89 80
-0.13392 -0.28944 -0.648 107 107 115
-0.0978143 -0.2747 -0.615 72 71 79
-0.0822 -0.2814 -0.63 63 62 68
-0.0463571 -0.289887 -0.649 71 70 76
0.0498857 -0.2412 -0.54 203 168 162
0.399145 -0.240307 -0.538 148 103 100
0.39976 -0.237627 -0.532 154 105 100
0.400529 -0.236287 -0.529 152 104 102
0.418376 -0.230033 -0.515 149 99 90
0.421319 -0.230033 -0.515 143 95 85
-0.110682 -0.261966 -0.584 98 101 108
-0.0918 -0.2826 -0.63 58 57 63
-0.0823305 -0.283049 -0.631 63 62 68
-0.062781 -0.287086 -0.64 74 73 78
-0.0604371 -0.287534 -0.641 74 73 78
0.0415029 -0.241331 -0.538 207 175 164
0.0498857 -0.242229 -0.54 203 169 160
0.0598 -0.24492 -0.546 179 145 144
0.104514 -0.278114 -0.62 118 96 108
0.397466 -0.239089 -0.533 152 103 98
0.410153 -0.231911 -0.517 152 102 95
0.445083 -0.233706 -0.521 125 85 75
0.455366 -0.235949 -0.526 126 86 76
-0.0651171 -0.287854 -0.639 75 74 79
-0.064 -0.288305 -0.64 75 74 79
-0.0593086 -0.289206 -0.642 73 72 77
-0.0558133 -0.290107 -0.644 74 73 78
0.0434714 -0.241906 -0.537 205 172 163
0.0487667 -0.242807 -0.539 201 167 158
0.0657143 -0.248663 -0.552 164 132 133
0.08092 -0.260375 -0.578 137 110 119
0.109626 -0.28335 -0.629 126 99 104
0.467381 -0.29281 -0.65 110 106 123
0.40002 -0.239203 -0.531 148 98 97
0.408973 -0.233347 -0.518 149 99 92
0.419357 -0.231995 -0.515 151 101 94
-0.119827 -0.272333 -0.602 97 98 102
-0.10957 -0.26419 -0.584 91 91 99
-0.106778 -0.265548 -0.587 79 79 87
-0.0860724 -0.285905 -0.632 55 54 62
-0.068661 -0.288619 -0.638 72 71 76
0.077901 -0.258762 -0.572 140 113 120
0.358651 -0.256952 -0.568 152 102 111
0.3572 -0.255143 -0.564 144 103 107
0.35531 -0.251524 -0.556 140 98 102
0.396919 -0.242024 -0.535 148 99 95
0.398747 -0.240667 -0.532 150 99 95
0.412123 -0.233881 -0.517 155 102 96
0.42312 -0.233429 -0.516 151 98 90
0.427051 -0.233429 -0.516 146 96 87
0.428034 -0.233429 -0.516 141 91 82
0.451638 -0.237048 -0.524 119 81 72
-0.106778 -0.266666 -0.587 77 77 85
-0.105076 -0.268029 -0.59 66 66 74
-0.0968686 -0.283474 -0.624 77 76 82
-0.064 -0.290743 -0.64 74 73 78
0.0364467 -0.24486 -0.539 210 176 167
0.0735886 -0.256217 -0.564 142 115 122
0.0995057 -0.277569 -0.611 127 104 112
0.104514 -0.281657 -0.62 121 98 108
0.10791 -0.284383 -0.626 126 101 107
0.3485 -0.2385 -0.525 54 41 50
0.405171 -0.237137 -0.522 149 99 92
0.414092 -0.234866 -0.517 152 102 95
0.414274 -0.234411 -0.516 155 102 96
0.43 -0.234411 -0.516 136 90 77
0.455366 -0.238954 -0.526 122 82 74
-0.10957 -0.266415 -0.584 91 91 99
-0.102911 -0.272346 -0.597 98 97 105
-0.0989857 -0.280557 -0.615 84 83 91
-0.0954 -0.2874 -0.63 72 71 79
0.036379 -0.24543 -0.538 210 176 167
0.0444114 -0.244518 -0.536 208 175 166
0.0486762 -0.24543 -0.538 202 168 159
0.0631505 -0.249992 -0.548 171 137 136
0.0735886 -0.257291 -0.564 142 115 122
0.0932981 -0.27417 -0.601 130 104 113
0.0995057 -0.278732 -0.611 130 104 113
0.102667 -0.281013 -0.616 125 99 108
0.34975 -0.24315 -0.533 120 91 95
0.359886 -0.244518 -0.536 47 35 45
0.396218 -0.246799 -0.541 148 98 97
0.400529 -0.241325 -0.529 146 97 93
0.412123 -0.23585 -0.517 155 105 96
0.435757 -0.23585 -0.517 133 89 80
0.467377 -0.243606 -0.534 124 86 77
-0.106596 -0.268444 -0.586 77 77 85
-0.0984505 -0.283561 -0.619 84 83 91
-0.0911752 -0.290432 -0.634 61 60 66
-0.08876 -0.290432 -0.634 54 53 59
-0.0792238 -0.29089 -0.635 55 54 62
-0.0663343 -0.292723 -0.639 71 70 76
0.054 -0.247371 -0.54 196 159 153
0.0643114 -0.251494 -0.549 168 134 133
0.08092 -0.264779 -0.578 135 109 118
0.0870952 -0.270276 -0.59 130 104 113
0.0916933 -0.273941 -0.598 125 99 108
0.35303 -0.246455 -0.538 129 90 95
0.35376 -0.245539 -0.536 121 82 87
0.361229 -0.246455 -0.538 53 38 43
0.395188 -0.24783 -0.541 137 93 94
0.394753 -0.246913 -0.539 146 98 96
0.403267 -0.240958 -0.526 141 90 87
0.406166 -0.239126 -0.522 145 92 88
0.42312 -0.236377 -0.516 151 101 92
0.432949 -0.236377 -0.516 137 90 80
0.441397 -0.237751 -0.519 125 85 75
0.461857 -0.24279 -0.53 122 82 74
0.471026 -0.245997 -0.537 124 86 77
-0.134111 -0.29578 -0.643 99 99 107
-0.0955514 -0.29026 -0.631 76 75 83
0.0464533 -0.24656 -0.536 207 173 164
0.0694924 -0.25622 -0.557 148 117 122
0.0902514 -0.27416 -0.596 128 102 111
0.0947571 -0.27738 -0.603 134 111 119
0.107566 -0.28704 -0.624 122 99 105
0.119109 -0.29808 -0.648 179 178 194
0.397248 -0.2438 -0.53 145 96 92
0.403267 -0.24196 -0.526 142 89 85
-0.136178 -0.298852 -0.647 99 99 109
-0.111411 -0.268829 -0.582 95 96 101
-0.0979 -0.287767 -0.623 83 83 91
-0.08056 -0.293771 -0.636 52 51 59
0.0351571 -0.247119 -0.535 207 173 164
0.0463667 -0.247119 -0.535 202 168 159
0.0517505 -0.248505 -0.538 197 160 154
0.0619933 -0.252662 -0.547 174 140 138
0.0764086 -0.262824 -0.569 138 111 120
0.0839848 -0.269752 -0.584 132 106 115
0.112912 -0.292848 -0.634 188 172 182
0.378026 -0.253586 -0.549 67 54 63
0.38919 -0.254048 -0.55 97 78 80
0.3927 -0.248967 -0.539 134 88 88
0.399267 -0.24481 -0.53 142 93 89
0.40303 -0.243424 -0.527 141 90 86
0.418206 -0.238343 -0.516 151 103 91
0.430983 -0.238343 -0.516 142 94 84
0.444229 -0.24019 -0.52 122 84 75
0.470149 -0.247581 -0.536 125 87 78
-0.103526 -0.275503 -0.594 105 105 113
0.03916 -0.247674 -0.534 215 178 169
0.0452629 -0.247674 -0.534 205 171 162
0.059581 -0.252312 -0.544 180 146 144
0.0735886 -0.261589 -0.564 141 114 123
0.0780371 -0.265763 -0.573 137 110 119
0.105525 -0.287098 -0.619 127 104 114
0.357843 -0.257414 -0.555 135 85 86
0.35932 -0.25324 -0.546 152 111 115
0.364586 -0.251849 -0.543 135 94 98
0.366293 -0.252312 -0.544 126 97 102
0.377 -0.25324 -0.546 93 74 76
0.37804 -0.25324 -0.546 96 76 77
0.38909 -0.252312 -0.544 132 88 89
0.402789 -0.244891 -0.528 142 91 87
0.40303 -0.244428 -0.527 141 92 87
0.404269 -0.243964 -0.526 143 93 86
0.408365 -0.241645 -0.521 146 96 89
0.420171 -0.239326 -0.516 152 102 91
-0.123134 -0.282689 -0.607 96 97 102
-0.101 -0.282223 -0.606 99 99 107
-0.0630752 -0.299454 -0.643 72 71 79
-0.06072 -0.29992 -0.644 72 71 79
0.08106 -0.269649 -0.579 133 107 116
0.358292 -0.260334 -0.559 139 88 93
0.36733 -0.253349 -0.544 141 106 110
0.375619 -0.253349 -0.544 112 86 85
0.379066 -0.252883 -0.543 122 92 90
0.398257 -0.246829 -0.53 141 93 89
0.404269 -0.244966 -0.526 143 94 87
0.416062 -0.240774 -0.517 147 99 89
0.427051 -0.240309 -0.516 149 99 88
0.460986 -0.246363 -0.529 120 82 73
-0.10566 -0.274492 -0.587 62 62 70
-0.09282 -0.297873 -0.637 72 73 77
-0.0879667 -0.297873 -0.637 53 54 58
-0.0608143 -0.301614 -0.645 71 70 78
-0.05616 -0.303017 -0.648 71 70 78
0.0327086 -0.303017 -0.648 201 168 159
0.0309048 -0.25719 -0.55 203 170 161
0.0369867 -0.248773 -0.532 211 176 170
0.0944429 -0.281039 -0.601 137 114 122
0.0959057 -0.281974 -0.603 135 112 120
0.363852 -0.254852 -0.545 150 111 114
0.37286 -0.253917 -0.543 134 95 96
0.390359 -0.249241 -0.533 138 94 93
0.39368 -0.248773 -0.532 137 93 90
0.399521 -0.24737 -0.529 137 92 87
0.400529 -0.24737 -0.529 139 92 86
0.411543 -0.243162 -0.52 149 96 90
0.41174 -0.242694 -0.519 147 94 88
0.416062 -0.241759 -0.517 148 98 91
0.420001 -0.241759 -0.517 153 103 94
0.48678 -0.256723 -0.549 125 88 82
-0.102567 -0.279367 -0.595 112 111 119
-0.0654229 -0.301434 -0.642 68 67 75
-0.0620429 -0.302843 -0.645 70 69 77
-0.0585381 -0.303782 -0.647 72 71 79
-0.0562467 -0.304721 -0.649 70 69 77
-0.0538571 -0.30519 -0.65 69 68 76
0.0350257 -0.250256 -0.533 210 176 167
0.0560571 -0.253543 -0.54 186 148 145
0.0681857 -0.260586 -0.555 149 120 125
0.116965 -0.301904 -0.643 198 187 204
0.372173 -0.254482 -0.542 141 101 102
0.38804 -0.250726 -0.534 134 93 91
0.393951 -0.249317 -0.531 137 92 89
0.40303 -0.247439 -0.527 141 94 88
0.405726 -0.24603 -0.524 145 96 89
0.406944 -0.245561 -0.523 147 98 91
0.417047 -0.242744 -0.517 143 93 84
0.429017 -0.242274 -0.516 149 99 92
0.460986 -0.248378 -0.529 124 85 78
0.469271 -0.251195 -0.535 122 83 78
0.478509 -0.254482 -0.542 129 92 86
-0.0905352 -0.300771 -0.638 71 72 77
-0.0702048 -0.302186 -0.641 63 62 70
-0.0597705 -0.305014 -0.647 71 70 78
0.0314743 -0.305486 -0.648 203 169 160
0.03222 -0.253157 -0.537 204 170 161
0.0570857 -0.254571 -0.54 184 146 143
0.0606171 -0.256457 -0.544 174 138 138
0.0694924 -0.262586 -0.557 148 117 123
0.07506 -0.2673 -0.567 140 113 122
0.361929 -0.265414 -0.563 143 91 95
0.36084 -0.263057 -0.558 142 91 96
0.384989 -0.251743 -0.534 133 89 88
0.391653 -0.2508 -0.532 142 97 94
0.395229 -0.249857 -0.53 140 92 88
0.396498 -0.249386 -0.529 141 93 89
0.415694 -0.244671 -0.519 151 101 92
0.420986 -0.243729 -0.517 151 101 92
0.422955 -0.243729 -0.517 152 102 93
0.424925 -0.243729 -0.517 152 102 93
0.438573 -0.2442 -0.518 124 86 77
0.441397 -0.244671 -0.519 120 82 73
0.44892 -0.246086 -0.522 123 83 75
0.458239 -0.248443 -0.527 125 84 78
0.482195 -0.256929 -0.545 127 88 83
-0.094181 -0.301987 -0.638 80 81 86
-0.0882429 -0.30246 -0.639 54 55 59
-0.0845914 -0.30246 -0.639 48 47 55
-0.0795981 -0.301987 -0.638 46 45 53
0.0348943 -0.25134 -0.531 208 174 165
0.0409629 -0.25134 -0.531 209 175 166
0.0494238 -0.253233 -0.535 192 157 151
0.0515581 -0.253707 -0.536 186 148 145
0.0548248 -0.254653 -0.538 183 145 142
0.0667657 -0.26128 -0.552 150 118 121
0.0780371 -0.27122 -0.573 136 110 119
0.0959057 -0.28542 -0.603 139 114 120
0.105354 -0.29252 -0.618 122 100 103
0.36342 -0.26838 -0.567 143 91 95
0.361067 -0.265067 -0.56 140 89 94
0.361254 -0.263647 -0.557 144 95 99
0.36733 -0.257493 -0.544 150 108 112
0.387883 -0.25134 -0.531 136 92 89
0.391929 -0.25134 -0.531 144 96 92
0.39776 -0.24992 -0.528 141 93 89
0.414706 -0.24566 -0.519 149 99 88
0.415694 -0.24566 -0.519 150 100 89
0.419016 -0.244713 -0.517 151 101 90
0.42394 -0.244713 -0.517 153 103 92
0.43956 -0.245187 -0.518 122 84 75
0.4545 -0.2485 -0.525 125 85 77
0.462867 -0.250867 -0.53 122 82 74
0.465627 -0.251813 -0.532 122 83 76
-0.141544 -0.30843 -0.649 103 104 108
-0.140091 -0.307954 -0.648 98 99 103
-0.131609 -0.299875 -0.631 100 100 108
-0.110303 -0.276589 -0.582 106 109 114
-0.0845914 -0.303677 -0.639 49 48 56
-0.0808133 -0.303202 -0.638 45 44 52
-0.0737524 -0.304152 -0.64 49 48 56
0.0378571 -0.251876 -0.53 211 176 170
0.0472086 -0.253302 -0.533 199 164 158
0.052579 -0.254728 -0.536 190 152 149
0.0559533 -0.256153 -0.539 180 142 141
0.0654762 -0.261381 -0.55 152 120 123
0.0841286 -0.278014 -0.585 131 104 113
0.09154 -0.283717 -0.597 134 108 117
0.110471 -0.297974 -0.627 190 177 197
0.361903 -0.265183 -0.558 143 94 100
0.376221 -0.254728 -0.536 141 99 100
0.379903 -0.253777 -0.534 141 97 96
0.380207 -0.253302 -0.533 141 97 96
0.381222 -0.253302 -0.533 140 96 95
0.387883 -0.252351 -0.531 137 93 90
0.39776 -0.250926 -0.528 142 94 90
0.411342 -0.247599 -0.521 151 103 93
0.414706 -0.246649 -0.519 150 100 89
0.437587 -0.246173 -0.518 129 86 77
-0.1314 -0.3006 -0.63 97 100 109
-0.114019 -0.278651 -0.584 107 110 115
-0.109194 -0.277697 -0.582 109 112 119
-0.10472 -0.28056 -0.588 141 141 153
-0.0979552 -0.301077 -0.631 90 89 95
-0.0679743 -0.306803 -0.643 62 61 69
-0.0645 -0.307757 -0.645 67 66 74
0.0461067 -0.25384 -0.532 197 162 156
0.0605057 -0.259089 -0.543 170 134 134
0.0721286 -0.267677 -0.561 142 112 120
0.0765429 -0.271971 -0.57 137 111 122
0.36353 -0.264337 -0.554 149 103 106
0.374877 -0.256226 -0.537 141 99 100
0.39146 -0.252409 -0.529 143 98 93
0.406944 -0.249546 -0.523 149 100 93
0.415694 -0.247637 -0.519 151 101 90
0.417671 -0.247637 -0.519 149 99 88
0.422955 -0.246683 -0.517 150 100 89
0.427879 -0.246683 -0.517 147 97 86
0.433788 -0.246683 -0.517 138 91 81
0.434772 -0.246683 -0.517 134 87 77
0.4545 -0.2505 -0.525 124 84 74
0.456368 -0.250977 -0.526 123 83 73
0.45737 -0.250977 -0.526 123 83 73
0.459243 -0.251454 -0.527 124 84 74
-0.141326 -0.310423 -0.648 97 101 104
-0.139875 -0.309944 -0.647 93 97 100
-0.10566 -0.281201 -0.587 66 66 78
-0.0646 -0.309465 -0.646 65 66 71
0.0301933 -0.309944 -0.647 204 170 160
0.0357029 -0.252937 -0.528 212 178 169
0.05698 -0.258207 -0.539 181 143 142
0.07506 -0.27162 -0.567 139 111 123
0.374877 -0.257249 -0.537 143 99 98
0.380207 -0.255332 -0.533 141 97 96
0.383547 -0.254853 -0.532 144 100 99
0.396754 -0.252937 -0.528 144 97 91
0.422955 -0.247668 -0.517 149 99 90
0.473071 -0.257249 -0.537 126 86 76
0.476743 -0.258686 -0.54 130 90 82
0.48412 -0.26156 -0.546 130 92 83
-0.307667 -0.312619 -0.65 253 254 249
-0.131609 -0.303481 -0.631 97 100 107
-0.107345 -0.280876 -0.584 85 85 97
-0.103084 -0.28761 -0.598 206 205 210
-0.0886571 -0.308771 -0.642 57 60 69
0.0301467 -0.310695 -0.646 200 166 156
0.0397257 -0.253943 -0.528 206 172 162
0.0536 -0.25779 -0.536 184 146 145
0.0708067 -0.268852 -0.559 140 110 120
0.0988543 -0.291938 -0.607 132 108 121
0.11484 -0.306848 -0.638 99 108 139
0.368313 -0.263081 -0.547 150 104 104
0.373193 -0.259233 -0.539 146 102 99
0.377869 -0.256829 -0.534 140 96 95
0.393475 -0.254424 -0.529 147 99 95
0.420813 -0.249133 -0.518 148 98 91
0.445219 -0.250095 -0.52 128 88 80
0.4565 -0.2525 -0.525 122 79 72
0.459243 -0.253462 -0.527 122 79 72
-0.337381 -0.313857 -0.65 251 252 244
-0.310143 -0.313857 -0.65 252 253 247
-0.291571 -0.313857 -0.65 251 252 247
-0.110303 -0.281023 -0.582 111 111 121
-0.0912448 -0.310477 -0.643 68 68 76
0.0376429 -0.254466 -0.527 209 175 166
0.0616533 -0.262674 -0.544 163 127 129
0.0722571 -0.271366 -0.562 138 110 122
0.07506 -0.27378 -0.567 138 112 125
0.08568 -0.28392 -0.588 128 102 115
0.0870952 -0.284886 -0.59 128 102 115
0.0913867 -0.287783 -0.596 134 110 124
0.372517 -0.261226 -0.541 147 102 99
0.378886 -0.257846 -0.534 145 100 97
0.379191 -0.257363 -0.533 143 98 95
0.400261 -0.253983 -0.526 151 102 95
0.401263 -0.253983 -0.526 152 103 96
0.4025 -0.2535 -0.525 151 103 93
0.406944 -0.252534 -0.523 153 105 95
0.415694 -0.250603 -0.519 143 95 85
0.417853 -0.25012 -0.518 146 98 88
0.42591 -0.249637 -0.517 147 99 89
-0.390619 -0.315095 -0.65 245 247 236
-0.346751 -0.31461 -0.649 251 252 244
-0.336862 -0.31461 -0.649 251 252 244
-0.326238 -0.315095 -0.65 251 252 246
-0.303017 -0.314126 -0.648 252 253 248
-0.280429 -0.315095 -0.65 253 253 251
-0.131609 -0.305885 -0.631 96 96 106
-0.124905 -0.295705 -0.61 98 98 108
-0.110303 -0.282131 -0.582 104 104 114
-0.0913867 -0.312187 -0.644 51 55 58
-0.0847238 -0.310248 -0.64 43 42 50
-0.0835048 -0.310248 -0.64 40 39 47
-0.0772886 -0.309763 -0.639 35 34 40
-0.067061 -0.313156 -0.646 62 63 68
-0.0659324 -0.313641 -0.647 65 66 71
0.0289343 -0.258378 -0.533 207 173 164
0.0490543 -0.257409 -0.531 192 157 153
0.0666448 -0.267104 -0.551 150 119 127
0.0735886 -0.273406 -0.564 138 112 125
0.0957467 -0.291827 -0.602 137 110 125
0.37251 -0.276799 -0.571 131 87 88
0.371826 -0.263226 -0.543 146 101 96
0.382533 -0.257893 -0.532 146 101 98
0.386422 -0.256439 -0.529 144 96 92
0.391726 -0.255954 -0.528 149 102 96
0.405948 -0.25353 -0.523 156 106 97
0.406944 -0.25353 -0.523 155 105 96
0.416683 -0.251591 -0.519 142 94 84
0.45737 -0.254985 -0.526 122 82 74
0.463001 -0.256439 -0.529 122 84 75
-0.343043 -0.315847 -0.649 251 252 244
-0.331917 -0.315847 -0.649 250 251 245
-0.131609 -0.307087 -0.631 93 93 103
-0.106596 -0.285187 -0.586 73 71 84
-0.10146 -0.303193 -0.623 184 186 181
-0.0833743 -0.31098 -0.639 38 37 45
0.0287371 -0.31244 -0.642 200 166 157
0.0272571 -0.2628 -0.54 199 165 155
0.0427429 -0.25696 -0.528 202 168 159
0.06154 -0.26426 -0.543 164 127 134
0.107049 -0.30222 -0.621 114 103 119
0.108754 -0.30368 -0.624 155 144 160
0.374251 -0.278373 -0.572 128 86 87
0.37286 -0.26426 -0.543 142 99 93
0.40716 -0.25404 -0.522 155 107 97
0.413327 -0.253553 -0.521 148 99 94
0.420813 -0.252093 -0.518 146 96 89
0.432803 -0.251607 -0.517 134 87 79
0.443374 -0.25258 -0.519 125 85 77
0.4555 -0.2555 -0.525 125 85 75
0.47131 -0.260367 -0.535 126 88 79
0.48146 -0.26426 -0.543 131 94 86
-0.390018 -0.317083 -0.649 245 246 238
-0.344983 -0.316594 -0.648 250 251 243
-0.281233 -0.317083 -0.649 253 253 251
-0.109382 -0.284837 -0.583 97 95 106
-0.10266 -0.29754 -0.609 226 224 227
-0.0936943 -0.314151 -0.643 105 109 108
0.0287714 -0.258943 -0.53 206 172 162
0.0305581 -0.256989 -0.526 209 175 165
0.0355 -0.2565 -0.525 210 176 166
0.0416581 -0.257477 -0.527 203 169 160
0.0522848 -0.260409 -0.533 181 146 142
0.0972152 -0.295097 -0.604 134 110 124
0.372925 -0.272134 -0.557 141 97 96
0.372481 -0.267249 -0.547 141 97 94
0.388709 -0.257966 -0.528 152 103 98
0.400735 -0.256011 -0.524 154 104 97
0.40373 -0.256011 -0.524 159 109 100
0.427879 -0.252591 -0.517 147 97 88
0.43956 -0.25308 -0.518 126 83 74
-0.364058 -0.318319 -0.649 250 251 243
-0.324 -0.317829 -0.648 251 252 244
-0.125314 -0.300171 -0.612 86 86 96
-0.116314 -0.289381 -0.59 89 90 95
-0.11441 -0.287419 -0.586 90 91 95
-0.110492 -0.285948 -0.583 91 91 99
-0.107529 -0.286929 -0.585 81 79 90
-0.0978267 -0.312924 -0.638 165 167 166
0.0344343 -0.25701 -0.524 209 175 165
0.3995 -0.2575 -0.525 155 105 98
0.412334 -0.255538 -0.521 149 100 93
0.454632 -0.25701 -0.524 132 89 82
0.470429 -0.261914 -0.534 125 85 77
0.476002 -0.263876 -0.538 127 86 80
1.13339 -0.308019 -0.628 201 205 188
-0.348148 -0.31857 -0.647 250 251 243
-0.290226 -0.31857 -0.647 252 253 248
-0.139443 -0.317586 -0.645 88 92 93
-0.0976733 -0.313647 -0.637 171 176 172
-0.0958448 -0.315616 -0.641 157 163 161
0.0295 -0.2585 -0.525 208 174 164
0.0478619 -0.26047 -0.529 191 156 150
0.08106 -0.285089 -0.579 131 104 119
0.375575 -0.264901 -0.538 139 94 89
0.381222 -0.262439 -0.533 146 101 96
0.38998 -0.259485 -0.527 151 102 95
0.403955 -0.257515 -0.523 160 108 95
0.408365 -0.25653 -0.521 159 109 100
0.412334 -0.25653 -0.521 148 100 90
0.413524 -0.256038 -0.52 146 97 90
0.420637 -0.255546 -0.519 149 101 91
-0.372795 -0.319803 -0.647 246 247 239
-0.359239 -0.319803 -0.647 251 252 244
-0.35007 -0.319309 -0.646 250 251 243
-0.34761 -0.319309 -0.646 251 252 244
-0.330383 -0.319309 -0.646 252 253 245
-0.326691 -0.319309 -0.646 251 252 244
-0.318078 -0.319309 -0.646 251 252 246
-0.300851 -0.319309 -0.646 251 252 247
-0.103946 -0.298054 -0.603 232 226 236
-0.100917 -0.309917 -0.627 220 220 220
0.0324381 -0.259006 -0.524 207 173 163
0.0545191 -0.264443 -0.535 178 139 140
0.0869476 -0.291134 -0.589 128 104 120
0.378133 -0.2768 -0.56 135 91 88
0.38092 -0.263949 -0.534 145 100 95
0.399737 -0.259006 -0.524 158 108 99
0.408154 -0.258017 -0.522 157 107 96
0.411342 -0.257523 -0.521 152 102 91
0.43068 -0.25604 -0.518 142 95 87
0.432803 -0.255546 -0.517 136 92 83
0.45563 -0.259006 -0.524 127 87 79
-0.382063 -0.320539 -0.646 244 245 237
-0.380832 -0.320539 -0.646 245 246 238
-0.378371 -0.320539 -0.646 247 248 240
-0.372219 -0.320539 -0.646 246 247 239
-0.368528 -0.320539 -0.646 243 244 236
-0.361145 -0.320539 -0.646 250 251 243
-0.334074 -0.320539 -0.646 250 251 243
-0.320539 -0.320539 -0.646 251 252 246
-0.3139 -0.320043 -0.645 252 253 245
-0.131609 -0.313096 -0.631 84 85 90
-0.109757 -0.290271 -0.585 79 78 86
-0.102667 -0.305653 -0.616 235 229 239
-0.0956952 -0.317562 -0.64 140 146 144
-0.0817714 -0.315577 -0.636 33 33 43
-0.0794733 -0.316073 -0.637 32 32 40
0.02492 -0.264966 -0.534 200 167 158
0.0323762 -0.259508 -0.523 208 175 166
0.036361 -0.259508 -0.523 204 171 162
0.0404229 -0.260004 -0.524 202 165 157
0.0467657 -0.261989 -0.528 194 156 153
0.0666448 -0.273401 -0.551 147 115 128
0.37631 -0.270424 -0.545 138 94 91
0.3955 -0.2605 -0.525 158 108 101
0.408365 -0.258515 -0.521 157 107 98
0.413524 -0.258019 -0.52 149 99 90
0.474232 -0.265958 -0.536 130 89 83
0.484419 -0.269928 -0.544 130 91 84
-0.366067 -0.32177 -0.646 245 246 238
-0.3483 -0.321271 -0.645 250 251 243
-0.343386 -0.321271 -0.645 250 251 243
-0.340929 -0.321271 -0.645 250 251 243
-0.330383 -0.32177 -0.646 251 252 244
-0.31096 -0.320773 -0.644 252 253 245
-0.304827 -0.320773 -0.644 251 252 246
-0.300386 -0.321271 -0.645 252 253 247
-0.2967 -0.321271 -0.645 251 252 246
-0.131609 -0.314298 -0.631 82 83 88
-0.109014 -0.292382 -0.587 77 77 85
-0.107324 -0.293876 -0.59 72 71 79
-0.104118 -0.30085 -0.604 231 225 235
-0.101623 -0.310811 -0.624 232 227 233
-0.0991571 -0.314298 -0.631 216 218 217
-0.0946238 -0.319279 -0.641 64 70 68
-0.0794733 -0.317287 -0.637 36 36 44
0.0521867 -0.264987 -0.532 183 148 146
0.0590333 -0.268473 -0.539 163 127 137
0.0764086 -0.283416 -0.569 134 110 124
0.0896457 -0.294872 -0.592 142 115 132
0.105354 -0.307823 -0.618 119 103 114
0.379284 -0.266979 -0.536 142 94 90
0.386422 -0.263492 -0.529 145 96 89
0.390242 -0.261998 -0.526 153 102 98
0.391244 -0.261998 -0.526 155 105 98
0.407372 -0.259508 -0.521 155 105 96
0.42541 -0.25901 -0.52 146 96 89
0.442386 -0.258511 -0.519 127 84 77
0.449052 -0.259508 -0.521 132 89 82
0.459373 -0.261998 -0.526 126 85 79
-0.34408 -0.322 -0.644 250 252 241
-0.320043 -0.3225 -0.645 251 252 246
-0.306053 -0.322 -0.644 252 253 247
-0.294243 -0.3225 -0.645 251 252 246
-0.132026 -0.3165 -0.633 80 84 87
-0.0921819 -0.3205 -0.641 48 54 54
-0.0896 -0.32 -0.64 42 45 50
-0.088381 -0.32 -0.64 41 41 49
-0.0817714 -0.318 -0.636 36 36 44
0.0372857 -0.261 -0.522 205 168 159
0.083841 -0.2915 -0.583 129 102 119
0.0853886 -0.293 -0.586 132 105 122
0.0955876 -0.3005 -0.601 136 112 128
0.41778 -0.3165 -0.633 121 111 122
0.378 -0.27 -0.54 141 97 94
0.378327 -0.2695 -0.539 137 93 90
0.378969 -0.2685 -0.537 139 94 89
0.386422 -0.2645 -0.529 146 97 92
0.3945 -0.2625 -0.525 161 108 102
0.428546 -0.2595 -0.519 145 95 88
0.429534 -0.2595 -0.519 141 93 83
0.43068 -0.259 -0.518 138 92 79
0.43956 -0.259 -0.518 125 82 73
0.4575 -0.2625 -0.525 127 84 77
-0.372293 -0.323227 -0.644 247 248 240
-0.352667 -0.323227 -0.644 249 251 240
-0.335493 -0.323227 -0.644 251 253 242
-0.31832 -0.323227 -0.644 252 253 247
-0.313413 -0.323227 -0.644 252 253 247
-0.312187 -0.323227 -0.644 252 253 247
-0.135924 -0.321219 -0.64 79 83 84
-0.122782 -0.306664 -0.611 74 77 84
-0.110508 -0.295622 -0.589 74 77 84
-0.0882429 -0.320717 -0.639 42 40 51
-0.0793486 -0.319211 -0.636 41 40 46
0.03828 -0.261994 -0.522 204 167 159
0.0392743 -0.261994 -0.522 202 165 157
0.0466771 -0.264504 -0.527 186 151 147
0.0566629 -0.269021 -0.536 169 130 133
0.0614267 -0.272032 -0.542 155 121 135
0.0749276 -0.284078 -0.566 136 109 126
0.387462 -0.285584 -0.569 130 90 88
0.385133 -0.26601 -0.53 148 99 94
0.405171 -0.261994 -0.522 160 110 99
0.408365 -0.261492 -0.521 154 104 93
0.422438 -0.26099 -0.52 152 102 91
0.427557 -0.260489 -0.519 147 97 88
0.430523 -0.260489 -0.519 143 93 82
0.431667 -0.259987 -0.518 139 93 80
0.437587 -0.259987 -0.518 128 84 73
0.442386 -0.260489 -0.519 130 86 77
0.486348 -0.273538 -0.545 130 89 83
-0.383963 -0.32395 -0.643 245 246 238
-0.380289 -0.32395 -0.643 246 247 239
-0.357018 -0.32395 -0.643 249 250 242
-0.099 -0.3174 -0.63 227 227 229
-0.0748543 -0.321934 -0.639 141 139 144
0.0302095 -0.261981 -0.52 210 176 166
0.0341714 -0.261981 -0.52 205 171 161
0.0423381 -0.263492 -0.523 197 163 154
0.0445 -0.2645 -0.525 191 156 150
0.0749276 -0.285156 -0.566 136 109 124
0.100175 -0.306316 -0.608 128 104 118
0.11309 -0.319919 -0.635 210 213 228
0.419265 -0.316392 -0.628 122 97 101
0.380057 -0.272057 -0.54 145 100 97
0.382037 -0.270546 -0.537 144 99 96
0.385414 -0.266515 -0.529 149 100 95
0.39997 -0.263492 -0.523 165 113 102
0.405388 -0.262485 -0.521 161 111 100
0.42739 -0.261981 -0.52 148 98 87
0.429371 -0.261981 -0.52 146 96 85
0.443374 -0.261477 -0.519 132 88 79
0.445351 -0.261477 -0.519 130 87 78
0.451037 -0.262485 -0.521 131 87 78
0.46968 -0.268027 -0.532 123 83 75
-0.362577 -0.324669 -0.642 243 244 236
-0.325174 -0.325174 -0.643 251 252 244
-0.322725 -0.325174 -0.643 251 252 244
-0.31905 -0.325174 -0.643 251 252 244
-0.132651 -0.321634 -0.636 77 81 84
-0.10492 -0.30444 -0.602 73 72 80
-0.0995638 -0.316577 -0.626 227 222 229
-0.0903933 -0.32214 -0.637 48 47 55
-0.0866171 -0.321634 -0.636 41 39 50
0.0301514 -0.262466 -0.519 207 173 163
0.0508848 -0.267523 -0.529 183 144 145
0.0601714 -0.273086 -0.54 157 124 133
0.0792667 -0.29028 -0.574 133 106 121
0.100175 -0.307474 -0.608 127 105 118
0.38743 -0.267523 -0.529 143 94 87
0.412729 -0.262466 -0.519 156 107 93
0.437587 -0.26196 -0.518 132 86 73
0.468797 -0.268534 -0.531 127 84 78
-0.382143 -0.325891 -0.642 245 247 236
-0.32956 -0.325891 -0.642 250 251 243
-0.296543 -0.325891 -0.642 250 251 246
-0.10746 -0.303049 -0.597 77 77 85
-0.0992457 -0.316754 -0.624 221 218 225
-0.0804333 -0.322338 -0.635 54 52 57
0.02436 -0.264977 -0.522 207 173 161
0.0300933 -0.262947 -0.518 206 172 160
0.0519905 -0.269038 -0.53 178 142 142
0.0532 -0.270053 -0.532 175 139 139
0.0923667 -0.302033 -0.595 137 113 127
0.112378 -0.320308 -0.631 208 211 228
0.38306 -0.272591 -0.537 144 96 92
0.39499 -0.265485 -0.523 158 106 95
0.4002 -0.264977 -0.522 162 110 99
0.409763 -0.263454 -0.519 152 103 89
0.413717 -0.263454 -0.519 156 107 93
0.417671 -0.263454 -0.519 156 104 91
0.431511 -0.263454 -0.519 144 96 82
0.43956 -0.262947 -0.518 129 85 74
0.445351 -0.263454 -0.519 131 88 79
0.450045 -0.26447 -0.521 131 87 78
0.460375 -0.267008 -0.526 129 84 78
-0.388267 -0.326095 -0.64 246 247 239
-0.363233 -0.326605 -0.641 246 247 239
-0.352245 -0.326605 -0.641 249 250 242
-0.344919 -0.326605 -0.641 249 251 240
-0.327114 -0.327114 -0.642 251 252 244
-0.315616 -0.326605 -0.641 252 253 245
-0.0932952 -0.322019 -0.632 52 51 57
0.0652381 -0.279219 -0.548 142 111 126
0.0762743 -0.28941 -0.568 130 107 125
0.0792667 -0.292467 -0.574 132 105 120
0.0970543 -0.307243 -0.603 128 106 119
0.396617 -0.293486 -0.576 137 94 87
0.388437 -0.269538 -0.529 151 101 92
0.401194 -0.265971 -0.522 157 107 96
0.402189 -0.265971 -0.522 158 108 97
0.403619 -0.264952 -0.52 161 111 100
0.410751 -0.264443 -0.519 160 111 97
0.436742 -0.263424 -0.517 134 88 75
0.4585 -0.2675 -0.525 132 87 81
-0.385829 -0.327314 -0.64 245 246 238
-0.38461 -0.327314 -0.64 244 245 237
-0.35779 -0.327314 -0.64 244 245 237
-0.335151 -0.327826 -0.641 250 251 245
-0.327826 -0.327826 -0.641 251 252 244
-0.311467 -0.327314 -0.64 251 252 246
-0.302186 -0.327826 -0.641 252 253 247
-0.129614 -0.323734 -0.633 90 94 97
-0.106243 -0.308391 -0.603 83 84 89
-0.09614 -0.320666 -0.627 64 63 69
-0.0896838 -0.323223 -0.632 48 49 54
-0.0874143 -0.323734 -0.633 44 44 52
-0.0815143 -0.324246 -0.634 55 54 59
0.0289943 -0.263897 -0.516 206 172 160
0.0299771 -0.263897 -0.516 209 173 159
0.03096 -0.263897 -0.516 208 172 158
0.037 -0.26492 -0.518 203 169 159
0.0379867 -0.26492 -0.518 203 167 155
0.0909267 -0.303277 -0.593 136 112 126
0.0939714 -0.305834 -0.598 132 108 122
0.385106 -0.274637 -0.537 142 93 86
0.38998 -0.269523 -0.527 150 100 91
0.3945 -0.2685 -0.525 156 106 97
0.394747 -0.267989 -0.524 158 108 99
0.401418 -0.266454 -0.521 163 111 98
0.403403 -0.266454 -0.521 164 112 99
0.42558 -0.265431 -0.519 152 100 86
0.434627 -0.26492 -0.518 140 92 78
0.434772 -0.264409 -0.517 139 91 77
0.438711 -0.264409 -0.517 133 86 76
0.463258 -0.269523 -0.527 130 85 79
-0.373054 -0.32802 -0.639 247 249 238
-0.358449 -0.32802 -0.639 245 246 238
-0.356014 -0.32802 -0.639 245 246 238
-0.354797 -0.32802 -0.639 246 247 239
-0.344381 -0.328533 -0.64 250 251 243
-0.334629 -0.328533 -0.64 251 252 246
-0.322438 -0.328533 -0.64 250 251 243
-0.313905 -0.328533 -0.64 251 252 244
-0.299276 -0.328533 -0.64 251 252 246
-0.109689 -0.30954 -0.603 89 90 95
0.0270286 -0.26488 -0.516 208 175 160
0.0465 -0.2695 -0.525 186 148 145
0.0880695 -0.302353 -0.589 138 112 123
0.0955876 -0.308513 -0.601 128 106 119
0.365857 -0.333667 -0.65 143 166 210
0.428834 -0.322373 -0.628 132 121 129
0.385594 -0.278227 -0.542 137 92 86
0.388437 -0.271553 -0.529 149 100 93
0.396982 -0.268473 -0.523 159 107 94
0.397978 -0.268473 -0.523 159 107 94
0.401418 -0.267447 -0.521 166 114 100
0.40241 -0.267447 -0.521 167 115 102
0.424591 -0.26642 -0.519 154 102 88
0.444493 -0.265907 -0.518 130 86 75
0.44819 -0.266933 -0.52 126 82 71
0.462254 -0.270527 -0.527 128 84 75
-0.371837 -0.329237 -0.639 248 250 239
-0.328533 -0.329752 -0.64 252 253 245
-0.121243 -0.319963 -0.621 96 97 101
-0.111572 -0.31275 -0.607 93 94 99
-0.10908 -0.312234 -0.606 92 93 98
-0.103334 -0.315841 -0.613 84 85 90
0.0199571 -0.327176 -0.635 203 167 153
0.0279571 -0.265348 -0.515 208 175 160
0.0431686 -0.268439 -0.521 190 153 147
0.0442457 -0.268954 -0.522 188 150 147
0.0453267 -0.26947 -0.523 188 150 147
0.0541114 -0.273591 -0.531 170 134 136
0.0733276 -0.289564 -0.562 137 111 124
0.0835533 -0.299353 -0.581 135 109 122
0.339334 -0.33439 -0.649 224 232 255
0.346751 -0.33439 -0.649 218 222 251
0.35046 -0.33439 -0.649 154 160 192
0.374524 -0.334905 -0.65 184 202 238
0.395745 -0.269985 -0.524 157 108 94
0.405809 -0.267409 -0.519 163 114 100
0.41174 -0.267409 -0.519 164 115 100
0.420637 -0.267409 -0.519 160 111 96
0.424591 -0.267409 -0.519 156 107 92
0.435613 -0.266893 -0.518 144 96 82
0.435757 -0.266378 -0.517 142 94 80
0.487528 -0.28029 -0.544 128 88 78
-0.384623 -0.329937 -0.638 244 246 233
-0.368825 -0.329937 -0.638 248 249 241
-0.329237 -0.330454 -0.639 252 253 245
-0.325586 -0.330454 -0.639 250 251 243
-0.31657 -0.329937 -0.638 251 252 244
-0.290289 -0.330454 -0.639 251 252 247
-0.12006 -0.321146 -0.621 97 101 104
-0.111144 -0.315974 -0.611 97 98 103
-0.100483 -0.319077 -0.617 80 81 85
-0.0916543 -0.325283 -0.629 61 60 68
-0.0906 -0.3258 -0.63 59 58 66
-0.0894 -0.3258 -0.63 58 57 65
-0.0815143 -0.327869 -0.634 188 188 190
0.0327981 -0.265811 -0.514 205 169 155
0.0576838 -0.277189 -0.536 157 124 131
0.0589238 -0.278223 -0.538 155 122 129
0.0863571 -0.302529 -0.585 138 111 126
0.372711 -0.335626 -0.649 167 183 219
0.383837 -0.335626 -0.649 174 180 202
0.385073 -0.335626 -0.649 132 148 184
0.390018 -0.335626 -0.649 105 134 190
0.39249 -0.335626 -0.649 90 119 175
0.414143 -0.336143 -0.65 166 177 209
0.421571 -0.336143 -0.65 38 68 140
0.429 -0.336143 -0.65 35 65 135
0.390614 -0.287014 -0.555 128 87 83
0.396982 -0.270466 -0.523 159 107 94
0.416683 -0.268397 -0.519 169 117 103
0.424591 -0.268397 -0.519 159 110 95
0.42558 -0.268397 -0.519 159 107 93
0.439696 -0.267363 -0.517 140 92 78
0.44252 -0.26788 -0.518 142 94 82
-0.386447 -0.330633 -0.637 246 247 239
-0.374313 -0.330633 -0.637 245 247 236
-0.36582 -0.330633 -0.637 249 251 240
-0.35126 -0.330633 -0.637 246 247 239
-0.303202 -0.331152 -0.638 252 253 247
-0.300771 -0.331152 -0.638 251 252 246
-0.297126 -0.331152 -0.638 251 252 246
-0.113227 -0.319733 -0.616 98 102 105
-0.0967133 -0.323367 -0.623 61 60 66
0.0552267 -0.276133 -0.532 168 129 134
0.0678171 -0.286514 -0.552 134 110 126
0.0805 -0.298452 -0.575 132 105 120
0.375184 -0.336862 -0.649 202 203 231
0.378892 -0.336862 -0.649 203 204 224
0.40238 -0.336862 -0.649 173 188 227
0.41227 -0.336862 -0.649 184 186 207
0.413506 -0.336862 -0.649 178 185 214
0.390606 -0.286514 -0.552 127 86 84
0.389627 -0.276133 -0.532 151 99 88
0.397978 -0.271462 -0.523 162 110 99
0.40241 -0.270424 -0.521 171 119 106
0.433788 -0.268348 -0.517 147 98 83
0.443507 -0.268867 -0.518 140 94 81
-0.38038 -0.331847 -0.637 244 246 235
-0.34762 -0.331847 -0.637 247 248 240
-0.341553 -0.331847 -0.637 249 250 242
-0.337913 -0.331847 -0.637 250 251 243
-0.32578 -0.331847 -0.637 251 252 244
-0.317287 -0.331847 -0.637 251 252 244
-0.115143 -0.32299 -0.62 106 107 111
-0.113778 -0.32247 -0.619 104 108 111
-0.0895419 -0.328721 -0.631 76 76 84
0.0185705 -0.327679 -0.629 202 165 149
0.0193514 -0.271416 -0.521 200 167 152
0.0221143 -0.268811 -0.516 212 170 156
0.0357352 -0.26777 -0.514 202 166 152
0.0495943 -0.274021 -0.526 179 140 141
0.062459 -0.282356 -0.542 144 116 128
0.0891914 -0.306841 -0.589 139 112 127
0.0954286 -0.312571 -0.6 129 107 120
0.346915 -0.337056 -0.647 213 220 248
0.362936 -0.337056 -0.647 55 89 160
0.374606 -0.337577 -0.648 200 201 232
0.382011 -0.337577 -0.648 189 198 227
0.391281 -0.337056 -0.647 69 106 174
0.430149 -0.337577 -0.648 78 110 183
0.389493 -0.27923 -0.536 150 100 93
0.393737 -0.275063 -0.528 154 104 95
0.401194 -0.271937 -0.522 165 113 100
0.428707 -0.269853 -0.518 157 105 91
0.476405 -0.27871 -0.535 133 91 79
-0.386443 -0.332014 -0.635 244 246 233
-0.349497 -0.332537 -0.636 244 245 237
-0.345863 -0.332537 -0.636 248 250 239
-0.314366 -0.332537 -0.636 250 251 245
-0.311943 -0.332537 -0.636 250 251 245
-0.306367 -0.33306 -0.637 251 252 244
-0.117074 -0.326263 -0.624 108 108 110
-0.112963 -0.324694 -0.621 104 104 106
-0.08848 -0.330446 -0.632 138 138 146
0.02394 -0.268226 -0.513 207 169 156
0.0938143 -0.312146 -0.597 129 107 120
0.364169 -0.338289 -0.647 63 97 168
0.369098 -0.338289 -0.647 172 191 234
0.379543 -0.338811 -0.648 195 199 224
0.383246 -0.338811 -0.648 179 189 224
0.4104 -0.338811 -0.648 124 138 177
0.41866 -0.271363 -0.519 164 112 98
0.422614 -0.271363 -0.519 161 109 95
0.423603 -0.271363 -0.519 161 109 95
0.42476 -0.27084 -0.518 161 109 95
0.428707 -0.27084 -0.518 159 106 92
0.444493 -0.27084 -0.518 140 92 80
-0.386443 -0.333224 -0.635 244 246 233
-0.381605 -0.333224 -0.635 243 245 234
-0.374348 -0.333224 -0.635 246 248 237
-0.36709 -0.333224 -0.635 248 250 239
-0.365881 -0.333224 -0.635 248 250 239
-0.361043 -0.333224 -0.635 247 249 238
-0.335643 -0.333224 -0.635 250 251 243
-0.121607 -0.330075 -0.629 108 108 110
-0.0874143 -0.332174 -0.633 210 208 213
0.0258438 -0.268678 -0.512 208 171 155
0.0287695 -0.268678 -0.512 210 173 157
0.0970543 -0.316431 -0.603 127 107 119
0.345149 -0.338996 -0.646 220 225 255
0.359914 -0.338996 -0.646 65 97 170
0.367297 -0.338996 -0.646 136 167 231
0.383887 -0.339521 -0.647 114 140 191
0.413464 -0.339521 -0.647 63 85 143
0.414696 -0.339521 -0.647 58 83 137
0.420274 -0.340046 -0.648 40 70 143
0.429485 -0.339521 -0.647 37 69 144
0.392266 -0.281797 -0.537 145 98 90
0.39321 -0.278124 -0.53 154 106 94
0.40241 -0.273401 -0.521 172 120 107
0.40482 -0.272351 -0.519 169 117 103
0.41588 -0.271827 -0.518 164 112 98
0.431818 -0.271302 -0.517 158 105 89
0.433788 -0.271302 -0.517 157 104 88
0.438711 -0.271302 -0.517 148 96 82
0.448317 -0.272351 -0.519 134 86 76
0.458625 -0.274975 -0.524 126 79 69
0.468039 -0.277599 -0.529 131 84 76
0.475514 -0.280223 -0.534 132 85 75
-0.381605 -0.334433 -0.635 244 246 235
-0.374348 -0.334433 -0.635 245 246 238
-0.362252 -0.334433 -0.635 248 249 241
-0.344775 -0.333907 -0.634 245 247 236
-0.334433 -0.334433 -0.635 251 252 244
-0.328386 -0.334433 -0.635 249 250 242
-0.311452 -0.334433 -0.635 250 251 243
-0.309033 -0.334433 -0.635 250 251 243
-0.301776 -0.334433 -0.635 251 252 244
-0.247348 -0.334433 -0.635 252 252 250
-0.117637 -0.33022 -0.627 112 112 114
0.0219857 -0.27018 -0.513 207 170 154
0.0267667 -0.269127 -0.511 209 172 156
0.0418524 -0.272287 -0.517 193 152 148
0.0495 -0.2765 -0.525 177 138 139
0.363043 -0.3397 -0.645 52 84 157
0.3655 -0.3397 -0.645 65 98 165
0.367957 -0.3397 -0.645 101 128 183
0.399908 -0.340753 -0.647 69 96 143
0.425788 -0.340753 -0.647 30 63 134
0.393853 -0.285453 -0.542 140 97 91
0.393405 -0.280713 -0.533 148 100 90
0.396754 -0.27808 -0.528 158 108 97
0.41292 -0.272813 -0.518 166 114 100
0.451162 -0.273867 -0.52 138 90 80
0.452152 -0.273867 -0.52 137 89 79
0.486768 -0.285453 -0.542 133 89 80
-0.383419 -0.335114 -0.634 245 247 236
-0.382211 -0.335114 -0.634 245 247 236
-0.381004 -0.335114 -0.634 244 246 235
-0.379796 -0.335114 -0.634 243 245 234
-0.370719 -0.335643 -0.635 248 249 241
-0.36709 -0.335643 -0.635 249 250 242
-0.358059 -0.335114 -0.634 248 249 241
-0.330284 -0.335114 -0.634 251 253 242
-0.329076 -0.335114 -0.634 251 253 242
-0.317 -0.335114 -0.634 251 252 244
-0.288471 -0.335643 -0.635 250 251 243
-0.230051 -0.335114 -0.634 253 254 249
-0.114054 -0.331414 -0.627 167 167 167
-0.0986857 -0.331943 -0.628 153 153 155
-0.093 -0.333 -0.63 220 220 220
0.0326067 -0.2701 -0.511 205 168 150
0.0505962 -0.278029 -0.526 172 136 140
0.0612 -0.285429 -0.54 148 117 132
0.065 -0.2886 -0.546 136 112 125
0.0703 -0.293357 -0.555 132 109 125
0.08466 -0.3071 -0.581 133 109 125
0.0907733 -0.312914 -0.592 128 109 129
0.103334 -0.324014 -0.613 162 157 187
0.36616 -0.3404 -0.644 58 91 160
0.40175 -0.341457 -0.646 129 148 178
0.412186 -0.340929 -0.645 123 132 175
0.416516 -0.341457 -0.646 55 85 137
0.436757 -0.340929 -0.645 168 173 193
0.479337 -0.283314 -0.536 137 85 74
-0.37255 -0.336322 -0.634 246 248 237
-0.36772 -0.336322 -0.634 249 250 242
-0.359267 -0.336322 -0.634 249 250 242
-0.338203 -0.335791 -0.633 249 251 240
-0.336997 -0.335791 -0.633 250 252 241
-0.332174 -0.335791 -0.633 249 250 242
-0.330969 -0.335791 -0.633 250 251 243
-0.327351 -0.335791 -0.633 249 251 240
-0.306854 -0.335791 -0.633 250 251 243
-0.122187 -0.335261 -0.632 236 238 235
-0.1045 -0.332609 -0.627 194 194 196
-0.0966 -0.3342 -0.63 224 224 226
0.0386724 -0.272665 -0.514 193 154 147
0.0428371 -0.274256 -0.517 185 145 143
0.0760057 -0.30025 -0.566 130 105 124
0.3827 -0.342157 -0.645 121 149 196
0.393757 -0.342157 -0.645 56 101 169
0.401129 -0.342157 -0.645 173 179 211
0.403586 -0.342157 -0.645 191 195 222
0.422669 -0.342688 -0.646 35 65 135
0.423899 -0.342688 -0.646 36 67 134
0.4257 -0.342157 -0.645 28 65 133
0.440987 -0.341627 -0.644 170 175 194
0.396218 -0.286988 -0.541 139 91 91
0.4025 -0.2785 -0.525 162 115 99
0.404177 -0.276909 -0.522 166 117 103
0.426894 -0.274256 -0.517 160 107 93
0.446467 -0.274787 -0.518 141 95 82
0.454014 -0.276378 -0.521 132 88 75
-0.385226 -0.336997 -0.633 246 248 237
-0.369551 -0.336997 -0.633 247 249 238
-0.357494 -0.336997 -0.633 249 250 242
-0.314089 -0.336997 -0.633 249 250 242
-0.300826 -0.336997 -0.633 251 252 244
-0.298414 -0.336997 -0.633 251 252 244
-0.239334 -0.336997 -0.633 253 253 251
0.0199533 -0.272047 -0.511 211 174 156
0.0585952 -0.284824 -0.535 152 120 135
0.0598371 -0.285889 -0.537 149 118 134
0.064881 -0.290148 -0.545 134 112 125
0.107221 -0.331141 -0.622 138 144 180
0.144581 -0.343918 -0.646 192 199 217
0.357018 -0.342321 -0.643 60 86 160
0.364367 -0.342321 -0.643 60 100 172
0.366816 -0.342321 -0.643 143 168 224
0.36984 -0.342853 -0.644 175 186 218
0.382107 -0.342853 -0.644 145 169 213
0.409093 -0.342853 -0.644 178 185 203
0.440139 -0.331141 -0.622 106 89 105
0.432993 -0.323155 -0.607 121 90 88
0.398415 -0.289615 -0.544 131 89 91
0.399771 -0.281097 -0.528 161 108 94
0.416867 -0.275773 -0.518 158 106 92
0.4218 -0.275773 -0.518 157 104 90
0.431966 -0.274709 -0.516 157 104 90
0.456874 -0.277903 -0.522 133 86 76
-0.384617 -0.337669 -0.632 246 247 239
-0.369551 -0.338203 -0.633 247 248 240
-0.368346 -0.338203 -0.633 248 250 239
-0.354522 -0.337669 -0.632 249 250 242
-0.316 -0.337669 -0.632 249 250 242
-0.294797 -0.338203 -0.633 250 251 243
-0.293591 -0.338203 -0.633 250 251 243
-0.286357 -0.338203 -0.633 251 252 246
0.0171 -0.274089 -0.513 209 172 154
0.0208448 -0.271951 -0.509 211 176 157
0.0471381 -0.278363 -0.521 177 138 139
0.0860619 -0.311489 -0.583 130 109 126
0.101667 -0.325914 -0.61 129 124 156
0.393147 -0.34408 -0.644 61 105 176
0.396827 -0.34408 -0.644 67 110 178
0.422014 -0.344614 -0.645 55 88 159
0.429947 -0.34408 -0.644 97 122 186
0.431173 -0.34408 -0.644 124 143 186
0.442751 -0.343546 -0.643 158 165 184
0.400186 -0.291186 -0.545 125 89 93
0.400529 -0.282637 -0.529 161 107 95
0.404728 -0.279966 -0.524 170 116 106
0.427879 -0.276226 -0.517 160 107 93
-0.364152 -0.338872 -0.632 248 249 241
-0.358133 -0.338872 -0.632 247 248 240
-0.353961 -0.338336 -0.631 249 250 242
-0.329242 -0.338872 -0.632 249 250 242
-0.11322 -0.337264 -0.629 236 236 234
0.0375467 -0.27453 -0.512 188 149 142
0.0597257 -0.287398 -0.536 149 119 131
0.0885857 -0.313671 -0.585 128 111 127
0.09016 -0.31528 -0.588 128 111 127
0.0965714 -0.321714 -0.6 125 104 121
0.37294 -0.34477 -0.643 191 198 216
0.374165 -0.34477 -0.643 171 174 183
0.37539 -0.34477 -0.643 152 155 164
0.376614 -0.34477 -0.643 175 173 186
0.379064 -0.34477 -0.643 201 204 221
0.385188 -0.34477 -0.643 71 111 180
0.405413 -0.345307 -0.644 190 195 215
0.436628 -0.34477 -0.643 166 165 179
0.414706 -0.278283 -0.519 151 102 87
0.419827 -0.277747 -0.518 156 104 90
0.431966 -0.276674 -0.516 160 107 91
0.440811 -0.276674 -0.516 148 96 83
0.444743 -0.276674 -0.516 142 94 84
-0.375595 -0.339538 -0.631 244 245 237
-0.374393 -0.339538 -0.631 244 245 237
-0.3354 -0.339 -0.63 249 250 244
-0.311894 -0.339538 -0.631 249 250 242
-0.301077 -0.339538 -0.631 250 251 245
-0.230165 -0.339538 -0.631 253 253 251
-0.110824 -0.338462 -0.629 236 236 234
0.0151752 -0.276581 -0.514 208 171 153
0.0294543 -0.272814 -0.507 206 169 151
0.0416905 -0.277119 -0.515 182 142 140
0.0585952 -0.287881 -0.535 151 119 132
0.0742657 -0.301871 -0.561 131 108 124
0.0785762 -0.306176 -0.569 125 104 119
0.0831219 -0.311019 -0.578 131 110 129
0.0982029 -0.324471 -0.603 125 112 129
0.357686 -0.345457 -0.642 50 84 158
0.423813 -0.346533 -0.644 41 74 145
0.440776 -0.329852 -0.613 109 96 106
0.410528 -0.30241 -0.562 120 86 85
0.403551 -0.284652 -0.529 160 106 94
0.409562 -0.27981 -0.52 159 112 96
0.412729 -0.279271 -0.519 157 110 94
0.428034 -0.277657 -0.516 157 104 90
0.432949 -0.277657 -0.516 156 104 90
0.435897 -0.277657 -0.516 157 105 91
0.470171 -0.284114 -0.528 128 85 76
0.474866 -0.285729 -0.531 130 85 79
0.4833 -0.288957 -0.537 132 92 84
0.486127 -0.290033 -0.539 131 91 81
-0.3834 -0.3402 -0.63 244 246 235
-0.37199 -0.34074 -0.631 244 245 237
-0.370788 -0.34074 -0.631 245 246 238
-0.3642 -0.3402 -0.63 247 249 238
-0.333 -0.3402 -0.63 248 249 243
-0.315 -0.3402 -0.63 249 250 242
-0.30949 -0.34074 -0.631 250 251 245
-0.305885 -0.34074 -0.631 251 252 246
-0.302279 -0.34074 -0.631 250 251 245
-0.289058 -0.34074 -0.631 250 251 245
-0.2166 -0.3402 -0.63 252 252 250
0.0207629 -0.27378 -0.507 210 173 157
0.0245771 -0.27324 -0.506 210 172 159
0.025541 -0.27324 -0.506 207 170 154
0.0365 -0.27594 -0.511 190 152 141
0.0416905 -0.2781 -0.515 181 141 141
0.0728057 -0.30132 -0.558 132 109 127
0.0982029 -0.32562 -0.603 120 109 126
0.101667 -0.3294 -0.61 170 167 198
0.358909 -0.34668 -0.642 57 91 163
0.394371 -0.34668 -0.642 84 120 180
0.40111 -0.34722 -0.643 192 196 221
0.417031 -0.34722 -0.643 65 96 160
0.437171 -0.34668 -0.642 174 174 182
0.446083 -0.34506 -0.639 95 121 172
0.415641 -0.30726 -0.569 122 88 86
0.406574 -0.28566 -0.529 161 109 96
0.407045 -0.28458 -0.527 161 112 98
0.431966 -0.27864 -0.516 153 101 87
0.44376 -0.27864 -0.516 143 94 80
0.445726 -0.27864 -0.516 139 91 79
-0.3582 -0.3414 -0.63 249 250 242
-0.355235 -0.340858 -0.629 248 249 241
-0.330075 -0.340858 -0.629 249 250 244
-0.326481 -0.340858 -0.629 248 249 243
-0.2934 -0.3414 -0.63 251 252 246
-0.279 -0.3414 -0.63 251 252 246
0.012381 -0.28179 -0.52 204 167 151
0.0313857 -0.274746 -0.507 200 162 149
0.0416095 -0.278539 -0.514 186 146 144
0.0770838 -0.306718 -0.566 128 104 126
0.337067 -0.346819 -0.64 218 226 247
0.35835 -0.347361 -0.641 80 113 182
0.373001 -0.347361 -0.641 201 207 219
0.393757 -0.347361 -0.641 79 112 165
0.39804 -0.347903 -0.642 176 190 229
0.401709 -0.347903 -0.642 192 196 207
0.428611 -0.347903 -0.642 52 80 130
0.437711 -0.347361 -0.641 166 166 176
0.405071 -0.289919 -0.535 146 101 95
0.4071 -0.287751 -0.531 157 100 93
0.431966 -0.279623 -0.516 153 101 87
0.450529 -0.280165 -0.517 138 90 76
0.478685 -0.288835 -0.533 132 89 80
0.4806 -0.289377 -0.534 131 88 79
0.488057 -0.292629 -0.54 134 87 77
-0.347493 -0.341512 -0.628 248 249 243
-0.334335 -0.341512 -0.628 247 248 240
-0.312104 -0.342056 -0.629 250 251 245
-0.301321 -0.342056 -0.629 250 251 243
0.010119 -0.339881 -0.625 200 163 145
0.0235667 -0.274624 -0.505 207 170 152
0.0526 -0.286044 -0.526 159 126 133
0.0756029 -0.306165 -0.563 129 106 122
0.0931857 -0.322479 -0.593 124 101 117
0.137571 -0.349126 -0.642 73 103 175
0.35779 -0.348038 -0.64 100 134 198
0.362667 -0.348038 -0.64 82 113 178
0.394978 -0.348582 -0.641 102 132 182
0.405377 -0.349126 -0.642 166 169 176
0.412714 -0.349126 -0.642 71 98 153
0.4068 -0.293657 -0.54 134 96 87
0.40609 -0.290938 -0.535 151 101 94
0.419649 -0.282237 -0.519 148 99 84
0.425086 -0.280606 -0.516 158 109 94
0.445726 -0.280606 -0.516 140 94 78
0.477787 -0.289307 -0.532 134 90 79
0.4806 -0.290394 -0.534 133 89 78
-0.376801 -0.343254 -0.629 243 245 234
-0.365436 -0.342709 -0.628 246 248 237
-0.334335 -0.342709 -0.628 248 249 243
-0.333139 -0.342709 -0.628 248 249 243
-0.290538 -0.343254 -0.629 250 251 245
-0.280953 -0.343254 -0.629 249 250 244
-0.277359 -0.343254 -0.629 251 252 247
0.0159343 -0.276677 -0.507 207 170 154
0.0436524 -0.281043 -0.515 179 141 138
0.0481305 -0.284317 -0.521 169 135 136
0.0549152 -0.288683 -0.529 152 121 126
0.0756029 -0.307237 -0.563 130 108 121
0.103671 -0.335614 -0.615 144 144 178
0.371837 -0.348711 -0.639 200 203 218
0.382171 -0.349257 -0.64 109 131 172
0.408409 -0.349803 -0.641 108 124 173
0.416955 -0.349803 -0.641 162 181 223
0.438248 -0.349257 -0.64 180 181 199
0.443124 -0.349257 -0.64 148 162 197
0.410889 -0.300689 -0.551 117 86 83
0.410443 -0.299597 -0.549 119 86 81
0.412921 -0.285409 -0.523 151 102 88
0.415114 -0.284863 -0.522 155 103 90
0.420813 -0.28268 -0.518 152 103 88
0.432949 -0.281589 -0.516 147 98 81
0.449657 -0.281589 -0.516 139 90 76
0.476889 -0.289774 -0.531 136 88 78
-0.349329 -0.343357 -0.627 248 249 243
-0.345746 -0.343357 -0.627 249 250 244
-0.343357 -0.343357 -0.627 249 250 244
-0.334997 -0.343357 -0.627 246 247 241
