ply
format ascii 1.0
comment Created by Open3D
element vertex 1314
property double x
property double y
property double z
property uchar red
property uchar green
property uchar blue
end_header
0.435436 -0.255749 -0.536 126 78 74
0.460842 -0.261474 -0.548 127 82 77
-0.10955 -0.285512 -0.596 92 95 102
-0.0657286 -0.308986 -0.645 70 70 78
-0.0645 -0.308986 -0.645 71 71 79
-0.0632714 -0.308986 -0.645 71 71 79
-0.0610029 -0.309944 -0.647 71 71 79
0.13332 -0.22132 -0.462 200 159 139
0.139178 -0.220841 -0.461 198 155 136
0.144133 -0.220362 -0.46 196 153 134
0.153771 -0.220362 -0.46 161 114 96
0.162179 -0.222278 -0.464 143 99 88
0.163414 -0.222757 -0.465 142 99 90
0.191295 -0.231859 -0.484 96 76 88
0.20592 -0.24144 -0.504 207 204 233
0.391914 -0.305632 -0.638 129 97 102
0.371419 -0.282638 -0.59 138 97 101
0.389557 -0.265871 -0.555 130 86 83
0.394429 -0.263476 -0.55 130 85 82
0.402014 -0.25629 -0.535 141 94 86
0.40228 -0.255811 -0.534 140 93 85
0.422053 -0.254853 -0.532 131 83 79
0.449602 -0.259644 -0.542 127 82 79
0.45812 -0.26156 -0.546 129 84 79
-0.119376 -0.280395 -0.583 94 94 102
-0.110129 -0.285205 -0.593 97 100 109
-0.10854 -0.290014 -0.603 92 95 104
-0.0889 -0.305405 -0.635 53 52 60
-0.0703143 -0.308771 -0.642 72 71 79
-0.0610029 -0.311176 -0.647 71 71 79
0.14939 -0.221238 -0.46 179 130 113
0.152895 -0.221238 -0.46 168 119 104
0.163414 -0.223643 -0.465 144 100 91
0.165541 -0.224124 -0.466 151 105 90
0.166429 -0.224124 -0.466 151 105 90
0.193409 -0.234224 -0.487 90 72 84
0.38688 -0.300114 -0.624 127 95 100
0.37018 -0.279433 -0.581 137 98 101
0.370552 -0.273181 -0.568 132 91 95
0.37929 -0.26789 -0.557 124 80 79
0.3885 -0.266929 -0.555 132 88 85
0.392367 -0.265967 -0.553 132 86 86
0.395082 -0.263562 -0.548 131 86 81
0.396343 -0.261638 -0.544 131 83 79
0.404052 -0.25731 -0.535 139 92 86
0.404314 -0.256829 -0.534 139 91 87
0.40584 -0.255867 -0.532 139 91 87
0.416203 -0.255386 -0.531 124 76 72
0.418226 -0.255386 -0.531 128 80 76
0.479254 -0.269814 -0.561 128 82 82
-0.134687 -0.30082 -0.623 98 98 106
-0.122849 -0.284403 -0.589 95 95 105
-0.112369 -0.283437 -0.587 63 66 75
-0.104167 -0.301786 -0.625 77 80 89
-0.0935905 -0.306131 -0.634 53 54 59
-0.0750886 -0.309511 -0.641 70 68 79
-0.0658305 -0.311926 -0.646 71 71 79
0.125868 -0.225494 -0.467 183 142 124
0.127373 -0.225011 -0.466 200 159 141
0.135666 -0.222597 -0.461 200 159 137
0.145569 -0.221631 -0.459 191 148 129
0.167675 -0.225494 -0.467 145 101 88
0.168565 -0.225494 -0.467 145 101 88
0.169454 -0.225494 -0.467 145 101 88
0.178083 -0.227426 -0.471 136 93 86
0.17936 -0.227909 -0.472 128 91 85
0.39184 -0.305166 -0.632 125 92 99
0.373667 -0.284886 -0.59 132 93 98
0.373061 -0.271366 -0.562 130 88 90
0.376783 -0.269434 -0.558 125 81 80
0.396033 -0.263157 -0.545 128 83 80
0.407867 -0.25688 -0.532 135 90 84
0.413169 -0.256397 -0.531 126 79 73
0.432586 -0.258329 -0.535 124 75 70
0.446914 -0.260743 -0.54 130 81 77
-0.106837 -0.297159 -0.613 90 90 100
-0.100836 -0.307339 -0.634 72 73 78
-0.091319 -0.307824 -0.635 50 51 56
-0.0878286 -0.308309 -0.636 52 51 59
-0.0669571 -0.312671 -0.645 71 71 79
0.124918 -0.234625 -0.484 194 151 142
0.129199 -0.224445 -0.463 199 158 140
0.133031 -0.223475 -0.461 201 158 141
0.151143 -0.22299 -0.46 169 122 106
0.168565 -0.226384 -0.467 148 104 91
0.173753 -0.227353 -0.469 144 98 83
0.178083 -0.228323 -0.471 130 90 82
0.186971 -0.232686 -0.48 100 71 75
0.198872 -0.240442 -0.496 106 92 109
0.201026 -0.241896 -0.499 182 177 207
0.374003 -0.284555 -0.587 128 86 98
0.37206 -0.27486 -0.567 130 89 93
0.374534 -0.271951 -0.561 129 87 89
0.390966 -0.268558 -0.554 132 87 82
0.401194 -0.260802 -0.538 133 88 82
0.401745 -0.259832 -0.536 134 89 84
0.407867 -0.257893 -0.532 135 90 84
0.450634 -0.262741 -0.542 129 81 77
0.45437 -0.26371 -0.544 128 80 76
0.481179 -0.272436 -0.562 130 86 83
-0.116753 -0.282753 -0.581 93 93 101
-0.114737 -0.28324 -0.582 88 88 96
-0.11144 -0.28616 -0.588 77 77 85
-0.108961 -0.291513 -0.599 102 102 110
-0.106187 -0.299787 -0.616 91 91 99
-0.0831133 -0.310007 -0.637 55 54 60
-0.0808133 -0.310493 -0.638 60 59 65
-0.0797229 -0.31098 -0.639 63 62 68
0.133031 -0.224353 -0.461 201 158 139
0.136544 -0.224353 -0.461 200 157 138
0.142946 -0.22338 -0.459 199 156 137
0.146996 -0.222893 -0.458 182 137 118
0.155862 -0.224353 -0.461 157 111 98
0.1716 -0.22776 -0.468 145 99 86
0.175914 -0.228733 -0.47 135 93 81
0.178461 -0.229707 -0.472 127 88 81
0.183986 -0.23214 -0.477 111 77 75
0.1946 -0.238467 -0.49 89 74 77
0.204 -0.24528 -0.504 207 206 240
0.398019 -0.311467 -0.64 122 92 90
0.374316 -0.284213 -0.584 130 89 93
0.3735 -0.282753 -0.581 129 88 92
0.37356 -0.275453 -0.566 130 90 91
0.376783 -0.27156 -0.558 123 81 82
0.37861 -0.270587 -0.556 124 82 83
0.39026 -0.269127 -0.553 135 92 86
0.39376 -0.26864 -0.552 135 92 86
0.395146 -0.268153 -0.551 131 88 82
0.395476 -0.267667 -0.55 130 87 81
0.398415 -0.264747 -0.544 126 83 76
0.40034 -0.263287 -0.541 127 84 77
0.400913 -0.262313 -0.539 131 88 81
0.40888 -0.258907 -0.532 136 89 83
0.428726 -0.25988 -0.534 127 80 72
0.456243 -0.265233 -0.545 127 80 74
0.483966 -0.27448 -0.564 132 87 82
-0.114737 -0.284349 -0.582 89 89 97
-0.109943 -0.289234 -0.592 109 110 115
-0.102044 -0.309754 -0.634 78 79 83
-0.0937381 -0.310243 -0.635 54 55 60
-0.0728733 -0.314151 -0.643 71 70 78
-0.07176 -0.31464 -0.644 72 71 79
0.12324 -0.231583 -0.474 193 154 139
0.126214 -0.227186 -0.465 201 160 142
0.133031 -0.225231 -0.461 202 160 138
0.152895 -0.224743 -0.46 165 117 103
0.1643 -0.227186 -0.465 153 106 96
0.170344 -0.228163 -0.467 147 99 87
0.181405 -0.232071 -0.475 115 84 79
0.391564 -0.303891 -0.622 126 90 94
0.380374 -0.291677 -0.597 125 88 96
0.372482 -0.276531 -0.566 129 89 90
0.373725 -0.275066 -0.563 132 90 92
0.382157 -0.271157 -0.555 133 89 86
0.384634 -0.270669 -0.554 134 90 87
0.419013 -0.25992 -0.532 134 85 78
0.450634 -0.264806 -0.542 127 80 74
0.467563 -0.269203 -0.551 130 82 78
-0.138054 -0.310471 -0.633 97 97 107
-0.116552 -0.284476 -0.58 97 97 105
-0.11144 -0.2884 -0.588 88 89 94
-0.107926 -0.297229 -0.606 102 103 108
-0.105525 -0.303605 -0.619 91 91 99
-0.0963086 -0.311943 -0.636 61 62 67
-0.0937381 -0.311452 -0.635 54 55 60
0.14994 -0.225129 -0.459 169 120 105
0.152895 -0.225619 -0.46 164 115 101
0.375896 -0.285948 -0.583 130 89 93
0.375603 -0.275157 -0.561 126 84 85
0.37861 -0.272705 -0.556 129 85 86
0.3811 -0.272214 -0.555 128 84 83
0.384993 -0.271233 -0.553 136 93 86
0.40137 -0.265348 -0.541 125 85 75
0.401657 -0.264857 -0.54 128 85 76
0.407618 -0.261424 -0.533 133 86 78
0.40888 -0.260933 -0.532 126 81 75
0.456442 -0.266819 -0.544 130 83 77
0.458319 -0.26731 -0.545 131 84 78
0.479467 -0.274667 -0.56 133 88 83
-0.115647 -0.286073 -0.581 97 97 105
-0.10836 -0.296413 -0.602 103 102 108
-0.0763095 -0.315616 -0.641 64 63 71
0.12892 -0.22748 -0.462 205 162 143
0.130114 -0.226495 -0.46 200 157 138
0.1377 -0.226003 -0.459 202 159 140
0.14994 -0.226003 -0.459 172 120 106
0.154106 -0.226988 -0.461 162 113 99
0.154984 -0.226988 -0.461 161 112 98
0.160411 -0.228465 -0.464 159 111 99
0.185143 -0.236343 -0.48 100 75 71
0.391657 -0.271794 -0.552 137 96 90
0.399148 -0.268348 -0.545 125 82 73
0.400786 -0.267363 -0.543 125 82 73
0.403244 -0.264901 -0.538 132 89 80
0.426908 -0.262439 -0.533 133 86 78
0.431567 -0.263424 -0.535 128 81 73
-0.137182 -0.310906 -0.629 96 99 106
-0.107926 -0.299537 -0.606 105 104 110
-0.106837 -0.302997 -0.613 96 96 98
-0.0775305 -0.316837 -0.641 61 60 68
0.122337 -0.234291 -0.474 198 157 139
0.123823 -0.230337 -0.466 200 159 139
0.125059 -0.229349 -0.464 200 159 139
0.12804 -0.22836 -0.462 203 161 139
0.132743 -0.227371 -0.46 203 160 141
0.133619 -0.227371 -0.46 205 160 139
0.151143 -0.227371 -0.46 169 120 106
0.159184 -0.228854 -0.463 160 112 100
0.169454 -0.230831 -0.467 146 98 88
0.377067 -0.2768 -0.56 125 81 82
0.380728 -0.274823 -0.556 131 87 84
0.391997 -0.272351 -0.551 136 93 86
0.402686 -0.266914 -0.54 131 88 79
0.416987 -0.26296 -0.532 125 81 70
0.432586 -0.264443 -0.535 124 77 67
0.433605 -0.264443 -0.535 126 79 69
0.463127 -0.270374 -0.547 133 90 83
-0.114737 -0.288783 -0.582 93 96 105
-0.109143 -0.297714 -0.6 113 113 121
0.125671 -0.229736 -0.463 201 160 140
0.135077 -0.227751 -0.459 207 163 136
0.146124 -0.227255 -0.458 176 131 110
0.147317 -0.227751 -0.459 173 126 106
0.18126 -0.236683 -0.477 105 80 75
0.184229 -0.238171 -0.48 95 77 73
0.376129 -0.280348 -0.565 125 85 85
0.376942 -0.279355 -0.563 125 85 85
0.38394 -0.274393 -0.553 140 95 90
0.384993 -0.274393 -0.553 142 97 91
0.391997 -0.273401 -0.551 137 92 86
0.394757 -0.272409 -0.549 134 89 83
0.399148 -0.270424 -0.545 124 80 71
0.400488 -0.269928 -0.544 126 83 74
0.400786 -0.269431 -0.543 127 84 75
0.419013 -0.263973 -0.532 125 83 69
0.422847 -0.26447 -0.533 129 85 72
0.423862 -0.26447 -0.533 130 86 73
0.429743 -0.264966 -0.534 131 87 76
0.43076 -0.264966 -0.534 125 81 70
0.463127 -0.271416 -0.547 129 89 79
1.13393 -0.315081 -0.635 206 211 189
-0.12376 -0.29288 -0.588 103 106 115
-0.114737 -0.289891 -0.582 94 94 104
-0.103965 -0.314298 -0.631 91 92 94
-0.0938857 -0.316789 -0.636 52 53 58
0.121178 -0.235599 -0.473 197 158 141
0.132454 -0.228626 -0.459 202 157 138
0.145251 -0.228128 -0.458 180 133 115
0.151143 -0.229124 -0.46 172 120 106
0.158302 -0.230618 -0.463 161 113 101
0.167675 -0.23261 -0.467 152 99 93
0.198174 -0.24855 -0.499 217 216 234
0.403239 -0.314298 -0.631 121 96 100
0.376869 -0.286903 -0.576 126 86 86
0.382524 -0.275945 -0.554 135 91 88
0.410167 -0.266481 -0.535 126 84 70
0.43076 -0.265983 -0.534 127 83 72
-0.114737 -0.291 -0.582 96 96 104
-0.107829 -0.306 -0.612 107 107 115
-0.100257 -0.319 -0.638 80 81 83
0.120638 -0.239 -0.478 200 156 143
0.129831 -0.2295 -0.459 202 159 140
0.135655 -0.229 -0.458 205 160 139
0.140582 -0.2285 -0.457 197 152 133
0.171967 -0.2345 -0.469 132 92 84
0.175764 -0.236 -0.472 120 87 78
0.182932 -0.2395 -0.479 96 72 70
0.378281 -0.2825 -0.565 126 84 86
0.379588 -0.2795 -0.559 127 83 82
0.391997 -0.2755 -0.551 135 90 85
0.392333 -0.275 -0.55 136 91 85
0.403145 -0.271 -0.542 130 86 77
0.403714 -0.27 -0.54 127 84 75
0.404743 -0.27 -0.54 125 82 73
0.410167 -0.2675 -0.535 124 84 74
0.41371 -0.2665 -0.533 127 83 74
0.41496 -0.266 -0.532 121 77 66
0.444033 -0.2695 -0.539 130 86 77
0.460395 -0.2725 -0.545 127 87 75
-0.125233 -0.298633 -0.595 107 107 115
-0.121597 -0.29261 -0.583 107 107 115
-0.115647 -0.291607 -0.581 108 108 116
-0.1131 -0.293614 -0.585 65 65 75
-0.10846 -0.30566 -0.609 108 109 114
-0.0903933 -0.319713 -0.637 59 60 65
-0.0798476 -0.321219 -0.64 45 44 52
0.119978 -0.240412 -0.479 202 158 145
0.125129 -0.231378 -0.461 203 162 144
0.130706 -0.230374 -0.459 202 159 142
0.139711 -0.22937 -0.457 198 151 135
0.173229 -0.235895 -0.47 128 91 82
0.378126 -0.285082 -0.568 126 84 85
0.378686 -0.283074 -0.564 128 83 86
0.382846 -0.279059 -0.556 136 91 86
0.383214 -0.278557 -0.555 140 95 90
0.390948 -0.27655 -0.551 141 96 90
0.393711 -0.275546 -0.549 135 90 84
0.399148 -0.273538 -0.545 128 84 75
0.403145 -0.272032 -0.542 131 87 78
0.414486 -0.268017 -0.534 129 85 76
0.425892 -0.267515 -0.533 130 87 78
0.431567 -0.268519 -0.535 127 83 72
0.44116 -0.270025 -0.538 125 81 72
-0.1131 -0.294729 -0.585 67 68 73
-0.0917505 -0.32143 -0.638 60 61 66
0.119769 -0.237294 -0.471 204 156 142
0.13623 -0.230241 -0.457 202 157 138
0.164653 -0.234775 -0.466 146 98 86
0.177411 -0.238806 -0.474 112 80 69
0.193757 -0.249386 -0.495 174 170 195
0.381903 -0.293217 -0.582 123 83 81
0.380029 -0.285156 -0.566 127 82 85
0.382097 -0.281126 -0.558 131 87 84
0.382473 -0.280622 -0.557 136 92 89
0.389898 -0.277599 -0.551 145 98 92
0.396445 -0.275584 -0.547 129 84 78
0.403431 -0.272561 -0.541 132 88 79
0.407343 -0.27105 -0.538 129 85 76
0.414486 -0.269034 -0.534 129 85 76
0.427923 -0.26853 -0.533 130 86 75
0.429743 -0.269034 -0.534 128 84 73
0.450833 -0.272561 -0.541 131 89 77
0.456637 -0.273569 -0.543 129 86 77
-0.10374 -0.32214 -0.637 87 91 92
-0.0831133 -0.32214 -0.637 39 38 46
0.119376 -0.239203 -0.473 201 157 144
0.135359 -0.231111 -0.457 202 159 140
0.15742 -0.234146 -0.463 158 110 98
0.380789 -0.289269 -0.572 127 82 79
0.380543 -0.288257 -0.57 126 81 78
0.395082 -0.277131 -0.548 136 91 85
0.397487 -0.276626 -0.547 129 84 78
0.39884 -0.27612 -0.546 130 85 79
0.400186 -0.275614 -0.545 128 83 77
0.402854 -0.274603 -0.543 131 87 78
0.403145 -0.274097 -0.542 131 87 78
0.412205 -0.270557 -0.535 129 85 74
0.41574 -0.269546 -0.533 124 82 70
0.419013 -0.26904 -0.532 130 87 78
0.420027 -0.26904 -0.532 128 85 76
0.429743 -0.270051 -0.534 127 83 72
0.436457 -0.271063 -0.536 126 82 71
0.444033 -0.27258 -0.539 130 87 78
-0.0867533 -0.323353 -0.637 36 36 44
-0.08554 -0.323353 -0.637 34 33 41
0.132166 -0.23249 -0.458 203 158 139
0.135359 -0.231982 -0.457 202 159 140
0.139406 -0.231474 -0.456 190 147 128
0.149066 -0.232997 -0.459 173 124 110
0.411186 -0.271576 -0.535 130 84 71
0.415503 -0.271069 -0.534 126 82 69
0.41652 -0.271069 -0.534 128 84 73
0.436457 -0.272084 -0.536 127 83 72
0.44034 -0.272591 -0.537 126 83 74
0.456637 -0.275637 -0.543 122 82 72
-0.136964 -0.319981 -0.628 93 93 103
-0.113487 -0.29909 -0.587 67 67 77
-0.107566 -0.317943 -0.624 168 170 167
-0.08918 -0.324567 -0.637 34 35 40
0.118153 -0.244062 -0.479 197 159 140
0.118619 -0.239476 -0.47 200 157 140
0.123372 -0.23489 -0.461 206 163 144
0.124857 -0.234381 -0.46 205 162 143
0.128083 -0.233871 -0.459 207 161 145
0.129831 -0.233871 -0.459 204 161 142
0.146124 -0.233362 -0.458 174 126 112
0.148191 -0.233871 -0.459 171 125 110
0.169287 -0.238967 -0.469 134 91 82
0.39195 -0.279219 -0.548 139 95 86
0.404462 -0.275652 -0.541 133 89 78
0.415503 -0.272086 -0.534 128 84 71
0.421831 -0.271576 -0.533 130 88 74
-0.111633 -0.3043 -0.595 198 198 206
0.128957 -0.234746 -0.459 206 163 144
0.130421 -0.234234 -0.458 202 159 140
0.137669 -0.233211 -0.456 195 149 133
0.138537 -0.233211 -0.456 192 146 130
0.140274 -0.233211 -0.456 185 142 125
0.141143 -0.233211 -0.456 186 140 124
0.142011 -0.233211 -0.456 183 137 121
0.15444 -0.23628 -0.462 163 115 103
0.165896 -0.238837 -0.467 140 92 82
0.185988 -0.249066 -0.487 94 74 85
0.393171 -0.303789 -0.594 119 84 80
0.384911 -0.285889 -0.559 137 94 88
0.385656 -0.284866 -0.557 141 96 91
0.403431 -0.276683 -0.541 135 91 80
0.408368 -0.275149 -0.538 137 93 82
0.414486 -0.273103 -0.534 131 87 74
0.419801 -0.272591 -0.533 131 87 74
0.424877 -0.272591 -0.533 130 88 76
0.470711 -0.281797 -0.551 127 89 80
-0.131571 -0.315187 -0.614 87 87 97
-0.128703 -0.31108 -0.606 89 89 97
-0.1204 -0.30184 -0.588 89 89 97
-0.110416 -0.311593 -0.607 231 230 236
-0.109529 -0.3157 -0.615 222 222 224
0.122837 -0.23562 -0.459 206 161 142
0.15532 -0.23716 -0.462 160 112 100
0.15742 -0.237673 -0.463 158 110 98
0.190929 -0.2541 -0.495 140 134 160
0.394967 -0.305433 -0.595 119 85 83
0.385561 -0.293113 -0.571 125 87 86
0.397379 -0.279253 -0.544 144 97 89
0.408368 -0.276173 -0.538 137 93 84
0.413224 -0.274633 -0.535 131 89 75
0.445259 -0.276173 -0.538 130 86 73
-0.13447 -0.320478 -0.622 85 85 93
-0.114605 -0.302445 -0.587 72 71 85
0.1173 -0.24886 -0.483 199 156 140
0.123711 -0.236494 -0.459 208 163 144
0.133326 -0.234949 -0.456 194 151 132
0.137367 -0.234433 -0.455 188 145 126
0.15356 -0.23804 -0.462 165 116 99
0.15776 -0.23907 -0.464 160 108 95
0.163228 -0.240616 -0.467 140 95 90
0.171269 -0.243192 -0.472 124 86 83
0.174167 -0.244738 -0.475 115 81 79
0.390771 -0.299869 -0.582 117 82 80
0.386667 -0.288533 -0.56 140 95 90
0.391286 -0.283381 -0.55 145 98 90
0.39195 -0.28235 -0.548 146 99 91
0.414486 -0.275137 -0.534 135 91 78
0.43076 -0.275137 -0.534 130 86 73
0.432586 -0.275652 -0.535 128 84 71
0.445259 -0.277198 -0.538 130 86 77
0.453925 -0.278744 -0.541 130 87 78
-0.12081 -0.305114 -0.59 83 84 89
0.117105 -0.239954 -0.464 204 158 142
0.117989 -0.239954 -0.464 204 158 142
0.142011 -0.235817 -0.456 184 138 122
0.143193 -0.236334 -0.457 181 133 119
0.15356 -0.23892 -0.462 163 114 99
0.156538 -0.239437 -0.463 158 106 93
0.160215 -0.240989 -0.466 146 99 91
0.161103 -0.240989 -0.466 142 95 87
0.163577 -0.242023 -0.468 137 93 90
0.184132 -0.251849 -0.487 93 72 79
0.38728 -0.291669 -0.564 135 94 90
0.388106 -0.289083 -0.559 140 93 87
0.388855 -0.286497 -0.554 144 94 83
0.389207 -0.28598 -0.553 143 96 88
0.392994 -0.283394 -0.548 148 101 93
0.40108 -0.280291 -0.542 143 96 86
0.418786 -0.275637 -0.533 137 93 80
0.427923 -0.275637 -0.533 133 89 78
0.436457 -0.277189 -0.536 127 83 74
0.466252 -0.282877 -0.547 127 89 80
0.469003 -0.283911 -0.549 127 89 80
-0.127759 -0.315062 -0.607 80 81 86
-0.125351 -0.311948 -0.601 79 80 85
-0.116841 -0.304681 -0.587 76 77 82
-0.114995 -0.305719 -0.589 66 66 78
-0.110598 -0.315581 -0.608 231 230 238
-0.10791 -0.324924 -0.626 219 217 220
0.125784 -0.237205 -0.457 207 164 145
0.182829 -0.252257 -0.486 94 74 86
0.388474 -0.289629 -0.558 143 96 88
0.398415 -0.282362 -0.544 146 99 89
0.43076 -0.277171 -0.534 133 86 76
1.13159 -0.325443 -0.627 200 204 189
-0.11704 -0.30632 -0.588 75 76 81
-0.110598 -0.316739 -0.608 234 233 239
-0.108406 -0.324032 -0.622 225 223 228
-0.107738 -0.325595 -0.625 221 219 222
0.115175 -0.249015 -0.478 205 159 143
0.11934 -0.239117 -0.459 207 162 143
0.134767 -0.237033 -0.455 193 150 133
0.138233 -0.237033 -0.455 181 138 121
0.15444 -0.24068 -0.462 157 109 99
0.161103 -0.242764 -0.466 136 92 89
0.185267 -0.255267 -0.49 88 72 85
0.320048 -0.338619 -0.65 135 153 191
0.39839 -0.307362 -0.59 117 85 86
0.390999 -0.297464 -0.571 130 92 89
0.389494 -0.292254 -0.561 138 95 88
0.412975 -0.27923 -0.536 138 92 79
0.413469 -0.278189 -0.534 137 90 80
0.442386 -0.279751 -0.537 125 81 68
0.460774 -0.282877 -0.543 126 84 72
0.462659 -0.283398 -0.544 124 84 74
0.480943 -0.290691 -0.558 121 84 76
0.114549 -0.244697 -0.468 198 155 138
0.122302 -0.238946 -0.457 208 165 148
0.129851 -0.238423 -0.456 204 161 142
0.137367 -0.2379 -0.455 183 140 123
0.148191 -0.239991 -0.459 160 112 98
0.151471 -0.241037 -0.461 159 109 100
0.15235 -0.241037 -0.461 159 109 100
0.158986 -0.243129 -0.465 144 97 89
0.171091 -0.247834 -0.474 114 85 81
0.182277 -0.254631 -0.487 95 72 78
0.286619 -0.339857 -0.65 238 240 253
0.289095 -0.339857 -0.65 218 217 233
0.323762 -0.339857 -0.65 162 185 227
0.3915 -0.29646 -0.567 136 95 91
0.390933 -0.2928 -0.56 141 97 88
0.397379 -0.284434 -0.544 144 97 87
0.398415 -0.284434 -0.544 144 98 85
0.405771 -0.282343 -0.54 145 98 88
0.414486 -0.279206 -0.534 138 90 78
0.41652 -0.279206 -0.534 139 91 81
0.429743 -0.279206 -0.534 135 87 75
0.433605 -0.279729 -0.535 129 83 70
0.441363 -0.280774 -0.537 129 83 70
0.442386 -0.280774 -0.537 128 82 69
0.447309 -0.281297 -0.538 131 83 71
0.455143 -0.282343 -0.54 132 85 75
0.113787 -0.249787 -0.476 203 161 147
0.126377 -0.239291 -0.456 205 162 143
0.129567 -0.238767 -0.455 204 161 144
0.132167 -0.238767 -0.455 196 155 135
0.156876 -0.24349 -0.464 145 97 87
0.274238 -0.341095 -0.65 225 228 247
0.284942 -0.34057 -0.649 238 241 255
0.31461 -0.34057 -0.649 219 220 241
0.326238 -0.341095 -0.65 142 169 212
0.402675 -0.311184 -0.593 119 85 83
0.394429 -0.288619 -0.55 145 98 88
0.402401 -0.283896 -0.541 146 99 89
0.403431 -0.283896 -0.541 144 97 87
0.406047 -0.282847 -0.539 144 97 87
0.418786 -0.279698 -0.533 137 89 77
0.42104 -0.279173 -0.532 143 95 83
0.4543 -0.282847 -0.539 131 85 72
0.482006 -0.292817 -0.558 132 88 79
-0.10998 -0.321793 -0.611 235 234 242
-0.107566 -0.32864 -0.624 223 222 227
-0.103965 -0.332327 -0.631 102 103 107
0.12464 -0.24016 -0.456 207 164 147
0.125509 -0.24016 -0.456 208 165 146
0.127246 -0.24016 -0.456 202 161 143
0.138233 -0.239633 -0.455 180 137 118
0.144064 -0.240687 -0.457 168 122 107
0.276714 -0.342333 -0.65 196 201 220
0.287414 -0.341807 -0.649 230 230 254
0.290674 -0.34128 -0.648 188 184 211
0.299776 -0.341807 -0.649 211 218 246
0.322028 -0.341807 -0.649 166 189 230
0.42281 -0.342333 -0.65 24 53 119
0.424631 -0.341807 -0.649 76 102 161
0.39758 -0.30494 -0.579 124 89 85
0.394952 -0.301253 -0.572 135 96 89
0.393028 -0.296513 -0.563 142 98 87
0.396033 -0.287033 -0.545 142 95 85
0.397071 -0.287033 -0.545 143 97 84
0.397379 -0.286507 -0.544 145 99 86
0.407343 -0.283347 -0.538 146 98 86
0.413996 -0.282293 -0.536 146 96 85
0.422053 -0.280187 -0.532 145 96 82
0.437478 -0.282293 -0.536 129 81 69
-0.134143 -0.330886 -0.626 75 79 82
-0.118632 -0.315029 -0.596 79 79 87
-0.114091 -0.315029 -0.596 71 71 79
-0.108057 -0.327714 -0.62 225 224 230
0.112591 -0.248957 -0.471 203 161 147
0.114591 -0.243671 -0.461 205 163 149
0.11795 -0.241557 -0.457 206 165 147
0.11882 -0.241557 -0.457 204 163 145
0.123771 -0.241029 -0.456 208 165 148
0.130433 -0.2405 -0.455 197 156 138
0.141143 -0.241029 -0.456 171 123 109
0.145251 -0.242086 -0.458 165 117 103
0.151471 -0.243671 -0.461 157 107 98
0.1581 -0.245786 -0.465 133 93 83
0.277525 -0.343043 -0.649 216 224 245
0.311657 -0.342514 -0.648 218 220 245
0.325736 -0.343043 -0.649 159 187 226
0.341095 -0.343571 -0.65 196 198 223
0.346048 -0.343571 -0.65 93 109 145
0.396126 -0.289657 -0.548 141 94 84
0.398415 -0.287543 -0.544 143 97 84
0.412975 -0.283314 -0.536 146 97 83
0.415262 -0.282786 -0.535 150 101 87
0.436662 -0.282786 -0.535 129 81 69
0.456171 -0.285429 -0.54 137 91 78
0.459077 -0.285957 -0.541 136 92 79
0.475771 -0.291771 -0.552 129 90 85
-0.130495 -0.328895 -0.62 79 82 87
-0.116362 -0.316164 -0.596 78 78 86
-0.106876 -0.328895 -0.62 227 227 229
0.116463 -0.242958 -0.458 206 163 146
0.1209 -0.241367 -0.455 207 164 147
0.134174 -0.240306 -0.453 186 143 124
0.144064 -0.242428 -0.457 167 119 105
0.157214 -0.246671 -0.465 136 93 86
0.15967 -0.247732 -0.467 130 91 86
0.273816 -0.344279 -0.649 239 246 254
0.338098 -0.344279 -0.649 198 202 227
0.39681 -0.34481 -0.65 168 177 218
0.410429 -0.34481 -0.65 127 140 185
0.412905 -0.34481 -0.65 59 86 141
0.425211 -0.343749 -0.648 144 162 202
0.406507 -0.314042 -0.592 120 80 78
0.395205 -0.295475 -0.557 144 100 91
0.39717 -0.290701 -0.548 137 90 80
0.404462 -0.286988 -0.541 144 96 84
0.4081 -0.285927 -0.539 147 99 85
0.412975 -0.284335 -0.536 145 97 85
0.413996 -0.284335 -0.536 146 96 85
0.417537 -0.283274 -0.534 143 95 83
0.419013 -0.282213 -0.532 143 93 82
0.4475 -0.284866 -0.537 130 82 68
-0.128897 -0.329011 -0.618 82 85 90
-0.111389 -0.322623 -0.606 80 80 90
-0.108357 -0.327414 -0.615 231 230 236
0.111635 -0.248622 -0.467 204 162 148
0.120033 -0.242233 -0.455 207 164 147
0.15301 -0.246492 -0.463 151 103 93
0.156329 -0.247557 -0.465 136 95 89
0.163033 -0.249687 -0.469 119 88 86
0.174534 -0.256075 -0.481 91 69 72
0.273394 -0.344983 -0.648 241 248 255
0.281599 -0.34445 -0.647 163 173 209
0.292238 -0.343918 -0.646 212 221 254
0.30255 -0.34445 -0.647 188 195 224
0.308711 -0.34445 -0.647 223 220 241
0.336343 -0.344983 -0.648 198 204 230
0.346751 -0.345515 -0.649 113 138 192
0.35046 -0.345515 -0.649 45 78 145
0.367095 -0.346048 -0.65 165 179 226
0.408561 -0.345515 -0.649 153 167 216
0.423395 -0.345515 -0.649 79 104 160
0.419274 -0.326882 -0.614 114 84 84
0.41652 -0.284291 -0.534 143 95 81
0.445646 -0.285356 -0.536 132 84 70
0.459257 -0.287486 -0.54 135 89 76
0.473186 -0.292277 -0.549 138 97 79
-0.106531 -0.330189 -0.618 145 145 147
-0.0988429 -0.336066 -0.629 52 53 58
0.115954 -0.243634 -0.456 207 164 147
0.135037 -0.242031 -0.453 178 135 119
0.137065 -0.242566 -0.454 173 130 114
0.178567 -0.260197 -0.487 100 78 81
0.26681 -0.345683 -0.647 207 217 244
0.281599 -0.345683 -0.647 154 166 204
0.287316 -0.345149 -0.646 199 212 255
0.319803 -0.345683 -0.647 136 164 214
0.325965 -0.345683 -0.647 130 160 214
0.342514 -0.346217 -0.648 192 196 221
0.377 -0.347286 -0.65 184 188 217
0.391254 -0.346751 -0.649 85 114 172
0.40238 -0.346751 -0.649 173 178 208
0.407325 -0.346751 -0.649 158 169 201
0.409797 -0.346751 -0.649 144 158 207
0.413996 -0.286377 -0.536 146 97 83
0.416281 -0.285843 -0.535 147 98 83
0.426908 -0.284774 -0.533 139 90 76
0.444625 -0.286377 -0.536 133 85 71
0.447688 -0.286377 -0.536 137 89 75
-0.118119 -0.324395 -0.605 91 92 97
-0.11351 -0.324395 -0.605 82 82 90
-0.0986857 -0.336728 -0.628 54 55 60
0.110509 -0.249865 -0.466 201 161 149
0.112346 -0.246111 -0.459 204 162 148
0.114468 -0.245039 -0.457 206 165 147
0.115954 -0.244503 -0.456 207 166 148
0.122633 -0.243967 -0.455 205 162 143
0.12986 -0.242894 -0.453 194 153 135
0.134174 -0.242894 -0.453 178 136 120
0.13793 -0.24343 -0.454 168 125 109
0.179667 -0.262733 -0.49 88 69 71
0.27009 -0.346379 -0.646 246 249 255
0.294243 -0.345843 -0.645 134 153 196
0.300851 -0.346379 -0.646 181 197 233
0.340046 -0.347451 -0.648 195 196 224
0.355952 -0.348524 -0.65 53 82 160
0.407325 -0.347988 -0.649 130 145 188
0.407968 -0.314208 -0.586 121 87 86
0.40014 -0.30402 -0.567 128 89 82
0.399805 -0.302948 -0.565 133 94 87
0.410153 -0.289007 -0.539 147 95 82
0.422053 -0.285253 -0.532 147 96 79
0.45738 -0.289007 -0.539 138 90 76
0.46784 -0.291688 -0.544 143 97 84
-0.108005 -0.329852 -0.613 86 87 92
-0.0985286 -0.337386 -0.627 58 59 64
0.11044 -0.2486 -0.462 201 161 149
0.125823 -0.244295 -0.454 201 158 141
0.132449 -0.243757 -0.453 182 141 123
0.1359 -0.243757 -0.453 173 130 114
0.13793 -0.244295 -0.454 164 121 105
0.146443 -0.246986 -0.459 157 104 96
0.27009 -0.34761 -0.646 239 245 255
0.27255 -0.34761 -0.646 243 245 255
0.285643 -0.347071 -0.645 129 147 197
0.319309 -0.34761 -0.646 107 142 198
0.329662 -0.348148 -0.647 109 139 193
0.335824 -0.348148 -0.647 193 198 227
0.375184 -0.349224 -0.649 179 188 219
0.402994 -0.348686 -0.648 99 115 151
0.404229 -0.348686 -0.648 73 89 125
0.412869 -0.348686 -0.648 45 70 124
0.415978 -0.349224 -0.649 26 57 121
0.401031 -0.295414 -0.549 138 94 85
0.421831 -0.286805 -0.533 146 93 79
0.429953 -0.286805 -0.533 144 92 79
0.468876 -0.292724 -0.544 145 93 80
-0.113286 -0.3294 -0.61 92 93 97
-0.11016 -0.33048 -0.612 78 79 84
-0.109172 -0.33102 -0.613 76 77 82
-0.0995638 -0.33804 -0.626 54 53 59
-0.0985286 -0.33858 -0.627 53 52 58
0.110597 -0.24786 -0.459 202 163 148
0.1157 -0.2457 -0.455 206 165 147
0.124958 -0.24516 -0.454 202 159 142
0.128997 -0.24462 -0.453 191 150 132
0.155777 -0.25164 -0.466 133 90 83
0.166929 -0.2565 -0.475 104 78 81
0.176711 -0.26298 -0.487 94 74 76
0.269671 -0.3483 -0.645 239 246 255
0.277043 -0.3483 -0.645 239 241 253
0.2795 -0.3483 -0.645 226 231 250
0.280729 -0.3483 -0.645 202 215 249
0.293787 -0.34776 -0.644 135 152 204
0.295013 -0.34776 -0.644 158 172 221
0.300386 -0.3483 -0.645 215 224 255
0.302843 -0.3483 -0.645 223 224 254
0.312671 -0.3483 -0.645 181 187 223
0.351154 -0.34992 -0.648 50 84 155
0.372137 -0.34992 -0.648 170 171 199
0.373948 -0.35046 -0.649 182 183 211
0.412869 -0.34992 -0.648 37 62 116
0.403747 -0.30564 -0.566 130 89 85
0.403432 -0.29592 -0.548 134 87 79
0.40612 -0.29484 -0.546 135 86 79
0.413491 -0.29052 -0.538 144 92 81
0.419571 -0.28836 -0.534 147 93 81
0.426908 -0.28782 -0.533 145 93 80
0.436045 -0.28782 -0.533 136 84 71
0.446667 -0.28944 -0.536 140 88 74
-0.10146 -0.337607 -0.623 56 55 63
0.116567 -0.246567 -0.455 207 166 148
0.118905 -0.246025 -0.454 208 165 146
0.15912 -0.253611 -0.468 117 86 84
0.162831 -0.255237 -0.471 112 83 85
0.175423 -0.263366 -0.486 97 76 81
0.265986 -0.349529 -0.645 182 191 234
0.351845 -0.350612 -0.647 35 68 139
0.363497 -0.351154 -0.648 70 90 151
0.380777 -0.351154 -0.648 62 87 151
0.40921 -0.31593 -0.583 123 88 86
0.414516 -0.291545 -0.538 144 92 81
0.419571 -0.289377 -0.534 147 95 84
0.420589 -0.289377 -0.534 145 95 84
0.430969 -0.288835 -0.533 142 90 77
0.431984 -0.288835 -0.533 141 89 76
0.444814 -0.289919 -0.535 142 90 76
1.12476 -0.334897 -0.618 200 202 191
-0.109707 -0.334987 -0.616 88 89 94
0.107383 -0.252328 -0.464 194 155 140
0.109484 -0.249065 -0.458 203 164 149
0.110356 -0.249065 -0.458 204 165 150
0.110986 -0.248521 -0.457 206 164 148
0.117175 -0.24689 -0.454 207 164 145
0.120369 -0.246346 -0.453 202 159 140
0.14916 -0.25124 -0.462 145 95 88
0.169247 -0.260485 -0.479 101 79 82
0.27251 -0.34967 -0.643 242 241 255
0.276184 -0.34967 -0.643 229 230 251
0.285982 -0.34967 -0.643 126 145 201
0.305578 -0.34967 -0.643 212 218 240
0.31096 -0.350213 -0.644 199 208 249
0.324957 -0.350757 -0.645 93 131 196
0.341457 -0.351301 -0.646 87 99 141
0.350612 -0.351845 -0.647 38 65 132
0.361029 -0.352389 -0.648 42 72 145
0.3672 -0.352389 -0.648 73 86 139
0.387584 -0.351845 -0.647 41 85 156
0.394978 -0.351845 -0.647 138 154 206
0.42209 -0.351845 -0.647 37 63 137
0.414826 -0.321391 -0.591 121 86 82
0.404469 -0.306709 -0.564 129 88 84
0.402631 -0.302902 -0.557 131 90 84
0.409529 -0.296376 -0.545 134 90 79
0.410371 -0.294745 -0.542 141 94 84
0.410914 -0.293657 -0.54 139 92 82
0.419571 -0.290394 -0.534 144 94 83
0.428133 -0.289307 -0.532 149 97 83
0.440106 -0.28985 -0.533 140 88 74
0.446852 -0.290938 -0.535 140 88 74
0.44973 -0.291482 -0.536 142 90 77
0.452792 -0.291482 -0.536 145 93 80
1.12604 -0.337162 -0.62 204 206 193
0.11248 -0.248846 -0.456 206 164 148
0.11631 -0.247754 -0.454 205 162 145
0.131295 -0.246663 -0.452 177 134 117
0.140274 -0.248846 -0.456 153 104 97
0.151573 -0.253211 -0.464 141 93 91
0.154002 -0.254303 -0.466 131 92 87
0.173214 -0.264671 -0.485 93 71 73
0.267194 -0.350349 -0.642 230 238 255
0.283532 -0.350894 -0.643 140 154 203
0.306803 -0.350894 -0.643 212 218 240
0.312927 -0.350894 -0.643 121 146 200
0.31464 -0.35144 -0.644 119 144 198
0.31832 -0.35144 -0.644 80 121 187
0.328133 -0.35144 -0.644 90 121 185
0.35007 -0.352531 -0.646 42 66 130
0.377725 -0.353077 -0.647 147 160 194
0.391907 -0.352531 -0.646 69 106 177
0.40175 -0.352531 -0.646 173 183 193
0.402981 -0.352531 -0.646 167 177 187
0.404211 -0.352531 -0.646 170 176 190
0.412825 -0.352531 -0.646 24 53 123
0.420208 -0.352531 -0.646 31 53 128
0.434178 -0.350894 -0.643 172 171 189
0.4228 -0.329611 -0.604 120 85 81
0.40836 -0.31324 -0.574 121 84 78
0.408401 -0.311603 -0.571 121 84 78
0.408351 -0.299597 -0.549 132 87 81
0.41085 -0.296869 -0.544 139 92 84
0.41426 -0.29414 -0.539 137 90 80
0.42408 -0.29032 -0.532 148 97 80
0.43016 -0.29032 -0.532 140 92 78
0.438267 -0.29032 -0.532 136 87 72
0.443983 -0.291411 -0.534 139 90 75
0.454834 -0.292503 -0.536 141 92 77
0.456706 -0.293049 -0.537 145 96 81
1.12464 -0.33616 -0.616 204 206 195
-0.117694 -0.340071 -0.621 116 117 119
0.109006 -0.249714 -0.456 209 167 153
0.113716 -0.248619 -0.454 211 170 152
0.116917 -0.248071 -0.453 204 163 145
0.122957 -0.248071 -0.453 196 153 134
0.127851 -0.247524 -0.452 189 146 127
0.130434 -0.247524 -0.452 173 130 113
0.16014 -0.257929 -0.471 114 80 78
0.170307 -0.263952 -0.482 99 74 77
0.260262 -0.352119 -0.643 165 189 237
0.30388 -0.351571 -0.642 163 163 187
0.309252 -0.352119 -0.643 145 150 172
0.340929 -0.353214 -0.645 134 150 176
0.383293 -0.353762 -0.646 51 90 165
0.401129 -0.353214 -0.645 163 174 204
0.418329 -0.353214 -0.645 26 56 128
0.419194 -0.325286 -0.594 119 83 83
0.409489 -0.31269 -0.571 121 79 80
0.412163 -0.297357 -0.543 135 88 78
0.442136 -0.291881 -0.533 139 90 75
-0.110775 -0.341804 -0.622 113 114 116
0.104967 -0.257727 -0.469 200 158 144
0.139406 -0.250583 -0.456 153 105 95
0.140582 -0.251132 -0.457 151 103 93
0.1519 -0.255529 -0.465 130 89 87
0.154332 -0.256628 -0.467 126 89 83
0.162966 -0.260474 -0.474 110 80 78
0.164214 -0.261024 -0.475 101 79 82
0.262303 -0.352794 -0.642 154 176 225
0.321 -0.352794 -0.642 60 100 172
0.325174 -0.353344 -0.643 77 116 181
0.326399 -0.353344 -0.643 81 120 185
0.348987 -0.353893 -0.644 48 77 137
0.361814 -0.354443 -0.645 132 158 209
0.38824 -0.353893 -0.644 71 108 179
0.42504 -0.353893 -0.644 77 96 136
0.4333 -0.340155 -0.619 114 87 92
0.419329 -0.324769 -0.591 119 86 79
0.407271 -0.307184 -0.559 123 85 74
0.410443 -0.301689 -0.549 132 88 79
0.416566 -0.295644 -0.538 142 95 85
0.422847 -0.292896 -0.533 149 100 86
0.427329 -0.291797 -0.531 144 95 81
1.12412 -0.339056 -0.617 202 204 191
0.13447 -0.250349 -0.454 161 113 99
0.139711 -0.252003 -0.457 151 104 94
0.265557 -0.353466 -0.641 174 187 232
0.284648 -0.352914 -0.64 125 141 192
0.311953 -0.353466 -0.641 129 150 207
0.318058 -0.353466 -0.641 72 110 181
0.322223 -0.354017 -0.642 75 117 189
0.333748 -0.354569 -0.643 194 200 224
0.359357 -0.355671 -0.645 41 79 152
0.36616 -0.35512 -0.644 180 191 223
0.367387 -0.35512 -0.644 185 189 214
0.372293 -0.35512 -0.644 133 134 152
0.374747 -0.35512 -0.644 180 184 209
0.3772 -0.35512 -0.644 94 117 161
0.398053 -0.35512 -0.644 177 179 194
0.408458 -0.354569 -0.643 42 70 133
0.420133 -0.35512 -0.644 53 85 146
0.427493 -0.35512 -0.644 102 124 173
0.42834 -0.292809 -0.531 144 95 81
0.432581 -0.292257 -0.53 138 86 72
0.44232 -0.29336 -0.532 144 95 80
0.445182 -0.293911 -0.533 146 97 82
0.468514 -0.297771 -0.54 152 104 92
0.114329 -0.25066 -0.453 202 163 148
0.129573 -0.250107 -0.452 178 135 119
0.13447 -0.251213 -0.454 160 112 100
0.139711 -0.252873 -0.457 149 102 94
0.146203 -0.255087 -0.461 142 97 92
0.158346 -0.26062 -0.471 114 83 80
0.166857 -0.2656 -0.48 99 80 82
0.173711 -0.27058 -0.489 94 76 88
0.257829 -0.354133 -0.64 144 165 212
0.28265 -0.354687 -0.641 125 139 188
0.288755 -0.354687 -0.641 118 135 189
0.293639 -0.354687 -0.641 146 163 215
0.29486 -0.354687 -0.641 170 187 239
0.304152 -0.354133 -0.64 208 209 229
0.330783 -0.35524 -0.642 188 194 218
0.34722 -0.355793 -0.643 54 79 133
0.379064 -0.355793 -0.643 65 100 158
0.387637 -0.355793 -0.643 70 104 168
0.3956 -0.356347 -0.644 173 180 198
0.400507 -0.356347 -0.644 158 154 168
0.405413 -0.356347 -0.644 85 104 147
0.432953 -0.355793 -0.643 178 173 193
0.4112 -0.309867 -0.56 122 83 76
0.41358 -0.30378 -0.549 125 82 75
0.41734 -0.298247 -0.539 140 92 80
0.41886 -0.29714 -0.537 140 92 78
0.43359 -0.293267 -0.53 141 90 73
0.44536 -0.294373 -0.532 143 94 77
0.46473 -0.297693 -0.538 156 105 86
0.468673 -0.298247 -0.539 158 112 89
0.1064 -0.253189 -0.456 204 164 154
0.111122 -0.252078 -0.454 206 166 154
0.112603 -0.251523 -0.453 204 164 152
0.150129 -0.258186 -0.465 133 89 86
0.151014 -0.258186 -0.465 128 88 86
0.153443 -0.259296 -0.467 126 86 84
0.155887 -0.260407 -0.469 120 85 83
0.174777 -0.273177 -0.492 119 108 125
0.278552 -0.355352 -0.64 207 219 255
0.305371 -0.355352 -0.64 211 213 234
0.30659 -0.355352 -0.64 193 198 218
0.334451 -0.356463 -0.642 194 200 226
0.363707 -0.357573 -0.644 64 96 157
0.364367 -0.357018 -0.643 106 124 164
0.371715 -0.357018 -0.643 184 187 202
0.418188 -0.320372 -0.577 113 78 76
0.41638 -0.318151 -0.573 114 79 77
0.414487 -0.307047 -0.553 125 82 76
0.419338 -0.297052 -0.535 144 94 83
0.423067 -0.295387 -0.532 150 101 87
0.430562 -0.294276 -0.53 141 92 75
0.443511 -0.294831 -0.531 143 92 73
0.1064 -0.254057 -0.456 205 165 157
0.114076 -0.251829 -0.452 200 158 146
0.137669 -0.254057 -0.456 146 101 95
0.298809 -0.356014 -0.639 209 219 246
0.312197 -0.356014 -0.639 119 140 185
0.337593 -0.357129 -0.641 194 200 226
0.358243 -0.358243 -0.643 63 98 162
0.37236 -0.357686 -0.642 184 187 202
0.39621 -0.358243 -0.643 181 181 205
0.405377 -0.357686 -0.642 60 79 122
0.4066 -0.357686 -0.642 72 99 146
0.410269 -0.357686 -0.642 136 155 198
0.411491 -0.357686 -0.642 149 168 210
0.43527 -0.357129 -0.641 169 172 191
0.441739 -0.355457 -0.638 99 118 174
0.4387 -0.342643 -0.615 112 84 80
0.425763 -0.328157 -0.589 111 77 76
0.417832 -0.318686 -0.572 117 80 72
0.418367 -0.3003 -0.539 136 88 78
0.420357 -0.298071 -0.535 144 94 83
0.466934 -0.299186 -0.537 159 111 91
0.107033 -0.254367 -0.455 205 167 158
0.125269 -0.25269 -0.452 182 139 120
0.12699 -0.25269 -0.452 176 133 114
0.132449 -0.253249 -0.453 151 108 91
0.138841 -0.255485 -0.457 143 98 93
0.258238 -0.356672 -0.638 155 180 221
0.274466 -0.357231 -0.639 228 235 254
0.282986 -0.357231 -0.639 131 147 199
0.306111 -0.357231 -0.639 216 220 245
0.313414 -0.357231 -0.639 117 147 201
0.321219 -0.35779 -0.64 100 136 194
0.33219 -0.35779 -0.64 193 199 225
0.33341 -0.35779 -0.64 197 203 229
0.347361 -0.35835 -0.641 98 128 188
0.368117 -0.35835 -0.641 183 186 203
0.375443 -0.35835 -0.641 139 143 170
0.418176 -0.35835 -0.641 146 159 191
0.429165 -0.35835 -0.641 129 133 171
0.431607 -0.35835 -0.641 164 166 204
0.425827 -0.327602 -0.586 115 80 74
0.4233 -0.324807 -0.581 117 78 71
0.417647 -0.309153 -0.553 124 81 72
0.418871 -0.304681 -0.545 131 84 76
0.418369 -0.303563 -0.543 132 85 77
0.419393 -0.301327 -0.539 133 84 77
0.419101 -0.29965 -0.536 140 92 80
0.420589 -0.298531 -0.534 143 93 82
0.424877 -0.297972 -0.533 153 104 89
0.42834 -0.296854 -0.531 155 104 87
0.431765 -0.295736 -0.529 148 95 79
0.452289 -0.297972 -0.533 146 93 75
0.457206 -0.298531 -0.534 156 103 85
0.11752 -0.25355 -0.452 196 154 138
0.125269 -0.25355 -0.452 178 135 116
0.13797 -0.256355 -0.457 145 100 95
0.142381 -0.258038 -0.46 142 97 92
0.151664 -0.261965 -0.467 128 89 84
0.15969 -0.266452 -0.475 102 79 87
0.253377 -0.357888 -0.638 144 165 210
0.274036 -0.357888 -0.638 226 232 254
0.277682 -0.357888 -0.638 180 193 225
0.306848 -0.357888 -0.638 212 217 237
0.329237 -0.358449 -0.639 195 201 223
0.334629 -0.35901 -0.64 193 200 216
0.357129 -0.35957 -0.641 129 151 198
0.370559 -0.35957 -0.641 185 191 207
0.376664 -0.35957 -0.641 143 145 170
0.379106 -0.35957 -0.641 88 109 154
0.405333 -0.35901 -0.64 154 169 202
0.419297 -0.313011 -0.558 120 79 73
0.470878 -0.301792 -0.538 172 124 104
0.110632 -0.254411 -0.452 203 161 149
0.123547 -0.254411 -0.452 182 140 118
0.172903 -0.276926 -0.492 154 148 176
0.274036 -0.359103 -0.638 224 230 252
0.275251 -0.359103 -0.638 198 207 240
0.283313 -0.35854 -0.637 140 157 201
0.28574 -0.35854 -0.637 157 175 223
0.290593 -0.35854 -0.637 119 140 187
0.32143 -0.359103 -0.638 136 167 214
0.355352 -0.360229 -0.64 152 167 196
0.35779 -0.360229 -0.64 134 148 177
0.3712 -0.360229 -0.64 182 187 217
0.376076 -0.360229 -0.64 159 161 186
0.401676 -0.360229 -0.64 100 110 146
0.41322 -0.359666 -0.639 121 125 150
0.419306 -0.359666 -0.639 167 172 201
0.424838 -0.360229 -0.64 170 175 205
0.428495 -0.360229 -0.64 61 68 114
0.436346 -0.359666 -0.639 113 114 135
0.42174 -0.31914 -0.567 112 77 73
0.427734 -0.297751 -0.529 157 106 89
0.436983 -0.297189 -0.528 147 94 78
0.437989 -0.297189 -0.528 148 95 79
1.12216 -0.345594 -0.614 202 204 190
0.101093 -0.268827 -0.476 201 160 154
0.102505 -0.258661 -0.458 204 161 152
0.107426 -0.255837 -0.453 206 163 154
0.120103 -0.255272 -0.452 189 146 127
0.12986 -0.255837 -0.453 157 115 99
0.135931 -0.257531 -0.456 142 99 92
0.164456 -0.27165 -0.481 88 71 77
0.166404 -0.273345 -0.484 85 68 74
0.168017 -0.274474 -0.486 87 73 88
0.171966 -0.277863 -0.492 162 158 191
0.26026 -0.359753 -0.637 165 179 218
0.299087 -0.359753 -0.637 192 202 237
0.310007 -0.359753 -0.637 171 186 217
0.312433 -0.359753 -0.637 112 133 178
0.331671 -0.360883 -0.639 194 202 225
0.3621 -0.360883 -0.639 142 155 197
0.369403 -0.360883 -0.639 177 184 212
0.405917 -0.360883 -0.639 171 175 202
0.418089 -0.360883 -0.639 170 176 202
0.436346 -0.360883 -0.639 133 135 160
0.441739 -0.360318 -0.638 73 102 162
0.438286 -0.338857 -0.6 109 79 81
0.422731 -0.318526 -0.564 116 79 73
0.426317 -0.299889 -0.531 156 105 88
0.427734 -0.298759 -0.529 157 106 89
0.429943 -0.298194 -0.528 156 103 87
0.435977 -0.298194 -0.528 151 98 82
0.451603 -0.299889 -0.531 152 99 83
0.103339 -0.257267 -0.454 206 163 156
0.10805 -0.256133 -0.452 202 159 150
0.112106 -0.255567 -0.451 202 160 148
0.113824 -0.255567 -0.451 200 158 146
0.123273 -0.255567 -0.451 180 137 120
0.128997 -0.2567 -0.453 160 119 101
0.140323 -0.2601 -0.459 137 94 88
0.14269 -0.261233 -0.461 138 94 91
0.148357 -0.2635 -0.465 129 88 86
0.157549 -0.2686 -0.474 104 83 82
0.247348 -0.359833 -0.635 172 186 221
0.25298 -0.360967 -0.637 177 195 231
0.307097 -0.3604 -0.636 210 215 234
0.3185 -0.360967 -0.637 159 182 226
0.327507 -0.361533 -0.638 180 198 236
0.331152 -0.361533 -0.638 195 202 228
0.332368 -0.361533 -0.638 196 203 229
0.353027 -0.361533 -0.638 176 185 214
0.356672 -0.361533 -0.638 178 188 215
0.365179 -0.361533 -0.638 78 87 128
0.37914 -0.3621 -0.639 80 102 149
0.384009 -0.3621 -0.639 80 107 160
0.413789 -0.361533 -0.638 170 174 199
0.42351 -0.361533 -0.638 166 172 196
0.443399 -0.343967 -0.607 103 77 78
0.422951 -0.3043 -0.537 143 94 80
0.436983 -0.2992 -0.528 152 96 81
0.470149 -0.303733 -0.536 171 122 105
0.476743 -0.306 -0.54 169 120 103
0.482347 -0.308267 -0.544 162 113 96
0.0994286 -0.263817 -0.464 201 160 154
0.100324 -0.261543 -0.46 203 160 153
0.102057 -0.259269 -0.456 204 161 154
0.116401 -0.256426 -0.451 197 155 141
0.1339 -0.2587 -0.455 143 99 90
0.259851 -0.361611 -0.636 168 181 216
0.278795 -0.361043 -0.635 186 194 230
0.282424 -0.361043 -0.635 209 219 254
0.298617 -0.361611 -0.636 203 209 245
0.315577 -0.361611 -0.636 145 164 207
0.326993 -0.36218 -0.637 176 192 228
0.34209 -0.362749 -0.638 184 189 219
0.350596 -0.362749 -0.638 135 140 170
0.361533 -0.362749 -0.638 183 190 219
0.380357 -0.363317 -0.639 93 117 163
0.427156 -0.362749 -0.638 166 170 195
0.44571 -0.361043 -0.635 36 66 128
0.446215 -0.360474 -0.634 69 96 151
0.444243 -0.343986 -0.605 108 78 78
0.42385 -0.316694 -0.557 118 77 71
0.429943 -0.300206 -0.528 161 108 92
0.430949 -0.300206 -0.528 159 106 90
0.433966 -0.300206 -0.528 156 100 85
0.453626 -0.301911 -0.531 151 98 80
0.454637 -0.301911 -0.531 157 104 86
0.46636 -0.303617 -0.534 170 121 104
0.468252 -0.304186 -0.535 171 122 105
0.473071 -0.305323 -0.537 172 123 106
0.483383 -0.309303 -0.544 164 115 98
0.492594 -0.313851 -0.552 157 113 100
0.10867 -0.257285 -0.451 200 161 146
0.112965 -0.257285 -0.451 203 161 147
0.124408 -0.257855 -0.452 175 134 116
0.133033 -0.259567 -0.455 139 100 85
0.1371 -0.260708 -0.457 140 96 87
0.148676 -0.265842 -0.466 128 87 83
0.155414 -0.269835 -0.473 106 80 83
0.260652 -0.362252 -0.635 199 209 245
0.26549 -0.362252 -0.635 231 238 255
0.2667 -0.362252 -0.635 225 232 250
0.275941 -0.361682 -0.634 187 193 225
0.304195 -0.362252 -0.635 211 215 244
0.32942 -0.363393 -0.637 192 199 228
0.33306 -0.363393 -0.637 169 173 202
0.339659 -0.363964 -0.638 190 199 230
0.385838 -0.363964 -0.638 129 153 199
0.418549 -0.362823 -0.636 169 175 201
0.42042 -0.363393 -0.637 170 176 202
0.4277 -0.363393 -0.637 161 165 190
0.434751 -0.332588 -0.583 117 80 74
0.427893 -0.32403 -0.568 117 78 71
0.424911 -0.317755 -0.557 117 77 69
0.436983 -0.301211 -0.528 151 98 82
0.45752 -0.303493 -0.532 166 113 95
0.463456 -0.304064 -0.533 168 116 102
0.489917 -0.313191 -0.549 151 107 98
0.118119 -0.258144 -0.451 182 140 124
0.132167 -0.260433 -0.455 138 98 86
0.147471 -0.266157 -0.465 127 86 82
0.149885 -0.267302 -0.467 124 84 82
0.170437 -0.282184 -0.493 218 219 240
0.2667 -0.363462 -0.635 227 234 253
0.275941 -0.36289 -0.634 210 215 245
0.311452 -0.363462 -0.635 121 139 179
0.337913 -0.364607 -0.637 168 175 203
0.34762 -0.364607 -0.637 188 194 220
0.35854 -0.364607 -0.637 188 196 217
0.387053 -0.365179 -0.638 143 169 218
0.388269 -0.365179 -0.638 158 173 206
0.406434 -0.364034 -0.636 176 181 203
0.417337 -0.364034 -0.636 173 179 205
0.451285 -0.35087 -0.613 111 78 73
0.450238 -0.349152 -0.61 116 83 78
0.425303 -0.315954 -0.552 115 75 65
0.424574 -0.310803 -0.543 138 92 79
0.426248 -0.306796 -0.536 155 104 85
0.44017 -0.301645 -0.527 154 98 81
0.46056 -0.304507 -0.532 165 114 97
0.463456 -0.305079 -0.533 167 115 101
0.47131 -0.306224 -0.535 169 120 105
0.106714 -0.258429 -0.45 199 159 149
0.110143 -0.258429 -0.45 198 158 148
0.112965 -0.259003 -0.451 202 160 148
0.1313 -0.2613 -0.455 137 97 87
0.156071 -0.272786 -0.475 103 78 81
0.157637 -0.273934 -0.477 101 76 79
0.242951 -0.363523 -0.633 232 237 255
0.262657 -0.364097 -0.634 233 238 255
0.272318 -0.364097 -0.634 180 185 214
0.277149 -0.364097 -0.634 224 228 255
0.279123 -0.363523 -0.633 220 225 254
0.286357 -0.363523 -0.633 211 223 249
0.288769 -0.363523 -0.633 215 222 250
0.294055 -0.364097 -0.634 214 219 249
0.302509 -0.364097 -0.634 184 193 224
0.306131 -0.364097 -0.634 210 211 239
0.346407 -0.36582 -0.637 188 199 221
0.350709 -0.365246 -0.636 187 193 215
0.371303 -0.365246 -0.636 164 173 212
0.385233 -0.36582 -0.637 117 146 202
0.390087 -0.36582 -0.637 118 135 179
0.42031 -0.364671 -0.635 171 177 201
0.425148 -0.364671 -0.635 174 181 197
0.426357 -0.364671 -0.635 161 168 184
0.428776 -0.364671 -0.635 139 147 160
0.433614 -0.364671 -0.635 52 68 117
0.4445 -0.364671 -0.635 18 49 116
0.453951 -0.363523 -0.633 80 100 153
0.433167 -0.330214 -0.575 114 79 73
0.427655 -0.322749 -0.562 117 79 70
0.42602 -0.308391 -0.537 154 101 85
0.43214 -0.302649 -0.527 154 101 83
0.44519 -0.302649 -0.527 156 103 87
0.453781 -0.304371 -0.53 157 104 88
0.0983571 -0.264471 -0.459 202 164 155
0.110143 -0.259286 -0.45 198 158 146
0.150527 -0.270233 -0.469 115 81 80
0.15484 -0.273114 -0.474 97 72 67
0.163976 -0.279452 -0.485 96 79 85
0.246958 -0.365305 -0.634 175 187 225
0.267488 -0.365305 -0.634 208 213 233
0.275941 -0.365305 -0.634 222 226 253
0.302509 -0.365305 -0.634 131 142 170
0.306131 -0.365305 -0.634 211 212 240
0.315792 -0.365305 -0.634 142 163 218
0.357414 -0.365881 -0.635 190 198 219
0.358624 -0.365881 -0.635 187 195 216
0.365881 -0.365881 -0.635 175 179 206
0.405795 -0.365881 -0.635 162 165 182
0.408779 -0.365305 -0.634 149 152 183
0.429309 -0.365305 -0.634 147 159 181
0.45154 -0.364729 -0.633 28 59 116
0.426813 -0.30999 -0.538 150 97 81
0.434148 -0.303652 -0.527 156 103 85
0.439335 -0.303076 -0.526 150 94 79
0.446193 -0.303652 -0.527 153 100 82
0.449051 -0.304229 -0.528 157 102 82
0.450057 -0.304229 -0.528 156 101 81
0.100745 -0.262455 -0.454 201 161 151
0.105857 -0.260143 -0.45 196 156 146
0.11726 -0.260721 -0.451 178 137 119
0.125269 -0.261299 -0.452 152 113 96
0.1377 -0.265346 -0.459 136 96 86
0.139752 -0.265924 -0.46 135 93 81
0.155167 -0.274595 -0.475 92 69 63
0.257013 -0.365356 -0.632 172 184 222
0.288312 -0.365356 -0.632 214 222 245
0.32494 -0.365934 -0.633 182 197 238
0.327351 -0.365934 -0.633 168 172 209
0.34169 -0.36709 -0.635 192 201 218
0.3429 -0.36709 -0.635 187 196 213
0.364097 -0.366512 -0.634 185 190 210
0.368928 -0.366512 -0.634 114 125 157
0.371929 -0.36709 -0.635 69 80 134
0.428101 -0.366512 -0.634 165 162 181
0.434139 -0.366512 -0.634 37 61 135
0.4578 -0.3642 -0.63 164 165 185
0.428726 -0.32489 -0.562 121 77 74
0.4278 -0.322577 -0.558 114 82 71
0.427406 -0.319109 -0.552 117 81 69
0.471446 -0.308703 -0.534 159 110 93
0.477163 -0.310437 -0.537 156 107 90
0.479967 -0.311593 -0.539 155 106 89
0.491112 -0.316796 -0.548 150 104 89
0.102884 -0.26216 -0.452 202 160 146
0.123547 -0.26216 -0.452 158 116 100
0.124408 -0.26216 -0.452 153 111 97
0.128417 -0.26332 -0.454 141 101 91
0.165329 -0.28362 -0.489 112 97 102
0.266644 -0.36656 -0.632 155 160 189
0.285905 -0.36656 -0.632 215 222 241
0.327351 -0.36714 -0.633 135 144 187
0.365305 -0.36772 -0.634 184 189 209
0.381605 -0.3683 -0.635 23 60 131
0.39791 -0.36772 -0.634 182 181 199
0.418986 -0.36714 -0.633 174 173 191
0.435866 -0.36714 -0.633 57 89 148
0.446717 -0.36714 -0.633 82 116 179
0.453951 -0.36714 -0.633 69 90 137
0.455642 -0.36656 -0.632 96 110 145
0.427176 -0.3161 -0.545 129 85 74
0.42851 -0.3103 -0.535 158 100 86
0.444186 -0.30566 -0.527 151 99 78
0.468667 -0.30856 -0.532 159 110 93
0.476274 -0.31088 -0.536 156 107 90
0.488424 -0.3161 -0.545 151 103 89
0.0953429 -0.273495 -0.47 195 157 148
0.0983667 -0.264767 -0.455 202 162 152
0.102023 -0.263021 -0.452 200 160 148
0.119837 -0.262439 -0.451 171 128 109
0.124683 -0.263603 -0.453 152 110 94
0.142428 -0.269422 -0.463 129 89 81
0.146013 -0.271168 -0.466 120 85 79
0.165667 -0.285133 -0.49 183 170 177
0.16796 -0.287461 -0.494 255 244 251
0.268626 -0.367182 -0.631 206 213 241
0.272231 -0.367182 -0.631 210 217 236
0.274635 -0.367182 -0.631 223 230 248
0.336997 -0.368346 -0.633 197 204 220
0.36714 -0.368346 -0.633 133 134 155
0.379796 -0.368928 -0.634 30 65 131
0.390665 -0.368928 -0.634 102 128 189
0.441196 -0.367764 -0.632 52 86 150
0.460668 -0.366018 -0.629 175 167 178
0.446727 -0.34507 -0.593 117 83 74
0.439143 -0.337505 -0.58 118 84 75
0.436452 -0.334595 -0.575 120 83 77
0.428633 -0.313647 -0.539 139 91 81
0.432772 -0.307828 -0.529 158 103 83
0.435151 -0.306664 -0.527 157 102 81
0.436155 -0.306664 -0.527 157 102 81
0.464751 -0.308991 -0.531 162 109 93
0.465763 -0.308991 -0.531 163 112 95
0.107332 -0.26213 -0.449 197 158 141
0.108188 -0.26213 -0.449 195 156 139
0.12382 -0.264466 -0.453 150 109 91
0.124683 -0.264466 -0.453 152 110 94
0.127552 -0.26505 -0.454 143 101 89
0.140056 -0.269136 -0.461 131 90 84
0.16054 -0.28198 -0.483 100 78 80
0.164061 -0.284899 -0.488 132 113 119
