ply
format ascii 1.0
comment Created by Open3D
element vertex 1294
property double x
property double y
property double z
property uchar red
property uchar green
property uchar blue
end_header
0.38082 -0.259925 -0.577 152 107 110
0.381371 -0.25587 -0.568 152 116 118
0.387082 -0.250465 -0.556 135 94 102
0.401031 -0.247311 -0.549 139 95 96
0.402077 -0.247311 -0.549 136 96 96
0.4235 -0.2365 -0.525 156 110 97
0.435669 -0.23605 -0.524 139 91 77
0.476444 -0.244158 -0.542 124 84 76
0.48204 -0.24596 -0.546 118 75 68
0.488553 -0.248212 -0.551 119 79 71
-0.131251 -0.279571 -0.618 112 116 119
-0.0924095 -0.28319 -0.626 60 59 67
-0.0743857 -0.287262 -0.635 74 73 81
-0.065219 -0.289524 -0.64 73 72 80
-0.0629771 -0.290429 -0.642 72 71 79
0.03586 -0.221214 -0.489 197 167 157
0.041279 -0.22031 -0.487 201 164 156
0.0599924 -0.224381 -0.496 150 111 114
0.069321 -0.230262 -0.509 115 92 98
0.383467 -0.253333 -0.56 148 106 108
0.383847 -0.252881 -0.559 146 104 106
0.400301 -0.247905 -0.548 142 96 99
0.411129 -0.245643 -0.543 153 103 96
0.416869 -0.238857 -0.528 155 102 96
0.4235 -0.2375 -0.525 159 106 98
0.492269 -0.250619 -0.554 114 76 67
-0.12839 -0.277114 -0.61 108 111 116
-0.125351 -0.273026 -0.601 107 110 115
-0.11441 -0.266211 -0.586 107 110 115
-0.07098 -0.28938 -0.637 74 73 81
-0.0675514 -0.290289 -0.639 73 72 80
0.0449895 -0.221237 -0.487 197 160 152
0.0645429 -0.228051 -0.502 135 104 110
0.0669848 -0.229869 -0.506 123 96 103
0.0733648 -0.234866 -0.517 112 89 99
0.0759171 -0.236683 -0.521 109 86 96
0.0802571 -0.240771 -0.53 109 86 96
0.106793 -0.26394 -0.581 132 119 139
0.11163 -0.267574 -0.589 207 202 234
0.131867 -0.29256 -0.644 218 230 246
0.38367 -0.264849 -0.583 148 103 106
0.38346 -0.26394 -0.581 147 102 105
0.400301 -0.248949 -0.548 143 95 95
0.40508 -0.24804 -0.546 144 94 93
0.407741 -0.247131 -0.544 152 103 99
0.412207 -0.24486 -0.539 150 100 93
0.4235 -0.2385 -0.525 157 104 96
0.447197 -0.239409 -0.527 130 86 77
0.478357 -0.246677 -0.543 120 77 70
0.495105 -0.252583 -0.556 116 76 68
-0.113487 -0.267784 -0.587 98 101 106
-0.0962933 -0.286488 -0.628 59 58 64
-0.0723067 -0.29105 -0.638 73 74 79
0.033201 -0.22399 -0.491 206 169 163
0.0348571 -0.222621 -0.488 201 164 155
0.0357133 -0.222165 -0.487 199 166 157
0.0393429 -0.221709 -0.486 201 162 155
0.0547114 -0.22399 -0.491 168 129 132
0.06106 -0.226727 -0.497 146 111 117
0.0707048 -0.23357 -0.512 114 91 101
0.0984714 -0.257748 -0.565 110 87 97
0.11163 -0.268696 -0.589 233 229 252
0.113517 -0.270521 -0.593 204 209 231
0.396126 -0.249992 -0.548 136 87 90
0.404338 -0.248624 -0.545 148 97 96
0.416869 -0.240869 -0.528 158 105 97
0.417874 -0.240869 -0.528 153 100 92
0.44519 -0.240412 -0.527 131 87 78
0.46898 -0.244974 -0.537 130 87 80
0.487667 -0.250905 -0.55 120 77 70
-0.116443 -0.267986 -0.585 97 100 105
-0.0915086 -0.287684 -0.628 58 57 63
-0.0815143 -0.290432 -0.634 68 69 74
-0.0688762 -0.293181 -0.64 74 74 82
0.0669848 -0.231796 -0.506 122 97 103
0.10661 -0.265695 -0.58 156 145 159
0.384976 -0.263405 -0.575 147 105 107
0.384533 -0.256533 -0.56 150 106 105
0.396445 -0.250578 -0.547 138 90 90
0.412467 -0.246455 -0.538 157 104 100
0.41888 -0.241874 -0.528 149 96 88
0.419297 -0.240958 -0.526 155 103 92
0.458533 -0.243707 -0.532 123 80 73
0.475565 -0.24783 -0.541 122 79 72
-0.117758 -0.26956 -0.586 97 100 105
-0.10782 -0.27554 -0.599 86 87 92
-0.103671 -0.2829 -0.615 75 74 82
-0.0916543 -0.28934 -0.629 56 55 63
0.0477724 -0.22402 -0.487 188 149 144
0.0516943 -0.22494 -0.489 172 132 130
0.0622562 -0.22954 -0.499 140 105 112
0.08056 -0.24472 -0.532 113 90 100
0.0970505 -0.25898 -0.563 110 83 98
0.1079 -0.26726 -0.581 245 235 246
0.384886 -0.2622 -0.57 147 105 106
0.384738 -0.2599 -0.565 147 105 106
0.393711 -0.25254 -0.549 141 95 95
0.397487 -0.25162 -0.547 138 92 92
0.411675 -0.24886 -0.541 154 101 97
0.4225 -0.2415 -0.525 158 105 97
0.446193 -0.24242 -0.527 128 84 75
0.459547 -0.24472 -0.532 121 81 73
0.494214 -0.2553 -0.555 124 81 74
-0.138578 -0.296081 -0.641 100 104 107
-0.125143 -0.277143 -0.6 98 99 103
-0.117557 -0.270214 -0.585 96 97 102
-0.104502 -0.283148 -0.613 79 78 84
-0.103 -0.285457 -0.618 73 72 78
-0.0872762 -0.291924 -0.632 61 60 68
-0.0804333 -0.29331 -0.635 69 67 78
-0.0781371 -0.293771 -0.636 69 68 76
-0.0747371 -0.294695 -0.638 72 70 81
-0.0713143 -0.295619 -0.64 73 71 84
-0.0643 -0.297005 -0.643 73 72 80
0.0374914 -0.224486 -0.486 200 163 155
0.0430457 -0.224486 -0.486 198 159 154
0.0468448 -0.224948 -0.487 191 152 147
0.0578686 -0.228181 -0.494 153 114 119
0.0683514 -0.23511 -0.509 117 94 104
0.0851714 -0.250352 -0.542 108 85 95
0.0895714 -0.254048 -0.55 110 87 97
0.0909486 -0.254971 -0.552 112 89 99
0.107714 -0.267905 -0.58 248 237 251
0.386349 -0.257743 -0.558 142 98 99
0.3878 -0.255895 -0.554 141 95 97
0.388153 -0.255433 -0.553 138 92 94
0.392666 -0.253586 -0.549 141 96 93
0.392994 -0.253124 -0.548 143 95 93
0.418666 -0.244348 -0.529 160 107 101
0.419673 -0.244348 -0.529 160 107 101
0.4225 -0.2425 -0.525 159 106 98
0.45666 -0.245271 -0.531 126 83 74
0.478357 -0.250814 -0.543 123 83 75
-0.135214 -0.292664 -0.631 99 103 106
-0.113293 -0.271792 -0.586 88 89 94
-0.110883 -0.274111 -0.591 63 64 69
-0.105325 -0.283388 -0.611 84 83 89
-0.100917 -0.290809 -0.627 70 69 75
-0.0931476 -0.292664 -0.631 56 55 63
-0.0630752 -0.29823 -0.643 73 71 82
0.0329981 -0.226339 -0.488 202 163 158
0.0601133 -0.230513 -0.497 140 103 110
0.0777952 -0.244428 -0.527 111 88 98
0.0925 -0.257414 -0.555 110 87 97
0.101514 -0.264371 -0.57 112 91 100
0.390606 -0.256023 -0.552 144 96 92
0.403596 -0.252312 -0.544 156 105 102
0.404923 -0.251849 -0.543 160 109 105
0.446193 -0.244428 -0.527 128 85 78
0.478357 -0.251849 -0.543 124 81 74
-0.0898257 -0.294797 -0.633 53 53 61
-0.0666457 -0.298989 -0.642 73 71 82
0.030581 -0.230063 -0.494 203 168 162
0.0411943 -0.226337 -0.486 198 160 151
0.0477724 -0.226803 -0.487 181 142 137
0.0497295 -0.227269 -0.488 176 136 136
0.0697295 -0.238446 -0.512 117 91 100
0.104595 -0.267786 -0.575 130 109 126
0.391443 -0.271511 -0.583 139 98 102
0.388503 -0.257074 -0.552 146 98 94
0.401524 -0.253349 -0.544 157 104 100
0.415503 -0.248691 -0.534 153 100 94
0.451917 -0.246363 -0.529 130 87 80
0.461426 -0.248226 -0.533 125 80 74
0.493324 -0.258006 -0.554 125 85 77
1.13871 -0.29666 -0.637 203 205 192
-0.122347 -0.27683 -0.592 97 98 103
-0.114934 -0.272622 -0.583 91 92 97
-0.11163 -0.275428 -0.589 70 71 76
-0.0667495 -0.300679 -0.643 72 70 81
0.0304571 -0.230069 -0.492 206 169 163
0.0312029 -0.228666 -0.489 203 166 160
0.0684857 -0.238486 -0.51 117 91 100
0.0967057 -0.262334 -0.561 111 90 99
0.388855 -0.259061 -0.554 145 92 88
0.396033 -0.254852 -0.545 149 98 94
0.403889 -0.253917 -0.543 165 113 102
0.408584 -0.252982 -0.541 165 113 102
0.408857 -0.252514 -0.54 165 113 100
0.422903 -0.246903 -0.528 155 102 94
0.428682 -0.245032 -0.524 151 101 94
0.442341 -0.245968 -0.526 126 81 75
0.582707 -0.298341 -0.638 217 218 220
-0.124517 -0.280306 -0.597 98 99 104
-0.11163 -0.27655 -0.589 67 68 73
-0.1035 -0.291574 -0.621 82 81 87
-0.1014 -0.2958 -0.63 77 78 82
-0.0841943 -0.298617 -0.636 57 56 62
-0.0715371 -0.301434 -0.642 72 70 81
0.0590476 -0.232884 -0.496 144 112 117
0.0637133 -0.23617 -0.503 127 100 109
0.0673819 -0.238988 -0.509 120 94 103
0.0894086 -0.257769 -0.549 113 92 101
0.388839 -0.261525 -0.557 137 92 89
0.3892 -0.261055 -0.556 141 92 88
0.388855 -0.260116 -0.554 142 93 89
0.394038 -0.257299 -0.548 146 97 93
0.443343 -0.24697 -0.526 132 88 79
0.453932 -0.248378 -0.529 127 83 74
0.459547 -0.249787 -0.532 124 80 71
1.13693 -0.298617 -0.636 204 206 193
-0.116045 -0.274843 -0.583 93 94 99
0.050659 -0.230057 -0.488 170 130 131
0.0569276 -0.232886 -0.494 148 112 116
0.0661514 -0.239014 -0.507 124 98 109
0.0752124 -0.246557 -0.523 113 92 99
0.0965333 -0.264 -0.56 112 89 99
0.38934 -0.2673 -0.567 140 96 95
0.392333 -0.259286 -0.55 146 98 96
0.394361 -0.257871 -0.547 148 99 95
0.421476 -0.249857 -0.53 151 98 92
0.491543 -0.260229 -0.552 125 85 75
0.503659 -0.264943 -0.562 124 84 76
-0.114934 -0.275953 -0.583 91 92 97
-0.1131 -0.2769 -0.585 83 84 88
-0.105013 -0.291573 -0.616 92 93 97
-0.104346 -0.292993 -0.619 89 90 94
-0.0902514 -0.30104 -0.636 50 51 56
-0.0878286 -0.30104 -0.636 49 49 57
0.0336495 -0.229093 -0.484 202 163 158
0.043881 -0.229567 -0.485 189 150 143
0.0467486 -0.23004 -0.486 184 144 142
0.0548229 -0.23288 -0.492 164 125 130
0.389557 -0.2627 -0.555 139 95 94
0.390966 -0.262227 -0.554 139 93 93
0.399751 -0.25702 -0.543 157 104 96
0.405492 -0.256073 -0.541 167 114 106
0.409127 -0.255127 -0.539 168 116 105
0.425113 -0.249447 -0.527 154 101 95
0.474686 -0.2556 -0.54 128 85 76
-0.11999 -0.27849 -0.586 96 97 102
-0.106314 -0.289895 -0.61 96 97 101
-0.0963086 -0.302251 -0.636 67 68 73
0.0336495 -0.230015 -0.484 203 164 159
0.03818 -0.22954 -0.483 198 158 156
0.050659 -0.231916 -0.488 168 127 131
0.0662819 -0.241421 -0.508 121 98 108
0.0853286 -0.258054 -0.543 110 88 100
0.404673 -0.285618 -0.601 138 94 93
0.38991 -0.263282 -0.554 139 93 93
0.398717 -0.258054 -0.543 160 109 105
0.406047 -0.256153 -0.539 168 116 105
0.415262 -0.254252 -0.535 156 103 95
0.446193 -0.25045 -0.527 136 92 83
0.45479 -0.251876 -0.53 128 84 75
0.457671 -0.252351 -0.531 126 82 73
0.497223 -0.264232 -0.556 126 86 78
-0.132214 -0.294397 -0.617 94 97 102
-0.126286 -0.286286 -0.6 95 96 101
-0.103306 -0.299169 -0.627 88 89 91
-0.101883 -0.302031 -0.633 82 83 87
-0.0976733 -0.30394 -0.637 71 72 76
0.0270886 -0.238094 -0.499 198 161 155
0.0278143 -0.236186 -0.495 199 162 156
0.0284086 -0.233323 -0.489 202 163 158
0.03358 -0.23046 -0.483 203 164 159
0.0391 -0.23046 -0.483 195 158 152
0.04002 -0.23046 -0.483 195 158 152
0.0591667 -0.23714 -0.497 141 110 118
0.0662819 -0.242389 -0.508 120 97 107
0.0853286 -0.259089 -0.543 112 90 102
0.38917 -0.266723 -0.559 139 95 92
0.390966 -0.264337 -0.554 139 93 93
0.391286 -0.262429 -0.55 144 98 98
0.410677 -0.256226 -0.537 163 111 98
0.41652 -0.254794 -0.534 153 100 92
0.420816 -0.254317 -0.533 151 98 92
0.42126 -0.253363 -0.531 155 102 96
0.423495 -0.252886 -0.53 157 104 96
0.501867 -0.2672 -0.56 127 84 75
-0.138709 -0.304674 -0.636 94 97 102
-0.132 -0.295093 -0.616 96 99 104
-0.106314 -0.292219 -0.61 100 101 105
0.0457286 -0.232338 -0.485 183 146 138
0.0537762 -0.235212 -0.491 162 125 132
0.0798457 -0.255811 -0.534 113 89 102
0.40137 -0.259165 -0.541 168 115 107
0.41652 -0.255811 -0.534 154 101 93
0.428125 -0.252458 -0.527 154 104 95
0.429129 -0.252458 -0.527 154 104 95
0.43467 -0.251021 -0.524 136 87 80
-0.0917505 -0.306848 -0.638 50 51 56
-0.08932 -0.306848 -0.638 47 47 55
-0.0832438 -0.306848 -0.638 51 50 58
0.02916 -0.233743 -0.486 198 161 153
0.03818 -0.2323 -0.483 197 158 151
0.0391 -0.2323 -0.483 196 157 150
0.0591667 -0.239033 -0.497 137 105 116
0.0813171 -0.258271 -0.537 111 87 101
0.0933886 -0.266448 -0.554 113 90 108
0.394551 -0.275586 -0.573 142 100 101
0.413469 -0.256829 -0.534 159 106 98
0.417537 -0.256829 -0.534 154 101 93
0.428125 -0.253462 -0.527 152 102 93
0.449205 -0.253462 -0.527 133 86 78
-0.112177 -0.282954 -0.586 69 70 74
-0.108999 -0.286334 -0.593 117 118 123
-0.105842 -0.296474 -0.614 101 102 107
-0.0990419 -0.308063 -0.638 79 80 84
0.0316743 -0.232737 -0.482 202 163 156
0.0362648 -0.232737 -0.482 196 157 152
0.0448048 -0.234186 -0.485 187 149 146
0.0457286 -0.234186 -0.485 183 145 142
0.0591667 -0.23998 -0.497 135 103 114
0.0676467 -0.24674 -0.511 119 92 107
0.0853286 -0.262191 -0.543 116 94 107
0.0904543 -0.265089 -0.549 116 92 108
0.0960162 -0.268951 -0.557 113 88 107
0.393711 -0.265089 -0.549 145 100 97
0.402686 -0.260743 -0.54 172 119 111
0.4335 -0.2535 -0.525 142 93 86
0.486049 -0.264123 -0.547 127 86 80
-0.128703 -0.293766 -0.606 100 101 106
-0.10757 -0.292796 -0.604 111 112 117
-0.106014 -0.298129 -0.615 102 101 107
0.0257714 -0.238503 -0.492 200 163 155
0.03082 -0.23414 -0.483 200 161 154
0.0343571 -0.23317 -0.481 196 157 150
0.04186 -0.23414 -0.483 191 152 147
0.07308 -0.253046 -0.522 114 90 106
0.391671 -0.269043 -0.555 145 97 95
0.41777 -0.258378 -0.533 161 108 102
0.43132 -0.254985 -0.526 141 93 81
0.4345 -0.2545 -0.525 141 93 81
0.4395 -0.2545 -0.525 131 87 78
0.451063 -0.255954 -0.528 134 89 83
0.472928 -0.260802 -0.538 121 78 71
-0.109571 -0.287133 -0.59 155 156 161
-0.109183 -0.28908 -0.594 149 150 155
-0.08554 -0.310007 -0.637 45 44 50
0.025719 -0.238953 -0.491 199 162 154
0.0273086 -0.23652 -0.486 199 162 154
0.0361895 -0.234087 -0.481 196 157 150
0.06288 -0.24528 -0.504 128 100 112
0.0826467 -0.262313 -0.539 111 88 104
0.0956714 -0.2701 -0.555 115 91 105
0.394757 -0.26718 -0.549 150 102 98
0.402686 -0.2628 -0.54 171 118 110
0.40502 -0.262313 -0.539 170 120 111
0.412694 -0.259393 -0.533 154 104 97
0.5058 -0.273507 -0.562 124 84 76
-0.123683 -0.289723 -0.593 107 108 113
-0.1073 -0.29754 -0.609 110 109 115
0.0256667 -0.2394 -0.49 200 163 155
0.0307562 -0.235491 -0.482 201 163 154
0.0343571 -0.235003 -0.481 196 158 149
0.0759314 -0.257966 -0.528 113 91 104
0.0826467 -0.26334 -0.539 112 90 103
0.0941029 -0.269691 -0.552 116 94 107
0.428151 -0.306334 -0.627 127 105 118
0.393436 -0.271646 -0.556 140 95 90
0.39376 -0.269691 -0.552 144 96 92
0.394096 -0.269203 -0.551 145 97 93
0.394429 -0.268714 -0.55 147 99 95
0.424505 -0.258943 -0.53 158 106 95
0.424711 -0.258454 -0.529 155 103 92
0.4365 -0.2565 -0.525 136 90 77
-0.112907 -0.286438 -0.584 94 95 100
-0.112177 -0.287419 -0.586 78 79 84
-0.105357 -0.306548 -0.625 103 103 105
0.0316743 -0.23641 -0.482 201 163 154
0.0343571 -0.235919 -0.481 196 158 149
0.0352733 -0.235919 -0.481 197 159 150
0.05822 -0.243767 -0.497 141 109 114
0.39343 -0.274176 -0.559 138 95 89
0.395476 -0.269762 -0.55 146 101 96
0.396033 -0.26731 -0.545 157 108 103
0.41777 -0.261424 -0.533 160 107 99
0.46636 -0.261914 -0.534 126 83 74
0.47586 -0.264367 -0.539 128 85 76
-0.118266 -0.287058 -0.583 109 110 114
-0.109943 -0.29149 -0.592 202 203 205
-0.106704 -0.304784 -0.619 117 119 116
0.0325248 -0.236835 -0.481 200 161 154
0.0559867 -0.243236 -0.494 150 115 121
0.07322 -0.257515 -0.523 114 92 105
0.0863629 -0.267363 -0.543 120 97 113
0.394494 -0.275241 -0.559 137 96 92
0.406586 -0.264409 -0.537 168 116 105
0.414725 -0.262439 -0.533 158 105 97
0.430132 -0.259485 -0.527 151 99 85
0.456809 -0.260962 -0.53 126 83 74
-0.134143 -0.309423 -0.626 99 100 105
-0.123683 -0.293111 -0.593 107 108 112
-0.116954 -0.287674 -0.582 109 110 114
-0.114934 -0.288169 -0.583 110 111 115
-0.10736 -0.30448 -0.616 179 181 180
0.0705467 -0.25604 -0.518 114 92 105
0.07336 -0.259006 -0.524 114 92 105
0.0788286 -0.263949 -0.534 112 88 104
0.403993 -0.26642 -0.539 172 120 109
0.424505 -0.261971 -0.53 157 104 90
0.4425 -0.2595 -0.525 135 88 78
-0.114019 -0.289775 -0.584 99 98 106
0.0951543 -0.273897 -0.552 118 94 107
0.407609 -0.266454 -0.537 169 120 106
0.419237 -0.263477 -0.531 160 106 94
0.433324 -0.260996 -0.526 148 96 82
0.4558 -0.262981 -0.53 131 88 72
0.490963 -0.272409 -0.549 128 90 81
-0.115131 -0.290888 -0.584 102 103 107
-0.114214 -0.291386 -0.585 96 95 103
-0.111819 -0.293876 -0.59 69 68 76
-0.109918 -0.297861 -0.598 228 227 232
-0.10846 -0.30334 -0.609 222 222 224
0.0288 -0.239086 -0.48 202 164 153
0.0297143 -0.239086 -0.48 204 166 157
0.0407705 -0.239584 -0.481 190 149 143
0.0507629 -0.243569 -0.489 162 123 124
0.0538857 -0.245063 -0.492 152 117 121
0.0630048 -0.251538 -0.505 126 98 113
0.07336 -0.261002 -0.524 116 92 106
0.0824933 -0.267975 -0.538 121 98 114
0.0922086 -0.272458 -0.547 108 92 103
0.429943 -0.262994 -0.528 155 103 89
0.4425 -0.2615 -0.525 134 91 75
0.461573 -0.264987 -0.532 127 83 74
0.474094 -0.267477 -0.537 133 90 83
-0.118671 -0.2925 -0.585 93 94 98
-0.113487 -0.2935 -0.587 86 85 93
0.0370286 -0.24 -0.48 195 155 145
0.0476743 -0.243 -0.486 171 133 132
0.0617971 -0.2515 -0.503 129 101 116
0.06422 -0.2535 -0.507 119 95 109
0.0979619 -0.278 -0.556 120 97 113
0.230905 -0.325 -0.65 169 176 205
0.238333 -0.325 -0.65 213 214 234
0.39988 -0.273 -0.546 162 110 96
0.400488 -0.272 -0.544 165 113 100
0.40787 -0.268 -0.536 173 121 108
0.429943 -0.264 -0.528 156 105 88
0.430949 -0.264 -0.528 152 101 84
0.448201 -0.2635 -0.527 133 89 78
0.449205 -0.2635 -0.527 136 92 81
0.465487 -0.2665 -0.533 131 88 79
0.486348 -0.2725 -0.545 126 86 76
0.496647 -0.2765 -0.553 128 88 80
-0.124726 -0.300139 -0.598 89 90 94
-0.111258 -0.29763 -0.593 68 67 73
0.0847 -0.270527 -0.539 127 104 120
0.0882686 -0.272032 -0.542 118 97 112
0.185095 -0.326238 -0.65 177 181 206
0.244524 -0.326238 -0.65 213 217 242
0.247 -0.326238 -0.65 205 210 240
0.401224 -0.273538 -0.545 166 114 101
0.408633 -0.267515 -0.533 173 121 108
0.409649 -0.267515 -0.533 169 120 105
0.410907 -0.267013 -0.532 166 119 103
0.41418 -0.266511 -0.531 167 118 103
0.417214 -0.266511 -0.531 171 119 105
0.424505 -0.26601 -0.53 163 112 95
0.430949 -0.265006 -0.528 149 100 85
0.433144 -0.264504 -0.527 149 100 85
0.437331 -0.264002 -0.526 143 97 82
0.4385 -0.2635 -0.525 139 93 78
0.473211 -0.269021 -0.536 136 93 84
0.476002 -0.270025 -0.538 133 90 81
-0.117557 -0.294729 -0.585 85 84 89
-0.115526 -0.295232 -0.586 85 84 89
-0.111258 -0.298759 -0.593 69 68 76
-0.0451905 -0.327476 -0.65 180 178 181
-0.0402381 -0.327476 -0.65 188 186 189
-0.0315714 -0.327476 -0.65 195 193 194
0.0191905 -0.327476 -0.65 194 172 161
0.0218438 -0.245859 -0.488 203 166 150
0.0342143 -0.241325 -0.479 198 158 148
0.105671 -0.286668 -0.569 160 161 189
0.215715 -0.326972 -0.649 205 208 223
0.219424 -0.326972 -0.649 209 211 226
0.235857 -0.327476 -0.65 182 184 207
0.23673 -0.326972 -0.649 201 202 222
0.407649 -0.288683 -0.573 133 99 97
0.400393 -0.277599 -0.551 155 108 102
0.425719 -0.266515 -0.529 160 111 97
0.427931 -0.266011 -0.528 153 104 89
0.433144 -0.265508 -0.527 153 104 90
0.4445 -0.2645 -0.525 137 91 78
-0.128811 -0.309497 -0.612 85 84 90
-0.112198 -0.299383 -0.592 66 65 73
-0.108357 -0.311014 -0.615 232 231 236
-0.107059 -0.317589 -0.628 222 221 226
-0.0637619 -0.328714 -0.65 142 142 142
0.024279 -0.243249 -0.481 201 164 155
0.0847 -0.27258 -0.539 127 105 118
0.0882686 -0.274097 -0.542 118 98 110
0.22032 -0.327703 -0.648 213 210 229
0.402696 -0.276626 -0.547 166 114 103
0.418448 -0.268029 -0.53 165 116 101
0.422486 -0.268029 -0.53 164 112 98
0.423495 -0.268029 -0.53 164 115 101
0.434326 -0.266006 -0.526 152 103 88
0.4415 -0.2655 -0.525 143 94 80
0.450209 -0.266511 -0.527 135 91 80
0.467517 -0.269546 -0.533 126 82 73
0.479829 -0.273086 -0.54 128 85 76
-0.113134 -0.300003 -0.591 70 69 77
-0.111057 -0.303556 -0.598 72 71 79
-0.0488295 -0.329445 -0.649 177 177 177
0.0251429 -0.243657 -0.48 200 162 153
0.0342143 -0.24315 -0.479 196 156 148
0.036039 -0.24315 -0.479 188 148 140
0.0369514 -0.24315 -0.479 192 149 142
0.0388571 -0.243657 -0.48 189 148 142
0.0932505 -0.277668 -0.547 111 94 104
0.10223 -0.285282 -0.562 218 209 238
0.173952 -0.329952 -0.65 212 213 234
0.176429 -0.329952 -0.65 209 212 231
0.4048 -0.284267 -0.56 143 104 99
0.404632 -0.276145 -0.544 171 119 106
0.406523 -0.274622 -0.541 169 120 106
0.406586 -0.272591 -0.537 172 123 108
0.4455 -0.2665 -0.525 138 90 78
0.455948 -0.26853 -0.529 135 88 78
0.458829 -0.269038 -0.53 130 83 73
1.1333 -0.316754 -0.624 201 203 190
-0.11592 -0.2996 -0.588 78 77 82
-0.0463571 -0.330681 -0.649 182 180 181
-0.0216333 -0.330681 -0.649 205 201 202
-0.0179248 -0.330681 -0.649 209 205 206
-0.0142162 -0.330681 -0.649 210 206 207
-0.00185714 -0.33119 -0.65 214 212 213
0.000619048 -0.33119 -0.65 215 213 216
0.0154524 -0.330681 -0.649 201 183 181
0.0200667 -0.249667 -0.49 203 171 158
0.0314114 -0.243552 -0.478 197 157 147
0.0722238 -0.266481 -0.523 118 94 107
0.0855676 -0.274124 -0.538 129 106 122
0.0988429 -0.282786 -0.555 113 95 109
0.165286 -0.33119 -0.65 178 180 201
0.169 -0.33119 -0.65 196 197 218
0.170238 -0.33119 -0.65 196 198 219
0.179866 -0.330681 -0.649 219 220 241
0.186706 -0.329662 -0.647 95 111 147
0.243395 -0.329662 -0.647 204 209 238
0.260619 -0.33119 -0.65 172 190 230
0.275476 -0.33119 -0.65 157 166 197
0.299 -0.33119 -0.65 236 237 255
0.315095 -0.33119 -0.65 231 232 252
0.321286 -0.33119 -0.65 168 179 211
0.322524 -0.33119 -0.65 169 180 212
0.405376 -0.27769 -0.545 169 120 106
0.420467 -0.270048 -0.53 167 115 102
0.452069 -0.269029 -0.528 137 91 78
0.461717 -0.270557 -0.531 125 81 70
-0.01296 -0.331406 -0.648 211 207 208
-0.00433333 -0.332429 -0.65 213 211 212
0.0141943 -0.331406 -0.648 207 199 196
0.0233143 -0.245486 -0.48 199 163 149
0.0388571 -0.245486 -0.48 193 149 140
0.0538857 -0.251623 -0.492 145 112 123
0.0655714 -0.260829 -0.51 120 94 107
0.0810143 -0.273614 -0.535 128 106 119
0.0821867 -0.274126 -0.536 128 106 119
0.0867533 -0.27566 -0.539 125 104 119
0.140524 -0.332429 -0.65 138 152 197
0.141544 -0.331917 -0.649 134 148 193
0.14919 -0.332429 -0.65 226 224 245
0.155381 -0.332429 -0.65 219 220 241
0.171476 -0.332429 -0.65 213 216 235
0.17712 -0.331406 -0.648 212 211 229
0.206105 -0.330383 -0.646 193 207 244
0.237233 -0.330894 -0.647 218 220 243
0.259381 -0.332429 -0.65 164 182 222
0.263095 -0.332429 -0.65 164 179 218
0.27258 -0.331917 -0.649 224 224 250
0.293595 -0.331917 -0.649 207 209 224
0.296068 -0.331917 -0.649 235 238 255
0.323264 -0.331917 -0.649 189 204 233
0.406543 -0.285377 -0.558 152 106 93
0.406145 -0.284354 -0.556 156 110 97
0.431136 -0.269523 -0.527 160 109 92
0.442655 -0.267989 -0.524 144 95 81
0.474232 -0.274126 -0.536 133 89 78
-0.128271 -0.3157 -0.615 79 79 87
-0.11426 -0.30338 -0.591 79 78 86
-0.0512229 -0.33264 -0.648 179 177 178
-0.00309048 -0.333153 -0.649 214 212 213
0.000618095 -0.333153 -0.649 216 214 215
0.0669343 -0.26334 -0.513 118 94 108
0.0810143 -0.274633 -0.535 130 106 119
0.0891362 -0.277713 -0.541 122 99 115
0.10062 -0.286953 -0.559 194 177 195
0.156378 -0.333153 -0.649 222 220 242
0.240558 -0.331613 -0.646 201 199 223
0.284503 -0.33264 -0.648 230 231 251
0.311657 -0.33264 -0.648 228 230 253
0.341095 -0.333667 -0.65 212 219 247
0.377 -0.333667 -0.65 193 200 219
0.386905 -0.333667 -0.65 107 137 189
0.443174 -0.333153 -0.649 90 104 143
0.44441 -0.333153 -0.649 80 99 155
0.410567 -0.290033 -0.565 131 99 102
0.406794 -0.284387 -0.554 167 111 96
0.406864 -0.280793 -0.547 166 117 103
0.426926 -0.27104 -0.528 164 111 93
0.430132 -0.270527 -0.527 159 108 91
0.43214 -0.270527 -0.527 159 108 89
0.4455 -0.2695 -0.525 144 94 83
0.467517 -0.273607 -0.533 132 85 75
-0.112009 -0.307597 -0.597 70 69 77
-0.110052 -0.311719 -0.605 82 81 87
-0.0437495 -0.333359 -0.647 190 188 189
-0.0240314 -0.333359 -0.647 205 203 204
-0.0178419 -0.332844 -0.646 207 205 206
0.0116895 -0.332844 -0.646 218 214 213
0.0258943 -0.245769 -0.477 200 163 147
0.02862 -0.245769 -0.477 197 160 144
0.0466524 -0.24989 -0.485 162 126 128
0.0487 -0.250921 -0.487 158 123 129
0.0709552 -0.268439 -0.521 116 92 106
0.078681 -0.274622 -0.533 120 94 107
0.137623 -0.333874 -0.648 168 177 216
0.138857 -0.333874 -0.648 185 194 233
0.140091 -0.333874 -0.648 184 192 229
0.173417 -0.333874 -0.648 213 213 237
0.174651 -0.333874 -0.648 214 212 233
0.1849 -0.332329 -0.645 186 200 227
0.225792 -0.332844 -0.646 199 204 224
0.240558 -0.332844 -0.646 166 172 198
0.279134 -0.333359 -0.647 176 183 212
0.317338 -0.333359 -0.647 180 187 216
0.333874 -0.333874 -0.648 211 225 254
0.354169 -0.33439 -0.649 168 187 243
0.35719 -0.334905 -0.65 101 123 173
0.360905 -0.334905 -0.65 130 152 202
0.375762 -0.334905 -0.65 199 199 225
0.38319 -0.334905 -0.65 100 126 177
0.389381 -0.334905 -0.65 99 130 184
0.395571 -0.334905 -0.65 117 136 178
0.441938 -0.33439 -0.649 126 143 186
0.443174 -0.33439 -0.649 90 107 150
0.449203 -0.333359 -0.647 48 76 149
0.409797 -0.289049 -0.561 145 102 96
0.421689 -0.272561 -0.529 165 113 99
0.424711 -0.272561 -0.529 161 108 94
0.4375 -0.2705 -0.525 155 104 87
0.443653 -0.269985 -0.524 145 97 83
0.455086 -0.272046 -0.528 131 84 74
0.470429 -0.275137 -0.534 129 85 74
-0.112956 -0.308217 -0.596 74 73 81
-0.0596781 -0.334074 -0.646 173 171 172
-0.0560733 -0.334591 -0.647 175 173 174
-0.0449124 -0.334074 -0.646 189 187 188
-0.0190724 -0.334074 -0.646 207 205 206
-0.015381 -0.334074 -0.646 209 207 208
-0.00924286 -0.334591 -0.647 211 209 210
-0.0067781 -0.334591 -0.647 213 211 212
0.0249857 -0.246677 -0.477 201 164 146
0.0295286 -0.246677 -0.477 198 158 146
0.0447124 -0.250297 -0.484 173 135 134
0.0709552 -0.269431 -0.521 116 92 106
0.07364 -0.272017 -0.526 117 90 105
0.16848 -0.335109 -0.648 211 210 224
0.269275 -0.334591 -0.647 225 227 252
0.303782 -0.334591 -0.647 200 205 237
0.310695 -0.334074 -0.646 227 233 249
0.314387 -0.334074 -0.646 220 224 251
0.352389 -0.335109 -0.648 101 127 176
0.356641 -0.335626 -0.649 114 137 191
0.369571 -0.336143 -0.65 174 189 230
0.375184 -0.335626 -0.649 198 198 224
0.382601 -0.335626 -0.649 99 124 178
0.394963 -0.335626 -0.649 103 126 178
0.415978 -0.335626 -0.649 30 60 130
0.427104 -0.335626 -0.649 134 159 215
0.430812 -0.335626 -0.649 151 166 209
0.408857 -0.279257 -0.54 167 118 103
0.410153 -0.27874 -0.539 167 118 104
0.411186 -0.276671 -0.535 165 116 101
0.424914 -0.273051 -0.528 162 110 96
0.460848 -0.274086 -0.53 127 83 72
-0.112384 -0.31091 -0.599 77 76 84
-0.10736 -0.319733 -0.616 234 232 237
-0.0595857 -0.334786 -0.645 174 172 173
-0.0423857 -0.334786 -0.645 193 191 192
-0.00552857 -0.334786 -0.645 213 211 212
0.0322543 -0.247586 -0.477 195 155 143
0.0369514 -0.248624 -0.479 193 149 138
0.0583371 -0.258486 -0.498 130 100 112
0.0670648 -0.26679 -0.514 119 95 109
0.0830524 -0.27769 -0.535 131 108 124
0.0865924 -0.279248 -0.538 127 104 120
0.164523 -0.335824 -0.647 202 201 217
0.223867 -0.334267 -0.644 200 202 223
0.23 -0.334267 -0.644 157 162 184
0.2365 -0.334786 -0.645 217 215 236
0.270508 -0.335824 -0.647 228 234 255
0.289777 -0.335305 -0.646 203 208 240
0.291458 -0.335824 -0.647 166 177 205
0.29593 -0.335305 -0.646 191 199 235
0.310695 -0.335305 -0.646 228 233 252
0.314387 -0.335305 -0.646 216 220 247
0.32423 -0.335305 -0.646 169 185 221
0.343218 -0.335824 -0.647 211 215 240
0.347451 -0.336343 -0.648 141 154 188
0.380129 -0.336862 -0.649 152 166 201
0.391254 -0.336862 -0.649 90 126 186
0.39249 -0.336862 -0.649 94 127 181
0.41845 -0.336862 -0.649 20 56 130
0.423395 -0.336862 -0.649 36 71 135
0.437554 -0.336343 -0.648 169 175 207
0.449739 -0.335305 -0.646 33 71 144
0.45097 -0.335305 -0.646 35 73 146
0.41371 -0.276652 -0.533 160 108 94
0.435669 -0.271981 -0.524 151 98 84
0.443653 -0.271981 -0.524 145 97 83
0.487528 -0.282362 -0.544 125 85 77
-0.121978 -0.316218 -0.607 82 81 87
-0.0608143 -0.336014 -0.645 173 171 172
0.02584 -0.247973 -0.476 199 162 146
0.0369514 -0.249536 -0.479 192 148 135
0.0447124 -0.252141 -0.484 170 130 128
0.0518 -0.255267 -0.49 150 114 118
0.0550457 -0.25735 -0.494 137 107 117
0.0723619 -0.272979 -0.524 116 92 106
0.0828971 -0.278189 -0.534 131 108 124
0.0974333 -0.288087 -0.553 111 97 114
0.102776 -0.294338 -0.565 198 195 224
0.104771 -0.296943 -0.57 194 191 220
0.155896 -0.337056 -0.647 215 215 239
0.206372 -0.334972 -0.643 206 206 232
0.220187 -0.335493 -0.644 199 199 225
0.267629 -0.336535 -0.646 186 200 237
0.289777 -0.336535 -0.646 183 195 233
0.309465 -0.336535 -0.646 231 233 254
0.335305 -0.336535 -0.646 212 223 245
0.350612 -0.337056 -0.647 84 114 178
0.363497 -0.337577 -0.648 122 144 201
0.383246 -0.337577 -0.648 95 124 180
0.415337 -0.337577 -0.648 42 69 138
0.423977 -0.337577 -0.648 45 80 144
0.435086 -0.337577 -0.648 114 126 168
0.44797 -0.337056 -0.647 33 67 139
0.449739 -0.336535 -0.646 25 63 136
0.45097 -0.336535 -0.646 26 64 137
0.411757 -0.289129 -0.555 155 107 97
0.437665 -0.272979 -0.524 156 100 85
0.475253 -0.27923 -0.536 130 88 76
1.12958 -0.32299 -0.62 202 204 190
-0.105695 -0.324171 -0.62 221 219 224
-0.0435467 -0.33672 -0.644 193 191 192
-0.0104429 -0.337243 -0.645 213 211 212
-0.00184 -0.33672 -0.644 217 215 216
0.0196981 -0.251494 -0.481 202 167 148
0.0231686 -0.249403 -0.477 202 167 148
0.0240267 -0.24888 -0.476 201 166 147
0.02584 -0.24888 -0.476 199 162 146
0.0417733 -0.252017 -0.482 179 136 129
0.0749257 -0.276069 -0.528 114 90 104
0.08188 -0.279206 -0.534 131 108 124
0.099021 -0.290709 -0.556 145 139 167
0.14212 -0.337766 -0.646 227 225 246
0.151964 -0.337766 -0.646 214 216 241
0.165499 -0.337766 -0.646 208 209 229
0.170421 -0.337766 -0.646 193 192 206
0.172614 -0.337243 -0.645 203 204 225
0.180933 -0.33672 -0.644 206 207 235
0.260246 -0.337766 -0.646 190 208 248
0.269671 -0.337243 -0.645 224 234 255
0.284414 -0.337243 -0.645 145 162 205
0.291008 -0.337766 -0.646 155 169 214
0.3053 -0.337243 -0.645 227 231 255
0.346379 -0.337766 -0.646 191 205 231
0.34761 -0.337766 -0.646 159 181 230
0.358007 -0.338289 -0.647 69 99 163
0.369669 -0.338811 -0.648 184 188 213
0.379543 -0.338811 -0.648 148 167 207
0.397443 -0.338289 -0.647 145 158 193
0.412869 -0.338811 -0.648 49 75 134
0.41238 -0.28914 -0.553 156 108 98
0.411886 -0.284434 -0.544 167 114 100
0.418 -0.27816 -0.532 158 106 92
0.437665 -0.273977 -0.524 159 103 88
0.443653 -0.273977 -0.524 144 95 81
0.469548 -0.278683 -0.533 130 86 75
-0.127157 -0.325877 -0.621 91 92 97
-0.119863 -0.319055 -0.608 86 86 96
-0.103833 -0.326927 -0.623 79 80 84
-0.05336 -0.337947 -0.644 188 183 187
-0.01656 -0.337947 -0.644 210 208 209
-0.0092 -0.337947 -0.644 213 212 210
-0.00796095 -0.337422 -0.643 214 213 211
0.02584 -0.249787 -0.476 199 162 144
0.0466524 -0.25451 -0.485 163 127 127
0.076219 -0.278124 -0.53 116 92 106
0.0807114 -0.279698 -0.533 132 109 125
0.0911971 -0.283896 -0.541 116 95 112
0.099021 -0.291768 -0.556 148 141 172
0.104955 -0.299639 -0.571 231 229 253
0.1419 -0.338471 -0.645 226 221 243
0.148272 -0.338996 -0.646 155 161 187
0.153194 -0.338996 -0.646 217 221 248
0.208497 -0.336897 -0.642 200 206 232
0.224744 -0.337422 -0.643 187 201 238
0.254093 -0.338996 -0.646 153 169 202
0.256554 -0.338996 -0.646 168 190 229
0.265986 -0.338471 -0.645 155 171 207
0.29256 -0.337947 -0.644 143 157 202
0.319547 -0.337947 -0.644 146 167 210
0.382654 -0.339521 -0.647 74 106 167
0.402372 -0.339521 -0.647 137 148 180
0.403605 -0.339521 -0.647 94 105 137
0.428821 -0.338996 -0.646 80 97 141
0.447278 -0.338996 -0.646 44 81 151
0.455514 -0.336897 -0.642 58 92 155
0.421101 -0.300164 -0.572 131 96 92
0.422486 -0.278124 -0.53 159 108 91
0.431136 -0.27655 -0.527 163 107 92
0.441657 -0.274975 -0.524 151 97 85
0.467653 -0.279173 -0.532 126 82 71
-0.114851 -0.31916 -0.606 92 95 102
-0.0557267 -0.338647 -0.643 186 181 185
0.0379429 -0.2528 -0.48 186 146 138
0.068441 -0.272287 -0.517 115 93 106
0.0785333 -0.280187 -0.532 128 105 121
0.0828971 -0.28124 -0.534 133 110 128
0.10314 -0.29862 -0.567 234 233 251
0.120267 -0.324427 -0.616 172 177 206
0.170157 -0.3397 -0.645 155 163 176
0.175753 -0.338647 -0.643 197 204 230
0.187709 -0.33812 -0.642 150 158 181
0.210943 -0.33812 -0.642 195 201 225
0.2537 -0.3397 -0.645 155 174 207
0.310477 -0.338647 -0.643 228 230 253
0.312927 -0.338647 -0.643 203 212 241
0.422669 -0.340227 -0.646 33 67 139
0.443587 -0.340227 -0.646 55 86 141
0.447278 -0.340227 -0.646 45 84 153
0.41387 -0.288613 -0.548 158 105 91
0.414231 -0.28598 -0.543 158 109 94
0.422486 -0.279133 -0.53 160 107 93
0.432322 -0.277027 -0.526 161 105 90
0.439661 -0.275973 -0.524 154 100 88
0.444651 -0.275973 -0.524 148 96 83
0.451358 -0.277027 -0.526 141 91 80
0.464751 -0.27966 -0.531 124 80 69
0.486768 -0.285453 -0.542 130 88 74
-0.10736 -0.3256 -0.616 79 79 87
-0.0544171 -0.339343 -0.642 189 184 188
-0.0165086 -0.339343 -0.642 210 208 209
-0.0103943 -0.339343 -0.642 216 212 213
0.0163667 -0.259529 -0.491 199 163 149
0.0204429 -0.252129 -0.477 198 165 148
0.0539952 -0.260586 -0.493 136 108 120
0.0827419 -0.281729 -0.533 132 111 128
0.138 -0.3404 -0.644 199 206 235
0.14168 -0.3404 -0.644 222 220 242
0.146587 -0.3404 -0.644 222 218 243
0.147813 -0.3404 -0.644 221 217 242
0.16008 -0.3404 -0.644 204 209 239
0.16376 -0.3404 -0.644 189 200 230
0.179149 -0.339343 -0.642 209 204 224
0.206951 -0.338814 -0.641 209 207 231
0.25208 -0.3404 -0.644 149 169 204
0.258213 -0.3404 -0.644 134 156 206
0.271285 -0.339871 -0.643 226 231 255
0.303129 -0.339871 -0.643 218 222 251
0.304353 -0.339871 -0.643 222 226 255
0.330587 -0.3404 -0.644 153 172 214
0.34776 -0.3404 -0.644 94 117 171
0.355671 -0.340929 -0.645 64 92 157
0.379602 -0.341457 -0.646 85 108 150
0.407903 -0.341457 -0.646 156 166 193
0.456026 -0.338814 -0.641 80 110 170
0.426619 -0.305514 -0.578 123 94 90
0.417059 -0.283314 -0.536 156 103 89
0.420027 -0.2812 -0.532 153 101 87
0.426926 -0.279086 -0.528 156 103 87
0.428937 -0.279086 -0.528 157 104 88
0.429129 -0.278557 -0.527 159 106 90
0.446648 -0.276971 -0.524 140 90 79
0.459978 -0.279614 -0.529 128 84 71
0.471578 -0.281729 -0.533 130 88 76
0.0303733 -0.252507 -0.476 196 157 142
0.0872914 -0.284335 -0.536 124 103 122
0.13268 -0.340566 -0.642 183 198 229
0.177926 -0.340566 -0.642 199 203 228
0.220382 -0.340035 -0.641 87 116 174
0.239441 -0.341096 -0.643 214 216 237
0.277409 -0.341096 -0.643 223 229 253
0.290429 -0.340566 -0.642 121 133 191
0.29532 -0.340566 -0.642 180 192 242
0.309994 -0.340566 -0.642 214 219 248
0.314886 -0.340566 -0.642 150 172 222
0.317331 -0.340566 -0.642 126 155 213
0.333748 -0.341096 -0.643 144 158 193
0.345995 -0.341096 -0.643 84 108 170
0.348445 -0.341096 -0.643 71 100 160
0.350894 -0.341096 -0.643 83 103 166
0.36248 -0.341627 -0.644 97 122 186
0.363707 -0.341627 -0.644 97 122 186
0.3913 -0.342157 -0.645 66 106 176
0.401129 -0.342157 -0.645 176 183 211
0.423813 -0.341627 -0.644 87 121 184
0.4501 -0.341096 -0.643 48 87 154
0.423228 -0.301841 -0.569 141 97 94
0.420816 -0.282744 -0.533 154 101 87
0.426524 -0.281152 -0.53 159 107 93
0.428937 -0.280091 -0.528 159 107 93
0.429129 -0.279561 -0.527 156 105 88
0.44181 -0.277439 -0.523 150 98 84
0.45236 -0.27903 -0.526 138 89 75
0.472593 -0.282744 -0.533 132 88 75
0.477424 -0.283805 -0.535 130 88 74
-0.121243 -0.330609 -0.621 104 105 109
0.0194933 -0.253413 -0.476 202 163 146
0.0632543 -0.269917 -0.507 122 96 109
0.0847724 -0.283759 -0.533 128 105 123
0.0898333 -0.286953 -0.539 119 98 115
0.0925686 -0.289083 -0.543 114 92 104
0.14391 -0.342321 -0.643 221 221 245
0.181311 -0.341256 -0.641 201 200 216
0.185905 -0.340724 -0.64 123 143 180
0.193219 -0.340724 -0.64 137 165 205
0.213943 -0.340724 -0.64 182 188 214
0.222824 -0.341256 -0.641 71 101 163
0.239441 -0.342321 -0.643 218 216 237
0.24679 -0.342321 -0.643 218 220 241
0.26108 -0.341789 -0.642 150 173 225
0.262303 -0.341789 -0.642 156 179 231
0.316837 -0.341256 -0.641 109 138 194
0.340566 -0.341789 -0.642 151 165 194
0.353344 -0.342321 -0.643 70 93 160
0.372293 -0.342853 -0.644 170 168 190
0.412773 -0.342853 -0.644 23 61 126
0.43608 -0.342853 -0.644 169 169 179
0.418325 -0.291212 -0.547 150 98 84
0.418114 -0.287486 -0.54 150 104 91
0.420357 -0.284824 -0.535 154 105 91
0.422847 -0.283759 -0.533 155 103 89
0.45236 -0.280032 -0.526 139 90 76
0.477424 -0.284824 -0.535 130 86 73
0.484073 -0.286953 -0.539 127 90 72
-0.120253 -0.332326 -0.622 110 113 118
-0.00548571 -0.341943 -0.64 217 215 216
-0.00182857 -0.341943 -0.64 222 218 217
0.00182857 -0.341943 -0.64 222 218 217
0.0230229 -0.253251 -0.474 199 164 145
0.0388571 -0.256457 -0.48 179 136 129
0.0407705 -0.256991 -0.481 177 132 127
0.0646 -0.272486 -0.51 120 93 108
0.0698286 -0.277829 -0.52 116 92 106
0.0804086 -0.283706 -0.531 132 109 127
0.1017 -0.301871 -0.565 245 238 255
0.146131 -0.343011 -0.642 217 222 244
0.155914 -0.343011 -0.642 115 133 183
0.157137 -0.343011 -0.642 126 144 194
0.190483 -0.341409 -0.639 127 154 201
0.227708 -0.342477 -0.641 75 100 167
0.26108 -0.343011 -0.642 144 169 225
0.281869 -0.343011 -0.642 150 165 208
0.303407 -0.342477 -0.641 154 165 193
0.334451 -0.343011 -0.642 199 210 242
0.345457 -0.343011 -0.642 165 183 221
0.400507 -0.34408 -0.644 179 186 212
0.414 -0.34408 -0.644 22 60 125
0.442751 -0.343546 -0.643 63 96 150
0.418871 -0.291186 -0.545 146 99 89
0.432322 -0.281034 -0.526 156 103 89
0.437665 -0.279966 -0.524 157 104 90
0.443803 -0.279431 -0.523 147 95 81
0.455366 -0.281034 -0.526 132 86 73
0.459109 -0.282103 -0.528 131 85 72
-0.0530286 -0.343162 -0.64 191 189 190
0.0152743 -0.260589 -0.486 197 164 145
0.0303733 -0.255227 -0.476 194 154 142
0.0457286 -0.260052 -0.485 167 126 124
0.0476743 -0.260589 -0.486 158 119 120
0.0551571 -0.265414 -0.495 130 102 116
0.153469 -0.344234 -0.642 128 145 189
0.15836 -0.344234 -0.642 112 132 182
0.163251 -0.344234 -0.642 105 126 181
0.212391 -0.342626 -0.639 206 206 230
0.227352 -0.343162 -0.64 69 98 168
0.228929 -0.343698 -0.641 77 105 170
0.233812 -0.343698 -0.641 168 182 227
0.2354 -0.344234 -0.642 191 205 250
0.237846 -0.344234 -0.642 191 200 229
0.246406 -0.344234 -0.642 204 209 229
0.285867 -0.343162 -0.64 119 139 189
0.312686 -0.343162 -0.64 158 171 203
0.33393 -0.343698 -0.641 205 218 250
0.36984 -0.345307 -0.644 185 187 208
0.41768 -0.345307 -0.644 69 104 170
0.42683 -0.34477 -0.643 69 98 158
0.439077 -0.34477 -0.643 177 179 191
0.445731 -0.344234 -0.642 108 137 195
0.457247 -0.343698 -0.641 160 168 189
0.432322 -0.282036 -0.526 156 103 89
0.44181 -0.280428 -0.523 153 101 88
0.442807 -0.280428 -0.523 151 99 86
-0.0237343 -0.343843 -0.639 209 209 209
0.0397714 -0.258286 -0.48 174 133 127
0.0551571 -0.266357 -0.495 130 102 116
0.0621657 -0.272276 -0.506 120 93 108
0.0824314 -0.285729 -0.531 130 107 123
0.148346 -0.344919 -0.641 218 220 243
0.232591 -0.344919 -0.641 122 144 201
0.260267 -0.344381 -0.64 109 138 198
0.277767 -0.344919 -0.641 165 179 208
0.300495 -0.344381 -0.64 202 210 247
0.365591 -0.345995 -0.643 176 196 233
0.376614 -0.345995 -0.643 171 176 198
0.377839 -0.345995 -0.643 120 125 147
0.413357 -0.345995 -0.643 49 84 140
0.422951 -0.288957 -0.537 148 100 90
0.423974 -0.288957 -0.537 148 100 90
0.43132 -0.283038 -0.526 157 105 92
0.43467 -0.281962 -0.524 155 101 89
0.445795 -0.281424 -0.523 150 98 85
0.449642 -0.281962 -0.524 140 90 79
0.0185476 -0.2565 -0.475 200 163 145
0.0340714 -0.25758 -0.477 187 145 133
0.0467486 -0.26244 -0.486 159 120 121
0.0671952 -0.2781 -0.515 117 93 109
0.0822762 -0.2862 -0.53 129 106 122
0.0884771 -0.28998 -0.537 118 97 114
0.145676 -0.3456 -0.64 217 219 240
0.178311 -0.34506 -0.639 205 209 234
0.209629 -0.34452 -0.638 166 177 209
0.215705 -0.34452 -0.638 125 143 191
0.220911 -0.34506 -0.639 61 95 167
0.235033 -0.34614 -0.641 108 130 180
0.249295 -0.3456 -0.64 123 144 187
0.251733 -0.3456 -0.64 97 124 179
0.25539 -0.3456 -0.64 98 134 196
0.257829 -0.3456 -0.64 93 127 188
0.276114 -0.3456 -0.64 199 211 237
0.297126 -0.34452 -0.638 208 219 255
0.315849 -0.34506 -0.639 129 159 209
0.320717 -0.34506 -0.639 108 138 192
0.377839 -0.34722 -0.643 142 144 165
0.434178 -0.34722 -0.643 174 175 195
0.442063 -0.34668 -0.642 81 103 150
0.455314 -0.3456 -0.64 127 149 196
0.457752 -0.3456 -0.64 165 170 192
0.430486 -0.3078 -0.57 133 95 86
0.424733 -0.29916 -0.554 136 95 93
0.42276 -0.29268 -0.542 143 99 90
0.423739 -0.29052 -0.538 144 97 87
0.429552 -0.2862 -0.53 149 100 86
0.446791 -0.28242 -0.523 147 98 84
0.4824 -0.28944 -0.536 127 85 73
0.490897 -0.29268 -0.542 129 93 77
0.0498314 -0.264991 -0.489 148 114 115
0.0735 -0.2845 -0.525 120 93 108
0.146895 -0.346819 -0.64 217 218 239
0.148114 -0.346819 -0.64 211 216 235
0.228571 -0.346819 -0.64 80 107 174
0.233448 -0.346819 -0.64 100 122 172
0.239543 -0.346819 -0.64 142 158 194
0.258238 -0.345735 -0.638 123 157 218
0.260669 -0.345735 -0.638 129 159 221
0.26838 -0.346277 -0.639 223 225 248
0.286637 -0.346277 -0.639 130 146 198
0.292265 -0.345735 -0.638 128 141 193
0.294695 -0.345735 -0.638 183 198 239
0.334629 -0.346819 -0.64 208 217 234
0.376029 -0.347903 -0.642 172 173 194
0.388257 -0.347903 -0.642 82 119 172
0.399263 -0.347903 -0.642 179 171 182
0.427389 -0.347903 -0.642 84 105 148
0.455314 -0.346819 -0.64 127 149 196
0.427838 -0.291545 -0.538 145 97 85
0.43683 -0.283416 -0.523 154 101 83
0.438822 -0.283416 -0.523 155 102 84
0.44181 -0.283416 -0.523 153 102 85
0.443803 -0.283416 -0.523 153 104 89
0.451638 -0.283958 -0.524 133 89 78
0.469933 -0.28721 -0.53 134 92 80
0.47767 -0.288835 -0.533 132 85 75
0.5699 -0.333271 -0.615 197 198 216
0.02844 -0.257766 -0.474 197 160 142
0.0331629 -0.259397 -0.477 188 149 134
0.0350533 -0.259941 -0.478 178 138 126
0.0368743 -0.259941 -0.478 177 134 127
0.0647267 -0.277887 -0.511 119 95 109
0.162489 -0.347494 -0.639 80 105 162
0.168574 -0.347494 -0.639 168 179 225
0.171009 -0.347494 -0.639 162 169 198
0.205337 -0.345863 -0.636 186 192 224
0.211727 -0.346407 -0.637 89 117 180
0.21692 -0.34695 -0.638 79 109 169
0.244419 -0.348038 -0.64 195 197 218
0.282543 -0.34695 -0.638 129 147 195
0.309278 -0.34695 -0.638 189 194 214
0.320717 -0.347494 -0.639 117 145 193
0.330454 -0.347494 -0.639 187 204 232
0.360229 -0.348038 -0.64 62 95 148
0.419397 -0.348582 -0.641 143 163 196
0.429165 -0.348582 -0.641 158 171 203
0.443124 -0.348038 -0.64 89 114 155
0.462398 -0.34695 -0.638 129 135 171
0.429089 -0.292026 -0.537 146 97 82
0.43132 -0.286044 -0.526 151 100 83
0.445795 -0.284412 -0.523 152 101 84
-0.0285133 -0.34762 -0.637 208 208 206
0.0202286 -0.257577 -0.472 200 163 145
0.0368743 -0.260851 -0.478 177 136 130
0.0597619 -0.273949 -0.502 119 95 109
0.0647267 -0.27886 -0.511 120 96 112
0.0822762 -0.289229 -0.53 129 108 125
0.129017 -0.347074 -0.636 142 165 215
0.15762 -0.348711 -0.639 93 113 174
0.180463 -0.348166 -0.638 131 137 159
0.224211 -0.348166 -0.638 60 95 163
0.226997 -0.348711 -0.639 79 108 176
0.236734 -0.348711 -0.639 205 210 232
0.237951 -0.348711 -0.639 214 212 233
0.257833 -0.34762 -0.637 122 152 206
0.310007 -0.34762 -0.637 178 189 219
0.317785 -0.348166 -0.638 139 163 211
0.328722 -0.348166 -0.638 170 185 214
0.338974 -0.348711 -0.639 211 218 237
0.352363 -0.348711 -0.639 91 116 172
0.394978 -0.349803 -0.641 182 183 214
0.407188 -0.349803 -0.641 122 141 184
0.412648 -0.349257 -0.64 160 170 206
0.415734 -0.349803 -0.641 125 136 168
0.427944 -0.349803 -0.641 102 114 152
0.43459 -0.349257 -0.64 168 174 198
0.437563 -0.348711 -0.639 162 177 196
0.451657 -0.349257 -0.64 73 95 142
0.462887 -0.34762 -0.637 66 75 114
0.459786 -0.335614 -0.615 121 92 86
0.43873 -0.315423 -0.578 125 88 80
0.431567 -0.291957 -0.535 150 98 84
0.431954 -0.288137 -0.528 153 100 82
0.43683 -0.285409 -0.523 154 101 83
0.440814 -0.285409 -0.523 156 105 86
0.442954 -0.284863 -0.522 155 104 85
0.4788 -0.29032 -0.532 136 93 77
0.032119 -0.260119 -0.475 190 150 138
0.03498 -0.261214 -0.477 179 139 129
0.0635038 -0.278738 -0.509 119 95 109
0.08096 -0.289143 -0.528 130 109 124
0.0832857 -0.290238 -0.53 128 107 122
0.150082 -0.349381 -0.638 122 141 184
0.185954 -0.348286 -0.636 69 96 149
0.231503 -0.349381 -0.638 147 176 232
0.235149 -0.349381 -0.638 209 213 238
0.236364 -0.349381 -0.638 218 222 247
0.24001 -0.349381 -0.638 216 218 241
0.261473 -0.348833 -0.637 143 171 221
0.288926 -0.348286 -0.636 141 159 207
0.299829 -0.348286 -0.636 216 226 253
0.32214 -0.348833 -0.637 141 164 205
0.338974 -0.349929 -0.639 179 183 208
0.388267 -0.350476 -0.64 99 127 177
0.40899 -0.350476 -0.64 163 167 194
0.412003 -0.349929 -0.639 159 166 192
0.4224 -0.350476 -0.64 159 169 196
0.452169 -0.349929 -0.639 93 112 155
0.430912 -0.294619 -0.538 145 97 85
0.431765 -0.28969 -0.529 153 101 87
0.433324 -0.288048 -0.526 153 100 82
0.437826 -0.286405 -0.523 152 99 83
0.438822 -0.286405 -0.523 152 99 83
0.451772 -0.286405 -0.523 132 88 75
0.0193295 -0.259375 -0.472 202 163 148
0.0211276 -0.259375 -0.472 201 162 147
0.0416867 -0.264321 -0.481 172 129 123
0.0426029 -0.264321 -0.481 171 128 122
0.0508667 -0.269267 -0.49 143 108 114
0.0541048 -0.271465 -0.494 127 101 114
0.0659571 -0.281906 -0.513 119 96 112
0.0671952 -0.283005 -0.515 117 94 110
0.0821209 -0.290698 -0.529 130 109 124
0.0988429 -0.308283 -0.561 240 232 253
0.138927 -0.350047 -0.637 172 178 210
0.153728 -0.350596 -0.638 101 121 171
0.157373 -0.350596 -0.638 93 114 169
0.159553 -0.350047 -0.637 89 111 171
0.170473 -0.350047 -0.637 137 147 182
0.179897 -0.349497 -0.636 179 190 210
0.184743 -0.349497 -0.636 88 119 173
0.232353 -0.350047 -0.637 178 197 239
0.255407 -0.350047 -0.637 126 153 200
0.257429 -0.349497 -0.636 135 162 209
0.26754 -0.350047 -0.637 228 232 255
0.280446 -0.349497 -0.636 140 155 198
0.293771 -0.349497 -0.636 132 150 196
0.32942 -0.350047 -0.637 204 216 242
0.363964 -0.350596 -0.638 126 139 174
0.369403 -0.351146 -0.639 192 194 217
0.400457 -0.351695 -0.64 120 134 163
0.404114 -0.351695 -0.64 151 165 194
0.436878 -0.350596 -0.638 112 122 147
0.450246 -0.350596 -0.638 72 96 144
0.458033 -0.350047 -0.637 116 121 143
0.460949 -0.349497 -0.636 71 85 122
0.432826 -0.307184 -0.559 123 85 82
0.431562 -0.305535 -0.556 123 86 80
0.462379 -0.28905 -0.526 136 90 75
0.470171 -0.290149 -0.528 138 92 77
0.0175314 -0.260274 -0.472 204 165 150
0.0377848 -0.263583 -0.478 176 137 130
0.0498314 -0.269649 -0.489 147 111 113
0.0575038 -0.275163 -0.499 122 95 110
0.0586886 -0.276266 -0.501 122 95 110
0.0706829 -0.286191 -0.519 115 92 108
0.146207 -0.35126 -0.637 190 197 223
0.16198 -0.35126 -0.637 88 109 166
0.168994 -0.350709 -0.636 177 191 228
0.182033 -0.350157 -0.635 140 160 193
0.222297 -0.350709 -0.636 95 127 188
0.257429 -0.350709 -0.636 156 179 221
0.26712 -0.350709 -0.636 226 230 255
0.278023 -0.350709 -0.636 148 158 194
0.279234 -0.350709 -0.636 143 156 198
0.33306 -0.35126 -0.637 204 210 232
0.345193 -0.35126 -0.637 158 176 212
0.409569 -0.352363 -0.639 175 182 208
0.429043 -0.352363 -0.639 108 115 143
0.436878 -0.351811 -0.638 120 127 153
0.45318 -0.35126 -0.637 151 160 191
0.463371 -0.350709 -0.636 155 159 186
0.431611 -0.304389 -0.552 125 88 82
0.43318 -0.296117 -0.537 146 98 86
0.4332 -0.29336 -0.532 147 98 84
0.435151 -0.290603 -0.527 150 98 84
0.436667 -0.288949 -0.524 150 98 84
0.439818 -0.288397 -0.523 156 104 90
0.44409 -0.287294 -0.521 157 104 88
0.4615 -0.2895 -0.525 135 89 73
0.46627 -0.290603 -0.527 138 93 74
0.0175314 -0.261173 -0.472 205 166 151
0.02838 -0.261727 -0.473 193 154 139
0.0416 -0.2656 -0.48 169 126 119
0.0456343 -0.267813 -0.484 157 116 112
0.0466524 -0.268367 -0.485 154 116 115
0.0476743 -0.26892 -0.486 154 116 115
0.061081 -0.279433 -0.505 120 96 110
0.148633 -0.352473 -0.637 189 202 236
0.179614 -0.351367 -0.635 198 204 226
0.223509 -0.35192 -0.636 124 154 208
0.227143 -0.35192 -0.636 83 115 174
0.255814 -0.351367 -0.635 167 189 228
0.260652 -0.351367 -0.635 146 168 209
0.325269 -0.35192 -0.636 175 190 231
0.342767 -0.352473 -0.637 184 197 229
0.346407 -0.352473 -0.637 181 196 229
0.36761 -0.353027 -0.638 110 125 166
0.382791 -0.35358 -0.639 109 132 184
0.38766 -0.35358 -0.639 95 123 171
0.393746 -0.35358 -0.639 181 188 214
0.402266 -0.35358 -0.639 139 150 178
0.422295 -0.353027 -0.638 172 180 201
0.432553 -0.352473 -0.637 80 90 125
0.439833 -0.352473 -0.637 131 147 183
0.443466 -0.319273 -0.577 122 88 86
0.435733 -0.309867 -0.56 119 84 80
0.432929 -0.304887 -0.551 126 87 80
0.432367 -0.301567 -0.545 130 90 82
0.433405 -0.301567 -0.545 134 91 82
0.437665 -0.289947 -0.524 152 100 86
0.438822 -0.289393 -0.523 155 104 87
0.440966 -0.28884 -0.522 160 107 91
0.479019 -0.293267 -0.53 138 95 78
0.50076 -0.30212 -0.546 149 106 87
0.0166676 -0.262628 -0.473 205 166 151
0.0426029 -0.26707 -0.481 162 119 113
0.144538 -0.352576 -0.635 213 219 243
0.152034 -0.353131 -0.636 133 153 203
0.160262 -0.352576 -0.635 99 121 181
0.161471 -0.352576 -0.635 101 124 178
0.171148 -0.352576 -0.635 204 211 237
0.178405 -0.352576 -0.635 207 212 234
0.188694 -0.351466 -0.633 87 116 172
0.218319 -0.352576 -0.635 104 129 183
0.219529 -0.352576 -0.635 118 145 190
0.232833 -0.352576 -0.635 128 149 196
0.243719 -0.352576 -0.635 220 220 244
0.298886 -0.352021 -0.634 206 213 241
0.315081 -0.352576 -0.635 161 174 208
0.322338 -0.352576 -0.635 142 157 198
0.353687 -0.353687 -0.637 190 198 221
0.37247 -0.354242 -0.638 184 194 229
0.39799 -0.354242 -0.638 83 91 128
0.465062 -0.352576 -0.635 171 167 184
0.468884 -0.35091 -0.632 164 162 184
0.434415 -0.297608 -0.536 140 92 80
0.434829 -0.296497 -0.534 144 96 82
0.434971 -0.293166 -0.528 151 102 88
0.43633 -0.292055 -0.526 148 99 84
0.451037 -0.289279 -0.521 139 92 76
0.575052 -0.340361 -0.613 207 205 208
0.0140533 -0.2652 -0.476 202 165 149
0.02838 -0.263529 -0.473 191 152 137
0.0320514 -0.264086 -0.474 186 146 136
0.04462 -0.2691 -0.483 159 119 117
0.0508667 -0.273 -0.49 136 105 111
0.0552686 -0.276343 -0.496 121 97 111
0.06 -0.2808 -0.504 117 93 107
