ply
format ascii 1.0
comment Created by Open3D
element vertex 1292
property double x
property double y
property double z
property uchar red
property uchar green
property uchar blue
end_header
0.378728 -0.269928 -0.544 141 96 93
0.382347 -0.265958 -0.536 144 96 92
0.3876 -0.263973 -0.532 145 96 91
0.4055 -0.2605 -0.525 160 108 95
0.417103 -0.259011 -0.522 147 97 90
0.423429 -0.258019 -0.52 150 100 93
0.42739 -0.258019 -0.52 149 99 90
0.427557 -0.257523 -0.519 147 97 88
0.44621 -0.258019 -0.52 129 86 79
-0.131647 -0.317287 -0.637 84 84 94
-0.104481 -0.29537 -0.593 64 61 72
-0.100834 -0.304834 -0.612 229 226 235
-0.10032 -0.306827 -0.616 228 225 234
0.0540095 -0.26399 -0.53 182 144 143
0.068619 -0.273952 -0.55 142 110 125
0.0873219 -0.290888 -0.584 135 106 124
0.0900067 -0.292382 -0.587 140 111 129
0.101649 -0.300351 -0.603 129 98 113
0.106837 -0.305332 -0.613 128 108 119
0.379424 -0.271462 -0.545 142 98 95
0.379764 -0.270964 -0.544 143 99 96
0.38038 -0.268473 -0.539 142 94 90
0.388894 -0.264489 -0.531 146 97 92
0.407722 -0.261002 -0.524 157 105 92
0.4366 -0.258013 -0.518 128 85 76
0.444363 -0.258511 -0.519 131 87 78
0.462126 -0.262994 -0.528 125 82 75
-0.118314 -0.303 -0.606 74 77 84
0.0339743 -0.2585 -0.517 205 171 161
0.0430857 -0.26 -0.52 201 164 155
0.0463229 -0.2615 -0.523 189 154 148
0.047319 -0.2615 -0.523 190 155 149
0.0885857 -0.2925 -0.585 142 113 131
0.383671 -0.2675 -0.535 146 98 94
0.411925 -0.2615 -0.523 152 102 91
0.430362 -0.26 -0.52 141 93 83
0.433489 -0.2595 -0.519 137 93 82
0.442386 -0.2595 -0.519 129 85 76
0.466774 -0.2655 -0.531 127 84 77
0.499341 -0.278 -0.556 139 93 80
1.1364 -0.3155 -0.631 202 203 197
1.13639 -0.3145 -0.629 201 204 185
-0.108815 -0.297128 -0.592 75 74 82
-0.0780143 -0.31871 -0.635 39 38 44
0.044161 -0.261492 -0.521 196 159 151
0.0539076 -0.265508 -0.529 179 140 141
0.055019 -0.26601 -0.53 176 137 138
0.0672029 -0.274542 -0.547 143 110 127
0.0756029 -0.282572 -0.563 135 107 121
0.108886 -0.310177 -0.618 216 214 227
0.417103 -0.261994 -0.522 152 102 93
0.421266 -0.261492 -0.521 152 102 93
0.430362 -0.26099 -0.52 142 94 82
0.44621 -0.26099 -0.52 132 89 82
0.479829 -0.271029 -0.54 136 93 86
-0.125997 -0.315889 -0.627 77 77 85
-0.123808 -0.31337 -0.622 77 78 82
-0.121637 -0.31085 -0.617 78 79 83
-0.100834 -0.308331 -0.612 237 231 243
0.03096 -0.259966 -0.516 212 176 164
0.0871724 -0.293721 -0.583 134 107 122
0.0898533 -0.295232 -0.586 142 115 130
0.0911248 -0.295736 -0.587 141 114 129
0.381791 -0.272561 -0.541 141 97 94
0.392731 -0.266011 -0.528 151 102 95
0.4015 -0.2645 -0.525 164 112 99
0.433333 -0.261981 -0.52 137 93 82
0.46125 -0.265508 -0.527 127 83 74
0.5013 -0.280622 -0.557 137 90 80
1.13039 -0.317904 -0.631 202 204 190
-0.100834 -0.309497 -0.612 235 229 241
0.0756029 -0.284717 -0.563 131 107 123
0.425547 -0.319611 -0.632 127 100 105
0.391109 -0.287246 -0.568 140 94 96
0.38541 -0.271063 -0.536 143 96 90
0.387313 -0.269546 -0.533 146 98 88
0.434477 -0.262466 -0.519 139 93 80
0.4366 -0.26196 -0.518 128 84 73
0.467786 -0.268534 -0.531 127 83 74
-0.128611 -0.32183 -0.634 76 77 82
-0.126801 -0.320308 -0.631 73 74 79
-0.118707 -0.311678 -0.614 77 76 82
0.0388229 -0.261931 -0.516 203 166 157
0.0657981 -0.276145 -0.544 141 108 125
0.0712286 -0.281221 -0.554 136 107 125
0.0741333 -0.284267 -0.56 133 106 123
0.1 -0.304571 -0.6 132 105 120
0.383909 -0.276145 -0.544 137 90 84
0.38804 -0.271069 -0.534 145 95 86
0.392731 -0.268023 -0.528 154 104 95
0.394999 -0.267515 -0.527 158 108 97
0.3995 -0.2665 -0.525 163 111 97
0.419281 -0.26447 -0.521 157 105 92
0.423429 -0.263962 -0.52 152 100 87
0.437727 -0.262439 -0.517 131 84 74
0.4472 -0.263962 -0.52 132 88 79
0.449052 -0.26447 -0.521 133 86 76
0.453765 -0.265485 -0.523 131 84 76
0.459373 -0.267008 -0.526 129 85 76
0.472463 -0.271069 -0.534 134 90 81
1.13093 -0.316754 -0.624 202 204 190
-0.104746 -0.306224 -0.601 77 76 82
-0.103946 -0.307243 -0.603 78 77 83
-0.1015 -0.3103 -0.609 77 76 81
-0.0920914 -0.322019 -0.632 55 54 62
0.0515 -0.2675 -0.525 181 143 142
0.0595029 -0.272086 -0.534 161 124 131
0.0607467 -0.273105 -0.536 156 119 126
0.0784381 -0.28941 -0.568 134 106 121
0.0911248 -0.29909 -0.587 142 115 130
0.0970629 -0.303676 -0.596 130 103 118
0.101817 -0.307752 -0.604 125 103 124
0.384984 -0.27871 -0.547 139 90 85
0.405171 -0.265971 -0.522 162 113 98
0.443374 -0.264443 -0.519 131 84 76
0.486491 -0.277181 -0.544 130 90 82
1.13278 -0.319471 -0.627 200 202 188
-0.106067 -0.30788 -0.602 85 84 90
-0.104118 -0.308903 -0.604 81 80 86
-0.0958333 -0.319643 -0.625 77 76 82
0.0223286 -0.266454 -0.521 206 172 162
0.0504038 -0.267989 -0.524 180 141 144
0.0784381 -0.290491 -0.568 134 103 121
0.268048 -0.332429 -0.65 199 212 244
0.29281 -0.332429 -0.65 250 250 250
0.297762 -0.332429 -0.65 207 206 214
0.321286 -0.332429 -0.65 245 247 255
0.328714 -0.332429 -0.65 189 205 238
0.329952 -0.332429 -0.65 200 216 249
0.386306 -0.277706 -0.543 139 91 87
0.417296 -0.266454 -0.521 162 109 95
0.430523 -0.265431 -0.519 151 100 83
0.438711 -0.264409 -0.517 135 87 75
0.0317571 -0.26334 -0.513 206 172 160
0.04498 -0.26642 -0.519 189 152 146
0.0582667 -0.273093 -0.532 161 121 129
0.085619 -0.297733 -0.58 136 107 125
0.100333 -0.309027 -0.602 131 104 121
0.101986 -0.310567 -0.605 122 105 121
0.106489 -0.313647 -0.611 194 185 202
0.289887 -0.333153 -0.649 253 248 255
0.297304 -0.333153 -0.649 219 217 230
0.303485 -0.333153 -0.649 244 244 255
0.322028 -0.333153 -0.649 240 239 253
0.339334 -0.333153 -0.649 214 224 251
0.399737 -0.268987 -0.524 166 114 101
0.400735 -0.268987 -0.524 166 114 101
0.404177 -0.26796 -0.522 166 115 98
0.411342 -0.267447 -0.521 165 116 99
0.417486 -0.266933 -0.52 163 112 95
0.437727 -0.265393 -0.517 139 91 79
0.4472 -0.266933 -0.52 129 83 70
0.44819 -0.266933 -0.52 132 85 75
0.4585 -0.2695 -0.525 131 84 74
0.463131 -0.27104 -0.528 130 83 75
1.13155 -0.320833 -0.625 201 203 189
-0.1242 -0.3246 -0.63 94 95 99
-0.10962 -0.31378 -0.609 93 92 97
-0.0982914 -0.318417 -0.618 99 100 104
-0.0972714 -0.318932 -0.619 84 85 89
0.0387476 -0.265348 -0.515 197 164 149
0.0439067 -0.266893 -0.518 189 151 148
0.0582667 -0.274107 -0.532 161 121 129
0.0798 -0.293686 -0.57 131 102 120
0.0840771 -0.297292 -0.577 135 108 125
0.43632 -0.333874 -0.648 173 179 203
0.431734 -0.323054 -0.627 127 101 104
0.393067 -0.288533 -0.56 133 88 83
0.388897 -0.277198 -0.538 145 96 92
0.391091 -0.275137 -0.534 152 99 93
0.391653 -0.274107 -0.532 151 103 93
0.3985 -0.2705 -0.525 159 107 94
0.401733 -0.269985 -0.524 163 111 97
0.41035 -0.268439 -0.521 167 116 99
0.428381 -0.267924 -0.52 153 104 87
0.431511 -0.267409 -0.519 146 99 83
1.13211 -0.321509 -0.624 203 205 191
-0.118073 -0.32218 -0.623 99 99 101
-0.0972714 -0.320111 -0.619 78 77 83
0.022059 -0.323731 -0.626 203 172 154
0.0195371 -0.272017 -0.526 206 175 157
0.0536019 -0.272017 -0.526 173 134 137
0.0606333 -0.276671 -0.535 154 119 126
0.100333 -0.31132 -0.602 129 105 121
0.173952 -0.336143 -0.65 172 171 185
0.182619 -0.336143 -0.65 204 207 226
0.356641 -0.335626 -0.649 110 135 191
0.384429 -0.336143 -0.65 202 205 224
0.392367 -0.28598 -0.553 131 87 84
0.39022 -0.277706 -0.537 148 98 89
0.392667 -0.27512 -0.532 151 103 93
0.3995 -0.2715 -0.525 162 110 97
0.40638 -0.269431 -0.521 165 116 101
0.409357 -0.269431 -0.521 165 116 99
0.42739 -0.268914 -0.52 155 104 87
0.429371 -0.268914 -0.52 151 100 83
0.435613 -0.26788 -0.518 147 99 85
0.44819 -0.268914 -0.52 133 86 76
0.469809 -0.274603 -0.531 128 84 75
0.472593 -0.275637 -0.533 131 87 78
0.481886 -0.279257 -0.54 133 89 80
0.491258 -0.282877 -0.547 134 85 78
-0.107011 -0.318695 -0.614 98 98 100
0.0385971 -0.266271 -0.513 195 159 145
0.0406305 -0.26679 -0.514 193 156 148
0.0725448 -0.28859 -0.556 134 107 124
0.074001 -0.290148 -0.559 134 107 122
0.0768114 -0.292743 -0.564 135 107 122
0.0882829 -0.302605 -0.583 139 115 131
0.0895467 -0.303124 -0.584 138 114 130
0.0988571 -0.311429 -0.6 128 104 120
0.110953 -0.323367 -0.623 225 220 240
0.125667 -0.337381 -0.65 175 182 210
0.173952 -0.337381 -0.65 187 186 200
0.181381 -0.337381 -0.65 213 215 236
0.182619 -0.337381 -0.65 177 179 200
0.187283 -0.336862 -0.649 210 214 239
0.189463 -0.336343 -0.648 221 226 248
0.291458 -0.335824 -0.647 206 219 253
0.333359 -0.335824 -0.647 164 186 225
0.342514 -0.336343 -0.648 224 229 255
0.348686 -0.336343 -0.648 215 223 246
0.362143 -0.337381 -0.65 101 135 199
0.432714 -0.337381 -0.65 85 111 168
0.390756 -0.281324 -0.542 143 96 88
0.395749 -0.274057 -0.528 156 107 93
0.403183 -0.270943 -0.522 170 121 106
0.411543 -0.269905 -0.52 169 118 101
0.4264 -0.269905 -0.52 158 107 90
0.480993 -0.279767 -0.539 134 90 81
-0.0996295 -0.32247 -0.619 82 81 87
0.0286571 -0.265686 -0.51 207 171 157
0.0355962 -0.266728 -0.512 202 166 154
0.0395743 -0.267249 -0.513 195 158 152
0.0406305 -0.26777 -0.514 192 155 149
0.0448933 -0.269853 -0.518 185 147 144
0.0481305 -0.271416 -0.521 183 144 145
0.0939971 -0.307883 -0.591 132 108 124
0.0988571 -0.312571 -0.6 128 104 120
0.1 -0.312571 -0.6 128 104 120
0.134333 -0.338619 -0.65 121 131 167
0.186994 -0.337577 -0.648 218 220 243
0.190403 -0.337056 -0.647 207 209 230
0.34445 -0.337056 -0.647 220 225 247
0.372711 -0.338098 -0.649 163 181 229
0.373948 -0.338098 -0.649 179 197 245
0.37642 -0.338098 -0.649 198 200 221
0.382601 -0.338098 -0.649 202 204 227
0.388782 -0.338098 -0.649 98 131 184
0.400524 -0.338619 -0.65 88 122 183
0.397682 -0.292775 -0.562 127 89 86
0.394963 -0.276626 -0.531 154 106 94
0.3995 -0.2735 -0.525 166 114 100
0.408365 -0.271416 -0.521 169 117 103
0.411543 -0.270895 -0.52 168 116 102
0.434627 -0.269853 -0.518 148 97 80
0.436742 -0.269332 -0.517 149 98 81
0.450171 -0.270895 -0.52 137 90 80
0.483809 -0.281835 -0.541 133 89 80
0.486631 -0.282877 -0.543 131 87 78
-0.11921 -0.328877 -0.629 107 107 109
-0.105184 -0.322603 -0.617 107 107 109
-0.0958333 -0.326786 -0.625 71 72 76
0.0219429 -0.267703 -0.512 211 169 153
0.0267143 -0.266657 -0.51 209 173 159
0.0375467 -0.267703 -0.512 197 161 149
0.0385219 -0.267703 -0.512 196 160 148
0.0536019 -0.275023 -0.526 171 132 137
0.0617676 -0.280251 -0.536 147 117 129
0.0642857 -0.282343 -0.54 134 107 122
0.07966 -0.297506 -0.569 129 105 121
0.0881314 -0.304303 -0.582 136 112 128
0.0895467 -0.305349 -0.584 136 112 128
0.0909695 -0.306394 -0.586 135 111 127
0.157857 -0.339857 -0.65 133 139 173
0.17863 -0.339334 -0.649 164 165 193
0.27255 -0.337766 -0.646 191 200 241
0.289777 -0.337766 -0.646 160 173 217
0.337766 -0.337766 -0.646 163 175 217
0.377656 -0.339334 -0.649 203 203 227
0.403 -0.339857 -0.65 113 145 206
0.410429 -0.339857 -0.65 182 189 217
0.415381 -0.339857 -0.65 156 165 196
0.416619 -0.339857 -0.65 153 174 217
0.424048 -0.339857 -0.65 29 59 131
0.433285 -0.339334 -0.649 105 130 186
0.440023 -0.338811 -0.648 137 151 180
0.393577 -0.280251 -0.536 149 100 93
0.39442 -0.278683 -0.533 151 103 93
0.395974 -0.277637 -0.531 154 104 93
0.406166 -0.272931 -0.522 170 119 102
0.409357 -0.272409 -0.521 167 115 101
0.428546 -0.271363 -0.519 159 106 88
0.4595 -0.2745 -0.525 127 80 70
0.465143 -0.276069 -0.528 125 81 70
0.482914 -0.282343 -0.54 129 89 79
0.4923 -0.286003 -0.547 134 90 81
1.1314 -0.324694 -0.621 201 203 189
1.12894 -0.323649 -0.619 201 203 189
-0.1035 -0.325877 -0.621 101 101 103
-0.0927048 -0.32955 -0.628 87 87 89
0.03054 -0.267104 -0.509 207 171 157
0.0344857 -0.267629 -0.51 204 168 152
0.04588 -0.271827 -0.518 184 146 145
0.0535 -0.2755 -0.525 170 131 136
0.0569305 -0.277599 -0.529 160 125 131
0.129182 -0.34057 -0.649 194 196 221
0.157614 -0.34057 -0.649 144 154 190
0.161323 -0.34057 -0.649 143 156 198
0.170685 -0.339521 -0.647 191 202 232
0.182057 -0.340046 -0.648 209 214 244
0.3225 -0.338471 -0.645 170 185 228
0.333557 -0.338471 -0.645 156 182 231
0.337766 -0.338996 -0.646 157 172 215
0.34884 -0.338996 -0.646 211 217 241
0.359239 -0.339521 -0.647 60 93 170
0.362263 -0.340046 -0.648 56 91 157
0.387584 -0.339521 -0.647 96 132 192
0.390651 -0.340046 -0.648 91 125 189
0.391886 -0.340046 -0.648 66 106 178
0.394354 -0.340046 -0.648 62 108 183
0.406089 -0.34057 -0.649 182 187 216
0.41227 -0.34057 -0.649 120 126 162
0.395707 -0.279173 -0.532 153 103 92
0.397248 -0.278124 -0.53 158 108 97
0.405388 -0.273401 -0.521 170 117 103
0.409357 -0.273401 -0.521 168 115 99
0.411543 -0.272876 -0.52 165 112 96
0.43364 -0.271827 -0.518 156 103 85
0.434772 -0.271302 -0.517 150 97 79
0.44252 -0.271827 -0.518 141 92 78
0.44548 -0.271827 -0.518 138 89 75
1.1314 -0.325877 -0.621 201 203 189
-0.105189 -0.32864 -0.624 108 108 110
-0.09614 -0.33022 -0.627 92 92 94
0.0256419 -0.267547 -0.508 210 173 157
0.0275771 -0.267547 -0.508 208 171 153
0.04588 -0.272813 -0.518 183 145 144
0.0669571 -0.287033 -0.545 131 107 123
0.0696667 -0.289667 -0.55 131 107 123
0.0768114 -0.29704 -0.564 134 107 122
0.123663 -0.340227 -0.646 210 211 231
0.147497 -0.34128 -0.648 200 201 222
0.162309 -0.34128 -0.648 138 155 198
0.163543 -0.34128 -0.648 155 172 215
0.345149 -0.340227 -0.646 220 225 255
0.353762 -0.340227 -0.646 175 194 237
0.361704 -0.340753 -0.647 67 100 169
0.37526 -0.340753 -0.647 152 158 190
0.398675 -0.340753 -0.647 73 117 182
0.414103 -0.34128 -0.648 70 83 136
0.416571 -0.34128 -0.648 58 81 135
0.39717 -0.288613 -0.548 138 94 91
0.3959 -0.281767 -0.535 151 103 91
0.398766 -0.27808 -0.528 162 110 96
0.405171 -0.27492 -0.522 172 119 105
0.419467 -0.273867 -0.52 165 112 96
0.421448 -0.273867 -0.52 164 108 91
0.441666 -0.272287 -0.517 149 97 83
0.0218571 -0.269571 -0.51 208 169 152
0.03048 -0.268514 -0.508 210 171 154
0.0457914 -0.273271 -0.517 183 145 144
0.0606333 -0.282786 -0.535 147 115 128
0.125087 -0.341986 -0.647 215 213 237
0.145029 -0.342514 -0.648 165 178 210
0.146263 -0.342514 -0.648 188 201 233
0.148731 -0.342514 -0.648 202 204 229
0.160826 -0.341986 -0.647 102 122 173
0.165755 -0.341986 -0.647 168 186 232
0.32568 -0.3404 -0.644 145 177 228
0.438789 -0.342514 -0.648 127 135 156
0.444129 -0.340929 -0.645 143 155 195
0.3978 -0.2886 -0.546 135 94 90
0.39695 -0.286486 -0.542 140 99 95
0.399521 -0.279614 -0.529 163 111 97
0.406166 -0.275914 -0.522 170 118 104
0.409357 -0.275386 -0.521 166 113 97
0.418476 -0.274857 -0.52 168 112 97
0.437727 -0.273271 -0.517 152 99 83
0.462379 -0.278029 -0.526 128 81 71
0.48587 -0.285957 -0.541 133 86 80
0.0218143 -0.270012 -0.509 212 173 158
0.022739 -0.269482 -0.508 210 171 156
0.04472 -0.273726 -0.516 182 144 143
0.0457914 -0.274256 -0.517 182 143 144
0.0479457 -0.275317 -0.519 179 140 143
0.130016 -0.343218 -0.647 134 148 185
0.136178 -0.343218 -0.647 162 180 220
0.13741 -0.343218 -0.647 156 174 212
0.146037 -0.343218 -0.647 186 199 231
0.150967 -0.343218 -0.647 198 203 222
0.18952 -0.341627 -0.644 223 230 246
0.320275 -0.341096 -0.643 166 180 219
0.32395 -0.341096 -0.643 142 173 230
0.339173 -0.341627 -0.644 183 193 228
0.360586 -0.342157 -0.645 64 98 159
0.364271 -0.342157 -0.645 50 84 155
0.369758 -0.342688 -0.646 62 97 161
0.378371 -0.342688 -0.646 173 188 207
0.396829 -0.342688 -0.646 40 79 154
0.405442 -0.342688 -0.646 181 194 226
0.407302 -0.343218 -0.647 183 194 216
0.398211 -0.283274 -0.534 165 112 104
0.4045 -0.2785 -0.525 168 115 101
0.413524 -0.275848 -0.52 166 110 95
0.431818 -0.274256 -0.517 161 105 92
0.437727 -0.274256 -0.517 150 97 83
0.439829 -0.273726 -0.516 149 95 83
0.443635 -0.274256 -0.517 146 94 81
0.017041 -0.328479 -0.617 204 167 151
0.02366 -0.269917 -0.507 209 170 155
0.0557114 -0.280565 -0.527 160 123 130
0.0644048 -0.288018 -0.541 136 112 125
0.0696667 -0.29281 -0.55 132 109 125
0.07952 -0.302392 -0.568 131 107 121
0.0808857 -0.303457 -0.57 129 108 125
0.146037 -0.34445 -0.647 177 192 225
0.148272 -0.343918 -0.646 201 206 228
0.168929 -0.343386 -0.645 94 116 173
0.177804 -0.343918 -0.646 136 146 182
0.19045 -0.342321 -0.643 196 203 221
0.331298 -0.342321 -0.643 103 137 198
0.3588 -0.342853 -0.644 74 105 170
0.376557 -0.343386 -0.645 137 137 165
0.383929 -0.343386 -0.645 154 167 199
0.430051 -0.343918 -0.646 53 82 152
0.404753 -0.296536 -0.557 121 89 90
0.400186 -0.290148 -0.545 133 93 94
0.399703 -0.285356 -0.536 156 106 97
0.41035 -0.27737 -0.521 161 105 90
0.42558 -0.276306 -0.519 154 101 85
0.435757 -0.275241 -0.517 147 93 81
0.439829 -0.274709 -0.516 149 95 83
0.490636 -0.289615 -0.544 126 86 74
0.0217286 -0.270883 -0.507 215 176 161
0.0415286 -0.274089 -0.513 187 149 146
0.0780238 -0.301871 -0.565 128 106 119
0.128386 -0.344614 -0.645 138 149 179
0.14212 -0.345149 -0.646 122 145 187
0.147042 -0.345149 -0.646 199 204 224
0.148272 -0.345149 -0.646 199 204 224
0.149503 -0.345149 -0.646 196 202 218
0.155414 -0.344614 -0.645 200 202 223
0.181214 -0.344614 -0.645 218 222 247
0.283091 -0.343011 -0.642 174 185 213
0.294097 -0.343011 -0.642 138 156 206
0.32956 -0.343011 -0.642 97 133 193
0.331298 -0.343546 -0.643 95 131 191
0.338647 -0.343546 -0.643 176 184 221
0.339871 -0.343546 -0.643 191 199 236
0.34477 -0.343546 -0.643 185 192 220
0.387614 -0.344614 -0.645 59 106 176
0.421438 -0.345149 -0.646 40 73 142
0.422669 -0.345149 -0.646 31 64 133
0.437434 -0.345149 -0.646 148 149 169
0.444129 -0.344614 -0.645 173 180 198
0.400913 -0.28798 -0.539 147 100 92
0.401263 -0.285309 -0.534 162 105 96
0.428707 -0.27676 -0.518 157 101 88
0.430833 -0.276226 -0.517 159 106 90
0.450294 -0.277294 -0.519 135 87 75
1.1284 -0.331257 -0.62 202 205 188
0.0197971 -0.271849 -0.507 210 173 157
0.0207629 -0.271849 -0.507 213 176 160
0.0226495 -0.271312 -0.506 213 174 157
0.0245771 -0.271312 -0.506 213 176 160
0.0446333 -0.276138 -0.515 180 142 139
0.0478533 -0.277747 -0.518 174 138 138
0.0617676 -0.287398 -0.536 140 112 124
0.0656771 -0.291151 -0.543 134 110 123
0.0752 -0.300267 -0.56 131 107 123
0.08364 -0.307773 -0.574 132 109 129
0.136986 -0.345843 -0.645 105 128 178
0.161557 -0.345843 -0.645 97 122 189
0.166213 -0.345307 -0.644 80 107 174
0.16963 -0.34477 -0.643 82 109 176
0.170854 -0.34477 -0.643 91 113 171
0.179707 -0.345307 -0.644 210 214 239
0.188931 -0.344234 -0.642 215 223 242
0.343011 -0.344234 -0.642 216 222 248
0.383333 -0.345307 -0.644 162 168 194
0.398671 -0.345843 -0.645 64 109 177
0.433743 -0.346379 -0.646 141 168 215
0.445201 -0.34477 -0.643 108 128 163
0.403557 -0.28579 -0.533 161 107 95
0.0134229 -0.280886 -0.522 209 172 154
0.0216857 -0.272276 -0.506 217 175 159
0.0293381 -0.271738 -0.505 207 169 150
0.0546038 -0.283038 -0.526 157 121 125
0.0630229 -0.289495 -0.538 138 110 122
0.0682448 -0.294338 -0.547 133 111 123
0.129413 -0.346533 -0.644 126 153 198
0.140453 -0.346533 -0.644 117 142 196
0.150267 -0.346533 -0.644 201 206 228
0.15272 -0.346533 -0.644 199 204 226
0.16963 -0.345995 -0.643 82 109 176
0.336897 -0.345457 -0.642 184 215 255
0.340566 -0.345457 -0.642 222 226 255
0.374165 -0.345995 -0.643 198 200 221
0.431843 -0.347071 -0.645 85 118 163
0.433071 -0.347071 -0.645 107 140 185
0.403714 -0.290571 -0.54 143 100 93
0.409932 -0.281424 -0.523 161 112 97
0.435757 -0.278195 -0.517 157 104 88
0.491672 -0.292724 -0.544 130 88 74
0.0322876 -0.27324 -0.506 204 166 147
0.0512057 -0.28188 -0.522 167 128 131
0.0778857 -0.30456 -0.564 129 106 124
0.0833486 -0.30888 -0.572 129 108 125
0.0861257 -0.31104 -0.576 132 109 127
0.0922429 -0.31698 -0.587 123 106 122
0.0988571 -0.324 -0.6 129 107 130
0.139227 -0.34776 -0.644 118 144 203
0.165955 -0.34722 -0.643 74 99 166
0.278552 -0.3456 -0.64 248 248 255
0.298057 -0.3456 -0.64 137 152 207
0.336897 -0.34668 -0.642 181 214 255
0.352794 -0.34668 -0.642 114 140 197
0.380289 -0.34722 -0.643 190 193 202
0.3956 -0.34776 -0.644 86 133 201
0.416453 -0.34776 -0.644 50 79 139
0.422587 -0.34776 -0.644 90 124 187
0.426267 -0.34776 -0.644 43 77 141
0.405077 -0.28674 -0.531 158 106 92
0.408276 -0.28404 -0.526 158 109 94
0.412921 -0.28242 -0.523 159 110 93
0.486127 -0.29106 -0.539 131 89 75
0.490769 -0.29322 -0.543 130 88 74
1.12829 -0.33372 -0.618 202 205 188
1.12947 -0.33372 -0.618 202 205 188
0.0123571 -0.281249 -0.519 205 168 152
0.0141133 -0.276913 -0.511 208 171 153
0.0264 -0.27312 -0.504 205 166 149
0.0512057 -0.282874 -0.522 166 127 130
0.0557114 -0.285584 -0.527 158 122 126
0.0581571 -0.287751 -0.531 150 118 129
0.06052 -0.289377 -0.534 144 114 124
0.108057 -0.335981 -0.62 213 218 247
0.147354 -0.347903 -0.642 202 208 234
0.25539 -0.346819 -0.64 165 184 227
0.324876 -0.346819 -0.64 113 147 210
0.348582 -0.347361 -0.641 196 208 232
0.3638 -0.347903 -0.642 54 95 161
0.378474 -0.347903 -0.642 173 172 178
0.383366 -0.347903 -0.642 99 129 181
0.392536 -0.348445 -0.643 81 121 180
0.402334 -0.348445 -0.643 188 190 205
0.429279 -0.348445 -0.643 55 84 150
0.430504 -0.348445 -0.643 54 85 139
0.444509 -0.347903 -0.642 164 178 205
0.446954 -0.347903 -0.642 87 110 160
0.406047 -0.292087 -0.539 141 98 89
0.409278 -0.285042 -0.526 159 110 96
0.414913 -0.283416 -0.523 157 105 91
0.417103 -0.282874 -0.522 152 100 86
0.418097 -0.282874 -0.522 151 99 85
0.433788 -0.280165 -0.517 154 101 85
0.447574 -0.280165 -0.517 139 92 76
0.02256 -0.27408 -0.504 212 173 156
0.03024 -0.27408 -0.504 205 166 151
0.0424229 -0.27843 -0.512 184 144 142
0.0736038 -0.302358 -0.556 130 108 120
0.090659 -0.317585 -0.584 125 102 120
0.123089 -0.34967 -0.643 191 195 220
0.126763 -0.34967 -0.643 119 141 178
0.142685 -0.34967 -0.643 93 122 180
0.189266 -0.347494 -0.639 141 152 174
0.25134 -0.347494 -0.639 210 214 225
0.3456 -0.348038 -0.64 212 222 249
0.363233 -0.348582 -0.641 60 99 164
0.367469 -0.349126 -0.642 71 107 165
0.376029 -0.349126 -0.642 198 202 214
0.386431 -0.348582 -0.641 89 123 171
0.422497 -0.349126 -0.642 103 131 179
0.442063 -0.349126 -0.642 125 127 142
0.443816 -0.348582 -0.641 172 183 201
0.445037 -0.348582 -0.641 125 136 154
0.409695 -0.298008 -0.548 128 89 82
0.407553 -0.294201 -0.541 137 94 87
0.467273 -0.286588 -0.527 126 83 66
0.484323 -0.292026 -0.537 133 90 71
0.487153 -0.293113 -0.539 132 89 70
0.0177952 -0.275586 -0.505 207 168 153
0.0273057 -0.274494 -0.503 207 165 151
0.0569305 -0.288683 -0.529 146 119 128
0.0642857 -0.294686 -0.54 138 112 123
0.06812 -0.29796 -0.546 135 111 124
0.0861257 -0.314331 -0.576 133 113 125
0.106359 -0.336706 -0.617 161 161 195
0.127789 -0.350349 -0.642 106 130 168
0.130234 -0.350349 -0.642 88 117 173
0.174933 -0.349257 -0.64 123 141 181
0.185614 -0.348711 -0.639 203 208 230
0.188049 -0.348711 -0.639 178 189 217
0.252162 -0.348166 -0.638 194 205 227
0.258238 -0.348166 -0.638 158 182 226
0.278897 -0.348166 -0.638 246 255 248
0.308063 -0.348166 -0.638 244 242 253
0.309278 -0.348166 -0.638 241 239 250
0.335323 -0.348711 -0.639 175 207 254
0.360229 -0.349257 -0.64 103 139 199
0.373001 -0.349803 -0.641 204 203 221
0.379733 -0.349257 -0.64 191 196 215
0.393757 -0.349803 -0.641 109 139 199
0.450438 -0.349257 -0.64 115 142 189
0.416705 -0.285954 -0.524 155 103 89
0.42108 -0.284863 -0.522 152 100 86
0.426733 -0.28268 -0.518 157 104 88
0.430833 -0.282134 -0.517 152 99 81
0.439829 -0.281589 -0.516 150 98 77
0.442777 -0.281589 -0.516 147 95 73
0.0139752 -0.277095 -0.506 208 171 153
0.03012 -0.274905 -0.502 204 164 152
0.0320962 -0.275452 -0.503 202 162 150
0.0630229 -0.294619 -0.538 139 113 124
0.0668343 -0.297905 -0.544 136 112 126
0.0721533 -0.302833 -0.553 133 110 126
0.133694 -0.351024 -0.641 65 96 163
0.137143 -0.350476 -0.64 79 111 170
0.138362 -0.350476 -0.64 77 109 170
0.159334 -0.351024 -0.641 79 100 163
0.173714 -0.350476 -0.64 157 172 213
0.258238 -0.349381 -0.638 164 187 229
0.305632 -0.349381 -0.638 235 242 255
0.430933 -0.350476 -0.64 84 105 148
0.438932 -0.351024 -0.641 173 175 196
0.410677 -0.294071 -0.537 150 98 84
0.412157 -0.290786 -0.531 146 98 86
0.414288 -0.288048 -0.526 150 101 87
0.424419 -0.284762 -0.52 153 102 85
0.42772 -0.283667 -0.518 155 102 86
0.463615 -0.286952 -0.524 130 84 71
0.477787 -0.291333 -0.532 133 90 74
0.485346 -0.294071 -0.537 134 88 73
0.0310762 -0.275861 -0.502 198 160 149
0.04234 -0.280807 -0.511 180 140 138
0.0511076 -0.286302 -0.521 165 129 133
0.0545 -0.2885 -0.525 156 122 123
0.0694133 -0.301139 -0.548 133 111 124
0.0745286 -0.304986 -0.555 132 109 125
0.0991867 -0.330813 -0.602 119 110 129
0.121485 -0.352245 -0.641 186 198 224
0.132267 -0.351695 -0.64 76 106 168
0.146666 -0.351146 -0.639 203 207 234
0.159086 -0.351695 -0.64 95 117 174
0.160305 -0.351695 -0.64 74 99 166
0.163962 -0.351695 -0.64 75 100 167
0.171009 -0.351146 -0.639 116 133 185
0.175602 -0.350596 -0.638 208 217 250
0.184109 -0.350596 -0.638 221 221 245
0.186247 -0.350047 -0.637 221 223 246
0.192313 -0.350047 -0.637 143 165 212
0.261473 -0.350047 -0.637 163 186 227
0.272393 -0.350047 -0.637 243 253 255
0.279673 -0.350047 -0.637 241 248 254
0.305153 -0.350047 -0.637 220 228 249
0.30758 -0.350047 -0.637 237 241 252
0.324567 -0.350047 -0.637 161 189 226
0.343305 -0.350596 -0.638 203 209 231
0.348166 -0.350596 -0.638 95 118 170
0.350596 -0.350596 -0.638 126 148 197
0.364534 -0.351146 -0.639 135 159 207
0.388267 -0.351695 -0.64 129 157 207
0.401676 -0.351695 -0.64 193 190 211
0.418743 -0.351695 -0.64 136 152 185
0.432152 -0.351695 -0.64 116 134 170
0.443124 -0.351695 -0.64 171 177 201
0.449734 -0.351146 -0.639 89 120 167
0.426569 -0.285203 -0.519 151 100 83
0.438846 -0.283554 -0.516 147 94 78
0.456114 -0.285752 -0.52 133 85 71
0.460851 -0.286851 -0.522 131 85 70
0.476889 -0.291797 -0.531 134 91 75
0.0186457 -0.276817 -0.502 210 171 154
0.0205581 -0.276817 -0.502 213 174 157
0.0252886 -0.276266 -0.501 203 166 150
0.0320324 -0.276817 -0.502 199 161 150
0.0371067 -0.279023 -0.506 184 147 138
0.0381457 -0.279574 -0.507 181 144 135
0.0707143 -0.303286 -0.55 132 108 122
0.07868 -0.309903 -0.562 133 109 125
0.0957667 -0.3281 -0.595 123 106 122
0.147651 -0.351811 -0.638 199 205 227
0.150317 -0.352363 -0.639 201 206 226
0.162489 -0.352363 -0.639 76 101 168
0.18382 -0.35126 -0.637 225 225 249
0.26026 -0.35126 -0.637 194 214 249
0.291349 -0.350709 -0.636 159 179 212
0.30758 -0.35126 -0.637 238 240 253
0.30952 -0.350709 -0.636 241 245 255
0.381574 -0.352363 -0.639 182 195 214
0.386443 -0.352363 -0.639 123 147 195
0.43878 -0.352363 -0.639 162 176 205
0.415419 -0.292257 -0.53 144 96 84
0.432803 -0.285089 -0.517 157 105 91
0.458976 -0.287294 -0.521 130 84 69
0.01018 -0.281647 -0.509 206 168 149
0.0129343 -0.278327 -0.503 211 173 154
0.0186086 -0.27722 -0.501 211 172 155
0.0262429 -0.27722 -0.501 204 167 151
0.0281514 -0.27722 -0.501 204 167 151
0.0340124 -0.278327 -0.503 195 159 147
0.04234 -0.282753 -0.511 178 139 134
0.0730743 -0.30544 -0.552 131 109 122
0.121295 -0.354133 -0.64 208 215 243
0.141575 -0.353027 -0.638 162 186 234
0.150082 -0.353027 -0.638 199 206 224
0.153728 -0.353027 -0.638 195 203 224
0.154943 -0.353027 -0.638 171 187 221
0.169526 -0.353027 -0.638 88 109 166
0.18382 -0.352473 -0.637 223 225 248
0.279673 -0.352473 -0.637 233 237 248
0.287714 -0.35192 -0.636 205 220 251
0.297406 -0.35192 -0.636 200 213 255
0.314366 -0.35192 -0.636 234 240 255
0.324057 -0.35192 -0.636 180 202 241
0.36761 -0.353027 -0.638 175 185 220
0.368825 -0.353027 -0.638 133 147 184
0.376116 -0.353027 -0.638 192 199 225
0.385226 -0.35358 -0.639 100 118 154
0.392529 -0.35358 -0.639 96 122 171
0.402266 -0.35358 -0.639 184 192 213
0.42351 -0.353027 -0.638 175 183 206
0.437563 -0.35358 -0.639 113 131 167
0.414516 -0.297693 -0.538 139 95 86
0.420094 -0.291607 -0.527 147 98 84
0.4225 -0.2905 -0.525 144 96 82
0.428546 -0.28718 -0.519 150 98 85
0.428707 -0.286627 -0.518 149 97 84
0.443881 -0.284967 -0.515 145 96 79
0.446709 -0.28552 -0.516 139 90 75
0.463727 -0.289393 -0.523 131 88 72
0.470394 -0.291053 -0.526 138 95 76
0.503247 -0.304887 -0.551 131 93 74
0.0370333 -0.280395 -0.505 183 146 130
0.0476686 -0.286503 -0.516 170 131 132
0.0859762 -0.319262 -0.575 124 108 121
0.0890867 -0.322593 -0.581 122 103 122
0.0908143 -0.324814 -0.585 120 101 120
0.0975514 -0.332588 -0.599 115 107 128
0.12354 -0.354797 -0.639 135 151 187
0.128409 -0.354797 -0.639 114 142 190
0.129626 -0.354797 -0.639 123 151 199
0.135499 -0.354242 -0.638 106 139 192
0.139145 -0.354242 -0.638 97 128 183
0.15106 -0.353687 -0.637 200 208 227
0.177474 -0.353131 -0.636 216 222 244
0.247348 -0.352576 -0.635 251 252 255
0.264697 -0.353131 -0.636 196 209 243
0.269543 -0.353131 -0.636 238 249 251
0.330633 -0.353687 -0.637 148 168 201
0.331847 -0.353687 -0.637 176 196 229
0.363393 -0.353687 -0.637 199 206 234
0.364607 -0.353687 -0.637 187 194 222
0.368247 -0.353687 -0.637 178 188 223
0.377953 -0.353687 -0.637 192 200 223
0.391914 -0.354242 -0.638 88 118 168
0.429587 -0.354242 -0.638 178 182 207
0.428728 -0.317596 -0.572 125 88 82
0.4187 -0.307047 -0.553 130 91 84
0.415503 -0.296497 -0.534 139 95 86
0.422303 -0.292055 -0.526 142 94 82
0.435897 -0.286503 -0.516 150 98 84
0.44204 -0.285392 -0.514 152 101 84
0.46661 -0.290945 -0.524 137 95 79
0.483651 -0.296497 -0.534 135 91 78
0.0119524 -0.279686 -0.502 213 172 152
0.0349705 -0.280243 -0.503 186 146 138
0.0391114 -0.282471 -0.507 182 142 134
0.0640476 -0.299743 -0.538 132 110 122
0.0663429 -0.300857 -0.54 132 110 122
0.0690333 -0.303643 -0.545 132 110 123
0.0716314 -0.305871 -0.549 132 112 124
0.122323 -0.356014 -0.639 181 187 211
0.124562 -0.355457 -0.638 123 139 173
0.14014 -0.3549 -0.637 151 171 208
0.195338 -0.353786 -0.635 168 184 218
0.196548 -0.353786 -0.635 187 203 237
0.29164 -0.353229 -0.634 219 225 251
0.298886 -0.353229 -0.634 204 213 244
0.309033 -0.353786 -0.635 235 242 255
0.324757 -0.353786 -0.635 165 185 222
0.344651 -0.354343 -0.636 185 199 226
0.349497 -0.354343 -0.636 209 216 244
0.363393 -0.3549 -0.637 203 210 236
0.368247 -0.3549 -0.637 195 205 232
0.39313 -0.355457 -0.638 88 121 175
0.406497 -0.355457 -0.638 142 148 180
0.436193 -0.3549 -0.637 83 99 133
0.4452 -0.354343 -0.636 112 132 182
0.417537 -0.297514 -0.534 136 92 83
0.41777 -0.296957 -0.533 137 90 80
0.42722 -0.290271 -0.521 144 95 81
0.430833 -0.288043 -0.517 150 101 86
0.434914 -0.287486 -0.516 150 98 84
0.435052 -0.286929 -0.515 149 97 83
0.436033 -0.286929 -0.515 152 101 84
0.437014 -0.286929 -0.515 152 101 84
0.439957 -0.286929 -0.515 150 99 80
0.44204 -0.286371 -0.514 154 103 86
0.449657 -0.287486 -0.516 140 93 75
0.4705 -0.2925 -0.525 135 92 73
0.489324 -0.299743 -0.538 133 87 72
0.0109962 -0.280642 -0.502 209 168 148
0.0203943 -0.278406 -0.498 216 178 159
0.0222914 -0.278406 -0.498 206 168 149
0.0475762 -0.28791 -0.515 165 131 130
0.0498267 -0.289587 -0.518 161 126 130
0.0543962 -0.292941 -0.524 152 120 125
0.136286 -0.355554 -0.636 106 135 179
0.152034 -0.355554 -0.636 144 160 193
0.164149 -0.355554 -0.636 113 135 182
0.172357 -0.354995 -0.635 115 132 178
0.182033 -0.354995 -0.635 222 227 246
0.19503 -0.354436 -0.634 173 186 218
0.243335 -0.354436 -0.634 246 249 255
0.246958 -0.354436 -0.634 253 252 255
0.259034 -0.354436 -0.634 211 226 255
0.26549 -0.354995 -0.635 186 197 229
0.273957 -0.354995 -0.635 245 255 255
0.276376 -0.354995 -0.635 241 252 255
0.334433 -0.354995 -0.635 217 225 248
0.366457 -0.355554 -0.636 203 211 234
0.39858 -0.356113 -0.637 166 171 201
0.404647 -0.356113 -0.637 141 158 188
0.435509 -0.355554 -0.636 124 135 165
0.440354 -0.355554 -0.636 163 174 206
0.457805 -0.354995 -0.635 129 144 185
0.453724 -0.341019 -0.61 119 90 86
0.427029 -0.315303 -0.564 125 85 77
0.419367 -0.305799 -0.547 135 92 85
0.422486 -0.296295 -0.53 134 90 81
0.430362 -0.290705 -0.52 149 100 85
0.433931 -0.288469 -0.516 147 98 81
0.434914 -0.288469 -0.516 147 98 81
0.446824 -0.28791 -0.515 145 96 79
0.490349 -0.300768 -0.538 132 86 73
0.0128314 -0.279915 -0.499 211 170 150
0.0166 -0.279354 -0.498 210 169 149
0.0279829 -0.279354 -0.498 202 163 146
0.0379952 -0.283281 -0.505 183 145 136
0.0638095 -0.30067 -0.536 133 110 120
0.0663429 -0.302914 -0.54 134 110 123
0.136286 -0.356766 -0.636 110 134 172
0.155669 -0.356766 -0.636 104 122 172
0.180539 -0.355644 -0.634 221 226 248
0.187785 -0.355644 -0.634 180 186 220
0.192615 -0.355644 -0.634 196 212 248
0.241746 -0.355083 -0.633 217 224 252
0.26145 -0.355644 -0.634 201 211 246
0.312883 -0.355083 -0.633 228 235 253
0.314585 -0.355644 -0.634 221 228 246
0.317 -0.355644 -0.634 174 184 211
0.324246 -0.355644 -0.634 155 172 218
0.350157 -0.356205 -0.635 209 217 236
0.388263 -0.356766 -0.636 79 117 180
0.406434 -0.356766 -0.636 183 185 206
0.408857 -0.356766 -0.636 184 192 213
0.439143 -0.356766 -0.636 93 108 141
0.442777 -0.356766 -0.636 117 133 184
0.455386 -0.356205 -0.635 70 100 162
0.459499 -0.355644 -0.634 88 99 153
0.420816 -0.298988 -0.533 131 87 78
0.443019 -0.28833 -0.514 149 102 84
0.464829 -0.292817 -0.522 133 89 76
0.468606 -0.293939 -0.524 137 91 75
0.0531943 -0.293811 -0.522 157 121 125
0.0858267 -0.32308 -0.574 126 108 124
0.127605 -0.357414 -0.635 160 183 225
0.138709 -0.357977 -0.636 152 172 205
0.13992 -0.357977 -0.636 195 203 226
0.168463 -0.356851 -0.634 169 184 213
0.18146 -0.356289 -0.633 221 226 245
0.199546 -0.356289 -0.633 168 181 213
0.268695 -0.356851 -0.634 245 255 255
0.269903 -0.356851 -0.634 242 252 253
0.306854 -0.356289 -0.633 153 166 198
0.329076 -0.356851 -0.634 170 192 231
0.341152 -0.356851 -0.634 171 176 198
0.353229 -0.356851 -0.634 205 212 230
0.39491 -0.357414 -0.635 175 183 229
0.404586 -0.357414 -0.635 184 187 204
0.409987 -0.356851 -0.634 185 191 207
0.431195 -0.357414 -0.635 176 183 202
0.433614 -0.357414 -0.635 177 179 200
0.437243 -0.357414 -0.635 127 139 165
0.461661 -0.355726 -0.632 160 168 214
0.422847 -0.300003 -0.533 130 86 75
0.431352 -0.292686 -0.52 153 99 87
0.437014 -0.289871 -0.515 150 98 85
0.459191 -0.292123 -0.519 133 87 72
0.478217 -0.297189 -0.528 138 95 79
0.493313 -0.30338 -0.539 141 98 81
0.0109086 -0.281251 -0.498 207 169 148
0.0203533 -0.280687 -0.497 212 174 155
0.0420914 -0.286899 -0.508 171 132 127
0.0741257 -0.311749 -0.552 129 108 123
0.0993514 -0.340551 -0.603 172 172 200
0.115328 -0.358059 -0.634 214 216 237
0.1397 -0.358624 -0.635 196 203 221
0.16484 -0.358059 -0.634 189 203 232
0.182666 -0.357494 -0.633 225 230 250
0.191106 -0.357494 -0.633 171 187 221
0.193517 -0.357494 -0.633 199 212 244
0.19834 -0.357494 -0.633 176 190 219
0.202842 -0.35693 -0.632 231 233 254
0.256214 -0.357494 -0.633 175 188 222
0.28109 -0.35693 -0.632 246 249 255
0.321323 -0.357494 -0.633 171 193 232
0.326146 -0.357494 -0.633 141 163 210
0.351466 -0.357494 -0.633 208 215 233
0.384024 -0.358624 -0.635 56 94 157
0.431195 -0.358624 -0.635 178 184 200
0.438452 -0.358624 -0.635 132 142 169
0.452746 -0.357494 -0.633 16 49 118
0.431169 -0.316831 -0.561 122 85 77
0.424041 -0.305536 -0.541 121 81 73
0.424657 -0.301583 -0.534 130 86 77
0.466817 -0.294806 -0.522 135 92 76
0.00439714 -0.2907 -0.513 205 167 148
0.0108867 -0.281633 -0.497 209 171 150
0.031841 -0.282767 -0.499 190 150 138
0.0529905 -0.294667 -0.52 157 121 123
0.076919 -0.315633 -0.557 131 108 124
0.0873743 -0.326967 -0.577 125 107 121
0.16458 -0.3587 -0.633 191 198 226
0.17997 -0.358133 -0.632 221 226 248
0.183581 -0.358133 -0.632 221 225 250
0.193211 -0.358133 -0.632 188 201 235
0.273867 -0.358133 -0.632 168 175 203
0.28109 -0.358133 -0.632 242 246 255
0.307573 -0.358133 -0.632 174 183 216
0.313592 -0.358133 -0.632 214 221 249
0.329763 -0.3587 -0.633 190 213 255
0.330969 -0.3587 -0.633 200 213 247
0.34182 -0.3587 -0.633 214 217 236
0.355083 -0.3587 -0.633 198 203 223
0.379796 -0.359267 -0.634 121 140 182
0.428101 -0.359267 -0.634 176 182 198
0.435347 -0.359267 -0.634 170 167 176
0.444306 -0.3587 -0.633 31 62 126
0.447923 -0.3587 -0.633 24 55 122
0.425857 -0.307133 -0.542 119 81 72
0.425553 -0.305433 -0.539 120 80 72
0.430678 -0.296933 -0.524 144 95 81
0.448893 -0.291267 -0.514 147 98 81
0.45271 -0.291833 -0.515 137 90 74
0.463048 -0.294667 -0.52 136 90 75
0.480229 -0.2992 -0.528 141 95 79
0.48498 -0.3009 -0.531 141 96 77
0.00620286 -0.284854 -0.501 208 167 145
0.0378448 -0.285991 -0.503 178 139 132
0.0463238 -0.291109 -0.512 163 125 124
0.0741257 -0.313851 -0.552 131 107 121
0.0842905 -0.324654 -0.571 125 107 121
0.121557 -0.361043 -0.635 186 194 217
0.159757 -0.359906 -0.633 196 202 226
0.174877 -0.358769 -0.631 132 139 168
0.184785 -0.359337 -0.632 220 225 247
0.24579 -0.358769 -0.631 237 237 255
0.246991 -0.358769 -0.631 243 252 247
0.258217 -0.359337 -0.632 184 197 232
0.260625 -0.359337 -0.632 192 202 238
0.261829 -0.359337 -0.632 185 195 231
0.272663 -0.359337 -0.632 180 187 216
0.332174 -0.359906 -0.633 171 188 231
0.33338 -0.359906 -0.633 158 171 206
0.344891 -0.359337 -0.632 169 173 184
0.353318 -0.359337 -0.632 174 181 200
0.361111 -0.359906 -0.633 197 204 223
0.374374 -0.359906 -0.633 172 177 197
0.384627 -0.360474 -0.634 39 77 150
0.387042 -0.360474 -0.634 31 71 143
0.38825 -0.360474 -0.634 32 71 140
0.401533 -0.360474 -0.634 184 186 201
0.427426 -0.359906 -0.633 179 183 195
0.433454 -0.359906 -0.633 169 161 172
0.450827 -0.359337 -0.632 53 84 151
0.426691 -0.303617 -0.534 123 80 73
0.427329 -0.301911 -0.531 127 84 75
0.435466 -0.295089 -0.519 150 101 86
0.00338 -0.289231 -0.507 203 168 140
0.0327914 -0.284668 -0.499 189 149 139
0.0337419 -0.284668 -0.499 188 148 138
0.043059 -0.289802 -0.508 167 128 123
0.05984 -0.301211 -0.528 140 110 118
0.0811086 -0.321749 -0.564 129 109 121
0.0924 -0.33544 -0.588 130 108 120
0.13465 -0.361682 -0.634 121 135 174
0.15614 -0.361111 -0.633 206 208 229
0.169135 -0.360541 -0.632 208 216 237
0.2106 -0.3594 -0.63 186 192 218
0.2238 -0.3594 -0.63 247 247 255
0.2502 -0.3594 -0.63 219 231 247
0.2994 -0.3594 -0.63 236 242 255
0.3006 -0.3594 -0.63 235 241 255
0.314298 -0.35997 -0.631 165 179 218
0.355726 -0.360541 -0.632 171 177 199
0.360541 -0.360541 -0.632 173 180 199
0.374987 -0.360541 -0.632 114 132 172
0.386431 -0.361111 -0.633 33 71 144
0.387637 -0.361111 -0.633 41 78 148
0.402106 -0.361111 -0.633 178 180 195
0.404517 -0.361111 -0.633 191 191 199
0.420191 -0.361111 -0.633 135 146 176
0.421397 -0.361111 -0.633 148 154 178
0.450827 -0.360541 -0.632 47 80 149
0.453234 -0.360541 -0.632 77 111 175
0.461857 -0.34799 -0.61 110 96 93
0.432393 -0.315473 -0.553 117 80 74
0.431095 -0.313762 -0.55 119 80 73
0.467908 -0.297218 -0.521 146 97 82
0.471789 -0.297789 -0.522 146 97 80
0.475592 -0.29893 -0.524 147 98 81
0.49271 -0.305205 -0.535 150 102 82
0.0450829 -0.291342 -0.509 166 125 119
0.0494419 -0.294204 -0.514 159 120 121
0.0575 -0.3005 -0.525 144 114 122
0.101333 -0.348008 -0.608 221 221 247
0.120158 -0.36289 -0.634 204 212 233
0.121174 -0.362317 -0.633 183 191 212
0.136849 -0.362317 -0.633 158 168 195
0.168868 -0.361172 -0.631 215 222 241
0.191704 -0.361172 -0.631 178 191 233
0.1986 -0.3606 -0.63 204 216 254
0.2418 -0.3606 -0.63 205 212 238
0.256607 -0.361172 -0.631 174 189 228
0.282151 -0.360028 -0.629 216 221 225
0.291736 -0.360028 -0.629 236 242 255
0.2994 -0.3606 -0.63 233 239 255
0.3042 -0.3606 -0.63 231 236 255
0.3186 -0.3606 -0.63 94 118 178
0.325115 -0.361172 -0.631 81 113 170
0.335932 -0.361172 -0.631 211 217 251
0.345548 -0.361172 -0.631 177 183 195
0.350355 -0.361172 -0.631 168 175 193
0.36656 -0.361745 -0.632 194 199 218
0.4638 -0.3606 -0.63 160 165 185
0.464262 -0.360028 -0.629 168 173 193
0.436303 -0.319389 -0.558 114 79 73
0.431615 -0.313665 -0.548 117 78 71
0.429147 -0.304507 -0.532 125 82 75
0.430562 -0.303362 -0.53 127 83 74
0.431136 -0.301645 -0.527 136 89 79
0.435159 -0.29821 -0.521 141 93 83
0.449974 -0.293631 -0.513 156 105 84
0.0154943 -0.283123 -0.493 209 171 150
0.0278143 -0.284271 -0.495 196 159 140
0.0337419 -0.286569 -0.499 186 148 137
0.0538771 -0.298054 -0.519 152 117 115
0.05984 -0.303223 -0.528 145 113 116
0.0634524 -0.306094 -0.533 140 108 113
0.0659743 -0.308391 -0.537 138 107 113
0.101333 -0.349166 -0.608 223 225 246
0.1134 -0.3618 -0.63 152 167 200
0.132026 -0.363523 -0.633 113 128 183
0.135643 -0.363523 -0.633 137 150 192
0.143855 -0.362949 -0.632 115 122 164
0.149874 -0.362949 -0.632 203 214 232
0.15469 -0.362949 -0.632 186 188 200
0.1902 -0.3618 -0.63 151 166 209
0.201879 -0.361226 -0.629 235 240 255
0.211464 -0.361226 -0.629 232 238 252
0.223445 -0.361226 -0.629 247 245 255
0.227039 -0.361226 -0.629 248 248 255
0.23902 -0.361226 -0.629 243 247 255
0.2646 -0.3618 -0.63 198 205 251
0.313302 -0.361226 -0.629 117 138 183
0.315698 -0.361226 -0.629 103 126 180
0.318094 -0.361226 -0.629 86 111 175
0.3438 -0.3618 -0.63 204 210 224
0.368384 -0.362374 -0.631 194 206 222
0.385821 -0.362949 -0.632 48 83 149
0.404441 -0.362374 -0.631 188 188 200
0.405643 -0.362374 -0.631 186 186 198
0.408047 -0.362374 -0.631 153 156 165
0.41646 -0.362374 -0.631 142 144 167
0.432085 -0.362374 -0.631 164 170 202
0.434489 -0.362374 -0.631 87 100 142
0.439296 -0.362374 -0.631 145 164 204
0.448911 -0.362374 -0.631 51 84 153
0.440994 -0.323897 -0.564 116 83 78
0.440938 -0.295757 -0.515 163 113 88
0.444111 -0.294609 -0.513 162 110 89
0.449974 -0.294609 -0.513 155 104 83
0.458503 -0.296331 -0.516 146 95 78
0.475681 -0.300351 -0.523 148 100 78
0.0145552 -0.284062 -0.493 206 168 147
0.0356429 -0.287519 -0.499 183 143 135
0.0711095 -0.314024 -0.545 138 109 114
0.142426 -0.363576 -0.631 111 116 154
0.160454 -0.363576 -0.631 211 213 225
0.170729 -0.362424 -0.629 217 219 240
0.186304 -0.362424 -0.629 196 206 241
0.204275 -0.362424 -0.629 171 177 209
0.245817 -0.361848 -0.628 169 175 207
0.318094 -0.362424 -0.629 95 122 189
0.321689 -0.362424 -0.629 95 125 185
0.327 -0.363 -0.63 115 140 196
0.337264 -0.362424 -0.629 211 216 235
0.380403 -0.363576 -0.631 107 137 201
0.388816 -0.363576 -0.631 109 140 205
0.4014 -0.363 -0.63 190 192 207
0.41646 -0.363576 -0.631 174 172 194
0.420066 -0.363576 -0.631 183 184 202
0.453 -0.363 -0.63 130 159 219
0.460668 -0.362424 -0.629 57 70 104
0.438704 -0.320938 -0.557 117 84 77
0.431254 -0.311719 -0.541 116 79 73
0.430969 -0.30711 -0.533 122 81 75
0.439957 -0.296738 -0.515 165 111 85
0.0164 -0.284423 -0.492 209 171 150
0.0192114 -0.284423 -0.492 206 168 147
0.0201486 -0.284423 -0.492 206 168 147
0.0306429 -0.286157 -0.495 188 148 136
0.14483 -0.364778 -0.631 187 190 225
0.189898 -0.363622 -0.629 124 142 192
0.202754 -0.363044 -0.628 165 177 215
0.206343 -0.363044 -0.628 231 237 255
0.242229 -0.363044 -0.628 242 247 253
0.256583 -0.363044 -0.628 124 150 199
0.330075 -0.363622 -0.629 85 112 167
0.337264 -0.363622 -0.629 208 214 240
0.375 -0.3642 -0.63 152 176 212
0.429 -0.3642 -0.63 178 180 192
0.453479 -0.363622 -0.629 133 147 186
0.455875 -0.363622 -0.629 163 163 197
0.4342 -0.31564 -0.546 117 76 72
0.431173 -0.307547 -0.532 126 86 78
0.435669 -0.302922 -0.524 135 85 76
0.443019 -0.297141 -0.514 163 112 91
0.447147 -0.295985 -0.512 161 110 89
0.456726 -0.297141 -0.514 150 99 80
0.4662 -0.299453 -0.518 149 98 79
0.00057619 -0.3509 -0.605 202 165 146
0.00517524 -0.28652 -0.494 207 169 146
0.0173019 -0.28478 -0.491 208 170 149
0.02964 -0.28652 -0.494 190 153 137
0.0345533 -0.28826 -0.497 183 145 134
0.0428895 -0.29348 -0.506 172 131 125
0.04394 -0.29406 -0.507 170 129 125
0.0471143 -0.2958 -0.51 165 125 123
0.0493457 -0.29754 -0.513 161 123 122
0.0711095 -0.3161 -0.545 138 108 116
0.0751771 -0.32016 -0.552 138 108 116
0.118388 -0.36598 -0.631 197 208 238
0.1218 -0.3654 -0.63 166 188 229
0.141 -0.3654 -0.63 124 128 163
0.169261 -0.36424 -0.628 217 219 234
0.17285 -0.36424 -0.628 223 220 237
0.175242 -0.36424 -0.628 223 225 240
0.198849 -0.36366 -0.627 144 161 205
0.209597 -0.36366 -0.627 234 237 252
0.227874 -0.36424 -0.628 220 223 240
0.243037 -0.36366 -0.627 199 212 231
0.267349 -0.36424 -0.628 183 200 244
0.312306 -0.36366 -0.627 135 156 203
0.315196 -0.36424 -0.628 155 180 234
0.398367 -0.36482 -0.629 86 100 137
0.417536 -0.36482 -0.629 187 188 206
0.418734 -0.36482 -0.629 188 183 206
0.425923 -0.36482 -0.629 171 172 190
0.432423 -0.36424 -0.628 93 109 143
0.437208 -0.36424 -0.628 176 178 199
0.448687 -0.36482 -0.629 85 113 163
0.463524 -0.36424 -0.628 58 63 101
0.444502 -0.32654 -0.563 113 84 78
0.431777 -0.30972 -0.534 124 87 79
0.431984 -0.30914 -0.533 128 87 81
0.432187 -0.30856 -0.532 127 86 80
0.434148 -0.30566 -0.527 131 88 79
0.439829 -0.29928 -0.516 162 110 88
0.449097 -0.29696 -0.512 156 105 84
0.452906 -0.29754 -0.513 151 100 81
0.4662 -0.30044 -0.518 148 97 78
0.0191333 -0.285133 -0.49 202 164 143
0.037619 -0.290952 -0.5 176 138 129
0.0583886 -0.304918 -0.524 145 114 120
0.121607 -0.366018 -0.629 158 181 225
0.159946 -0.366018 -0.629 157 156 170
0.175242 -0.365436 -0.628 227 226 240
0.183615 -0.365436 -0.628 121 139 189
0.194071 -0.364854 -0.627 112 132 185
0.226317 -0.364854 -0.627 207 212 232
0.245034 -0.364272 -0.626 150 163 207
0.262146 -0.364854 -0.627 144 164 214
0.284383 -0.364272 -0.626 202 203 223
0.285575 -0.364272 -0.626 186 187 207
0.357063 -0.365436 -0.628 203 210 229
0.373207 -0.366018 -0.629 156 171 202
0.41514 -0.366018 -0.629 154 154 178
0.426442 -0.365436 -0.628 150 155 175
0.437208 -0.365436 -0.628 180 178 199
0.448687 -0.366018 -0.629 103 127 173
0.43628 -0.31772 -0.546 123 85 82
0.435328 -0.306082 -0.526 129 86 77
0.438431 -0.302009 -0.519 151 102 87
0.441919 -0.299681 -0.515 162 110 86
0.443998 -0.299099 -0.514 163 111 89
0.457705 -0.299099 -0.514 145 96 79
0.00235714 -0.288986 -0.495 206 169 143
0.025719 -0.28665 -0.491 197 160 141
0.0991867 -0.351453 -0.602 225 223 236
0.115616 -0.367216 -0.629 136 151 184
0.1254 -0.3678 -0.63 79 106 159
0.135984 -0.367216 -0.629 102 120 168
0.13838 -0.367216 -0.629 122 134 174
0.1878 -0.365465 -0.626 130 147 193
0.193762 -0.365465 -0.626 128 147 203
0.194954 -0.365465 -0.626 136 155 211
0.278421 -0.365465 -0.626 240 244 255
0.291537 -0.365465 -0.626 235 238 255
0.313 -0.365465 -0.626 184 200 234
0.344551 -0.366049 -0.627 205 214 223
0.365436 -0.366632 -0.628 192 199 217
0.371417 -0.366632 -0.628 140 153 187
0.386968 -0.366632 -0.628 130 157 200
0.43054 -0.366049 -0.627 132 140 159
0.435669 -0.305916 -0.524 140 92 82
0.437983 -0.304749 -0.522 140 91 77
0.439129 -0.304165 -0.521 149 100 85
0.446066 -0.299494 -0.513 159 107 86
0.450072 -0.29891 -0.512 156 103 85
0.452023 -0.29891 -0.512 153 102 83
0.007 -0.287 -0.49 212 170 148
0.0163 -0.286414 -0.489 210 172 151
0.0315219 -0.289343 -0.494 187 149 136
0.0595 -0.3075 -0.525 143 112 117
0.0619686 -0.309843 -0.529 141 110 115
0.0793248 -0.327414 -0.559 136 111 117
0.0991867 -0.3526 -0.602 224 220 234
0.101167 -0.355529 -0.607 218 219 237
0.13239 -0.368414 -0.629 86 111 167
0.141749 -0.367829 -0.628 199 203 228
0.154907 -0.367829 -0.628 179 180 201
0.188992 -0.366657 -0.626 120 137 189
0.201786 -0.366071 -0.625 176 191 234
0.21131 -0.366071 -0.625 240 240 252
0.23631 -0.366071 -0.625 240 243 252
0.248214 -0.366071 -0.625 172 186 225
0.256548 -0.366071 -0.625 146 166 217
0.332078 -0.366657 -0.626 149 159 195
0.33327 -0.366657 -0.626 116 126 162
0.336848 -0.366657 -0.626 182 193 223
0.351717 -0.367243 -0.627 180 187 206
0.365436 -0.367829 -0.628 177 188 208
0.390556 -0.367829 -0.628 176 181 210
0.402429 -0.366657 -0.626 125 132 151
0.410237 -0.367243 -0.627 179 176 197
0.41382 -0.367243 -0.627 91 102 147
0.437706 -0.367243 -0.627 172 173 194
0.434148 -0.308671 -0.527 138 94 85
0.437983 -0.305743 -0.522 142 93 79
0.452023 -0.299886 -0.512 154 101 83
0.479743 -0.305743 -0.522 153 106 88
0.0107114 -0.287346 -0.489 209 171 150
0.0171962 -0.286758 -0.488 206 168 149
0.0256667 -0.287933 -0.49 198 161 142
0.0354286 -0.291459 -0.496 176 138 129
0.0536695 -0.303799 -0.517 151 117 118
0.0920857 -0.344345 -0.586 127 106 113
0.114236 -0.369025 -0.628 175 191 227
0.144141 -0.369025 -0.628 199 200 220
0.148926 -0.369025 -0.628 204 202 224
0.157299 -0.369025 -0.628 161 166 188
0.16302 -0.368437 -0.627 142 152 161
0.181548 -0.367262 -0.625 126 135 176
0.182738 -0.367262 -0.625 136 145 186
0.192262 -0.367262 -0.625 117 138 193
0.268452 -0.367262 -0.625 154 163 196
0.279167 -0.367262 -0.625 236 243 251
0.284663 -0.366674 -0.624 238 240 253
0.331548 -0.367262 -0.625 184 193 224
0.344643 -0.367262 -0.625 162 169 177
0.353541 -0.36785 -0.626 192 198 224
0.361271 -0.368437 -0.627 196 204 217
0.387546 -0.368437 -0.627 121 139 175
0.38874 -0.368437 -0.627 139 157 193
0.392323 -0.368437 -0.627 188 190 213
0.393517 -0.368437 -0.627 194 196 219
0.416209 -0.368437 -0.627 161 167 189
0.431046 -0.36785 -0.626 138 144 156
0.437008 -0.36785 -0.626 173 175 196
0.446066 -0.368437 -0.627 110 137 184
0.459663 -0.36785 -0.626 152 153 171
0.46324 -0.36785 -0.626 165 168 185
0.466817 -0.36785 -0.626 49 60 88
0.468452 -0.367262 -0.625 104 120 156
0.471346 -0.350809 -0.597 115 87 84
0.434415 -0.314964 -0.536 131 88 81
0.434213 -0.312613 -0.532 137 93 84
0.435151 -0.309675 -0.527 142 95 85
