ply
format ascii 1.0
comment Created by Open3D
element vertex 1291
property double x
property double y
property double z
property uchar red
property uchar green
property uchar blue
end_header
0.353926 -0.12385 -0.514 141 106 110
0.356863 -0.12385 -0.514 141 106 110
0.357842 -0.12385 -0.514 141 106 110
0.364424 -0.12409 -0.515 138 106 109
0.387437 -0.123609 -0.513 131 101 103
0.398186 -0.123609 -0.513 129 97 98
0.404446 -0.124331 -0.516 124 92 95
0.412334 -0.125536 -0.521 126 94 95
0.426107 -0.128187 -0.532 47 27 29
0.432772 -0.127464 -0.529 155 105 104
0.450929 -0.12891 -0.535 165 106 102
0.0907438 -0.153243 -0.631 190 134 135
0.120451 -0.155914 -0.642 180 111 114
0.125929 -0.156643 -0.645 183 117 119
0.286588 -0.127986 -0.527 155 120 127
0.309303 -0.132114 -0.544 143 116 121
0.371549 -0.124829 -0.514 136 104 107
0.385255 -0.124829 -0.514 111 82 84
0.407 -0.1258 -0.518 129 97 100
0.0898257 -0.154934 -0.633 183 125 124
0.130016 -0.158361 -0.647 179 114 110
0.272084 -0.131192 -0.536 166 124 134
0.298427 -0.130213 -0.532 161 126 133
0.324598 -0.136088 -0.556 30 11 17
0.338919 -0.126052 -0.515 133 104 106
0.354905 -0.125808 -0.514 140 105 109
0.3598 -0.125808 -0.514 140 105 109
0.399941 -0.125808 -0.514 126 94 95
0.432772 -0.129479 -0.529 156 107 103
0.097179 -0.154413 -0.626 186 124 127
0.128386 -0.1591 -0.645 176 101 105
0.2895 -0.1295 -0.525 150 119 124
0.295177 -0.13024 -0.528 150 119 125
0.302033 -0.131473 -0.533 148 116 121
0.304634 -0.13172 -0.534 148 116 121
0.326007 -0.136407 -0.553 36 17 19
0.315849 -0.12802 -0.519 140 98 108
0.334345 -0.126787 -0.514 124 108 109
0.340881 -0.127033 -0.515 141 111 111
0.35001 -0.126787 -0.514 141 106 110
0.365405 -0.127033 -0.515 141 105 107
0.389391 -0.12654 -0.513 123 95 94
0.420681 -0.130487 -0.529 57 36 35
0.42851 -0.131967 -0.535 47 25 28
0.0904886 -0.154363 -0.621 173 111 112
0.0968686 -0.155109 -0.624 180 115 119
0.143462 -0.159334 -0.641 209 159 152
0.278968 -0.130251 -0.524 159 122 130
0.301911 -0.131991 -0.531 148 116 121
0.3165 -0.1305 -0.525 132 106 107
0.333366 -0.127766 -0.514 144 135 138
0.338261 -0.127766 -0.514 133 108 111
0.351283 -0.127517 -0.513 145 110 114
0.356169 -0.127517 -0.513 166 139 146
0.358123 -0.127517 -0.513 141 112 114
0.366917 -0.127517 -0.513 138 102 102
0.367894 -0.127517 -0.513 139 105 106
0.370826 -0.127517 -0.513 135 103 104
0.38036 -0.127766 -0.514 125 95 97
0.393509 -0.127269 -0.512 126 90 90
0.419673 -0.131494 -0.529 59 37 39
0.43296 -0.131246 -0.528 172 114 112
0.438994 -0.131246 -0.528 200 142 138
0.441841 -0.131494 -0.529 185 130 127
0.0829886 -0.154794 -0.618 185 132 126
0.0913762 -0.155045 -0.619 168 104 105
0.0965581 -0.155796 -0.622 174 108 112
0.127789 -0.160806 -0.642 161 89 92
0.138578 -0.160555 -0.641 215 156 152
0.145059 -0.158301 -0.632 196 143 137
0.269546 -0.133504 -0.533 165 122 131
0.271015 -0.13175 -0.526 162 122 131
0.280964 -0.13125 -0.524 157 122 129
0.289393 -0.130999 -0.523 152 117 124
0.315841 -0.135508 -0.541 144 112 117
0.314476 -0.130248 -0.52 134 105 107
0.318937 -0.129246 -0.516 131 107 105
0.321262 -0.128995 -0.515 139 113 112
0.327148 -0.128995 -0.515 68 87 93
0.337282 -0.128745 -0.514 192 186 190
0.347072 -0.128745 -0.514 137 109 108
0.350306 -0.128494 -0.513 139 105 106
0.357146 -0.128494 -0.513 154 129 135
0.37278 -0.128494 -0.513 138 104 105
0.377666 -0.128494 -0.513 131 101 103
0.382551 -0.128494 -0.513 123 94 96
0.386682 -0.128244 -0.512 58 32 33
0.411925 -0.130999 -0.523 126 94 97
0.41529 -0.13175 -0.526 102 73 77
0.433987 -0.134756 -0.538 69 40 44
0.0812819 -0.154962 -0.614 188 138 131
0.0823171 -0.15471 -0.613 180 130 123
0.121295 -0.161524 -0.64 143 79 80
0.138146 -0.161271 -0.639 215 156 152
0.142717 -0.158243 -0.627 201 151 142
0.268534 -0.134014 -0.531 164 122 132
0.279431 -0.131995 -0.523 157 122 129
0.291823 -0.131743 -0.522 151 116 123
0.294374 -0.131995 -0.523 150 115 121
0.316247 -0.134519 -0.533 141 112 114
0.336626 -0.129471 -0.513 164 169 175
0.355474 -0.129219 -0.512 155 132 140
0.357425 -0.129219 -0.512 135 106 110
0.37962 -0.129471 -0.513 136 104 107
0.432772 -0.13351 -0.529 163 108 105
0.0763543 -0.155623 -0.612 189 140 136
0.0909333 -0.15664 -0.616 149 85 86
0.1074 -0.1602 -0.63 144 82 85
0.133694 -0.162997 -0.641 187 123 123
0.148214 -0.158929 -0.625 174 121 113
0.268023 -0.134263 -0.528 163 123 132
0.268519 -0.134009 -0.527 160 123 131
0.280886 -0.132737 -0.522 156 121 128
0.335649 -0.130449 -0.513 147 162 167
0.344443 -0.130449 -0.513 139 111 110
0.384953 -0.12994 -0.511 129 97 98
0.43582 -0.13706 -0.539 90 51 52
0.437159 -0.134009 -0.527 199 144 139
0.0790686 -0.155251 -0.606 190 139 136
0.0813771 -0.155251 -0.606 178 127 124
0.0987686 -0.159094 -0.621 145 80 84
0.108945 -0.161912 -0.632 133 73 75
0.110497 -0.162425 -0.634 129 69 71
0.136286 -0.162937 -0.636 215 157 153
0.146083 -0.159094 -0.621 180 128 117
0.3045 -0.1345 -0.525 147 115 120
0.322596 -0.131682 -0.514 115 111 112
0.325533 -0.131682 -0.514 189 208 214
0.341511 -0.131426 -0.513 136 117 119
0.374979 -0.13117 -0.512 135 103 104
0.37693 -0.13117 -0.512 104 74 74
0.390029 -0.130657 -0.51 111 81 81
0.436155 -0.135012 -0.527 202 149 143
0.452792 -0.137318 -0.536 166 111 108
0.1045 -0.161826 -0.627 136 71 75
0.117638 -0.165181 -0.64 108 54 54
0.13268 -0.165697 -0.642 189 130 126
0.148927 -0.160793 -0.623 165 112 106
0.266011 -0.136274 -0.528 162 120 130
0.278363 -0.134468 -0.521 158 118 127
0.308134 -0.134468 -0.521 158 122 126
0.314395 -0.132919 -0.515 129 107 109
0.340534 -0.132403 -0.513 142 145 150
0.350598 -0.132145 -0.512 170 150 152
0.367177 -0.132145 -0.512 134 105 107
0.368152 -0.132145 -0.512 137 108 110
0.374004 -0.132145 -0.512 120 95 98
0.385171 -0.131629 -0.51 133 97 99
0.387114 -0.131629 -0.51 129 95 96
0.390029 -0.131629 -0.51 102 72 72
0.397983 -0.132661 -0.514 126 94 97
0.443471 -0.143243 -0.555 40 21 23
0.441006 -0.136274 -0.528 188 135 129
0.445705 -0.13679 -0.53 177 124 118
0.0652171 -0.15756 -0.606 199 162 153
0.0746076 -0.15548 -0.598 194 147 141
0.0757467 -0.15548 -0.598 185 138 132
0.135335 -0.16276 -0.626 212 157 150
0.142097 -0.15964 -0.614 180 132 120
0.152271 -0.16302 -0.627 146 93 89
0.267989 -0.13624 -0.524 158 121 128
0.275914 -0.13572 -0.522 158 118 127
0.276378 -0.13546 -0.521 157 117 126
0.277829 -0.1352 -0.52 156 116 125
0.27981 -0.1352 -0.52 156 116 125
0.288169 -0.13494 -0.519 150 113 120
0.290573 -0.13468 -0.518 149 113 117
0.296077 -0.13494 -0.519 146 109 116
0.297066 -0.13494 -0.519 146 109 116
0.305157 -0.13546 -0.521 147 115 116
0.314764 -0.13364 -0.514 134 103 108
0.316722 -0.13364 -0.514 135 103 104
0.320991 -0.13338 -0.513 204 218 219
0.332069 -0.13312 -0.512 124 144 151
0.342796 -0.13312 -0.512 138 113 116
0.351573 -0.13312 -0.512 200 181 183
0.353524 -0.13312 -0.512 164 149 154
0.357425 -0.13312 -0.512 139 108 113
0.359375 -0.13312 -0.512 134 100 101
0.366202 -0.13312 -0.512 122 97 100
0.370353 -0.13286 -0.511 239 220 226
0.377167 -0.13286 -0.511 131 107 105
0.382257 -0.1326 -0.51 131 97 98
0.383229 -0.1326 -0.51 133 99 100
0.385171 -0.1326 -0.51 132 96 98
0.389057 -0.1326 -0.51 115 83 84
0.400514 -0.13416 -0.516 128 91 98
0.434014 -0.13858 -0.533 143 95 95
0.437159 -0.13702 -0.527 204 149 146
0.0778943 -0.156357 -0.597 184 139 133
0.0918076 -0.16081 -0.614 151 89 92
0.117147 -0.168667 -0.644 107 46 54
0.140469 -0.160286 -0.612 188 130 118
0.150354 -0.163429 -0.624 152 103 99
0.1542 -0.165 -0.63 140 89 88
0.28179 -0.13619 -0.52 153 116 123
0.284762 -0.13619 -0.52 154 117 124
0.305373 -0.135667 -0.518 160 128 131
0.30636 -0.135667 -0.518 137 105 108
0.330763 -0.134357 -0.513 172 187 192
0.332069 -0.134095 -0.512 161 179 181
0.344747 -0.134095 -0.512 132 103 107
0.353524 -0.134095 -0.512 216 201 206
0.36035 -0.134095 -0.512 141 107 108
0.366202 -0.134095 -0.512 159 130 135
0.371327 -0.133833 -0.511 194 183 189
0.3723 -0.133833 -0.511 216 199 205
0.376193 -0.133833 -0.511 132 110 113
0.38106 -0.133833 -0.511 136 97 100
0.385171 -0.133571 -0.51 128 96 99
0.440671 -0.142738 -0.545 95 54 58
0.436155 -0.138024 -0.527 199 142 133
0.441006 -0.138286 -0.528 193 138 131
0.0649476 -0.156439 -0.593 199 159 149
0.104833 -0.165936 -0.629 117 56 61
0.109634 -0.167783 -0.636 124 61 69
0.114515 -0.16963 -0.643 115 52 61
0.117692 -0.170685 -0.647 111 48 56
0.12319 -0.171476 -0.65 113 52 57
0.141403 -0.161188 -0.611 178 120 106
0.152029 -0.165145 -0.626 144 93 89
0.156387 -0.167255 -0.634 132 81 78
0.262981 -0.139819 -0.53 164 124 132
0.266481 -0.137972 -0.523 157 120 127
0.274857 -0.137181 -0.52 156 119 126
0.286191 -0.136917 -0.519 152 115 122
0.312806 -0.135598 -0.514 134 102 103
0.31806 -0.135334 -0.513 110 85 88
0.327192 -0.13507 -0.512 170 180 189
0.346993 -0.134807 -0.511 130 104 105
0.358673 -0.134807 -0.511 136 104 107
0.376193 -0.134807 -0.511 162 142 144
0.382477 -0.134279 -0.509 131 97 98
0.385171 -0.134543 -0.51 126 96 98
0.39274 -0.134807 -0.511 133 97 99
0.406166 -0.137709 -0.522 116 86 88
0.45522 -0.14958 -0.567 70 44 47
0.44 -0.139291 -0.528 194 141 133
0.0713619 -0.156771 -0.59 202 159 152
0.0724857 -0.156771 -0.59 204 161 154
0.13144 -0.168994 -0.636 211 156 151
0.150113 -0.16554 -0.623 148 97 94
0.15614 -0.168197 -0.633 128 78 77
0.15834 -0.16926 -0.637 127 77 76
0.2645 -0.1395 -0.525 159 122 129
0.264994 -0.139234 -0.524 156 121 127
0.265485 -0.138969 -0.523 156 121 127
0.28718 -0.137906 -0.519 151 114 121
0.33597 -0.136046 -0.512 171 182 188
0.355753 -0.13578 -0.511 136 111 114
0.37814 -0.13578 -0.511 128 97 102
0.380087 -0.13578 -0.511 130 99 104
0.437873 -0.14322 -0.539 125 79 81
0.437159 -0.140031 -0.527 193 138 131
0.438163 -0.140031 -0.527 192 139 131
0.055281 -0.163515 -0.611 204 161 154
0.0633876 -0.157628 -0.589 201 158 151
0.07112 -0.15736 -0.588 200 157 150
0.0797657 -0.158966 -0.594 188 143 137
0.0954714 -0.164586 -0.615 138 76 77
0.13354 -0.162445 -0.607 197 143 131
0.153955 -0.168332 -0.629 131 83 83
0.262895 -0.143444 -0.536 165 124 132
0.261477 -0.14157 -0.529 159 119 127
0.275317 -0.138894 -0.519 153 118 124
0.277747 -0.138627 -0.518 152 115 122
0.27972 -0.138627 -0.518 151 116 122
0.28564 -0.138627 -0.518 151 114 121
0.310243 -0.137289 -0.513 133 101 104
0.316106 -0.137289 -0.513 136 104 105
0.322316 -0.137021 -0.512 208 219 221
0.327192 -0.137021 -0.512 214 223 232
0.335313 -0.136753 -0.511 185 192 198
0.353807 -0.136753 -0.511 126 101 104
0.361857 -0.136486 -0.51 125 106 112
0.365743 -0.136486 -0.51 239 233 243
0.369629 -0.136486 -0.51 235 231 245
0.462649 -0.154951 -0.579 69 46 52
0.440899 -0.145585 -0.544 104 63 67
0.435328 -0.140768 -0.526 197 142 135
0.473669 -0.147726 -0.552 173 122 118
0.0674143 -0.157671 -0.585 204 159 153
0.0865733 -0.162253 -0.602 180 125 122
0.130285 -0.166835 -0.619 208 153 146
0.130402 -0.165488 -0.614 208 153 146
0.136783 -0.163331 -0.606 177 124 110
0.144671 -0.165757 -0.615 151 101 92
0.264977 -0.140691 -0.522 154 117 125
0.271363 -0.139883 -0.519 153 116 124
0.275773 -0.139613 -0.518 152 115 122
0.281693 -0.139613 -0.518 151 114 121
0.28564 -0.139613 -0.518 150 113 120
0.295921 -0.139344 -0.517 146 109 116
0.302624 -0.138805 -0.515 132 100 103
0.305952 -0.138535 -0.514 134 102 105
0.317083 -0.138266 -0.513 114 100 100
0.320366 -0.137996 -0.512 144 172 175
0.328168 -0.137996 -0.512 205 208 217
0.364771 -0.137457 -0.51 241 231 240
0.0629571 -0.158786 -0.585 203 160 151
0.0661867 -0.158514 -0.584 205 160 154
0.106537 -0.171543 -0.632 162 107 110
0.13955 -0.165029 -0.608 162 113 99
0.154445 -0.171271 -0.631 121 77 76
0.260409 -0.144671 -0.533 162 119 128
0.272813 -0.1406 -0.518 152 115 122
0.277747 -0.1406 -0.518 153 116 123
0.296331 -0.140057 -0.516 146 109 116
0.310243 -0.139243 -0.513 131 101 101
0.313174 -0.139243 -0.513 134 102 105
0.347286 -0.138429 -0.51 237 216 225
0.357971 -0.138429 -0.51 131 102 106
0.359209 -0.138157 -0.509 128 103 109
0.469358 -0.159057 -0.586 71 42 46
0.0638524 -0.159353 -0.583 204 161 152
0.0706362 -0.159627 -0.584 201 157 148
0.0764591 -0.160173 -0.586 197 150 144
0.127976 -0.170833 -0.625 209 155 145
0.146554 -0.16892 -0.618 136 88 84
0.260367 -0.146233 -0.535 161 120 128
0.297314 -0.14104 -0.516 146 109 116
0.31549 -0.139947 -0.512 132 102 102
0.316465 -0.139947 -0.512 120 100 102
0.31974 -0.139673 -0.511 72 93 98
0.338233 -0.139673 -0.511 194 197 204
0.339514 -0.1394 -0.51 200 196 197
0.342429 -0.1394 -0.51 125 109 110
0.369873 -0.139127 -0.509 234 230 245
0.373751 -0.139127 -0.509 196 193 204
0.374721 -0.139127 -0.509 141 122 124
0.380538 -0.139127 -0.509 133 97 97
0.381508 -0.139127 -0.509 128 96 97
0.386355 -0.139127 -0.509 129 97 100
0.403403 -0.142407 -0.521 91 67 67
0.471277 -0.160447 -0.587 67 38 43
0.461413 -0.156347 -0.572 67 36 41
0.435151 -0.144047 -0.527 194 139 134
0.47128 -0.149787 -0.548 167 116 113
0.0583 -0.160464 -0.583 201 157 146
0.0625267 -0.159913 -0.581 199 159 147
0.0669533 -0.159913 -0.581 204 161 152
0.0855667 -0.163767 -0.595 189 136 132
0.112066 -0.176978 -0.643 163 109 107
0.12993 -0.165418 -0.601 186 134 121
0.258481 -0.14505 -0.527 162 121 129
0.259508 -0.14395 -0.523 158 118 127
0.26447 -0.143399 -0.521 158 118 127
0.275241 -0.142298 -0.517 151 116 122
0.303994 -0.141472 -0.514 134 99 103
0.333686 -0.140371 -0.51 238 236 247
0.337571 -0.140371 -0.51 194 193 201
0.340486 -0.140371 -0.51 135 126 129
0.349513 -0.140096 -0.509 136 110 121
0.364056 -0.140096 -0.509 236 235 243
0.365026 -0.140096 -0.509 239 239 249
0.369147 -0.139821 -0.508 233 231 245
0.370114 -0.139821 -0.508 230 228 241
0.37666 -0.140096 -0.509 127 98 100
0.380758 -0.139821 -0.508 129 99 99
0.474489 -0.162666 -0.591 65 38 43
0.44958 -0.146151 -0.531 162 109 103
0.0525229 -0.164346 -0.593 202 159 152
0.062419 -0.160743 -0.58 202 160 146
0.0749571 -0.161574 -0.583 197 152 147
0.0936086 -0.167117 -0.603 175 122 118
0.0983419 -0.169334 -0.611 160 105 102
0.128571 -0.166286 -0.6 186 135 116
0.151077 -0.173769 -0.627 129 79 82
0.274256 -0.143283 -0.517 153 116 123
0.275241 -0.143283 -0.517 151 114 121
0.282134 -0.143283 -0.517 149 112 119
0.293383 -0.143006 -0.516 145 110 116
0.310243 -0.142174 -0.513 133 101 102
0.313539 -0.141897 -0.512 134 99 97
0.317793 -0.14162 -0.511 67 78 80
0.3285 -0.14162 -0.511 185 190 194
0.334657 -0.141343 -0.51 210 212 224
0.335629 -0.141343 -0.51 229 232 241
0.3366 -0.141343 -0.51 225 228 237
0.347286 -0.141343 -0.51 223 202 209
0.446879 -0.146609 -0.529 171 121 114
0.462343 -0.149657 -0.54 155 110 105
0.0523457 -0.164917 -0.591 201 158 151
0.0532905 -0.164359 -0.589 202 159 152
0.0690476 -0.161848 -0.58 202 158 147
0.0701524 -0.161848 -0.58 200 156 147
0.0848476 -0.164638 -0.59 189 139 130
0.0875381 -0.165475 -0.593 185 132 126
0.0889667 -0.166033 -0.595 183 130 124
0.138165 -0.169382 -0.607 155 103 89
0.1435 -0.171614 -0.615 135 87 85
0.149405 -0.174405 -0.625 133 88 85
0.274256 -0.144268 -0.517 151 116 122
0.291417 -0.143989 -0.516 146 109 116
0.299099 -0.14343 -0.514 142 110 113
0.307688 -0.142872 -0.512 135 103 104
0.311589 -0.142872 -0.512 137 102 98
0.323971 -0.142314 -0.51 76 90 99
0.324943 -0.142314 -0.51 95 112 120
0.339514 -0.142314 -0.51 189 179 187
0.348544 -0.142035 -0.509 127 102 108
0.357535 -0.141756 -0.508 126 101 105
0.362373 -0.141756 -0.508 232 229 240
0.368179 -0.141756 -0.508 228 228 238
0.456024 -0.14929 -0.535 157 112 107
0.4706 -0.15236 -0.546 150 109 105
0.0521686 -0.165481 -0.589 201 158 149
0.0722371 -0.162671 -0.579 200 153 145
0.08204 -0.164638 -0.586 195 143 130
0.0858257 -0.165481 -0.589 190 138 125
0.0968933 -0.169133 -0.602 177 119 117
0.0986914 -0.170257 -0.606 176 118 116
0.257515 -0.146938 -0.523 156 119 126
0.2605 -0.146376 -0.521 156 119 126
0.265431 -0.145814 -0.519 153 118 124
0.288469 -0.144971 -0.516 145 108 115
0.315847 -0.143567 -0.511 128 106 108
0.321687 -0.143567 -0.511 209 220 226
0.326886 -0.143286 -0.51 162 183 186
0.332714 -0.143286 -0.51 171 175 184
0.334001 -0.143005 -0.509 194 198 207
0.339514 -0.143286 -0.51 144 131 140
0.349513 -0.143005 -0.509 121 95 104
0.35173 -0.142724 -0.508 132 105 114
0.37763 -0.143005 -0.509 238 226 228
0.0655067 -0.163491 -0.578 201 157 148
0.0666076 -0.163491 -0.578 201 157 148
0.076781 -0.164057 -0.58 195 147 135
0.126791 -0.168866 -0.597 180 127 111
0.127714 -0.168583 -0.596 173 120 106
0.134957 -0.170563 -0.603 152 97 90
0.154943 -0.180463 -0.638 152 98 98
0.254905 -0.149914 -0.53 161 121 129
0.258515 -0.147369 -0.521 154 119 125
0.26099 -0.147086 -0.52 154 117 124
0.264443 -0.146803 -0.519 150 118 123
0.273271 -0.146237 -0.517 151 116 122
0.274256 -0.146237 -0.517 150 115 121
0.275241 -0.146237 -0.517 150 115 121
0.291833 -0.145671 -0.515 146 109 116
0.299494 -0.145106 -0.513 140 105 109
0.310613 -0.144823 -0.512 133 101 102
0.325914 -0.144257 -0.51 57 77 84
0.3556 -0.143691 -0.508 127 100 107
0.364557 -0.143409 -0.507 233 230 239
0.437271 -0.151894 -0.537 136 95 103
0.43503 -0.150763 -0.533 157 107 106
0.4355 -0.1485 -0.525 200 145 140
0.0504333 -0.169433 -0.595 202 159 152
0.0631952 -0.164308 -0.577 200 156 147
0.0642943 -0.164308 -0.577 200 156 147
0.0721124 -0.164592 -0.578 200 152 138
0.0778857 -0.165162 -0.58 193 146 130
0.0839848 -0.166301 -0.584 193 140 126
0.0852429 -0.166586 -0.585 191 138 124
0.103479 -0.17285 -0.607 183 125 121
0.115623 -0.171996 -0.604 203 150 144
0.117891 -0.170288 -0.598 198 145 137
0.1241 -0.169433 -0.595 183 130 114
0.253943 -0.150354 -0.528 160 120 128
0.255954 -0.150354 -0.528 160 120 128
0.26 -0.148076 -0.52 155 118 125
0.261981 -0.148076 -0.52 154 117 124
0.292814 -0.146652 -0.515 145 108 115
0.308663 -0.145798 -0.512 134 102 103
0.315847 -0.145513 -0.511 129 99 101
0.318767 -0.145513 -0.511 99 80 84
0.328829 -0.145229 -0.51 165 180 187
0.344666 -0.144944 -0.509 179 162 170
0.357535 -0.144659 -0.508 211 186 192
0.35947 -0.144659 -0.508 231 223 238
0.36842 -0.144374 -0.507 232 228 242
0.369386 -0.144374 -0.507 234 228 240
0.374952 -0.144659 -0.508 231 230 244
0.388086 -0.145229 -0.51 124 93 90
0.391558 -0.145798 -0.512 121 96 92
0.43503 -0.151778 -0.533 152 102 101
0.44519 -0.15007 -0.527 186 133 127
0.451603 -0.151209 -0.531 164 113 109
0.457043 -0.152348 -0.535 158 110 106
0.05096 -0.16856 -0.588 202 159 150
0.0518143 -0.1677 -0.585 202 159 150
0.0609971 -0.165407 -0.577 204 159 153
0.0674743 -0.16512 -0.576 201 154 144
0.0849514 -0.167127 -0.583 191 138 124
0.0885857 -0.1677 -0.585 186 132 120
0.0911248 -0.168273 -0.587 182 128 118
0.0924 -0.16856 -0.588 184 127 120
0.103773 -0.172573 -0.602 188 133 128
0.10872 -0.173147 -0.604 204 149 142
0.120091 -0.169707 -0.592 190 134 121
0.136783 -0.17372 -0.606 145 90 87
0.13862 -0.17458 -0.609 140 85 82
0.25901 -0.149067 -0.52 154 117 124
0.26788 -0.148493 -0.518 152 117 123
0.286503 -0.14792 -0.516 143 111 116
0.31682 -0.146487 -0.511 130 98 101
0.333031 -0.145913 -0.509 176 183 189
0.356568 -0.145627 -0.508 144 117 124
0.364557 -0.14534 -0.507 231 231 243
0.367454 -0.14534 -0.507 231 227 241
0.37592 -0.145627 -0.508 187 175 179
0.436457 -0.153653 -0.536 135 94 102
0.433324 -0.150787 -0.526 198 140 136
0.457043 -0.153367 -0.535 149 104 99
0.0489762 -0.174586 -0.605 200 157 150
0.0493 -0.1717 -0.595 202 159 152
0.0500943 -0.170546 -0.591 202 159 152
0.0752848 -0.166506 -0.577 194 147 129
0.0763838 -0.166506 -0.577 193 144 127
0.0823048 -0.167371 -0.58 192 139 125
0.0895467 -0.168526 -0.584 187 131 118
0.114453 -0.170834 -0.592 197 143 133
0.142791 -0.178049 -0.617 137 84 80
0.28889 -0.148614 -0.515 143 111 116
0.289871 -0.148614 -0.515 143 111 116
0.299494 -0.148037 -0.513 143 108 114
0.307087 -0.14746 -0.511 134 102 105
0.3162 -0.147171 -0.51 130 98 101
0.320086 -0.147171 -0.51 137 116 121
0.33594 -0.146883 -0.509 144 138 142
0.354632 -0.146594 -0.508 128 101 106
0.356568 -0.146594 -0.508 123 98 102
0.366489 -0.146306 -0.507 230 228 241
0.371317 -0.146306 -0.507 232 229 240
0.376888 -0.146594 -0.508 138 123 128
0.382477 -0.146883 -0.509 82 57 60
0.393088 -0.148326 -0.514 111 90 87
0.433324 -0.151789 -0.526 198 140 136
0.450752 -0.152943 -0.53 148 99 94
0.47268 -0.15756 -0.546 142 100 101
-0.138048 -0.18881 -0.65 187 187 179
0.0673571 -0.167024 -0.575 203 155 143
0.104481 -0.172252 -0.593 203 145 141
0.109943 -0.171962 -0.592 201 144 133
0.119483 -0.17109 -0.589 187 130 119
0.120605 -0.17109 -0.589 182 125 114
0.132 -0.174286 -0.6 146 92 82
0.133587 -0.174867 -0.602 139 86 80
0.137234 -0.17661 -0.608 138 84 82
0.258019 -0.151048 -0.52 155 119 123
0.25901 -0.151048 -0.52 154 118 122
0.261477 -0.150757 -0.519 152 117 121
0.269332 -0.150176 -0.517 152 117 123
0.273271 -0.150176 -0.517 146 114 119
0.281043 -0.149595 -0.515 144 112 117
0.3162 -0.148143 -0.51 134 102 105
0.333031 -0.147852 -0.509 161 155 157
0.346605 -0.147852 -0.509 124 99 105
0.357535 -0.147562 -0.508 131 106 110
0.369386 -0.147271 -0.507 232 226 240
0.371317 -0.147271 -0.507 232 225 241
0.37979 -0.147562 -0.508 99 73 74
0.391346 -0.149014 -0.513 119 93 92
0.393852 -0.149595 -0.515 93 77 77
0.43296 -0.153371 -0.528 194 136 132
0.4345 -0.1525 -0.525 196 139 132
0.478238 -0.159762 -0.55 135 98 90
-0.139286 -0.190048 -0.65 191 188 181
0.07052 -0.167827 -0.574 200 152 138
0.0739286 -0.168119 -0.575 198 146 133
0.0784457 -0.168411 -0.576 197 140 129
0.0843686 -0.169289 -0.579 190 134 121
0.0989514 -0.171628 -0.587 197 140 131
0.103776 -0.172212 -0.589 201 144 135
0.109386 -0.172212 -0.589 199 145 133
0.11928 -0.17192 -0.588 189 133 118
0.251931 -0.154377 -0.528 156 125 131
0.258511 -0.151746 -0.519 154 119 123
0.265907 -0.151453 -0.518 147 115 120
0.286371 -0.150284 -0.514 144 109 115
0.28833 -0.150284 -0.514 143 108 114
0.31655 -0.148822 -0.509 130 98 99
0.323336 -0.148822 -0.509 134 128 132
0.324636 -0.14853 -0.508 145 140 146
0.33528 -0.14853 -0.508 129 102 107
0.347859 -0.14853 -0.508 122 95 100
0.376146 -0.148237 -0.507 129 107 110
0.381508 -0.148822 -0.509 88 62 65
0.432322 -0.153792 -0.526 202 143 137
0.433324 -0.153792 -0.526 202 142 134
0.4644 -0.157886 -0.54 149 103 103
0.47268 -0.15964 -0.546 142 98 99
0.0533962 -0.170097 -0.578 206 163 154
0.0575 -0.169214 -0.575 203 159 148
0.0585952 -0.169214 -0.575 201 157 148
0.0853238 -0.170097 -0.578 189 135 123
0.130421 -0.175983 -0.598 152 99 93
0.293631 -0.150969 -0.513 143 108 112
0.319458 -0.149791 -0.509 128 102 105
0.364557 -0.149203 -0.507 121 98 104
0.365523 -0.149203 -0.507 126 103 111
0.385171 -0.150086 -0.51 118 93 99
0.523146 -0.190403 -0.647 131 90 98
0.431954 -0.155383 -0.528 193 138 135
0.432322 -0.154794 -0.526 201 146 141
0.4325 -0.1545 -0.525 200 145 138
0.4644 -0.158914 -0.54 144 102 103
0.0533962 -0.171198 -0.578 206 163 154
0.0564048 -0.17031 -0.575 206 162 151
0.0748933 -0.170013 -0.574 195 145 134
0.07708 -0.170013 -0.574 196 147 133
0.0817371 -0.170606 -0.576 192 138 126
0.0851762 -0.170902 -0.577 190 136 124
0.09794 -0.172087 -0.581 193 139 129
0.100498 -0.172679 -0.583 195 140 133
0.15323 -0.189858 -0.641 160 102 100
0.250926 -0.156389 -0.528 163 118 123
0.251021 -0.155204 -0.524 157 114 121
0.254057 -0.154019 -0.52 158 119 124
0.26196 -0.153427 -0.518 151 115 119
0.270317 -0.15313 -0.517 148 113 117
0.277119 -0.152538 -0.515 146 111 115
0.29638 -0.151353 -0.511 144 109 115
0.31655 -0.150761 -0.509 133 103 103
0.320766 -0.150465 -0.508 129 99 101
0.325604 -0.150465 -0.508 130 105 111
0.334312 -0.150465 -0.508 132 106 109
0.341086 -0.150465 -0.508 180 167 176
0.357091 -0.149872 -0.506 131 102 107
0.359983 -0.149872 -0.506 125 96 101
0.4332 -0.157573 -0.532 176 125 124
0.43132 -0.155796 -0.526 202 145 138
0.479286 -0.162905 -0.55 143 99 98
0.0544029 -0.172001 -0.577 207 163 152
0.0953971 -0.172597 -0.579 190 136 124
0.110303 -0.173491 -0.582 196 139 130
0.118671 -0.174386 -0.585 179 121 110
0.124181 -0.175876 -0.59 164 110 98
0.13953 -0.182732 -0.613 128 78 79
0.250393 -0.157692 -0.529 159 119 127
0.254557 -0.154711 -0.519 153 118 124
0.256534 -0.154711 -0.519 153 118 122
0.280497 -0.153221 -0.514 145 111 112
0.282455 -0.153221 -0.514 143 109 110
0.2907 -0.152923 -0.513 143 109 110
0.299686 -0.152029 -0.51 134 99 103
0.310371 -0.152029 -0.51 136 102 103
0.318489 -0.15173 -0.509 137 105 106
0.319458 -0.15173 -0.509 134 102 103
0.327539 -0.151432 -0.508 138 103 107
0.33528 -0.151432 -0.508 130 104 107
0.338483 -0.151134 -0.507 232 215 221
0.344277 -0.151134 -0.507 126 97 101
0.349106 -0.151134 -0.507 129 100 104
0.365766 -0.150836 -0.506 125 96 101
0.372512 -0.150836 -0.506 120 100 101
0.432999 -0.158885 -0.533 170 119 118
0.431136 -0.157096 -0.527 199 141 137
0.437665 -0.156202 -0.524 179 122 115
0.492077 -0.167231 -0.561 137 97 97
-0.146263 -0.1944 -0.648 188 184 181
-0.144805 -0.1941 -0.647 188 184 181
0.0574 -0.1722 -0.574 205 161 150
0.0791286 -0.1719 -0.573 197 143 131
0.0859762 -0.1725 -0.575 190 136 124
0.08832 -0.1728 -0.576 189 135 123
0.0952324 -0.1734 -0.578 194 137 126
0.127286 -0.1782 -0.594 152 102 91
0.272743 -0.1548 -0.516 148 112 116
0.285814 -0.1539 -0.513 143 109 110
0.317863 -0.1524 -0.508 136 104 107
0.322066 -0.1521 -0.507 133 101 106
0.323997 -0.1521 -0.507 133 101 106
0.328826 -0.1521 -0.507 137 102 106
0.363838 -0.1518 -0.506 125 96 101
0.373476 -0.1518 -0.506 118 93 96
0.507804 -0.1902 -0.634 97 64 71
0.509011 -0.1902 -0.634 115 82 89
0.4405 -0.1575 -0.525 159 106 98
0.470949 -0.1632 -0.544 153 108 105
0.0493314 -0.175709 -0.582 201 161 153
0.0532114 -0.173897 -0.576 208 164 155
0.0553095 -0.173595 -0.575 204 160 151
0.0858267 -0.173293 -0.574 192 138 126
0.0892619 -0.173595 -0.575 191 137 125
0.0916114 -0.173897 -0.576 193 136 125
0.263424 -0.156085 -0.517 150 115 119
0.270777 -0.155783 -0.516 149 113 117
0.278539 -0.155179 -0.514 144 110 111
0.306854 -0.15367 -0.509 136 101 105
0.31461 -0.15367 -0.509 135 100 104
0.31883 -0.153368 -0.508 133 101 104
0.325929 -0.153066 -0.507 131 101 101
0.32786 -0.153066 -0.507 134 102 105
0.359019 -0.152764 -0.506 126 97 102
0.36889 -0.152462 -0.505 127 98 103
0.376368 -0.152764 -0.506 121 92 97
0.383229 -0.153971 -0.51 119 90 95
0.501396 -0.188992 -0.626 95 63 68
0.431136 -0.159104 -0.527 197 144 138
0.435833 -0.157896 -0.523 184 126 114
0.4405 -0.1585 -0.525 157 103 93
0.448894 -0.159708 -0.529 120 69 65
0.0593791 -0.173779 -0.572 202 158 147
0.0625381 -0.173475 -0.571 202 155 145
0.0690638 -0.173475 -0.571 200 152 142
0.0777648 -0.173475 -0.571 199 145 133
0.0858267 -0.174387 -0.574 192 138 126
0.105323 -0.175906 -0.579 197 143 131
0.117155 -0.177121 -0.583 177 117 107
0.12397 -0.178944 -0.589 155 103 89
0.142534 -0.188666 -0.621 160 112 112
0.144643 -0.189881 -0.625 207 159 159
0.263424 -0.15707 -0.517 150 115 119
0.26488 -0.156766 -0.516 150 114 118
0.271233 -0.156462 -0.515 147 112 116
0.278539 -0.156158 -0.514 143 109 110
0.278974 -0.155854 -0.513 144 110 111
0.281906 -0.155854 -0.513 144 110 111
0.289158 -0.15555 -0.512 142 108 109
0.297743 -0.154943 -0.51 139 103 107
0.307824 -0.154639 -0.509 136 102 103
0.323031 -0.154031 -0.507 135 103 106
0.330105 -0.153728 -0.506 131 100 106
0.342634 -0.153728 -0.506 124 93 98
0.34649 -0.153728 -0.506 126 94 97
0.349381 -0.153728 -0.506 128 96 99
0.376368 -0.153728 -0.506 122 93 98
0.494638 -0.18897 -0.622 56 27 32
0.431984 -0.16193 -0.533 164 118 118
0.430757 -0.160715 -0.529 182 131 128
0.432674 -0.159196 -0.524 199 140 136
0.432845 -0.158892 -0.523 196 137 133
0.458918 -0.162842 -0.536 115 72 66
0.480333 -0.167095 -0.55 140 103 95
-0.150967 -0.197797 -0.647 181 181 173
-0.13289 -0.198409 -0.649 195 192 185
0.0582895 -0.174869 -0.572 204 160 149
0.0636257 -0.174563 -0.571 198 154 143
0.0701514 -0.174563 -0.571 200 152 142
0.115846 -0.177926 -0.582 177 117 107
0.125517 -0.180677 -0.591 146 97 82
0.1363 -0.18618 -0.609 118 79 74
0.248027 -0.160194 -0.524 150 115 121
0.269794 -0.157749 -0.516 148 112 116
0.273195 -0.157443 -0.515 145 109 113
0.276581 -0.157137 -0.514 144 109 113
0.281906 -0.156831 -0.513 144 108 110
0.29619 -0.155609 -0.509 145 109 113
0.322066 -0.154997 -0.507 131 99 102
0.343598 -0.154691 -0.506 126 97 99
0.355164 -0.154691 -0.506 127 95 98
0.363838 -0.154691 -0.506 124 93 98
0.388948 -0.157443 -0.515 105 78 85
0.430132 -0.161111 -0.527 195 140 135
0.433841 -0.159889 -0.523 190 131 127
0.443343 -0.160806 -0.526 147 90 79
0.468185 -0.165697 -0.542 155 107 107
0.0581876 -0.17565 -0.571 205 161 152
0.0647133 -0.17565 -0.571 202 156 143
0.071239 -0.17565 -0.571 200 150 139
0.0745019 -0.17565 -0.571 200 148 137
0.0755895 -0.17565 -0.571 200 148 137
0.10368 -0.177189 -0.576 200 143 134
0.11194 -0.178111 -0.579 182 129 115
0.118266 -0.179342 -0.583 170 112 101
0.29522 -0.156578 -0.509 148 112 114
0.304915 -0.156578 -0.509 137 101 103
0.31109 -0.15627 -0.508 136 100 102
0.342919 -0.155348 -0.505 127 98 102
0.344843 -0.155348 -0.505 124 95 99
0.346767 -0.155348 -0.505 126 95 100
0.34869 -0.155348 -0.505 129 98 103
0.37444 -0.155655 -0.506 124 91 98
0.485571 -0.190109 -0.618 73 50 56
0.491457 -0.190109 -0.618 55 24 30
0.447887 -0.16273 -0.529 127 79 67
0.449743 -0.163038 -0.53 123 79 70
0.454319 -0.163961 -0.533 121 78 71
-0.151729 -0.199643 -0.645 183 183 175
-0.135154 -0.200571 -0.648 194 191 184
-0.133095 -0.20119 -0.65 195 192 185
0.0471952 -0.180452 -0.583 201 161 153
0.0561105 -0.177048 -0.572 202 158 149
0.0592752 -0.176738 -0.571 201 157 148
0.0700286 -0.176429 -0.57 200 152 142
0.0887962 -0.177048 -0.572 196 144 131
0.0898857 -0.177048 -0.572 195 143 130
0.249584 -0.161262 -0.521 147 114 121
0.260949 -0.159714 -0.516 149 113 123
0.263897 -0.159714 -0.516 148 115 122
0.265863 -0.159714 -0.516 147 112 118
0.272214 -0.159405 -0.515 146 111 115
0.275602 -0.159095 -0.514 146 111 115
0.285257 -0.158476 -0.512 141 105 107
0.319503 -0.156619 -0.506 136 101 105
0.338779 -0.156619 -0.506 135 100 104
0.364802 -0.156619 -0.506 118 89 94
0.367929 -0.15631 -0.505 121 90 96
0.371776 -0.15631 -0.505 125 91 89
0.385483 -0.158786 -0.513 116 91 94
0.391969 -0.160643 -0.519 75 53 55
0.49028 -0.191286 -0.618 43 16 21
0.429316 -0.16281 -0.526 200 148 135
0.4295 -0.1625 -0.525 199 147 134
0.430678 -0.16219 -0.524 195 147 133
-0.140671 -0.200871 -0.645 191 188 181
0.0450676 -0.186546 -0.599 199 159 151
0.0551171 -0.178449 -0.573 205 162 155
0.0688219 -0.177203 -0.569 200 153 143
0.0841429 -0.177514 -0.57 198 146 135
0.1035 -0.179071 -0.575 196 142 130
0.104595 -0.179071 -0.575 194 140 128
0.130857 -0.186857 -0.6 124 82 83
0.148867 -0.198691 -0.638 169 119 128
0.248443 -0.164123 -0.527 94 73 82
0.258 -0.160697 -0.516 150 115 122
0.282753 -0.15914 -0.511 141 105 109
0.29425 -0.158517 -0.509 145 109 113
0.315306 -0.157894 -0.507 136 101 105
0.327529 -0.157271 -0.505 125 98 103
0.332338 -0.157271 -0.505 210 198 202
0.350614 -0.157271 -0.505 127 97 99
0.362157 -0.157271 -0.505 122 93 95
0.366005 -0.157271 -0.505 124 93 98
0.488649 -0.190906 -0.613 61 31 39
0.434793 -0.16786 -0.539 150 110 110
0.429316 -0.163811 -0.526 198 146 133
0.432845 -0.162877 -0.523 189 132 121
0.4758 -0.17004 -0.546 147 105 91
0.0519333 -0.179853 -0.574 206 163 156
0.0666543 -0.178287 -0.569 201 154 146
0.0753248 -0.178287 -0.569 200 152 142
0.0774924 -0.178287 -0.569 198 148 137
0.07966 -0.178287 -0.569 199 149 138
0.0852286 -0.1786 -0.57 197 147 136
0.0895714 -0.1786 -0.57 199 146 138
0.0929914 -0.178913 -0.571 200 147 139
0.0964229 -0.179227 -0.572 202 150 137
0.248914 -0.16544 -0.528 111 90 99
0.250542 -0.163873 -0.523 123 103 105
0.29464 -0.159173 -0.508 138 102 106
0.302751 -0.15886 -0.507 134 100 101
0.304683 -0.15886 -0.507 134 100 99
0.323358 -0.158547 -0.506 134 99 103
0.327529 -0.158233 -0.505 126 101 107
0.340995 -0.158233 -0.505 128 96 101
0.342919 -0.158233 -0.505 126 94 99
0.47775 -0.192387 -0.614 63 44 48
0.489487 -0.193327 -0.617 49 24 30
0.488276 -0.192387 -0.614 54 29 35
0.43779 -0.170453 -0.544 143 103 101
0.431849 -0.163873 -0.523 186 137 123
0.461655 -0.168573 -0.538 139 96 90
-0.146359 -0.202698 -0.643 187 187 179
0.0612352 -0.17937 -0.569 203 159 148
0.0816838 -0.179055 -0.568 200 152 142
0.0861629 -0.17937 -0.569 198 148 139
0.0883305 -0.17937 -0.569 198 148 139
0.100957 -0.180631 -0.573 200 148 135
0.10332 -0.180947 -0.574 193 141 128
0.136971 -0.192926 -0.612 115 78 85
0.249857 -0.167076 -0.53 118 98 109
0.254557 -0.163609 -0.519 143 112 117
0.288029 -0.160771 -0.51 141 105 109
0.302381 -0.160141 -0.508 134 100 99
0.304683 -0.159826 -0.507 134 100 99
0.32976 -0.15888 -0.504 192 177 182
0.33264 -0.15888 -0.504 127 108 112
0.33552 -0.15888 -0.504 130 98 103
0.3528 -0.15888 -0.504 125 94 99
0.437665 -0.165185 -0.524 162 109 101
0.441339 -0.165815 -0.526 144 96 86
-0.1498 -0.203606 -0.642 184 184 176
0.0470333 -0.18426 -0.581 202 159 150
0.0600457 -0.180137 -0.568 205 163 151
0.067619 -0.180137 -0.568 200 154 141
0.0751924 -0.180137 -0.568 200 152 140
0.08262 -0.17982 -0.567 199 151 137
0.0962543 -0.181089 -0.571 202 150 137
0.102049 -0.181723 -0.573 196 144 131
0.125942 -0.188066 -0.593 135 91 82
0.13514 -0.19314 -0.609 116 79 87
0.251743 -0.169354 -0.534 106 90 103
0.255048 -0.164914 -0.52 123 94 99
0.274089 -0.162694 -0.513 143 108 112
0.27886 -0.16206 -0.511 142 107 111
0.282753 -0.16206 -0.511 142 107 111
0.287057 -0.161743 -0.51 140 104 108
0.29464 -0.161109 -0.508 137 102 106
0.312756 -0.160474 -0.506 136 102 103
0.325605 -0.160157 -0.505 130 99 105
0.35952 -0.15984 -0.504 123 94 98
0.369852 -0.160157 -0.505 122 96 99
0.488313 -0.19758 -0.623 82 57 63
0.429351 -0.168403 -0.531 174 125 120
0.42968 -0.166183 -0.524 192 144 130
0.4644 -0.171257 -0.54 144 96 92
0.0632914 -0.181219 -0.568 204 160 147
0.0643733 -0.181219 -0.568 204 160 147
0.0729 -0.1809 -0.567 200 152 138
0.07722 -0.1809 -0.567 198 152 136
0.0903391 -0.181219 -0.568 199 152 134
0.10314 -0.182814 -0.573 190 141 126
0.121313 -0.187281 -0.587 143 96 88
0.255523 -0.166862 -0.523 96 73 79
0.266271 -0.163671 -0.513 143 108 114
0.27594 -0.163033 -0.511 142 107 111
0.316948 -0.161119 -0.505 135 101 102
0.33168 -0.1608 -0.504 196 173 179
0.3384 -0.1608 -0.504 126 97 99
0.365513 -0.160481 -0.503 209 183 184
0.4895 -0.198767 -0.623 104 78 87
0.489103 -0.197171 -0.618 101 74 81
0.428682 -0.167181 -0.524 197 149 137
0.429856 -0.166862 -0.523 187 138 124
0.4395 -0.1675 -0.525 155 102 94
0.459774 -0.171329 -0.537 134 86 82
0.481207 -0.175795 -0.551 140 96 95
-0.153469 -0.206051 -0.642 184 181 174
-0.152009 -0.20573 -0.641 183 183 173
-0.147584 -0.206372 -0.643 188 185 176
-0.14335 -0.207335 -0.646 190 187 180
-0.139071 -0.208298 -0.649 191 188 181
0.0479743 -0.185831 -0.579 205 162 153
0.05994 -0.18198 -0.567 206 162 151
0.0781619 -0.181659 -0.566 201 155 139
0.0993429 -0.182943 -0.57 193 144 129
0.1066 -0.184227 -0.574 183 134 119
0.119786 -0.187757 -0.585 145 98 92
0.139717 -0.19867 -0.619 137 104 111
0.255987 -0.168821 -0.526 106 86 95
0.26047 -0.165932 -0.517 144 113 118
0.262405 -0.16529 -0.515 145 110 114
0.263386 -0.16529 -0.515 143 108 112
0.274967 -0.164007 -0.511 143 107 111
0.27886 -0.164007 -0.511 141 105 109
0.28178 -0.164007 -0.511 143 107 111
0.290372 -0.163365 -0.509 147 112 116
0.293672 -0.163044 -0.508 136 102 103
0.29851 -0.163044 -0.508 134 100 99
0.300446 -0.163044 -0.508 136 102 101
0.301786 -0.162723 -0.507 134 100 99
0.305046 -0.162402 -0.506 134 100 98
0.32784 -0.16176 -0.504 149 114 120
0.34224 -0.16176 -0.504 128 94 95
0.34608 -0.16176 -0.504 128 96 97
0.349226 -0.161439 -0.503 125 93 94
0.436667 -0.168179 -0.524 171 110 105
0.453304 -0.171068 -0.533 128 80 76
0.4644 -0.173314 -0.54 140 96 95
-0.14335 -0.208566 -0.646 190 187 178
-0.140091 -0.209211 -0.648 191 188 179
0.0578819 -0.183383 -0.568 209 162 154
0.05994 -0.18306 -0.567 208 164 153
0.06426 -0.18306 -0.567 203 159 148
0.0716933 -0.182737 -0.566 200 154 139
0.0770838 -0.182737 -0.566 200 154 139
0.0781619 -0.182737 -0.566 203 157 142
0.10278 -0.184351 -0.571 185 138 120
0.263853 -0.165949 -0.514 142 107 113
0.266271 -0.165626 -0.513 140 105 111
0.271604 -0.165303 -0.512 146 110 114
0.283171 -0.164657 -0.51 142 105 112
0.286086 -0.164657 -0.51 143 108 112
0.30601 -0.163366 -0.506 132 101 99
0.3131 -0.163043 -0.505 137 103 102
0.31791 -0.163043 -0.505 134 100 101
0.32016 -0.16272 -0.504 133 99 100
0.324 -0.16272 -0.504 131 100 97
0.32688 -0.16272 -0.504 142 103 106
0.348268 -0.162397 -0.503 127 93 92
0.353058 -0.162397 -0.503 127 96 94
0.35689 -0.162397 -0.503 127 93 94
0.366471 -0.162397 -0.503 216 195 200
0.37592 -0.164011 -0.508 119 93 94
0.472151 -0.175311 -0.543 147 102 97
-0.159831 -0.208822 -0.643 181 181 173
-0.155671 -0.208172 -0.641 183 180 173
-0.141326 -0.210446 -0.648 191 188 179
0.0557181 -0.184465 -0.568 211 163 153
0.0683381 -0.18349 -0.565 202 155 145
0.0834048 -0.18349 -0.565 202 156 141
0.0968305 -0.184465 -0.568 199 150 133
0.114343 -0.188362 -0.58 157 107 96
0.11999 -0.19031 -0.586 141 98 91
0.121727 -0.191285 -0.589 132 92 90
0.260743 -0.175371 -0.54 70 60 71
0.267249 -0.166603 -0.513 141 109 112
0.288433 -0.165304 -0.509 148 113 117
0.289403 -0.165304 -0.509 135 100 104
0.309865 -0.16433 -0.506 133 103 103
0.311176 -0.164005 -0.505 135 103 104
0.312138 -0.164005 -0.505 136 104 105
0.32304 -0.16368 -0.504 134 99 103
0.32496 -0.16368 -0.504 134 99 103
0.342519 -0.163355 -0.503 129 94 98
0.346351 -0.163355 -0.503 128 93 97
0.36816 -0.16368 -0.504 170 152 152
0.446034 -0.171474 -0.528 134 90 89
0.453304 -0.173098 -0.533 126 81 78
-0.152009 -0.209393 -0.641 183 183 175
-0.147584 -0.210047 -0.643 185 185 175
-0.145586 -0.2107 -0.645 188 185 176
-0.139286 -0.212333 -0.65 191 188 179
0.0663029 -0.184893 -0.566 205 158 148
0.0758714 -0.184567 -0.565 205 157 145
0.09234 -0.18522 -0.567 198 151 135
0.125023 -0.19404 -0.594 120 81 82
0.128571 -0.196 -0.6 116 77 82
0.140846 -0.20384 -0.624 128 87 95
0.267249 -0.16758 -0.513 143 108 112
0.269203 -0.16758 -0.513 143 108 112
0.293672 -0.165947 -0.508 134 100 101
0.297543 -0.165947 -0.508 135 101 100
0.29851 -0.165947 -0.508 135 101 100
0.30082 -0.16562 -0.507 133 99 100
0.346351 -0.164313 -0.503 129 94 98
0.366471 -0.164313 -0.503 188 168 169
0.370814 -0.164967 -0.505 121 87 88
-0.143572 -0.212586 -0.647 189 186 177
0.0467905 -0.189914 -0.578 204 160 151
0.0515714 -0.187286 -0.57 204 157 147
0.0535543 -0.186629 -0.568 209 162 152
0.05562 -0.1863 -0.567 211 164 154
0.0661857 -0.185643 -0.565 206 159 149
0.084481 -0.185643 -0.565 202 156 141
0.0855571 -0.185643 -0.565 200 154 139
0.10405 -0.187943 -0.572 175 127 105
0.113043 -0.190243 -0.579 155 106 92
0.132384 -0.199443 -0.607 116 74 84
0.263897 -0.169543 -0.516 121 102 108
0.269653 -0.168229 -0.512 144 109 113
0.270629 -0.168229 -0.512 144 109 113
0.272579 -0.168229 -0.512 145 110 114
0.273993 -0.1679 -0.511 145 109 113
0.286899 -0.166914 -0.508 150 114 118
0.305046 -0.166257 -0.506 131 100 98
0.315024 -0.165929 -0.505 134 102 103
0.33264 -0.1656 -0.504 131 96 100
0.3336 -0.1656 -0.504 131 96 100
0.33456 -0.1656 -0.504 132 97 101
0.342519 -0.165271 -0.503 129 94 98
0.346351 -0.165271 -0.503 129 94 98
0.366471 -0.165271 -0.503 129 107 109
0.370814 -0.165929 -0.505 124 90 91
0.436667 -0.172171 -0.524 156 99 88
0.468351 -0.177757 -0.541 145 95 94
-0.159334 -0.211835 -0.641 180 180 172
-0.156403 -0.211174 -0.639 182 182 174
0.0608048 -0.186719 -0.565 207 163 152
0.0704905 -0.186719 -0.565 203 155 143
0.084481 -0.186719 -0.565 202 156 141
0.10278 -0.188702 -0.571 177 129 109
0.262439 -0.176144 -0.533 71 63 78
0.263424 -0.170856 -0.517 91 78 87
0.271604 -0.169204 -0.512 140 103 110
0.29406 -0.167551 -0.507 134 100 101
0.314062 -0.16689 -0.505 133 102 100
0.348268 -0.16623 -0.503 129 94 98
0.366471 -0.16623 -0.503 129 107 109
0.374952 -0.167882 -0.508 119 91 90
0.4395 -0.1735 -0.525 138 88 81
0.453304 -0.176144 -0.533 126 81 78
-0.155186 -0.212391 -0.639 182 182 172
-0.152009 -0.213056 -0.641 183 183 173
-0.150033 -0.213721 -0.643 185 185 175
0.051481 -0.189125 -0.569 204 160 149
0.0811086 -0.187463 -0.564 206 160 145
0.0877095 -0.187795 -0.565 199 152 136
0.0979124 -0.188792 -0.568 185 138 122
0.123683 -0.197102 -0.593 125 83 84
0.131011 -0.201423 -0.606 116 75 83
0.268749 -0.170844 -0.514 137 107 115
0.273554 -0.170179 -0.512 144 104 112
0.302154 -0.168185 -0.506 130 99 97
0.303481 -0.167852 -0.505 132 101 99
0.343477 -0.167188 -0.503 129 94 98
0.34731 -0.167188 -0.503 130 95 99
0.350444 -0.166855 -0.502 127 92 96
0.35905 -0.166855 -0.502 124 93 98
0.364555 -0.167188 -0.503 153 134 136
0.36816 -0.16752 -0.504 122 96 99
0.4255 -0.1745 -0.525 192 143 129
0.429034 -0.173503 -0.522 175 127 117
0.434837 -0.173835 -0.523 158 101 90
0.444023 -0.175497 -0.528 127 82 79
0.445871 -0.17583 -0.529 126 82 81
-0.293595 -0.216951 -0.649 251 252 247
-0.151023 -0.214611 -0.642 184 184 174
0.05238 -0.18954 -0.567 206 162 151
0.0898619 -0.188871 -0.565 191 144 128
0.0957486 -0.189874 -0.568 190 141 127
0.100429 -0.190543 -0.57 178 129 112
0.113238 -0.193886 -0.58 151 99 88
0.117557 -0.195557 -0.585 137 93 92
0.284964 -0.169817 -0.508 147 112 116
0.32976 -0.16848 -0.504 131 96 100
0.352356 -0.167811 -0.502 129 94 98
0.358093 -0.167811 -0.502 132 103 107
0.360006 -0.167811 -0.502 216 194 197
0.426686 -0.175166 -0.524 188 139 125
0.433011 -0.174497 -0.522 159 103 88
0.464567 -0.18018 -0.539 136 90 90
-0.296388 -0.217515 -0.647 253 255 250
-0.293143 -0.217851 -0.648 254 255 250
-0.162997 -0.215498 -0.641 182 182 174
-0.15323 -0.215498 -0.641 182 184 173
-0.150267 -0.216507 -0.644 185 185 173
-0.14727 -0.217515 -0.647 185 187 174
0.0449743 -0.195999 -0.583 200 157 148
0.0564 -0.189611 -0.564 210 163 153
0.0734581 -0.189275 -0.563 206 158 144
0.0957486 -0.190956 -0.568 186 137 122
0.107881 -0.19331 -0.575 159 110 93
0.119077 -0.197344 -0.587 133 91 92
0.272134 -0.172466 -0.513 130 97 104
0.276913 -0.171793 -0.511 143 107 111
0.283996 -0.170785 -0.508 148 113 117
0.294444 -0.170112 -0.506 136 101 105
0.295408 -0.170112 -0.506 136 101 105
0.300595 -0.169776 -0.505 132 98 99
0.305405 -0.169776 -0.505 133 102 100
0.335812 -0.169104 -0.503 132 97 101
0.36816 -0.16944 -0.504 116 84 87
0.436667 -0.176164 -0.524 152 94 82
0.455171 -0.179526 -0.534 129 81 77
0.466457 -0.181543 -0.54 138 93 87
-0.29839 -0.21841 -0.646 216 217 211
-0.29593 -0.21841 -0.646 205 207 202
-0.294699 -0.21841 -0.646 206 208 203
-0.15323 -0.216719 -0.641 183 183 171
-0.146263 -0.219086 -0.648 191 188 179
-0.144238 -0.219762 -0.65 189 186 177
-0.0427143 -0.219762 -0.65 68 66 71
0.0745305 -0.190348 -0.563 209 161 147
0.0777476 -0.190348 -0.563 208 160 146
0.07882 -0.190348 -0.563 207 159 145
0.0991686 -0.192376 -0.569 177 128 111
0.117557 -0.197786 -0.585 131 85 87
0.12081 -0.199476 -0.59 131 86 89
0.290197 -0.171414 -0.507 133 99 100
0.292516 -0.171076 -0.506 135 101 102
0.297335 -0.171076 -0.506 133 98 102
0.301557 -0.170738 -0.505 132 100 101
0.31728 -0.1704 -0.504 134 100 101
0.322399 -0.170062 -0.503 131 96 100
0.332938 -0.170062 -0.503 130 95 99
-0.307757 -0.2193 -0.645 250 251 245
-0.294243 -0.2193 -0.645 147 149 144
-0.288206 -0.22032 -0.648 218 219 214
-0.16796 -0.21964 -0.646 182 179 170
-0.0426486 -0.22066 -0.649 72 70 75
0.044 -0.204 -0.6 198 155 148
0.0501314 -0.19244 -0.566 201 161 151
0.0701162 -0.19108 -0.562 204 158 143
0.0722571 -0.19108 -0.562 202 156 141
0.09558 -0.19278 -0.567 183 135 115
0.1066 -0.19516 -0.574 158 108 97
0.124309 -0.20264 -0.596 125 80 85
0.129643 -0.2057 -0.605 119 76 83
0.269386 -0.17646 -0.519 100 84 95
0.280677 -0.17306 -0.509 144 108 112
0.281647 -0.17306 -0.509 145 109 113
0.283029 -0.17272 -0.508 149 113 117
0.283437 -0.17238 -0.507 148 112 116
0.287697 -0.17204 -0.506 134 98 100
0.294824 -0.1717 -0.505 135 100 104
0.300595 -0.1717 -0.505 135 101 102
0.30192 -0.17136 -0.504 131 99 100
0.30384 -0.17136 -0.504 132 100 101
0.325273 -0.17102 -0.503 130 95 99
0.33132 -0.17068 -0.502 131 96 100
0.345663 -0.17068 -0.502 126 91 95
0.434917 -0.18462 -0.543 161 114 106
0.455171 -0.18156 -0.534 125 77 73
-0.312409 -0.221212 -0.647 248 251 244
-0.309733 -0.220187 -0.644 248 251 244
-0.287414 -0.221896 -0.649 182 183 178
-0.169976 -0.221896 -0.649 180 180 170
-0.158589 -0.218135 -0.638 185 182 173
-0.155913 -0.217793 -0.637 185 182 173
0.0481448 -0.194202 -0.568 199 159 151
0.0669048 -0.19215 -0.562 205 161 150
0.0701162 -0.19215 -0.562 205 159 146
0.0711867 -0.19215 -0.562 203 157 144
0.0743981 -0.19215 -0.562 205 159 144
0.0886286 -0.192834 -0.564 192 144 130
0.0897029 -0.192834 -0.564 188 140 126
0.10296 -0.19557 -0.572 166 117 103
0.114934 -0.19933 -0.583 144 95 91
0.272813 -0.177107 -0.518 91 77 90
0.289625 -0.173004 -0.506 135 99 101
0.30288 -0.17232 -0.504 133 99 100
0.308986 -0.171978 -0.503 135 101 100
0.333232 -0.171636 -0.502 130 96 97
0.427329 -0.181551 -0.531 182 132 125
0.4255 -0.1795 -0.525 191 141 132
-0.306803 -0.22107 -0.643 190 193 186
-0.300679 -0.22107 -0.643 147 149 144
-0.287761 -0.222445 -0.647 126 127 122
-0.286971 -0.222789 -0.648 136 137 132
-0.286178 -0.223132 -0.649 157 158 153
-0.145476 -0.223476 -0.65 188 186 174
-0.0437495 -0.222445 -0.647 72 67 73
0.0440895 -0.201472 -0.586 197 154 147
0.0490533 -0.194596 -0.566 203 160 151
0.0733276 -0.193221 -0.562 205 159 146
0.0831095 -0.193565 -0.563 200 157 140
0.0980848 -0.195628 -0.569 173 122 103
0.104231 -0.197003 -0.573 158 108 97
0.126496 -0.20663 -0.601 119 80 81
0.274603 -0.182563 -0.531 81 70 84
0.274787 -0.178093 -0.518 94 78 91
0.27843 -0.17603 -0.512 137 110 119
0.281229 -0.175343 -0.51 144 109 113
0.286334 -0.174311 -0.507 134 99 103
0.305153 -0.172936 -0.503 132 98 99
0.308986 -0.172936 -0.503 135 101 100
0.317609 -0.172936 -0.503 133 99 100
0.319846 -0.172592 -0.502 130 96 95
0.328451 -0.172592 -0.502 129 97 98
0.4245 -0.1805 -0.525 189 139 130
0.460797 -0.184626 -0.537 134 89 86
0.46268 -0.18497 -0.538 136 93 86
-0.1505 -0.222986 -0.645 186 186 174
-0.148502 -0.223677 -0.647 188 186 174
0.0529886 -0.194291 -0.562 207 164 155
0.0582371 -0.193946 -0.561 207 165 153
0.0658343 -0.194291 -0.562 206 162 151
0.07106 -0.193946 -0.561 203 159 148
0.0731971 -0.193946 -0.561 204 157 147
0.132525 -0.211923 -0.613 130 91 94
0.139134 -0.216763 -0.627 165 120 127
0.27445 -0.180809 -0.523 98 86 100
0.275848 -0.179771 -0.52 104 86 98
0.2952 -0.17424 -0.504 131 97 98
0.29808 -0.17424 -0.504 131 97 98
0.31889 -0.173549 -0.502 129 97 98
0.319846 -0.173549 -0.502 129 97 98
0.320802 -0.173549 -0.502 129 97 98
0.327495 -0.173549 -0.502 127 95 96
0.34402 -0.173203 -0.501 127 93 94
0.345929 -0.173203 -0.501 125 93 94
0.36624 -0.17424 -0.504 120 88 91
0.435833 -0.180809 -0.523 143 99 86
0.456189 -0.184611 -0.534 125 81 78
0.458918 -0.185303 -0.536 128 87 83
-0.15445 -0.222824 -0.641 186 186 174
-0.151493 -0.223867 -0.644 185 185 173
-0.147497 -0.225257 -0.648 187 188 174
0.04806 -0.1971 -0.567 204 161 152
0.0498657 -0.19571 -0.563 203 160 151
0.0561 -0.195014 -0.561 207 165 153
0.277599 -0.18389 -0.529 92 80 94
0.277747 -0.180067 -0.518 102 82 93
0.283171 -0.177286 -0.51 128 97 102
0.29712 -0.1752 -0.504 131 97 98
0.29904 -0.1752 -0.504 132 98 99
0.313152 -0.174505 -0.502 134 100 99
0.321117 -0.174157 -0.501 129 97 98
0.33066 -0.174157 -0.501 126 94 95
0.333523 -0.174157 -0.501 125 95 95
0.356667 -0.17381 -0.5 115 98 106
0.431023 -0.181457 -0.522 161 110 93
0.443182 -0.183195 -0.527 129 86 80
0.46268 -0.187019 -0.538 135 96 89
-0.308546 -0.223346 -0.639 167 169 164
-0.15445 -0.224045 -0.641 185 185 173
-0.153469 -0.224394 -0.642 185 185 173
-0.147725 -0.226841 -0.649 187 187 175
0.07106 -0.196083 -0.561 204 158 143
0.0731971 -0.196083 -0.561 204 158 143
0.0943333 -0.19783 -0.566 177 126 109
0.104231 -0.200277 -0.573 155 105 94
0.123587 -0.209015 -0.598 120 85 91
0.2812 -0.185947 -0.532 73 62 78
0.281356 -0.178956 -0.512 96 76 87
0.284143 -0.178257 -0.51 124 94 96
0.285931 -0.177558 -0.508 133 97 97
0.290197 -0.177209 -0.507 133 97 97
0.2952 -0.17616 -0.504 132 98 99
0.29616 -0.17616 -0.504 132 98 99
0.308986 -0.17581 -0.503 134 100 99
0.332569 -0.175111 -0.501 126 94 97
0.42851 -0.186995 -0.535 172 123 116
0.452453 -0.185947 -0.532 123 82 80
0.467486 -0.188743 -0.54 136 95 91
-0.320791 -0.228077 -0.649 250 251 243
-0.299276 -0.224914 -0.64 150 151 146
-0.16345 -0.224211 -0.638 186 183 174
-0.15272 -0.22632 -0.644 185 185 173
0.0518257 -0.197151 -0.561 207 164 155
0.0678543 -0.197151 -0.561 202 159 143
0.0721286 -0.197151 -0.561 204 158 143
0.0863267 -0.197854 -0.563 191 142 125
0.0930905 -0.198557 -0.565 179 128 111
0.100605 -0.200666 -0.571 160 110 101
0.10569 -0.202071 -0.575 149 102 96
0.122038 -0.209451 -0.596 120 85 92
