ply
format ascii 1.0
comment Created by Open3D
element vertex 1287
property double x
property double y
property double z
property uchar red
property uchar green
property uchar blue
end_header
1.12194 -0.331791 -0.621 201 204 187
1.12412 -0.329654 -0.617 202 204 190
0.0243133 -0.279355 -0.521 205 172 155
0.0262476 -0.278819 -0.52 205 172 155
0.0343029 -0.279891 -0.522 191 157 145
0.0352971 -0.279891 -0.522 191 157 145
0.0385 -0.2815 -0.525 185 151 139
0.0450933 -0.285253 -0.532 170 132 131
0.0496086 -0.287934 -0.537 165 129 133
0.0603476 -0.295441 -0.551 144 117 126
0.0653657 -0.299194 -0.558 140 112 124
0.07074 -0.30402 -0.567 140 114 125
0.130843 -0.345843 -0.645 111 137 188
0.134737 -0.346379 -0.646 112 138 189
0.135757 -0.345843 -0.645 107 133 184
0.143129 -0.345843 -0.645 194 201 219
0.1564 -0.345307 -0.644 84 109 163
0.180652 -0.34477 -0.643 233 235 255
0.332006 -0.344234 -0.642 184 215 255
0.333229 -0.344234 -0.642 207 217 253
0.33812 -0.344234 -0.642 218 230 255
0.353344 -0.34477 -0.643 59 96 166
0.375329 -0.345843 -0.645 200 198 212
0.429485 -0.346915 -0.647 89 115 174
0.442356 -0.346379 -0.646 157 168 186
0.451846 -0.344234 -0.642 89 120 177
0.407306 -0.294369 -0.549 119 88 83
0.40612 -0.29276 -0.546 119 88 85
0.405077 -0.284717 -0.531 148 104 91
0.406333 -0.284181 -0.53 149 105 92
0.410716 -0.280964 -0.524 160 108 95
0.428546 -0.278283 -0.519 156 107 92
0.43068 -0.277747 -0.518 156 107 93
0.440547 -0.277747 -0.518 148 99 84
0.444363 -0.278283 -0.519 146 97 82
0.471707 -0.285253 -0.532 132 88 75
1.00214 -0.334047 -0.623 209 212 195
1.09826 -0.334047 -0.623 204 207 190
1.11427 -0.33351 -0.622 203 206 189
1.12399 -0.329757 -0.615 202 204 190
0.01672 -0.286267 -0.532 201 166 147
0.0281743 -0.279271 -0.519 204 168 152
0.0439143 -0.28519 -0.53 173 135 132
0.0484952 -0.288419 -0.536 168 129 132
0.0603476 -0.29649 -0.551 145 118 127
0.0791267 -0.312633 -0.581 128 106 118
0.0914629 -0.32501 -0.604 129 108 125
0.128187 -0.346533 -0.644 100 126 183
0.134529 -0.347071 -0.645 108 135 190
0.14536 -0.346533 -0.644 197 200 219
0.146587 -0.346533 -0.644 196 200 227
0.333229 -0.345457 -0.642 214 225 255
0.366816 -0.345995 -0.643 199 209 234
0.36984 -0.346533 -0.644 209 210 230
0.393757 -0.347071 -0.645 82 119 190
0.401129 -0.347071 -0.645 187 195 206
0.428821 -0.34761 -0.646 59 90 154
0.431282 -0.34761 -0.646 137 156 199
0.433743 -0.34761 -0.646 181 188 198
0.414071 -0.301871 -0.561 121 88 81
0.407867 -0.286267 -0.532 143 101 89
0.40859 -0.284652 -0.529 155 106 92
0.41106 -0.283576 -0.527 158 106 93
0.420086 -0.280886 -0.522 159 105 93
0.454014 -0.280348 -0.521 144 95 80
0.476405 -0.287881 -0.535 134 88 73
0.4959 -0.29649 -0.551 136 92 79
1.08409 -0.334157 -0.621 205 208 191
1.09413 -0.334695 -0.622 204 207 190
1.0965 -0.334695 -0.622 203 206 189
1.12304 -0.333081 -0.619 202 205 188
0.0184295 -0.28242 -0.523 206 170 154
0.0865543 -0.32076 -0.594 134 107 126
0.0930733 -0.32778 -0.607 128 107 126
0.111717 -0.34614 -0.641 199 200 220
0.119786 -0.3483 -0.645 179 186 214
0.147584 -0.34722 -0.643 201 204 235
0.153469 -0.34668 -0.642 171 190 233
0.154691 -0.34668 -0.642 151 170 213
0.325384 -0.34614 -0.641 120 157 212
0.33812 -0.34668 -0.642 211 226 249
0.356463 -0.34668 -0.642 57 94 165
0.366816 -0.34722 -0.643 188 199 227
0.368041 -0.34722 -0.643 197 208 236
0.394986 -0.3483 -0.645 171 176 196
0.409729 -0.3483 -0.645 66 81 136
0.444667 -0.34776 -0.644 84 103 161
0.41662 -0.30402 -0.563 118 87 82
0.42108 -0.28188 -0.522 156 104 90
0.435613 -0.27972 -0.518 153 104 89
0.465266 -0.28458 -0.527 130 87 71
0.468039 -0.28566 -0.529 131 87 74
0.47272 -0.28728 -0.532 133 89 76
1.02304 -0.33588 -0.622 207 209 195
1.02541 -0.33588 -0.622 207 210 193
1.06214 -0.33588 -0.622 204 207 190
1.08527 -0.33534 -0.621 205 208 191
1.08764 -0.33534 -0.621 205 208 191
1.10538 -0.33534 -0.621 203 206 189
1.12186 -0.33426 -0.619 202 205 188
0.0291067 -0.280707 -0.518 202 167 148
0.0341714 -0.28179 -0.52 194 157 141
0.05668 -0.29588 -0.546 156 119 126
0.118373 -0.348987 -0.644 189 194 214
0.14146 -0.348445 -0.643 188 194 220
0.162997 -0.347361 -0.641 91 115 177
0.376614 -0.348445 -0.643 186 190 202
0.381513 -0.348445 -0.643 86 120 183
0.385787 -0.348987 -0.644 112 142 202
0.400507 -0.348987 -0.644 197 193 207
0.43976 -0.348987 -0.644 148 145 164
0.450623 -0.347903 -0.642 123 146 196
0.451846 -0.347903 -0.642 101 124 176
0.454095 -0.346819 -0.64 119 140 185
0.411381 -0.28721 -0.53 145 95 84
0.424063 -0.282874 -0.522 153 104 90
0.440547 -0.280707 -0.518 153 104 90
1.07699 -0.336523 -0.621 205 208 191
1.08234 -0.335981 -0.62 205 208 191
1.10301 -0.336523 -0.621 204 206 192
1.11248 -0.336523 -0.621 203 205 191
1.11777 -0.335981 -0.62 203 205 191
1.12229 -0.333813 -0.616 202 205 188
0.0164686 -0.284956 -0.524 201 168 149
0.0231867 -0.281693 -0.518 205 169 153
0.0260962 -0.28115 -0.517 202 169 150
0.027081 -0.28115 -0.517 199 166 147
0.0530695 -0.294201 -0.541 160 124 124
0.0603476 -0.299639 -0.551 147 119 131
0.0692914 -0.306709 -0.564 134 110 126
0.0946952 -0.331724 -0.61 118 104 127
0.111717 -0.348582 -0.641 177 177 201
0.130437 -0.34967 -0.643 67 101 175
0.133093 -0.350213 -0.644 85 118 187
0.136561 -0.34967 -0.643 98 123 179
0.147125 -0.348582 -0.641 112 118 152
0.152009 -0.348582 -0.641 110 131 186
0.165181 -0.348038 -0.64 98 128 182
0.177649 -0.348582 -0.641 205 211 235
0.338286 -0.348038 -0.64 215 226 244
0.353466 -0.348582 -0.641 121 151 215
0.354687 -0.348582 -0.641 108 136 201
0.373583 -0.349126 -0.642 195 207 223
0.382143 -0.349126 -0.642 107 136 192
0.388862 -0.34967 -0.643 108 139 194
0.391311 -0.34967 -0.643 99 129 181
0.397435 -0.34967 -0.643 187 191 203
0.419481 -0.34967 -0.643 160 180 217
0.423155 -0.34967 -0.643 120 142 179
0.43608 -0.350213 -0.644 177 182 201
0.437307 -0.350213 -0.644 176 181 200
0.442751 -0.34967 -0.643 131 144 188
0.444509 -0.349126 -0.642 91 117 166
0.411679 -0.28985 -0.533 140 92 80
0.425057 -0.283869 -0.522 151 102 88
0.430362 -0.282781 -0.52 152 103 89
0.440547 -0.281693 -0.518 151 103 89
0.447453 -0.281693 -0.518 145 96 81
0.454133 -0.282781 -0.52 139 96 80
0.469047 -0.287675 -0.529 129 87 75
1.0847 -0.337162 -0.62 205 208 191
1.11069 -0.337162 -0.62 203 205 191
1.11423 -0.337162 -0.62 203 205 191
0.01924 -0.28268 -0.518 206 171 152
0.0351619 -0.283771 -0.52 189 153 139
0.0791267 -0.31706 -0.581 129 108 127
0.0832981 -0.320334 -0.587 129 108 127
0.0881286 -0.325791 -0.597 128 109 128
0.111717 -0.349803 -0.641 162 164 187
0.113114 -0.350349 -0.642 196 198 221
0.145904 -0.349803 -0.641 113 119 153
0.149567 -0.349803 -0.641 95 116 169
0.174933 -0.349257 -0.64 144 144 180
0.338974 -0.348711 -0.639 225 231 247
0.404784 -0.350894 -0.643 180 189 220
0.41441 -0.289229 -0.53 142 95 85
0.4215 -0.2865 -0.525 156 103 95
1.07053 -0.338343 -0.62 205 208 191
1.07644 -0.338343 -0.62 205 207 193
1.1036 -0.338343 -0.62 203 205 191
0.0163114 -0.284214 -0.519 205 170 151
0.0330533 -0.283667 -0.518 194 158 142
0.0554362 -0.297905 -0.544 157 121 123
0.114337 -0.351571 -0.642 187 189 214
0.12759 -0.351024 -0.641 52 85 156
0.144683 -0.351024 -0.641 148 154 178
0.15299 -0.350476 -0.64 101 121 184
0.158837 -0.349929 -0.639 88 117 177
0.164923 -0.349929 -0.639 107 126 169
0.169791 -0.349929 -0.639 147 161 196
0.35779 -0.350476 -0.64 155 172 215
0.372419 -0.350476 -0.64 206 207 225
0.38399 -0.351024 -0.641 142 169 214
0.388873 -0.351024 -0.641 99 127 174
0.410269 -0.351571 -0.642 156 164 200
0.418176 -0.351024 -0.641 163 174 204
0.429834 -0.351571 -0.642 83 94 126
0.44084 -0.351571 -0.642 156 168 184
0.441374 -0.351024 -0.641 128 146 184
0.42091 -0.30831 -0.563 122 88 79
0.414769 -0.294071 -0.537 134 90 81
0.415017 -0.293524 -0.536 134 90 81
0.416429 -0.290238 -0.53 141 94 84
0.426868 -0.286405 -0.523 149 97 83
0.44252 -0.283667 -0.518 145 96 81
0.45326 -0.284214 -0.519 143 94 79
1.07588 -0.338976 -0.619 205 208 191
1.10654 -0.338976 -0.619 203 205 191
1.11597 -0.338976 -0.619 203 206 189
1.11715 -0.338976 -0.619 202 205 188
0.0125952 -0.290698 -0.529 204 169 149
0.0250143 -0.283005 -0.515 205 170 151
0.03096 -0.283554 -0.516 197 160 142
0.0706152 -0.31103 -0.566 134 110 124
0.0966429 -0.337957 -0.615 118 104 127
0.138578 -0.352245 -0.641 147 166 198
0.150317 -0.351146 -0.639 172 187 230
0.169526 -0.350596 -0.638 187 200 235
0.180463 -0.350596 -0.638 225 230 249
0.331152 -0.350596 -0.638 222 232 255
0.35358 -0.351146 -0.639 166 181 220
0.365105 -0.351695 -0.64 103 122 162
0.372419 -0.351695 -0.64 201 203 226
0.38339 -0.351695 -0.64 148 172 216
0.394978 -0.352245 -0.641 193 194 214
0.42306 -0.352245 -0.641 173 180 208
0.450438 -0.351695 -0.64 73 100 153
0.450238 -0.33521 -0.61 123 92 90
0.416814 -0.295094 -0.537 135 91 82
0.435466 -0.285203 -0.519 156 104 91
0.447574 -0.284104 -0.517 152 101 84
0.455237 -0.285203 -0.519 141 94 78
1.06473 -0.339606 -0.618 204 207 190
1.12112 -0.338507 -0.616 202 204 190
0.0589752 -0.302183 -0.548 150 119 127
0.0706152 -0.312109 -0.566 133 110 126
0.133486 -0.352914 -0.64 79 113 177
0.150317 -0.352363 -0.639 172 187 230
0.161019 -0.351811 -0.638 87 111 175
0.170473 -0.35126 -0.637 215 220 252
0.182607 -0.35126 -0.637 194 205 235
0.2457 -0.35126 -0.637 247 251 252
0.324567 -0.35126 -0.637 153 173 208
0.326993 -0.35126 -0.637 192 205 239
0.338444 -0.351811 -0.638 217 224 243
0.34452 -0.351811 -0.638 164 178 215
0.348166 -0.351811 -0.638 188 201 233
0.35358 -0.352363 -0.639 169 178 211
0.357888 -0.351811 -0.638 174 184 220
0.360883 -0.352363 -0.639 168 178 214
0.374271 -0.352363 -0.639 195 198 231
0.391924 -0.352914 -0.64 195 195 221
0.3968 -0.352914 -0.64 192 197 219
0.415086 -0.352914 -0.64 149 153 180
0.440686 -0.352914 -0.64 141 156 189
0.457537 -0.351811 -0.638 141 147 173
0.436305 -0.286743 -0.52 156 104 90
0.43956 -0.28564 -0.518 154 102 88
0.443635 -0.285089 -0.517 150 101 86
0.457105 -0.286743 -0.52 140 93 77
0.4655 -0.2895 -0.525 132 86 70
1.04942 -0.340783 -0.618 205 208 191
1.05413 -0.340783 -0.618 206 209 192
1.07297 -0.340783 -0.618 204 206 192
1.08003 -0.340783 -0.618 204 207 190
1.09944 -0.340231 -0.617 205 207 193
1.10179 -0.340231 -0.617 203 206 189
1.10649 -0.340231 -0.617 202 205 188
1.11471 -0.340231 -0.617 202 204 190
1.12281 -0.339129 -0.615 202 204 190
0.0162171 -0.28552 -0.516 206 169 150
0.0200705 -0.284413 -0.514 209 172 154
0.0220286 -0.284413 -0.514 208 170 151
0.0230076 -0.284413 -0.514 208 170 151
0.0249657 -0.284413 -0.514 203 166 147
0.029919 -0.284967 -0.515 193 156 138
0.0382067 -0.288287 -0.521 177 138 123
0.0517505 -0.297693 -0.538 161 125 129
0.0692914 -0.31208 -0.564 133 112 127
0.12861 -0.354133 -0.64 62 93 158
0.134494 -0.35358 -0.639 84 115 179
0.146436 -0.353027 -0.638 199 201 226
0.1491 -0.35358 -0.639 199 205 231
0.242891 -0.35192 -0.636 248 254 254
0.246526 -0.35192 -0.636 231 235 255
0.285291 -0.35192 -0.636 219 231 253
0.30104 -0.35192 -0.636 235 246 255
0.305886 -0.35192 -0.636 240 247 255
0.34695 -0.353027 -0.638 196 209 241
0.381574 -0.35358 -0.639 104 126 173
0.416871 -0.35358 -0.639 182 186 211
0.419962 -0.354133 -0.64 183 187 212
0.429714 -0.354133 -0.64 149 155 179
0.433371 -0.354133 -0.64 77 89 129
0.43459 -0.354133 -0.64 81 93 133
0.446083 -0.35358 -0.639 87 120 174
0.450246 -0.353027 -0.638 79 105 162
0.459247 -0.352473 -0.637 85 93 130
0.420589 -0.29548 -0.534 123 79 70
0.42411 -0.291607 -0.527 136 90 77
0.428682 -0.289947 -0.524 149 97 83
0.42968 -0.289947 -0.524 148 96 82
0.434006 -0.28884 -0.522 156 103 89
0.44659 -0.286073 -0.517 151 100 83
0.449544 -0.286073 -0.517 152 103 86
0.464613 -0.289947 -0.524 135 88 72
0.470171 -0.29216 -0.528 135 89 73
1.09356 -0.341407 -0.617 204 206 192
1.11056 -0.340853 -0.616 202 205 188
0.0279029 -0.285392 -0.514 201 164 146
0.0436657 -0.29261 -0.527 168 130 127
0.0666667 -0.310933 -0.56 137 113 126
0.0692914 -0.313154 -0.564 133 111 124
0.0703657 -0.313154 -0.564 133 111 124
0.0731571 -0.31593 -0.569 128 110 124
0.0849914 -0.328146 -0.591 126 107 126
0.153487 -0.353687 -0.637 84 109 165
0.155913 -0.353687 -0.637 79 109 169
0.161726 -0.353131 -0.636 112 127 186
0.167783 -0.353131 -0.636 174 186 224
0.324057 -0.353131 -0.636 152 168 204
0.333749 -0.353131 -0.636 216 221 250
0.342767 -0.353687 -0.637 208 217 250
0.348833 -0.353687 -0.637 208 217 246
0.360967 -0.353687 -0.637 203 205 228
0.365179 -0.354242 -0.638 160 169 200
0.371255 -0.354242 -0.638 186 196 232
0.373686 -0.354242 -0.638 196 203 232
0.378547 -0.354242 -0.638 124 138 173
0.425391 -0.354797 -0.639 182 188 210
0.427826 -0.354797 -0.639 180 185 205
0.454393 -0.353687 -0.637 134 152 188
0.431676 -0.290945 -0.524 150 97 83
0.434006 -0.289834 -0.522 156 103 87
0.441397 -0.288169 -0.519 152 101 84
0.449657 -0.286503 -0.516 154 103 86
0.4665 -0.2915 -0.525 134 88 72
0.0152048 -0.286929 -0.515 202 165 146
0.031881 -0.286929 -0.515 195 158 139
0.0360133 -0.2886 -0.518 179 140 123
0.0966429 -0.342643 -0.615 129 119 144
0.12354 -0.356014 -0.639 90 121 185
0.134284 -0.355457 -0.638 84 115 169
0.13793 -0.355457 -0.638 189 201 223
0.144993 -0.3549 -0.637 199 201 222
0.155669 -0.354343 -0.636 74 104 158
0.24009 -0.353786 -0.635 250 252 251
0.24251 -0.353786 -0.635 248 251 255
0.247348 -0.353786 -0.635 219 225 241
0.248557 -0.353786 -0.635 192 207 240
0.311452 -0.353786 -0.635 199 209 234
0.342229 -0.354343 -0.636 212 219 248
0.345863 -0.354343 -0.636 214 222 243
0.353131 -0.354343 -0.636 203 211 234
0.391914 -0.355457 -0.638 182 188 212
0.451257 -0.354343 -0.636 111 137 196
0.421471 -0.302529 -0.543 126 86 78
0.42364 -0.297514 -0.534 121 78 69
0.436151 -0.290271 -0.521 153 100 84
0.439276 -0.289714 -0.52 155 102 86
0.447691 -0.287486 -0.516 154 101 85
0.472183 -0.294171 -0.528 133 90 71
1.11865 -0.342086 -0.614 202 204 190
0.0199924 -0.286232 -0.512 207 170 152
0.0238933 -0.286232 -0.512 205 167 154
0.0298029 -0.286791 -0.513 195 158 139
0.031881 -0.28791 -0.515 195 158 139
0.0639571 -0.310271 -0.555 140 113 118
0.0676124 -0.312508 -0.559 140 114 123
0.0689229 -0.313626 -0.561 138 112 121
0.11241 -0.356672 -0.638 189 198 213
0.123347 -0.356672 -0.638 93 117 181
0.144993 -0.356113 -0.637 203 204 222
0.161471 -0.354995 -0.635 118 139 186
0.168729 -0.354995 -0.635 134 151 195
0.246958 -0.354436 -0.634 221 227 241
0.309754 -0.354436 -0.634 228 234 246
0.310962 -0.354436 -0.634 202 212 237
0.327176 -0.354995 -0.635 206 217 239
0.34411 -0.354995 -0.635 211 218 236
0.359189 -0.355554 -0.636 209 217 236
0.426487 -0.356113 -0.637 179 184 204
0.43498 -0.356113 -0.637 98 103 135
0.452469 -0.355554 -0.636 77 107 161
0.454891 -0.355554 -0.636 67 97 151
0.458526 -0.355554 -0.636 121 139 179
0.423257 -0.301886 -0.54 118 78 70
0.425452 -0.29909 -0.535 118 75 66
0.426107 -0.297413 -0.532 115 75 65
0.430318 -0.294059 -0.526 142 90 79
0.4335 -0.2935 -0.525 149 92 83
0.435994 -0.291823 -0.522 149 96 82
0.438136 -0.291264 -0.521 154 101 87
0.445605 -0.289028 -0.517 159 106 90
0.4806 -0.298531 -0.534 137 92 71
1.10228 -0.343255 -0.614 202 205 188
1.10876 -0.343814 -0.615 202 204 190
0.0287695 -0.287208 -0.512 196 160 138
0.034959 -0.290012 -0.517 184 147 129
0.0381333 -0.291695 -0.52 175 137 126
0.0745019 -0.320304 -0.571 129 106 124
0.137713 -0.357327 -0.637 196 203 221
0.314585 -0.355644 -0.634 153 166 201
0.348948 -0.356205 -0.635 207 215 236
0.361043 -0.356205 -0.635 210 217 233
0.362823 -0.356766 -0.636 206 211 230
0.3683 -0.356205 -0.635 140 156 189
0.37736 -0.356766 -0.636 166 181 214
0.390087 -0.357327 -0.637 174 187 221
0.392513 -0.357327 -0.637 170 183 217
0.410713 -0.357327 -0.637 185 190 210
0.411927 -0.357327 -0.637 182 187 207
0.42406 -0.357327 -0.637 182 186 211
0.425273 -0.357327 -0.637 181 185 210
0.433767 -0.357327 -0.637 163 166 199
0.442777 -0.356766 -0.636 26 56 126
0.457805 -0.356205 -0.635 117 135 175
0.460957 -0.344986 -0.615 121 103 103
0.429926 -0.313011 -0.558 120 83 75
0.425071 -0.303475 -0.541 118 78 70
0.43683 -0.293378 -0.523 147 96 77
0.447691 -0.289451 -0.516 160 108 87
0.48625 -0.301792 -0.538 134 95 80
1.09877 -0.344425 -0.614 203 205 191
1.10462 -0.344425 -0.614 202 205 188
1.11046 -0.344425 -0.614 202 205 188
1.11163 -0.344425 -0.614 202 205 188
0.0180067 -0.28762 -0.511 205 168 149
0.0391238 -0.292686 -0.52 170 132 121
0.0402686 -0.293811 -0.522 172 131 127
0.0663095 -0.313511 -0.557 141 111 119
0.0689229 -0.315763 -0.561 139 111 123
0.0788543 -0.325894 -0.579 127 105 126
0.1183 -0.35854 -0.637 118 141 185
0.156387 -0.356851 -0.634 125 143 179
0.158802 -0.356851 -0.634 172 190 226
0.169403 -0.356289 -0.633 200 209 238
0.177843 -0.356289 -0.633 229 231 252
0.182666 -0.356289 -0.633 186 197 225
0.32494 -0.356289 -0.633 197 215 251
0.34236 -0.356851 -0.634 214 217 232
0.4028 -0.357977 -0.636 193 198 202
0.439662 -0.357414 -0.635 25 59 123
0.440871 -0.357414 -0.635 19 53 117
0.459499 -0.356851 -0.634 152 154 177
0.436549 -0.319703 -0.568 122 85 79
0.439129 -0.293249 -0.521 151 99 78
0.440121 -0.293249 -0.521 151 99 78
0.4685 -0.2955 -0.525 137 95 79
0.472292 -0.296626 -0.527 136 94 78
1.09292 -0.345594 -0.614 203 205 191
1.09526 -0.345594 -0.614 202 204 190
1.11216 -0.345031 -0.613 202 205 188
0.00840286 -0.293111 -0.519 203 165 142
0.0160286 -0.288029 -0.51 207 169 148
0.037 -0.292547 -0.518 176 138 127
0.0611743 -0.310054 -0.549 148 118 120
0.0773486 -0.325303 -0.576 127 106 123
0.08344 -0.33208 -0.588 130 109 124
0.110671 -0.358624 -0.635 194 201 217
0.118114 -0.359189 -0.636 124 146 185
0.162169 -0.357494 -0.633 182 197 230
0.258217 -0.35693 -0.632 183 194 222
0.267848 -0.35693 -0.632 203 211 232
0.276274 -0.35693 -0.632 246 251 255
0.284701 -0.35693 -0.632 236 243 249
0.285905 -0.35693 -0.632 243 250 255
0.309981 -0.35693 -0.632 216 225 254
0.32494 -0.357494 -0.633 196 215 255
0.336997 -0.357494 -0.633 218 225 243
0.358059 -0.358059 -0.634 203 210 228
0.366512 -0.358059 -0.634 202 210 231
0.368928 -0.358059 -0.634 167 182 203
0.383419 -0.358059 -0.634 32 77 132
0.401589 -0.359189 -0.636 149 148 162
0.407646 -0.359189 -0.636 162 167 186
0.42031 -0.358624 -0.635 171 177 199
0.428776 -0.358624 -0.635 125 128 133
0.451046 -0.358059 -0.634 39 73 134
0.458774 -0.357494 -0.633 166 170 197
0.462865 -0.35693 -0.632 131 135 146
0.427922 -0.306101 -0.542 118 79 72
0.42829 -0.302712 -0.536 116 76 68
0.429552 -0.299324 -0.53 123 79 68
0.437826 -0.29537 -0.523 148 95 81
0.446709 -0.291417 -0.516 165 113 92
0.470394 -0.297065 -0.526 137 95 79
0.477 -0.299324 -0.53 137 95 81
1.10632 -0.346199 -0.613 201 204 187
1.11216 -0.346199 -0.613 200 203 186
1.11332 -0.346199 -0.613 201 204 187
0.0257429 -0.289 -0.51 195 157 138
0.0480429 -0.3009 -0.531 162 124 123
0.0674914 -0.3162 -0.558 139 113 122
0.125186 -0.359833 -0.635 145 164 204
0.1397 -0.359833 -0.635 195 199 224
0.176358 -0.358133 -0.632 231 234 251
0.34182 -0.3587 -0.633 200 205 211
0.359267 -0.359267 -0.634 205 211 227
0.365934 -0.3587 -0.633 204 212 231
0.374374 -0.3587 -0.633 77 96 154
0.380403 -0.3587 -0.633 34 74 146
0.385834 -0.359267 -0.634 52 85 156
0.390071 -0.359833 -0.635 52 87 155
0.413052 -0.359833 -0.635 122 129 155
0.461661 -0.358133 -0.632 178 179 200
0.439324 -0.320733 -0.566 118 83 77
0.436667 -0.296933 -0.524 142 89 75
0.440121 -0.295233 -0.521 144 91 73
0.487391 -0.3043 -0.537 139 97 81
0.991892 -0.347367 -0.613 210 212 198
1.03509 -0.347367 -0.613 205 208 191
1.05494 -0.347367 -0.613 204 206 192
1.08997 -0.347367 -0.613 203 205 191
1.09348 -0.347367 -0.613 202 205 188
1.11734 -0.3468 -0.612 201 204 187
0.00737143 -0.293383 -0.516 206 166 140
0.0198752 -0.289403 -0.509 208 170 147
0.0247229 -0.289403 -0.509 199 158 138
0.0327343 -0.291677 -0.513 191 149 133
0.0379867 -0.29452 -0.518 174 130 127
0.04576 -0.300206 -0.528 163 123 121
0.0468543 -0.300774 -0.529 163 125 122
0.0803714 -0.330909 -0.582 129 112 122
0.0900133 -0.34228 -0.602 124 108 119
0.111881 -0.361043 -0.635 191 197 221
0.125186 -0.361043 -0.635 148 170 211
0.15469 -0.359337 -0.632 186 193 221
0.155893 -0.359337 -0.632 158 165 191
0.182089 -0.358769 -0.631 187 194 223
0.304683 -0.358769 -0.631 169 176 202
0.307087 -0.358769 -0.631 209 219 246
0.462132 -0.358769 -0.631 174 177 196
0.43212 -0.31044 -0.546 115 78 72
0.441113 -0.296226 -0.521 147 94 78
0.455554 -0.293383 -0.516 161 110 91
0.0256924 -0.290372 -0.509 198 160 139
0.0276857 -0.290943 -0.51 195 157 136
0.0286571 -0.290943 -0.51 191 153 132
0.0390486 -0.296077 -0.519 171 127 126
0.0456733 -0.300641 -0.527 163 125 122
0.0610629 -0.312621 -0.548 144 115 120
0.109117 -0.361111 -0.633 191 197 213
0.115328 -0.361682 -0.634 186 192 216
0.151078 -0.360541 -0.632 205 211 235
0.159505 -0.360541 -0.632 207 212 234
0.163116 -0.360541 -0.632 215 220 240
0.166464 -0.35997 -0.631 218 219 247
0.171543 -0.360541 -0.632 133 146 178
0.325115 -0.35997 -0.631 123 145 202
0.333529 -0.35997 -0.631 217 222 242
0.355726 -0.360541 -0.632 157 164 183
0.358133 -0.360541 -0.632 197 202 221
0.368968 -0.360541 -0.632 147 150 169
0.388843 -0.361111 -0.633 41 79 150
0.403311 -0.361111 -0.633 133 130 141
0.425014 -0.361111 -0.633 160 159 167
0.430362 -0.360541 -0.632 114 123 164
0.455642 -0.360541 -0.632 100 115 158
0.460374 -0.341715 -0.599 110 82 81
0.431713 -0.307487 -0.539 119 81 72
0.441113 -0.297218 -0.521 153 100 86
0.486595 -0.305205 -0.535 145 102 86
0.502719 -0.31205 -0.547 144 103 85
0.00827333 -0.292487 -0.511 204 166 145
0.0237533 -0.291342 -0.509 200 162 139
0.0758543 -0.327974 -0.573 128 108 117
0.0867 -0.340567 -0.595 126 109 115
0.09338 -0.34858 -0.609 120 107 124
0.107741 -0.361745 -0.632 178 184 200
0.115146 -0.362317 -0.633 180 186 212
0.134437 -0.362317 -0.633 194 200 222
0.149874 -0.361745 -0.632 196 201 220
0.161656 -0.361172 -0.631 213 218 237
0.2418 -0.3606 -0.63 234 247 255
0.243 -0.3606 -0.63 238 251 255
0.2514 -0.3606 -0.63 192 205 255
0.3246 -0.3606 -0.63 108 134 191
0.3294 -0.3606 -0.63 197 205 228
0.333 -0.3606 -0.63 213 215 236
0.34074 -0.361172 -0.631 207 209 230
0.349153 -0.361172 -0.631 146 152 176
0.36598 -0.361172 -0.631 155 157 172
0.421935 -0.361745 -0.632 142 140 153
0.423139 -0.361745 -0.632 127 124 131
0.429681 -0.361172 -0.631 77 88 134
0.436381 -0.361745 -0.632 141 161 198
0.439296 -0.361172 -0.631 100 132 183
0.433883 -0.310803 -0.543 119 81 70
0.434326 -0.301072 -0.526 136 88 78
0.448559 -0.295921 -0.517 166 111 91
0.467811 -0.298783 -0.522 144 98 82
0.484776 -0.305079 -0.533 147 101 86
0.992148 -0.349725 -0.611 208 211 194
0.0149686 -0.291163 -0.507 205 169 147
0.0178657 -0.291163 -0.507 206 170 148
0.0296286 -0.292886 -0.51 189 150 133
0.0316952 -0.294034 -0.512 183 143 131
0.0326705 -0.294034 -0.512 182 142 130
0.0636114 -0.317006 -0.552 141 114 119
0.0648971 -0.318154 -0.554 140 115 119
0.114964 -0.362949 -0.632 182 189 218
0.12238 -0.363523 -0.633 110 133 183
0.125997 -0.363523 -0.633 99 123 169
0.15805 -0.362374 -0.631 216 222 244
0.1758 -0.3618 -0.63 196 202 224
0.254595 -0.361226 -0.629 143 158 213
0.306113 -0.361226 -0.629 150 163 208
0.3534 -0.3618 -0.63 188 193 212
0.403878 -0.362949 -0.632 168 169 189
0.404441 -0.362374 -0.631 127 126 140
0.4446 -0.3618 -0.63 64 94 156
0.44771 -0.362374 -0.631 135 162 217
0.448911 -0.362374 -0.631 131 150 190
0.43318 -0.308391 -0.537 126 86 78
0.436667 -0.300926 -0.524 145 91 79
0.447574 -0.296906 -0.517 165 110 90
0.448674 -0.296331 -0.516 168 111 91
0.461267 -0.29748 -0.518 144 101 85
0.469704 -0.300351 -0.523 141 96 77
0.985876 -0.350314 -0.61 207 210 193
0.9882 -0.350314 -0.61 208 211 192
0.00727143 -0.293281 -0.509 206 170 146
0.0120476 -0.291552 -0.506 206 168 147
0.0159029 -0.291552 -0.506 205 169 147
0.0357352 -0.296162 -0.514 175 135 127
0.0421762 -0.300195 -0.521 164 125 120
0.0536 -0.308838 -0.536 153 119 120
0.0759867 -0.330733 -0.574 126 106 117
0.0788543 -0.333614 -0.579 126 106 118
0.104833 -0.362424 -0.629 106 112 146
0.11376 -0.364152 -0.632 189 189 213
0.12941 -0.364152 -0.632 120 135 174
0.133021 -0.364152 -0.632 182 193 215
0.179115 -0.362424 -0.629 224 231 249
0.186304 -0.362424 -0.629 175 188 232
0.1887 -0.362424 -0.629 163 176 218
0.249803 -0.362424 -0.629 139 156 199
0.357 -0.363 -0.63 204 211 230
0.38521 -0.363576 -0.631 132 159 212
0.405 -0.363 -0.63 168 170 183
0.4338 -0.363 -0.63 174 184 209
0.459 -0.363 -0.63 70 79 108
0.4662 -0.363 -0.63 172 171 185
0.4698 -0.363 -0.63 167 173 187
0.46878 -0.34629 -0.601 115 86 82
0.433987 -0.30999 -0.538 130 85 79
0.433605 -0.308262 -0.535 131 88 81
0.444363 -0.299043 -0.519 161 106 86
0.454571 -0.297314 -0.516 158 107 90
0.503995 -0.314024 -0.545 149 108 90
0.980067 -0.351476 -0.61 208 211 194
0.981229 -0.351476 -0.61 208 211 194
0.990524 -0.351476 -0.61 207 210 191
1.08982 -0.3509 -0.609 204 207 190
1.0933 -0.3509 -0.609 203 206 189
0.0120476 -0.292516 -0.506 204 166 145
0.070241 -0.325468 -0.563 134 111 121
0.08344 -0.33992 -0.588 133 105 117
0.125798 -0.365356 -0.632 109 130 183
0.135214 -0.364778 -0.631 159 165 189
0.137618 -0.364778 -0.631 108 114 148
0.1554 -0.3642 -0.63 208 214 228
0.1602 -0.3642 -0.63 216 222 238
0.176438 -0.363044 -0.628 208 219 247
0.236248 -0.363044 -0.628 245 250 254
0.243425 -0.363044 -0.628 166 178 218
0.244621 -0.363044 -0.628 169 181 221
0.261368 -0.363044 -0.628 146 161 202
0.266152 -0.363044 -0.628 234 240 254
0.29845 -0.363044 -0.628 239 242 255
0.300842 -0.363044 -0.628 234 240 255
0.302038 -0.363044 -0.628 215 221 237
0.345101 -0.363044 -0.628 151 152 170
0.394826 -0.364778 -0.631 81 102 145
0.405 -0.3642 -0.63 191 194 209
0.4122 -0.3642 -0.63 182 191 206
0.43431 -0.363622 -0.629 165 171 193
0.435508 -0.363622 -0.629 139 151 189
0.436706 -0.363622 -0.629 131 143 181
0.4355 -0.3035 -0.525 153 97 80
0.437665 -0.302922 -0.524 157 101 84
0.44659 -0.298875 -0.517 162 107 87
0.9889 -0.35206 -0.609 207 210 193
0.99006 -0.35206 -0.609 207 210 193
1.10193 -0.351482 -0.608 200 202 188
1.10309 -0.351482 -0.608 202 204 190
1.1054 -0.351482 -0.608 202 204 190
1.10656 -0.351482 -0.608 202 204 190
0.0255914 -0.29406 -0.507 198 157 139
0.0443305 -0.30334 -0.523 163 123 113
0.0715667 -0.3277 -0.565 135 109 120
0.1146 -0.3654 -0.63 172 186 215
0.130407 -0.36598 -0.631 159 175 209
0.135214 -0.36598 -0.631 133 142 171
0.158748 -0.36482 -0.629 213 218 237
0.162342 -0.36482 -0.629 219 224 243
0.169261 -0.36424 -0.628 220 225 244
0.17285 -0.36424 -0.628 195 202 230
0.17883 -0.36424 -0.628 184 198 233
0.184517 -0.36366 -0.627 136 153 199
0.195266 -0.36366 -0.627 150 164 211
0.200043 -0.36366 -0.627 237 243 255
0.225123 -0.36366 -0.627 231 237 249
0.239454 -0.36366 -0.627 185 191 213
0.258563 -0.36366 -0.627 145 163 213
0.292003 -0.36366 -0.627 240 242 255
0.30514 -0.36366 -0.627 167 179 217
0.335531 -0.36424 -0.628 216 222 238
0.343905 -0.36424 -0.628 198 205 223
0.352839 -0.36482 -0.629 205 210 229
0.380395 -0.36482 -0.629 101 133 184
0.3834 -0.3654 -0.63 158 177 217
0.3894 -0.3654 -0.63 190 197 226
0.3918 -0.3654 -0.63 142 156 191
0.428834 -0.36424 -0.628 167 175 196
0.434815 -0.36424 -0.628 136 149 184
0.455875 -0.36482 -0.629 169 174 194
0.460668 -0.36482 -0.629 100 101 121
0.436986 -0.31494 -0.543 128 89 84
0.441113 -0.30218 -0.521 159 104 84
0.485991 -0.30798 -0.531 144 97 79
0.499371 -0.3132 -0.54 147 101 86
1.08971 -0.35206 -0.607 203 206 187
0.00438857 -0.297935 -0.512 204 166 145
0.01488 -0.29328 -0.504 211 170 150
0.0284886 -0.295026 -0.507 190 151 134
0.047681 -0.306664 -0.527 161 121 113
0.0511733 -0.309573 -0.532 158 121 115
0.0570857 -0.314229 -0.54 154 116 113
0.0916143 -0.352052 -0.605 120 109 125
0.114418 -0.366018 -0.629 160 178 214
0.1374 -0.3666 -0.63 160 169 200
0.14437 -0.366018 -0.629 201 211 223
0.151318 -0.365436 -0.628 208 214 230
0.152514 -0.365436 -0.628 208 214 230
0.157299 -0.365436 -0.628 214 220 234
0.168065 -0.365436 -0.628 222 227 246
0.182129 -0.364854 -0.627 129 143 188
0.185711 -0.364854 -0.627 128 146 194
0.223929 -0.364854 -0.627 207 210 229
0.237066 -0.364854 -0.627 234 237 252
0.327831 -0.364854 -0.627 108 122 161
0.358259 -0.365436 -0.628 202 205 222
0.388782 -0.366018 -0.629 187 193 217
0.392376 -0.366018 -0.629 156 165 194
0.410348 -0.366018 -0.629 94 111 141
0.416872 -0.365436 -0.628 183 185 208
0.42405 -0.365436 -0.628 89 91 114
0.436011 -0.365436 -0.628 109 123 152
0.445581 -0.365436 -0.628 86 114 162
0.475923 -0.364854 -0.627 147 150 181
0.436667 -0.304918 -0.524 161 105 88
0.450748 -0.299681 -0.515 152 97 76
0.46333 -0.300845 -0.517 146 95 78
0.472783 -0.303754 -0.522 140 91 74
0.98496 -0.353798 -0.608 208 211 194
1.03244 -0.353798 -0.608 206 208 194
1.08162 -0.353216 -0.607 203 205 191
1.08624 -0.353216 -0.607 203 206 189
1.09549 -0.353216 -0.607 202 206 191
1.09665 -0.353216 -0.607 201 205 190
1.10474 -0.353216 -0.607 202 204 190
0.00721429 -0.294824 -0.505 209 165 138
0.00817619 -0.294824 -0.505 209 165 138
0.0235667 -0.294824 -0.505 197 159 138
0.0245286 -0.294824 -0.505 202 161 141
0.0345533 -0.298327 -0.511 176 138 127
0.0366429 -0.299494 -0.513 171 133 124
0.0465 -0.3065 -0.525 160 121 114
0.0701162 -0.328101 -0.562 132 109 117
0.1045 -0.366049 -0.627 190 196 212
0.105863 -0.366632 -0.628 182 188 204
0.1098 -0.3678 -0.63 100 113 148
0.129 -0.3678 -0.63 146 164 210
0.145337 -0.366632 -0.628 209 212 227
0.14773 -0.366632 -0.628 208 210 231
0.177069 -0.365465 -0.626 135 153 203
0.18303 -0.365465 -0.626 132 146 191
0.184223 -0.365465 -0.626 125 143 191
0.241457 -0.365465 -0.626 164 174 210
0.24265 -0.365465 -0.626 159 172 214
0.289152 -0.365465 -0.626 243 246 255
0.342163 -0.366049 -0.627 189 191 204
0.349329 -0.366049 -0.627 205 211 227
0.351717 -0.366049 -0.627 205 208 223
0.357689 -0.366049 -0.627 203 206 223
0.371417 -0.366632 -0.628 189 194 213
0.37381 -0.366632 -0.628 153 164 196
0.412088 -0.366632 -0.628 169 174 204
0.420986 -0.366049 -0.627 170 172 195
0.453954 -0.366632 -0.628 176 178 191
0.468309 -0.366632 -0.628 140 149 180
0.469951 -0.366049 -0.627 151 160 189
0.47234 -0.366049 -0.627 77 92 131
0.438827 -0.317592 -0.544 137 93 84
0.434148 -0.307668 -0.527 153 101 87
0.435669 -0.305916 -0.524 160 105 85
0.451729 -0.300662 -0.515 155 100 80
0.46333 -0.30183 -0.517 147 96 79
0.471877 -0.304165 -0.521 143 92 75
0.986809 -0.354372 -0.607 208 211 194
1.02843 -0.354372 -0.607 206 208 194
0.00339333 -0.298129 -0.509 203 164 147
0.0365714 -0.299886 -0.512 169 130 123
0.0420143 -0.303986 -0.519 162 121 115
0.0757219 -0.335029 -0.572 131 108 118
0.124003 -0.368414 -0.629 71 93 151
0.125201 -0.368414 -0.629 61 83 141
0.157049 -0.367243 -0.627 172 175 192
0.178261 -0.366657 -0.626 133 149 198
0.186608 -0.366657 -0.626 123 140 194
0.1878 -0.366657 -0.626 123 140 194
0.235119 -0.366071 -0.625 242 246 255
0.241071 -0.366071 -0.625 178 187 218
0.266071 -0.366071 -0.625 226 232 254
0.270833 -0.366071 -0.625 244 252 255
0.308929 -0.366071 -0.625 201 217 250
0.340425 -0.366657 -0.626 192 196 208
0.3553 -0.367243 -0.627 207 205 227
0.360077 -0.367243 -0.627 185 191 217
0.399489 -0.367243 -0.627 180 185 205
0.412626 -0.367243 -0.627 180 189 220
0.417403 -0.367243 -0.627 161 165 192
0.426957 -0.367243 -0.627 120 125 131
0.428661 -0.366657 -0.626 180 186 200
0.437706 -0.367243 -0.627 69 100 147
0.444871 -0.367243 -0.627 68 104 156
0.456814 -0.367243 -0.627 145 149 161
0.46324 -0.366657 -0.626 53 68 109
0.467563 -0.367243 -0.627 108 124 160
0.475164 -0.366657 -0.626 114 127 171
0.442053 -0.320971 -0.548 134 94 86
0.456633 -0.301643 -0.515 158 102 85
0.457614 -0.301643 -0.515 153 100 84
0.480413 -0.308086 -0.526 148 99 82
0.987965 -0.355529 -0.607 208 210 196
0.991433 -0.355529 -0.607 208 210 196
1.08561 -0.354943 -0.606 203 205 191
0.0225152 -0.295572 -0.503 200 162 141
0.0283762 -0.296748 -0.505 189 150 133
0.03036 -0.297335 -0.506 180 140 128
0.0772143 -0.337881 -0.575 133 108 114
0.119021 -0.369025 -0.628 53 79 138
0.121607 -0.369612 -0.629 61 87 146
0.140552 -0.369025 -0.628 204 209 228
0.165145 -0.36785 -0.626 224 223 241
0.182738 -0.367262 -0.625 135 157 198
0.18869 -0.367262 -0.625 146 166 219
0.189881 -0.367262 -0.625 171 191 244
0.366657 -0.36785 -0.626 152 155 170
0.385735 -0.36785 -0.626 186 201 230
0.386928 -0.36785 -0.626 186 193 211
0.41316 -0.36785 -0.626 168 179 199
0.432238 -0.36785 -0.626 185 183 194
0.437008 -0.36785 -0.626 70 100 150
0.441777 -0.36785 -0.626 100 134 180
0.473971 -0.36785 -0.626 43 73 135
0.434148 -0.309675 -0.527 168 111 91
0.439276 -0.305562 -0.52 169 113 90
0.443507 -0.304387 -0.518 166 108 86
0.44548 -0.304387 -0.518 168 110 88
0.454768 -0.302036 -0.514 160 105 85
0.457614 -0.302624 -0.515 156 100 83
0.574663 -0.354922 -0.604 201 207 207
1.07868 -0.356097 -0.606 204 207 190
1.08676 -0.356097 -0.606 203 206 189
0.054621 -0.315985 -0.536 149 114 108
0.0582219 -0.318932 -0.541 145 110 104
0.0672495 -0.327775 -0.556 136 110 111
0.0685543 -0.328954 -0.558 137 111 112
0.0802333 -0.342513 -0.581 133 110 116
0.117825 -0.370221 -0.628 51 75 139
0.120217 -0.370221 -0.628 54 80 139
0.150836 -0.369042 -0.626 181 184 201
0.164881 -0.368452 -0.625 226 227 245
0.173214 -0.368452 -0.625 174 186 212
0.181257 -0.367863 -0.624 145 171 208
0.182446 -0.367863 -0.624 127 153 190
0.183634 -0.367863 -0.624 132 148 197
0.188389 -0.367863 -0.624 152 173 218
0.21216 -0.367863 -0.624 241 243 255
0.225234 -0.367863 -0.624 247 252 255
0.232366 -0.367863 -0.624 244 244 255
0.238309 -0.367863 -0.624 214 220 242
0.277531 -0.367863 -0.624 242 247 253
0.281097 -0.367863 -0.624 224 226 239
0.304869 -0.367863 -0.624 233 234 254
0.342903 -0.367863 -0.624 183 194 214
0.361888 -0.369042 -0.626 189 195 219
0.375004 -0.369042 -0.626 119 147 186
0.379773 -0.369042 -0.626 114 135 182
0.407198 -0.369042 -0.626 90 104 139
0.433929 -0.368452 -0.625 118 126 137
0.454167 -0.368452 -0.625 172 171 179
0.438086 -0.317164 -0.538 153 106 90
0.439276 -0.306552 -0.52 173 115 93
0.445605 -0.304784 -0.517 167 109 89
0.447574 -0.304784 -0.517 164 106 84
0.450748 -0.303605 -0.515 157 101 78
0.4653 -0.304784 -0.517 150 99 78
1.08958 -0.356662 -0.605 201 205 188
1.0988 -0.356662 -0.605 203 206 189
1.10225 -0.356662 -0.605 202 205 188
0.02736 -0.29808 -0.504 189 151 132
0.0408676 -0.305769 -0.517 167 125 113
0.0419333 -0.30636 -0.518 165 123 111
0.0916143 -0.357814 -0.605 146 130 140
0.117637 -0.370826 -0.627 53 80 135
0.124803 -0.370826 -0.627 69 94 151
0.13794 -0.370826 -0.627 202 201 219
0.144874 -0.370234 -0.626 199 204 224
0.160119 -0.369643 -0.625 202 203 221
0.175314 -0.369051 -0.624 196 205 238
0.34528 -0.369051 -0.624 91 108 152
0.385119 -0.369643 -0.625 181 197 223
0.454167 -0.369643 -0.625 178 177 185
0.435669 -0.309909 -0.524 174 116 96
0.439276 -0.307543 -0.52 177 119 97
0.44252 -0.30636 -0.518 167 109 87
0.459663 -0.303994 -0.514 163 105 85
0.505449 -0.319963 -0.541 149 104 81
0.00048381 -0.301413 -0.508 204 166 143
0.00809524 -0.296667 -0.5 212 172 147
0.0119048 -0.296667 -0.5 207 170 144
0.0186086 -0.29726 -0.501 204 163 141
0.0214714 -0.29726 -0.501 204 163 141
0.0293381 -0.299633 -0.505 180 141 124
0.0397286 -0.305567 -0.515 168 124 115
0.0430857 -0.308533 -0.52 163 120 111
0.0497829 -0.31328 -0.528 154 115 108
0.0755895 -0.338793 -0.571 132 110 113
0.169371 -0.37024 -0.624 204 209 231
0.171749 -0.37024 -0.624 133 138 168
0.17888 -0.37024 -0.624 195 210 241
0.189273 -0.369647 -0.623 207 225 255
0.21894 -0.369647 -0.623 245 249 255
0.324553 -0.369647 -0.623 217 225 244
0.328113 -0.369647 -0.623 218 220 243
0.329829 -0.37024 -0.624 216 218 241
0.333394 -0.37024 -0.624 145 150 179
0.335233 -0.369647 -0.623 159 168 199
0.34354 -0.369647 -0.623 124 144 169
0.358929 -0.370833 -0.625 165 181 207
0.376786 -0.370833 -0.625 133 162 206
0.393452 -0.370833 -0.625 190 193 198
0.399954 -0.37024 -0.624 91 113 162
0.410651 -0.37024 -0.624 149 175 224
0.41184 -0.37024 -0.624 149 168 198
0.413029 -0.37024 -0.624 111 130 160
0.414217 -0.37024 -0.624 108 126 172
0.432046 -0.37024 -0.624 153 165 177
0.44512 -0.37024 -0.624 74 100 151
0.455817 -0.37024 -0.624 169 175 191
0.464137 -0.37024 -0.624 130 140 167
0.477211 -0.37024 -0.624 156 158 179
0.43788 -0.31684 -0.534 163 106 87
0.479666 -0.310313 -0.523 143 98 79
0.489199 -0.313873 -0.529 146 104 88
1.07397 -0.358373 -0.604 204 206 192
0.000481905 -0.30119 -0.506 204 166 143
0.0204762 -0.297619 -0.5 203 162 140
0.02928 -0.3 -0.504 178 141 123
0.0333829 -0.302381 -0.508 178 136 124
0.0606171 -0.32381 -0.544 143 112 110
0.0800952 -0.345238 -0.58 131 111 113
0.119643 -0.372024 -0.625 53 79 138
0.122024 -0.372024 -0.625 55 81 142
0.126989 -0.372619 -0.626 90 116 173
0.134143 -0.372619 -0.626 139 153 202
0.13772 -0.372619 -0.626 198 200 223
0.151786 -0.372024 -0.625 202 204 219
0.166994 -0.371429 -0.624 220 222 245
0.175033 -0.370833 -0.623 209 213 240
0.183046 -0.370238 -0.622 138 161 202
0.218589 -0.370238 -0.622 231 233 245
0.22962 -0.370833 -0.623 229 235 247
0.239914 -0.370238 -0.622 208 217 226
0.257686 -0.370238 -0.622 247 254 255
0.268349 -0.370238 -0.622 242 247 253
0.309815 -0.370238 -0.622 176 194 230
0.316924 -0.370238 -0.622 146 166 203
0.319293 -0.370238 -0.622 147 166 206
0.340619 -0.370238 -0.622 196 210 239
0.373806 -0.371429 -0.624 114 134 169
0.376183 -0.371429 -0.624 130 161 205
0.379749 -0.371429 -0.624 91 124 169
0.392823 -0.371429 -0.624 190 192 204
0.40762 -0.370833 -0.623 64 90 149
0.418971 -0.371429 -0.624 48 66 112
0.4717 -0.370833 -0.623 57 77 110
0.45281 -0.305952 -0.514 168 111 91
0.459663 -0.305952 -0.514 161 104 84
1.09976 -0.358929 -0.603 202 205 188
-0.00145714 -0.304543 -0.51 200 164 142
0.0214286 -0.298571 -0.5 198 160 137
0.0508848 -0.315889 -0.529 155 118 110
0.0544171 -0.318874 -0.534 151 116 110
0.0670076 -0.330817 -0.554 136 110 111
0.110295 -0.373811 -0.626 111 123 165
0.146789 -0.372617 -0.624 211 214 231
0.149166 -0.372617 -0.624 209 212 229
0.163167 -0.37202 -0.623 223 225 240
0.226882 -0.371423 -0.622 242 245 254
0.337065 -0.371423 -0.622 146 162 196
0.350097 -0.371423 -0.622 157 172 203
0.353033 -0.37202 -0.623 105 128 172
0.355407 -0.37202 -0.623 89 111 158
0.372617 -0.372617 -0.624 103 126 160
0.374393 -0.37202 -0.623 120 152 193
0.377953 -0.37202 -0.623 105 139 185
0.385073 -0.37202 -0.623 196 197 218
0.399857 -0.371423 -0.622 153 172 214
0.401042 -0.371423 -0.622 168 177 208
0.413553 -0.37202 -0.623 153 167 194
0.415927 -0.37202 -0.623 136 150 177
0.427793 -0.37202 -0.623 178 186 199
0.438473 -0.37202 -0.623 104 135 179
0.46265 -0.371423 -0.622 166 167 187
0.447043 -0.327831 -0.549 147 103 92
0.440953 -0.32186 -0.539 160 104 87
0.437144 -0.311111 -0.521 180 122 100
0.440409 -0.309917 -0.519 175 117 95
0.454768 -0.306931 -0.514 169 111 91
0.475924 -0.310514 -0.52 145 100 79
1.02165 -0.360077 -0.603 206 208 194
1.07793 -0.360077 -0.603 203 205 191
1.08368 -0.360077 -0.603 202 204 190
1.09516 -0.360077 -0.603 203 206 189
-0.00513429 -0.35883 -0.599 196 160 138
-0.00145143 -0.304316 -0.508 201 163 142
0.0194848 -0.298925 -0.499 196 160 136
0.0204352 -0.298925 -0.499 195 159 135
0.0292219 -0.301321 -0.503 180 141 124
0.0696171 -0.334269 -0.558 134 109 112
0.0725143 -0.337863 -0.564 132 110 113
0.0847038 -0.352839 -0.589 131 114 120
0.101134 -0.372009 -0.621 192 194 217
0.118263 -0.373806 -0.624 77 100 154
0.119451 -0.373806 -0.624 79 102 156
0.126786 -0.374405 -0.625 140 168 207
0.13869 -0.374405 -0.625 198 204 228
0.160535 -0.372608 -0.622 216 218 233
0.200494 -0.372009 -0.621 144 160 193
0.201677 -0.372009 -0.621 147 163 196
0.231249 -0.372009 -0.621 200 202 227
0.342437 -0.372009 -0.621 97 113 149
0.379716 -0.372608 -0.622 90 122 163
0.384455 -0.372608 -0.622 191 192 213
0.413553 -0.373207 -0.623 179 190 210
0.434215 -0.372608 -0.622 98 120 170
0.44322 -0.373207 -0.623 99 121 168
0.461465 -0.372608 -0.622 171 176 196
0.46265 -0.372608 -0.622 171 172 192
0.466204 -0.372608 -0.622 178 178 202
0.441666 -0.309708 -0.517 175 117 95
0.44265 -0.309708 -0.517 176 118 96
0.454768 -0.30791 -0.514 172 115 95
0.461621 -0.30791 -0.514 162 107 86
0.478824 -0.312104 -0.521 149 102 84
1.01996 -0.360627 -0.602 206 208 194
1.02111 -0.360627 -0.602 206 208 194
1.10023 -0.360627 -0.602 201 203 189
-0.00507429 -0.355764 -0.592 197 161 139
-0.00144286 -0.303481 -0.505 200 162 139
0.0184971 -0.299274 -0.498 194 158 134
0.0440762 -0.312495 -0.52 158 120 111
0.0508848 -0.317904 -0.529 154 117 111
0.0554343 -0.320909 -0.534 149 116 111
0.0738495 -0.340139 -0.566 132 110 113
0.101134 -0.373191 -0.621 192 194 217
0.11214 -0.374393 -0.623 150 161 189
0.116887 -0.374393 -0.623 79 102 143
0.120447 -0.374393 -0.623 84 106 163
0.140846 -0.374994 -0.624 203 204 222
0.141807 -0.374393 -0.623 202 203 223
0.2356 -0.37259 -0.62 246 250 249
0.314724 -0.37259 -0.62 138 163 204
0.331257 -0.37259 -0.62 175 186 214
0.343067 -0.37259 -0.62 77 105 170
0.371423 -0.373792 -0.622 113 129 162
0.406311 -0.373191 -0.621 88 100 152
0.41052 -0.373792 -0.622 184 189 208
0.43777 -0.373792 -0.622 107 134 179
0.453626 -0.373191 -0.621 108 116 137
0.475682 -0.373792 -0.622 172 172 196
0.479236 -0.373792 -0.622 169 171 186
0.489505 -0.37259 -0.62 104 106 127
0.438573 -0.311293 -0.518 181 123 101
0.455747 -0.30889 -0.514 177 120 100
0.457705 -0.30889 -0.514 172 115 95
0.494083 -0.319106 -0.531 153 106 86
0.5762 -0.361773 -0.602 181 182 184
1.00849 -0.361773 -0.602 207 210 193
1.00964 -0.361773 -0.602 205 208 191
1.01308 -0.361773 -0.602 205 208 191
1.01712 -0.361172 -0.601 205 207 193
1.0217 -0.361172 -0.601 206 208 194
1.04175 -0.361773 -0.602 205 208 191
1.05895 -0.361773 -0.602 204 207 190
1.06009 -0.361773 -0.602 204 207 190
1.07729 -0.361773 -0.602 203 205 191
1.07959 -0.361773 -0.602 203 205 191
1.08417 -0.361773 -0.602 203 206 189
0.000475238 -0.300826 -0.499 201 164 137
0.00520667 -0.29962 -0.497 208 168 142
0.00803048 -0.299017 -0.496 209 172 145
0.0322238 -0.304443 -0.505 176 137 122
0.0396514 -0.309869 -0.514 162 124 115
0.0603943 -0.326749 -0.542 141 111 111
0.0864086 -0.357494 -0.593 130 111 113
0.122623 -0.374977 -0.622 117 141 189
0.142993 -0.37558 -0.623 203 201 222
0.14418 -0.37558 -0.623 208 206 227
0.166191 -0.374374 -0.621 144 152 175
0.180095 -0.373771 -0.62 180 189 218
0.203714 -0.373771 -0.62 219 220 250
0.324171 -0.373771 -0.62 213 219 231
0.370238 -0.374977 -0.622 142 149 175
0.419323 -0.374374 -0.621 168 173 192
0.449617 -0.374977 -0.622 159 161 184
0.463089 -0.374374 -0.621 175 176 194
0.490686 -0.373771 -0.62 117 117 141
0.440293 -0.32072 -0.532 167 118 101
0.437665 -0.315897 -0.524 178 120 98
0.438573 -0.31228 -0.518 178 120 98
0.460642 -0.309869 -0.514 169 112 92
0.496027 -0.32072 -0.532 149 106 87
1.01254 -0.362317 -0.601 205 208 191
1.02971 -0.362317 -0.601 206 208 194
0.00612857 -0.299357 -0.495 206 166 140
0.0174781 -0.299962 -0.496 194 156 133
0.0222467 -0.300567 -0.497 193 155 134
0.0485 -0.3175 -0.525 155 118 110
0.0531 -0.321129 -0.531 152 117 111
0.10502 -0.376767 -0.623 101 114 149
0.128753 -0.376767 -0.623 192 198 222
0.14062 -0.376767 -0.623 200 198 220
0.143949 -0.376162 -0.622 206 204 225
0.164743 -0.374952 -0.62 173 177 202
0.195132 -0.374348 -0.619 243 243 255
0.202207 -0.374348 -0.619 215 216 246
0.221071 -0.374348 -0.619 221 230 247
0.316574 -0.374348 -0.619 147 166 206
0.336618 -0.374348 -0.619 191 206 229
0.367277 -0.375557 -0.621 197 201 226
0.379106 -0.375557 -0.621 136 154 190
0.395029 -0.374952 -0.62 189 196 214
0.416286 -0.374952 -0.62 187 185 209
0.42219 -0.374952 -0.62 67 76 117
0.430457 -0.374952 -0.62 151 159 178
0.438724 -0.374952 -0.62 72 107 163
0.454809 -0.375557 -0.621 103 110 129
0.465454 -0.375557 -0.621 178 176 197
0.483197 -0.375557 -0.621 170 172 187
0.441794 -0.312057 -0.516 181 123 99
0.449872 -0.310848 -0.514 174 116 92
0.456814 -0.310243 -0.513 174 118 95
0.479886 -0.314476 -0.52 151 104 86
0.481801 -0.315081 -0.521 151 106 87
1.00971 -0.362857 -0.6 206 209 192
1.01086 -0.362857 -0.6 205 208 191
1.07714 -0.362857 -0.6 203 205 191
0.00141714 -0.300907 -0.496 194 157 131
0.0241886 -0.30212 -0.498 193 152 132
0.0353181 -0.308187 -0.508 167 127 115
0.0395743 -0.31122 -0.513 161 123 114
0.0518924 -0.320927 -0.529 152 115 109
0.107393 -0.377953 -0.623 183 189 215
0.115329 -0.37674 -0.621 107 123 159
0.129731 -0.377347 -0.622 187 195 216
0.130706 -0.37674 -0.621 188 196 217
0.142764 -0.377347 -0.622 193 194 212
0.1612 -0.376133 -0.62 206 212 228
0.163562 -0.376133 -0.62 197 198 219
0.219892 -0.375527 -0.619 221 228 247
0.22225 -0.375527 -0.619 189 201 223
0.23522 -0.375527 -0.619 250 253 255
0.238757 -0.375527 -0.619 231 230 238
0.34605 -0.375527 -0.619 197 205 226
0.34723 -0.375527 -0.619 203 208 240
0.355483 -0.375527 -0.619 196 200 225
0.357841 -0.375527 -0.619 80 94 123
0.367867 -0.376133 -0.62 178 187 216
0.3844 -0.376133 -0.62 191 196 218
0.385581 -0.376133 -0.62 189 192 211
0.42101 -0.376133 -0.62 147 158 180
0.461162 -0.376133 -0.62 175 178 195
0.463524 -0.376133 -0.62 180 177 196
0.467067 -0.376133 -0.62 180 177 196
0.472971 -0.376133 -0.62 177 178 196
0.475333 -0.376133 -0.62 177 176 190
0.478876 -0.376133 -0.62 168 169 189
0.482419 -0.376133 -0.62 171 173 186
0.438822 -0.317287 -0.523 178 120 96
0.446935 -0.311827 -0.514 176 118 94
0.453883 -0.31122 -0.513 178 120 98
0.455837 -0.31122 -0.513 175 119 96
0.499926 -0.32396 -0.534 146 107 92
0.51428 -0.33124 -0.546 141 104 88
0.992571 -0.364 -0.6 207 210 193
1.00286 -0.364 -0.6 206 209 192
1.00629 -0.364 -0.6 206 209 192
1.00917 -0.363393 -0.599 205 208 191
1.04743 -0.364 -0.6 204 207 190
1.07143 -0.364 -0.6 204 206 192
-0.00333333 -0.304286 -0.5 198 161 135
0.0127029 -0.300634 -0.494 204 167 141
0.0311381 -0.306111 -0.503 174 135 118
0.03216 -0.30672 -0.504 173 134 119
0.08134 -0.35358 -0.581 131 105 114
0.0862629 -0.360274 -0.592 134 120 120
0.115329 -0.377923 -0.621 120 134 169
0.129523 -0.377923 -0.621 192 199 217
0.134254 -0.377923 -0.621 183 187 216
0.138986 -0.377923 -0.621 151 154 189
0.141351 -0.377923 -0.621 195 202 231
0.197171 -0.376097 -0.618 239 246 254
0.219537 -0.376097 -0.618 203 209 231
0.232486 -0.376097 -0.618 246 250 255
0.23484 -0.376097 -0.618 242 248 255
0.336074 -0.376097 -0.618 211 213 238
0.339606 -0.376097 -0.618 202 210 233
0.351946 -0.376706 -0.619 200 207 226
0.354304 -0.376706 -0.619 200 208 227
0.367273 -0.376706 -0.619 177 183 199
0.37199 -0.376706 -0.619 117 141 179
0.413256 -0.376706 -0.619 185 190 209
0.430942 -0.376706 -0.619 132 147 178
0.467492 -0.376706 -0.619 154 161 187
0.468671 -0.376706 -0.619 118 125 151
0.472971 -0.377314 -0.62 164 169 191
0.475333 -0.377314 -0.62 164 170 184
0.491073 -0.376706 -0.619 55 70 101
0.439276 -0.316457 -0.52 180 123 96
0.468474 -0.312806 -0.514 144 92 71
0.475211 -0.314023 -0.516 150 105 86
0.501881 -0.325586 -0.535 150 108 92
0.517208 -0.333497 -0.548 137 98 81
0.566629 -0.360274 -0.592 200 186 183
1.01031 -0.364534 -0.599 205 208 191
1.05253 -0.364534 -0.599 204 207 190
-0.00141429 -0.302186 -0.495 197 160 134
0.0145848 -0.301575 -0.494 200 162 139
0.0164667 -0.301575 -0.494 198 157 135
0.0270343 -0.304017 -0.498 185 144 126
0.0517943 -0.322331 -0.528 150 116 114
0.06794 -0.337593 -0.553 137 108 110
0.130495 -0.378495 -0.62 189 195 209
0.164477 -0.377885 -0.619 229 227 248
0.16892 -0.377274 -0.618 225 228 245
0.180399 -0.376664 -0.617 190 205 238
0.18275 -0.376664 -0.617 177 193 219
0.208605 -0.376664 -0.617 188 193 213
0.214481 -0.376664 -0.617 138 153 194
0.229759 -0.376664 -0.617 245 246 248
0.233663 -0.377274 -0.618 246 250 255
0.241511 -0.376664 -0.617 176 188 226
0.266191 -0.376664 -0.617 189 191 214
0.267367 -0.376664 -0.617 223 225 248
0.273243 -0.376664 -0.617 224 232 253
0.319077 -0.376664 -0.617 220 230 255
0.347846 -0.377274 -0.618 203 210 229
0.352554 -0.377274 -0.618 200 207 226
0.354909 -0.377274 -0.618 201 208 227
0.368452 -0.377885 -0.619 127 130 149
0.385514 -0.377274 -0.618 105 114 145
0.393754 -0.377274 -0.618 187 193 209
0.42151 -0.377885 -0.619 161 166 186
0.430246 -0.377274 -0.618 105 127 166
0.462776 -0.377885 -0.619 174 173 187
0.468671 -0.377885 -0.619 114 126 152
0.475746 -0.377885 -0.619 153 158 177
0.43956 -0.316227 -0.518 179 119 93
1.08448 -0.365675 -0.599 203 205 191
0.00328 -0.301291 -0.492 203 163 138
0.0117381 -0.301904 -0.493 205 168 142
0.0192895 -0.302516 -0.494 194 153 133
0.0290476 -0.30619 -0.5 178 137 119
0.0406305 -0.314764 -0.514 158 120 111
0.0450667 -0.318438 -0.52 153 116 108
0.0505962 -0.322112 -0.526 150 117 112
0.0828724 -0.35763 -0.584 131 108 114
0.101988 -0.379064 -0.619 181 183 208
0.110241 -0.379064 -0.619 133 148 177
0.134038 -0.379676 -0.62 202 198 221
0.139717 -0.379064 -0.619 92 105 150
