ply
format ascii 1.0
comment Created by Open3D
element vertex 1277
property double x
property double y
property double z
property uchar red
property uchar green
property uchar blue
end_header
0.400009 -0.430569 -0.573 130 136 150
0.418563 -0.430569 -0.573 133 166 201
0.435693 -0.43132 -0.574 77 92 121
0.442253 -0.43132 -0.574 188 193 196
0.445533 -0.43132 -0.574 188 194 206
0.462738 -0.432071 -0.575 176 175 180
0.466024 -0.432071 -0.575 149 155 169
0.4715 -0.432071 -0.575 78 98 131
0.49036 -0.43132 -0.574 126 145 177
0.49364 -0.43132 -0.574 163 170 188
0.508263 -0.429817 -0.572 158 157 165
0.483057 -0.398257 -0.53 146 116 105
0.483817 -0.366697 -0.488 164 117 91
0.500733 -0.3682 -0.49 161 115 89
-0.0256781 -0.332973 -0.442 197 158 125
-0.0131086 -0.33448 -0.444 197 156 126
-0.00805238 -0.335233 -0.445 193 149 120
-0.00467238 -0.335987 -0.446 194 151 119
0.00127714 -0.33674 -0.447 180 139 111
0.0115971 -0.339753 -0.451 168 127 105
0.0168629 -0.342013 -0.454 164 121 102
0.0204562 -0.344273 -0.457 151 115 99
0.02508 -0.34804 -0.462 142 109 100
0.0443429 -0.3616 -0.48 137 108 100
0.0828314 -0.412073 -0.547 163 169 195
0.124526 -0.43392 -0.576 188 192 204
0.373814 -0.43166 -0.573 169 177 188
0.391277 -0.43166 -0.573 214 220 236
0.40149 -0.430907 -0.572 101 106 126
0.416743 -0.430907 -0.572 133 162 202
0.421837 -0.43166 -0.573 135 163 202
0.428386 -0.43166 -0.573 192 198 212
0.437117 -0.43166 -0.573 171 175 176
0.455071 -0.433167 -0.575 184 192 194
0.466024 -0.433167 -0.575 170 174 183
0.468214 -0.433167 -0.575 108 121 140
0.476976 -0.433167 -0.575 156 162 184
0.479167 -0.433167 -0.575 138 155 185
0.481613 -0.432413 -0.574 63 94 140
0.4838 -0.432413 -0.574 47 88 144
0.502387 -0.432413 -0.574 123 122 120
0.470952 -0.376667 -0.5 170 125 104
0.473786 -0.3729 -0.495 166 120 97
0.474689 -0.371393 -0.493 170 122 100
-0.0164543 -0.33457 -0.443 202 161 129
0.0124562 -0.340612 -0.451 168 125 108
0.0260162 -0.349675 -0.463 140 107 98
0.0355124 -0.356472 -0.472 137 106 101
0.0493219 -0.365535 -0.484 136 106 98
0.0555333 -0.370067 -0.49 134 106 95
0.0625057 -0.378374 -0.501 119 99 100
0.0718095 -0.392724 -0.52 114 93 100
0.079419 -0.406318 -0.538 151 142 159
0.142929 -0.434262 -0.575 198 204 220
0.382968 -0.431996 -0.572 218 222 234
0.388415 -0.431996 -0.572 213 219 231
0.394952 -0.431996 -0.572 217 217 229
0.396042 -0.431996 -0.572 216 216 224
0.42402 -0.432751 -0.573 157 178 207
0.442574 -0.432751 -0.573 189 193 192
0.449123 -0.432751 -0.573 185 188 195
0.458653 -0.433507 -0.574 120 122 119
0.485987 -0.433507 -0.574 38 78 139
0.489506 -0.432751 -0.573 102 127 168
0.496054 -0.432751 -0.573 52 67 110
0.504786 -0.432751 -0.573 162 161 166
0.475211 -0.389703 -0.516 153 116 98
0.470961 -0.376864 -0.499 168 123 102
0.472853 -0.374598 -0.496 167 121 98
0.511108 -0.370822 -0.491 160 116 91
-0.02226 -0.3339 -0.441 197 158 125
-0.0164543 -0.335414 -0.443 201 160 128
-0.013079 -0.335414 -0.443 198 157 125
0.0462676 -0.364186 -0.481 137 108 100
0.0524105 -0.368729 -0.487 136 109 102
0.0778114 -0.404314 -0.534 136 128 143
0.079419 -0.407343 -0.538 188 180 195
0.0847933 -0.4187 -0.553 190 197 213
0.0864676 -0.421729 -0.557 191 198 214
0.369893 -0.433086 -0.572 98 113 144
0.39535 -0.432329 -0.571 218 218 220
0.416014 -0.432329 -0.571 95 127 184
0.418922 -0.433086 -0.572 90 128 193
0.421101 -0.433086 -0.572 133 160 213
0.433086 -0.433086 -0.572 108 137 179
0.445849 -0.433843 -0.573 194 199 205
0.456467 -0.4346 -0.574 184 191 201
0.474226 -0.433843 -0.573 146 162 198
0.4775 -0.433843 -0.573 95 122 169
0.496278 -0.433086 -0.572 132 140 161
0.498457 -0.433086 -0.572 151 157 157
0.504994 -0.433086 -0.572 164 163 169
0.499954 -0.417943 -0.552 136 109 98
0.47377 -0.374029 -0.494 170 124 101
0.484681 -0.368729 -0.487 166 119 93
0.492183 -0.369486 -0.488 171 121 96
-0.02814 -0.33474 -0.441 195 156 125
-0.02226 -0.33474 -0.441 197 158 127
0.0064 -0.340053 -0.448 178 136 112
0.00725333 -0.340053 -0.448 176 134 110
0.0124562 -0.34233 -0.451 167 124 105
0.029799 -0.354475 -0.467 138 105 96
0.0364886 -0.35903 -0.473 135 105 97
0.0566971 -0.373451 -0.492 132 104 100
0.0662819 -0.385596 -0.508 115 96 98
0.0847933 -0.419753 -0.553 191 198 216
0.37686 -0.433416 -0.571 211 211 219
0.417102 -0.433416 -0.571 81 125 190
0.453489 -0.434934 -0.573 184 190 202
0.458946 -0.434934 -0.573 178 183 187
0.494906 -0.412163 -0.543 139 109 99
0.47184 -0.38256 -0.504 165 123 101
0.472843 -0.375729 -0.495 167 121 98
0.481898 -0.369656 -0.487 172 122 99
0.492102 -0.369656 -0.487 169 122 94
-0.0505762 -0.425372 -0.559 189 154 126
-0.0105476 -0.337102 -0.443 192 151 119
-0.00803429 -0.337863 -0.444 194 151 119
-0.00465143 -0.337863 -0.444 191 150 120
-0.00127143 -0.338624 -0.445 183 142 114
0.0240952 -0.350038 -0.46 145 111 102
0.0335714 -0.357648 -0.47 137 107 99
0.0355124 -0.35917 -0.472 134 104 96
0.0453514 -0.366018 -0.481 137 108 100
0.0555333 -0.372867 -0.49 133 104 98
0.0688886 -0.390369 -0.513 113 93 94
0.0847933 -0.420807 -0.553 193 200 218
0.13612 -0.436787 -0.574 185 190 219
0.388143 -0.433743 -0.57 223 228 234
0.389229 -0.433743 -0.57 223 228 234
0.3914 -0.433743 -0.57 223 225 237
0.42254 -0.434504 -0.571 139 163 207
0.44725 -0.435265 -0.572 178 187 204
0.472043 -0.436026 -0.573 117 131 160
0.476667 -0.435265 -0.572 57 91 152
0.496498 -0.434504 -0.571 148 151 158
0.478895 -0.395695 -0.52 153 114 99
0.47188 -0.381998 -0.502 167 121 95
0.472863 -0.378954 -0.498 170 125 104
0.47377 -0.37591 -0.494 173 127 104
0.48097 -0.370584 -0.487 166 118 95
0.488391 -0.370584 -0.487 172 122 97
0.502408 -0.371345 -0.488 161 114 88
0.512978 -0.373628 -0.491 151 107 82
0.53 -0.380476 -0.5 148 106 82
0.539351 -0.385803 -0.507 145 105 80
-0.0238857 -0.335657 -0.44 196 157 128
-0.0122076 -0.337183 -0.442 194 153 123
0.00553429 -0.340997 -0.447 179 134 111
0.0064 -0.34176 -0.448 178 133 110
0.00725333 -0.34176 -0.448 177 132 111
0.0222943 -0.350151 -0.459 153 113 103
0.0268981 -0.353203 -0.463 140 106 97
0.0355124 -0.360069 -0.472 134 104 96
0.0443429 -0.366171 -0.48 137 108 100
0.0452571 -0.366171 -0.48 136 107 99
0.04922 -0.36846 -0.483 137 106 101
0.0513771 -0.370749 -0.486 136 105 100
0.079419 -0.410417 -0.538 197 199 211
0.365343 -0.434829 -0.57 103 129 164
0.372943 -0.434829 -0.57 227 227 237
0.439171 -0.434829 -0.57 195 200 204
0.452993 -0.435591 -0.571 143 161 185
0.455966 -0.436354 -0.572 167 172 192
0.466861 -0.436354 -0.572 179 183 195
0.487797 -0.435591 -0.571 39 74 130
0.47538 -0.391346 -0.513 153 119 94
0.491174 -0.371511 -0.487 171 121 94
0.495812 -0.371511 -0.487 168 118 91
0.501378 -0.371511 -0.487 165 115 90
0.509957 -0.373037 -0.489 161 114 88
-0.0288486 -0.33573 -0.439 195 158 129
-0.01722 -0.33726 -0.441 200 159 131
-0.0122076 -0.338025 -0.442 191 150 122
0.0250257 -0.352555 -0.461 145 111 101
0.0316457 -0.357909 -0.468 136 103 94
0.0502438 -0.370145 -0.484 136 105 100
0.0987743 -0.438209 -0.573 132 154 195
0.41239 -0.43515 -0.569 109 140 204
0.419976 -0.43515 -0.569 119 155 215
0.424311 -0.43515 -0.569 70 102 163
0.492371 -0.435914 -0.57 74 92 138
0.494543 -0.435914 -0.57 140 144 156
0.506681 -0.43515 -0.569 159 162 169
0.49764 -0.41756 -0.546 127 107 100
0.4728 -0.38544 -0.504 168 120 97
0.4756 -0.376263 -0.492 173 127 103
0.489319 -0.372439 -0.487 172 122 97
0.490247 -0.372439 -0.487 171 121 94
0.491174 -0.372439 -0.487 169 119 92
-0.0313571 -0.336567 -0.439 197 158 125
-0.01302 -0.3381 -0.441 191 150 120
-0.00801619 -0.339633 -0.443 193 149 122
0.00211905 -0.341167 -0.445 184 140 113
0.00725333 -0.343467 -0.448 176 131 108
0.00983524 -0.344233 -0.449 170 127 110
0.0240952 -0.352667 -0.46 147 113 103
0.02784 -0.355733 -0.464 138 104 94
0.03454 -0.3611 -0.471 134 104 94
0.0364886 -0.362633 -0.473 131 101 93
0.122571 -0.438533 -0.572 63 84 127
0.131288 -0.438533 -0.572 54 75 130
0.364702 -0.436233 -0.569 99 118 158
0.367953 -0.436233 -0.569 211 223 249
0.422144 -0.436233 -0.569 78 114 174
0.428647 -0.436233 -0.569 147 177 231
0.453286 -0.437 -0.57 152 166 192
0.473658 -0.437767 -0.571 56 87 152
0.501057 -0.437 -0.57 172 171 176
0.47471 -0.378733 -0.494 169 123 99
0.47824 -0.374133 -0.488 170 124 98
0.480099 -0.374133 -0.488 173 125 102
0.487464 -0.373367 -0.487 168 121 95
0.504161 -0.373367 -0.487 164 117 89
-0.0512714 -0.426557 -0.555 189 154 122
-0.0385667 -0.342014 -0.445 190 154 120
-0.0347019 -0.337403 -0.439 191 155 123
-0.0221086 -0.336634 -0.438 197 159 123
-0.0196505 -0.337403 -0.439 199 159 124
0.0150667 -0.347394 -0.452 161 120 102
0.0204114 -0.350469 -0.456 154 114 102
0.0403467 -0.36584 -0.476 133 105 93
0.0687543 -0.393509 -0.512 112 90 92
0.112766 -0.439623 -0.572 185 187 200
0.123661 -0.439623 -0.572 109 123 168
0.412747 -0.436549 -0.568 75 108 175
0.430057 -0.436549 -0.568 184 193 202
0.43763 -0.436549 -0.568 201 203 202
0.442736 -0.437317 -0.569 152 158 172
0.48934 -0.437317 -0.569 93 117 161
0.489852 -0.409649 -0.533 139 112 93
0.482654 -0.401963 -0.523 140 110 99
0.473738 -0.388129 -0.505 167 121 98
0.472849 -0.385054 -0.501 170 122 99
0.478289 -0.375831 -0.489 174 126 103
0.519646 -0.378137 -0.492 155 111 86
0.521641 -0.378906 -0.493 150 106 81
-0.0287829 -0.337469 -0.438 196 160 126
-0.0163429 -0.33901 -0.44 198 157 125
-0.00632857 -0.341321 -0.443 191 147 120
0.00296667 -0.342862 -0.445 182 138 113
0.00553429 -0.344403 -0.447 177 132 109
0.00638571 -0.344403 -0.447 175 130 107
0.0259038 -0.35519 -0.461 140 106 96
0.0315781 -0.359812 -0.467 138 105 96
0.0451629 -0.369058 -0.479 135 106 98
0.0776657 -0.410664 -0.533 191 193 206
0.119094 -0.439942 -0.571 124 141 167
0.123445 -0.439942 -0.571 131 146 185
0.143022 -0.439942 -0.571 160 171 193
0.373798 -0.43763 -0.568 175 178 187
0.446286 -0.43763 -0.568 173 179 193
0.45249 -0.438401 -0.569 178 190 202
0.4674 -0.439171 -0.57 178 184 198
0.484152 -0.43763 -0.568 38 69 124
0.49389 -0.43763 -0.568 102 108 130
0.475514 -0.392943 -0.51 158 119 102
0.473786 -0.381386 -0.495 169 123 99
0.48276 -0.374451 -0.486 172 125 99
0.485537 -0.374451 -0.486 169 122 94
0.494794 -0.374451 -0.486 168 118 91
-0.0508095 -0.42481 -0.55 192 157 125
-0.0372952 -0.339848 -0.44 189 154 124
-0.0245552 -0.33753 -0.437 193 157 123
-0.0229429 -0.338303 -0.438 194 158 124
-0.0188143 -0.339075 -0.439 199 160 127
0.00042381 -0.34371 -0.445 181 139 114
0.0150667 -0.349116 -0.452 161 120 102
0.02778 -0.357612 -0.463 135 102 93
0.0287238 -0.358385 -0.464 132 102 92
0.0344667 -0.363019 -0.47 134 104 96
0.0364114 -0.364564 -0.472 133 103 95
0.0373895 -0.365336 -0.473 135 105 97
0.0588095 -0.381556 -0.494 121 97 95
0.0635867 -0.387735 -0.502 113 95 95
0.113656 -0.44103 -0.571 185 187 200
0.41202 -0.43794 -0.567 61 97 157
0.41958 -0.43794 -0.567 74 111 179
0.42282 -0.43794 -0.567 71 110 167
0.439794 -0.438712 -0.568 204 201 210
0.479825 -0.438712 -0.568 50 93 146
0.48307 -0.438712 -0.568 67 106 161
0.504709 -0.438712 -0.568 170 167 178
0.473778 -0.388508 -0.503 164 118 92
0.476426 -0.377694 -0.489 172 125 99
0.481898 -0.37615 -0.487 176 129 103
0.485537 -0.375377 -0.486 169 122 94
0.486463 -0.375377 -0.486 170 123 95
0.516477 -0.377694 -0.489 158 112 86
-0.0187714 -0.339137 -0.438 199 160 127
0.00381429 -0.344557 -0.445 177 135 110
0.0055219 -0.345331 -0.446 176 134 110
0.0354371 -0.364689 -0.471 132 103 95
0.0431571 -0.369334 -0.477 134 105 97
0.0542657 -0.377077 -0.487 127 102 97
0.0564667 -0.3794 -0.49 124 100 96
0.126486 -0.441343 -0.57 178 183 203
0.419918 -0.438246 -0.566 120 158 207
0.429621 -0.438246 -0.566 177 185 198
0.44118 -0.43902 -0.567 203 203 213
0.457105 -0.439794 -0.568 196 194 205
0.464412 -0.440569 -0.569 146 147 165
0.47117 -0.439794 -0.568 176 189 208
0.473333 -0.439794 -0.568 155 176 195
0.48006 -0.43902 -0.567 63 104 158
0.4833 -0.43902 -0.567 67 99 150
0.489114 -0.410371 -0.53 140 106 96
0.47471 -0.382497 -0.494 167 121 95
0.492017 -0.376303 -0.486 171 121 94
-0.0328038 -0.338419 -0.436 193 154 121
-0.0311429 -0.338419 -0.436 194 155 122
-0.02616 -0.338419 -0.436 195 159 125
-0.0154343 -0.339971 -0.438 194 155 124
-0.00210952 -0.343852 -0.443 186 142 117
-0.00126857 -0.344629 -0.444 185 141 116
0.00896 -0.347733 -0.448 173 128 109
0.0159276 -0.350838 -0.452 160 118 106
0.0315105 -0.361705 -0.466 133 103 93
0.0401771 -0.367914 -0.474 133 104 96
0.0575171 -0.38111 -0.491 123 99 95
0.0598714 -0.384214 -0.495 118 94 90
0.415606 -0.439324 -0.566 75 115 174
0.430699 -0.439324 -0.566 170 180 190
0.432855 -0.439324 -0.566 205 206 210
0.49842 -0.4401 -0.567 152 156 168
0.50274 -0.4401 -0.567 169 169 177
0.474763 -0.387319 -0.499 173 119 91
0.487389 -0.377229 -0.486 173 123 98
0.488314 -0.377229 -0.486 167 117 92
0.500243 -0.376452 -0.485 168 118 91
-0.0253295 -0.33925 -0.436 197 158 125
-0.019561 -0.340028 -0.437 199 160 127
-0.0104524 -0.341584 -0.439 192 148 119
-0.00714 -0.34314 -0.441 190 146 119
-0.00546 -0.34314 -0.441 187 143 116
0.0353619 -0.365705 -0.47 132 103 95
0.0440657 -0.371151 -0.477 132 103 95
0.0481 -0.374264 -0.481 132 105 98
0.066021 -0.393716 -0.506 113 93 94
0.0701381 -0.400719 -0.515 112 92 93
0.0776657 -0.414725 -0.533 190 193 202
0.113258 -0.442736 -0.569 166 173 191
0.121929 -0.442736 -0.569 177 184 200
0.424557 -0.439624 -0.565 160 175 196
0.433167 -0.439624 -0.565 203 202 210
0.46926 -0.44118 -0.567 180 187 203
0.479213 -0.440402 -0.566 74 110 160
0.50166 -0.44118 -0.567 167 168 188
0.47824 -0.37971 -0.488 171 124 96
0.481898 -0.378932 -0.487 173 126 100
0.489157 -0.377376 -0.485 169 119 92
0.503014 -0.377376 -0.485 170 120 93
0.521267 -0.381267 -0.49 152 108 81
-0.0294143 -0.3393 -0.435 194 155 122
-0.0187286 -0.34086 -0.437 199 158 126
-0.00961619 -0.34242 -0.439 191 147 118
-0.00878 -0.34242 -0.439 190 146 117
0.0315105 -0.36348 -0.466 133 103 93
0.0411667 -0.3705 -0.475 132 103 95
0.0450686 -0.37284 -0.478 135 106 100
0.0759314 -0.41184 -0.528 197 185 195
0.423481 -0.4407 -0.565 206 213 231
0.425633 -0.4407 -0.565 193 200 218
0.434243 -0.4407 -0.565 208 208 220
0.437471 -0.4407 -0.565 207 211 220
0.474901 -0.44148 -0.566 97 121 149
0.488916 -0.44148 -0.566 175 179 188
0.494307 -0.44148 -0.566 108 118 143
0.506348 -0.4407 -0.565 164 166 178
0.509749 -0.43992 -0.564 106 114 125
0.484714 -0.40716 -0.522 135 107 95
0.474736 -0.39234 -0.503 168 121 101
0.48097 -0.37986 -0.487 172 125 99
0.486463 -0.37908 -0.486 173 126 98
0.489157 -0.3783 -0.485 168 118 91
0.491929 -0.3783 -0.485 172 122 95
0.5222 -0.3822 -0.49 151 107 80
1.00207 -0.43446 -0.557 186 189 178
1.01131 -0.43524 -0.558 179 180 172
-0.0554 -0.433175 -0.554 190 154 120
-0.04074 -0.34482 -0.441 190 154 122
-0.0378733 -0.341692 -0.437 196 157 124
-0.0211771 -0.34091 -0.436 198 157 125
-0.0178962 -0.341692 -0.437 197 156 124
-0.0162314 -0.341692 -0.437 193 152 122
0.0258476 -0.359676 -0.46 137 104 95
0.0296076 -0.362804 -0.464 130 100 90
0.0575171 -0.383915 -0.491 120 96 94
0.0609371 -0.387825 -0.496 114 93 92
0.0687543 -0.400335 -0.512 111 92 94
0.0811914 -0.424574 -0.543 188 191 200
0.128206 -0.444122 -0.568 154 156 169
0.134697 -0.444122 -0.568 191 191 191
0.41736 -0.440994 -0.564 117 156 199
0.425954 -0.440994 -0.564 140 148 169
0.438548 -0.441776 -0.565 204 208 217
0.445005 -0.441776 -0.565 200 202 214
0.453339 -0.442558 -0.566 198 197 211
0.46951 -0.442558 -0.566 192 192 204
0.482671 -0.441776 -0.565 74 107 148
0.500967 -0.441776 -0.565 168 171 178
0.505451 -0.440994 -0.564 160 164 176
0.508845 -0.440212 -0.563 100 108 119
0.49829 -0.378442 -0.484 169 119 92
0.518075 -0.380788 -0.487 154 113 85
-0.0540505 -0.431879 -0.551 191 155 121
-0.0219571 -0.340957 -0.435 198 157 125
-0.0120695 -0.342525 -0.437 189 145 118
0.00722095 -0.349579 -0.446 170 128 104
0.00894 -0.350363 -0.447 167 126 106
0.00979143 -0.350363 -0.447 165 124 104
0.01152 -0.351147 -0.448 160 122 103
0.0286619 -0.362904 -0.463 132 102 92
0.0315105 -0.365255 -0.466 131 101 91
0.0542657 -0.381715 -0.487 122 98 96
0.0609371 -0.38877 -0.496 113 91 93
0.0673819 -0.398959 -0.509 110 90 92
0.0687543 -0.40131 -0.512 110 91 95
0.0701381 -0.403662 -0.515 112 93 97
0.0811914 -0.425609 -0.543 182 185 192
0.14634 -0.44442 -0.567 74 95 138
0.15066 -0.44442 -0.567 191 195 206
0.437771 -0.442069 -0.564 200 205 211
0.438846 -0.442069 -0.564 207 209 221
0.450386 -0.442852 -0.565 200 198 211
0.452261 -0.443636 -0.566 200 198 211
0.474062 -0.442852 -0.565 98 118 143
0.490205 -0.442852 -0.565 177 177 187
0.491281 -0.442852 -0.565 177 177 187
0.492357 -0.442852 -0.565 175 177 192
0.503303 -0.442069 -0.564 140 147 165
0.504555 -0.441285 -0.563 149 155 171
0.476604 -0.396608 -0.506 162 117 94
0.475711 -0.392689 -0.501 169 121 98
0.475671 -0.387986 -0.495 171 125 101
0.481958 -0.382499 -0.488 171 124 96
0.482826 -0.381715 -0.487 170 123 95
0.50922 -0.37858 -0.483 162 115 89
0.596266 -0.425609 -0.543 197 187 177
0.972735 -0.435798 -0.556 174 176 165
1.00785 -0.440501 -0.562 148 151 144
1.00999 -0.440501 -0.562 139 141 136
1.01067 -0.438933 -0.56 132 133 127
-0.0301733 -0.341 -0.434 194 155 124
-0.02852 -0.341 -0.434 194 155 124
-0.0252133 -0.341 -0.434 195 156 123
-0.0129019 -0.343357 -0.437 187 146 118
0.00894 -0.351214 -0.447 167 124 105
0.01152 -0.352 -0.448 162 121 103
0.0221971 -0.359071 -0.457 146 110 98
0.03618 -0.3685 -0.469 131 102 94
0.0420714 -0.373214 -0.475 130 102 91
0.0609371 -0.389714 -0.496 112 90 92
0.0621314 -0.391286 -0.498 111 89 91
0.0646714 -0.395214 -0.503 109 89 91
0.0989943 -0.446286 -0.568 82 105 149
0.10422 -0.4455 -0.567 159 169 196
0.11502 -0.4455 -0.567 161 175 204
0.12042 -0.4455 -0.567 184 191 199
0.122796 -0.446286 -0.568 184 191 199
0.1269 -0.4455 -0.567 189 193 204
0.406969 -0.442357 -0.563 163 184 211
0.41233 -0.442357 -0.563 135 168 209
0.438846 -0.443143 -0.564 208 207 215
0.460071 -0.443929 -0.565 81 96 117
0.465703 -0.443143 -0.564 166 169 178
0.50008 -0.443143 -0.564 130 143 160
0.507772 -0.442357 -0.563 142 155 172
0.485643 -0.410929 -0.523 138 110 99
0.480099 -0.383429 -0.488 172 125 97
0.488233 -0.381071 -0.485 171 122 92
0.493776 -0.381071 -0.485 168 118 91
0.502657 -0.378714 -0.482 171 121 94
0.930531 -0.438429 -0.558 192 194 180
0.973046 -0.438429 -0.558 150 152 141
0.978667 -0.44 -0.56 144 145 137
0.977668 -0.437643 -0.557 169 172 163
0.985437 -0.439214 -0.559 159 162 155
0.996443 -0.440786 -0.561 136 138 133
1.00822 -0.443143 -0.564 120 122 117
1.01395 -0.444714 -0.566 116 118 113
1.01826 -0.444714 -0.566 110 112 107
1.02359 -0.442357 -0.563 110 111 106
-0.0276933 -0.341827 -0.434 195 156 125
0.00635714 -0.35049 -0.445 170 128 106
0.0176495 -0.356004 -0.452 150 112 99
0.0221486 -0.359154 -0.456 145 109 97
0.0701381 -0.405624 -0.515 112 91 96
0.0716714 -0.408774 -0.519 113 94 100
0.444217 -0.444217 -0.564 196 196 208
0.446366 -0.444217 -0.564 139 145 157
0.452811 -0.444217 -0.564 198 197 203
0.458183 -0.444217 -0.564 101 117 140
0.47 -0.444217 -0.564 179 188 195
0.480963 -0.44343 -0.563 113 139 166
0.480305 -0.403261 -0.512 146 111 92
0.476661 -0.395385 -0.502 165 121 92
0.4757 -0.391447 -0.497 165 121 96
0.475688 -0.390659 -0.496 168 124 99
0.491929 -0.381995 -0.485 173 123 96
0.50633 -0.379632 -0.482 171 120 93
0.522857 -0.384358 -0.488 156 111 82
0.902838 -0.437916 -0.556 195 198 181
0.919567 -0.44343 -0.563 195 196 180
0.92934 -0.44658 -0.567 192 193 177
0.960027 -0.437916 -0.556 138 140 129
0.965997 -0.438704 -0.557 129 130 122
0.982933 -0.441067 -0.56 133 136 129
1.00964 -0.445792 -0.566 105 107 102
-0.0385286 -0.343443 -0.435 192 156 122
-0.0317533 -0.341864 -0.433 193 155 119
-0.0268048 -0.341864 -0.433 196 157 124
-0.0161571 -0.343443 -0.435 190 149 117
-0.0104048 -0.345022 -0.437 188 145 113
-0.00377143 -0.34739 -0.44 186 142 113
0.0203219 -0.358444 -0.454 148 110 97
0.0323981 -0.367918 -0.466 133 103 95
0.0509543 -0.38055 -0.482 128 100 89
0.100802 -0.44687 -0.566 147 166 199
0.105114 -0.44687 -0.566 178 185 227
0.125598 -0.44687 -0.566 187 189 202
0.128832 -0.44687 -0.566 187 187 195
0.442357 -0.444502 -0.563 201 202 220
0.449589 -0.445291 -0.564 192 196 208
0.458183 -0.445291 -0.564 119 137 161
0.460331 -0.445291 -0.564 166 176 201
0.465703 -0.445291 -0.564 189 193 204
0.466777 -0.445291 -0.564 195 196 201
0.478818 -0.444502 -0.563 153 171 195
0.48418 -0.444502 -0.563 102 125 159
0.489542 -0.444502 -0.563 182 179 190
0.495976 -0.444502 -0.563 175 174 188
0.498121 -0.444502 -0.563 141 150 159
0.502589 -0.443712 -0.562 85 105 140
0.509174 -0.442923 -0.561 84 103 135
0.493913 -0.420816 -0.533 125 102 96
0.482138 -0.406605 -0.515 140 111 97
0.475709 -0.393183 -0.498 163 119 94
0.507111 -0.379761 -0.481 165 115 90
0.519789 -0.383709 -0.486 161 115 89
0.931534 -0.449239 -0.569 187 188 174
0.965867 -0.442133 -0.56 117 117 109
0.981765 -0.444502 -0.563 104 105 99
0.98391 -0.444502 -0.563 101 102 97
0.993177 -0.445291 -0.564 102 104 99
-0.0251552 -0.342689 -0.433 195 156 123
-0.0120419 -0.345063 -0.436 186 145 113
-0.00709143 -0.346646 -0.438 186 143 111
-0.00293333 -0.348229 -0.44 182 138 109
-0.00042 -0.34902 -0.441 181 137 110
0.00126286 -0.349811 -0.442 178 134 109
0.00210476 -0.349811 -0.442 176 132 107
0.0267238 -0.364057 -0.46 134 101 92
0.0380476 -0.371971 -0.47 135 105 95
0.109427 -0.447949 -0.566 61 81 114
0.111583 -0.447949 -0.566 146 156 181
0.428726 -0.444783 -0.562 197 207 216
0.435149 -0.444783 -0.562 190 198 217
0.448791 -0.445574 -0.563 190 193 212
0.458443 -0.445574 -0.563 174 191 217
0.460588 -0.445574 -0.563 192 194 215
0.48418 -0.445574 -0.563 95 123 162
0.500448 -0.444783 -0.562 69 84 125
0.509174 -0.443991 -0.561 55 77 114
0.476666 -0.396506 -0.501 164 121 87
0.476614 -0.391757 -0.495 168 122 96
0.481958 -0.386217 -0.488 174 127 99
0.489157 -0.383843 -0.485 175 126 96
0.495524 -0.383051 -0.484 170 123 95
0.500698 -0.380677 -0.481 167 120 90
0.505279 -0.380677 -0.481 166 119 93
-0.0317533 -0.343513 -0.433 193 155 119
-0.0309286 -0.343513 -0.433 195 157 121
-0.0243305 -0.343513 -0.433 193 154 121
-0.022681 -0.343513 -0.433 194 155 122
-0.0186 -0.344307 -0.434 190 149 117
0.00378857 -0.350653 -0.442 174 132 107
0.00549714 -0.35224 -0.444 172 130 108
0.0185105 -0.358587 -0.452 149 111 98
0.0248629 -0.363347 -0.458 137 104 95
0.0687543 -0.406187 -0.512 109 91 91
0.441571 -0.445853 -0.562 189 199 224
0.445853 -0.445853 -0.562 160 176 191
0.48225 -0.445853 -0.562 108 132 158
0.496166 -0.445853 -0.562 169 170 174
0.500626 -0.44506 -0.561 47 73 122
0.5049 -0.44506 -0.561 78 107 147
0.502146 -0.43078 -0.543 122 98 94
0.4776 -0.39984 -0.504 154 116 93
0.476614 -0.3927 -0.495 169 125 100
0.476592 -0.391907 -0.494 167 125 100
0.482014 -0.38794 -0.489 174 127 101
0.490081 -0.384767 -0.485 174 125 95
0.4945 -0.38318 -0.483 172 125 97
0.497149 -0.382387 -0.482 167 118 88
0.503447 -0.381593 -0.481 170 120 93
0.510776 -0.381593 -0.481 162 116 90
0.528733 -0.388733 -0.49 148 109 76
-0.0357943 -0.343543 -0.432 191 155 123
-0.0349714 -0.343543 -0.432 191 152 119
-0.0341486 -0.343543 -0.432 190 151 118
-0.0300343 -0.343543 -0.432 192 156 124
-0.0267429 -0.343543 -0.432 192 153 120
-0.0243305 -0.344338 -0.433 192 153 120
-0.0235057 -0.344338 -0.433 194 155 122
-0.0128429 -0.345929 -0.435 184 143 111
-0.0112114 -0.346724 -0.436 183 142 112
-0.00458857 -0.348314 -0.438 183 140 108
0.0248629 -0.364219 -0.458 137 104 95
0.0447857 -0.377738 -0.475 132 102 92
0.0509543 -0.383305 -0.482 127 100 91
0.06346 -0.398414 -0.501 109 88 85
0.441571 -0.446924 -0.562 187 203 229
0.444783 -0.446924 -0.562 123 139 164
0.445853 -0.446924 -0.562 139 157 177
0.468333 -0.446924 -0.562 176 175 180
0.48439 -0.446924 -0.562 93 119 154
0.486531 -0.446924 -0.562 103 120 140
0.487602 -0.446924 -0.562 146 149 158
0.503831 -0.446129 -0.561 49 81 128
0.478374 -0.390462 -0.491 173 129 102
0.485609 -0.387281 -0.487 175 125 98
0.49542 -0.3841 -0.483 172 123 93
0.5024 -0.381714 -0.48 169 119 92
0.507886 -0.381714 -0.48 163 116 88
0.522566 -0.386486 -0.486 158 114 85
0.527654 -0.388871 -0.489 151 112 81
0.851529 -0.441357 -0.555 199 199 189
-0.0348905 -0.343569 -0.431 191 152 121
-0.0332486 -0.343569 -0.431 190 151 118
-0.0325029 -0.344366 -0.432 192 153 120
-0.0308571 -0.344366 -0.432 195 156 123
-0.0283886 -0.344366 -0.432 191 155 123
-0.0275657 -0.344366 -0.432 191 155 123
-0.0218562 -0.345163 -0.433 190 151 118
-0.0185571 -0.345163 -0.433 190 149 117
0.0221 -0.3627 -0.455 144 108 96
0.0276 -0.366686 -0.46 136 104 93
0.0427952 -0.377049 -0.473 132 102 94
0.0597505 -0.393789 -0.494 113 95 95
0.0618819 -0.395383 -0.496 110 92 92
0.0712571 -0.411326 -0.516 107 91 91
0.102594 -0.449589 -0.564 45 76 133
0.106891 -0.449589 -0.564 141 151 186
0.408 -0.4464 -0.56 153 174 203
0.4176 -0.4464 -0.56 151 176 207
0.440786 -0.447197 -0.561 172 195 226
0.441854 -0.447197 -0.561 185 208 239
0.463226 -0.447197 -0.561 200 201 203
0.466192 -0.447994 -0.562 195 198 203
0.473911 -0.447197 -0.561 123 147 183
0.484947 -0.41292 -0.518 142 104 91
0.480423 -0.404949 -0.508 154 116 95
0.477606 -0.396977 -0.498 163 121 99
0.478333 -0.3906 -0.49 170 126 99
0.497829 -0.382629 -0.48 172 122 95
0.499657 -0.382629 -0.48 166 116 89
0.500571 -0.382629 -0.48 166 116 89
0.531683 -0.391397 -0.491 147 110 83
0.587227 -0.42408 -0.532 152 127 105
0.841413 -0.443211 -0.556 193 195 182
0.858358 -0.443211 -0.556 185 185 175
-0.0590829 -0.438677 -0.549 187 152 120
-0.026681 -0.34439 -0.431 193 154 121
-0.0185571 -0.345988 -0.433 189 148 116
-0.0120143 -0.347586 -0.435 183 142 112
-0.00872 -0.348385 -0.436 184 140 111
0.00294 -0.35238 -0.441 175 133 108
0.00378 -0.35238 -0.441 175 133 108
0.0239381 -0.365165 -0.457 138 105 96
0.0498286 -0.383543 -0.48 128 101 94
0.05198 -0.38594 -0.483 125 98 91
0.0712571 -0.412309 -0.516 106 90 91
0.103669 -0.450663 -0.564 44 74 134
0.438933 -0.447467 -0.56 129 163 200
0.44506 -0.448266 -0.561 90 113 145
0.450403 -0.448266 -0.561 106 130 168
0.471774 -0.448266 -0.561 79 114 156
0.484139 -0.41071 -0.514 145 108 92
0.477557 -0.395529 -0.495 167 122 99
0.49174 -0.38594 -0.483 176 127 97
0.494394 -0.385141 -0.482 173 124 94
0.496117 -0.384342 -0.481 168 118 91
0.496914 -0.383543 -0.48 172 123 93
0.500571 -0.383543 -0.48 168 118 91
0.502266 -0.382744 -0.479 169 120 88
0.505915 -0.382744 -0.479 166 117 87
0.582811 -0.421897 -0.528 136 106 82
0.58824 -0.425093 -0.532 141 123 113
0.858257 -0.445869 -0.558 166 166 156
0.85932 -0.445869 -0.558 164 164 154
-0.0373533 -0.34521 -0.431 195 159 127
0.0369943 -0.374846 -0.468 133 103 93
0.0571657 -0.390865 -0.488 116 95 90
0.0595086 -0.394069 -0.492 112 94 92
0.0743581 -0.419699 -0.524 180 171 176
0.418984 -0.447732 -0.559 184 201 221
0.423243 -0.447732 -0.559 165 166 161
0.4464 -0.448533 -0.56 129 163 209
0.456 -0.448533 -0.56 176 193 219
0.458133 -0.448533 -0.56 176 176 176
0.463467 -0.448533 -0.56 197 201 204
0.496533 -0.448533 -0.56 164 171 177
0.482888 -0.390865 -0.488 175 129 105
0.489157 -0.388462 -0.485 177 130 104
0.818337 -0.443728 -0.554 193 195 184
0.836561 -0.44613 -0.557 161 161 151
0.838683 -0.44613 -0.557 157 157 147
0.848083 -0.447732 -0.559 150 150 140
0.866667 -0.448533 -0.56 126 126 116
-0.0282571 -0.345229 -0.43 195 156 123
-0.0233971 -0.346031 -0.431 193 152 120
-0.00374571 -0.350849 -0.437 178 134 105
0.00974762 -0.357271 -0.445 155 117 96
0.0123457 -0.358877 -0.447 151 113 92
0.0158219 -0.360483 -0.449 154 115 98
0.0175714 -0.361286 -0.45 150 113 95
0.0341 -0.373329 -0.465 136 103 94
0.0507429 -0.385371 -0.48 129 100 94
0.0644143 -0.402231 -0.501 107 89 87
0.0669848 -0.406246 -0.506 106 88 86
0.0991952 -0.452009 -0.563 41 66 130
0.437085 -0.448797 -0.559 74 111 163
0.441344 -0.448797 -0.559 83 115 174
0.445333 -0.4496 -0.56 99 131 180
0.454933 -0.4496 -0.56 148 164 187
0.47861 -0.448797 -0.559 78 111 162
0.493303 -0.423909 -0.528 127 98 92
0.48504 -0.414274 -0.516 140 104 92
0.480471 -0.405443 -0.505 158 113 94
0.495086 -0.385371 -0.48 173 124 94
0.496914 -0.385371 -0.48 174 125 93
0.50577 -0.383766 -0.478 161 114 84
0.510477 -0.384569 -0.479 161 116 85
0.5152 -0.385371 -0.48 153 108 79
0.597949 -0.431937 -0.538 196 180 167
0.6012 -0.433543 -0.54 192 189 174
0.804619 -0.444783 -0.554 183 185 174
0.84063 -0.448797 -0.559 125 127 116
0.868691 -0.451206 -0.562 118 118 110
0.869762 -0.451206 -0.562 118 118 110
-0.0389048 -0.346048 -0.43 196 157 126
-0.00952857 -0.350071 -0.435 184 141 109
-0.00291333 -0.351681 -0.437 179 135 106
0.0229162 -0.365362 -0.454 144 108 92
0.0238333 -0.366167 -0.455 142 108 96
0.0349857 -0.374214 -0.465 136 103 94
0.0644143 -0.403186 -0.501 108 89 85
0.105442 -0.452276 -0.562 101 126 166
0.459445 -0.449862 -0.559 202 203 207
0.463467 -0.450667 -0.56 199 203 204
0.474351 -0.449862 -0.559 100 133 176
0.484131 -0.449057 -0.558 88 116 155
0.505544 -0.448252 -0.557 29 55 104
0.48731 -0.39031 -0.485 177 130 102
0.493476 -0.387895 -0.482 173 124 92
0.494171 -0.386286 -0.48 173 124 94
0.498486 -0.384676 -0.478 174 123 92
0.50668 -0.384676 -0.478 163 116 86
0.511232 -0.384676 -0.478 162 117 86
0.802509 -0.445838 -0.554 162 163 155
0.821708 -0.448252 -0.557 145 146 138
0.863803 -0.453081 -0.563 116 115 110
-0.0330943 -0.34606 -0.429 191 155 121
-0.0298257 -0.34606 -0.429 196 157 124
-0.024981 -0.346867 -0.43 194 153 121
-0.0217552 -0.347673 -0.431 191 150 120
-0.0168686 -0.34848 -0.432 186 145 113
-0.0144333 -0.349287 -0.433 186 143 111
-0.0127838 -0.349287 -0.433 185 142 110
-0.00374571 -0.352513 -0.437 179 135 106
0.00546 -0.35574 -0.441 163 123 98
0.0158219 -0.362193 -0.449 151 114 95
0.0175714 -0.363 -0.45 149 112 94
0.0238333 -0.367033 -0.455 142 109 94
0.025679 -0.368647 -0.457 139 106 91
0.0407333 -0.379133 -0.47 135 102 93
0.0810419 -0.437213 -0.542 56 80 124
0.428094 -0.449313 -0.557 221 225 224
0.431277 -0.449313 -0.557 182 193 211
0.440554 -0.45012 -0.558 56 92 152
0.459445 -0.450927 -0.559 195 198 203
0.474566 -0.45012 -0.558 81 118 163
0.475629 -0.45012 -0.558 78 113 167
0.486257 -0.45012 -0.558 176 184 197
0.489446 -0.45012 -0.558 143 142 140
0.495823 -0.45012 -0.558 168 175 181
0.499011 -0.45012 -0.558 147 161 190
0.501137 -0.45012 -0.558 87 108 153
0.497974 -0.429953 -0.533 121 97 85
0.48786 -0.41866 -0.519 133 100 91
0.479524 -0.403333 -0.5 163 116 96
0.49174 -0.38962 -0.483 174 125 95
0.496791 -0.386393 -0.479 175 124 93
0.527033 -0.391233 -0.485 146 109 83
0.530134 -0.392847 -0.487 144 107 81
0.791956 -0.446893 -0.554 139 138 133
0.797614 -0.4477 -0.555 132 133 128
0.809642 -0.448507 -0.556 126 127 119
0.821057 -0.45012 -0.558 120 121 115
-0.0290086 -0.346877 -0.429 196 158 122
-0.0273743 -0.346877 -0.429 194 156 120
-0.0152229 -0.349303 -0.432 187 143 114
0.0105952 -0.359814 -0.445 153 114 97
0.0166771 -0.363049 -0.449 149 112 94
0.0407333 -0.380029 -0.47 133 103 92
0.0571657 -0.394583 -0.488 117 92 88
0.0947371 -0.454417 -0.562 67 97 147
0.102049 -0.453609 -0.561 137 158 189
0.390961 -0.450374 -0.557 220 230 240
0.393083 -0.450374 -0.557 222 221 229
0.399449 -0.450374 -0.557 222 226 225
0.42385 -0.450374 -0.557 226 225 231
0.427033 -0.450374 -0.557 181 183 182
0.428094 -0.450374 -0.557 189 191 190
0.453056 -0.451991 -0.559 174 194 218
0.45625 -0.451991 -0.559 191 191 199
0.466898 -0.451991 -0.559 128 153 184
0.467963 -0.451991 -0.559 97 122 153
0.476691 -0.451183 -0.558 58 98 157
0.482006 -0.451183 -0.558 61 101 160
0.485386 -0.450374 -0.557 166 174 193
0.479384 -0.398626 -0.493 167 121 95
0.487389 -0.392966 -0.486 176 126 99
0.489992 -0.391349 -0.484 174 124 97
0.492558 -0.389731 -0.482 170 121 91
0.520854 -0.388923 -0.481 155 114 86
0.527957 -0.392157 -0.485 144 107 80
0.538389 -0.397817 -0.492 138 104 77
0.855033 -0.456843 -0.565 116 115 110
0.857186 -0.456843 -0.565 119 118 113
0.859781 -0.457651 -0.566 119 118 113
-0.0355457 -0.347694 -0.429 191 155 119
-0.0339114 -0.347694 -0.429 191 155 119
-0.0290086 -0.347694 -0.429 196 158 119
-0.0184714 -0.349315 -0.431 189 149 113
-0.0103333 -0.351747 -0.434 182 138 111
-0.00868 -0.351747 -0.434 181 137 110
0.00801619 -0.359041 -0.443 159 118 98
0.0157867 -0.363093 -0.448 151 112 95
0.0247 -0.368767 -0.455 142 106 92
0.0330714 -0.37525 -0.463 135 103 90
0.0416286 -0.380924 -0.47 132 102 91
0.0426143 -0.381734 -0.471 131 101 91
0.0436038 -0.382545 -0.472 131 101 91
0.0549667 -0.393081 -0.485 117 93 91
0.0606914 -0.400375 -0.494 110 89 86
0.0700019 -0.416585 -0.514 103 92 96
0.0795667 -0.436847 -0.539 112 133 162
0.480081 -0.451435 -0.557 69 110 164
0.487508 -0.451435 -0.557 181 179 193
0.49162 -0.423879 -0.523 130 97 88
0.48118 -0.397944 -0.491 177 125 103
0.482067 -0.397133 -0.49 167 120 94
0.484681 -0.394702 -0.487 168 118 93
0.489992 -0.39227 -0.484 172 122 95
0.49082 -0.39146 -0.483 174 124 97
0.492452 -0.389839 -0.481 172 123 93
0.52578 -0.39146 -0.483 146 106 80
0.53199 -0.394702 -0.487 140 105 77
0.807622 -0.453056 -0.559 97 96 94
0.86238 -0.45954 -0.567 120 120 110
0.878886 -0.461971 -0.57 126 126 118
0.884149 -0.463592 -0.572 124 125 117
-0.04588 -0.352573 -0.434 188 152 118
-0.0403543 -0.347699 -0.428 194 158 124
-0.0265571 -0.348511 -0.429 191 151 115
-0.0233429 -0.349324 -0.43 190 150 114
-0.0217048 -0.349324 -0.43 189 149 113
-0.0192476 -0.349324 -0.43 190 150 114
0.000417143 -0.355823 -0.438 171 126 105
0.0292886 -0.372883 -0.459 136 102 90
0.0302286 -0.373695 -0.46 137 103 91
0.049621 -0.388318 -0.478 127 98 92
0.0582143 -0.397254 -0.489 113 89 85
0.081341 -0.441935 -0.544 160 177 197
0.470532 -0.452496 -0.557 67 111 172
0.494934 -0.452496 -0.557 108 123 142
0.495995 -0.452496 -0.557 104 125 152
0.49719 -0.430562 -0.53 123 98 93
0.480433 -0.403753 -0.497 164 120 95
0.489992 -0.393192 -0.484 173 123 96
0.494844 -0.388318 -0.478 171 122 92
0.498486 -0.388318 -0.478 174 125 95
0.506373 -0.386693 -0.476 169 122 92
0.50728 -0.386693 -0.476 169 122 92
0.815168 -0.456558 -0.562 101 99 100
0.825872 -0.456558 -0.562 122 121 116
0.828013 -0.456558 -0.562 120 119 114
0.831631 -0.45737 -0.563 119 118 113
0.859573 -0.461432 -0.568 119 120 112
0.87934 -0.46387 -0.571 119 120 112
-0.0411695 -0.348514 -0.428 196 160 126
-0.0379086 -0.348514 -0.428 192 156 122
-0.0370933 -0.348514 -0.428 191 155 121
-0.0313867 -0.348514 -0.428 195 157 121
-0.0273743 -0.349329 -0.429 193 153 118
-0.0265571 -0.349329 -0.429 192 152 117
-0.0168295 -0.350957 -0.431 189 144 115
-0.0062 -0.3534 -0.434 177 133 106
0.000417143 -0.356657 -0.438 170 125 104
0.0105714 -0.361543 -0.444 155 117 98
0.0201876 -0.367243 -0.451 145 107 96
0.0416286 -0.382714 -0.47 134 102 91
0.06576 -0.4104 -0.504 99 83 86
0.07294 -0.424243 -0.521 130 128 149
0.433957 -0.451929 -0.555 149 173 221
0.437129 -0.451929 -0.555 57 94 162
0.449313 -0.453557 -0.557 97 131 192
0.453557 -0.453557 -0.557 173 176 193
0.462045 -0.453557 -0.557 193 202 211
0.480278 -0.452743 -0.556 41 82 144
0.48875 -0.452743 -0.556 174 177 186
0.481433 -0.411214 -0.505 151 107 94
0.816618 -0.458443 -0.563 100 99 97
0.84186 -0.4617 -0.567 128 129 121
0.855668 -0.463329 -0.569 112 113 107
0.861514 -0.464143 -0.57 102 104 99
-0.0338324 -0.34933 -0.428 194 156 120
-0.0281257 -0.34933 -0.428 193 152 120
-0.0143667 -0.351778 -0.431 183 140 108
0.000417143 -0.357491 -0.438 168 126 104
0.00292667 -0.358308 -0.439 168 125 106
0.0157514 -0.364837 -0.447 149 112 96
0.01664 -0.365653 -0.448 149 112 96
0.0175324 -0.36647 -0.449 148 111 95
0.0339533 -0.377896 -0.463 134 102 91
0.0348352 -0.377896 -0.463 134 102 91
0.0406467 -0.382793 -0.469 129 99 89
0.0570486 -0.397485 -0.487 112 91 86
0.0974257 -0.45625 -0.559 96 110 139
0.124045 -0.45625 -0.559 170 173 180
0.4255 -0.452986 -0.555 211 218 234
0.428671 -0.452986 -0.555 181 184 193
0.45674 -0.454618 -0.557 99 125 162
0.46651 -0.453802 -0.556 65 106 160
0.471806 -0.453802 -0.556 39 82 151
0.47816 -0.453802 -0.556 43 88 156
0.48981 -0.453802 -0.556 157 161 170
0.490781 -0.424419 -0.52 134 100 90
0.484681 -0.397485 -0.487 172 125 99
0.494844 -0.390139 -0.478 168 121 93
0.496534 -0.389323 -0.477 175 126 96
0.49912 -0.388507 -0.476 176 127 97
0.521426 -0.390955 -0.479 156 112 83
0.523429 -0.391771 -0.48 153 112 84
0.871727 -0.466045 -0.571 122 127 120
-0.0614267 -0.443408 -0.542 187 153 116
-0.0454571 -0.351781 -0.43 193 154 123
-0.04026 -0.349327 -0.427 191 155 121
-0.0394467 -0.349327 -0.427 190 154 120
-0.0249229 -0.350963 -0.429 191 150 118
-0.0208371 -0.350963 -0.429 191 147 118
-0.02002 -0.350963 -0.429 191 147 118
-0.0111086 -0.353417 -0.432 182 138 111
-0.00207619 -0.35669 -0.436 170 128 106
0.00715619 -0.361598 -0.442 161 120 102
0.0264914 -0.373051 -0.456 139 102 93
0.0700019 -0.420501 -0.514 96 88 101
0.07294 -0.426228 -0.521 98 100 123
0.0921019 -0.457315 -0.559 85 109 155
0.0931667 -0.457315 -0.559 93 121 171
0.128074 -0.456497 -0.558 192 192 204
0.43001 -0.453225 -0.554 125 136 156
0.441357 -0.454043 -0.555 49 90 156
0.446389 -0.454861 -0.556 41 79 150
0.448507 -0.454861 -0.556 69 107 170
0.452743 -0.454861 -0.556 75 103 150
0.453802 -0.454861 -0.556 72 106 154
0.464392 -0.454861 -0.556 85 113 153
0.476243 -0.454043 -0.555 48 93 158
0.479414 -0.454043 -0.555 52 94 154
0.494214 -0.454043 -0.555 76 100 138
0.494379 -0.453225 -0.554 130 146 172
0.495434 -0.453225 -0.554 127 144 170
0.501766 -0.453225 -0.554 29 66 119
0.492669 -0.427046 -0.522 131 98 89
0.482401 -0.411502 -0.503 148 110 91
0.482398 -0.410684 -0.502 149 111 88
0.4814 -0.407411 -0.498 155 115 90
0.480411 -0.405775 -0.496 155 115 89
0.482115 -0.401685 -0.491 160 119 97
0.484681 -0.398412 -0.487 171 125 99
0.498351 -0.390231 -0.477 177 128 96
0.50876 -0.387777 -0.474 161 116 87
0.524343 -0.392686 -0.48 155 114 86
0.5357 -0.398412 -0.487 145 108 81
0.833907 -0.463042 -0.566 129 128 123
0.843746 -0.465496 -0.569 105 106 100
0.8565 -0.467132 -0.571 107 110 103
-0.0401657 -0.34932 -0.426 190 154 120
-0.0393543 -0.34932 -0.426 189 153 119
-0.0119314 -0.35424 -0.432 181 137 110
-0.00538571 -0.3567 -0.435 171 129 104
0.00041619 -0.35834 -0.437 168 126 104
0.00714 -0.36162 -0.441 160 119 101
0.0246457 -0.37228 -0.454 142 105 96
0.0515495 -0.39278 -0.479 122 93 87
0.0570486 -0.39934 -0.487 111 91 92
0.0605686 -0.40426 -0.493 106 88 88
0.07308 -0.42804 -0.522 138 140 153
0.402573 -0.45428 -0.554 92 128 188
0.419457 -0.45428 -0.554 137 153 178
0.433175 -0.45428 -0.554 79 109 161
0.440562 -0.45428 -0.554 42 85 153
0.458038 -0.45592 -0.556 148 165 172
0.461215 -0.45592 -0.556 176 183 193
0.485757 -0.4551 -0.555 153 169 182
0.4986 -0.45428 -0.554 116 140 166
0.50102 -0.43706 -0.533 119 92 85
0.489157 -0.3977 -0.485 170 125 96
0.846314 -0.4674 -0.57 100 101 96
0.864957 -0.46986 -0.573 97 99 94
0.872164 -0.46904 -0.572 125 130 124
0.892322 -0.47396 -0.578 101 104 95
-0.0637257 -0.447116 -0.544 185 149 115
-0.0192029 -0.352597 -0.429 187 143 114
-0.0151524 -0.353419 -0.43 183 139 110
-0.0119038 -0.354241 -0.431 181 137 110
0.00544762 -0.361638 -0.44 162 119 100
0.0175324 -0.369035 -0.449 149 111 98
0.0219057 -0.370679 -0.451 142 105 96
0.0255667 -0.373967 -0.455 138 104 95
0.0282905 -0.37561 -0.457 136 102 93
0.42818 -0.454513 -0.553 85 120 162
0.443471 -0.456157 -0.555 43 82 147
0.4551 -0.456157 -0.555 107 131 177
0.467786 -0.456157 -0.555 102 135 189
0.480471 -0.456157 -0.555 90 135 190
0.481297 -0.406021 -0.494 156 115 87
0.48731 -0.398624 -0.485 168 121 95
0.491536 -0.395336 -0.481 174 127 101
0.507857 -0.389583 -0.474 167 120 90
0.50876 -0.389583 -0.474 168 121 91
0.51816 -0.391227 -0.476 158 115 83
0.5418 -0.402733 -0.49 146 106 80
0.829656 -0.467664 -0.569 113 112 108
0.87478 -0.470951 -0.573 120 123 114
-0.0416905 -0.350119 -0.425 196 158 122
-0.0400714 -0.350119 -0.425 193 154 121
-0.0344857 -0.350943 -0.426 194 154 119
-0.0336743 -0.350943 -0.426 195 155 120
-0.03124 -0.350943 -0.426 196 156 121
-0.0304286 -0.350943 -0.426 195 155 120
-0.022419 -0.35259 -0.428 188 144 115
-0.0110829 -0.355062 -0.431 179 135 108
-0.0029 -0.358357 -0.435 172 127 104
-0.00207619 -0.359181 -0.436 171 126 103
0.00208571 -0.360829 -0.438 168 126 104
0.00970381 -0.364948 -0.443 158 116 100
0.0264333 -0.374833 -0.455 136 102 93
0.0558905 -0.399548 -0.485 115 91 91
0.0570486 -0.401195 -0.487 111 90 87
0.395527 -0.455567 -0.553 164 172 193
0.43134 -0.455567 -0.553 127 150 194
0.459329 -0.457214 -0.555 196 204 215
0.477495 -0.45639 -0.554 83 134 189
0.488929 -0.457214 -0.555 177 188 194
0.510208 -0.45639 -0.554 26 57 104
0.511263 -0.45639 -0.554 34 65 112
0.493142 -0.394605 -0.479 173 126 98
0.495626 -0.392957 -0.477 168 121 93
0.507857 -0.390486 -0.474 169 122 92
0.507687 -0.389662 -0.473 169 122 92
0.514177 -0.390486 -0.474 158 115 83
0.833608 -0.467924 -0.568 121 122 117
0.83941 -0.468748 -0.569 100 101 96
0.858409 -0.472043 -0.573 101 103 98
0.875213 -0.472867 -0.574 124 127 120
0.88331 -0.47369 -0.575 26 29 20
-0.0473143 -0.356709 -0.432 186 152 117
-0.00454667 -0.35836 -0.434 171 129 104
-0.000415238 -0.360011 -0.436 169 124 101
0.00375429 -0.361663 -0.438 163 121 99
0.0139857 -0.367443 -0.445 151 112 95
0.0444086 -0.388911 -0.471 127 97 89
0.0515495 -0.395517 -0.479 120 93 86
0.06862 -0.42194 -0.511 98 83 86
0.0917724 -0.459923 -0.557 127 153 186
0.118296 -0.459923 -0.557 162 167 187
0.419753 -0.45662 -0.553 198 216 228
0.441617 -0.457446 -0.554 40 81 145
0.498443 -0.458271 -0.555 126 141 162
0.503876 -0.457446 -0.554 38 65 110
0.505843 -0.458271 -0.555 30 57 102
0.483357 -0.416986 -0.505 143 105 92
0.482946 -0.403774 -0.489 163 119 92
0.484611 -0.401297 -0.486 169 125 98
0.493933 -0.394691 -0.478 173 128 99
0.497167 -0.392214 -0.475 176 129 101
0.543667 -0.4046 -0.49 143 108 80
0.845229 -0.470657 -0.57 100 101 95
0.8595 -0.473134 -0.573 99 101 96
0.862093 -0.47396 -0.574 108 110 105
0.869071 -0.474786 -0.575 93 96 89
0.885283 -0.476437 -0.577 74 77 70
0.905789 -0.483869 -0.586 97 100 93
-0.0425 -0.351738 -0.425 198 159 120
-0.0264333 -0.353393 -0.427 191 150 118
-0.0151171 -0.355049 -0.429 181 137 110
0.00798 -0.36498 -0.441 160 119 99
0.0200981 -0.371601 -0.449 143 107 95
0.0338067 -0.381532 -0.461 129 99 89
0.0515495 -0.39643 -0.479 119 92 85
0.07322 -0.432845 -0.523 183 187 190
0.0907114 -0.460984 -0.557 134 155 182
0.124438 -0.460156 -0.556 162 179 207
0.39376 -0.456846 -0.552 206 218 234
0.396914 -0.456846 -0.552 179 201 225
0.400069 -0.456846 -0.552 108 138 176
0.420046 -0.456846 -0.552 210 220 230
0.421097 -0.456846 -0.552 214 224 234
0.463777 -0.458501 -0.554 164 176 190
0.482586 -0.459329 -0.555 92 124 163
0.496164 -0.460156 -0.556 154 156 151
0.503729 -0.459329 -0.555 99 111 111
0.508872 -0.460156 -0.556 111 117 113
0.515357 -0.459329 -0.555 120 116 115
0.481329 -0.409671 -0.495 154 112 88
0.487227 -0.400568 -0.484 170 125 96
0.490722 -0.398912 -0.482 174 127 99
0.4964 -0.393947 -0.476 168 123 92
0.500479 -0.391464 -0.473 173 126 96
0.513993 -0.391464 -0.473 167 122 89
0.835457 -0.471743 -0.57 123 122 120
0.844143 -0.471743 -0.57 100 101 95
0.870167 -0.475881 -0.575 96 98 93
0.873452 -0.475881 -0.575 98 100 97
-0.046061 -0.355036 -0.428 190 154 118
-0.0399771 -0.351718 -0.424 192 153 120
-0.0367467 -0.351718 -0.424 191 153 117
-0.0159343 -0.355866 -0.429 181 137 110
-0.0135143 -0.356695 -0.43 182 138 113
-0.0110829 -0.357525 -0.431 176 132 105
-0.00618571 -0.359184 -0.433 170 128 104
0.000415238 -0.361672 -0.436 168 123 100
0.00712381 -0.36499 -0.44 161 119 97
0.0139543 -0.368309 -0.444 152 114 95
0.0200981 -0.372456 -0.449 144 108 94
0.0424333 -0.389047 -0.469 128 99 91
0.0474 -0.393194 -0.474 126 97 91
0.0894895 -0.461215 -0.556 134 156 180
0.429233 -0.458727 -0.553 203 213 225
0.43134 -0.458727 -0.553 204 212 225
0.433447 -0.458727 -0.553 166 183 209
0.4345 -0.458727 -0.553 134 168 213
0.435553 -0.458727 -0.553 94 128 173
0.439767 -0.458727 -0.553 49 97 159
0.451114 -0.459556 -0.554 197 207 216
0.472219 -0.459556 -0.554 75 118 169
0.504786 -0.460386 -0.555 153 151 152
0.488107 -0.424716 -0.512 130 100 89
0.483753 -0.403978 -0.487 167 124 92
0.503182 -0.392365 -0.473 171 127 92
0.504083 -0.392365 -0.473 171 127 92
0.512907 -0.391535 -0.472 164 121 86
0.514894 -0.392365 -0.473 163 120 85
0.53701 -0.40149 -0.484 142 111 83
0.83621 -0.474488 -0.572 118 118 116
0.855134 -0.475317 -0.573 23 26 19
0.85772 -0.476147 -0.574 52 55 48
0.858813 -0.476147 -0.574 94 95 90
0.866194 -0.477806 -0.576 111 112 107
-0.0468762 -0.355851 -0.428 190 154 118
-0.0126952 -0.357514 -0.43 179 135 108
-0.0110829 -0.358346 -0.431 176 132 105
-0.00781714 -0.359177 -0.432 175 131 106
0.0079619 -0.365829 -0.44 160 117 98
0.0165657 -0.370817 -0.446 150 113 95
0.0200981 -0.373311 -0.449 144 108 92
0.0319114 -0.381626 -0.459 130 100 90
0.0687543 -0.425691 -0.512 137 125 129
0.103071 -0.461443 -0.555 179 178 192
0.113643 -0.461443 -0.555 65 89 137
0.117871 -0.461443 -0.555 115 125 152
0.416891 -0.458949 -0.552 186 210 236
0.421097 -0.458949 -0.552 216 225 232
0.4232 -0.458949 -0.552 215 223 226
0.455335 -0.460611 -0.554 203 207 218
0.474129 -0.461443 -0.555 88 117 159
0.499178 -0.463106 -0.557 161 160 166
0.48138 -0.41322 -0.497 148 108 83
0.481329 -0.411557 -0.495 154 112 88
0.482115 -0.408231 -0.491 160 120 95
0.483 -0.4074 -0.49 164 120 91
0.484611 -0.404074 -0.486 169 124 93
0.503017 -0.392434 -0.472 174 130 95
0.528531 -0.397423 -0.478 143 109 82
0.886303 -0.483891 -0.582 117 119 116
-0.044119 -0.354167 -0.425 194 155 122
-0.0424 -0.353333 -0.424 192 153 120
-0.031901 -0.353333 -0.424 193 152 120
-0.0310933 -0.353333 -0.424 193 153 118
-0.0135143 -0.358333 -0.43 182 138 111
-0.0102619 -0.359167 -0.431 174 130 105
-0.00944095 -0.359167 -0.431 175 131 106
0.00712381 -0.366667 -0.44 162 119 100
0.0338067 -0.384167 -0.461 128 98 90
0.0537086 -0.401667 -0.482 116 88 84
0.0632067 -0.415833 -0.499 99 81 77
0.0672495 -0.423333 -0.508 90 78 82
0.381502 -0.459167 -0.551 135 169 214
0.395146 -0.459167 -0.551 216 226 235
0.400393 -0.459167 -0.551 130 165 207
0.414037 -0.459167 -0.551 126 160 197
0.424251 -0.46 -0.552 218 222 231
0.432393 -0.460833 -0.553 182 194 208
0.438713 -0.460833 -0.553 69 94 151
0.445033 -0.460833 -0.553 67 93 142
0.458501 -0.461667 -0.554 171 173 168
0.468843 -0.4625 -0.555 159 168 173
0.476042 -0.463333 -0.556 167 172 175
0.483455 -0.463333 -0.556 176 176 176
0.485386 -0.464167 -0.557 177 177 179
0.4975 -0.4375 -0.525 115 96 79
0.48432 -0.42 -0.504 137 106 88
0.481223 -0.41 -0.492 155 113 91
0.483753 -0.405833 -0.487 163 122 92
0.51182 -0.3925 -0.471 168 123 90
0.838389 -0.476667 -0.572 116 117 112
0.83801 -0.475833 -0.571 119 120 115
0.883384 -0.485833 -0.583 101 106 100
-0.0639286 -0.448523 -0.537 190 154 120
-0.0175276 -0.357482 -0.428 178 134 107
0.00710762 -0.36667 -0.439 161 118 99
0.015681 -0.371681 -0.445 151 112 97
0.0537086 -0.402585 -0.482 116 88 84
0.0558905 -0.40509 -0.485 109 88 85
0.0595086 -0.410937 -0.492 103 82 77
0.0912781 -0.462722 -0.554 137 152 175
0.0933886 -0.462722 -0.554 82 106 134
0.36261 -0.460216 -0.551 210 220 232
0.409839 -0.460216 -0.551 126 157 201
0.439767 -0.461887 -0.553 152 164 162
0.481356 -0.414278 -0.496 153 111 89
0.484611 -0.405926 -0.486 166 122 95
0.49223 -0.400079 -0.479 175 130 99
0.493809 -0.398409 -0.477 176 129 99
0.496262 -0.396738 -0.475 172 127 94
0.50032 -0.394232 -0.472 170 126 91
0.522303 -0.395903 -0.474 147 106 76
0.549267 -0.409267 -0.49 140 106 79
-0.0373771 -0.353274 -0.422 196 158 122
-0.0263095 -0.355786 -0.425 191 147 118
-0.0215533 -0.35746 -0.427 187 144 112
-0.0199267 -0.35746 -0.427 185 141 112
-0.0134829 -0.359134 -0.429 176 134 110
-0.0102381 -0.359971 -0.43 174 129 106
0.0113657 -0.370017 -0.442 156 114 98
0.0209533 -0.375877 -0.449 144 108 96
0.0253981 -0.378389 -0.452 133 100 93
0.0385286 -0.389271 -0.465 128 98 90
0.0558905 -0.406014 -0.485 108 89 85
0.0606914 -0.413549 -0.494 102 81 76
0.397245 -0.461266 -0.551 198 202 211
0.424251 -0.462103 -0.552 194 194 204
0.433447 -0.46294 -0.553 204 206 203
0.44082 -0.46294 -0.553 193 204 200
0.447949 -0.463777 -0.554 197 198 202
0.449004 -0.463777 -0.554 198 199 203
0.450059 -0.463777 -0.554 190 193 198
0.473924 -0.465451 -0.556 177 183 183
0.492452 -0.467963 -0.559 166 161 168
0.522266 -0.467963 -0.559 94 83 77
0.482367 -0.417734 -0.499 151 108 91
0.481262 -0.412711 -0.493 158 113 90
0.490405 -0.400991 -0.479 169 124 93
0.492112 -0.400154 -0.478 175 128 98
0.504643 -0.394294 -0.471 173 127 93
0.516306 -0.394294 -0.471 160 117 83
-0.038181 -0.354078 -0.422 194 156 120
-0.000414286 -0.364986 -0.435 164 122 100
0.013079 -0.371698 -0.443 154 112 96
0.0173762 -0.373376 -0.445 149 112 96
0.0245371 -0.37925 -0.452 133 100 91
0.0281048 -0.380928 -0.454 133 100 93
0.0558905 -0.406938 -0.485 107 87 86
