ply
format ascii 1.0
comment Created by Open3D
element vertex 1278
property double x
property double y
property double z
property uchar red
property uchar green
property uchar blue
end_header
0.115198 -0.387697 -0.614 75 100 157
0.131357 -0.387066 -0.613 98 107 138
0.192295 -0.385171 -0.61 138 149 179
0.202752 -0.385171 -0.61 240 240 252
0.22599 -0.385171 -0.61 244 244 255
0.315457 -0.385171 -0.61 123 152 208
0.316619 -0.385171 -0.61 109 136 189
0.32359 -0.385171 -0.61 214 219 238
0.3294 -0.385171 -0.61 215 217 230
0.345667 -0.385171 -0.61 209 211 224
0.4026 -0.385171 -0.61 192 192 202
0.407915 -0.385803 -0.611 193 193 203
0.419553 -0.385803 -0.611 71 89 125
0.4277 -0.385803 -0.611 146 159 193
0.428864 -0.385803 -0.611 120 133 167
0.433519 -0.385803 -0.611 99 132 185
0.455631 -0.385803 -0.611 162 173 195
0.471531 -0.386434 -0.612 173 175 190
0.472697 -0.386434 -0.612 171 173 188
0.49822 -0.38454 -0.609 128 146 184
0.449097 -0.323291 -0.512 182 125 105
0.452113 -0.32266 -0.511 183 126 106
0.462948 -0.321397 -0.509 182 127 106
0.465856 -0.321397 -0.509 174 122 100
1.05672 -0.37128 -0.588 202 204 190
1.06749 -0.371911 -0.589 202 204 190
1.07086 -0.371911 -0.589 202 204 190
0.00605429 -0.3097 -0.489 206 166 140
0.013561 -0.310967 -0.491 197 152 131
0.0163667 -0.310967 -0.491 191 148 129
0.0312619 -0.319833 -0.505 160 120 110
0.0420143 -0.3287 -0.519 147 110 102
0.0676124 -0.354033 -0.559 134 106 103
0.102333 -0.388867 -0.614 101 112 158
0.104672 -0.388867 -0.614 174 179 199
0.11169 -0.388867 -0.614 95 123 171
0.140469 -0.3876 -0.612 214 213 231
0.1653 -0.3857 -0.609 157 170 202
0.2233 -0.3857 -0.609 244 243 255
0.2349 -0.3857 -0.609 151 170 212
0.29174 -0.3857 -0.609 209 211 226
0.33002 -0.3857 -0.609 212 216 227
0.349152 -0.386333 -0.61 208 210 223
0.38106 -0.3857 -0.609 154 171 197
0.393305 -0.386333 -0.61 145 145 153
0.400276 -0.386333 -0.61 194 193 207
0.419553 -0.386967 -0.611 79 98 130
0.423045 -0.386967 -0.611 182 189 208
0.429324 -0.386333 -0.61 79 109 161
0.433971 -0.386333 -0.61 99 129 181
0.443993 -0.386967 -0.611 163 179 205
0.450976 -0.386967 -0.611 154 151 168
0.489743 -0.386333 -0.61 174 173 189
0.496714 -0.386333 -0.61 112 131 171
0.45144 -0.336933 -0.532 150 116 106
0.447329 -0.3287 -0.519 178 123 103
0.461978 -0.322367 -0.509 190 135 114
0.47933 -0.324267 -0.512 159 114 93
0.4995 -0.3325 -0.525 151 110 90
1.05448 -0.3724 -0.588 203 205 191
-0.00697143 -0.309996 -0.488 206 167 136
0.0135333 -0.311267 -0.49 196 151 132
0.0173019 -0.311902 -0.491 188 147 129
0.0250867 -0.315713 -0.497 168 128 116
0.0344181 -0.323336 -0.509 148 114 105
0.0430857 -0.330324 -0.52 145 112 107
0.0464114 -0.332865 -0.524 144 111 106
0.0594714 -0.344934 -0.543 135 107 103
0.0661905 -0.353192 -0.556 136 106 104
0.0674914 -0.354463 -0.558 138 107 104
0.0796714 -0.371614 -0.585 129 108 107
0.0812 -0.37352 -0.588 156 135 134
0.0950057 -0.388766 -0.612 178 186 199
0.0999943 -0.390036 -0.614 99 111 153
0.123184 -0.389401 -0.613 142 161 194
0.144894 -0.38813 -0.611 211 211 223
0.146058 -0.38813 -0.611 187 187 199
0.16066 -0.38686 -0.609 225 226 246
0.1653 -0.38686 -0.609 179 188 217
0.18618 -0.38686 -0.609 141 162 215
0.19314 -0.38686 -0.609 228 237 255
0.19546 -0.38686 -0.609 239 244 255
0.20474 -0.38686 -0.609 209 208 224
0.297051 -0.386225 -0.608 181 188 217
0.319055 -0.386225 -0.608 123 139 175
0.35322 -0.38686 -0.609 192 198 210
0.39679 -0.387495 -0.61 195 195 203
0.40078 -0.38686 -0.609 175 174 188
0.40194 -0.38686 -0.609 181 181 193
0.463019 -0.387495 -0.61 163 170 198
0.470761 -0.38813 -0.611 158 168 195
0.483563 -0.38813 -0.611 118 117 133
0.461009 -0.323336 -0.509 188 131 111
0.463973 -0.322701 -0.508 176 124 103
0.478393 -0.324607 -0.511 159 114 93
0.484139 -0.326512 -0.514 155 113 91
1.05336 -0.37352 -0.588 203 205 191
0.00602952 -0.310289 -0.487 205 165 139
0.0201486 -0.313474 -0.492 183 140 124
0.0211286 -0.314111 -0.493 182 139 123
0.0322876 -0.322394 -0.506 151 117 107
0.044161 -0.331951 -0.521 145 112 105
0.0533 -0.339597 -0.533 140 111 107
0.0545191 -0.340871 -0.535 140 110 108
0.05698 -0.34342 -0.539 138 110 107
0.0748933 -0.36572 -0.574 131 107 107
0.0950057 -0.389931 -0.612 185 187 200
0.104331 -0.389931 -0.612 160 175 214
0.135584 -0.389294 -0.611 206 206 230
0.141171 -0.388657 -0.61 197 200 217
0.15808 -0.387383 -0.608 223 226 245
0.204404 -0.387383 -0.608 211 213 228
0.226408 -0.387383 -0.608 250 247 255
0.290103 -0.387383 -0.608 229 230 250
0.313265 -0.387383 -0.608 186 208 249
0.316739 -0.387383 -0.608 209 223 252
0.34278 -0.38802 -0.609 208 207 221
0.36134 -0.38802 -0.609 208 210 225
0.36482 -0.38802 -0.609 152 167 190
0.3683 -0.38802 -0.609 112 142 194
0.39962 -0.38802 -0.609 179 181 196
0.40078 -0.38802 -0.609 148 150 165
0.415381 -0.388657 -0.61 83 89 111
0.42398 -0.38802 -0.609 187 188 209
0.42514 -0.38802 -0.609 172 173 194
0.43442 -0.38802 -0.609 121 145 193
0.44559 -0.388657 -0.61 178 185 204
0.465343 -0.388657 -0.61 137 150 182
0.475416 -0.389294 -0.611 76 99 143
0.44892 -0.332589 -0.522 163 120 101
0.447574 -0.329403 -0.517 173 122 103
0.460103 -0.323669 -0.508 188 131 111
0.472682 -0.323669 -0.508 166 118 95
0.479367 -0.32558 -0.511 158 113 90
0.487989 -0.328766 -0.516 155 110 89
-0.011619 -0.311855 -0.488 197 160 131
0.00976 -0.311855 -0.488 199 154 131
0.0163333 -0.313133 -0.49 190 147 128
0.0430857 -0.332305 -0.52 145 112 105
0.0582219 -0.345725 -0.541 137 109 108
0.0810619 -0.375121 -0.587 142 125 133
0.0961714 -0.391097 -0.612 186 188 200
0.100834 -0.391097 -0.612 99 110 140
0.108994 -0.391097 -0.612 111 132 179
0.11016 -0.391097 -0.612 101 122 169
0.114823 -0.391097 -0.612 67 93 144
0.323155 -0.387902 -0.607 150 165 204
0.337585 -0.388541 -0.608 212 210 224
0.359589 -0.388541 -0.608 201 198 219
0.378118 -0.388541 -0.608 196 203 221
0.379809 -0.387902 -0.607 189 195 209
0.427916 -0.388541 -0.608 86 117 163
0.42978 -0.38918 -0.609 99 130 176
0.44254 -0.38918 -0.609 153 174 203
0.459135 -0.324636 -0.508 182 130 106
0.460103 -0.324636 -0.508 184 132 108
0.467889 -0.323997 -0.507 169 125 100
0.489919 -0.330388 -0.517 151 113 92
0.567034 -0.371926 -0.582 138 120 108
0.572048 -0.374482 -0.586 175 157 145
1.05604 -0.375121 -0.587 202 205 188
-0.0115952 -0.312144 -0.487 198 161 134
0.00324 -0.311503 -0.486 202 163 134
0.0144371 -0.313426 -0.489 193 148 129
0.0230533 -0.31663 -0.494 174 130 117
0.0322238 -0.323681 -0.505 151 117 107
0.0430029 -0.332654 -0.519 146 112 103
0.0632657 -0.351883 -0.549 133 107 108
0.0703657 -0.361497 -0.564 133 107 110
0.0971781 -0.391622 -0.611 182 184 197
0.100834 -0.392263 -0.612 138 148 175
0.113471 -0.391622 -0.611 67 89 139
0.115799 -0.391622 -0.611 59 80 133
0.127437 -0.391622 -0.611 162 179 223
0.155508 -0.389058 -0.607 219 223 235
0.161554 -0.389699 -0.608 221 227 243
0.192506 -0.389058 -0.607 232 241 255
0.19713 -0.389058 -0.607 244 244 254
0.201755 -0.389058 -0.607 239 239 251
0.204068 -0.389058 -0.607 242 240 253
0.212161 -0.389058 -0.607 213 211 222
0.238753 -0.389058 -0.607 150 173 214
0.313906 -0.389058 -0.607 185 203 239
0.348591 -0.389058 -0.607 210 210 222
0.375802 -0.389699 -0.608 132 150 188
0.385067 -0.389699 -0.608 177 182 201
0.396648 -0.389699 -0.608 181 182 200
0.4205 -0.39034 -0.609 157 155 160
0.426758 -0.389699 -0.608 116 131 162
0.45182 -0.39034 -0.609 179 179 189
0.45878 -0.39034 -0.609 86 103 147
0.48198 -0.39034 -0.609 172 170 183
0.45064 -0.335859 -0.524 160 117 98
0.448559 -0.331372 -0.517 172 125 107
0.449872 -0.32945 -0.514 175 127 105
0.485151 -0.328809 -0.513 154 107 87
1.04978 -0.375598 -0.586 203 205 191
1.06206 -0.375598 -0.586 203 205 191
-0.0144371 -0.314357 -0.489 198 161 132
0.0191724 -0.315643 -0.491 184 141 125
0.028039 -0.320786 -0.499 161 123 114
0.111144 -0.392786 -0.611 72 91 147
0.116963 -0.392786 -0.611 64 83 139
0.130714 -0.392143 -0.61 195 196 214
0.1363 -0.3915 -0.609 200 207 217
0.141867 -0.390857 -0.608 183 189 203
0.162445 -0.390214 -0.607 219 225 241
0.176319 -0.390214 -0.607 115 138 188
0.193662 -0.390214 -0.607 236 237 255
0.210657 -0.389571 -0.606 241 239 252
0.233743 -0.389571 -0.606 228 235 254
0.239514 -0.389571 -0.606 155 175 212
0.330703 -0.389571 -0.606 169 169 179
0.372871 -0.390214 -0.607 116 143 186
0.376874 -0.389571 -0.606 191 193 214
0.379183 -0.389571 -0.606 187 199 221
0.405912 -0.390857 -0.608 155 168 200
0.414019 -0.390857 -0.608 169 177 200
0.430681 -0.390214 -0.607 143 167 211
0.435306 -0.390214 -0.607 127 155 202
0.436462 -0.390214 -0.607 100 128 178
0.447604 -0.390857 -0.608 177 182 188
0.47154 -0.3915 -0.609 48 79 134
0.47618 -0.3915 -0.609 90 108 146
0.484663 -0.390857 -0.608 153 154 159
0.485821 -0.390857 -0.608 123 121 134
0.495086 -0.390857 -0.608 102 121 164
0.496244 -0.390857 -0.608 99 118 161
0.490004 -0.375429 -0.584 141 112 106
0.453074 -0.339429 -0.528 157 119 106
0.448893 -0.330429 -0.514 175 127 107
0.454222 -0.327214 -0.509 176 124 100
0.455191 -0.327214 -0.509 176 124 100
0.484206 -0.329143 -0.512 153 106 86
-0.01058 -0.31142 -0.483 200 161 132
0.00972 -0.313354 -0.486 196 154 130
0.0311381 -0.324315 -0.503 154 116 105
0.0474095 -0.337855 -0.524 144 111 106
0.0930733 -0.39137 -0.607 181 183 196
0.101667 -0.393305 -0.61 93 115 154
0.102829 -0.393305 -0.61 68 90 129
0.116771 -0.393305 -0.61 56 76 135
0.117933 -0.393305 -0.61 54 74 133
0.149727 -0.39137 -0.607 218 217 233
0.201423 -0.390726 -0.606 241 243 255
0.203731 -0.390726 -0.606 244 244 254
0.239514 -0.390726 -0.606 168 188 225
0.3267 -0.390081 -0.605 207 214 240
0.342833 -0.390081 -0.605 198 203 225
0.361869 -0.390726 -0.606 181 192 212
0.363023 -0.390726 -0.606 152 163 183
0.36764 -0.390726 -0.606 140 168 208
0.397151 -0.39137 -0.607 174 189 220
0.398308 -0.39137 -0.607 177 193 226
0.417963 -0.39137 -0.607 190 187 204
0.419119 -0.39137 -0.607 189 186 203
0.431126 -0.390726 -0.606 116 143 190
0.469608 -0.392015 -0.608 42 76 140
0.47424 -0.392015 -0.608 82 112 166
0.489295 -0.392015 -0.608 141 144 159
0.496584 -0.39137 -0.607 79 98 154
0.457897 -0.345592 -0.536 156 118 109
0.4572 -0.327539 -0.508 181 126 105
0.473683 -0.326894 -0.507 170 115 94
0.47752 -0.327539 -0.508 167 116 95
0.488055 -0.331408 -0.514 151 110 90
-0.0133676 -0.312987 -0.484 200 161 132
0.00507048 -0.312987 -0.484 203 161 136
0.00600476 -0.313633 -0.485 201 159 134
0.00972 -0.31428 -0.486 196 154 130
0.0331857 -0.326567 -0.505 152 115 107
0.0451533 -0.336913 -0.521 146 113 108
0.0532 -0.344027 -0.532 142 113 109
0.10266 -0.39382 -0.609 68 86 122
0.112124 -0.394467 -0.61 51 74 126
0.13376 -0.393173 -0.608 203 206 223
0.140477 -0.392527 -0.607 210 211 229
0.146258 -0.392527 -0.607 208 209 227
0.158452 -0.391233 -0.605 219 224 243
0.16191 -0.391233 -0.605 214 221 240
0.183805 -0.391233 -0.605 200 220 255
0.330157 -0.391233 -0.605 183 183 195
0.335919 -0.391233 -0.605 168 174 198
0.34629 -0.391233 -0.605 165 179 208
0.393034 -0.39188 -0.606 86 116 168
0.40062 -0.392527 -0.607 83 106 150
0.446868 -0.392527 -0.607 184 184 194
0.452649 -0.392527 -0.607 182 180 193
0.475398 -0.393173 -0.608 148 164 190
0.479241 -0.392527 -0.607 170 177 185
0.481553 -0.392527 -0.607 173 172 186
0.466714 -0.355667 -0.55 155 115 103
0.449974 -0.33174 -0.513 174 123 104
0.450072 -0.331093 -0.512 175 124 105
0.456232 -0.328507 -0.508 178 123 102
0.482314 -0.3298 -0.51 158 111 93
0.484233 -0.330447 -0.511 153 112 92
0.0106457 -0.315206 -0.486 195 155 130
0.0220229 -0.319097 -0.492 169 132 114
0.0580067 -0.34958 -0.539 139 111 108
0.0617667 -0.353471 -0.545 135 111 111
0.0746324 -0.370983 -0.572 130 108 111
0.0990171 -0.394331 -0.608 176 182 208
0.10962 -0.39498 -0.609 56 79 129
0.11774 -0.39498 -0.609 51 77 134
0.134696 -0.393683 -0.607 208 211 230
0.163062 -0.392386 -0.605 166 174 197
0.199938 -0.392386 -0.605 242 242 254
0.204548 -0.392386 -0.605 243 243 255
0.2057 -0.392386 -0.605 244 244 255
0.235662 -0.392386 -0.605 180 195 228
0.283592 -0.391737 -0.604 224 229 251
0.284743 -0.391737 -0.604 182 191 220
0.342267 -0.391737 -0.604 167 182 215
0.348595 -0.392386 -0.605 111 133 174
0.362424 -0.392386 -0.605 135 143 166
0.378557 -0.392386 -0.605 193 196 211
0.37971 -0.392386 -0.605 196 199 214
0.412657 -0.393034 -0.606 180 187 195
0.420043 -0.392386 -0.605 181 187 187
0.439206 -0.393034 -0.606 93 118 174
0.471148 -0.393683 -0.607 54 90 150
0.47424 -0.394331 -0.608 116 140 186
0.498074 -0.393034 -0.606 38 74 134
0.453362 -0.341149 -0.526 161 120 102
0.485207 -0.33142 -0.511 153 110 91
-0.00962 -0.312879 -0.481 199 163 131
-0.00778762 -0.312879 -0.481 201 165 131
-0.00594286 -0.312229 -0.48 202 166 134
-0.000459048 -0.31353 -0.482 199 163 131
0.00414 -0.31418 -0.483 201 162 133
0.0124971 -0.316131 -0.486 191 151 126
0.0153057 -0.316782 -0.487 186 145 123
0.0162333 -0.316782 -0.487 186 145 125
0.0320962 -0.32719 -0.503 153 116 107
0.0353181 -0.330442 -0.508 148 114 105
0.0407095 -0.334995 -0.515 147 114 109
0.0462343 -0.339549 -0.522 144 113 108
0.0643114 -0.357111 -0.549 137 107 105
0.0927667 -0.393538 -0.605 183 184 189
0.119863 -0.39549 -0.608 144 167 217
0.142319 -0.393538 -0.605 212 218 232
0.145776 -0.393538 -0.605 219 217 231
0.148081 -0.393538 -0.605 218 216 229
0.150386 -0.393538 -0.605 214 214 224
0.167394 -0.392888 -0.604 219 221 242
0.177749 -0.392888 -0.604 157 181 219
0.198786 -0.393538 -0.605 243 243 253
0.20421 -0.392888 -0.604 243 241 252
0.358967 -0.393538 -0.605 204 207 226
0.368186 -0.393538 -0.605 147 172 212
0.380862 -0.393538 -0.605 176 175 183
0.402757 -0.393538 -0.605 69 99 163
0.410824 -0.393538 -0.605 140 162 209
0.425805 -0.393538 -0.605 94 121 174
0.42811 -0.393538 -0.605 106 132 181
0.443823 -0.394189 -0.606 183 182 196
0.501032 -0.392888 -0.604 72 95 149
0.451048 -0.333044 -0.512 174 128 105
0.456232 -0.330442 -0.508 173 125 102
0.470852 -0.32849 -0.505 175 120 99
0.474676 -0.329141 -0.506 170 117 99
0.482338 -0.331092 -0.509 163 118 99
-0.0273933 -0.382948 -0.587 195 158 129
-0.0214714 -0.326843 -0.501 195 160 132
-0.00502857 -0.313143 -0.48 200 164 132
-0.00137429 -0.313795 -0.481 197 160 131
0.00599238 -0.315752 -0.484 199 160 131
0.0603943 -0.35359 -0.542 139 110 112
0.0685543 -0.364029 -0.558 134 108 107
0.0759867 -0.374467 -0.574 125 110 117
0.0791267 -0.379033 -0.581 156 144 154
0.107124 -0.396648 -0.608 97 112 151
0.111572 -0.395995 -0.607 73 101 149
0.116389 -0.396648 -0.608 69 102 156
0.121978 -0.395995 -0.607 185 199 228
0.132166 -0.395343 -0.606 200 201 219
0.136783 -0.395343 -0.606 209 212 229
0.141167 -0.39469 -0.605 210 213 228
0.161642 -0.394038 -0.604 149 159 186
0.163943 -0.394038 -0.604 182 188 212
0.225694 -0.393386 -0.603 237 253 255
0.326769 -0.393386 -0.603 114 131 175
0.327917 -0.393386 -0.603 103 120 164
0.346294 -0.393386 -0.603 77 104 157
0.353186 -0.393386 -0.603 203 206 221
0.357223 -0.394038 -0.604 201 206 225
0.384834 -0.394038 -0.604 193 192 206
0.387135 -0.394038 -0.604 176 187 207
0.402091 -0.394038 -0.604 47 80 149
0.406214 -0.39469 -0.605 34 71 142
0.418198 -0.394038 -0.604 188 192 201
0.425101 -0.394038 -0.604 85 116 173
0.432004 -0.394038 -0.604 57 95 158
0.436606 -0.394038 -0.604 88 119 173
0.438907 -0.394038 -0.604 88 119 173
0.440057 -0.394038 -0.604 102 129 174
0.446548 -0.39469 -0.605 185 183 207
0.4477 -0.39469 -0.605 185 183 207
0.45652 -0.395343 -0.606 160 171 201
0.456919 -0.39469 -0.605 116 142 191
0.476143 -0.395343 -0.606 129 145 171
0.482271 -0.39469 -0.605 140 146 172
0.489186 -0.39469 -0.605 73 97 143
0.452152 -0.339238 -0.52 162 124 103
0.458291 -0.330105 -0.506 174 126 104
-0.0212143 -0.323871 -0.495 195 160 130
-0.0151171 -0.314711 -0.481 202 165 136
-0.00684286 -0.313403 -0.479 201 165 133
0.0115476 -0.317329 -0.485 191 152 123
0.0248848 -0.322563 -0.493 161 121 111
0.0417714 -0.337611 -0.516 143 110 103
0.0484076 -0.342846 -0.524 142 111 106
0.0577914 -0.351351 -0.537 140 110 108
0.0807857 -0.382757 -0.585 195 183 193
0.0988543 -0.397151 -0.607 98 109 141
0.0998457 -0.396497 -0.606 117 128 160
0.106948 -0.397151 -0.607 111 125 162
0.10926 -0.397151 -0.607 87 108 151
0.115041 -0.397151 -0.607 96 126 176
0.121777 -0.396497 -0.606 184 196 222
0.127549 -0.396497 -0.606 96 114 152
0.12849 -0.395843 -0.605 115 133 171
0.138862 -0.395843 -0.605 212 211 225
0.15678 -0.394534 -0.603 194 205 227
0.162523 -0.394534 -0.603 189 195 219
0.183197 -0.394534 -0.603 191 200 233
0.336547 -0.39388 -0.602 92 122 172
0.346294 -0.394534 -0.603 82 113 170
0.358929 -0.394534 -0.603 187 190 209
0.368117 -0.394534 -0.603 110 139 179
0.376157 -0.394534 -0.603 140 173 218
0.378454 -0.394534 -0.603 157 159 172
0.385346 -0.394534 -0.603 193 195 208
0.388286 -0.395189 -0.604 173 181 202
0.39749 -0.395189 -0.604 39 76 146
0.400941 -0.395189 -0.604 36 68 141
0.417506 -0.394534 -0.603 188 191 206
0.418654 -0.394534 -0.603 187 190 205
0.437031 -0.394534 -0.603 85 116 171
0.477297 -0.396497 -0.606 129 145 171
0.479967 -0.395843 -0.605 81 104 145
0.492643 -0.395843 -0.605 44 78 149
0.493795 -0.395843 -0.605 36 70 141
0.500203 -0.394534 -0.603 30 63 117
0.50052 -0.39388 -0.602 39 72 126
0.491913 -0.38014 -0.581 134 118 105
0.465081 -0.330414 -0.505 176 128 108
0.488127 -0.33434 -0.511 150 112 93
0.000458095 -0.315628 -0.481 199 163 131
0.0248848 -0.323502 -0.493 160 122 111
0.0341476 -0.331376 -0.505 150 113 105
0.0352486 -0.332689 -0.507 149 112 104
0.0417714 -0.338594 -0.516 143 110 103
0.0450667 -0.341219 -0.52 145 112 107
0.06292 -0.35828 -0.546 138 110 109
0.0670076 -0.36353 -0.554 133 107 108
0.0986914 -0.397651 -0.606 95 106 136
0.104463 -0.397651 -0.606 157 167 192
0.147836 -0.396339 -0.604 191 194 209
0.174867 -0.395027 -0.602 189 205 239
0.176013 -0.395027 -0.602 172 188 222
0.182893 -0.395027 -0.602 187 198 228
0.205827 -0.395027 -0.602 212 214 235
0.21844 -0.395027 -0.602 178 186 209
0.223027 -0.395027 -0.602 242 247 255
0.22532 -0.395027 -0.602 245 244 255
0.34916 -0.395027 -0.602 202 208 234
0.360627 -0.395027 -0.602 113 130 160
0.36582 -0.395683 -0.603 98 127 169
0.368117 -0.395683 -0.603 97 123 180
0.380751 -0.395683 -0.603 193 196 211
0.395683 -0.395683 -0.603 30 75 142
0.39979 -0.396339 -0.604 38 82 155
0.408317 -0.395683 -0.603 165 178 213
0.439329 -0.395683 -0.603 71 97 154
0.44581 -0.396339 -0.604 182 188 204
0.458465 -0.396339 -0.604 55 85 145
0.489528 -0.396339 -0.604 54 84 134
0.50052 -0.395027 -0.602 27 63 121
0.45183 -0.337282 -0.514 169 126 107
-0.00228095 -0.315228 -0.479 200 164 132
-0.000457143 -0.315886 -0.48 198 161 132
0.00229048 -0.316544 -0.481 201 162 133
0.00966 -0.31786 -0.483 192 150 125
0.0162 -0.319834 -0.486 184 142 126
0.0209143 -0.32115 -0.488 169 129 117
0.0406305 -0.338261 -0.514 143 110 105
0.0641943 -0.360636 -0.548 135 109 108
0.0727714 -0.372482 -0.566 128 109 113
0.0806476 -0.384328 -0.584 196 184 194
0.118119 -0.398148 -0.605 121 137 173
0.130579 -0.39749 -0.604 103 122 164
0.134957 -0.396831 -0.603 205 208 225
0.147836 -0.39749 -0.604 191 194 209
0.157667 -0.396173 -0.602 134 146 170
0.164547 -0.396173 -0.602 222 225 242
0.192067 -0.396173 -0.602 231 232 252
0.308513 -0.395515 -0.601 152 172 209
0.314237 -0.395515 -0.601 208 216 235
0.32225 -0.395515 -0.601 203 205 217
0.35604 -0.396173 -0.602 208 209 227
0.35948 -0.396173 -0.602 129 148 180
0.361773 -0.396173 -0.602 105 133 180
0.37324 -0.396173 -0.602 92 129 174
0.374387 -0.396173 -0.602 107 135 182
0.37668 -0.396173 -0.602 185 193 212
0.4214 -0.396173 -0.602 135 154 196
0.434013 -0.396173 -0.602 70 110 179
0.43516 -0.396173 -0.602 72 114 174
0.441626 -0.396831 -0.603 126 149 183
0.44811 -0.39749 -0.604 161 168 187
0.453863 -0.39749 -0.604 81 111 163
0.483775 -0.39749 -0.604 170 173 192
0.484926 -0.39749 -0.604 143 150 176
0.501978 -0.395515 -0.601 62 94 151
0.452387 -0.340893 -0.518 164 126 107
0.454297 -0.334312 -0.508 177 130 112
-0.016879 -0.31614 -0.479 199 164 136
0.00966 -0.31878 -0.483 192 150 125
0.0190162 -0.32142 -0.487 172 130 116
0.0406305 -0.33924 -0.514 143 110 105
0.0564514 -0.35244 -0.534 138 110 109
0.0668867 -0.36498 -0.553 133 107 106
0.114662 -0.3993 -0.605 94 114 151
0.13173 -0.39864 -0.604 148 165 195
0.146443 -0.39798 -0.603 183 186 201
0.197471 -0.39666 -0.601 162 176 203
0.22609 -0.39666 -0.601 245 244 255
0.349725 -0.39666 -0.601 202 208 224
0.363462 -0.39666 -0.601 101 137 187
0.368041 -0.39666 -0.601 92 128 186
0.384707 -0.39732 -0.602 181 187 213
0.39732 -0.39732 -0.602 24 71 151
0.406493 -0.39732 -0.602 104 139 195
0.420253 -0.39732 -0.602 138 142 167
0.43516 -0.39732 -0.602 50 94 157
0.437453 -0.39732 -0.602 73 108 164
0.443187 -0.39732 -0.602 96 99 116
0.451963 -0.39798 -0.603 50 82 129
0.460003 -0.39798 -0.603 22 55 122
0.494787 -0.39732 -0.602 32 71 140
0.48671 -0.37686 -0.571 151 114 105
0.45271 -0.3399 -0.515 169 126 109
0.453087 -0.33726 -0.511 176 129 109
0.454143 -0.3366 -0.51 176 130 107
0.476624 -0.3333 -0.505 165 118 100
0.489114 -0.3366 -0.51 157 114 95
0.497817 -0.34056 -0.516 151 108 89
-0.0149914 -0.315729 -0.477 199 164 136
-0.00772286 -0.315729 -0.477 198 162 130
-0.00590571 -0.315729 -0.477 200 164 132
-0.00045619 -0.317052 -0.479 197 160 131
0.00687143 -0.318376 -0.481 196 157 128
0.0238 -0.324333 -0.49 160 121 114
0.0494057 -0.346838 -0.524 138 107 105
0.0640771 -0.362062 -0.547 136 108 105
0.0654762 -0.364048 -0.55 136 108 105
0.0726429 -0.373976 -0.565 129 109 111
0.0995162 -0.39979 -0.604 176 181 201
0.120225 -0.39979 -0.604 182 187 206
0.133809 -0.399129 -0.603 197 209 231
0.138173 -0.398467 -0.602 195 199 224
0.14276 -0.398467 -0.602 154 157 176
0.146443 -0.399129 -0.603 207 210 227
0.15308 -0.398467 -0.602 200 206 228
0.159694 -0.397805 -0.601 219 224 246
0.181445 -0.397805 -0.601 169 184 215
0.326286 -0.397143 -0.6 185 194 225
0.327429 -0.397143 -0.6 143 170 217
0.333143 -0.397143 -0.6 52 92 164
0.379489 -0.397805 -0.601 167 175 196
0.387502 -0.397805 -0.601 133 158 199
0.4207 -0.397805 -0.601 77 105 144
0.421845 -0.397805 -0.601 70 98 137
0.437871 -0.397805 -0.601 68 105 158
0.440893 -0.398467 -0.602 78 107 149
0.44548 -0.398467 -0.602 138 145 161
0.451963 -0.399129 -0.603 80 105 146
0.45426 -0.399129 -0.603 79 111 162
0.461151 -0.399129 -0.603 27 60 127
0.483775 -0.39979 -0.604 169 173 185
0.495933 -0.398467 -0.602 33 71 136
0.499689 -0.397805 -0.601 49 80 145
0.48438 -0.3753 -0.567 150 116 107
0.453171 -0.337571 -0.51 176 129 109
0.455334 -0.335586 -0.507 175 128 110
0.45931 -0.334262 -0.505 172 124 104
0.460271 -0.334262 -0.505 177 129 109
0.46224 -0.3336 -0.504 176 128 108
0.463239 -0.332938 -0.503 177 129 109
0.492983 -0.338895 -0.512 156 113 96
0.0189771 -0.322611 -0.486 170 131 114
0.0208714 -0.323275 -0.487 168 129 114
0.02988 -0.330577 -0.498 152 115 109
0.0482229 -0.346509 -0.522 142 108 106
0.07106 -0.372397 -0.561 130 106 106
0.113322 -0.400941 -0.604 114 130 163
0.115623 -0.400941 -0.604 103 122 164
0.116773 -0.400941 -0.604 107 126 168
0.125769 -0.400277 -0.603 194 199 219
0.188 -0.398286 -0.6 237 238 255
0.197143 -0.398286 -0.6 157 166 195
0.350286 -0.398286 -0.6 181 190 219
0.366286 -0.398286 -0.6 54 97 166
0.367429 -0.398286 -0.6 61 109 175
0.370857 -0.398286 -0.6 78 122 185
0.393226 -0.39895 -0.601 30 71 137
0.39437 -0.39895 -0.601 28 70 142
0.428 -0.398286 -0.6 24 74 137
0.436 -0.398286 -0.6 68 105 158
0.44548 -0.399613 -0.602 162 168 182
0.44892 -0.399613 -0.602 142 149 165
0.495933 -0.399613 -0.602 46 80 141
0.49708 -0.399613 -0.602 36 79 134
0.455007 -0.345845 -0.521 164 125 108
0.469946 -0.333896 -0.503 169 122 102
0.47282 -0.333896 -0.503 165 120 99
0.00502857 -0.319543 -0.48 196 159 132
0.0170552 -0.322206 -0.484 175 133 117
0.0416095 -0.342177 -0.514 142 108 106
0.0505 -0.3495 -0.525 141 111 109
0.0625743 -0.361483 -0.543 134 108 107
0.110837 -0.401426 -0.603 145 159 186
0.117729 -0.401426 -0.603 143 158 191
0.130363 -0.401426 -0.603 194 195 223
0.136799 -0.400094 -0.601 162 181 211
0.145053 -0.40076 -0.602 198 204 230
0.181143 -0.399429 -0.6 165 179 208
0.213929 -0.398763 -0.599 130 155 196
0.223056 -0.398763 -0.599 242 244 255
0.33487 -0.398763 -0.599 47 86 161
0.348561 -0.398763 -0.599 118 133 172
0.365143 -0.399429 -0.6 52 97 165
0.367429 -0.399429 -0.6 48 99 164
0.390286 -0.399429 -0.6 38 79 143
0.405143 -0.399429 -0.6 44 83 148
0.407429 -0.399429 -0.6 81 117 175
0.415429 -0.399429 -0.6 170 170 182
0.460767 -0.400094 -0.601 28 66 131
0.474048 -0.366143 -0.55 152 118 106
0.453589 -0.343509 -0.516 166 124 108
0.455334 -0.337517 -0.507 172 125 107
0.47856 -0.33552 -0.504 164 119 100
0.47952 -0.33552 -0.504 164 119 100
0.505638 -0.346171 -0.52 151 113 94
0.56918 -0.381454 -0.573 141 119 108
-0.025981 -0.331139 -0.496 190 155 127
-0.0167381 -0.317119 -0.475 197 162 134
-0.0104048 -0.317119 -0.475 197 162 132
0.00685714 -0.320457 -0.48 193 154 125
0.0361429 -0.337815 -0.506 140 109 106
0.0481305 -0.34783 -0.521 140 111 107
0.05624 -0.355173 -0.532 139 111 108
0.0709333 -0.373867 -0.56 135 106 110
0.0723857 -0.37587 -0.563 134 107 112
0.0787181 -0.385884 -0.578 140 138 151
0.0918467 -0.399904 -0.599 174 178 205
0.101311 -0.401239 -0.601 173 179 195
0.114093 -0.401907 -0.602 110 122 146
0.116387 -0.401907 -0.602 115 130 161
0.142523 -0.401239 -0.601 139 148 177
0.161445 -0.399904 -0.599 227 230 249
0.189969 -0.399904 -0.599 241 240 255
0.201378 -0.399904 -0.599 119 142 186
0.343997 -0.399904 -0.599 75 115 174
0.366816 -0.399904 -0.599 38 91 157
0.367957 -0.399904 -0.599 38 91 157
0.37138 -0.399904 -0.599 55 100 168
0.379367 -0.399904 -0.599 189 192 209
0.392571 -0.400571 -0.6 25 65 126
0.399429 -0.400571 -0.6 22 69 141
0.400571 -0.400571 -0.6 22 68 146
0.4193 -0.399904 -0.599 155 170 203
0.429569 -0.399904 -0.599 34 84 157
0.43185 -0.399904 -0.599 57 105 177
0.439429 -0.400571 -0.6 138 168 206
0.455043 -0.401239 -0.601 123 143 180
0.464197 -0.335812 -0.503 176 125 106
0.502721 -0.345159 -0.517 152 111 93
-0.0233629 -0.322041 -0.481 195 158 129
-0.0158 -0.317354 -0.474 198 161 132
-0.00769048 -0.318024 -0.475 198 163 133
-0.00498667 -0.318693 -0.476 200 163 134
-0.00408 -0.318693 -0.476 200 163 136
0.00866762 -0.320702 -0.479 189 147 123
0.0142305 -0.32271 -0.482 180 139 119
0.06794 -0.370247 -0.553 133 112 107
0.0723857 -0.376942 -0.563 135 108 113
0.0967324 -0.402384 -0.601 184 183 201
0.101143 -0.401714 -0.6 164 172 193
0.10836 -0.403053 -0.602 143 161 199
0.11868 -0.403053 -0.602 161 174 206
0.138857 -0.401714 -0.6 165 178 220
0.178559 -0.401045 -0.599 167 180 214
0.332032 -0.400375 -0.598 52 90 161
0.342284 -0.400375 -0.598 57 95 168
0.366204 -0.400375 -0.598 41 96 161
0.446286 -0.401714 -0.6 186 189 198
0.447429 -0.401714 -0.6 168 171 180
0.448571 -0.401714 -0.6 135 135 135
0.460374 -0.401045 -0.599 41 77 139
0.489053 -0.403053 -0.602 64 92 132
0.50289 -0.400375 -0.598 155 162 181
0.454571 -0.345474 -0.516 174 126 112
0.45936 -0.33744 -0.504 172 124 104
0.487206 -0.338779 -0.506 160 115 94
-0.00407143 -0.318929 -0.475 199 162 133
0.000454286 -0.320271 -0.477 198 158 132
0.0237029 -0.327657 -0.488 151 119 106
0.02976 -0.333029 -0.496 148 115 106
0.031841 -0.335043 -0.499 143 110 103
0.0403933 -0.3431 -0.511 138 107 102
0.055019 -0.355857 -0.53 136 111 107
0.0978771 -0.403529 -0.601 181 178 195
0.124207 -0.403529 -0.601 193 200 218
0.13222 -0.403529 -0.601 105 122 152
0.160036 -0.401514 -0.598 225 226 247
0.162314 -0.401514 -0.598 222 229 248
0.19079 -0.401514 -0.598 237 238 255
0.349118 -0.401514 -0.598 147 162 185
0.367343 -0.401514 -0.598 63 109 169
0.434547 -0.401514 -0.598 63 109 169
0.463797 -0.402186 -0.599 23 55 114
0.474857 -0.402857 -0.6 177 180 199
0.495744 -0.402186 -0.599 100 125 165
0.460986 -0.355186 -0.529 155 121 109
0.45775 -0.351157 -0.523 158 120 107
0.457328 -0.339743 -0.506 164 115 98
0.461323 -0.337729 -0.503 172 125 107
0.464197 -0.337729 -0.503 168 120 100
0.473792 -0.337057 -0.502 164 118 95
0.474749 -0.337057 -0.502 168 122 99
0.476661 -0.337057 -0.502 166 120 97
-0.0130638 -0.318487 -0.473 199 163 131
-0.00855905 -0.318487 -0.473 198 162 130
-0.00316667 -0.319833 -0.475 197 160 131
0.00136 -0.320507 -0.476 198 158 132
0.02976 -0.333973 -0.496 147 114 105
0.0339448 -0.338013 -0.502 141 110 105
0.0403933 -0.344073 -0.511 137 106 103
0.0425886 -0.346093 -0.514 140 109 106
0.0503076 -0.352153 -0.523 140 112 109
0.0753248 -0.383127 -0.569 123 113 122
0.0977143 -0.404 -0.6 180 178 192
0.102115 -0.403327 -0.599 107 122 151
0.108 -0.404 -0.6 135 158 200
0.116193 -0.404673 -0.601 93 117 155
0.118483 -0.404673 -0.601 150 166 202
0.122857 -0.404 -0.6 195 202 218
0.126286 -0.404 -0.6 198 204 218
0.138857 -0.404 -0.6 129 147 193
0.14 -0.404 -0.6 126 147 194
0.167729 -0.40198 -0.597 163 185 224
0.174844 -0.402653 -0.598 140 168 208
0.177122 -0.402653 -0.598 156 172 208
0.185923 -0.40198 -0.597 241 244 255
0.20298 -0.40198 -0.597 112 134 191
0.385568 -0.402653 -0.598 143 150 158
0.386707 -0.402653 -0.598 174 181 189
0.393058 -0.403327 -0.599 18 66 142
0.397622 -0.403327 -0.599 22 64 136
0.40607 -0.402653 -0.598 147 176 218
0.40721 -0.402653 -0.598 169 180 198
0.428851 -0.402653 -0.598 53 99 161
0.451247 -0.403327 -0.599 108 106 119
0.478286 -0.404 -0.6 174 177 196
0.487096 -0.404673 -0.601 134 151 181
0.49053 -0.404673 -0.601 77 101 147
0.490857 -0.404 -0.6 82 109 156
0.46112 -0.35552 -0.528 157 119 106
0.457869 -0.35148 -0.522 159 120 105
0.456007 -0.344073 -0.511 174 127 111
0.458348 -0.340033 -0.505 159 112 94
0.489133 -0.340707 -0.506 162 117 96
0.492034 -0.342053 -0.508 159 114 93
0.575548 -0.387167 -0.575 183 170 162
0.00499714 -0.322089 -0.477 193 154 125
0.00590571 -0.322089 -0.477 191 152 123
0.0123429 -0.324114 -0.48 176 133 116
0.0169848 -0.325465 -0.482 170 131 114
0.0307667 -0.335593 -0.497 143 110 101
0.04472 -0.348423 -0.516 140 110 108
0.0514019 -0.353825 -0.524 135 109 108
0.0623438 -0.365304 -0.541 135 106 108
0.0664029 -0.370706 -0.549 128 109 105
0.100974 -0.404468 -0.599 120 138 174
0.129498 -0.404468 -0.599 195 201 215
0.136116 -0.403792 -0.598 85 113 163
0.139767 -0.404468 -0.599 107 130 184
0.150035 -0.404468 -0.599 153 174 217
0.153202 -0.403792 -0.598 218 224 246
0.157494 -0.403117 -0.597 226 225 243
0.175689 -0.403117 -0.597 137 168 212
0.180237 -0.403117 -0.597 158 177 217
0.336598 -0.402442 -0.596 52 91 158
0.357631 -0.403117 -0.597 123 139 162
0.359906 -0.403117 -0.597 71 115 178
0.363317 -0.403117 -0.597 65 114 180
0.369003 -0.403117 -0.597 73 114 178
0.405391 -0.403117 -0.597 112 143 189
0.40994 -0.403117 -0.597 190 197 205
0.464162 -0.403792 -0.598 101 128 171
0.473274 -0.403792 -0.598 136 150 176
0.474413 -0.403792 -0.598 136 150 176
0.480911 -0.404468 -0.599 170 174 185
0.485143 -0.405143 -0.6 168 174 186
0.468055 -0.33897 -0.502 166 118 98
0.47762 -0.338294 -0.501 163 117 94
-0.0193705 -0.320289 -0.473 194 159 129
-0.0076581 -0.320289 -0.473 201 162 131
0.0132571 -0.325029 -0.48 179 136 117
0.0256667 -0.3318 -0.49 149 117 106
0.0349705 -0.340603 -0.503 140 109 104
0.0537038 -0.356854 -0.527 133 107 106
0.0636086 -0.367689 -0.543 131 107 107
0.0964105 -0.405609 -0.599 184 180 194
0.115807 -0.405609 -0.599 98 123 164
0.132699 -0.404931 -0.598 162 181 221
0.137255 -0.404931 -0.598 90 113 165
0.14295 -0.404931 -0.598 91 117 176
0.149785 -0.404931 -0.598 179 198 238
0.159501 -0.403577 -0.596 227 223 246
0.162907 -0.403577 -0.596 202 208 230
0.253726 -0.403577 -0.596 168 176 199
0.375196 -0.403577 -0.596 190 196 208
0.408803 -0.404254 -0.597 184 191 199
0.416065 -0.403577 -0.596 190 196 208
0.437231 -0.404254 -0.597 142 163 194
0.44252 -0.404931 -0.598 180 183 198
0.455426 -0.404254 -0.597 99 123 161
0.456563 -0.404254 -0.597 115 139 177
0.482387 -0.404931 -0.598 168 174 188
0.494916 -0.404931 -0.598 128 149 180
0.503767 -0.4029 -0.595 161 164 171
0.479606 -0.375137 -0.554 146 116 108
0.4605 -0.3555 -0.525 162 123 108
0.459742 -0.354146 -0.523 161 122 107
0.456537 -0.349406 -0.516 170 123 105
0.456633 -0.348729 -0.515 171 124 106
0.456161 -0.344666 -0.509 174 125 110
0.467099 -0.339926 -0.502 168 121 101
0.469011 -0.339926 -0.502 170 123 103
0.478574 -0.339249 -0.501 162 115 95
0.49397 -0.343989 -0.508 161 116 97
-0.0165971 -0.319831 -0.471 197 163 128
-0.00495524 -0.32119 -0.473 199 160 127
0.0207429 -0.328659 -0.484 162 122 112
0.0246829 -0.332054 -0.489 150 118 107
0.0676943 -0.374155 -0.551 127 109 107
0.0766771 -0.387736 -0.571 111 105 117
0.0975514 -0.40675 -0.599 181 177 191
0.103084 -0.40607 -0.598 93 115 165
0.108961 -0.40675 -0.599 82 110 160
0.123793 -0.40675 -0.599 193 201 224
0.128357 -0.40675 -0.599 199 200 220
0.136116 -0.40607 -0.598 85 111 160
0.141811 -0.40607 -0.598 91 115 177
0.151809 -0.405391 -0.597 207 218 246
0.162907 -0.404712 -0.596 196 204 227
0.252167 -0.404033 -0.595 206 213 239
0.3383 -0.404033 -0.595 52 92 161
0.3417 -0.404033 -0.595 156 183 226
0.363233 -0.404033 -0.595 79 125 185
0.374567 -0.404033 -0.595 190 198 211
0.41947 -0.404712 -0.596 141 165 199
0.421741 -0.404712 -0.596 87 120 171
0.438369 -0.405391 -0.597 170 190 215
0.454289 -0.405391 -0.597 89 107 143
0.455426 -0.405391 -0.597 121 138 168
0.472483 -0.405391 -0.597 148 165 195
0.47897 -0.40607 -0.598 167 173 189
0.497802 -0.404712 -0.596 82 101 144
0.464751 -0.360574 -0.531 155 118 109
0.466143 -0.340882 -0.502 169 122 104
0.468055 -0.340882 -0.502 168 121 103
-0.0076419 -0.32141 -0.472 201 162 133
0.00407143 -0.323452 -0.475 194 155 124
0.0424229 -0.348648 -0.512 140 111 107
0.0524 -0.356819 -0.524 136 108 105
0.0583762 -0.362948 -0.533 134 105 107
0.0766771 -0.388824 -0.571 107 101 113
0.115613 -0.40721 -0.598 96 124 171
0.160367 -0.405167 -0.595 213 214 242
0.1649 -0.405167 -0.595 145 167 208
0.172833 -0.405167 -0.595 118 148 200
0.200033 -0.405167 -0.595 106 132 181
0.363233 -0.405167 -0.595 97 140 195
0.376833 -0.405167 -0.595 191 197 211
0.377967 -0.405167 -0.595 193 199 213
0.380233 -0.405167 -0.595 187 199 211
0.384767 -0.405167 -0.595 91 107 130
0.404712 -0.405848 -0.596 70 98 138
0.412659 -0.405848 -0.596 187 197 207
0.424433 -0.405167 -0.595 140 168 216
0.430823 -0.405848 -0.596 121 148 193
0.447851 -0.405848 -0.596 165 173 196
0.448987 -0.405848 -0.596 108 116 139
0.46261 -0.405848 -0.596 133 147 173
0.466015 -0.405848 -0.596 123 140 170
0.480443 -0.406529 -0.597 164 170 186
0.483854 -0.406529 -0.597 160 167 183
0.496667 -0.405848 -0.596 76 98 145
0.5015 -0.405167 -0.595 158 161 176
0.488263 -0.384057 -0.564 143 113 113
0.467099 -0.341838 -0.502 167 118 101
0.475705 -0.341838 -0.502 169 122 102
0.480483 -0.341157 -0.501 160 113 95
-0.0192476 -0.320943 -0.47 196 160 128
-0.000450476 -0.322991 -0.473 194 155 124
0.00225714 -0.323674 -0.474 194 155 124
0.00406286 -0.323674 -0.474 195 156 125
0.0266543 -0.335283 -0.491 146 112 103
0.0370333 -0.344843 -0.505 139 109 101
0.105186 -0.407666 -0.597 82 117 171
0.106323 -0.407666 -0.597 71 106 160
0.112196 -0.408349 -0.598 94 122 172
0.121309 -0.408349 -0.598 193 197 226
0.137026 -0.407666 -0.597 86 108 166
0.149284 -0.406983 -0.596 164 192 232
0.195171 -0.405617 -0.594 131 149 195
0.329811 -0.405617 -0.594 85 116 163
0.334337 -0.405617 -0.594 84 114 178
0.359229 -0.405617 -0.594 91 128 180
0.366017 -0.405617 -0.594 103 139 187
0.3961 -0.4063 -0.595 142 175 210
0.4267 -0.4063 -0.595 121 150 192
0.437634 -0.406983 -0.596 169 186 206
0.448987 -0.406983 -0.596 92 101 130
0.456167 -0.4063 -0.595 165 181 207
0.480773 -0.406983 -0.596 169 171 184
0.497554 -0.393326 -0.576 141 109 112
0.469128 -0.366011 -0.536 148 113 109
0.458231 -0.346209 -0.507 172 124 110
0.458291 -0.345526 -0.506 171 123 109
0.458348 -0.344843 -0.505 173 126 110
0.467123 -0.342111 -0.501 168 120 100
0.483346 -0.342111 -0.501 164 117 99
-0.0356571 -0.394423 -0.576 193 158 128
-0.0238248 -0.323208 -0.472 195 160 128
-0.01206 -0.321153 -0.469 200 161 130
-0.00672857 -0.322523 -0.471 200 161 130
-0.00224762 -0.323208 -0.472 199 160 129
0.00316 -0.324577 -0.474 196 155 127
0.0207429 -0.331425 -0.484 157 121 109
0.0512057 -0.357446 -0.522 135 110 105
0.0792667 -0.393053 -0.574 112 126 161
0.0993333 -0.408118 -0.596 108 121 155
0.116557 -0.408803 -0.597 93 119 168
0.12338 -0.408803 -0.597 191 197 223
0.138163 -0.408803 -0.597 76 106 166
0.144743 -0.408118 -0.596 94 114 173
0.1782 -0.406749 -0.594 110 140 192
0.356966 -0.406749 -0.594 129 158 200
0.402223 -0.406749 -0.594 100 119 149
0.40788 -0.406749 -0.594 185 189 214
0.42372 -0.406749 -0.594 112 139 182
0.48645 -0.408118 -0.596 103 115 141
0.463381 -0.360185 -0.526 157 114 105
0.4581 -0.348544 -0.509 174 127 111
0.458168 -0.347859 -0.508 174 127 111
0.459255 -0.34649 -0.506 173 124 107
0.469986 -0.343066 -0.501 168 120 98
0.47094 -0.343066 -0.501 171 123 101
0.487179 -0.34375 -0.502 163 116 96
-0.00134571 -0.32342 -0.471 198 159 126
0.0226333 -0.333033 -0.485 151 117 107
0.0236543 -0.334407 -0.487 150 116 107
0.0327914 -0.342647 -0.499 144 111 102
0.0380705 -0.347453 -0.506 140 110 102
0.166605 -0.407193 -0.593 109 135 186
0.180159 -0.407193 -0.593 152 175 216
0.188066 -0.407193 -0.593 221 232 250
0.192584 -0.407193 -0.593 208 222 248
0.194843 -0.407193 -0.593 207 224 252
0.356365 -0.407193 -0.593 137 158 189
0.410582 -0.407193 -0.593 174 186 200
0.4151 -0.407193 -0.593 180 191 211
0.416931 -0.40788 -0.594 181 192 212
0.418063 -0.40788 -0.594 177 183 207
0.43164 -0.40788 -0.594 89 115 152
0.444086 -0.40788 -0.594 129 142 174
0.461057 -0.40788 -0.594 158 165 183
0.465583 -0.40788 -0.594 162 169 188
0.470109 -0.40788 -0.594 151 159 182
0.48645 -0.409253 -0.596 123 132 161
0.48872 -0.409253 -0.596 89 102 147
0.496131 -0.40788 -0.594 74 101 146
0.465143 -0.36256 -0.528 153 113 105
0.4635 -0.3605 -0.525 156 116 108
0.461846 -0.35844 -0.522 161 117 108
0.45931 -0.346767 -0.505 175 127 107
0.473803 -0.34402 -0.501 167 121 98
0.508624 -0.353633 -0.515 150 108 86
0.00586857 -0.326383 -0.474 188 147 119
0.0207 -0.33258 -0.483 158 122 110
0.03696 -0.34704 -0.504 139 109 101
0.0391114 -0.349106 -0.507 138 109 101
0.0791286 -0.394551 -0.573 106 120 159
0.10955 -0.410389 -0.596 55 90 156
0.138833 -0.4097 -0.595 79 108 166
0.330956 -0.407634 -0.592 126 143 169
0.332084 -0.407634 -0.592 110 127 153
0.351847 -0.408323 -0.593 206 210 219
0.36253 -0.407634 -0.592 140 172 213
0.370423 -0.407634 -0.592 188 201 217
0.386862 -0.408323 -0.593 142 158 181
0.41397 -0.408323 -0.593 184 196 210
0.419618 -0.408323 -0.593 120 138 174
0.454633 -0.408323 -0.593 171 177 201
0.460281 -0.408323 -0.593 168 175 193
0.464451 -0.409011 -0.594 167 174 192
0.468977 -0.409011 -0.594 169 175 197
0.480291 -0.409011 -0.594 168 174 198
0.467786 -0.365631 -0.531 151 112 105
0.460376 -0.355991 -0.517 161 118 111
0.46032 -0.34704 -0.504 178 130 110
0.471894 -0.344974 -0.501 169 121 99
0.488117 -0.344974 -0.501 164 118 95
-0.0374571 -0.393571 -0.57 190 155 123
-0.0275371 -0.327286 -0.474 192 157 125
-0.0265219 -0.325905 -0.472 192 156 124
-0.0022381 -0.324524 -0.47 196 157 124
-0.000447619 -0.324524 -0.47 196 157 124
0.00405429 -0.326595 -0.473 189 148 118
0.0169143 -0.331429 -0.48 170 127 110
0.0178286 -0.331429 -0.48 164 125 110
0.019739 -0.33281 -0.482 159 123 111
0.0245819 -0.336262 -0.487 148 115 108
0.0546038 -0.36319 -0.526 134 109 105
0.0713571 -0.383214 -0.555 131 107 107
0.0773562 -0.39219 -0.568 102 98 121
0.112767 -0.410833 -0.595 55 89 152
0.1139 -0.410833 -0.595 66 99 153
0.119567 -0.410833 -0.595 170 183 215
0.144014 -0.409452 -0.593 89 115 172
0.147403 -0.409452 -0.593 162 183 226
0.171962 -0.408762 -0.592 109 145 197
0.184366 -0.408762 -0.592 225 236 254
0.245257 -0.408762 -0.592 219 233 255
0.247512 -0.408762 -0.592 232 241 255
0.346743 -0.408762 -0.592 206 206 218
0.393639 -0.409452 -0.593 115 127 149
0.407193 -0.409452 -0.593 70 84 111
0.417783 -0.408762 -0.592 151 159 180
0.424136 -0.409452 -0.593 89 118 162
0.43882 -0.409452 -0.593 177 183 205
0.443338 -0.409452 -0.593 65 85 120
0.453504 -0.409452 -0.593 170 176 190
0.475766 -0.410143 -0.594 71 84 126
0.498971 -0.408762 -0.592 149 158 187
0.46032 -0.348 -0.504 178 130 110
0.48619 -0.345238 -0.5 166 120 97
-0.0264657 -0.326111 -0.471 192 156 124
-0.0164562 -0.323342 -0.467 199 163 129
0.01224 -0.329573 -0.476 179 134 113
0.0455257 -0.355884 -0.514 141 112 106
0.05928 -0.368347 -0.532 136 110 111
0.0957667 -0.411967 -0.595 105 122 142
0.099 -0.411274 -0.594 64 89 130
0.137469 -0.411274 -0.594 80 106 165
0.141755 -0.410582 -0.593 77 103 160
0.147154 -0.40989 -0.592 190 209 242
0.164069 -0.40989 -0.592 134 156 193
0.352911 -0.409197 -0.591 208 211 228
0.361917 -0.409197 -0.591 132 161 203
0.364169 -0.409197 -0.591 118 147 189
0.398157 -0.410582 -0.593 186 193 211
0.400416 -0.410582 -0.593 186 193 211
0.401996 -0.40989 -0.592 180 186 202
0.403124 -0.40989 -0.592 181 188 206
0.405379 -0.40989 -0.592 165 179 205
0.422293 -0.40989 -0.592 78 105 148
0.443718 -0.40989 -0.592 80 104 138
0.458377 -0.40989 -0.592 163 169 181
0.459135 -0.35173 -0.508 174 127 111
0.479515 -0.345498 -0.499 167 120 100
0.485218 -0.345498 -0.499 168 123 102
0.498771 -0.350345 -0.506 152 112 87
0.505647 -0.353807 -0.511 148 110 89
0.508603 -0.355191 -0.513 147 109 88
-0.0155333 -0.323537 -0.466 198 162 128
-0.0146457 -0.323537 -0.466 197 161 127
-0.00668571 -0.324926 -0.468 199 160 129
0.0159333 -0.331869 -0.478 175 133 111
0.0187429 -0.333257 -0.48 166 125 107
0.0358571 -0.348531 -0.502 138 108 100
0.0642857 -0.374914 -0.54 131 107 107
0.117103 -0.412406 -0.594 172 193 224
0.120497 -0.412406 -0.594 193 205 217
0.147154 -0.411017 -0.592 193 209 242
0.162666 -0.410323 -0.591 149 161 187
0.18518 -0.410323 -0.591 228 235 254
0.190809 -0.410323 -0.591 220 227 253
0.357414 -0.410323 -0.591 107 129 166
0.35854 -0.410323 -0.591 110 132 169
0.359666 -0.410323 -0.591 124 151 196
0.370923 -0.410323 -0.591 197 205 226
0.385557 -0.410323 -0.591 189 197 216
0.401317 -0.410323 -0.591 187 190 205
0.430187 -0.411017 -0.592 101 124 165
0.434697 -0.411017 -0.592 159 176 204
0.451611 -0.411017 -0.592 160 161 166
0.465929 -0.411711 -0.593 173 180 190
0.469317 -0.411711 -0.593 167 173 187
0.470447 -0.411711 -0.593 170 173 190
0.459135 -0.352697 -0.508 174 127 109
0.460219 -0.351309 -0.506 174 125 108
0.461233 -0.350614 -0.505 174 126 106
0.479503 -0.345754 -0.498 167 120 100
0.486169 -0.346449 -0.499 155 113 91
0.487119 -0.346449 -0.499 153 111 89
0.497786 -0.350614 -0.505 151 114 88
-0.020859 -0.324425 -0.466 199 160 127
0.00675714 -0.329298 -0.473 188 147 119
0.00855905 -0.329298 -0.473 184 143 115
0.02964 -0.343918 -0.494 143 110 103
0.0616524 -0.372462 -0.535 133 107 108
0.0655562 -0.377335 -0.542 131 107 107
0.0697933 -0.383601 -0.551 129 105 103
0.101092 -0.412841 -0.593 66 97 162
0.105789 -0.413537 -0.594 57 95 158
0.123683 -0.412841 -0.593 190 206 221
0.124812 -0.412841 -0.593 192 204 226
0.128417 -0.413537 -0.594 189 200 222
0.12933 -0.412841 -0.593 184 199 230
0.141516 -0.412145 -0.592 92 117 174
0.143529 -0.411449 -0.591 98 126 176
0.353438 -0.410752 -0.59 199 204 224
0.364676 -0.410752 -0.59 98 128 166
0.377038 -0.410752 -0.59 74 95 126
0.382657 -0.410752 -0.59 187 194 213
0.428334 -0.411449 -0.591 78 108 160
0.430586 -0.411449 -0.591 141 164 206
0.435089 -0.411449 -0.591 176 178 201
0.451974 -0.411449 -0.591 134 132 135
0.464015 -0.412145 -0.592 178 183 187
0.501781 -0.410752 -0.59 119 133 172
0.498457 -0.398221 -0.572 141 113 102
0.477476 -0.377335 -0.542 141 111 103
0.461233 -0.351576 -0.505 174 127 107
0.46128 -0.35088 -0.504 176 128 108
0.462281 -0.350184 -0.503 174 126 106
0.469986 -0.348791 -0.501 174 126 106
0.493872 -0.349488 -0.502 156 114 90
0.504637 -0.354361 -0.509 148 110 87
-0.0262971 -0.326709 -0.468 192 156 122
-0.0119571 -0.324614 -0.465 202 163 132
0.000446667 -0.327407 -0.469 192 151 121
0.00134286 -0.328105 -0.47 193 152 122
0.00314 -0.328803 -0.471 190 151 122
0.00584381 -0.329501 -0.472 187 148 119
0.0177543 -0.33369 -0.478 165 128 110
0.0245314 -0.339274 -0.486 147 114 105
0.0378448 -0.351142 -0.503 140 109 104
0.0920562 -0.41397 -0.593 172 178 194
0.102222 -0.41397 -0.593 57 102 157
0.115776 -0.41397 -0.593 168 173 192
0.118964 -0.413272 -0.592 190 197 215
0.12933 -0.41397 -0.593 176 191 224
0.13159 -0.41397 -0.593 123 149 198
0.142403 -0.412574 -0.591 94 122 170
0.401762 -0.411876 -0.59 183 194 200
0.406257 -0.411876 -0.59 158 175 193
0.42761 -0.411876 -0.59 69 98 156
0.429857 -0.411876 -0.59 143 167 213
0.454226 -0.412574 -0.591 177 179 191
0.457603 -0.412574 -0.591 162 166 175
0.463231 -0.412574 -0.591 160 163 168
0.480117 -0.412574 -0.591 84 100 136
0.48544 -0.413272 -0.592 88 111 161
0.488823 -0.413272 -0.592 34 64 124
0.502052 -0.411178 -0.589 146 154 175
0.492954 -0.39233 -0.562 146 114 101
0.481 -0.38116 -0.546 145 115 105
0.463938 -0.363708 -0.521 153 119 109
0.462253 -0.361613 -0.518 163 117 104
0.460642 -0.358821 -0.514 166 120 104
0.464197 -0.351142 -0.503 176 127 110
0.466169 -0.349746 -0.501 172 124 104
0.472857 -0.349048 -0.5 169 123 100
-0.00667143 -0.3269 -0.467 199 158 128
0.0264914 -0.3416 -0.488 146 113 106
0.0315857 -0.3465 -0.495 141 110 105
0.0399981 -0.3542 -0.506 139 110 106
0.0555 -0.3675 -0.525 133 107 106
0.0943152 -0.4151 -0.593 173 180 199
0.0965743 -0.4151 -0.593 140 150 162
0.107688 -0.4144 -0.592 61 98 153
0.108815 -0.4144 -0.592 72 102 162
0.121219 -0.4144 -0.592 198 204 218
0.217089 -0.4123 -0.589 233 236 255
0.221576 -0.4123 -0.589 238 239 243
0.222698 -0.4123 -0.589 239 236 245
0.228308 -0.4123 -0.589 150 169 202
0.232795 -0.4123 -0.589 191 211 248
0.388276 -0.413 -0.59 193 194 199
0.403325 -0.4123 -0.589 181 190 195
0.463571 -0.413 -0.59 166 170 181
0.502052 -0.4123 -0.589 126 134 153
0.484524 -0.385 -0.55 146 113 104
0.478509 -0.3794 -0.542 147 114 105
0.469933 -0.371 -0.53 151 119 108
0.465719 -0.3661 -0.523 150 117 100
0.461538 -0.3605 -0.515 157 118 103
0.48138 -0.3479 -0.497 170 124 101
-0.0198857 -0.325684 -0.464 197 161 127
-0.0093 -0.326386 -0.465 200 161 128
-0.00752857 -0.326386 -0.465 201 160 130
0.013119 -0.333405 -0.475 170 132 111
0.0187038 -0.336212 -0.479 162 124 113
0.0264914 -0.34253 -0.488 146 113 106
0.0284667 -0.343933 -0.49 144 111 106
0.0485571 -0.361481 -0.515 140 112 109
0.074001 -0.392365 -0.559 123 106 114
0.0787143 -0.400086 -0.57 135 136 157
0.108815 -0.415528 -0.592 77 107 161
0.118964 -0.415528 -0.592 192 199 215
0.129112 -0.415528 -0.592 109 127 165
0.134523 -0.414826 -0.591 78 110 167
0.135649 -0.414826 -0.591 94 124 176
0.34552 -0.41272 -0.588 110 122 162
0.35448 -0.41272 -0.588 182 192 217
0.36904 -0.41272 -0.588 192 197 217
0.390984 -0.413422 -0.589 188 197 204
0.40824 -0.41272 -0.588 164 173 188
0.443713 -0.413422 -0.589 175 175 185
0.46919 -0.414124 -0.59 168 171 188
0.470314 -0.414124 -0.59 173 175 187
0.482676 -0.414124 -0.59 40 69 129
0.50093 -0.413422 -0.589 96 115 157
0.473811 -0.349549 -0.498 174 126 104
0.485167 -0.348847 -0.497 170 123 103
0.49773 -0.353058 -0.503 150 112 91
-0.0406429 -0.400468 -0.569 192 156 124
-0.0321867 -0.335013 -0.476 191 155 123
-0.0289095 -0.328679 -0.467 192 156 124
0.0177171 -0.335717 -0.477 162 125 109
0.03674 -0.352609 -0.501 137 106 101
0.101877 -0.415951 -0.591 78 109 153
0.112009 -0.415951 -0.591 83 119 169
0.117637 -0.415951 -0.591 190 199 214
0.144165 -0.414544 -0.589 110 130 165
0.17528 -0.41384 -0.588 143 163 198
0.17864 -0.41384 -0.588 220 228 251
0.1876 -0.41384 -0.588 226 236 255
0.18872 -0.41384 -0.588 214 224 249
0.22232 -0.41384 -0.588 237 239 254
0.22568 -0.41384 -0.588 216 218 231
0.23464 -0.41384 -0.588 190 208 244
0.36568 -0.41384 -0.588 168 187 217
0.36792 -0.41384 -0.588 175 186 206
0.37912 -0.41384 -0.588 192 198 212
0.3948 -0.41384 -0.588 185 194 199
0.40152 -0.41384 -0.588 191 190 195
0.406 -0.41384 -0.588 183 187 198
0.41608 -0.41384 -0.588 108 132 176
0.42504 -0.41384 -0.588 29 62 129
0.43586 -0.414544 -0.589 71 90 132
0.461324 -0.415248 -0.59 141 147 159
0.470314 -0.415248 -0.59 169 171 183
0.475933 -0.415248 -0.59 152 157 177
0.461775 -0.36035 -0.512 165 123 107
0.462147 -0.356128 -0.506 175 127 107
0.462195 -0.355424 -0.505 173 126 106
0.463239 -0.354016 -0.503 173 126 106
0.488989 -0.350497 -0.498 166 120 97
0.489937 -0.350497 -0.498 161 115 92
-0.0288476 -0.328863 -0.466 193 157 125
-0.01628 -0.32604 -0.462 194 155 122
-0.0110238 -0.326746 -0.463 199 160 127
0.00672857 -0.332391 -0.471 181 141 115
0.0346229 -0.351446 -0.498 140 107 100
0.0409619 -0.357091 -0.506 138 105 100
0.0529905 -0.366971 -0.52 138 110 109
0.0679952 -0.384614 -0.545 128 103 106
0.0928714 -0.417077 -0.591 181 182 200
0.105254 -0.417077 -0.591 112 134 173
