ply
format ascii 1.0
comment Created by Open3D
element vertex 1293
property double x
property double y
property double z
property uchar red
property uchar green
property uchar blue
end_header
0.364513 -0.11534 -0.511 140 105 109
0.376888 -0.114663 -0.508 114 85 87
0.377111 -0.114437 -0.507 112 83 85
0.388897 -0.114211 -0.506 130 98 101
0.394305 -0.114663 -0.508 131 99 102
0.423603 -0.117146 -0.519 198 146 148
0.287423 -0.127922 -0.562 155 115 124
0.28914 -0.125873 -0.553 158 127 133
0.323137 -0.133385 -0.586 44 32 42
0.3276 -0.13384 -0.588 40 27 37
0.337293 -0.130653 -0.574 50 37 47
0.320419 -0.118362 -0.52 137 102 106
0.331714 -0.117451 -0.516 142 107 111
0.348051 -0.116996 -0.514 138 106 109
0.352549 -0.116541 -0.512 139 107 110
0.355474 -0.116541 -0.512 139 107 110
0.357425 -0.116541 -0.512 139 107 110
0.3584 -0.116541 -0.512 138 106 109
0.36035 -0.116541 -0.512 139 107 110
0.38194 -0.115403 -0.507 130 98 101
0.408377 -0.117451 -0.516 89 61 60
0.420637 -0.118134 -0.519 199 149 150
0.426569 -0.118134 -0.519 186 132 132
0.283381 -0.126238 -0.55 157 117 118
0.334299 -0.134501 -0.586 40 23 39
0.336706 -0.131517 -0.573 61 44 54
0.317893 -0.12027 -0.524 134 97 104
0.320791 -0.119123 -0.519 134 102 107
0.378077 -0.116369 -0.507 108 79 83
0.38697 -0.116139 -0.506 132 100 101
0.391789 -0.116139 -0.506 131 97 98
0.39624 -0.116598 -0.508 132 98 99
0.408377 -0.118434 -0.516 73 48 51
0.419827 -0.118893 -0.518 208 149 153
0.422787 -0.118893 -0.518 191 140 139
0.28236 -0.12636 -0.546 155 116 117
0.2992 -0.1296 -0.56 71 54 60
0.32648 -0.13608 -0.588 37 24 34
0.317706 -0.121963 -0.527 136 101 107
0.327433 -0.119649 -0.517 141 107 108
0.328418 -0.119649 -0.517 141 107 108
0.336957 -0.119186 -0.515 142 108 109
0.348351 -0.118723 -0.513 138 104 105
0.351573 -0.118491 -0.512 142 108 109
0.367211 -0.117566 -0.508 140 105 109
0.373017 -0.117566 -0.508 132 95 102
0.381187 -0.117103 -0.506 84 55 57
0.384078 -0.117103 -0.506 133 101 104
0.38697 -0.117103 -0.506 133 101 104
0.425747 -0.11988 -0.518 187 131 132
0.0987467 -0.150267 -0.644 202 164 153
0.108391 -0.150033 -0.643 199 153 137
0.280809 -0.1267 -0.543 155 116 117
0.287045 -0.127633 -0.547 152 113 118
0.292292 -0.128567 -0.551 148 113 117
0.329838 -0.137667 -0.59 30 17 27
0.318874 -0.1246 -0.534 143 113 115
0.322147 -0.120867 -0.518 137 103 104
0.33009 -0.120167 -0.515 140 106 107
0.334014 -0.120167 -0.515 141 107 108
0.342177 -0.119933 -0.514 143 109 110
0.345114 -0.119933 -0.514 141 107 108
0.359647 -0.119233 -0.511 139 107 110
0.3638 -0.119 -0.51 128 99 101
0.38697 -0.118067 -0.506 125 93 96
0.39799 -0.118767 -0.509 129 97 100
0.400527 -0.119233 -0.511 116 91 94
0.428546 -0.1211 -0.519 170 114 115
0.27874 -0.127734 -0.543 157 118 119
0.283911 -0.127734 -0.543 151 115 119
0.308884 -0.133615 -0.568 46 28 28
0.33601 -0.138555 -0.589 42 29 39
0.33569 -0.135262 -0.575 27 14 24
0.323133 -0.121853 -0.518 137 103 104
0.386205 -0.118795 -0.505 125 93 96
0.418476 -0.122324 -0.52 163 112 111
0.419649 -0.122089 -0.519 189 133 134
0.101561 -0.149637 -0.631 198 160 149
0.10929 -0.150349 -0.634 193 151 135
0.27966 -0.13114 -0.553 156 117 120
0.306709 -0.133749 -0.564 74 48 51
0.315427 -0.13612 -0.574 40 27 36
0.321487 -0.13778 -0.581 38 25 34
0.324103 -0.129954 -0.548 132 110 113
0.316486 -0.125686 -0.53 134 102 103
0.320791 -0.123077 -0.519 138 103 107
0.323133 -0.12284 -0.518 139 104 108
0.32412 -0.12284 -0.518 139 104 108
0.334014 -0.122129 -0.515 141 107 108
0.343156 -0.121891 -0.514 142 108 109
0.349623 -0.121417 -0.512 141 107 108
0.356727 -0.12118 -0.511 137 105 108
0.358943 -0.120943 -0.51 132 100 103
0.370351 -0.120231 -0.507 130 98 99
0.371317 -0.120231 -0.507 112 76 76
0.413524 -0.123314 -0.52 39 19 21
0.09002 -0.153708 -0.643 199 163 151
0.0964467 -0.150361 -0.629 202 166 154
0.10347 -0.150122 -0.628 195 159 147
0.108945 -0.151078 -0.632 194 152 138
0.120827 -0.153947 -0.644 189 132 121
0.276145 -0.130042 -0.544 157 116 122
0.277198 -0.128608 -0.538 155 116 121
0.279248 -0.128608 -0.538 152 116 120
0.28182 -0.128847 -0.539 153 117 121
0.307237 -0.134584 -0.563 101 84 92
0.338224 -0.140321 -0.587 33 23 31
0.335759 -0.13793 -0.577 25 12 21
0.318027 -0.12813 -0.536 142 112 114
0.317826 -0.124066 -0.519 135 103 106
0.325464 -0.123588 -0.517 136 104 107
0.33009 -0.12311 -0.515 141 107 108
0.34542 -0.122631 -0.513 141 107 108
0.356029 -0.121914 -0.51 137 105 108
0.361857 -0.121914 -0.51 251 236 243
0.365523 -0.121197 -0.507 139 107 112
0.388129 -0.120719 -0.505 122 93 95
0.392752 -0.120958 -0.506 132 96 100
0.417296 -0.124544 -0.521 93 53 51
0.422787 -0.123827 -0.518 192 141 140
0.0925571 -0.151077 -0.627 201 165 153
0.105694 -0.151077 -0.627 196 154 140
0.129182 -0.156378 -0.649 192 138 126
0.32188 -0.13156 -0.546 129 100 104
0.314097 -0.126741 -0.526 135 103 104
0.318814 -0.125054 -0.519 137 102 106
0.36842 -0.122163 -0.507 132 106 109
0.418289 -0.125536 -0.521 112 74 71
0.4218 -0.124813 -0.518 190 136 136
0.431352 -0.125295 -0.52 166 112 110
0.109277 -0.152271 -0.627 197 150 142
0.27612 -0.1326 -0.546 157 116 124
0.320372 -0.140129 -0.577 35 15 24
0.323143 -0.140857 -0.58 38 21 29
0.314476 -0.126286 -0.52 136 100 104
0.342489 -0.124586 -0.513 140 108 111
0.419281 -0.126529 -0.521 140 90 91
0.0912171 -0.153221 -0.626 199 161 148
0.105189 -0.152731 -0.624 198 151 143
0.134737 -0.158116 -0.646 192 140 126
0.138 -0.157627 -0.644 187 135 122
0.14146 -0.157382 -0.643 182 130 117
0.150197 -0.15885 -0.649 169 119 112
0.286953 -0.131927 -0.539 158 117 125
0.335415 -0.14343 -0.586 28 18 26
0.315823 -0.130703 -0.534 145 114 119
0.32116 -0.126787 -0.518 137 103 104
0.32911 -0.126052 -0.515 141 107 106
0.337282 -0.125808 -0.514 138 106 109
0.350887 -0.125073 -0.511 139 104 108
0.359209 -0.124584 -0.509 248 228 237
0.367454 -0.124094 -0.507 112 88 88
0.380433 -0.123605 -0.505 131 101 101
0.3864 -0.12336 -0.504 124 94 94
0.406214 -0.126542 -0.517 44 24 26
0.409763 -0.127031 -0.519 37 17 19
0.412334 -0.127521 -0.521 37 17 19
0.0872762 -0.155893 -0.632 195 158 149
0.133277 -0.15762 -0.639 194 142 128
0.149503 -0.159347 -0.646 171 119 108
0.333698 -0.143807 -0.583 20 10 21
0.334767 -0.143313 -0.581 27 17 28
0.334717 -0.14282 -0.579 34 21 31
0.3182 -0.127773 -0.518 140 105 103
0.321525 -0.127527 -0.517 136 104 105
0.32251 -0.127527 -0.517 139 107 108
0.32911 -0.127033 -0.515 137 103 104
0.330429 -0.126787 -0.514 136 104 105
0.338261 -0.126787 -0.514 144 108 110
0.341511 -0.12654 -0.513 141 107 108
0.357 -0.1258 -0.51 136 100 100
0.373476 -0.124813 -0.506 126 94 97
0.39936 -0.126293 -0.512 62 41 48
0.40523 -0.127527 -0.517 40 23 31
0.418898 -0.129007 -0.523 90 50 51
0.0859362 -0.156849 -0.631 199 162 153
0.10959 -0.154611 -0.622 193 145 131
0.135429 -0.157097 -0.632 186 134 120
0.141131 -0.158091 -0.636 177 125 114
0.142567 -0.15834 -0.637 173 121 110
0.144006 -0.158589 -0.638 171 119 106
0.277171 -0.132737 -0.534 149 114 120
0.35533 -0.126523 -0.509 142 108 109
0.36673 -0.125777 -0.506 114 87 92
0.371549 -0.125777 -0.506 131 100 105
0.382357 -0.125529 -0.505 131 99 100
0.40092 -0.127766 -0.514 52 31 38
0.409562 -0.129257 -0.52 38 21 29
0.419649 -0.129009 -0.519 177 118 122
0.4385 -0.1305 -0.525 154 103 100
0.0925552 -0.155045 -0.619 198 158 148
0.0993076 -0.154544 -0.617 200 156 145
0.129787 -0.157299 -0.628 194 145 131
0.283759 -0.133504 -0.533 149 114 120
0.290461 -0.134255 -0.536 147 112 116
0.305936 -0.138012 -0.551 139 107 112
0.326929 -0.144024 -0.575 27 14 23
0.318629 -0.136259 -0.544 138 111 116
0.321525 -0.129496 -0.517 141 103 102
0.323851 -0.129246 -0.516 140 104 104
0.324834 -0.129246 -0.516 140 110 108
0.333366 -0.128745 -0.514 137 105 108
0.346697 -0.128244 -0.512 139 107 112
0.354361 -0.127492 -0.509 139 105 106
0.362373 -0.127242 -0.508 139 113 114
0.369621 -0.126741 -0.506 94 69 73
0.398385 -0.128244 -0.512 61 34 39
0.4017 -0.128995 -0.515 47 26 33
0.405027 -0.129747 -0.518 42 21 28
0.0843314 -0.158495 -0.628 198 158 150
0.0934314 -0.155719 -0.617 195 151 140
0.0989857 -0.155214 -0.615 200 153 143
0.105013 -0.155467 -0.616 202 155 145
0.1398 -0.159 -0.63 175 123 110
0.141224 -0.159252 -0.631 172 120 107
0.321811 -0.142848 -0.566 27 10 18
0.325548 -0.142595 -0.565 26 11 18
0.3157 -0.136033 -0.539 144 115 117
0.3105 -0.1325 -0.525 137 106 104
0.32054 -0.130481 -0.517 133 103 101
0.326167 -0.129976 -0.515 130 104 103
0.33987 -0.129219 -0.512 138 106 107
0.3563 -0.128462 -0.509 137 103 104
0.38256 -0.1272 -0.504 131 97 98
0.4125 -0.1325 -0.525 39 20 26
0.4135 -0.1325 -0.525 39 20 26
0.417874 -0.133257 -0.528 38 19 25
0.0840629 -0.159183 -0.626 201 161 153
0.0921067 -0.15664 -0.616 202 160 148
0.102333 -0.156131 -0.614 202 156 143
0.12459 -0.157657 -0.62 190 143 127
0.281683 -0.135026 -0.531 149 114 120
0.282694 -0.135026 -0.531 148 113 119
0.318326 -0.141891 -0.558 81 60 65
0.321525 -0.131466 -0.517 102 92 93
0.323851 -0.131211 -0.516 97 93 94
0.327148 -0.130957 -0.515 129 109 110
0.331408 -0.130703 -0.514 140 106 107
0.334671 -0.130449 -0.513 142 110 113
0.336626 -0.130449 -0.513 138 106 109
0.33987 -0.130194 -0.512 135 103 104
0.34602 -0.12994 -0.511 147 116 121
0.362626 -0.128923 -0.507 136 102 103
0.365523 -0.128923 -0.507 109 80 84
0.376586 -0.128414 -0.505 133 103 105
0.37872 -0.12816 -0.504 132 102 104
0.39237 -0.129177 -0.508 109 83 86
0.419827 -0.13172 -0.518 189 130 132
0.435833 -0.132991 -0.523 158 107 103
0.444023 -0.134263 -0.528 185 134 130
0.0822 -0.1614 -0.63 199 160 145
0.10935 -0.157301 -0.614 203 156 146
0.1335 -0.159607 -0.623 179 130 115
0.13631 -0.160119 -0.625 177 125 111
0.276133 -0.136293 -0.532 150 115 121
0.3431 -0.130913 -0.511 140 110 112
0.345047 -0.130913 -0.511 208 177 182
0.347574 -0.130401 -0.509 134 103 108
0.358503 -0.130145 -0.508 136 101 105
0.367929 -0.129376 -0.505 71 49 51
0.36889 -0.129376 -0.505 97 75 77
0.420813 -0.132707 -0.518 195 142 138
0.42591 -0.13245 -0.517 188 132 131
0.0993429 -0.157438 -0.61 204 160 147
0.117537 -0.15847 -0.614 196 150 137
0.148867 -0.164665 -0.638 155 108 98
0.272086 -0.137823 -0.534 150 115 122
0.30891 -0.135242 -0.524 138 113 109
0.330429 -0.132661 -0.514 126 102 102
0.336626 -0.132403 -0.513 135 109 110
0.356568 -0.131112 -0.508 133 101 104
0.389666 -0.130854 -0.507 126 100 99
0.420094 -0.136016 -0.527 62 37 41
0.42591 -0.133435 -0.517 188 132 133
0.435833 -0.134984 -0.523 159 111 107
0.0893229 -0.15938 -0.613 202 163 148
0.0946952 -0.1586 -0.61 204 162 148
0.121046 -0.15964 -0.614 194 148 132
0.12496 -0.16016 -0.616 184 137 119
0.141974 -0.16354 -0.629 158 108 97
0.148867 -0.16588 -0.638 143 96 90
0.274622 -0.13858 -0.533 150 115 121
0.308966 -0.13988 -0.538 145 109 111
0.314631 -0.13442 -0.517 102 96 98
0.325186 -0.1339 -0.515 191 198 206
0.32847 -0.13364 -0.514 185 183 188
0.338895 -0.13312 -0.512 137 108 112
0.340846 -0.13312 -0.512 136 106 108
0.348827 -0.13208 -0.508 136 105 110
0.352697 -0.13208 -0.508 137 102 106
0.371776 -0.1313 -0.505 101 71 73
0.3737 -0.1313 -0.505 98 68 70
0.395459 -0.13312 -0.512 53 34 36
0.428707 -0.13468 -0.518 176 121 124
0.435833 -0.13598 -0.523 153 112 106
0.0861 -0.161071 -0.615 204 162 150
0.0957 -0.1595 -0.609 203 159 146
0.117154 -0.160286 -0.612 199 151 137
0.13728 -0.163429 -0.624 162 114 100
0.140105 -0.163952 -0.626 147 99 85
0.145289 -0.165786 -0.633 154 104 93
0.272591 -0.139595 -0.533 151 116 123
0.277637 -0.139071 -0.531 148 113 119
0.286668 -0.138548 -0.529 145 110 116
0.294729 -0.138548 -0.529 142 110 115
0.297305 -0.13881 -0.53 141 109 114
0.307325 -0.136976 -0.523 130 106 104
0.336626 -0.134357 -0.513 132 102 104
0.33987 -0.134095 -0.512 135 103 104
0.348544 -0.13331 -0.509 139 103 107
0.420986 -0.135405 -0.517 199 145 145
0.0943848 -0.160396 -0.608 204 162 146
0.10944 -0.160396 -0.608 201 155 139
0.130074 -0.163034 -0.618 173 124 107
0.152483 -0.16963 -0.643 134 89 84
0.271069 -0.140874 -0.534 149 114 120
0.271576 -0.14061 -0.533 150 115 121
0.286126 -0.139291 -0.528 145 110 114
0.287131 -0.139291 -0.528 145 110 114
0.304656 -0.139028 -0.527 143 113 115
0.3055 -0.1385 -0.525 133 105 102
0.326512 -0.135598 -0.514 90 107 115
0.336945 -0.13507 -0.512 129 100 102
0.350762 -0.134015 -0.508 137 101 103
0.366005 -0.133224 -0.505 134 100 101
0.38064 -0.13296 -0.504 126 98 97
0.43683 -0.137972 -0.523 151 104 94
0.0919171 -0.161289 -0.607 207 166 148
0.106771 -0.161023 -0.606 204 161 144
0.118127 -0.162351 -0.611 195 148 132
0.141749 -0.166869 -0.628 161 113 99
0.150552 -0.170057 -0.64 139 92 82
0.270051 -0.141891 -0.534 149 112 119
0.271576 -0.141626 -0.533 150 113 120
0.276626 -0.141094 -0.531 148 113 119
0.280622 -0.140563 -0.529 146 114 119
0.299069 -0.139766 -0.526 144 109 115
0.30392 -0.139234 -0.524 136 106 108
0.315616 -0.137374 -0.517 134 147 153
0.348544 -0.135249 -0.509 140 108 111
0.3556 -0.134983 -0.508 135 106 110
0.363838 -0.134451 -0.506 125 93 94
0.386006 -0.134451 -0.506 127 95 98
0.420986 -0.137374 -0.517 204 150 148
0.0973762 -0.16191 -0.605 213 170 153
0.100833 -0.16191 -0.605 209 166 149
0.110416 -0.162445 -0.607 199 153 137
0.141523 -0.167797 -0.627 156 106 95
0.266329 -0.145317 -0.543 156 113 122
0.265926 -0.143979 -0.538 153 112 120
0.270561 -0.142641 -0.533 149 112 119
0.28458 -0.141035 -0.527 144 112 115
0.29893 -0.140232 -0.524 143 108 114
0.312057 -0.138091 -0.516 90 93 98
0.3193 -0.137824 -0.515 148 157 164
0.324554 -0.137556 -0.514 113 132 138
0.325533 -0.137556 -0.514 62 81 87
0.327831 -0.137289 -0.513 55 74 80
0.328809 -0.137289 -0.513 99 108 117
0.338895 -0.137021 -0.512 129 103 106
0.363838 -0.135415 -0.506 132 103 105
0.37296 -0.13488 -0.504 129 99 99
0.37872 -0.13488 -0.504 116 90 89
0.421897 -0.141303 -0.528 86 61 64
0.419467 -0.139162 -0.52 169 120 116
0.420986 -0.138359 -0.517 198 144 142
0.438663 -0.140232 -0.524 147 100 90
0.458062 -0.143176 -0.535 183 127 126
0.0972152 -0.162792 -0.604 211 168 151
0.101817 -0.162792 -0.604 210 167 150
0.120454 -0.164679 -0.611 187 139 125
0.122983 -0.164949 -0.612 180 131 114
0.138469 -0.168183 -0.624 166 116 105
0.143172 -0.16953 -0.629 155 105 96
0.146726 -0.170878 -0.634 154 107 97
0.2895 -0.1415 -0.525 141 106 112
0.330763 -0.138266 -0.513 182 181 189
0.36889 -0.13611 -0.505 130 98 99
0.37392 -0.13584 -0.504 130 100 100
0.382357 -0.13611 -0.505 131 99 102
0.385042 -0.136379 -0.506 121 95 98
0.452453 -0.143387 -0.532 177 127 120
0.0776019 -0.168829 -0.622 204 162 146
0.07828 -0.167743 -0.618 206 164 148
0.0893095 -0.164214 -0.605 209 166 149
0.124149 -0.166114 -0.612 175 126 111
0.150552 -0.173714 -0.64 145 100 94
0.154664 -0.175614 -0.647 142 98 95
0.304387 -0.1406 -0.518 133 102 107
0.325877 -0.139243 -0.513 175 188 196
0.327831 -0.139243 -0.513 182 195 203
0.329143 -0.138971 -0.512 208 217 226
0.341457 -0.138429 -0.51 253 232 241
0.352003 -0.137614 -0.507 145 124 131
0.356831 -0.137614 -0.507 244 234 242
0.365043 -0.137071 -0.505 130 101 103
0.36528 -0.1368 -0.504 130 100 100
0.36912 -0.1368 -0.504 131 97 98
0.381395 -0.137071 -0.505 125 93 98
0.419281 -0.141414 -0.521 158 108 107
0.444186 -0.143043 -0.527 147 99 89
0.08062 -0.16646 -0.609 206 164 148
0.0891619 -0.165093 -0.604 210 167 151
0.0968933 -0.164547 -0.602 213 170 153
0.146726 -0.173293 -0.634 151 102 95
0.263916 -0.146507 -0.536 152 111 117
0.274576 -0.144593 -0.529 146 111 117
0.281569 -0.144047 -0.527 145 110 114
0.2885 -0.1435 -0.525 142 107 113
0.299203 -0.142407 -0.521 144 109 115
0.30061 -0.142133 -0.52 135 104 112
0.304387 -0.141587 -0.518 134 102 107
0.333044 -0.139947 -0.512 118 107 115
0.33726 -0.139673 -0.511 126 101 104
0.351037 -0.13858 -0.507 122 105 113
0.356831 -0.13858 -0.507 237 231 241
0.358055 -0.138307 -0.506 202 200 213
0.375094 -0.137487 -0.503 126 96 96
0.420001 -0.141313 -0.517 197 143 141
0.430523 -0.14186 -0.519 166 113 109
0.449743 -0.144867 -0.53 161 111 104
0.457365 -0.145687 -0.533 173 120 116
0.45924 -0.14596 -0.534 176 123 119
0.0835476 -0.166519 -0.605 209 167 153
0.0990219 -0.165418 -0.601 209 166 147
0.124149 -0.168446 -0.612 178 126 112
0.131039 -0.169822 -0.617 173 124 109
0.26853 -0.146702 -0.533 148 109 114
0.279086 -0.145326 -0.528 144 109 113
0.292941 -0.144225 -0.524 141 106 112
0.295233 -0.143399 -0.521 142 107 113
0.296226 -0.143399 -0.521 150 115 121
0.312057 -0.142023 -0.516 64 103 108
0.316357 -0.141748 -0.515 163 177 180
0.332069 -0.140922 -0.512 136 124 134
0.339207 -0.140647 -0.511 195 180 187
0.344956 -0.139821 -0.508 128 102 111
0.3542 -0.13927 -0.506 235 232 243
0.360233 -0.138995 -0.505 169 158 166
0.371262 -0.138445 -0.503 132 97 101
0.419016 -0.142298 -0.517 200 142 141
0.420001 -0.142298 -0.517 195 141 139
0.429693 -0.142573 -0.518 163 113 106
0.435994 -0.143674 -0.522 156 106 97
0.438663 -0.144225 -0.524 152 102 93
0.0855686 -0.167117 -0.603 210 168 152
0.101311 -0.166563 -0.601 211 170 152
0.120257 -0.169057 -0.61 183 131 118
0.121419 -0.169057 -0.61 183 129 117
0.124149 -0.169611 -0.612 180 126 116
0.268017 -0.147994 -0.534 147 112 118
0.273569 -0.146609 -0.529 147 111 115
0.280091 -0.146331 -0.528 147 110 117
0.289947 -0.145223 -0.524 142 105 112
0.293811 -0.144669 -0.522 145 108 115
0.295233 -0.144391 -0.521 148 111 118
0.297638 -0.144114 -0.52 138 101 108
0.301427 -0.14356 -0.518 137 102 109
0.325242 -0.141897 -0.512 175 180 186
0.326217 -0.141897 -0.512 187 196 203
0.339514 -0.141343 -0.51 144 128 138
0.340486 -0.141343 -0.51 203 187 197
0.352003 -0.140511 -0.507 239 229 240
0.36432 -0.13968 -0.504 130 100 98
0.36528 -0.13968 -0.504 132 102 102
0.424294 -0.147163 -0.531 92 66 77
0.419016 -0.143283 -0.517 191 136 133
0.420001 -0.143283 -0.517 194 139 134
0.0790686 -0.169103 -0.606 204 164 152
0.0800905 -0.168824 -0.605 206 168 155
0.0865733 -0.167987 -0.602 211 169 153
0.0988571 -0.167429 -0.6 209 168 150
0.10492 -0.167987 -0.602 202 161 143
0.10987 -0.168545 -0.604 195 149 133
0.140329 -0.174963 -0.627 161 114 106
0.272067 -0.147895 -0.53 146 110 114
0.280565 -0.147058 -0.527 147 110 117
0.283038 -0.146779 -0.526 146 109 116
0.30851 -0.14371 -0.515 132 100 103
0.316357 -0.14371 -0.515 135 150 157
0.317338 -0.14371 -0.515 161 176 183
0.33434 -0.142593 -0.511 123 100 110
0.339818 -0.142035 -0.509 214 197 207
0.340788 -0.142035 -0.509 143 122 127
0.3542 -0.141198 -0.506 231 228 239
0.419649 -0.144826 -0.519 189 134 131
0.420171 -0.143989 -0.516 195 140 135
0.428864 -0.144268 -0.517 176 122 112
0.44519 -0.147058 -0.527 141 91 84
0.458533 -0.148453 -0.532 163 114 107
0.462291 -0.149011 -0.534 163 110 106
0.0819867 -0.169133 -0.602 211 169 155
0.111021 -0.169695 -0.604 189 143 127
0.121419 -0.171381 -0.61 174 125 111
0.151023 -0.180371 -0.642 132 93 86
0.266 -0.149467 -0.532 151 111 119
0.278557 -0.148062 -0.527 148 112 116
0.292817 -0.146657 -0.522 144 109 115
0.312433 -0.14469 -0.515 57 96 95
0.317338 -0.14469 -0.515 162 176 185
0.332393 -0.143567 -0.511 123 108 115
0.334657 -0.143286 -0.51 128 105 113
0.34814 -0.142443 -0.507 122 96 107
0.435159 -0.146376 -0.521 162 109 103
0.466934 -0.150871 -0.537 152 102 93
-0.126905 -0.183857 -0.65 196 193 186
0.10854 -0.170563 -0.603 194 151 134
0.112357 -0.171129 -0.605 185 139 123
0.138912 -0.177069 -0.626 158 111 105
0.14742 -0.18018 -0.637 137 100 92
0.260802 -0.152177 -0.538 152 111 119
0.270048 -0.149914 -0.53 147 110 117
0.283958 -0.148217 -0.524 144 109 115
0.294241 -0.147369 -0.521 145 110 116
0.297066 -0.146803 -0.519 134 102 107
0.300845 -0.146237 -0.517 138 102 106
0.307529 -0.145671 -0.515 132 103 105
0.316722 -0.145389 -0.514 151 168 176
0.36144 -0.14256 -0.504 201 188 197
0.3624 -0.14256 -0.504 128 115 124
0.36336 -0.14256 -0.504 127 102 105
0.429849 -0.146237 -0.517 170 120 113
0.0758552 -0.173135 -0.608 202 165 147
0.0766333 -0.172281 -0.605 204 167 149
0.0894152 -0.170288 -0.598 214 172 156
0.112171 -0.171996 -0.604 186 139 123
0.131251 -0.175983 -0.618 169 116 108
0.151493 -0.183387 -0.644 128 93 91
0.26052 -0.15548 -0.546 151 110 114
0.259777 -0.153202 -0.538 152 111 119
0.262931 -0.152063 -0.534 149 109 117
0.268534 -0.151209 -0.531 147 110 117
0.270546 -0.150639 -0.529 147 110 117
0.293249 -0.148361 -0.521 141 106 112
0.30616 -0.146937 -0.516 133 102 108
0.320991 -0.146083 -0.513 185 189 198
0.329143 -0.145798 -0.512 178 178 186
0.3366 -0.145229 -0.51 237 217 229
0.341757 -0.144944 -0.509 126 101 107
0.345924 -0.144659 -0.508 131 104 113
0.34814 -0.144374 -0.507 130 107 117
0.366471 -0.143235 -0.503 133 103 103
0.380223 -0.14409 -0.506 119 93 96
0.492252 -0.176268 -0.619 93 70 76
0.0794286 -0.172 -0.6 209 170 155
0.0882762 -0.171427 -0.598 216 174 158
0.0949514 -0.17114 -0.597 211 172 155
0.132643 -0.177447 -0.619 166 116 109
0.262931 -0.15308 -0.534 150 110 118
0.26447 -0.152793 -0.533 149 109 117
0.266511 -0.15222 -0.531 148 111 118
0.302229 -0.14792 -0.516 133 104 106
0.307143 -0.14792 -0.516 130 99 107
0.330447 -0.146487 -0.511 161 152 157
0.341757 -0.145913 -0.509 128 103 109
0.342053 -0.145627 -0.508 130 105 109
0.36144 -0.14448 -0.504 230 220 231
0.365513 -0.144193 -0.503 127 99 98
0.37851 -0.144767 -0.505 122 96 99
0.421319 -0.147633 -0.515 195 139 138
0.442655 -0.150213 -0.524 149 99 92
0.0738095 -0.178914 -0.62 197 161 147
0.0772714 -0.173431 -0.601 208 170 157
0.0996667 -0.172566 -0.598 207 165 149
0.107035 -0.173431 -0.601 191 149 133
0.266 -0.15352 -0.532 148 111 118
0.273051 -0.152366 -0.528 145 110 114
0.274057 -0.152366 -0.528 145 110 114
0.2805 -0.1515 -0.525 145 110 116
0.292256 -0.150346 -0.521 141 106 112
0.292686 -0.150057 -0.52 141 106 112
0.314395 -0.148614 -0.515 214 231 239
0.338849 -0.146883 -0.509 130 104 115
0.340118 -0.146594 -0.508 129 102 111
0.343989 -0.146594 -0.508 128 101 108
0.346209 -0.146306 -0.507 124 98 107
0.349381 -0.146017 -0.506 231 225 235
0.351309 -0.146017 -0.506 230 227 238
0.359271 -0.145729 -0.505 238 234 248
0.37584 -0.14544 -0.504 129 99 101
0.448201 -0.152077 -0.527 144 94 87
-0.128983 -0.188229 -0.648 196 193 186
0.0813057 -0.173414 -0.597 209 169 157
0.0901 -0.172833 -0.595 215 176 161
0.148346 -0.186195 -0.641 116 82 81
0.152199 -0.187938 -0.647 114 82 85
0.259348 -0.155405 -0.535 148 111 118
0.25988 -0.155114 -0.534 148 111 118
0.264987 -0.154533 -0.532 146 111 117
0.286405 -0.151919 -0.523 143 108 114
0.304586 -0.149595 -0.515 138 102 106
0.305567 -0.149595 -0.515 133 100 107
0.306548 -0.149595 -0.515 135 102 109
0.30889 -0.149305 -0.514 127 105 107
0.317701 -0.149305 -0.514 70 87 95
0.322316 -0.148724 -0.512 176 185 194
0.326217 -0.148724 -0.512 172 172 182
0.332393 -0.148433 -0.511 117 100 106
0.332714 -0.148143 -0.51 135 119 129
0.338849 -0.147852 -0.509 133 106 115
0.370304 -0.14611 -0.503 128 100 99
0.37584 -0.1464 -0.504 126 96 98
0.377548 -0.14669 -0.505 124 94 96
0.486746 -0.180386 -0.621 65 54 58
0.419467 -0.151048 -0.52 185 137 135
0.421154 -0.149886 -0.516 196 140 141
0.452925 -0.153662 -0.529 158 109 102
-0.138643 -0.18917 -0.647 189 189 179
-0.137198 -0.188878 -0.646 189 189 179
-0.132276 -0.188878 -0.646 191 191 183
0.0780248 -0.174844 -0.598 208 169 152
0.0889667 -0.173967 -0.595 215 173 159
0.103084 -0.174844 -0.598 201 157 144
0.10818 -0.175721 -0.601 191 143 123
0.114662 -0.17689 -0.605 172 122 111
0.122782 -0.178645 -0.611 155 110 104
0.141224 -0.184492 -0.631 144 101 95
0.291695 -0.152038 -0.52 139 107 112
0.296493 -0.151453 -0.518 130 98 103
0.302624 -0.150576 -0.515 137 102 106
0.30889 -0.150284 -0.514 131 105 108
0.314764 -0.150284 -0.514 189 199 209
0.327527 -0.149407 -0.511 216 213 224
0.331743 -0.149114 -0.51 190 173 179
0.347174 -0.148237 -0.507 230 220 229
0.357348 -0.147652 -0.505 237 233 247
0.36048 -0.14736 -0.504 230 226 241
0.426691 -0.156131 -0.534 91 58 67
0.420086 -0.152623 -0.522 161 113 111
0.0740829 -0.177454 -0.603 201 165 151
0.104223 -0.175983 -0.598 194 152 136
0.116006 -0.178337 -0.606 163 116 106
0.118705 -0.178926 -0.608 162 115 105
0.125929 -0.180986 -0.615 146 101 98
0.13816 -0.184811 -0.628 141 97 96
0.143103 -0.186577 -0.634 137 95 96
0.264489 -0.156266 -0.531 145 110 116
0.267523 -0.155677 -0.529 146 111 117
0.26853 -0.155677 -0.529 145 110 116
0.272046 -0.155383 -0.528 144 109 115
0.283416 -0.153911 -0.523 142 107 111
0.289279 -0.153323 -0.521 141 106 112
0.293676 -0.153029 -0.52 139 104 108
0.305567 -0.151557 -0.515 134 105 109
0.309869 -0.151263 -0.514 128 99 103
0.315743 -0.151263 -0.514 201 208 216
0.327857 -0.150086 -0.51 158 146 156
0.331743 -0.150086 -0.51 220 204 215
0.332714 -0.150086 -0.51 228 215 225
0.35856 -0.14832 -0.504 242 236 250
0.370304 -0.148026 -0.503 128 102 103
0.378295 -0.148909 -0.506 120 90 92
0.491084 -0.183046 -0.622 67 50 56
0.420697 -0.154206 -0.524 149 99 100
0.423438 -0.151263 -0.514 190 135 132
0.427205 -0.151557 -0.515 183 128 125
-0.139443 -0.191043 -0.645 191 188 183
-0.131249 -0.191635 -0.647 194 194 186
-0.128143 -0.192524 -0.65 196 193 186
0.0730552 -0.178899 -0.604 203 165 152
0.0886676 -0.175641 -0.593 217 175 161
0.0907733 -0.175345 -0.592 214 172 158
0.099 -0.175937 -0.594 204 162 146
0.140022 -0.186896 -0.631 132 90 91
0.152905 -0.192524 -0.65 106 74 75
0.259393 -0.15787 -0.533 146 111 117
0.265 -0.156981 -0.53 145 110 116
0.275023 -0.155796 -0.526 144 109 115
0.2765 -0.1555 -0.525 143 108 114
0.285857 -0.154611 -0.522 142 107 111
0.293111 -0.153723 -0.519 139 104 108
0.2941 -0.153723 -0.519 138 103 107
0.29748 -0.153427 -0.518 140 105 111
0.30791 -0.152242 -0.514 132 101 106
0.317083 -0.151946 -0.513 155 165 174
0.334001 -0.150761 -0.509 221 205 216
0.33915 -0.150465 -0.508 127 101 104
0.3576 -0.14928 -0.504 238 232 246
0.361681 -0.148984 -0.503 242 232 243
0.392724 -0.154019 -0.52 46 36 37
0.489505 -0.183638 -0.62 69 50 56
0.419894 -0.154908 -0.523 168 118 117
0.420001 -0.15313 -0.517 187 136 133
0.438136 -0.154315 -0.521 149 99 92
-0.132276 -0.19257 -0.646 192 192 182
0.0885181 -0.176472 -0.592 217 175 161
0.0930286 -0.176472 -0.592 207 165 149
0.116006 -0.180646 -0.606 157 113 102
0.258907 -0.158587 -0.532 146 111 117
0.264489 -0.158289 -0.531 144 109 115
0.273538 -0.157096 -0.527 144 109 115
0.291695 -0.15501 -0.52 140 105 109
0.292686 -0.15501 -0.52 141 106 110
0.29748 -0.154413 -0.518 144 109 115
0.29928 -0.153817 -0.516 136 104 109
0.301643 -0.153519 -0.515 136 104 109
0.334001 -0.15173 -0.509 228 211 221
0.33915 -0.151432 -0.508 129 102 107
0.35856 -0.15024 -0.504 230 226 241
0.424417 -0.153221 -0.514 183 125 121
0.427205 -0.153519 -0.515 166 111 104
0.432653 -0.154413 -0.518 151 100 96
0.448201 -0.157096 -0.527 144 94 87
-0.136773 -0.1932 -0.644 190 190 182
0.0715743 -0.1833 -0.611 201 165 153
0.0725714 -0.18 -0.6 204 166 155
0.0816143 -0.1773 -0.591 216 174 160
0.0964114 -0.1776 -0.592 202 160 144
0.12772 -0.1854 -0.618 140 99 97
0.262466 -0.1593 -0.531 146 111 117
0.276971 -0.1572 -0.524 142 107 111
0.27797 -0.1572 -0.524 143 108 112
0.292123 -0.1557 -0.519 141 106 110
0.296493 -0.1554 -0.518 152 117 123
0.302624 -0.1545 -0.515 135 103 108
0.308289 -0.1539 -0.513 130 100 102
0.312197 -0.1539 -0.513 132 107 113
0.321341 -0.1536 -0.512 174 177 184
0.328829 -0.153 -0.51 145 128 136
0.332062 -0.1527 -0.509 191 174 182
0.333031 -0.1527 -0.509 191 174 182
0.36383 -0.1506 -0.502 104 81 87
0.369346 -0.1509 -0.503 125 100 103
0.37296 -0.1512 -0.504 126 100 103
0.383007 -0.1533 -0.511 48 32 35
0.469595 -0.1815 -0.605 59 47 51
0.452925 -0.1587 -0.529 156 107 100
0.0848476 -0.178124 -0.59 216 174 160
0.0870952 -0.178124 -0.59 216 174 160
0.130916 -0.187785 -0.622 146 102 101
0.267523 -0.159708 -0.529 145 110 116
0.286743 -0.15699 -0.52 141 107 108
0.287733 -0.15699 -0.52 140 106 107
0.293533 -0.156387 -0.518 143 108 112
0.298875 -0.156085 -0.517 138 106 111
0.29928 -0.155783 -0.516 137 105 110
0.308289 -0.154877 -0.513 131 99 100
0.31806 -0.154877 -0.513 161 144 150
0.324943 -0.153971 -0.51 134 109 115
0.334001 -0.15367 -0.509 140 120 129
0.343598 -0.152764 -0.506 125 100 103
0.34869 -0.152462 -0.505 129 99 107
0.35568 -0.15216 -0.504 196 184 196
0.41884 -0.156387 -0.518 196 145 141
0.423438 -0.155179 -0.514 181 124 117
0.436305 -0.15699 -0.52 136 85 81
0.453932 -0.159708 -0.529 161 111 104
0.466214 -0.161519 -0.535 145 98 92
-0.146359 -0.19535 -0.643 184 181 174
0.0858257 -0.178944 -0.589 216 174 158
0.0893429 -0.179248 -0.59 211 169 153
0.125163 -0.18745 -0.617 133 93 93
0.263492 -0.160715 -0.529 144 109 113
0.266515 -0.160715 -0.529 145 110 114
0.288169 -0.157677 -0.519 141 107 108
0.289157 -0.157677 -0.519 141 107 108
0.302624 -0.156462 -0.515 134 102 105
0.330123 -0.154639 -0.509 235 219 230
0.334001 -0.154639 -0.509 133 112 121
0.33497 -0.154639 -0.509 129 102 107
0.35376 -0.15312 -0.504 125 94 99
0.358807 -0.152816 -0.503 208 189 195
0.476972 -0.186235 -0.613 61 51 59
0.487143 -0.188362 -0.62 72 62 73
0.419016 -0.15707 -0.517 192 139 133
0.427205 -0.156462 -0.515 154 96 85
0.443653 -0.159196 -0.524 142 91 87
0.456809 -0.161019 -0.53 162 113 106
0.0891914 -0.180066 -0.589 211 169 153
0.123787 -0.18832 -0.616 133 93 93
0.252982 -0.165391 -0.541 148 111 118
0.262981 -0.162029 -0.53 144 109 113
0.2645 -0.161723 -0.529 143 111 114
0.281424 -0.159889 -0.523 139 104 108
0.284317 -0.159277 -0.521 141 107 108
0.292547 -0.15836 -0.518 146 112 113
0.300845 -0.158054 -0.517 137 103 104
0.340707 -0.154691 -0.506 122 96 99
0.342634 -0.154691 -0.506 128 102 105
0.345805 -0.154386 -0.505 132 107 111
0.417486 -0.158971 -0.52 184 133 130
0.432653 -0.15836 -0.518 132 81 77
0.450209 -0.161111 -0.527 148 99 94
-0.147584 -0.197799 -0.643 185 184 179
0.0707543 -0.185802 -0.604 207 169 158
0.073859 -0.18211 -0.592 211 171 159
0.0985 -0.181803 -0.591 196 154 138
0.106323 -0.183649 -0.597 174 133 115
0.10764 -0.183956 -0.598 173 127 112
0.114662 -0.18611 -0.605 152 105 95
0.136849 -0.194723 -0.633 129 95 96
0.254168 -0.168575 -0.548 149 110 115
0.253157 -0.165191 -0.537 147 111 113
0.258907 -0.163653 -0.532 143 111 114
0.270527 -0.162115 -0.527 143 108 112
0.272017 -0.161808 -0.526 143 108 112
0.279431 -0.160885 -0.523 140 105 109
0.283869 -0.160577 -0.522 140 105 109
0.285752 -0.159962 -0.52 141 107 108
0.29789 -0.159039 -0.517 139 105 106
0.333345 -0.15627 -0.508 134 109 115
0.34896 -0.15504 -0.504 116 89 94
0.35376 -0.15504 -0.504 127 94 101
0.362151 -0.154117 -0.501 102 73 77
0.491084 -0.191339 -0.622 97 86 103
0.4185 -0.1615 -0.525 152 113 116
0.449205 -0.162115 -0.527 144 95 90
-0.146131 -0.198714 -0.642 186 186 178
-0.140453 -0.199333 -0.644 188 188 180
-0.13392 -0.200571 -0.648 192 192 182
0.253233 -0.165595 -0.535 144 112 115
0.311589 -0.158476 -0.512 134 104 104
0.318767 -0.158167 -0.511 136 102 103
0.326245 -0.157548 -0.509 209 193 203
0.348 -0.156 -0.504 130 98 101
0.34992 -0.156 -0.504 128 96 97
0.369346 -0.15569 -0.503 123 94 98
0.452069 -0.163429 -0.528 151 106 100
-0.143686 -0.199937 -0.642 186 187 179
0.0842724 -0.182497 -0.586 215 176 161
0.0911248 -0.182809 -0.587 205 166 149
0.102394 -0.184989 -0.594 187 143 130
0.134437 -0.197134 -0.633 118 84 85
0.136071 -0.197757 -0.635 120 86 87
0.252883 -0.169106 -0.543 146 106 114
0.262485 -0.164746 -0.529 144 109 113
0.268519 -0.164123 -0.527 145 111 112
0.284317 -0.162254 -0.521 138 103 107
0.285752 -0.161943 -0.52 140 105 109
0.300662 -0.160386 -0.515 137 103 104
0.329474 -0.158206 -0.508 145 122 130
0.34167 -0.157583 -0.506 131 99 102
0.109143 -0.188 -0.6 163 119 106
0.254252 -0.167633 -0.535 141 109 112
0.25842 -0.16638 -0.531 145 110 114
0.259431 -0.16638 -0.531 145 110 114
0.264 -0.16544 -0.528 143 108 112
0.276971 -0.164187 -0.524 141 106 110
0.282332 -0.163247 -0.521 139 104 108
0.288169 -0.16262 -0.519 139 104 108
0.290997 -0.161993 -0.517 141 106 110
0.308663 -0.160427 -0.512 137 103 104
0.362874 -0.157293 -0.502 128 96 99
0.36406 -0.15698 -0.501 125 94 99
0.416906 -0.163873 -0.523 159 119 120
0.425243 -0.161367 -0.515 146 92 82
0.449205 -0.165127 -0.527 141 94 86
0.453932 -0.165753 -0.529 154 110 101
-0.149567 -0.202068 -0.641 185 182 173
0.0693733 -0.189773 -0.602 205 167 156
0.0742267 -0.18473 -0.586 213 174 159
0.0839848 -0.184099 -0.584 215 176 161
0.0970448 -0.185675 -0.589 188 146 130
0.10501 -0.187882 -0.596 174 130 119
0.11523 -0.191665 -0.608 139 99 87
0.126989 -0.197339 -0.626 119 84 90
0.26801 -0.165815 -0.526 143 109 110
0.274975 -0.165185 -0.524 141 106 110
0.285752 -0.163924 -0.52 139 104 108
0.288169 -0.163609 -0.519 140 105 109
0.2886 -0.163293 -0.518 142 107 111
0.289587 -0.163293 -0.518 145 110 114
0.294366 -0.162663 -0.516 137 102 106
0.298297 -0.162663 -0.516 137 103 104
0.29928 -0.162663 -0.516 138 104 105
0.323336 -0.160456 -0.509 155 126 131
0.324636 -0.160141 -0.508 146 126 128
0.333654 -0.159826 -0.507 130 100 102
0.334924 -0.15951 -0.506 128 98 100
0.340033 -0.159195 -0.505 130 98 103
0.348268 -0.158565 -0.503 127 95 98
0.423974 -0.169283 -0.537 91 90 122
0.416906 -0.16487 -0.523 162 122 122
0.429849 -0.162978 -0.517 128 79 74
0.464326 -0.168337 -0.534 143 102 96
-0.1564 -0.20424 -0.644 177 177 167
-0.149567 -0.203289 -0.641 185 183 171
-0.145904 -0.203289 -0.641 188 186 174
0.0773105 -0.185211 -0.584 215 173 157
0.0782886 -0.184894 -0.583 215 173 157
0.0805095 -0.184894 -0.583 218 176 162
0.0860619 -0.184894 -0.583 210 168 154
0.0908143 -0.185529 -0.585 204 162 148
0.106323 -0.189334 -0.597 169 125 114
0.14256 -0.205509 -0.648 116 84 89
0.25688 -0.16872 -0.532 144 109 115
0.264504 -0.167134 -0.527 144 109 113
0.278435 -0.165866 -0.523 140 105 109
0.282332 -0.165231 -0.521 139 104 108
0.289028 -0.163963 -0.517 145 110 114
0.301057 -0.163011 -0.514 135 101 102
0.303994 -0.163011 -0.514 135 101 102
0.337148 -0.160157 -0.505 129 98 103
0.33811 -0.160157 -0.505 129 98 103
0.348268 -0.159523 -0.503 128 96 99
0.354269 -0.159206 -0.502 128 97 102
0.35738 -0.158889 -0.501 128 98 100
0.361197 -0.158889 -0.501 127 98 102
0.508357 -0.205191 -0.647 96 101 139
0.421606 -0.169354 -0.534 88 85 114
0.419016 -0.163963 -0.517 186 133 127
0.453932 -0.167769 -0.529 156 111 105
0.458683 -0.168403 -0.531 151 108 99
-0.150552 -0.20419 -0.64 184 181 172
0.090659 -0.186324 -0.584 203 161 147
0.109143 -0.191429 -0.6 153 109 100
0.124206 -0.199086 -0.624 115 80 84
0.254852 -0.173881 -0.545 119 92 97
0.26801 -0.167819 -0.526 141 107 108
0.278435 -0.166862 -0.523 140 105 109
0.282781 -0.165905 -0.52 139 104 108
0.283771 -0.165905 -0.52 139 104 108
0.28564 -0.165267 -0.518 139 104 108
0.296738 -0.16431 -0.515 136 101 105
0.307688 -0.163352 -0.512 136 102 103
0.336186 -0.161119 -0.505 128 98 100
0.3432 -0.1608 -0.504 128 96 99
0.34416 -0.1608 -0.504 128 96 99
0.348531 -0.160162 -0.502 127 95 98
0.355471 -0.159843 -0.501 129 97 100
0.361197 -0.159843 -0.501 122 93 97
0.36383 -0.160162 -0.502 123 93 95
0.366471 -0.160481 -0.503 124 95 97
0.437983 -0.166543 -0.522 120 73 67
0.453932 -0.168776 -0.529 155 110 104
0.458683 -0.169414 -0.531 150 107 98
0.0738467 -0.187115 -0.583 217 175 161
0.0802333 -0.186473 -0.581 217 175 163
0.0835533 -0.186473 -0.581 213 171 157
0.114072 -0.195139 -0.608 134 97 91
0.115799 -0.196102 -0.611 130 93 87
0.258907 -0.170747 -0.532 143 108 114
0.259952 -0.170105 -0.53 142 107 111
0.265508 -0.169142 -0.527 141 106 110
0.2705 -0.1685 -0.525 141 106 110
0.276443 -0.167858 -0.523 141 106 110
0.288043 -0.165932 -0.517 144 112 115
0.303015 -0.16497 -0.514 136 101 105
0.324636 -0.163044 -0.508 226 212 212
0.335224 -0.162081 -0.505 132 98 99
0.339071 -0.162081 -0.505 127 101 104
0.345393 -0.161439 -0.503 128 96 101
0.358334 -0.160797 -0.501 128 96 99
0.425243 -0.16529 -0.515 144 92 79
0.446349 -0.168821 -0.526 125 78 72
0.44735 -0.168821 -0.526 134 87 81
0.465195 -0.17171 -0.535 141 98 91
-0.155429 -0.206629 -0.64 182 179 170
-0.15299 -0.206629 -0.64 183 180 171
-0.145134 -0.207597 -0.643 188 186 174
-0.144133 -0.20792 -0.644 188 186 174
-0.14212 -0.208566 -0.646 189 187 175
0.0697619 -0.189194 -0.586 211 173 160
0.08924 -0.187903 -0.582 202 160 144
0.111021 -0.195006 -0.604 146 103 96
0.115989 -0.197589 -0.612 127 89 86
0.138857 -0.209211 -0.648 122 90 95
0.267008 -0.169823 -0.526 141 106 110
0.272458 -0.168854 -0.523 141 106 110
0.279891 -0.168531 -0.522 139 104 108
0.313286 -0.164657 -0.51 138 102 106
0.3162 -0.164657 -0.51 135 100 104
0.318489 -0.164334 -0.509 130 97 104
0.356667 -0.161429 -0.5 128 96 99
0.360243 -0.161751 -0.501 126 97 101
0.378402 -0.165949 -0.514 45 38 46
0.434324 -0.167886 -0.52 132 85 79
0.440814 -0.168854 -0.523 128 81 75
0.451063 -0.170469 -0.528 148 101 95
0.46056 -0.17176 -0.532 150 106 97
0.477005 -0.175957 -0.545 133 92 90
-0.143129 -0.209471 -0.645 189 187 175
0.0916143 -0.189336 -0.583 193 150 134
0.257579 -0.176021 -0.542 110 82 94
0.272458 -0.16985 -0.523 141 106 110
0.290852 -0.167252 -0.515 136 101 105
0.291833 -0.167252 -0.515 135 100 104
0.354517 -0.162706 -0.501 131 98 105
0.355471 -0.162706 -0.501 136 101 105
0.362874 -0.16303 -0.502 135 96 99
0.36624 -0.16368 -0.504 129 94 100
0.425086 -0.167577 -0.516 149 99 90
0.450209 -0.17115 -0.527 144 99 94
-0.155186 -0.20874 -0.639 183 180 171
0.0777514 -0.18914 -0.579 217 175 163
0.0845143 -0.189467 -0.58 208 166 150
0.0992886 -0.192407 -0.589 175 131 118
0.112914 -0.198613 -0.608 132 94 93
0.125599 -0.206127 -0.631 107 77 79
0.260853 -0.175093 -0.536 152 119 126
0.275914 -0.17052 -0.522 139 105 106
0.292814 -0.168233 -0.515 135 100 104
0.297719 -0.168233 -0.515 136 101 105
0.306712 -0.167253 -0.512 137 105 108
0.320428 -0.166273 -0.509 165 143 146
0.324963 -0.16562 -0.507 137 105 110
0.33456 -0.16464 -0.504 130 98 101
0.33744 -0.16464 -0.504 129 97 100
0.3384 -0.16464 -0.504 129 97 100
0.356667 -0.163333 -0.5 127 93 94
0.371082 -0.165947 -0.508 59 42 52
0.415114 -0.17052 -0.522 163 131 134
0.417671 -0.16954 -0.519 192 144 132
0.4325 -0.16954 -0.519 133 83 76
0.4445 -0.1715 -0.525 124 77 71
-0.284942 -0.213243 -0.649 252 253 248
-0.159086 -0.210286 -0.64 181 181 171
0.08092 -0.189914 -0.578 213 173 163
0.0878286 -0.190571 -0.58 200 159 141
0.098 -0.1932 -0.588 178 136 122
0.103526 -0.195171 -0.594 160 118 106
0.11501 -0.201414 -0.613 121 87 88
0.266511 -0.173157 -0.527 136 104 105
0.2685 -0.1725 -0.525 144 110 111
0.27737 -0.171186 -0.521 139 105 106
0.28179 -0.170857 -0.52 139 105 106
0.290852 -0.169214 -0.515 135 100 104
0.311343 -0.167571 -0.51 139 103 107
0.317519 -0.167243 -0.509 134 103 108
0.332338 -0.165929 -0.505 128 96 99
0.33936 -0.1656 -0.504 126 98 95
0.429693 -0.1702 -0.518 139 88 84
0.45494 -0.173814 -0.529 147 103 100
0.463309 -0.175457 -0.534 141 102 97
0.466065 -0.176114 -0.536 138 99 94
0.478755 -0.179729 -0.547 138 97 95
-0.30519 -0.21481 -0.65 251 252 247
-0.151534 -0.211174 -0.639 183 183 173
-0.0365238 -0.21481 -0.65 80 77 84
0.0831219 -0.191015 -0.578 210 167 158
0.102222 -0.195972 -0.593 162 120 108
0.106501 -0.197625 -0.598 145 105 97
0.122414 -0.207209 -0.627 106 77 82
0.266511 -0.174161 -0.527 137 105 108
0.269985 -0.17317 -0.524 140 106 107
0.284214 -0.171517 -0.519 142 108 109
0.323031 -0.167551 -0.507 194 169 173
0.35381 -0.165238 -0.5 190 164 173
0.36528 -0.16656 -0.504 125 98 105
0.415863 -0.174491 -0.528 116 97 103
0.450209 -0.174161 -0.527 143 99 96
-0.29839 -0.214718 -0.646 221 222 217
-0.164777 -0.215383 -0.648 180 180 170
-0.150552 -0.212724 -0.64 183 183 173
-0.145586 -0.214386 -0.645 187 187 177
0.0681771 -0.193446 -0.582 209 169 159
0.0785819 -0.191784 -0.577 212 172 164
0.0829781 -0.191784 -0.577 207 167 157
0.282237 -0.172506 -0.519 138 104 105
0.286073 -0.171841 -0.517 142 108 109
0.287058 -0.171841 -0.517 139 105 106
0.317519 -0.169182 -0.509 134 102 107
0.3384 -0.16752 -0.504 128 98 100
0.341561 -0.167188 -0.503 127 97 99
0.347837 -0.166523 -0.501 131 100 105
0.363597 -0.167188 -0.503 127 96 102
0.418031 -0.171841 -0.517 182 128 116
0.446349 -0.174832 -0.526 124 81 75
0.449205 -0.175165 -0.527 139 95 92
0.450209 -0.175165 -0.527 144 100 97
-0.311381 -0.217286 -0.65 251 252 246
-0.152751 -0.213609 -0.639 183 183 173
-0.150552 -0.213943 -0.64 184 184 174
-0.148577 -0.214611 -0.642 185 185 175
-0.144805 -0.216283 -0.647 189 187 175
-0.0401762 -0.216951 -0.649 72 70 75
0.0740571 -0.192549 -0.576 214 171 162
0.0938352 -0.194889 -0.583 183 141 129
0.123195 -0.210934 -0.631 97 70 77
0.265165 -0.182854 -0.547 108 81 90
0.265485 -0.178174 -0.533 131 98 105
0.2655 -0.177506 -0.531 136 103 110
0.267515 -0.176169 -0.527 139 103 107
0.271462 -0.174831 -0.523 143 108 112
0.273926 -0.174497 -0.522 139 104 108
0.278819 -0.173829 -0.52 140 105 109
0.301449 -0.171489 -0.513 136 101 105
0.307087 -0.17082 -0.511 134 102 107
0.3211 -0.169483 -0.507 130 99 104
0.334854 -0.168146 -0.503 130 100 102
0.348531 -0.167811 -0.502 124 95 100
0.360962 -0.167811 -0.502 126 94 99
0.361918 -0.167811 -0.502 128 99 104
0.41529 -0.175834 -0.526 141 120 125
0.430523 -0.173494 -0.519 132 79 75
0.433333 -0.173829 -0.52 130 83 77
0.459547 -0.17784 -0.532 147 103 100
-0.307004 -0.217179 -0.646 251 254 247
-0.281599 -0.217515 -0.647 227 226 224
-0.155913 -0.214153 -0.637 183 183 173
0.0688095 -0.194318 -0.578 210 172 163
0.07296 -0.193646 -0.576 212 172 162
0.0851762 -0.193982 -0.577 194 155 140
0.0876771 -0.194654 -0.579 187 148 131
0.08878 -0.194654 -0.579 190 149 131
0.105362 -0.201042 -0.598 140 103 95
0.115761 -0.20743 -0.617 112 82 84
0.266511 -0.178517 -0.531 139 107 112
0.292246 -0.172802 -0.514 135 100 106
0.313641 -0.171121 -0.509 135 100 104
0.323358 -0.170112 -0.506 133 101 106
0.324322 -0.170112 -0.506 131 99 104
0.324643 -0.169776 -0.505 132 100 105
0.33264 -0.16944 -0.504 129 97 100
0.333896 -0.169104 -0.503 130 100 102
0.34375 -0.168768 -0.502 129 96 103
0.373757 -0.172466 -0.513 53 45 58
0.416683 -0.174483 -0.519 188 139 132
0.433333 -0.174819 -0.52 130 83 77
0.450209 -0.177172 -0.527 143 99 96
-0.308986 -0.218071 -0.645 249 252 243
-0.292106 -0.217395 -0.643 141 142 137
-0.286427 -0.217733 -0.644 129 129 127
0.0660771 -0.20049 -0.593 208 170 161
0.0794048 -0.194405 -0.575 211 173 160
0.0815952 -0.194405 -0.575 205 167 154
0.102394 -0.200829 -0.594 148 110 99
0.105538 -0.202519 -0.599 134 97 89
0.267903 -0.183248 -0.542 105 82 88
0.271981 -0.177162 -0.524 141 106 112
0.28026 -0.175471 -0.519 139 104 108
0.294204 -0.173781 -0.514 135 100 106
0.296563 -0.173443 -0.513 136 102 103
0.312057 -0.171752 -0.508 136 102 103
0.33456 -0.1704 -0.504 130 98 101
0.337729 -0.170062 -0.503 127 95 98
0.351654 -0.169386 -0.501 147 128 130
0.352857 -0.169048 -0.5 220 205 212
0.35381 -0.169048 -0.5 222 207 214
0.354762 -0.169048 -0.5 180 157 165
0.371327 -0.172767 -0.511 56 43 50
0.415694 -0.175471 -0.519 186 138 128
0.430523 -0.175471 -0.519 131 78 74
0.433333 -0.17581 -0.52 128 81 75
0.44735 -0.177838 -0.526 136 92 89
-0.299454 -0.21862 -0.643 147 148 143
-0.281164 -0.21964 -0.646 135 135 135
-0.279134 -0.21998 -0.647 189 185 182
-0.152751 -0.21726 -0.639 183 183 173
-0.145029 -0.22032 -0.648 188 185 176
0.1144 -0.20944 -0.616 107 77 79
0.131249 -0.21998 -0.647 127 98 103
0.26947 -0.18394 -0.541 105 82 88
0.269546 -0.18122 -0.533 120 91 96
0.273454 -0.17782 -0.523 141 106 110
0.276909 -0.17748 -0.522 140 105 109
0.28268 -0.17612 -0.518 140 105 109
0.331022 -0.17102 -0.503 131 99 102
0.333896 -0.17102 -0.503 129 97 100
0.341838 -0.17068 -0.502 130 96 97
0.344707 -0.17068 -0.502 130 99 104
0.360962 -0.17068 -0.502 121 89 92
0.415311 -0.17714 -0.521 192 139 131
0.42197 -0.17578 -0.517 161 105 92
0.441657 -0.17816 -0.524 118 73 68
-0.308028 -0.219845 -0.643 194 197 190
-0.306803 -0.219845 -0.643 164 167 160
-0.278331 -0.221554 -0.648 178 174 171
-0.157127 -0.217793 -0.637 186 183 174
-0.154943 -0.218135 -0.638 185 182 173
-0.144238 -0.222238 -0.65 187 187 175
-0.0410933 -0.220187 -0.644 72 67 74
-0.0352314 -0.221896 -0.649 79 76 83
0.0913 -0.198647 -0.581 180 138 126
0.278819 -0.17779 -0.52 142 107 111
0.292246 -0.175739 -0.514 134 100 101
0.29754 -0.175397 -0.513 136 101 107
0.301836 -0.175055 -0.512 138 103 107
0.303193 -0.174713 -0.511 140 105 109
0.305514 -0.174371 -0.51 139 104 108
0.32784 -0.17232 -0.504 131 99 102
0.360962 -0.171636 -0.502 110 85 88
0.435994 -0.178474 -0.522 127 80 74
0.440659 -0.179158 -0.524 122 75 69
-0.279134 -0.222445 -0.647 129 125 124
0.0814533 -0.197347 -0.574 201 168 151
0.08878 -0.199066 -0.579 184 142 126
0.27258 -0.185313 -0.539 106 81 85
0.274021 -0.180844 -0.526 137 105 108
0.280707 -0.178093 -0.518 146 110 112
0.313025 -0.174655 -0.508 135 103 106
0.318203 -0.174311 -0.507 133 101 104
0.320467 -0.173968 -0.506 131 99 102
0.324 -0.17328 -0.504 133 101 104
0.42197 -0.17775 -0.517 154 97 86
0.478755 -0.188064 -0.547 135 91 92
0.481551 -0.188751 -0.549 134 90 91
-0.165181 -0.221257 -0.64 179 179 171
-0.0436143 -0.222986 -0.645 67 65 70
-0.0373552 -0.222294 -0.643 75 72 79
0.0671229 -0.198094 -0.573 214 178 166
0.0789905 -0.197749 -0.572 198 167 149
0.0862752 -0.199477 -0.577 186 145 127
0.08878 -0.200169 -0.579 182 140 124
0.0983333 -0.203971 -0.59 150 111 104
0.117074 -0.215726 -0.624 107 76 82
0.118831 -0.216763 -0.627 103 72 78
0.130016 -0.223677 -0.647 108 75 82
0.278819 -0.179771 -0.52 137 105 110
0.28889 -0.178043 -0.515 137 103 104
0.289871 -0.178043 -0.515 136 102 103
0.299886 -0.177006 -0.512 137 102 106
0.300861 -0.177006 -0.512 136 101 105
0.306854 -0.175969 -0.509 134 102 105
0.322719 -0.174586 -0.505 132 100 103
0.338013 -0.173549 -0.502 131 101 103
0.341157 -0.173203 -0.501 130 99 104
0.342111 -0.173203 -0.501 130 99 104
0.352857 -0.172857 -0.5 151 120 125
0.356426 -0.173203 -0.501 125 94 99
0.41588 -0.17908 -0.518 185 133 122
0.441657 -0.181154 -0.524 120 75 72
0.4485 -0.1815 -0.525 143 98 95
0.450356 -0.181846 -0.526 142 97 94
-0.313413 -0.223867 -0.644 243 248 241
-0.15299 -0.222476 -0.64 185 185 175
-0.151023 -0.223171 -0.642 185 185 175
-0.145476 -0.225952 -0.65 188 185 176
0.0640714 -0.203357 -0.585 211 177 165
0.0711143 -0.198143 -0.57 212 178 166
0.0732857 -0.198143 -0.57 209 175 163
0.0861257 -0.200229 -0.576 186 144 128
0.0875257 -0.200924 -0.578 181 139 123
0.108104 -0.211005 -0.607 118 87 85
0.27981 -0.180762 -0.52 143 108 112
0.296162 -0.178676 -0.514 135 101 102
0.336101 -0.174505 -0.502 129 97 102
0.338013 -0.174505 -0.502 130 98 101
0.354762 -0.17381 -0.5 127 96 101
0.417853 -0.180067 -0.518 168 116 105
-0.153969 -0.223346 -0.639 185 185 175
0.0678571 -0.199229 -0.57 212 180 167
0.0861257 -0.201326 -0.576 182 143 126
0.106595 -0.211462 -0.605 121 91 89
0.126763 -0.224744 -0.643 109 78 84
0.28889 -0.180005 -0.515 137 103 104
0.29891 -0.178956 -0.512 136 102 103
0.305514 -0.178257 -0.51 135 103 106
0.333896 -0.17581 -0.503 128 96 99
0.339926 -0.175461 -0.502 132 97 101
0.348095 -0.174762 -0.5 134 111 117
0.356426 -0.175111 -0.501 120 89 94
0.362157 -0.17651 -0.505 58 45 54
0.363838 -0.176859 -0.506 56 43 52
0.443653 -0.18315 -0.524 133 88 83
-0.319063 -0.227726 -0.648 252 253 245
-0.165181 -0.224914 -0.64 181 181 173
-0.0487543 -0.227726 -0.648 63 61 66
-0.0408381 -0.224914 -0.64 69 66 73
0.0730286 -0.199611 -0.568 210 176 164
0.0943181 -0.205937 -0.586 148 109 102
0.28268 -0.18204 -0.518 134 99 103
0.28791 -0.180986 -0.515 136 101 105
0.3026 -0.179229 -0.51 135 103 106
0.42197 -0.181689 -0.517 149 97 86
0.4495 -0.1845 -0.525 142 98 95
0.47788 -0.19188 -0.546 136 90 93
-0.315376 -0.227193 -0.643 251 252 244
-0.162234 -0.225427 -0.638 185 185 177
-0.158091 -0.22472 -0.636 186 186 176
-0.0407743 -0.22578 -0.639 69 66 73
0.07074 -0.20034 -0.567 209 175 163
0.07182 -0.20034 -0.567 209 175 163
0.0751924 -0.200693 -0.568 200 166 154
0.106948 -0.214473 -0.607 121 89 92
0.12354 -0.22578 -0.639 107 77 87
0.279173 -0.187973 -0.532 103 80 88
0.280143 -0.187267 -0.53 107 84 92
0.28552 -0.18232 -0.516 134 100 101
0.299886 -0.180907 -0.512 133 101 104
0.315306 -0.17914 -0.507 132 100 103
0.320467 -0.178787 -0.506 130 98 101
0.338013 -0.177373 -0.502 136 97 102
0.414709 -0.185147 -0.524 181 134 128
0.432343 -0.183733 -0.52 127 82 77
0.45408 -0.18656 -0.528 140 94 94
0.466934 -0.18974 -0.537 131 85 87
-0.310248 -0.227352 -0.64 154 159 152
-0.305371 -0.227352 -0.64 134 137 130
-0.271762 -0.230905 -0.65 255 255 251
-0.162234 -0.226642 -0.638 185 185 177
-0.0432086 -0.226997 -0.639 67 64 71
0.07074 -0.20142 -0.567 213 179 167
0.0785762 -0.20213 -0.569 200 164 150
0.0959229 -0.209235 -0.589 138 103 97
0.108994 -0.217406 -0.612 117 82 86
0.114513 -0.221313 -0.623 108 77 83
0.2815 -0.1865 -0.525 136 110 119
0.284537 -0.183303 -0.516 135 101 102
0.28552 -0.183303 -0.516 135 101 102
0.295586 -0.182237 -0.513 135 100 104
0.300273 -0.181527 -0.511 134 102 105
0.303946 -0.180816 -0.509 135 103 104
