ply
format ascii 1.0
comment Created by Open3D
element vertex 1306
property double x
property double y
property double z
property uchar red
property uchar green
property uchar blue
end_header
0.127286 -0.225 -0.45 180 134 118
0.129857 -0.225 -0.45 177 131 116
0.38917 -0.2795 -0.559 146 99 93
0.401345 -0.274 -0.548 137 90 84
0.408368 -0.269 -0.538 136 92 81
0.420122 -0.268 -0.536 133 86 76
0.421143 -0.268 -0.536 134 87 77
0.434571 -0.27 -0.54 127 83 74
0.4356 -0.27 -0.54 127 83 74
0.447116 -0.272 -0.544 123 80 71
0.4752 -0.28 -0.56 124 86 77
-0.08904 -0.319211 -0.636 38 38 46
0.119571 -0.225857 -0.45 195 152 135
0.127286 -0.225857 -0.45 176 130 114
0.132723 -0.226359 -0.451 170 123 107
0.169037 -0.241416 -0.481 174 169 192
0.394467 -0.306162 -0.61 126 90 92
0.379721 -0.289599 -0.577 128 88 86
0.381107 -0.284078 -0.566 145 97 93
0.38522 -0.281569 -0.561 151 104 98
0.397571 -0.276048 -0.55 135 88 80
0.436629 -0.271029 -0.54 128 84 73
0.456667 -0.275044 -0.548 123 83 71
0.47244 -0.280063 -0.558 122 84 75
-0.115329 -0.294729 -0.585 80 80 88
-0.0878286 -0.320423 -0.636 37 35 46
-0.0854057 -0.320423 -0.636 38 37 45
0.105122 -0.230745 -0.458 203 161 147
0.107033 -0.229233 -0.455 205 162 146
0.118714 -0.226714 -0.45 197 154 137
0.120429 -0.226714 -0.45 193 150 133
0.125292 -0.22621 -0.449 180 137 120
0.129 -0.226714 -0.45 173 127 111
0.131571 -0.226714 -0.45 169 123 107
0.134739 -0.227722 -0.452 167 119 105
0.136763 -0.228226 -0.453 160 112 100
0.167771 -0.241829 -0.48 150 143 159
0.173001 -0.245355 -0.487 199 196 223
0.382586 -0.284652 -0.565 146 101 96
0.382983 -0.284149 -0.564 146 101 96
0.395527 -0.278607 -0.553 139 92 84
0.405771 -0.272057 -0.54 137 93 84
0.412975 -0.270042 -0.536 131 84 76
0.415262 -0.269538 -0.535 132 85 77
0.423185 -0.270042 -0.536 138 91 81
-0.132092 -0.308991 -0.611 90 90 100
-0.114067 -0.298371 -0.59 71 68 85
-0.111144 -0.308991 -0.611 229 229 231
0.104636 -0.244766 -0.484 198 160 147
0.104892 -0.231111 -0.457 205 161 148
0.113824 -0.228077 -0.451 205 162 145
0.114683 -0.228077 -0.451 204 161 144
0.121016 -0.227066 -0.449 189 146 129
0.122453 -0.22656 -0.448 187 144 127
0.127003 -0.227066 -0.449 178 133 114
0.162966 -0.239709 -0.474 122 111 117
0.173001 -0.246283 -0.487 199 196 223
0.404167 -0.316071 -0.625 116 93 101
0.388474 -0.282189 -0.558 148 101 95
0.399667 -0.278143 -0.55 137 90 82
0.401345 -0.277131 -0.548 137 90 82
0.403 -0.27612 -0.546 139 90 83
0.409392 -0.272074 -0.538 136 92 81
0.416038 -0.271063 -0.536 131 84 76
0.417059 -0.271063 -0.536 134 87 79
0.429888 -0.272074 -0.538 131 87 76
0.443408 -0.274097 -0.542 131 88 79
0.45771 -0.277131 -0.548 126 86 76
-0.142343 -0.322846 -0.636 89 89 99
-0.127216 -0.304064 -0.599 86 86 96
-0.109103 -0.31777 -0.626 212 210 211
-0.0940333 -0.323353 -0.637 40 39 47
0.109771 -0.229444 -0.452 205 162 145
0.11845 -0.227921 -0.449 195 154 134
0.144064 -0.231982 -0.457 137 96 92
0.147317 -0.232997 -0.459 122 88 86
0.16048 -0.239596 -0.472 99 81 81
0.170091 -0.245688 -0.484 180 177 206
0.3861 -0.296957 -0.585 125 86 87
0.386667 -0.284267 -0.56 146 99 93
0.397245 -0.279698 -0.551 136 89 81
0.401031 -0.278683 -0.549 138 91 83
0.411954 -0.272084 -0.536 133 86 78
0.420122 -0.272084 -0.536 138 91 81
0.438468 -0.274622 -0.541 125 81 72
-0.125444 -0.303676 -0.596 82 82 92
-0.11426 -0.301129 -0.591 66 66 78
-0.111326 -0.311829 -0.612 234 234 242
-0.110597 -0.316414 -0.621 228 227 232
-0.109103 -0.318962 -0.626 216 216 218
0.116143 -0.229286 -0.45 198 155 138
0.396195 -0.280748 -0.551 137 90 82
0.40404 -0.2782 -0.546 140 93 83
0.413996 -0.273105 -0.536 132 85 77
0.41808 -0.273105 -0.536 134 87 77
0.420122 -0.273105 -0.536 139 92 82
0.421143 -0.273105 -0.536 138 91 81
0.438468 -0.275652 -0.541 125 82 73
0.448152 -0.277181 -0.544 132 92 82
-0.13339 -0.315551 -0.617 80 80 88
-0.121727 -0.301231 -0.589 81 81 91
-0.114995 -0.301231 -0.589 69 68 82
0.103794 -0.233211 -0.456 207 164 147
0.106563 -0.231677 -0.453 205 163 149
0.114429 -0.230143 -0.45 199 156 140
0.11845 -0.229631 -0.449 192 151 131
0.123307 -0.22912 -0.448 177 134 117
0.1391 -0.2327 -0.455 145 100 94
0.141143 -0.233211 -0.456 142 98 95
0.148837 -0.235769 -0.461 118 89 85
0.156446 -0.239349 -0.468 103 78 81
0.171497 -0.249577 -0.488 212 208 231
0.38678 -0.29714 -0.581 127 92 90
0.384738 -0.288957 -0.565 145 98 92
0.388106 -0.285889 -0.559 148 101 93
0.388839 -0.284866 -0.557 148 101 93
0.397571 -0.281286 -0.55 142 95 85
0.398619 -0.281286 -0.55 141 94 84
0.39894 -0.280774 -0.549 140 93 83
0.399986 -0.280774 -0.549 140 93 83
0.404338 -0.278729 -0.545 140 93 83
0.40521 -0.277194 -0.542 138 91 81
0.405492 -0.276683 -0.541 136 89 79
0.4356 -0.276171 -0.54 128 84 75
0.451052 -0.278729 -0.545 129 86 77
0.465257 -0.282309 -0.552 128 88 80
0.470747 -0.284354 -0.556 129 89 81
0.480743 -0.288446 -0.564 128 89 82
1.13339 -0.323223 -0.632 201 203 190
0.106328 -0.232027 -0.452 205 163 151
0.10867 -0.231513 -0.451 206 164 150
0.111857 -0.231 -0.45 204 161 145
0.120747 -0.229973 -0.448 184 143 123
0.125867 -0.229973 -0.448 170 127 110
0.141143 -0.23408 -0.456 140 96 93
0.143193 -0.234593 -0.457 133 95 94
0.153671 -0.2387 -0.465 106 81 85
0.390984 -0.302353 -0.589 126 91 89
0.386289 -0.28798 -0.561 147 100 94
0.387733 -0.287467 -0.56 148 101 93
0.397571 -0.282333 -0.55 145 98 88
0.401345 -0.281307 -0.548 141 94 84
0.406242 -0.278227 -0.542 139 92 82
0.409127 -0.276687 -0.539 137 90 80
0.43274 -0.276687 -0.539 128 84 73
0.441343 -0.278227 -0.542 130 86 77
-0.122347 -0.305021 -0.592 74 74 84
-0.11519 -0.30399 -0.59 66 64 78
-0.112171 -0.311204 -0.604 219 219 231
-0.108255 -0.32357 -0.628 217 219 218
0.115885 -0.231342 -0.449 195 152 136
0.125013 -0.230827 -0.448 172 129 113
0.129 -0.231857 -0.45 164 118 105
0.137065 -0.233918 -0.454 150 103 97
0.40128 -0.313265 -0.608 131 90 94
0.392771 -0.30399 -0.59 125 95 93
0.38784 -0.296777 -0.576 144 96 92
0.387587 -0.295747 -0.574 146 98 94
0.390259 -0.286472 -0.556 150 104 91
0.390614 -0.285957 -0.555 146 102 93
0.396195 -0.283896 -0.551 144 100 89
0.421143 -0.276168 -0.536 134 90 79
0.442375 -0.279259 -0.542 129 87 75
0.449189 -0.28029 -0.544 132 92 82
1.1322 -0.3246 -0.63 202 204 191
-0.131786 -0.318043 -0.615 78 78 90
-0.10723 -0.325283 -0.629 219 221 220
-0.08862 -0.327351 -0.633 42 40 51
0.0998571 -0.240989 -0.466 201 162 147
0.112464 -0.232197 -0.449 202 159 143
0.120477 -0.231163 -0.447 180 139 121
0.12416 -0.23168 -0.448 170 127 111
0.141143 -0.235817 -0.456 136 95 93
0.154663 -0.242023 -0.468 101 75 76
0.4122 -0.3258 -0.63 114 105 124
0.392341 -0.303046 -0.586 137 97 95
0.388937 -0.297874 -0.576 144 96 92
0.3888 -0.2896 -0.56 147 103 92
0.38917 -0.289083 -0.559 144 100 87
0.415017 -0.277189 -0.536 131 87 76
0.417059 -0.277189 -0.536 133 89 78
0.434571 -0.279257 -0.54 133 89 78
0.439498 -0.279774 -0.541 130 88 76
0.440529 -0.279774 -0.541 129 87 75
0.443408 -0.280291 -0.542 133 91 79
-0.114283 -0.309871 -0.597 62 64 77
0.0993448 -0.24499 -0.472 200 161 146
0.102249 -0.235129 -0.453 203 164 147
0.102884 -0.23461 -0.452 203 164 147
0.120477 -0.232014 -0.447 180 137 118
0.135037 -0.235129 -0.453 149 102 94
0.1391 -0.236167 -0.455 141 96 93
0.149483 -0.240319 -0.463 110 82 81
0.389505 -0.296895 -0.572 145 100 94
0.388945 -0.294819 -0.568 145 100 94
0.394096 -0.285995 -0.551 149 102 92
0.406523 -0.280805 -0.541 142 95 85
0.407553 -0.280805 -0.541 140 93 83
0.411442 -0.279248 -0.538 138 91 81
0.412723 -0.278729 -0.537 136 92 79
0.416038 -0.27821 -0.536 135 91 78
0.466309 -0.286514 -0.552 129 91 82
0.476267 -0.290667 -0.56 127 89 80
1.134 -0.326481 -0.629 201 205 190
-0.115033 -0.309967 -0.595 63 62 76
-0.108406 -0.324032 -0.622 225 226 231
0.0985029 -0.243806 -0.468 200 160 148
0.0992314 -0.239117 -0.459 201 162 147
0.11392 -0.233387 -0.448 194 151 134
0.1362 -0.236512 -0.454 146 99 91
0.143507 -0.238596 -0.458 125 89 89
0.149483 -0.241201 -0.463 108 82 81
0.354714 -0.338619 -0.65 103 122 165
0.407952 -0.338619 -0.65 133 146 178
0.414143 -0.338619 -0.65 37 62 129
0.408907 -0.320907 -0.616 120 87 82
0.390027 -0.295901 -0.568 144 99 94
0.390235 -0.291212 -0.559 147 103 94
0.41118 -0.280793 -0.539 141 94 84
0.428863 -0.280272 -0.538 138 92 79
0.459798 -0.285482 -0.548 131 91 81
0.463571 -0.286524 -0.55 134 94 86
-0.13904 -0.330446 -0.632 78 78 86
-0.128811 -0.319989 -0.612 75 75 87
0.107332 -0.234763 -0.449 203 162 144
0.119626 -0.233717 -0.447 178 135 118
0.1216 -0.23424 -0.448 168 125 109
0.135335 -0.237377 -0.454 148 101 93
0.1362 -0.237377 -0.454 146 99 91
0.139406 -0.238423 -0.456 138 93 88
0.14501 -0.240514 -0.46 121 86 84
0.160363 -0.249403 -0.477 180 168 178
0.356641 -0.339334 -0.649 95 123 188
0.363381 -0.339857 -0.65 52 83 147
0.396199 -0.339334 -0.649 176 178 201
0.413553 -0.32574 -0.623 119 91 90
0.39794 -0.309009 -0.591 133 92 86
0.3914 -0.298029 -0.57 142 99 92
0.391109 -0.296983 -0.568 144 99 93
0.395803 -0.287049 -0.549 151 104 88
0.424997 -0.280774 -0.537 138 90 78
0.474566 -0.291754 -0.558 127 89 78
1.13578 -0.328354 -0.628 200 203 186
-0.133714 -0.327451 -0.624 77 77 85
-0.127437 -0.32063 -0.611 80 80 90
-0.12017 -0.313808 -0.598 80 80 88
-0.11542 -0.313283 -0.597 77 77 89
-0.10871 -0.323778 -0.617 231 232 234
0.09966 -0.237717 -0.453 203 164 149
0.1088 -0.235093 -0.448 199 158 140
0.132156 -0.237192 -0.452 151 103 93
0.137367 -0.238767 -0.455 142 95 89
0.139406 -0.239291 -0.456 136 91 86
0.148922 -0.24349 -0.464 107 81 80
0.348686 -0.340046 -0.648 61 89 154
0.34992 -0.340046 -0.648 55 83 148
0.361586 -0.34057 -0.649 58 90 151
0.390018 -0.34057 -0.649 90 114 176
0.395589 -0.340046 -0.648 172 179 205
0.398057 -0.340046 -0.648 173 177 206
0.395885 -0.305936 -0.583 137 98 91
0.402262 -0.285995 -0.545 147 100 84
0.404632 -0.28547 -0.544 149 101 87
0.412467 -0.282322 -0.538 144 98 83
0.413996 -0.281272 -0.536 144 96 82
0.424997 -0.281797 -0.537 139 91 77
0.433767 -0.282847 -0.539 134 85 70
0.457917 -0.287045 -0.547 134 92 80
-0.118089 -0.315473 -0.599 83 84 88
-0.113904 -0.316527 -0.601 81 81 89
-0.110962 -0.321267 -0.61 80 81 86
-0.105357 -0.329167 -0.625 77 77 79
0.0978762 -0.251747 -0.478 198 160 147
0.100714 -0.237 -0.45 206 164 148
0.117071 -0.23542 -0.447 180 137 118
0.122453 -0.235947 -0.448 165 122 105
0.139406 -0.24016 -0.456 135 91 88
0.347451 -0.34128 -0.648 90 112 162
0.365294 -0.341807 -0.649 165 189 235
0.377 -0.342333 -0.65 180 190 217
0.380714 -0.342333 -0.65 90 115 171
0.391259 -0.295987 -0.562 148 99 92
0.39717 -0.288613 -0.548 150 102 88
0.410153 -0.283873 -0.539 145 98 82
0.420122 -0.282293 -0.536 141 93 79
0.431713 -0.283873 -0.539 137 85 71
0.44259 -0.284927 -0.541 129 82 66
0.450225 -0.286507 -0.544 137 91 76
-0.128689 -0.326129 -0.617 89 89 97
-0.11524 -0.3182 -0.602 87 88 93
-0.105189 -0.329829 -0.624 72 71 76
0.123307 -0.2368 -0.448 164 116 102
0.131295 -0.238914 -0.452 150 100 91
0.14652 -0.2442 -0.462 112 82 82
0.153533 -0.248429 -0.47 108 78 78
0.162044 -0.254771 -0.482 193 189 216
0.361029 -0.342514 -0.648 89 123 186
0.3672 -0.342514 -0.648 178 183 213
0.397443 -0.341986 -0.647 170 180 216
0.394262 -0.301814 -0.571 143 100 94
0.392966 -0.299171 -0.566 146 98 94
0.392 -0.296 -0.56 149 99 92
0.392022 -0.294414 -0.557 149 102 92
0.403596 -0.287543 -0.544 148 101 85
0.407274 -0.286486 -0.542 148 99 82
0.409127 -0.2849 -0.539 150 101 84
0.414769 -0.283843 -0.537 143 94 80
0.426813 -0.284371 -0.538 141 92 75
0.44444 -0.286486 -0.542 131 85 69
0.462729 -0.290186 -0.549 131 89 73
0.46736 -0.291771 -0.552 131 89 73
1.13217 -0.330886 -0.626 202 204 191
1.13336 -0.330886 -0.626 202 204 193
-0.120822 -0.321999 -0.607 96 97 101
-0.117924 -0.320408 -0.604 93 94 98
-0.11034 -0.325182 -0.613 85 85 93
-0.102976 -0.331548 -0.625 60 58 69
-0.101078 -0.333139 -0.628 61 60 68
0.10049 -0.238184 -0.449 205 166 149
0.102201 -0.238184 -0.449 203 165 146
0.108557 -0.237123 -0.447 195 154 134
0.113411 -0.236592 -0.446 190 148 126
0.1365 -0.241367 -0.455 137 94 85
0.144447 -0.24455 -0.461 120 86 85
0.151097 -0.248263 -0.468 105 79 80
0.340227 -0.342688 -0.646 193 196 229
0.345149 -0.342688 -0.646 169 186 229
0.368434 -0.343749 -0.648 164 174 201
0.386351 -0.343218 -0.647 42 89 159
0.390049 -0.343218 -0.647 71 101 174
0.392513 -0.343218 -0.647 79 108 174
0.393137 -0.342688 -0.646 122 134 182
0.399908 -0.343218 -0.647 167 168 198
0.40607 -0.343218 -0.647 70 96 157
0.408534 -0.343218 -0.647 51 76 132
0.407274 -0.287518 -0.542 150 101 87
0.415017 -0.284335 -0.536 143 94 79
0.434571 -0.286457 -0.54 131 82 67
0.440529 -0.286988 -0.541 132 84 70
0.44259 -0.286988 -0.541 135 87 73
0.451466 -0.288049 -0.543 131 88 72
0.461886 -0.290701 -0.548 131 89 73
0.464619 -0.291762 -0.55 130 88 72
-0.111508 -0.32635 -0.613 88 89 94
-0.109529 -0.327414 -0.615 81 81 89
-0.104851 -0.331141 -0.622 69 70 75
-0.103833 -0.331673 -0.623 60 61 66
0.0977181 -0.240636 -0.452 206 167 152
0.117071 -0.237974 -0.447 176 130 114
0.13447 -0.241701 -0.454 143 96 88
0.1365 -0.242233 -0.455 135 95 87
0.142071 -0.244363 -0.459 119 84 80
0.353762 -0.343918 -0.646 49 81 156
0.374028 -0.34445 -0.647 164 178 207
0.37526 -0.34445 -0.647 141 155 184
0.393076 -0.294939 -0.554 145 101 92
0.394473 -0.294407 -0.553 142 98 87
0.398213 -0.291745 -0.548 146 100 87
0.404632 -0.289615 -0.544 146 98 84
0.407553 -0.288018 -0.541 148 99 84
0.423185 -0.285356 -0.536 140 91 76
0.429888 -0.286421 -0.538 140 91 76
0.43274 -0.286953 -0.539 134 85 70
0.436629 -0.287486 -0.54 132 85 69
0.461043 -0.291212 -0.547 128 86 72
-0.122414 -0.328586 -0.615 100 101 103
-0.114823 -0.326983 -0.612 97 98 103
-0.104851 -0.332326 -0.622 57 57 65
0.0946533 -0.244703 -0.458 202 164 151
0.1043 -0.238826 -0.447 203 161 145
0.11596 -0.238291 -0.446 177 132 109
0.119626 -0.238826 -0.447 165 120 101
0.126148 -0.239894 -0.449 153 107 94
0.130434 -0.241497 -0.452 146 102 91
0.3483 -0.344614 -0.645 57 87 149
0.356223 -0.345149 -0.646 37 72 140
0.367866 -0.345683 -0.647 110 123 158
0.371563 -0.345683 -0.647 174 178 207
0.40052 -0.345149 -0.646 111 115 144
0.412657 -0.323777 -0.606 124 91 86
0.395187 -0.295994 -0.554 142 98 89
0.398213 -0.292789 -0.548 143 96 86
0.409614 -0.289049 -0.541 149 100 85
0.411943 -0.288514 -0.54 153 101 87
0.413233 -0.28798 -0.539 153 102 85
0.436629 -0.288514 -0.54 131 83 69
0.439714 -0.288514 -0.54 130 84 71
0.0936438 -0.249865 -0.466 201 161 149
0.0975019 -0.241822 -0.451 207 165 151
0.101746 -0.239677 -0.447 204 162 146
0.105766 -0.239141 -0.446 198 156 140
0.111712 -0.239141 -0.446 189 147 125
0.11511 -0.239141 -0.446 176 131 110
0.143569 -0.247184 -0.461 120 85 83
0.152066 -0.252546 -0.471 105 79 78
0.33672 -0.345307 -0.644 179 190 220
0.345307 -0.345307 -0.644 62 92 154
0.353214 -0.345843 -0.645 51 80 150
0.38019 -0.346915 -0.647 64 90 149
0.383293 -0.346379 -0.646 27 68 147
0.404814 -0.345843 -0.645 117 131 176
0.410957 -0.345843 -0.645 26 60 123
0.415871 -0.345843 -0.645 22 55 124
0.395559 -0.29973 -0.559 146 99 91
0.395554 -0.298122 -0.556 145 98 90
0.395527 -0.296513 -0.553 144 97 89
0.408584 -0.290079 -0.541 151 100 83
0.422164 -0.287398 -0.536 146 97 82
-0.125193 -0.335233 -0.623 99 103 106
-0.116936 -0.332005 -0.617 102 103 107
0.108314 -0.23999 -0.446 192 149 132
0.109164 -0.23999 -0.446 189 146 129
0.11681 -0.23999 -0.446 173 128 109
0.34408 -0.346533 -0.644 76 106 168
0.354443 -0.347071 -0.645 38 71 140
0.358129 -0.347071 -0.645 40 77 145
0.3655 -0.347071 -0.645 81 95 140
0.387614 -0.347071 -0.645 47 86 163
0.393757 -0.347071 -0.645 140 161 208
0.3956 -0.346533 -0.644 165 174 207
0.416453 -0.346533 -0.644 29 58 134
0.39931 -0.30779 -0.572 139 95 86
0.395914 -0.300257 -0.558 143 96 88
0.400301 -0.294876 -0.548 141 93 81
0.405669 -0.292724 -0.544 147 98 83
0.408584 -0.29111 -0.541 151 100 83
0.409614 -0.29111 -0.541 152 101 84
0.410914 -0.290571 -0.54 152 101 84
0.422164 -0.288419 -0.536 143 94 80
0.438686 -0.290571 -0.54 131 85 72
1.12967 -0.334695 -0.622 202 204 191
-0.121243 -0.33534 -0.621 103 107 110
-0.119867 -0.3348 -0.62 108 109 113
0.101746 -0.24138 -0.447 203 161 147
0.106615 -0.24084 -0.446 196 153 136
0.111712 -0.24084 -0.446 182 139 120
0.12218 -0.24138 -0.447 153 107 92
0.1371 -0.24678 -0.457 126 89 83
0.386386 -0.3483 -0.645 62 106 177
0.3913 -0.3483 -0.645 79 118 195
0.394373 -0.34776 -0.644 170 179 210
0.400507 -0.34776 -0.644 174 177 208
0.404187 -0.34776 -0.644 166 166 192
0.415227 -0.34776 -0.644 24 53 131
0.412 -0.324 -0.6 121 91 83
0.396949 -0.30456 -0.564 143 96 88
0.401345 -0.29592 -0.548 139 93 80
0.40404 -0.29484 -0.546 142 94 80
0.409614 -0.29214 -0.541 154 103 86
0.413491 -0.29052 -0.538 154 102 88
0.41886 -0.28998 -0.537 148 96 82
0.424206 -0.28944 -0.536 139 90 76
0.425227 -0.28944 -0.536 140 91 77
0.432962 -0.29052 -0.538 135 86 72
0.43582 -0.29106 -0.539 133 84 70
-0.11926 -0.337607 -0.623 112 116 117
-0.116699 -0.337065 -0.622 112 116 117
0.11596 -0.24169 -0.446 168 123 102
0.118509 -0.24169 -0.446 162 119 102
0.119626 -0.242231 -0.447 161 115 100
0.120477 -0.242231 -0.447 157 111 96
0.134767 -0.246567 -0.455 131 92 87
0.135931 -0.247109 -0.456 127 90 84
0.1371 -0.24765 -0.457 126 89 83
0.138272 -0.248192 -0.458 120 89 84
0.141812 -0.249818 -0.461 112 84 81
0.338647 -0.348445 -0.643 141 155 184
0.342321 -0.348445 -0.643 151 169 209
0.34967 -0.348445 -0.643 53 83 155
0.364933 -0.348987 -0.644 176 187 215
0.397435 -0.348445 -0.643 178 184 208
0.411547 -0.348987 -0.644 30 63 134
0.423155 -0.348445 -0.643 95 124 184
0.3984 -0.303467 -0.56 141 97 88
0.397297 -0.300215 -0.554 143 99 88
0.400393 -0.29859 -0.551 135 91 80
0.40404 -0.29588 -0.546 142 94 82
0.409614 -0.29317 -0.541 153 101 87
0.410645 -0.29317 -0.541 154 102 88
0.432962 -0.291545 -0.538 133 84 69
0.433987 -0.291545 -0.538 133 84 69
0.464169 -0.296422 -0.547 135 91 78
1.12529 -0.334355 -0.617 202 204 191
0.0934133 -0.245802 -0.452 203 163 151
0.103217 -0.242539 -0.446 199 155 142
0.11231 -0.241995 -0.445 179 136 117
0.120477 -0.243083 -0.447 155 111 98
0.134767 -0.247433 -0.455 131 90 84
0.1371 -0.248521 -0.457 129 90 83
0.141812 -0.250696 -0.461 111 81 79
0.14331 -0.251784 -0.463 111 81 83
0.144503 -0.252328 -0.464 112 82 84
0.343011 -0.349126 -0.642 177 193 229
0.360692 -0.34967 -0.643 150 171 216
0.39866 -0.34967 -0.643 176 187 207
0.413357 -0.34967 -0.643 62 93 158
0.421274 -0.349126 -0.642 47 75 138
0.426166 -0.349126 -0.642 135 150 205
0.417963 -0.330092 -0.607 123 88 82
0.4018 -0.312147 -0.574 134 91 84
0.399764 -0.308884 -0.568 135 95 87
0.39839 -0.306165 -0.563 137 94 85
0.400393 -0.299639 -0.551 135 91 80
0.410914 -0.293657 -0.54 152 100 87
0.411943 -0.293657 -0.54 153 101 88
0.421143 -0.291482 -0.536 148 96 82
0.439927 -0.293113 -0.539 129 82 66
0.48418 -0.306165 -0.563 142 102 90
-0.114697 -0.340526 -0.624 137 138 140
0.101518 -0.243389 -0.446 197 155 143
0.104916 -0.243389 -0.446 196 152 139
0.105529 -0.242843 -0.445 194 150 137
0.117395 -0.242843 -0.445 166 120 105
0.12986 -0.247209 -0.453 140 97 88
0.349126 -0.350349 -0.642 42 81 150
0.351024 -0.349803 -0.641 42 75 152
0.356463 -0.350349 -0.642 35 71 147
0.360692 -0.350894 -0.643 144 162 208
0.368041 -0.350894 -0.643 188 193 222
0.374165 -0.350894 -0.643 181 188 207
0.37539 -0.350894 -0.643 155 162 181
0.392536 -0.350894 -0.643 169 182 216
0.395594 -0.350349 -0.642 181 189 210
0.405377 -0.350349 -0.642 71 83 121
0.407823 -0.350349 -0.642 52 78 137
0.416383 -0.350349 -0.642 71 105 169
0.418829 -0.350349 -0.642 58 91 145
0.425733 -0.338343 -0.62 117 96 95
0.399111 -0.306146 -0.561 136 96 86
0.415541 -0.293594 -0.538 148 97 80
0.41808 -0.292503 -0.536 149 97 83
0.420122 -0.292503 -0.536 146 94 80
0.446914 -0.294686 -0.54 135 89 73
0.447943 -0.294686 -0.54 135 89 73
0.458706 -0.296323 -0.543 133 91 77
0.462471 -0.297414 -0.545 138 96 82
1.1254 -0.337797 -0.619 201 203 190
0.09812 -0.244238 -0.446 203 161 147
0.110614 -0.24369 -0.445 181 139 117
0.11231 -0.24369 -0.445 176 133 114
0.135359 -0.250262 -0.457 131 93 84
0.14124 -0.253 -0.462 113 81 84
0.14664 -0.256286 -0.468 101 76 72
0.315124 -0.350476 -0.64 105 146 208
0.3638 -0.351571 -0.642 163 172 211
0.374806 -0.351571 -0.642 168 172 201
0.393149 -0.351571 -0.642 181 188 204
0.394371 -0.351571 -0.642 181 188 204
0.395594 -0.351571 -0.642 177 184 200
0.402304 -0.351024 -0.641 130 138 149
0.403525 -0.351024 -0.641 81 103 153
0.414513 -0.351024 -0.641 91 114 164
0.426914 -0.339524 -0.62 119 94 97
0.402963 -0.31269 -0.571 128 89 82
0.404169 -0.300643 -0.549 137 93 82
0.41426 -0.295167 -0.539 148 96 82
0.419101 -0.293524 -0.536 144 92 78
0.42931 -0.293524 -0.536 141 92 77
0.444033 -0.295167 -0.539 135 87 73
0.472617 -0.302286 -0.552 131 92 77
0.0916914 -0.248385 -0.452 202 162 152
0.100443 -0.244538 -0.445 200 158 142
0.106376 -0.244538 -0.445 190 149 131
0.107224 -0.244538 -0.445 188 147 129
0.109767 -0.244538 -0.445 185 143 121
0.153415 -0.262672 -0.478 175 168 186
0.337067 -0.351695 -0.64 196 204 223
0.353466 -0.352245 -0.641 55 90 154
0.369338 -0.352245 -0.641 197 196 214
0.376029 -0.352794 -0.642 134 150 186
0.385811 -0.352794 -0.642 94 126 183
0.39742 -0.352245 -0.641 145 140 160
0.398641 -0.352245 -0.641 148 142 156
0.402968 -0.305535 -0.556 138 94 85
0.411675 -0.297292 -0.541 146 94 81
0.413233 -0.296193 -0.539 148 96 82
0.417837 -0.295094 -0.537 150 98 84
0.432157 -0.295094 -0.537 138 89 74
0.443007 -0.296193 -0.539 138 89 75
0.46351 -0.29949 -0.545 132 90 76
0.0898971 -0.251451 -0.456 204 160 149
0.107224 -0.245386 -0.445 188 145 128
0.141851 -0.255863 -0.464 109 81 80
0.32802 -0.352363 -0.639 203 210 228
0.340191 -0.352363 -0.639 125 137 159
0.352914 -0.352914 -0.64 103 135 192
0.365675 -0.353466 -0.641 179 183 210
0.377885 -0.353466 -0.641 84 108 154
0.38521 -0.353466 -0.641 101 132 186
0.392536 -0.353466 -0.641 179 185 199
0.400457 -0.352914 -0.64 171 177 201
0.41021 -0.352914 -0.64 155 172 218
0.424838 -0.352914 -0.64 71 86 127
0.429043 -0.352363 -0.639 163 174 202
0.418159 -0.330306 -0.599 125 92 85
0.41272 -0.32424 -0.588 126 91 87
0.405007 -0.30494 -0.553 136 89 81
0.409529 -0.300529 -0.545 145 95 84
0.411943 -0.297771 -0.54 147 95 81
0.415541 -0.296669 -0.538 148 99 84
0.416814 -0.296117 -0.537 150 98 84
0.426471 -0.295014 -0.535 147 96 77
0.436249 -0.296117 -0.537 137 88 73
0.444033 -0.29722 -0.539 139 90 76
0.44506 -0.29722 -0.539 141 92 78
0.446087 -0.29722 -0.539 141 92 78
0.467294 -0.301631 -0.547 129 86 70
1.12581 -0.33968 -0.616 203 205 191
0.0912857 -0.249 -0.45 202 162 150
0.0925867 -0.247893 -0.448 202 162 150
0.11231 -0.246233 -0.445 171 130 110
0.122727 -0.248447 -0.449 143 99 88
0.130147 -0.251213 -0.454 137 94 85
0.323861 -0.353027 -0.638 111 142 189
0.325076 -0.353027 -0.638 139 166 209
0.329937 -0.353027 -0.638 208 213 232
0.334106 -0.35358 -0.639 199 205 227
0.338974 -0.35358 -0.639 146 156 183
0.365105 -0.354133 -0.64 182 187 217
0.373638 -0.354133 -0.64 185 187 210
0.415086 -0.354133 -0.64 151 162 190
0.418743 -0.354133 -0.64 148 158 185
0.429043 -0.35358 -0.639 143 159 192
0.426069 -0.33864 -0.612 121 92 88
0.422348 -0.334767 -0.605 124 95 91
0.405739 -0.306547 -0.554 133 90 83
0.40924 -0.30212 -0.546 142 95 85
0.41426 -0.298247 -0.539 147 98 83
0.44116 -0.297693 -0.538 137 90 74
0.442185 -0.297693 -0.538 139 90 75
0.0883533 -0.253744 -0.457 204 162 150
0.0888333 -0.252633 -0.455 205 163 151
0.0947219 -0.247636 -0.446 202 163 148
0.109767 -0.247081 -0.445 179 138 118
0.11681 -0.247636 -0.446 154 111 95
0.143658 -0.259296 -0.467 106 78 74
0.159133 -0.272067 -0.49 238 241 255
0.377295 -0.355352 -0.64 113 128 167
0.393143 -0.355352 -0.64 188 191 208
0.395581 -0.355352 -0.64 185 186 206
0.399831 -0.354797 -0.639 120 126 162
0.407134 -0.354797 -0.639 166 173 199
0.416871 -0.354797 -0.639 169 175 201
0.418089 -0.354797 -0.639 173 179 205
0.418063 -0.329811 -0.594 124 87 81
0.409453 -0.318707 -0.574 125 86 81
0.406617 -0.313154 -0.564 130 90 82
0.407271 -0.310378 -0.559 131 88 81
0.410567 -0.302605 -0.545 141 95 80
0.434415 -0.297608 -0.536 135 88 72
0.464731 -0.30205 -0.544 144 98 82
0.088181 -0.261857 -0.47 205 163 149
0.0880571 -0.256286 -0.46 206 162 149
0.0938724 -0.248486 -0.446 202 163 148
0.0947219 -0.248486 -0.446 201 162 145
0.102986 -0.247929 -0.445 190 150 138
0.103833 -0.247929 -0.445 190 150 138
0.108919 -0.247929 -0.445 177 136 116
0.11231 -0.247929 -0.445 165 124 104
0.114852 -0.247929 -0.445 157 116 98
0.157877 -0.272443 -0.489 243 237 247
0.1617 -0.275786 -0.495 249 251 255
0.329937 -0.355457 -0.638 211 216 236
0.332368 -0.355457 -0.638 207 213 237
0.334798 -0.355457 -0.638 204 212 233
0.350596 -0.355457 -0.638 151 165 200
0.427156 -0.355457 -0.638 62 78 114
0.411917 -0.322586 -0.579 124 85 80
0.408997 -0.310329 -0.557 129 86 79
0.411886 -0.303086 -0.544 147 99 85
0.412207 -0.3003 -0.539 145 96 81
0.421143 -0.298629 -0.536 152 103 88
0.44034 -0.299186 -0.537 139 92 74
0.46852 -0.3042 -0.546 150 103 87
1.12347 -0.3432 -0.616 202 204 190
1.12464 -0.3432 -0.616 202 204 190
0.0891086 -0.25269 -0.452 198 162 150
0.111462 -0.248776 -0.445 163 122 102
0.11231 -0.248776 -0.445 160 119 99
0.121871 -0.251012 -0.449 142 97 91
0.131589 -0.254926 -0.456 130 89 87
0.135077 -0.256603 -0.459 119 83 83
0.39313 -0.356672 -0.638 166 170 197
0.412573 -0.356672 -0.638 159 165 189
0.41865 -0.356672 -0.638 176 178 201
0.425273 -0.356113 -0.637 133 138 170
0.428864 -0.341578 -0.611 117 90 95
0.413074 -0.322011 -0.576 122 84 81
0.411015 -0.309712 -0.554 126 83 74
0.412073 -0.305799 -0.547 135 89 76
0.41236 -0.30524 -0.546 140 92 78
0.412706 -0.302445 -0.541 145 96 81
0.412971 -0.301886 -0.54 144 95 80
0.447309 -0.300768 -0.538 145 92 76
0.458229 -0.301886 -0.54 142 93 78
0.0864924 -0.258599 -0.461 199 162 153
0.114005 -0.249624 -0.445 156 114 100
0.120747 -0.251307 -0.448 144 100 91
0.13772 -0.25916 -0.462 116 81 85
0.150999 -0.268696 -0.479 180 166 179
0.305886 -0.356766 -0.636 222 227 249
0.325269 -0.356766 -0.636 204 218 253
0.339806 -0.356766 -0.636 200 206 240
0.344651 -0.356766 -0.636 191 207 233
0.352473 -0.357327 -0.637 194 203 232
0.361533 -0.357888 -0.638 188 199 227
0.401636 -0.357888 -0.638 180 184 209
0.42042 -0.357327 -0.637 178 178 202
0.425273 -0.357327 -0.637 171 175 204
0.433086 -0.356766 -0.636 135 146 176
0.425279 -0.337132 -0.601 112 81 78
0.411665 -0.318621 -0.568 121 84 78
0.41144 -0.31189 -0.556 124 84 76
0.411938 -0.309085 -0.551 128 85 76
0.423414 -0.30011 -0.535 149 100 85
0.428726 -0.299549 -0.534 142 90 76
0.436662 -0.30011 -0.535 140 88 74
0.447309 -0.301792 -0.538 144 92 78
0.452432 -0.301792 -0.538 148 96 82
0.45738 -0.302353 -0.539 145 96 81
1.12164 -0.344986 -0.615 202 205 188
1.12281 -0.344986 -0.615 202 205 188
0.08758 -0.254974 -0.453 201 163 152
0.0913238 -0.251034 -0.446 200 160 150
0.102986 -0.250471 -0.445 186 145 127
0.106376 -0.250471 -0.445 178 137 119
0.107224 -0.250471 -0.445 176 135 117
0.11231 -0.250471 -0.445 156 114 100
0.11596 -0.251034 -0.446 147 105 93
0.117659 -0.251034 -0.446 147 103 92
0.121871 -0.252723 -0.449 139 96 89
0.155376 -0.274111 -0.487 222 219 230
0.319919 -0.357414 -0.635 142 166 210
0.328903 -0.357977 -0.636 210 214 241
0.340481 -0.357414 -0.635 194 204 231
0.357977 -0.357977 -0.636 189 201 225
0.360967 -0.35854 -0.637 189 198 229
0.3731 -0.35854 -0.637 191 195 230
0.388873 -0.35854 -0.637 182 187 209
0.393727 -0.35854 -0.637 93 101 137
0.399793 -0.35854 -0.637 175 182 210
0.419207 -0.35854 -0.637 177 184 203
0.420246 -0.329834 -0.586 117 83 74
0.414 -0.303943 -0.54 136 90 75
0.422164 -0.301691 -0.536 152 103 86
0.453457 -0.302817 -0.538 148 97 78
0.46046 -0.30338 -0.539 151 103 83
0.0953571 -0.251319 -0.445 197 157 145
0.0979 -0.251319 -0.445 197 155 143
0.100217 -0.250754 -0.444 191 149 137
0.119893 -0.253013 -0.448 142 98 89
0.148551 -0.269391 -0.477 130 112 108
0.155695 -0.275604 -0.488 229 227 240
0.322338 -0.358624 -0.635 158 178 215
0.327176 -0.358624 -0.635 211 215 240
0.340481 -0.358624 -0.635 201 212 234
0.352576 -0.358624 -0.635 196 204 225
0.353786 -0.358624 -0.635 195 206 226
0.359189 -0.359189 -0.636 189 201 225
0.400377 -0.359189 -0.636 182 189 208
0.416126 -0.359189 -0.636 179 184 206
0.426357 -0.358624 -0.635 170 175 195
0.428776 -0.358624 -0.635 123 130 159
0.424549 -0.334339 -0.592 118 81 75
0.414137 -0.318526 -0.564 126 82 81
0.423414 -0.302148 -0.535 153 102 85
0.424433 -0.302148 -0.535 153 102 85
0.43076 -0.301583 -0.534 141 90 73
0.467152 -0.306101 -0.542 153 115 96
0.0847676 -0.264067 -0.466 196 158 149
0.0928143 -0.252167 -0.445 199 160 145
0.104681 -0.252167 -0.445 178 137 119
0.114261 -0.252733 -0.446 150 108 96
0.131877 -0.258967 -0.457 119 84 82
0.135371 -0.260667 -0.46 109 79 79
0.154449 -0.275967 -0.487 216 214 225
0.31217 -0.359267 -0.634 148 160 198
0.317 -0.359267 -0.634 145 162 206
0.326661 -0.359267 -0.634 209 214 236
0.330805 -0.359833 -0.635 164 173 202
0.356205 -0.359833 -0.635 197 208 230
0.379167 -0.360967 -0.637 96 122 173
0.397954 -0.3604 -0.636 180 186 202
0.404011 -0.3604 -0.636 182 186 211
0.434139 -0.359267 -0.634 68 94 145
0.415467 -0.317333 -0.56 124 85 78
0.415087 -0.312233 -0.551 130 87 78
0.431984 -0.302033 -0.533 143 92 73
0.447688 -0.303733 -0.536 147 94 76
0.0913238 -0.253583 -0.446 198 161 145
0.0968343 -0.252446 -0.444 194 154 142
0.10129 -0.253014 -0.445 184 145 128
0.11511 -0.253583 -0.446 148 104 95
0.124408 -0.256994 -0.452 135 94 88
0.1398 -0.264954 -0.466 107 78 80
0.327869 -0.360474 -0.634 199 205 227
0.344775 -0.360474 -0.634 203 208 227
0.378571 -0.361611 -0.636 79 108 166
0.388263 -0.361611 -0.636 139 159 209
0.407646 -0.361611 -0.636 177 183 207
0.411843 -0.361043 -0.635 159 163 188
0.41789 -0.361043 -0.635 181 183 206
0.417809 -0.323517 -0.569 123 83 81
0.41759 -0.305891 -0.538 140 93 77
0.0896248 -0.254432 -0.446 199 161 148
0.0942971 -0.253291 -0.444 196 159 143
0.117071 -0.255003 -0.447 145 101 92
0.134788 -0.26299 -0.461 116 82 80
0.137136 -0.26413 -0.463 106 78 75
0.30806 -0.361111 -0.633 208 217 250
0.321323 -0.361111 -0.633 187 205 245
0.346643 -0.361111 -0.633 200 206 228
0.354436 -0.361682 -0.634 197 204 223
0.36709 -0.362252 -0.635 151 162 192
0.401533 -0.361682 -0.634 184 185 205
0.420855 -0.361682 -0.634 174 176 197
0.428631 -0.361111 -0.633 159 161 184
0.435177 -0.360541 -0.632 32 67 133
0.44991 -0.305205 -0.535 153 102 83
0.461655 -0.306916 -0.538 164 116 94
0.476671 -0.31205 -0.547 165 119 96
0.0829924 -0.26673 -0.466 200 162 153
0.0843143 -0.259861 -0.454 201 161 149
0.0928143 -0.25471 -0.445 197 159 146
0.09746 -0.253565 -0.443 190 151 134
0.101063 -0.254137 -0.444 184 142 128
0.102986 -0.25471 -0.445 179 136 120
0.105529 -0.25471 -0.445 172 128 115
0.112562 -0.255282 -0.446 151 107 96
0.1404 -0.267874 -0.468 105 76 78
0.151967 -0.277605 -0.485 203 194 211
0.323734 -0.362317 -0.633 207 217 253
0.339409 -0.362317 -0.633 205 209 221
0.343026 -0.362317 -0.633 204 209 229
0.345437 -0.362317 -0.633 203 208 230
0.373138 -0.363462 -0.635 97 114 166
0.377381 -0.36289 -0.634 42 75 144
0.378589 -0.36289 -0.634 41 77 151
0.41778 -0.362317 -0.633 173 175 196
0.421101 -0.327402 -0.572 120 83 75
0.418984 -0.319961 -0.559 122 81 75
0.419297 -0.319389 -0.558 123 83 71
0.41863 -0.31023 -0.542 140 93 77
0.418889 -0.309658 -0.541 141 94 78
0.448051 -0.305651 -0.534 152 101 80
0.460797 -0.307369 -0.537 164 113 92
0.0828 -0.264171 -0.46 202 162 154
0.0959886 -0.254983 -0.444 192 150 138
0.123547 -0.259577 -0.452 132 94 85
0.126688 -0.260726 -0.454 127 89 86
0.132454 -0.263597 -0.459 116 82 80
0.136254 -0.265894 -0.463 107 83 79
0.148881 -0.276231 -0.481 158 147 153
0.299875 -0.362374 -0.631 184 189 219
0.319611 -0.362949 -0.632 156 177 232
0.365305 -0.364097 -0.634 197 204 222
0.37255 -0.364097 -0.634 69 91 151
0.377991 -0.363523 -0.633 34 68 140
0.385834 -0.364097 -0.634 43 79 155
0.4009 -0.363523 -0.633 139 142 151
0.402106 -0.363523 -0.633 175 178 187
0.406929 -0.363523 -0.633 133 145 167
0.42247 -0.362374 -0.631 123 120 127
0.432085 -0.362374 -0.631 47 73 132
0.43569 -0.362374 -0.631 82 112 174
0.42952 -0.33768 -0.588 117 84 79
0.420049 -0.321026 -0.559 122 82 72
0.419457 -0.318154 -0.554 123 81 69
0.422164 -0.307817 -0.536 155 104 87
0.43909 -0.306094 -0.533 152 100 79
0.445 -0.306669 -0.534 153 101 80
0.448051 -0.306669 -0.534 152 101 80
0.0827667 -0.262167 -0.455 201 163 154
0.0839429 -0.260438 -0.452 202 162 154
0.08576 -0.258133 -0.448 200 160 152
0.091119 -0.256405 -0.445 198 160 149
0.0966162 -0.255252 -0.443 190 151 136
0.111712 -0.256981 -0.446 151 109 95
0.128983 -0.262743 -0.456 120 89 86
0.304683 -0.363576 -0.631 182 191 220
0.30949 -0.363576 -0.631 146 160 207
0.311894 -0.363576 -0.631 103 123 176
0.333529 -0.363576 -0.631 207 213 239
0.336465 -0.364152 -0.632 211 216 236
0.353318 -0.364152 -0.632 178 183 203
0.354522 -0.364152 -0.632 201 206 226
0.374374 -0.364729 -0.633 49 80 162
0.39246 -0.364729 -0.633 174 189 220
0.414712 -0.364152 -0.632 168 168 196
0.418324 -0.364152 -0.632 182 180 201
0.434489 -0.363576 -0.631 78 105 158
0.4422 -0.363 -0.63 43 78 142
0.428089 -0.335919 -0.583 123 84 77
0.420668 -0.320938 -0.557 121 81 71
0.42042 -0.310567 -0.539 150 101 84
0.424657 -0.307686 -0.534 160 107 89
0.425892 -0.30711 -0.533 166 110 93
0.430363 -0.305957 -0.531 149 97 76
0.449069 -0.307686 -0.534 154 101 83
0.465754 -0.30999 -0.538 170 123 105
0.0812238 -0.266502 -0.461 199 160 153
0.0887752 -0.25783 -0.446 198 158 150
0.0896248 -0.25783 -0.446 197 159 150
0.106376 -0.257252 -0.445 166 124 112
0.107224 -0.257252 -0.445 162 120 108
0.11648 -0.258987 -0.448 139 99 87
0.329923 -0.364778 -0.631 214 210 233
0.335932 -0.364778 -0.631 209 211 232
0.339538 -0.364778 -0.631 155 161 175
0.355163 -0.364778 -0.631 197 204 222
0.357567 -0.364778 -0.631 198 207 224
0.364152 -0.365356 -0.632 176 183 199
0.370171 -0.365356 -0.632 44 75 140
0.383413 -0.365356 -0.632 64 99 163
0.388229 -0.365356 -0.632 53 80 135
0.395451 -0.365356 -0.632 191 189 213
0.396655 -0.365356 -0.632 189 187 211
0.399063 -0.365356 -0.632 187 188 206
0.42624 -0.332983 -0.576 121 83 82
0.422303 -0.32489 -0.562 122 84 75
0.423185 -0.309859 -0.536 162 106 91
0.0813895 -0.26506 -0.457 200 161 154
0.102754 -0.25752 -0.444 175 131 120
0.110013 -0.25868 -0.446 154 112 100
0.110863 -0.25868 -0.446 151 109 97
0.125823 -0.26332 -0.454 126 89 80
0.129266 -0.26506 -0.457 117 87 85
0.1413 -0.27318 -0.471 102 78 76
0.142801 -0.27434 -0.473 100 82 82
0.371375 -0.36656 -0.632 70 100 160
0.37619 -0.36656 -0.632 72 99 168
0.379802 -0.36656 -0.632 59 94 162
0.405643 -0.36598 -0.631 185 189 214
0.412854 -0.36598 -0.631 187 188 208
0.435 -0.3654 -0.63 133 149 183
0.4209 -0.31842 -0.549 130 89 69
0.423185 -0.31088 -0.536 162 106 91
0.42364 -0.30972 -0.534 159 106 90
0.424657 -0.30972 -0.534 160 109 92
0.427329 -0.30798 -0.531 158 107 88
0.082221 -0.263021 -0.452 197 158 151
0.11392 -0.260693 -0.448 144 104 92
0.117595 -0.261275 -0.449 140 100 88
0.121825 -0.263021 -0.452 135 95 83
0.147049 -0.279896 -0.481 131 120 134
0.302519 -0.366018 -0.629 158 162 191
0.326481 -0.366018 -0.629 195 204 243
0.3366 -0.3666 -0.63 207 214 232
0.3378 -0.3666 -0.63 204 211 229
0.351 -0.3666 -0.63 193 198 218
0.361172 -0.367182 -0.631 197 202 222
0.373191 -0.367182 -0.631 107 132 186
0.375595 -0.367182 -0.631 85 114 174
0.380403 -0.367182 -0.631 113 147 211
0.38521 -0.367182 -0.631 165 186 231
0.4122 -0.3666 -0.63 183 182 200
0.417536 -0.366018 -0.629 165 168 187
0.431913 -0.366018 -0.629 159 170 200
0.4374 -0.3666 -0.63 83 105 152
0.439103 -0.347979 -0.598 113 83 81
0.42279 -0.324121 -0.557 118 84 75
0.421667 -0.320048 -0.55 127 89 70
0.431374 -0.308991 -0.531 155 102 84
0.440293 -0.309573 -0.532 155 102 84
0.450258 -0.310155 -0.533 155 103 82
0.459081 -0.311319 -0.535 168 117 98
0.08136 -0.263882 -0.452 197 158 151
0.0926057 -0.259211 -0.444 191 151 143
0.0966162 -0.258628 -0.443 186 144 132
0.101909 -0.259211 -0.444 167 125 111
0.103833 -0.259795 -0.445 165 123 111
0.111963 -0.260963 -0.447 150 108 96
0.129266 -0.266801 -0.457 115 87 84
0.130421 -0.267385 -0.458 113 85 82
0.138913 -0.273807 -0.469 105 76 80
0.305627 -0.366632 -0.628 115 131 180
0.321177 -0.366632 -0.628 100 123 177
0.33367 -0.367216 -0.629 210 217 235
0.350443 -0.367216 -0.629 204 206 227
0.357 -0.3678 -0.63 203 205 228
0.370788 -0.368384 -0.631 173 192 234
0.381605 -0.368384 -0.631 150 174 222
0.417536 -0.367216 -0.629 183 188 208
0.422853 -0.366632 -0.628 105 110 140
0.440796 -0.366632 -0.628 96 120 168
0.431047 -0.339193 -0.581 120 85 81
0.423243 -0.32635 -0.559 122 85 77
0.423024 -0.318176 -0.545 142 95 79
0.422506 -0.317009 -0.543 146 99 83
0.42276 -0.316425 -0.542 151 100 83
0.426908 -0.31117 -0.533 160 109 90
0.436431 -0.310003 -0.531 154 98 81
0.440477 -0.310003 -0.531 155 100 79
0.455171 -0.311754 -0.534 164 113 94
0.4601 -0.312338 -0.535 168 117 98
0.478202 -0.317592 -0.544 160 111 94
0.0909143 -0.260057 -0.444 193 152 146
0.0926057 -0.260057 -0.444 191 151 143
0.103833 -0.260643 -0.445 164 122 110
0.105529 -0.260643 -0.445 161 117 106
0.347493 -0.367829 -0.628 203 208 227
0.3594 -0.369 -0.63 202 203 224
0.392376 -0.368414 -0.629 94 111 154
0.410348 -0.368414 -0.629 186 188 203
0.411546 -0.368414 -0.629 187 189 204
0.41514 -0.368414 -0.629 179 182 201
0.418069 -0.367829 -0.628 187 186 200
0.439905 -0.349086 -0.596 123 88 84
0.422913 -0.3239 -0.553 123 84 79
0.471753 -0.3157 -0.539 164 112 90
0.0855686 -0.262666 -0.447 197 156 150
0.09176 -0.260903 -0.444 192 151 145
0.0926057 -0.260903 -0.444 190 149 143
0.0940848 -0.260315 -0.443 187 144 135
0.125233 -0.267367 -0.455 119 88 85
0.135071 -0.273243 -0.465 99 76 82
0.146132 -0.282645 -0.481 117 106 122
0.334335 -0.369025 -0.628 216 219 234
0.337386 -0.368437 -0.627 208 213 233
0.33858 -0.368437 -0.627 208 213 233
0.348134 -0.368437 -0.627 208 211 228
0.353474 -0.369025 -0.628 204 209 229
0.377999 -0.369612 -0.629 107 133 182
0.418069 -0.369025 -0.628 190 187 204
0.42218 -0.368437 -0.627 77 79 102
0.429346 -0.368437 -0.627 180 183 200
0.438404 -0.369025 -0.628 110 132 181
0.443595 -0.353159 -0.601 121 90 88
0.445534 -0.312026 -0.531 158 103 83
0.458223 -0.313789 -0.534 164 111 93
0.465044 -0.314964 -0.536 163 112 93
0.0778333 -0.275308 -0.467 198 158 146
0.07788 -0.27236 -0.462 198 158 146
0.0949286 -0.261159 -0.443 185 142 135
0.117595 -0.264696 -0.449 139 99 89
0.279613 -0.369042 -0.626 174 176 191
0.291537 -0.369042 -0.626 229 232 251
0.298691 -0.369042 -0.626 148 152 181
0.340425 -0.369042 -0.626 200 200 210
0.346387 -0.369042 -0.626 205 208 225
0.350523 -0.369631 -0.627 203 210 229
0.352911 -0.369631 -0.627 202 208 230
0.358259 -0.370221 -0.628 199 201 224
0.37381 -0.370221 -0.628 136 151 194
0.376202 -0.370221 -0.628 134 156 205
0.403714 -0.370221 -0.628 186 184 206
0.415676 -0.370221 -0.628 178 177 195
0.420986 -0.369631 -0.627 102 112 137
0.432929 -0.369631 -0.627 111 123 149
0.437706 -0.369631 -0.627 108 134 183
0.432386 -0.313037 -0.531 158 103 83
0.449413 -0.313627 -0.532 158 103 83
0.463157 -0.315395 -0.535 164 111 93
0.474686 -0.318343 -0.54 158 103 83
0.0907095 -0.262003 -0.443 191 148 142
0.0940848 -0.262003 -0.443 185 142 135
0.105529 -0.263186 -0.445 161 115 102
0.113067 -0.26496 -0.448 145 105 97
0.124093 -0.268509 -0.454 124 92 81
0.128957 -0.271466 -0.459 112 84 83
0.134186 -0.275014 -0.465 100 77 83
0.271267 -0.370234 -0.626 233 235 255
0.296307 -0.370234 -0.626 201 205 230
0.297499 -0.370234 -0.626 156 160 189
0.311808 -0.370234 -0.626 127 157 209
0.314192 -0.370234 -0.626 126 153 196
0.316577 -0.370234 -0.626 192 212 247
0.322539 -0.370234 -0.626 209 214 243
0.375006 -0.371417 -0.628 147 170 214
0.377398 -0.371417 -0.628 139 165 202
0.401877 -0.370826 -0.627 185 185 209
0.404266 -0.370826 -0.627 162 168 200
0.411431 -0.370826 -0.627 188 187 205
0.417403 -0.370826 -0.627 180 179 197
0.425084 -0.370234 -0.626 161 163 176
0.428661 -0.370234 -0.626 186 189 204
0.428314 -0.337114 -0.57 125 90 88
0.42714 -0.33534 -0.567 127 92 90
0.42484 -0.32292 -0.546 132 87 81
0.429147 -0.31464 -0.532 158 102 85
0.437629 -0.313457 -0.53 153 98 78
0.444523 -0.314049 -0.531 158 101 81
0.461274 -0.315823 -0.534 167 112 92
0.07612 -0.27412 -0.462 197 156 152
0.0801429 -0.267 -0.45 197 156 150
0.0923971 -0.262847 -0.443 188 145 139
0.108314 -0.264627 -0.446 153 109 98
0.112213 -0.265813 -0.448 148 105 96
0.11392 -0.265813 -0.448 144 104 96
0.124093 -0.269373 -0.454 124 92 81
0.281548 -0.370833 -0.625 227 229 244
0.283929 -0.370833 -0.625 235 237 252
0.301786 -0.370833 -0.625 221 225 250
0.306548 -0.370833 -0.625 202 212 247
0.358883 -0.37202 -0.627 125 130 149
0.367243 -0.37202 -0.627 205 209 220
0.369631 -0.37202 -0.627 170 181 201
0.373214 -0.37202 -0.627 135 153 193
0.38038 -0.37202 -0.627 122 148 185
0.386928 -0.371427 -0.626 198 194 219
0.394711 -0.37202 -0.627 114 120 146
0.398851 -0.371427 -0.626 164 170 192
0.409583 -0.371427 -0.626 159 177 217
0.419122 -0.371427 -0.626 94 97 140
0.451786 -0.370833 -0.625 167 163 180
0.427893 -0.337013 -0.568 131 91 89
0.4346 -0.314467 -0.53 151 96 76
0.43561 -0.314467 -0.53 152 97 77
0.43781 -0.313873 -0.529 154 97 78
0.441667 -0.314467 -0.53 156 101 80
0.447557 -0.31506 -0.531 157 102 82
0.0877286 -0.264881 -0.445 193 150 144
0.093241 -0.26369 -0.443 185 142 135
0.106376 -0.264881 -0.445 158 114 103
0.118978 -0.268452 -0.451 134 98 86
0.135943 -0.278571 -0.468 98 77 82
0.298926 -0.371429 -0.624 174 177 208
0.306057 -0.371429 -0.624 190 199 232
0.313189 -0.371429 -0.624 153 171 211
0.319131 -0.371429 -0.624 189 202 234
0.321509 -0.371429 -0.624 214 217 234
0.327976 -0.372024 -0.625 123 130 159
0.331548 -0.372024 -0.625 206 214 237
0.347657 -0.371429 -0.624 212 215 230
0.349405 -0.372024 -0.625 210 213 228
0.35831 -0.372619 -0.626 139 145 171
0.359503 -0.372619 -0.626 164 173 202
0.369042 -0.372619 -0.626 177 188 210
0.3875 -0.372024 -0.625 194 192 216
0.397659 -0.372619 -0.626 116 129 164
0.405357 -0.372024 -0.625 61 88 141
0.414881 -0.372024 -0.625 67 86 128
0.43343 -0.372619 -0.626 82 112 164
0.449405 -0.372024 -0.625 174 173 187
0.452251 -0.371429 -0.624 185 179 193
0.448852 -0.360119 -0.605 116 99 107
0.433974 -0.344643 -0.579 126 92 83
0.423967 -0.329167 -0.553 130 88 76
0.427269 -0.319048 -0.536 142 94 80
0.436619 -0.315476 -0.53 152 97 77
0.44958 -0.316071 -0.531 159 103 86
0.45635 -0.317262 -0.533 163 108 88
0.07524 -0.27588 -0.462 196 155 151
0.0799648 -0.268117 -0.449 199 156 150
0.0838657 -0.266923 -0.447 197 154 148
0.0892229 -0.265131 -0.444 188 148 140
0.093241 -0.264534 -0.443 182 142 134
0.104681 -0.265729 -0.445 159 115 106
0.109409 -0.266923 -0.447 151 108 99
0.11136 -0.26752 -0.448 147 107 99
0.116143 -0.268714 -0.45 138 100 91
0.125509 -0.272297 -0.456 117 88 84
0.140987 -0.28424 -0.476 98 79 83
0.332738 -0.373214 -0.625 211 217 243
0.344091 -0.372617 -0.624 127 145 193
0.348846 -0.372617 -0.624 203 205 220
0.351786 -0.373214 -0.625 204 206 229
0.356548 -0.373214 -0.625 143 152 185
0.379167 -0.373214 -0.625 100 129 169
0.385691 -0.372617 -0.624 198 194 217
0.397024 -0.373214 -0.625 83 97 146
0.407738 -0.373214 -0.625 106 126 176
0.431548 -0.373214 -0.625 132 137 156
0.451063 -0.372617 -0.624 173 170 181
0.426271 -0.336191 -0.563 129 88 82
0.424251 -0.329623 -0.552 131 88 79
0.426643 -0.324249 -0.543 134 88 75
0.427371 -0.322457 -0.54 135 87 73
0.444695 -0.316486 -0.53 158 103 83
0.445705 -0.316486 -0.53 158 103 83
0.45448 -0.31768 -0.532 163 108 88
0.0791095 -0.268972 -0.449 198 157 153
0.0830143 -0.267774 -0.447 195 154 148
0.0915533 -0.265378 -0.443 183 143 135
0.0940848 -0.265378 -0.443 179 136 127
0.09746 -0.265378 -0.443 170 127 118
0.118978 -0.27017 -0.451 128 95 88
0.14733 -0.292335 -0.488 144 139 162
0.274713 -0.373207 -0.623 219 224 244
0.30794 -0.373207 -0.623 173 187 226
0.348846 -0.373806 -0.624 197 200 219
0.36192 -0.373806 -0.624 203 205 226
0.388069 -0.373806 -0.624 198 199 203
0.404709 -0.373806 -0.624 48 72 134
0.408274 -0.373806 -0.624 147 168 221
0.414881 -0.374405 -0.625 48 69 122
0.427132 -0.324085 -0.541 135 87 73
0.438818 -0.316896 -0.529 157 102 82
0.444695 -0.317495 -0.53 158 103 82
0.44958 -0.318094 -0.531 161 106 86
0.45448 -0.318693 -0.532 165 110 89
0.470149 -0.32109 -0.536 158 107 88
0.474977 -0.322288 -0.538 152 103 86
0.0892229 -0.266823 -0.444 187 147 139
0.0907095 -0.266222 -0.443 184 144 134
0.093241 -0.266222 -0.443 180 140 130
0.140374 -0.286654 -0.477 96 80 81
0.266407 -0.374393 -0.623 230 236 255
0.271153 -0.374393 -0.623 230 235 255
0.363109 -0.374994 -0.624 204 207 224
0.376183 -0.374994 -0.624 119 151 200
0.382126 -0.374994 -0.624 196 199 214
0.383887 -0.374393 -0.623 195 198 213
0.38626 -0.374393 -0.623 198 195 212
0.42542 -0.374393 -0.623 183 186 205
0.425618 -0.328721 -0.547 134 90 79
0.427607 -0.323913 -0.539 138 89 74
0.438818 -0.317904 -0.529 156 101 80
0.451603 -0.319106 -0.531 165 113 91
0.458533 -0.319707 -0.532 161 109 88
0.46636 -0.320909 -0.534 160 109 90
0.47117 -0.32211 -0.536 155 107 87
0.0742629 -0.274903 -0.456 198 155 149
0.081979 -0.268874 -0.446 199 156 150
0.0898657 -0.267066 -0.443 182 142 134
0.0907095 -0.267066 -0.443 181 143 132
0.102754 -0.267669 -0.444 161 117 106
0.106376 -0.268271 -0.445 153 110 103
0.11136 -0.27008 -0.448 144 103 97
0.115286 -0.271286 -0.45 137 98 93
0.273088 -0.374977 -0.622 204 205 226
0.348912 -0.374977 -0.622 133 148 187
0.373207 -0.37558 -0.623 134 162 209
0.374393 -0.37558 -0.623 132 163 210
0.412367 -0.37558 -0.623 136 153 179
0.451527 -0.37558 -0.623 180 175 198
0.436933 -0.349657 -0.58 132 94 81
0.429529 -0.322529 -0.535 153 98 78
0.433397 -0.320117 -0.531 157 102 82
0.4636 -0.32072 -0.532 161 109 88
0.465487 -0.321323 -0.533 160 109 90
0.468394 -0.321926 -0.534 158 110 90
0.474094 -0.323734 -0.537 150 102 82
0.4788 -0.325543 -0.54 150 103 85
0.08046 -0.270329 -0.447 198 155 149
0.0834905 -0.269119 -0.445 195 152 145
0.0849943 -0.268514 -0.444 192 149 143
0.107465 -0.269724 -0.446 151 108 101
0.11136 -0.270933 -0.448 141 102 95
0.114429 -0.272143 -0.45 137 98 93
0.275014 -0.375557 -0.621 204 205 235
0.323511 -0.375557 -0.621 215 221 243
0.331141 -0.376162 -0.622 157 161 190
0.340071 -0.375557 -0.621 124 130 164
0.354836 -0.376162 -0.622 176 196 229
0.390379 -0.376162 -0.622 198 203 223
0.391564 -0.376162 -0.622 184 191 219
0.398672 -0.376162 -0.622 168 179 209
0.399857 -0.376162 -0.622 182 193 223
0.406966 -0.376162 -0.622 147 168 211
0.422368 -0.376162 -0.622 184 190 212
0.441324 -0.376162 -0.622 94 116 166
0.442509 -0.376162 -0.622 115 134 176
0.443693 -0.376162 -0.622 142 161 203
0.448432 -0.376162 -0.622 179 180 198
0.425674 -0.337457 -0.558 138 98 88
0.425618 -0.330805 -0.547 139 93 80
0.452614 -0.321129 -0.531 168 113 93
0.4636 -0.321733 -0.532 162 110 88
0.0765438 -0.272393 -0.449 199 158 154
0.0843381 -0.269967 -0.445 192 151 145
0.101909 -0.26936 -0.444 166 122 113
0.120634 -0.275427 -0.454 126 91 87
0.127763 -0.279673 -0.461 105 81 79
0.139466 -0.28938 -0.477 99 78 83
0.347169 -0.37674 -0.621 164 175 203
0.369053 -0.377347 -0.622 112 131 164
0.371423 -0.377347 -0.622 112 137 177
0.380901 -0.377347 -0.622 204 206 221
0.41814 -0.37674 -0.621 86 101 122
0.448432 -0.377347 -0.622 131 133 154
0.451987 -0.377347 -0.622 142 143 161
0.438038 -0.351867 -0.58 139 94 88
0.42692 -0.33124 -0.546 144 96 84
0.434409 -0.32214 -0.531 157 102 82
0.447887 -0.320927 -0.529 160 108 84
0.4558 -0.321533 -0.53 169 115 91
0.0765438 -0.273249 -0.449 201 157 154
0.0787571 -0.272031 -0.447 198 154 151
0.0907095 -0.269597 -0.443 178 135 126
0.102754 -0.270206 -0.444 163 120 111
0.105529 -0.270814 -0.445 157 113 104
0.107465 -0.271423 -0.446 153 110 101
0.116401 -0.274466 -0.451 133 96 90
0.120634 -0.276291 -0.454 125 90 88
0.138267 -0.28968 -0.476 97 76 81
0.143949 -0.295766 -0.486 101 93 106
0.268667 -0.377314 -0.62 178 184 216
0.335981 -0.377314 -0.62 194 203 234
0.348351 -0.377923 -0.621 188 191 210
0.377923 -0.377923 -0.621 149 165 190
0.389751 -0.377923 -0.621 139 144 173
0.390934 -0.377923 -0.621 116 119 152
0.393848 -0.377314 -0.62 192 199 218
0.406311 -0.377923 -0.621 175 179 214
0.412226 -0.377923 -0.621 182 187 207
0.413409 -0.377923 -0.621 182 187 207
0.416286 -0.377314 -0.62 179 185 201
0.441797 -0.377923 -0.621 135 149 188
0.446529 -0.377923 -0.621 116 118 133
0.432187 -0.32376 -0.532 161 108 90
0.436803 -0.321934 -0.529 161 106 86
0.450752 -0.322543 -0.53 167 112 91
0.460706 -0.323151 -0.531 166 114 90
0.468532 -0.324369 -0.533 153 105 83
0.471446 -0.324977 -0.534 154 106 84
