ply
format ascii 1.0
comment Created by Open3D
element vertex 1272
property double x
property double y
property double z
property uchar red
property uchar green
property uchar blue
end_header
0.154262 -0.413422 -0.589 223 226 241
0.189517 -0.412018 -0.587 190 203 235
0.1932 -0.41272 -0.588 126 149 191
0.22792 -0.41272 -0.588 153 174 205
0.26443 -0.412018 -0.587 185 196 216
0.271138 -0.412018 -0.587 211 215 242
0.272256 -0.412018 -0.587 205 210 230
0.273374 -0.412018 -0.587 220 225 245
0.285673 -0.412018 -0.587 227 233 249
0.301327 -0.412018 -0.587 140 163 204
0.356205 -0.413422 -0.589 138 158 193
0.3612 -0.41272 -0.588 107 149 199
0.36792 -0.41272 -0.588 184 189 208
0.378 -0.41272 -0.588 177 195 219
0.402203 -0.413422 -0.589 192 195 200
0.41048 -0.41272 -0.588 91 111 138
0.425763 -0.413422 -0.589 48 80 139
0.429857 -0.414124 -0.59 124 155 202
0.439971 -0.414124 -0.59 156 171 202
0.455705 -0.414124 -0.59 154 160 172
0.481552 -0.414124 -0.59 58 89 136
0.488295 -0.414124 -0.59 25 54 114
0.460723 -0.360077 -0.513 162 123 108
0.462281 -0.353058 -0.503 175 130 111
0.463274 -0.352356 -0.502 174 129 108
0.463306 -0.351654 -0.501 171 126 105
0.465214 -0.351654 -0.501 173 128 109
0.478522 -0.348145 -0.496 168 123 102
0.496741 -0.352356 -0.502 150 112 89
-0.00314 -0.331494 -0.471 194 154 119
0.0151486 -0.339236 -0.482 157 120 104
0.0189771 -0.342051 -0.486 147 115 104
0.028039 -0.351201 -0.499 139 109 101
0.08232 -0.41384 -0.588 143 153 178
0.0962486 -0.415951 -0.591 121 132 150
0.110883 -0.415951 -0.591 90 123 176
0.124391 -0.415951 -0.591 195 202 220
0.137667 -0.415248 -0.59 133 157 205
0.16632 -0.41384 -0.588 174 198 234
0.17304 -0.41384 -0.588 169 192 226
0.17416 -0.41384 -0.588 151 171 204
0.187281 -0.413136 -0.587 219 230 248
0.196226 -0.413136 -0.587 196 213 243
0.204052 -0.413136 -0.587 213 225 249
0.2212 -0.41384 -0.588 244 240 255
0.22344 -0.41384 -0.588 235 239 250
0.23576 -0.41384 -0.588 180 201 232
0.245422 -0.413136 -0.587 238 241 255
0.24654 -0.413136 -0.587 232 237 255
0.253249 -0.413136 -0.587 184 190 212
0.262863 -0.412432 -0.586 208 215 234
0.287419 -0.412432 -0.586 215 223 244
0.288535 -0.412432 -0.586 194 202 223
0.309743 -0.412432 -0.586 189 197 216
0.311975 -0.412432 -0.586 123 137 166
0.328161 -0.413136 -0.587 207 213 227
0.339342 -0.413136 -0.587 206 209 224
0.35835 -0.413136 -0.587 125 157 204
0.38248 -0.41384 -0.588 192 196 205
0.429129 -0.414544 -0.589 102 135 188
0.456054 -0.414544 -0.589 131 140 157
0.47737 -0.414544 -0.589 109 127 167
0.481552 -0.415248 -0.59 37 67 117
0.4838 -0.415248 -0.59 35 68 122
0.491667 -0.415248 -0.59 14 47 101
0.493914 -0.415248 -0.59 20 51 106
0.49841 -0.415248 -0.59 42 72 124
0.467389 -0.370204 -0.526 155 118 110
0.463274 -0.353312 -0.502 176 129 109
0.470966 -0.350497 -0.498 169 124 101
0.4785 -0.348386 -0.495 165 120 99
0.492822 -0.351201 -0.499 148 112 88
-0.0289714 -0.330274 -0.468 193 158 126
-0.00759333 -0.33098 -0.469 195 155 120
-0.00224286 -0.332391 -0.471 192 151 119
0.0427543 -0.364149 -0.516 135 110 106
0.0581143 -0.381086 -0.54 126 105 104
0.0859714 -0.416371 -0.59 165 177 189
0.0872429 -0.417077 -0.591 170 182 194
0.109757 -0.417077 -0.591 93 121 168
0.130924 -0.416371 -0.59 101 129 179
0.139677 -0.415666 -0.589 164 186 225
0.154 -0.41496 -0.588 226 226 236
0.1652 -0.41496 -0.588 170 193 227
0.207053 -0.413549 -0.586 200 205 234
0.243888 -0.413549 -0.586 233 236 253
0.250585 -0.413549 -0.586 154 161 187
0.258398 -0.413549 -0.586 228 235 254
0.267328 -0.413549 -0.586 226 231 251
0.268444 -0.413549 -0.586 227 232 252
0.286303 -0.413549 -0.586 222 229 247
0.287419 -0.413549 -0.586 217 225 246
0.290768 -0.413549 -0.586 162 179 207
0.333751 -0.414254 -0.587 209 216 226
0.388538 -0.414254 -0.587 192 197 201
0.389656 -0.414254 -0.587 176 185 194
0.408664 -0.414254 -0.587 161 173 189
0.4284 -0.41496 -0.588 72 106 167
0.46984 -0.41496 -0.588 163 170 178
0.479614 -0.415666 -0.589 41 73 124
0.493077 -0.415666 -0.589 34 65 120
0.494199 -0.415666 -0.589 40 71 126
0.50482 -0.414254 -0.587 146 144 145
0.470966 -0.351446 -0.498 170 125 102
0.477577 -0.350034 -0.496 161 116 95
0.4851 -0.349329 -0.495 164 119 96
-0.0307543 -0.331166 -0.468 194 159 127
-0.02802 -0.330458 -0.467 196 160 128
-0.0261848 -0.32975 -0.466 196 160 128
-0.0146771 -0.330458 -0.467 200 161 128
0.00135143 -0.334704 -0.473 185 141 116
0.0189381 -0.343195 -0.485 143 113 103
0.0199029 -0.343903 -0.486 142 112 102
0.03006 -0.354517 -0.501 137 107 99
0.0353181 -0.35947 -0.508 136 109 102
0.0554343 -0.377869 -0.534 127 106 105
0.0661905 -0.393436 -0.556 121 108 118
0.0972095 -0.417495 -0.59 100 118 154
0.105076 -0.417495 -0.59 117 143 180
0.122849 -0.416788 -0.589 199 205 219
0.130924 -0.417495 -0.59 119 148 192
0.215233 -0.415372 -0.587 211 217 241
0.226414 -0.415372 -0.587 186 201 232
0.228261 -0.414665 -0.586 166 186 223
0.242771 -0.414665 -0.586 232 242 254
0.265095 -0.414665 -0.586 212 217 236
0.279606 -0.414665 -0.586 134 149 178
0.295232 -0.414665 -0.586 153 184 228
0.335415 -0.414665 -0.586 207 213 225
0.337648 -0.414665 -0.586 201 208 218
0.349405 -0.415372 -0.587 147 168 199
0.353877 -0.415372 -0.587 171 187 221
0.4109 -0.415372 -0.587 136 153 183
0.417609 -0.415372 -0.587 57 93 155
0.42616 -0.41608 -0.588 24 62 124
0.45304 -0.41608 -0.588 130 143 162
0.46424 -0.41608 -0.588 112 113 115
0.46536 -0.41608 -0.588 141 142 144
0.50344 -0.41608 -0.588 114 112 123
0.479541 -0.38353 -0.542 146 113 104
0.465823 -0.369377 -0.522 153 119 109
0.461233 -0.357348 -0.505 174 127 107
0.467143 -0.35381 -0.5 177 130 110
0.476614 -0.350271 -0.495 154 108 85
0.483214 -0.350271 -0.495 165 121 96
-0.0306886 -0.331348 -0.467 195 161 126
-0.0261286 -0.329929 -0.465 197 161 129
-0.0217 -0.329929 -0.465 199 160 127
-0.0022381 -0.333476 -0.47 191 150 118
0.01702 -0.3427 -0.483 151 117 107
0.0218886 -0.346957 -0.489 138 109 101
0.0331857 -0.35831 -0.505 135 108 101
0.0438219 -0.366824 -0.517 134 109 104
0.0471381 -0.369662 -0.521 132 107 103
0.0541114 -0.376757 -0.531 128 107 104
0.06188 -0.3874 -0.546 127 107 109
0.14056 -0.4172 -0.588 180 195 224
0.232726 -0.415781 -0.586 172 193 236
0.251271 -0.415071 -0.585 163 178 207
0.2691 -0.415071 -0.585 229 236 252
0.272443 -0.415071 -0.585 227 236 253
0.275786 -0.415071 -0.585 219 231 253
0.289157 -0.415071 -0.585 200 212 238
0.295843 -0.415071 -0.585 158 192 237
0.306986 -0.415071 -0.585 189 197 216
0.31091 -0.414362 -0.584 175 195 228
0.36332 -0.415781 -0.586 85 119 180
0.38676 -0.415781 -0.586 181 185 196
0.387876 -0.415781 -0.586 167 171 182
0.402387 -0.415781 -0.586 189 191 190
0.46648 -0.4172 -0.588 152 154 153
0.46872 -0.4172 -0.588 174 179 185
0.47992 -0.4172 -0.588 36 68 117
0.477027 -0.381724 -0.538 148 114 105
0.463274 -0.356181 -0.502 174 127 109
-0.0457381 -0.401957 -0.565 194 158 124
-0.0368743 -0.340063 -0.478 193 158 126
-0.0306229 -0.331526 -0.466 195 161 124
-0.0225371 -0.330103 -0.464 199 160 127
0.0160333 -0.342197 -0.481 154 117 101
0.0228667 -0.3486 -0.49 143 111 98
0.0704905 -0.401957 -0.565 115 114 128
0.0868 -0.41832 -0.588 171 180 187
0.0924 -0.41832 -0.588 173 182 197
0.10602 -0.419031 -0.589 143 165 202
0.125092 -0.419031 -0.589 144 151 179
0.13608 -0.41832 -0.588 161 171 207
0.14703 -0.417609 -0.587 152 161 190
0.153476 -0.416897 -0.586 226 228 240
0.156825 -0.416897 -0.586 225 223 234
0.1599 -0.416186 -0.585 203 211 232
0.173271 -0.416186 -0.585 144 169 199
0.184414 -0.416186 -0.585 172 186 213
0.1911 -0.416186 -0.585 235 235 255
0.202243 -0.416186 -0.585 232 235 254
0.231214 -0.416186 -0.585 171 193 230
0.2379 -0.416186 -0.585 183 199 233
0.247929 -0.416186 -0.585 142 159 185
0.255729 -0.416186 -0.585 233 236 253
0.278014 -0.416186 -0.585 203 214 236
0.298071 -0.416186 -0.585 116 149 194
0.301414 -0.416186 -0.585 181 203 244
0.324814 -0.416186 -0.585 214 220 232
0.33095 -0.416897 -0.586 212 217 221
0.333183 -0.416897 -0.586 209 213 222
0.351042 -0.416897 -0.586 107 128 173
0.37225 -0.416897 -0.586 178 197 227
0.382295 -0.416897 -0.586 141 145 148
0.3939 -0.416186 -0.585 141 153 167
0.397243 -0.416186 -0.585 167 169 181
0.421362 -0.416897 -0.586 24 62 127
0.429175 -0.416897 -0.586 39 77 139
0.430291 -0.416897 -0.586 26 67 123
0.451151 -0.417609 -0.587 146 149 164
0.453388 -0.417609 -0.587 128 139 159
0.45786 -0.417609 -0.587 133 148 167
0.466805 -0.417609 -0.587 136 135 140
0.467923 -0.417609 -0.587 172 175 182
0.471277 -0.417609 -0.587 172 170 181
0.493639 -0.417609 -0.587 71 105 151
0.464315 -0.367809 -0.517 158 120 107
0.481262 -0.350734 -0.493 163 119 94
0.486986 -0.352157 -0.495 161 119 95
0.580605 -0.401957 -0.565 187 181 181
-0.0296714 -0.3317 -0.465 198 162 126
-0.0269562 -0.330987 -0.464 196 160 126
-0.0110952 -0.332413 -0.466 199 158 128
-0.0022381 -0.335267 -0.47 191 147 120
0.0374 -0.3638 -0.51 137 110 103
0.0470476 -0.370933 -0.52 132 107 103
0.057899 -0.383773 -0.538 125 103 105
0.0659524 -0.395187 -0.554 124 106 118
0.10024 -0.41944 -0.588 112 138 175
0.10248 -0.41944 -0.588 144 161 204
0.1092 -0.41944 -0.588 113 135 176
0.12488 -0.41944 -0.588 122 128 154
0.162129 -0.4173 -0.585 147 166 198
0.185211 -0.416587 -0.584 126 139 171
0.211157 -0.4173 -0.585 231 236 255
0.2145 -0.4173 -0.585 134 154 179
0.216729 -0.4173 -0.585 158 173 202
0.217843 -0.4173 -0.585 187 202 231
0.263078 -0.416587 -0.584 230 235 254
0.276427 -0.416587 -0.584 208 211 226
0.286438 -0.416587 -0.584 202 218 251
0.293112 -0.416587 -0.584 110 141 185
0.320922 -0.416587 -0.584 216 219 234
0.36208 -0.416587 -0.584 53 87 151
0.372729 -0.4173 -0.585 185 191 205
0.387214 -0.4173 -0.585 150 159 174
0.395014 -0.4173 -0.585 139 150 168
0.426943 -0.418013 -0.586 77 113 175
0.50396 -0.418013 -0.586 146 151 170
0.471177 -0.37664 -0.528 152 118 106
0.465213 -0.369507 -0.518 157 119 106
0.46811 -0.355953 -0.499 174 128 105
0.470967 -0.354527 -0.497 172 126 102
-0.0375476 -0.339738 -0.475 190 155 123
-0.0198857 -0.33187 -0.464 199 160 129
0.0269257 -0.354758 -0.496 138 108 100
0.0279829 -0.356189 -0.498 137 107 99
0.0405514 -0.366917 -0.513 136 107 101
0.0565571 -0.382652 -0.535 126 105 104
0.0911248 -0.419845 -0.587 178 185 195
0.10024 -0.42056 -0.588 110 135 175
0.126 -0.42056 -0.588 181 185 212
0.1316 -0.42056 -0.588 196 202 228
0.138085 -0.419845 -0.587 201 208 236
0.147895 -0.41913 -0.586 120 129 162
0.182673 -0.416984 -0.583 143 154 182
0.216358 -0.417699 -0.584 135 150 181
0.221186 -0.418414 -0.585 229 237 255
0.231931 -0.417699 -0.584 168 198 248
0.258629 -0.417699 -0.584 236 239 254
0.259296 -0.416984 -0.583 234 237 252
0.26818 -0.416984 -0.583 230 239 244
0.278174 -0.416984 -0.583 221 224 239
0.282616 -0.416984 -0.583 149 158 187
0.284213 -0.417699 -0.584 176 189 221
0.289775 -0.417699 -0.584 172 195 237
0.299273 -0.416984 -0.583 108 138 190
0.300384 -0.416984 -0.583 152 178 229
0.307047 -0.416984 -0.583 173 189 215
0.320372 -0.416984 -0.583 207 210 225
0.327596 -0.417699 -0.584 170 174 186
0.363192 -0.417699 -0.584 56 86 156
0.393227 -0.417699 -0.584 155 170 193
0.397676 -0.417699 -0.584 182 183 185
0.401013 -0.417699 -0.584 168 171 176
0.445561 -0.419845 -0.587 183 179 194
0.461545 -0.41913 -0.586 168 172 183
0.482752 -0.41913 -0.586 124 148 182
0.484985 -0.41913 -0.586 55 89 135
0.490566 -0.41913 -0.586 55 92 145
0.492798 -0.41913 -0.586 118 142 178
0.500611 -0.41913 -0.586 55 61 83
0.464286 -0.357619 -0.5 171 126 107
0.481262 -0.352612 -0.493 165 121 96
0.484079 -0.352612 -0.493 167 122 101
-0.0198429 -0.332037 -0.463 198 159 128
-0.018961 -0.332037 -0.463 198 159 126
-0.0181181 -0.332754 -0.464 199 160 127
-0.00845048 -0.334906 -0.467 195 154 124
-0.000446667 -0.33634 -0.469 189 145 120
0.0104048 -0.340643 -0.475 169 127 105
0.0394971 -0.367177 -0.512 134 107 100
0.0416095 -0.368611 -0.514 135 107 103
0.126904 -0.420963 -0.587 196 200 225
0.131376 -0.420963 -0.587 202 206 233
0.142314 -0.420246 -0.586 209 214 234
0.154065 -0.418811 -0.584 208 221 240
0.182673 -0.418094 -0.583 135 152 182
0.194889 -0.418094 -0.583 231 236 255
0.201897 -0.418811 -0.584 231 234 249
0.210796 -0.418811 -0.584 232 234 255
0.215246 -0.418811 -0.584 167 175 196
0.237087 -0.418094 -0.583 199 222 255
0.261517 -0.418094 -0.583 229 235 249
0.357018 -0.418094 -0.583 58 89 156
0.359239 -0.418094 -0.583 57 88 155
0.369867 -0.418811 -0.584 170 189 219
0.384328 -0.418811 -0.584 175 175 183
0.388777 -0.418811 -0.584 104 122 136
0.392114 -0.418811 -0.584 162 170 181
0.394339 -0.418811 -0.584 165 173 184
0.398106 -0.418094 -0.583 188 189 193
0.41325 -0.418811 -0.584 90 121 167
0.414362 -0.418811 -0.584 78 109 155
0.421036 -0.418811 -0.584 46 92 154
0.437357 -0.419529 -0.585 130 136 158
0.447386 -0.419529 -0.585 177 181 190
0.450729 -0.419529 -0.585 180 183 190
0.5031 -0.419529 -0.585 94 106 130
0.489273 -0.39658 -0.553 146 113 106
0.479076 -0.385823 -0.538 151 114 106
0.46306 -0.363591 -0.507 167 125 103
0.464286 -0.358571 -0.5 172 127 106
0.513363 -0.365026 -0.509 145 109 87
-0.0295438 -0.332919 -0.463 198 162 130
-0.0268981 -0.332919 -0.463 197 161 129
-0.0207248 -0.332919 -0.463 197 158 127
-0.0198429 -0.332919 -0.463 197 158 127
-0.0145829 -0.333638 -0.464 198 159 126
-0.00932 -0.335076 -0.466 196 155 123
-0.000446667 -0.337233 -0.469 185 144 116
0.0150543 -0.344424 -0.479 155 119 103
0.0238486 -0.353052 -0.491 137 110 103
0.0310762 -0.360962 -0.502 137 108 102
0.0331857 -0.363119 -0.505 136 107 103
0.0590333 -0.387567 -0.539 127 106 103
0.120195 -0.422081 -0.587 121 131 166
0.122431 -0.422081 -0.587 116 127 155
0.143186 -0.420643 -0.585 215 216 234
0.146529 -0.420643 -0.585 216 219 236
0.154065 -0.419924 -0.584 193 207 233
0.160739 -0.419924 -0.584 182 190 213
0.171569 -0.419205 -0.583 154 176 213
0.194554 -0.418486 -0.582 231 234 251
0.225982 -0.419205 -0.583 182 198 232
0.255965 -0.419205 -0.583 236 242 255
0.272154 -0.418486 -0.582 231 233 248
0.277697 -0.418486 -0.582 194 197 206
0.278806 -0.418486 -0.582 210 213 222
0.283727 -0.419205 -0.583 118 141 183
0.300977 -0.418486 -0.582 96 128 185
0.307629 -0.418486 -0.582 204 215 237
0.340361 -0.419205 -0.583 202 207 213
0.354797 -0.419205 -0.583 81 112 179
0.36035 -0.419205 -0.583 74 113 170
0.365902 -0.419205 -0.583 53 95 153
0.396995 -0.419205 -0.583 190 190 198
0.416587 -0.419924 -0.584 118 151 194
0.428823 -0.419924 -0.584 144 164 189
0.431786 -0.420643 -0.585 163 183 208
0.442929 -0.420643 -0.585 177 179 194
0.467443 -0.420643 -0.585 163 164 182
0.47443 -0.419924 -0.584 127 143 166
0.477471 -0.420643 -0.585 164 177 196
0.484157 -0.420643 -0.585 67 92 132
0.493071 -0.420643 -0.585 123 143 176
0.492987 -0.39979 -0.556 144 113 108
0.468 -0.373905 -0.52 158 121 103
0.465462 -0.37031 -0.515 163 122 102
0.46423 -0.360962 -0.502 170 125 104
0.479349 -0.353771 -0.492 164 118 95
0.492643 -0.355929 -0.495 155 114 92
0.498474 -0.358086 -0.498 152 114 93
0.519351 -0.368871 -0.513 146 109 90
-0.018079 -0.333801 -0.463 199 160 129
-0.013699 -0.334522 -0.464 198 159 128
-0.00756095 -0.336685 -0.467 194 153 121
-0.00222857 -0.337406 -0.468 186 147 116
-0.00133714 -0.337406 -0.468 186 147 118
0.0310762 -0.361918 -0.502 136 107 99
0.0515981 -0.379221 -0.526 129 105 103
0.0887371 -0.422478 -0.586 169 176 205
0.109945 -0.422478 -0.586 160 171 201
0.12892 -0.422478 -0.586 208 212 224
0.131152 -0.422478 -0.586 209 212 229
0.144053 -0.421036 -0.584 215 218 233
0.146278 -0.421036 -0.584 214 220 236
0.169348 -0.420315 -0.583 143 172 216
0.185686 -0.419594 -0.582 227 230 247
0.191229 -0.419594 -0.582 230 233 250
0.195663 -0.419594 -0.582 229 232 247
0.200097 -0.419594 -0.582 231 230 244
0.253309 -0.419594 -0.582 231 237 253
0.282131 -0.419594 -0.582 185 193 214
0.284349 -0.419594 -0.582 115 137 184
0.286566 -0.419594 -0.582 99 134 190
0.292109 -0.419594 -0.582 81 113 170
0.370344 -0.420315 -0.583 127 146 188
0.377007 -0.420315 -0.583 159 162 169
0.38478 -0.420315 -0.583 191 200 209
0.411431 -0.420315 -0.583 169 186 216
0.415873 -0.420315 -0.583 140 164 200
0.424757 -0.420315 -0.583 123 155 202
0.433272 -0.421036 -0.584 151 162 182
0.461082 -0.421036 -0.584 175 174 190
0.462194 -0.421036 -0.584 175 174 190
0.475543 -0.421036 -0.584 164 172 185
0.479992 -0.421036 -0.584 127 141 167
0.481105 -0.421036 -0.584 126 140 166
0.490004 -0.421036 -0.584 83 110 155
0.501128 -0.421036 -0.584 98 103 125
0.506063 -0.419594 -0.582 143 151 170
0.4715 -0.3785 -0.525 154 118 106
0.463917 -0.366965 -0.509 165 123 101
0.47377 -0.35615 -0.494 173 126 106
0.516314 -0.367686 -0.51 148 110 91
-0.0379667 -0.33902 -0.469 192 156 124
-0.0330714 -0.334683 -0.463 194 160 125
-0.0093 -0.336129 -0.465 194 153 123
0.00313333 -0.339743 -0.47 179 139 114
0.00855905 -0.341911 -0.473 170 128 106
0.0159667 -0.346249 -0.479 148 114 102
0.03 -0.361429 -0.5 136 106 98
0.0469571 -0.375163 -0.519 131 106 102
0.0552267 -0.38456 -0.532 127 106 103
0.0657143 -0.399017 -0.552 120 105 108
0.0997286 -0.422871 -0.585 99 123 167
0.108643 -0.422871 -0.585 137 155 193
0.140716 -0.422149 -0.584 215 218 235
0.19422 -0.41998 -0.581 231 233 248
0.20564 -0.420703 -0.582 200 200 210
0.206749 -0.420703 -0.582 227 225 236
0.210074 -0.420703 -0.582 231 236 255
0.233354 -0.420703 -0.582 104 135 190
0.248447 -0.41998 -0.581 230 236 252
0.252873 -0.41998 -0.581 232 238 254
0.25398 -0.41998 -0.581 233 239 255
0.256634 -0.420703 -0.582 213 219 235
0.276113 -0.41998 -0.581 224 226 238
0.284967 -0.41998 -0.581 99 135 195
0.31099 -0.419257 -0.58 214 220 234
0.3132 -0.419257 -0.58 214 219 241
0.322593 -0.41998 -0.581 187 196 213
0.3237 -0.41998 -0.581 185 194 211
0.328127 -0.41998 -0.581 179 194 213
0.346429 -0.420703 -0.582 103 118 147
0.349754 -0.420703 -0.582 130 159 203
0.377469 -0.420703 -0.582 192 196 205
0.39964 -0.420703 -0.582 185 190 196
0.426978 -0.421426 -0.583 135 158 192
0.443284 -0.422149 -0.584 180 180 192
0.475543 -0.422149 -0.584 167 170 179
0.496678 -0.422149 -0.584 160 166 178
0.494046 -0.401909 -0.556 149 115 106
0.468173 -0.37444 -0.518 160 123 105
0.464941 -0.367211 -0.508 170 125 106
0.470967 -0.35926 -0.497 176 129 109
0.489713 -0.356369 -0.493 157 115 91
-0.03388 -0.33484 -0.462 193 157 123
-0.0311724 -0.334115 -0.461 196 161 129
-0.02766 -0.334115 -0.461 195 159 127
-0.0267819 -0.334115 -0.461 196 160 128
-0.0249714 -0.33339 -0.46 197 161 129
-0.01892 -0.33484 -0.462 200 161 132
-0.0154333 -0.335565 -0.463 198 159 128
-0.000445714 -0.339189 -0.468 183 144 115
0.0122143 -0.344262 -0.475 159 120 103
0.0159667 -0.347161 -0.479 148 115 100
0.0289314 -0.360931 -0.498 135 105 97
0.0341476 -0.366005 -0.505 135 108 101
0.0352486 -0.367454 -0.507 135 106 98
0.0362857 -0.368179 -0.508 134 105 97
0.04588 -0.375427 -0.518 134 106 102
0.0602829 -0.392096 -0.541 122 104 100
0.10067 -0.423261 -0.584 93 121 171
0.116443 -0.423986 -0.585 108 121 153
0.155754 -0.421811 -0.582 211 218 237
0.160189 -0.421811 -0.582 186 200 227
0.190571 -0.420362 -0.58 230 233 252
0.209713 -0.421087 -0.581 234 236 251
0.21746 -0.421087 -0.581 176 184 207
0.231847 -0.421087 -0.581 93 127 188
0.239181 -0.420362 -0.58 122 145 189
0.24402 -0.421087 -0.581 224 229 248
0.288287 -0.421087 -0.581 108 148 199
0.294419 -0.420362 -0.58 88 123 179
0.331447 -0.421087 -0.581 211 213 225
0.33756 -0.421811 -0.582 214 210 225
0.361327 -0.421087 -0.581 151 177 210
0.39674 -0.421087 -0.581 188 192 203
0.402273 -0.421087 -0.581 164 176 200
0.409617 -0.421811 -0.582 172 180 199
0.411834 -0.421811 -0.582 172 183 203
0.489165 -0.422536 -0.583 94 117 159
0.474194 -0.382674 -0.528 152 118 109
0.468254 -0.374702 -0.517 161 124 106
0.470964 -0.359482 -0.496 175 128 108
0.47471 -0.358032 -0.494 163 117 94
-0.03388 -0.33572 -0.462 194 158 124
-0.00222381 -0.339353 -0.467 186 146 120
-0.000445714 -0.34008 -0.468 183 143 117
0.000445714 -0.34008 -0.468 183 142 120
0.018821 -0.350253 -0.482 146 113 104
0.0247838 -0.356793 -0.491 139 106 97
0.0268171 -0.358973 -0.494 136 103 94
0.0850971 -0.424373 -0.584 80 94 131
0.0995581 -0.424373 -0.584 89 114 171
0.101783 -0.424373 -0.584 97 127 181
0.142696 -0.423647 -0.583 202 200 213
0.150211 -0.42292 -0.582 204 212 223
0.201967 -0.422193 -0.581 185 185 197
0.21746 -0.422193 -0.581 176 182 204
0.229238 -0.421467 -0.58 91 123 182
0.234762 -0.421467 -0.58 102 132 186
0.2436 -0.421467 -0.58 216 221 241
0.258407 -0.422193 -0.581 191 194 211
0.259067 -0.421467 -0.58 171 174 191
0.291105 -0.421467 -0.58 99 134 188
0.296117 -0.42074 -0.579 114 151 206
0.301631 -0.42074 -0.579 136 163 210
0.320933 -0.421467 -0.58 214 216 228
0.348552 -0.421467 -0.58 193 207 233
0.356286 -0.421467 -0.58 108 141 184
0.367967 -0.422193 -0.581 137 151 180
0.37636 -0.42292 -0.582 192 196 207
0.399371 -0.421467 -0.58 188 197 204
0.401581 -0.421467 -0.58 141 157 183
0.412233 -0.422193 -0.581 164 171 190
0.42292 -0.42292 -0.582 91 120 160
0.43253 -0.423647 -0.583 179 183 195
0.435862 -0.423647 -0.583 144 152 173
0.443635 -0.423647 -0.583 171 175 187
0.443983 -0.42292 -0.582 172 176 185
0.460292 -0.423647 -0.583 176 173 182
0.502737 -0.42292 -0.582 135 143 162
0.506063 -0.42292 -0.582 123 133 158
0.470885 -0.378593 -0.521 159 122 104
0.465856 -0.369873 -0.509 170 127 111
0.465155 -0.365513 -0.503 166 123 106
0.467159 -0.362607 -0.499 175 130 111
-0.0386114 -0.339514 -0.466 192 156 124
-0.0258476 -0.335143 -0.46 198 159 126
-0.0223429 -0.335143 -0.46 197 158 125
-0.01804 -0.3366 -0.462 200 159 129
-0.01716 -0.3366 -0.462 200 159 129
-0.000444762 -0.340243 -0.467 181 141 115
0.010361 -0.344614 -0.473 165 124 106
0.0122143 -0.346071 -0.475 160 121 104
0.0457914 -0.376671 -0.517 135 106 102
0.0575762 -0.389786 -0.535 126 102 100
0.112713 -0.424757 -0.583 130 145 174
0.14356 -0.424029 -0.582 170 171 176
0.147994 -0.424029 -0.582 222 222 232
0.153537 -0.424029 -0.582 156 163 182
0.162406 -0.424029 -0.582 88 116 163
0.172895 -0.422571 -0.58 130 156 207
0.187257 -0.422571 -0.58 234 236 249
0.2436 -0.422571 -0.58 221 226 246
0.24581 -0.422571 -0.58 225 230 250
0.253543 -0.422571 -0.58 227 230 245
0.26459 -0.422571 -0.58 204 209 228
0.286686 -0.422571 -0.58 133 159 192
0.29 -0.422571 -0.58 132 163 218
0.295014 -0.421843 -0.579 98 140 190
0.331981 -0.422571 -0.58 214 217 232
0.350762 -0.422571 -0.58 174 190 213
0.386114 -0.422571 -0.58 164 170 182
0.394952 -0.422571 -0.58 189 192 207
0.400476 -0.422571 -0.58 171 180 187
0.412233 -0.4233 -0.581 164 170 186
0.414447 -0.4233 -0.581 131 145 172
0.418873 -0.4233 -0.581 111 145 182
0.421087 -0.4233 -0.581 109 142 177
0.434006 -0.424029 -0.582 180 176 190
0.473914 -0.424029 -0.582 173 173 183
0.506533 -0.422571 -0.58 73 83 110
0.490652 -0.401443 -0.551 149 114 108
0.4756 -0.358457 -0.492 168 120 98
0.475569 -0.357729 -0.491 166 118 96
0.47931 -0.357729 -0.491 170 124 101
0.4802 -0.357 -0.49 173 126 100
0.491591 -0.359186 -0.493 158 113 92
0.505238 -0.364286 -0.5 149 108 86
-0.0205905 -0.336019 -0.46 199 160 127
-0.018879 -0.33675 -0.461 200 159 129
0.00133714 -0.341863 -0.468 178 138 113
0.00581905 -0.343324 -0.47 170 129 111
0.00762571 -0.344054 -0.471 164 122 106
0.0140533 -0.347707 -0.476 156 117 100
0.0415286 -0.374734 -0.513 135 107 103
0.0538057 -0.385691 -0.528 129 104 100
0.0927248 -0.425868 -0.583 131 137 161
0.116045 -0.425868 -0.583 187 193 219
0.1358 -0.425137 -0.582 210 210 220
0.145527 -0.424407 -0.581 223 221 232
0.182523 -0.422946 -0.579 221 226 248
0.192449 -0.422946 -0.579 203 204 224
0.224819 -0.423676 -0.58 127 154 209
0.233254 -0.422946 -0.579 133 168 226
0.23546 -0.422946 -0.579 106 137 184
0.239871 -0.422946 -0.579 159 189 241
0.246489 -0.422946 -0.579 229 234 253
0.254648 -0.423676 -0.58 226 229 244
0.259723 -0.422946 -0.579 190 192 204
0.261929 -0.422946 -0.579 193 196 215
0.275163 -0.422946 -0.579 229 232 251
0.296707 -0.422215 -0.578 166 204 251
0.30001 -0.422215 -0.578 188 208 235
0.3281 -0.422946 -0.579 213 215 230
0.340819 -0.423676 -0.58 148 159 181
0.35126 -0.422946 -0.579 174 189 210
0.376171 -0.423676 -0.58 200 202 214
0.389429 -0.423676 -0.58 195 195 205
0.397162 -0.423676 -0.58 191 191 201
0.407105 -0.423676 -0.58 176 178 190
0.418152 -0.423676 -0.58 118 148 186
0.445433 -0.424407 -0.581 169 172 189
0.470887 -0.424407 -0.581 175 178 187
0.475023 -0.425137 -0.582 170 171 176
0.467171 -0.363777 -0.498 173 126 106
0.503217 -0.363777 -0.498 152 110 88
-0.0417171 -0.344951 -0.471 191 156 124
-0.0374 -0.33836 -0.462 192 157 125
-0.036441 -0.337628 -0.461 193 158 126
-0.0144886 -0.337628 -0.461 198 159 126
-0.00662857 -0.339825 -0.464 188 146 121
-0.00133143 -0.34129 -0.466 180 139 111
0.00760952 -0.344219 -0.47 163 124 107
0.01978 -0.35374 -0.483 142 109 100
0.0414476 -0.374979 -0.512 135 107 103
0.0435676 -0.376444 -0.514 135 108 101
0.0574686 -0.391091 -0.534 127 101 100
0.0799571 -0.424049 -0.579 151 151 153
0.0958914 -0.426246 -0.582 84 105 150
0.108086 -0.426246 -0.582 120 145 199
0.110303 -0.426246 -0.582 88 109 156
0.13446 -0.425513 -0.581 198 204 218
0.13778 -0.425513 -0.581 205 207 219
0.168476 -0.424781 -0.58 85 115 175
0.18551 -0.423316 -0.578 222 226 238
0.195419 -0.423316 -0.578 165 168 185
0.211197 -0.424049 -0.579 223 232 247
0.22002 -0.424049 -0.579 120 139 171
0.222226 -0.424049 -0.579 117 146 188
0.22774 -0.424049 -0.579 95 128 182
0.24318 -0.424049 -0.579 221 227 253
0.261476 -0.423316 -0.578 204 211 229
0.304986 -0.422584 -0.577 95 121 154
0.349552 -0.423316 -0.578 150 172 195
0.350653 -0.423316 -0.578 159 181 204
0.353956 -0.423316 -0.578 152 173 200
0.375523 -0.424049 -0.579 191 197 213
0.395374 -0.424049 -0.579 187 188 206
0.444667 -0.424781 -0.58 161 168 186
0.446876 -0.424781 -0.58 163 170 186
0.464247 -0.425513 -0.581 101 113 139
0.47974 -0.425513 -0.581 77 95 135
0.501873 -0.425513 -0.581 158 165 171
-0.02748 -0.336303 -0.458 193 157 125
-0.0144886 -0.338506 -0.461 198 159 126
0.0121886 -0.348051 -0.474 157 118 103
0.0414476 -0.375954 -0.512 133 108 103
0.0588143 -0.394311 -0.537 127 101 100
0.0890867 -0.42662 -0.581 83 95 135
0.0901933 -0.42662 -0.581 81 93 133
0.102367 -0.42662 -0.581 46 76 138
0.113433 -0.42662 -0.581 188 196 219
0.12539 -0.425886 -0.58 202 205 220
0.175906 -0.425151 -0.579 156 175 215
0.180317 -0.425151 -0.579 221 222 242
0.183309 -0.424417 -0.578 225 226 247
0.189914 -0.424417 -0.578 209 212 231
0.206429 -0.424417 -0.578 225 231 247
0.207889 -0.425151 -0.579 233 239 255
0.22002 -0.425151 -0.579 138 155 185
0.222226 -0.425151 -0.579 137 161 197
0.244962 -0.424417 -0.578 219 226 254
0.260375 -0.424417 -0.578 212 215 230
0.27689 -0.424417 -0.578 157 171 198
0.282394 -0.424417 -0.578 216 227 247
0.297808 -0.424417 -0.578 191 205 232
0.307716 -0.424417 -0.578 116 139 173
0.340231 -0.425151 -0.579 94 104 129
0.376626 -0.425151 -0.579 186 193 212
0.381695 -0.425886 -0.58 200 199 217
0.38986 -0.425151 -0.579 182 191 206
0.396893 -0.424417 -0.578 189 191 204
0.41302 -0.425151 -0.579 104 121 151
0.42699 -0.425886 -0.58 152 175 209
0.476705 -0.425886 -0.58 135 140 172
0.49302 -0.42662 -0.581 98 109 115
0.505429 -0.425886 -0.58 70 84 119
0.466876 -0.373017 -0.508 169 123 107
0.473726 -0.361269 -0.492 176 128 108
0.4774 -0.3598 -0.49 169 121 101
-0.0390752 -0.339384 -0.461 191 156 124
-0.0372381 -0.338648 -0.46 193 159 124
0.00044381 -0.343065 -0.466 177 135 110
0.0237029 -0.359261 -0.488 137 106 101
0.0414476 -0.37693 -0.512 133 108 103
0.0561343 -0.390917 -0.531 126 102 100
0.0614267 -0.399015 -0.542 122 100 102
0.0990467 -0.427727 -0.581 37 62 126
0.100153 -0.427727 -0.581 41 68 135
0.131791 -0.426254 -0.579 160 167 186
0.175602 -0.425518 -0.578 146 165 207
0.181107 -0.425518 -0.578 227 228 246
0.19652 -0.425518 -0.578 162 165 182
0.209731 -0.425518 -0.578 231 235 247
0.216711 -0.426254 -0.579 126 137 165
0.217814 -0.426254 -0.579 154 165 193
0.222226 -0.426254 -0.579 150 169 199
0.244538 -0.424782 -0.577 210 221 249
0.249366 -0.425518 -0.578 233 236 251
0.266519 -0.424782 -0.577 229 232 249
0.272014 -0.424782 -0.577 231 234 253
0.274688 -0.425518 -0.578 201 211 236
0.275789 -0.425518 -0.578 160 170 195
0.297292 -0.424782 -0.577 190 205 228
0.31158 -0.424782 -0.577 217 223 245
0.312679 -0.424782 -0.577 216 218 233
0.337442 -0.425518 -0.578 164 167 182
0.374874 -0.425518 -0.578 185 193 216
0.387654 -0.426254 -0.579 98 125 178
0.410814 -0.426254 -0.579 167 169 181
0.411917 -0.426254 -0.579 127 142 171
0.414123 -0.426254 -0.579 88 121 156
0.419637 -0.426254 -0.579 115 144 184
0.427357 -0.426254 -0.579 131 132 134
0.43618 -0.426254 -0.579 178 180 192
0.448311 -0.426254 -0.579 135 150 181
0.449414 -0.426254 -0.579 94 109 140
0.468971 -0.42699 -0.58 151 154 159
0.501249 -0.426254 -0.579 160 167 175
0.476467 -0.360733 -0.49 178 130 110
0.493406 -0.362206 -0.492 160 115 92
-0.04004 -0.341 -0.462 192 157 125
-0.0317724 -0.33731 -0.457 195 159 125
-0.020501 -0.338048 -0.458 199 160 127
-0.0170486 -0.338786 -0.459 197 161 129
-0.0109762 -0.340262 -0.461 188 149 118
0.00759333 -0.346167 -0.469 165 124 104
0.0267629 -0.363881 -0.493 132 103 97
0.0537038 -0.388976 -0.527 127 103 101
0.057361 -0.393405 -0.533 125 101 99
0.08106 -0.427357 -0.579 169 164 171
0.0944571 -0.428095 -0.58 58 85 140
0.125174 -0.427357 -0.579 162 168 184
0.12738 -0.427357 -0.579 176 183 201
0.136203 -0.427357 -0.579 164 169 188
0.138409 -0.427357 -0.579 167 171 180
0.1734 -0.426619 -0.578 129 156 203
0.214135 -0.426619 -0.578 174 189 218
0.224755 -0.425881 -0.577 128 161 202
0.23025 -0.425881 -0.577 126 162 212
0.239726 -0.425143 -0.576 115 137 174
0.244114 -0.425143 -0.576 188 205 233
0.292389 -0.425143 -0.576 166 191 222
0.301689 -0.425881 -0.577 220 224 236
0.307184 -0.425881 -0.577 135 149 176
0.319273 -0.425881 -0.577 215 217 238
0.343452 -0.425881 -0.577 208 213 232
0.377076 -0.426619 -0.578 159 169 194
0.407903 -0.426619 -0.578 164 166 178
0.417811 -0.426619 -0.578 111 142 186
0.437629 -0.426619 -0.578 176 181 185
0.4439 -0.427357 -0.579 90 112 151
0.478089 -0.427357 -0.579 83 111 151
0.499905 -0.428095 -0.58 160 166 180
0.500146 -0.427357 -0.579 155 162 170
0.50721 -0.425881 -0.577 114 126 138
0.474685 -0.386024 -0.523 157 120 101
0.467005 -0.372738 -0.505 170 124 108
0.468077 -0.369786 -0.501 170 125 106
0.468095 -0.369048 -0.5 174 129 110
0.471888 -0.364619 -0.494 167 119 99
0.493406 -0.363143 -0.492 158 113 90
0.50803 -0.36831 -0.499 153 108 85
-0.0264914 -0.33744 -0.456 198 162 128
-0.0118286 -0.3404 -0.46 191 152 121
-0.0109524 -0.3404 -0.46 188 149 118
-0.000442857 -0.3441 -0.465 177 135 110
0.0319048 -0.37 -0.5 131 104 97
0.0403143 -0.3774 -0.51 134 106 103
0.0502114 -0.38628 -0.522 127 103 99
0.0585952 -0.3959 -0.535 123 102 99
0.0683086 -0.41144 -0.556 145 143 154
0.0784457 -0.42624 -0.576 162 159 168
0.0845143 -0.4292 -0.58 158 164 176
0.0878286 -0.4292 -0.58 104 114 141
0.10422 -0.42846 -0.579 69 101 158
0.109734 -0.42846 -0.579 60 86 145
0.117657 -0.4292 -0.58 193 197 209
0.133766 -0.42772 -0.578 161 168 186
0.139511 -0.42846 -0.579 200 204 215
0.14282 -0.42846 -0.579 216 218 233
0.143923 -0.42846 -0.579 216 218 233
0.148078 -0.42772 -0.578 216 222 234
0.192883 -0.42698 -0.577 225 227 239
0.201675 -0.42698 -0.577 228 229 247
0.224755 -0.42698 -0.577 138 166 203
0.23424 -0.42624 -0.576 201 213 237
0.235337 -0.42624 -0.576 217 228 246
0.236434 -0.42624 -0.576 223 234 252
0.251794 -0.42624 -0.576 230 230 242
0.253989 -0.42624 -0.576 228 230 243
0.25728 -0.42624 -0.576 227 233 245
0.259024 -0.4255 -0.575 210 216 228
0.266057 -0.42624 -0.576 230 232 245
0.284709 -0.42624 -0.576 195 203 216
0.297874 -0.42624 -0.576 183 196 228
0.344551 -0.42698 -0.577 210 212 227
0.36873 -0.42698 -0.577 203 203 215
0.371571 -0.42772 -0.578 203 203 215
0.379278 -0.42772 -0.578 170 181 213
0.380379 -0.42772 -0.578 173 184 216
0.38148 -0.42772 -0.578 188 195 221
0.382581 -0.42772 -0.578 177 184 210
0.400603 -0.42698 -0.577 189 192 207
0.410494 -0.42698 -0.577 128 143 166
0.428821 -0.42772 -0.578 128 130 129
0.45934 -0.42846 -0.579 72 89 133
0.465957 -0.42846 -0.579 178 175 186
0.480827 -0.39368 -0.532 157 119 100
0.477357 -0.36186 -0.489 170 124 101
0.497226 -0.36482 -0.493 152 107 84
0.507011 -0.36852 -0.498 153 109 82
0.50993 -0.36926 -0.499 151 109 84
0.52706 -0.37814 -0.511 150 104 80
-0.0109524 -0.341276 -0.46 188 149 118
0.00400286 -0.34647 -0.467 169 128 108
0.01496 -0.353147 -0.476 151 113 102
0.0177914 -0.355372 -0.479 146 109 100
0.0196981 -0.356856 -0.481 139 105 95
0.0886267 -0.428821 -0.578 53 71 117
0.0920886 -0.429563 -0.579 46 68 125
0.108444 -0.428821 -0.578 55 84 142
0.131336 -0.428079 -0.577 148 154 170
0.133534 -0.428079 -0.577 157 163 179
0.137069 -0.428821 -0.578 197 203 219
0.156614 -0.428079 -0.577 155 172 202
0.157713 -0.428079 -0.577 157 177 210
0.179383 -0.427337 -0.576 199 211 237
0.19618 -0.428079 -0.577 218 220 233
0.210103 -0.427337 -0.576 217 222 242
0.214491 -0.427337 -0.576 126 142 176
0.238214 -0.426595 -0.575 206 218 240
0.23931 -0.426595 -0.575 179 194 227
0.245881 -0.426595 -0.575 206 220 247
0.251794 -0.427337 -0.576 234 232 246
0.268251 -0.427337 -0.576 232 231 245
0.294071 -0.426595 -0.575 159 184 215
0.345051 -0.427337 -0.576 210 213 228
0.373127 -0.428079 -0.577 186 192 204
0.394423 -0.427337 -0.576 55 82 127
0.398811 -0.427337 -0.576 182 188 202
0.404999 -0.428079 -0.577 184 193 208
0.417089 -0.428079 -0.577 106 138 185
0.436528 -0.428821 -0.578 179 184 190
0.46185 -0.428821 -0.578 63 85 124
0.465152 -0.428821 -0.578 165 165 177
0.478364 -0.428821 -0.578 77 103 138
0.495979 -0.428821 -0.578 130 135 131
0.498181 -0.428821 -0.578 166 164 177
0.477408 -0.390242 -0.526 157 121 99
0.469633 -0.379113 -0.511 161 123 104
0.467099 -0.372436 -0.502 178 133 114
0.502071 -0.367243 -0.495 153 112 82
-0.0396933 -0.340665 -0.458 191 157 122
-0.0195857 -0.339921 -0.457 200 161 128
-0.0170114 -0.340665 -0.458 196 157 124
0.0130638 -0.351822 -0.473 157 118 103
0.0307667 -0.369673 -0.497 131 104 97
0.0561343 -0.394963 -0.531 125 101 101
0.0854714 -0.430666 -0.579 157 159 180
0.120554 -0.429922 -0.578 201 204 221
0.13903 -0.429178 -0.577 208 211 226
0.156614 -0.429178 -0.577 178 193 222
0.166217 -0.428434 -0.576 122 154 193
0.174994 -0.428434 -0.576 165 176 206
0.215589 -0.428434 -0.576 208 216 239
0.244786 -0.42769 -0.575 136 151 180
0.27264 -0.428434 -0.576 144 156 180
0.277643 -0.42769 -0.575 227 228 248
0.2875 -0.42769 -0.575 166 181 214
0.314881 -0.42769 -0.575 203 211 234
0.320357 -0.42769 -0.575 198 206 225
0.339566 -0.428434 -0.576 206 212 226
0.35712 -0.428434 -0.576 116 146 182
0.363703 -0.428434 -0.576 199 207 220
0.375325 -0.429178 -0.577 90 103 138
0.378622 -0.429178 -0.577 125 147 184
0.379721 -0.429178 -0.577 117 139 176
0.398811 -0.428434 -0.576 185 191 203
0.4032 -0.428434 -0.576 184 191 207
0.436871 -0.429178 -0.577 176 183 191
0.440169 -0.429178 -0.577 58 84 119
0.441268 -0.429178 -0.577 75 101 136
0.456345 -0.429922 -0.578 143 160 180
0.475338 -0.429178 -0.577 150 156 168
0.470552 -0.38083 -0.512 162 125 109
0.46803 -0.374136 -0.503 176 133 114
0.4719 -0.368186 -0.495 171 126 105
0.4914 -0.364467 -0.49 160 114 91
-0.0342333 -0.3393 -0.455 196 160 124
-0.0152667 -0.341537 -0.458 193 154 121
-0.0118029 -0.342283 -0.459 189 148 118
-0.00832381 -0.343029 -0.46 188 147 119
-0.00658571 -0.343774 -0.461 185 144 116
-0.00484 -0.34452 -0.462 183 142 114
0.0102952 -0.350486 -0.47 162 118 105
0.036 -0.37584 -0.504 130 105 98
0.0598371 -0.400449 -0.537 119 93 94
0.0612 -0.402686 -0.54 126 100 101
0.0681857 -0.413871 -0.555 135 130 137
0.0994638 -0.430277 -0.577 56 78 128
0.156343 -0.429531 -0.576 180 196 222
0.176881 -0.428786 -0.575 117 137 174
0.186413 -0.42804 -0.574 208 215 225
0.19331 -0.428786 -0.575 232 234 246
0.210833 -0.428786 -0.575 128 145 173
0.215214 -0.428786 -0.575 218 223 243
0.21631 -0.428786 -0.575 227 232 252
0.225071 -0.428786 -0.575 158 178 203
0.232333 -0.42804 -0.574 191 207 230
0.2378 -0.42804 -0.574 229 231 244
0.248733 -0.42804 -0.574 233 231 245
0.269976 -0.428786 -0.575 221 228 247
0.284813 -0.42804 -0.574 152 167 188
0.29028 -0.42804 -0.574 175 194 226
0.29684 -0.42804 -0.574 164 190 225
0.33131 -0.428786 -0.575 134 151 181
0.3335 -0.428786 -0.575 100 118 156
0.371383 -0.429531 -0.576 196 205 210
0.377966 -0.429531 -0.576 122 140 176
0.381257 -0.429531 -0.576 171 187 213
0.396617 -0.429531 -0.576 76 95 135
0.407589 -0.429531 -0.576 197 194 201
0.416366 -0.429531 -0.576 107 140 183
0.420754 -0.429531 -0.576 73 107 152
0.439406 -0.429531 -0.576 108 134 159
0.4416 -0.429531 -0.576 128 146 168
0.476437 -0.430277 -0.577 102 122 149
0.496647 -0.41238 -0.553 146 112 100
0.48013 -0.394483 -0.529 157 120 104
0.47402 -0.387026 -0.519 156 118 105
-0.00657143 -0.343905 -0.46 185 144 116
0.00848667 -0.350633 -0.469 162 119 100
0.00938 -0.350633 -0.469 161 118 102
0.0206571 -0.360352 -0.482 137 108 102
0.0226333 -0.362595 -0.485 133 106 99
0.0391886 -0.37979 -0.508 132 107 100
0.0853238 -0.432124 -0.578 79 85 109
0.0864248 -0.432124 -0.578 57 72 105
0.08832 -0.430629 -0.576 122 144 181
0.127817 -0.430629 -0.576 205 209 221
0.1344 -0.430629 -0.576 205 211 227
0.139886 -0.430629 -0.576 216 216 228
0.159357 -0.429881 -0.575 139 158 190
0.163738 -0.429881 -0.575 123 151 190
0.179853 -0.429133 -0.574 168 184 218
0.183133 -0.429133 -0.574 224 228 240
0.19331 -0.429881 -0.575 229 230 250
0.226867 -0.429133 -0.574 187 202 233
0.235613 -0.429133 -0.574 228 234 248
0.245453 -0.429133 -0.574 167 173 199
0.248733 -0.429133 -0.574 222 227 246
0.2542 -0.429133 -0.574 225 228 243
0.256387 -0.429133 -0.574 196 204 223
0.26076 -0.429133 -0.574 206 217 245
0.268413 -0.429133 -0.574 208 219 247
0.278253 -0.429133 -0.574 228 231 250
0.281533 -0.429133 -0.574 231 234 249
0.29028 -0.429133 -0.574 171 191 224
0.297933 -0.429133 -0.574 203 215 241
0.31324 -0.429133 -0.574 141 157 190
0.344947 -0.429133 -0.574 207 208 228
0.35916 -0.429133 -0.574 144 163 195
0.374024 -0.429881 -0.575 83 100 130
0.37731 -0.429881 -0.575 138 163 203
0.382354 -0.430629 -0.576 157 171 197
0.50304 -0.430629 -0.576 154 158 167
0.474933 -0.388762 -0.52 156 118 105
0.4746 -0.366333 -0.49 171 125 102
0.486671 -0.365586 -0.489 158 112 89
0.4914 -0.366333 -0.49 162 116 93
0.493267 -0.366333 -0.49 158 113 90
0.495209 -0.367081 -0.491 157 112 89
0.496144 -0.367081 -0.491 160 115 92
-0.0404771 -0.342532 -0.457 191 156 124
-0.0229667 -0.341033 -0.455 199 160 129
-0.0195429 -0.341783 -0.456 199 160 129
-0.0117771 -0.343282 -0.458 189 148 118
-0.000441905 -0.347779 -0.464 173 131 107
0.00757714 -0.350777 -0.468 163 120 103
0.0236057 -0.364269 -0.486 133 106 97
0.034901 -0.376261 -0.502 132 105 98
0.0638429 -0.40849 -0.545 121 107 106
0.0961667 -0.432475 -0.577 63 92 136
0.112457 -0.431726 -0.576 80 97 140
0.121234 -0.431726 -0.576 201 203 215
0.140738 -0.430976 -0.575 216 216 228
0.153881 -0.430976 -0.575 211 217 233
0.1558 -0.430227 -0.574 185 196 216
0.203907 -0.430227 -0.574 228 227 245
0.213747 -0.430227 -0.574 223 231 252
0.234111 -0.429477 -0.573 226 229 244
0.253757 -0.429477 -0.573 228 230 245
0.2706 -0.430227 -0.574 198 206 225
0.288683 -0.429477 -0.573 156 179 211
0.29414 -0.429477 -0.573 132 160 197
0.319243 -0.429477 -0.573 180 197 217
0.340573 -0.430227 -0.574 209 217 228
0.346529 -0.429477 -0.573 148 161 177
0.361347 -0.430227 -0.574 203 209 221
0.371833 -0.430976 -0.575 191 195 204
0.388262 -0.430976 -0.575 178 189 209
0.391548 -0.430976 -0.575 168 180 196
0.428786 -0.430976 -0.575 183 187 196
0.434262 -0.430976 -0.575 128 135 151
0.481097 -0.431726 -0.576 92 116 154
0.503262 -0.430976 -0.575 152 156 168
0.470019 -0.371764 -0.496 172 126 103
0.474633 -0.368016 -0.491 172 126 103
0.476381 -0.365768 -0.488 173 127 103
0.480099 -0.365768 -0.488 163 117 94
-0.0340829 -0.340397 -0.453 196 160 126
-0.0203667 -0.3419 -0.455 198 159 128
-0.0178057 -0.342651 -0.456 195 156 125
-0.00132286 -0.347911 -0.463 174 132 108
0.0048819 -0.350166 -0.466 167 124 105
0.0168086 -0.358431 -0.477 146 112 100
0.0359286 -0.377969 -0.503 132 105 98
0.04884 -0.38924 -0.518 129 104 99
0.062459 -0.407274 -0.542 118 104 101
0.08832 -0.432823 -0.576 156 168 192
0.10368 -0.432823 -0.576 148 159 187
0.118833 -0.432071 -0.575 201 203 215
0.131976 -0.432071 -0.575 210 213 218
0.138548 -0.432071 -0.575 210 214 226
0.152786 -0.432071 -0.575 221 225 237
0.18718 -0.430569 -0.573 224 227 244
0.206826 -0.430569 -0.573 188 191 208
0.209009 -0.430569 -0.573 170 178 199
0.242419 -0.429817 -0.572 231 232 250
0.25594 -0.430569 -0.573 183 196 215
0.269037 -0.430569 -0.573 159 172 214
0.276677 -0.430569 -0.573 230 233 250
0.285409 -0.430569 -0.573 150 169 199
0.292537 -0.429817 -0.572 140 170 208
0.315969 -0.430569 -0.573 142 162 189
0.31706 -0.430569 -0.573 169 189 216
0.33948 -0.43132 -0.574 215 214 230
0.35526 -0.430569 -0.573 126 154 193
0.356351 -0.430569 -0.573 122 150 187
0.444119 -0.432071 -0.575 175 177 192
0.461643 -0.432071 -0.575 148 149 153
0.466024 -0.432071 -0.575 113 127 154
0.47369 -0.432071 -0.575 162 166 178
0.48 -0.432823 -0.576 88 113 153
0.482194 -0.432823 -0.576 69 100 144
0.484389 -0.432823 -0.576 69 100 144
0.487929 -0.432071 -0.575 120 136 162
0.486484 -0.402766 -0.536 148 114 104
0.470014 -0.371957 -0.495 175 129 105
0.474633 -0.368951 -0.491 173 126 106
0.505762 -0.371206 -0.494 152 110 85
0.00132571 -0.349547 -0.464 170 127 108
0.0057819 -0.351807 -0.467 165 122 106
0.0149286 -0.357833 -0.475 149 113 99
0.0187038 -0.360847 -0.479 139 109 99
0.028641 -0.371393 -0.493 131 104 95
0.0861257 -0.43392 -0.576 147 157 182
0.0916114 -0.43392 -0.576 140 152 178
0.099119 -0.433167 -0.575 82 109 152
0.117738 -0.433167 -0.575 203 203 213
0.1265 -0.433167 -0.575 166 166 176
0.127595 -0.433167 -0.575 164 164 174
0.14268 -0.432413 -0.574 206 209 218
0.151427 -0.432413 -0.574 215 219 231
0.155529 -0.43166 -0.573 176 188 210
0.159894 -0.43166 -0.573 160 180 207
0.234792 -0.430907 -0.572 228 231 250
0.243509 -0.430907 -0.572 215 221 237
0.27122 -0.43166 -0.573 223 231 250
0.288179 -0.430907 -0.572 171 194 225
0.311059 -0.430907 -0.572 101 114 148
0.321954 -0.430907 -0.572 90 120 172
0.33998 -0.43166 -0.573 208 213 233
0.350894 -0.43166 -0.573 151 179 216
0.363991 -0.43166 -0.573 211 209 220
0.377747 -0.432413 -0.574 195 202 221
0.384729 -0.43166 -0.573 148 160 184
0.396333 -0.432413 -0.574 183 195 211
0.410923 -0.43166 -0.573 111 134 168
0.453976 -0.433167 -0.575 173 175 190
0.461933 -0.432413 -0.574 127 135 154
0.470747 -0.382693 -0.508 166 125 105
0.470017 -0.37516 -0.498 171 126 103
0.475494 -0.36838 -0.489 174 128 104
0.480099 -0.367627 -0.488 167 122 99
0.481898 -0.366873 -0.487 165 120 97
0.519609 -0.37742 -0.501 151 111 86
-0.0402114 -0.342878 -0.454 189 154 122
-0.0322857 -0.341368 -0.452 194 160 125
-0.0160333 -0.343633 -0.455 191 150 122
-0.00828762 -0.345899 -0.458 188 144 117
0.0121371 -0.356472 -0.472 152 115 99
0.0139648 -0.357228 -0.473 148 112 98
0.02162 -0.36478 -0.483 134 105 97
0.04884 -0.391213 -0.518 128 103 98
0.0511076 -0.393479 -0.521 127 102 97
0.0522 -0.394234 -0.522 125 102 96
0.0680629 -0.418402 -0.554 170 170 178
0.0850286 -0.435017 -0.576 131 138 167
0.0914524 -0.434262 -0.575 139 151 177
0.1066 -0.433507 -0.574 191 193 214
0.110973 -0.433507 -0.574 162 175 191
0.116643 -0.434262 -0.575 193 193 205
0.117738 -0.434262 -0.575 200 200 212
0.15662 -0.432751 -0.573 152 171 201
0.165063 -0.431996 -0.572 157 176 209
0.178137 -0.431996 -0.572 213 219 235
0.208644 -0.431996 -0.572 222 227 247
0.251784 -0.431241 -0.571 190 207 227
0.267478 -0.431996 -0.572 129 145 194
0.2855 -0.431241 -0.571 143 168 199
0.294201 -0.431241 -0.571 139 163 199
0.33285 -0.431996 -0.572 121 136 159
0.35573 -0.431996 -0.572 136 162 197
0.364446 -0.431996 -0.572 204 207 222
0.379271 -0.432751 -0.573 198 200 215
0.392369 -0.432751 -0.573 191 201 213
0.400009 -0.432751 -0.573 119 121 144
0.402191 -0.432751 -0.573 173 180 206
0.403283 -0.432751 -0.573 183 192 209
0.415653 -0.431996 -0.572 122 152 190
0.432751 -0.432751 -0.573 64 80 105
0.437117 -0.432751 -0.573 166 167 169
0.46084 -0.433507 -0.574 167 168 172
0.46412 -0.433507 -0.574 81 98 128
0.476147 -0.433507 -0.574 138 154 180
0.47724 -0.433507 -0.574 115 131 157
0.486833 -0.434262 -0.575 122 146 194
0.470852 -0.381395 -0.505 167 125 103
0.476426 -0.369311 -0.489 177 131 105
0.486606 -0.368556 -0.488 164 119 96
0.489394 -0.368556 -0.488 160 115 92
0.491329 -0.369311 -0.489 157 112 89
0.499885 -0.370822 -0.491 156 112 87
0.505677 -0.372332 -0.493 155 113 88
-0.0117257 -0.345257 -0.456 187 146 118
-0.00998857 -0.345257 -0.456 187 145 120
-0.00741524 -0.346771 -0.458 184 140 115
0.0187038 -0.362671 -0.479 140 110 100
0.0400771 -0.383871 -0.507 132 107 100
0.0891067 -0.4346 -0.574 149 156 174
0.109689 -0.433843 -0.573 183 192 209
0.127151 -0.433843 -0.573 195 199 211
0.163687 -0.432329 -0.571 167 186 218
0.19448 -0.433086 -0.572 131 153 192
0.197749 -0.433086 -0.572 218 223 242
0.200666 -0.432329 -0.571 191 203 229
0.204286 -0.433086 -0.572 131 142 172
0.208644 -0.433086 -0.572 223 228 247
0.213717 -0.432329 -0.571 229 232 249
0.277887 -0.432329 -0.571 229 231 246
0.324654 -0.432329 -0.571 209 214 233
0.361177 -0.433086 -0.572 202 208 220
0.388415 -0.433086 -0.572 195 200 219
0.416743 -0.433086 -0.572 100 133 176
0.42328 -0.433086 -0.572 175 188 205
0.494733 -0.4346 -0.574 43 57 94
0.490233 -0.4081 -0.539 143 110 105
0.477831 -0.394471 -0.521 148 112 98
0.469968 -0.380086 -0.502 171 126 105
0.488465 -0.369486 -0.488 165 120 97
0.525681 -0.382357 -0.505 147 107 82
-0.0409857 -0.343849 -0.453 191 156 124
-0.0373686 -0.34233 -0.451 193 157 123
-0.0304962 -0.34233 -0.451 194 158 124
-0.00826952 -0.346885 -0.457 185 141 116
0.00132286 -0.351439 -0.463 170 127 108
0.02162 -0.36662 -0.483 133 105 94
0.0837857 -0.436452 -0.575 159 161 182
0.10004 -0.435693 -0.574 106 128 167
0.138914 -0.434175 -0.572 215 217 230
0.146541 -0.434175 -0.572 213 217 229
0.153078 -0.434175 -0.572 215 217 229
0.154168 -0.434175 -0.572 169 185 210
0.157161 -0.433416 -0.571 144 168 202
0.159336 -0.433416 -0.571 167 190 222
0.17565 -0.433416 -0.571 220 224 236
0.178913 -0.433416 -0.571 216 219 234
0.185439 -0.433416 -0.571 188 199 231
0.261572 -0.433416 -0.571 205 217 239
0.272449 -0.433416 -0.571 229 231 252
0.283325 -0.433416 -0.571 151 170 200
0.293686 -0.432657 -0.57 139 157 193
0.30399 -0.433416 -0.571 227 231 242
0.306165 -0.433416 -0.571 217 223 237
0.30834 -0.433416 -0.571 166 172 194
0.324654 -0.433416 -0.571 213 214 232
0.346407 -0.433416 -0.571 156 172 187
0.405138 -0.433416 -0.571 191 198 217
0.410576 -0.433416 -0.571 114 143 185
0.413839 -0.433416 -0.571 97 124 177
0.41819 -0.433416 -0.571 114 148 194
0.419277 -0.433416 -0.571 153 169 195
0.427978 -0.433416 -0.571 101 115 141
0.460037 -0.434934 -0.573 176 175 181
0.461129 -0.434934 -0.573 177 175 188
0.496054 -0.434934 -0.573 136 150 176
0.475211 -0.391669 -0.516 156 118 105
0.47281 -0.37421 -0.493 175 133 111
-0.0364286 -0.342429 -0.45 193 157 123
-0.0338571 -0.342429 -0.45 195 159 125
-0.0313552 -0.34319 -0.451 194 158 124
-0.0125667 -0.346233 -0.455 186 145 117
-0.00739905 -0.347755 -0.457 181 137 112
0.0522 -0.397217 -0.522 125 101 99
0.0652381 -0.417002 -0.548 150 144 154
0.0944086 -0.436026 -0.573 116 138 175
0.112963 -0.436026 -0.573 157 164 183
0.128019 -0.435265 -0.572 123 142 172
0.140847 -0.434504 -0.571 157 161 186
0.141934 -0.434504 -0.571 203 207 232
0.165571 -0.433743 -0.57 139 164 194
0.175343 -0.433743 -0.57 222 226 238
0.177514 -0.433743 -0.57 218 224 238
0.232886 -0.433743 -0.57 224 226 247
0.233971 -0.433743 -0.57 224 226 247
0.275229 -0.433743 -0.57 230 235 254
0.298029 -0.433743 -0.57 223 227 239
0.3306 -0.433743 -0.57 211 212 230
0.332268 -0.434504 -0.571 209 217 230
0.333355 -0.434504 -0.571 196 204 217
0.342543 -0.433743 -0.57 209 210 231
0.361 -0.433743 -0.57 203 209 225
0.382298 -0.434504 -0.571 173 184 190
0.387736 -0.434504 -0.571 196 205 212
0.409857 -0.433743 -0.57 125 158 203
0.421452 -0.434504 -0.571 149 161 185
0.438533 -0.435265 -0.572 132 134 129
0.48514 -0.436026 -0.573 77 110 164
0.490597 -0.436026 -0.573 96 118 159
0.507765 -0.432982 -0.569 107 109 124
0.47094 -0.381237 -0.501 173 127 103
0.470957 -0.376671 -0.495 179 128 107
0.496917 -0.372106 -0.489 164 118 94
0.00132286 -0.353203 -0.463 168 126 104
0.00487143 -0.354729 -0.465 165 124 104
0.00665714 -0.355491 -0.466 159 121 100
0.00938 -0.35778 -0.469 155 116 99
0.0275333 -0.3738 -0.49 130 103 96
0.0327257 -0.379903 -0.498 127 102 95
0.0421743 -0.388294 -0.509 131 106 101
0.0510095 -0.396686 -0.52 125 101 97
