ply
format ascii 1.0
comment Created by Open3D
element vertex 1321
property double x
property double y
property double z
property uchar red
property uchar green
property uchar blue
end_header
0.309317 -0.16985 -0.523 100 69 77
0.316073 -0.169201 -0.521 107 74 81
0.337282 -0.166928 -0.514 121 91 93
0.344747 -0.166278 -0.512 118 88 90
0.484108 -0.208172 -0.641 119 126 155
0.411282 -0.170825 -0.526 187 143 130
0.4215 -0.1705 -0.525 153 103 92
0.426117 -0.17115 -0.527 144 95 88
0.448523 -0.174397 -0.537 150 102 98
0.449546 -0.174397 -0.537 151 103 99
-0.160555 -0.209393 -0.641 179 179 171
-0.155429 -0.209067 -0.64 182 182 174
0.178527 -0.143407 -0.439 168 120 108
0.179363 -0.143407 -0.439 168 120 108
0.182286 -0.143733 -0.44 160 112 98
0.186482 -0.144387 -0.442 158 108 99
0.195376 -0.145367 -0.445 145 97 87
0.209571 -0.147 -0.45 139 92 84
0.218734 -0.14798 -0.453 139 92 82
0.223167 -0.148633 -0.455 138 91 81
0.250915 -0.154513 -0.473 105 67 66
0.281093 -0.165947 -0.508 64 37 46
0.3045 -0.1715 -0.525 90 59 67
0.310714 -0.17052 -0.522 100 69 77
0.325107 -0.169213 -0.518 117 88 93
0.353807 -0.166927 -0.511 127 97 97
0.4175 -0.1715 -0.525 172 114 100
0.4185 -0.1715 -0.525 167 110 99
0.428742 -0.172807 -0.529 133 84 77
0.445646 -0.175093 -0.536 148 99 94
0.446667 -0.175093 -0.536 149 100 95
0.457016 -0.176727 -0.541 150 102 98
0.142463 -0.153114 -0.466 192 144 134
0.148714 -0.147857 -0.45 189 142 132
0.164121 -0.145557 -0.443 184 136 126
0.16842 -0.1449 -0.441 181 131 122
0.176018 -0.144243 -0.439 171 123 113
0.187748 -0.145557 -0.443 156 106 97
0.190709 -0.145886 -0.444 150 102 92
0.207857 -0.147857 -0.45 144 97 89
0.218734 -0.148843 -0.453 141 94 86
0.226759 -0.150157 -0.457 135 91 82
0.249486 -0.155086 -0.472 106 66 64
0.311709 -0.171514 -0.522 102 71 76
0.341511 -0.168557 -0.513 120 89 94
0.411954 -0.176114 -0.536 129 102 107
0.410605 -0.173814 -0.529 187 141 128
0.4135 -0.1725 -0.525 180 127 111
0.4145 -0.1725 -0.525 174 121 105
0.46332 -0.1794 -0.546 141 93 91
-0.161524 -0.211505 -0.64 181 181 173
-0.152246 -0.212166 -0.642 185 185 175
-0.145252 -0.214479 -0.649 187 187 177
0.1419 -0.156315 -0.473 192 143 136
0.217871 -0.149706 -0.453 141 94 86
0.230374 -0.151689 -0.459 135 92 85
0.234012 -0.15235 -0.461 132 89 82
0.238187 -0.153341 -0.464 125 85 77
0.243806 -0.154663 -0.468 113 72 68
0.251446 -0.156646 -0.474 102 63 64
0.307912 -0.17317 -0.524 95 66 70
0.319803 -0.171517 -0.519 143 114 118
0.3268 -0.170526 -0.516 116 87 89
0.333033 -0.170195 -0.515 121 90 95
0.347672 -0.169204 -0.512 179 152 159
0.349623 -0.169204 -0.512 174 153 160
0.349913 -0.168873 -0.511 173 152 157
0.355753 -0.168873 -0.511 123 92 97
0.471748 -0.20853 -0.631 102 108 132
0.411282 -0.17383 -0.526 184 138 125
0.444625 -0.177135 -0.536 138 95 86
0.445646 -0.177135 -0.536 145 100 95
0.469662 -0.182092 -0.551 137 92 89
-0.160054 -0.212391 -0.639 183 180 171
0.159776 -0.14791 -0.445 186 138 126
0.197514 -0.148242 -0.446 150 100 91
0.203974 -0.149239 -0.449 147 99 89
0.205685 -0.149239 -0.449 145 97 87
0.253946 -0.158546 -0.477 97 61 61
0.255923 -0.15921 -0.479 95 59 63
0.26298 -0.16187 -0.487 89 54 60
0.307325 -0.173835 -0.523 94 65 69
0.308321 -0.173835 -0.523 97 68 72
0.311111 -0.17317 -0.521 101 72 74
0.352833 -0.169847 -0.511 136 114 116
0.482417 -0.213389 -0.642 114 121 147
0.411954 -0.178156 -0.536 137 108 110
0.430562 -0.176162 -0.53 129 79 78
0.432386 -0.176494 -0.531 129 79 78
0.456829 -0.18015 -0.542 142 98 95
-0.15762 -0.213609 -0.639 182 182 172
-0.1505 -0.215614 -0.645 186 186 174
0.148714 -0.150429 -0.45 196 147 133
0.162067 -0.147754 -0.442 193 143 132
0.1672 -0.147086 -0.44 187 137 126
0.173067 -0.147086 -0.44 176 126 117
0.17769 -0.146751 -0.439 169 119 110
0.186482 -0.147754 -0.442 158 106 95
0.20654 -0.150094 -0.449 144 96 86
0.23452 -0.15444 -0.462 126 86 78
0.241506 -0.156111 -0.467 114 77 69
0.248212 -0.158117 -0.473 102 67 65
0.26406 -0.163466 -0.489 85 53 58
0.282331 -0.171154 -0.512 64 37 44
0.284967 -0.172157 -0.515 64 37 44
0.302922 -0.175166 -0.524 89 58 64
0.321525 -0.172826 -0.517 115 85 87
0.325464 -0.172826 -0.517 117 87 89
0.327148 -0.172157 -0.515 118 88 90
0.328129 -0.172157 -0.515 117 87 89
0.331408 -0.171823 -0.514 119 89 89
0.332387 -0.171823 -0.514 120 90 90
0.346697 -0.171154 -0.512 113 90 96
0.371081 -0.174831 -0.523 44 38 48
0.411434 -0.178509 -0.534 157 127 125
0.410371 -0.177171 -0.53 180 140 132
0.4145 -0.1755 -0.525 173 119 107
0.4185 -0.1755 -0.525 159 103 90
0.43706 -0.178174 -0.533 127 82 79
0.442776 -0.178843 -0.535 131 88 81
0.466911 -0.183523 -0.549 134 90 87
-0.290333 -0.218524 -0.65 250 252 247
-0.147725 -0.218188 -0.649 187 189 176
-0.146714 -0.218524 -0.65 189 189 177
0.142381 -0.154648 -0.46 194 146 136
0.150094 -0.15095 -0.449 195 145 134
0.16674 -0.14826 -0.441 187 137 126
0.205685 -0.15095 -0.449 146 96 87
0.208714 -0.151286 -0.45 143 95 85
0.212614 -0.151622 -0.451 145 97 87
0.245369 -0.158346 -0.471 104 69 63
0.312495 -0.174819 -0.52 103 74 76
0.32251 -0.17381 -0.517 109 80 82
0.328129 -0.173138 -0.515 118 88 90
0.342796 -0.17213 -0.512 122 92 92
0.352833 -0.171793 -0.511 119 93 96
0.411954 -0.180198 -0.536 147 114 109
0.428742 -0.177845 -0.529 128 79 75
0.441757 -0.179862 -0.535 126 81 76
-0.161019 -0.215705 -0.638 182 182 174
0.16159 -0.149776 -0.443 188 138 127
0.191554 -0.150114 -0.444 155 103 89
0.250167 -0.160595 -0.475 96 62 61
0.27504 -0.1704 -0.504 62 35 44
0.281356 -0.173105 -0.512 66 36 46
0.292941 -0.177162 -0.524 73 46 53
0.299069 -0.177838 -0.526 79 52 57
0.302922 -0.177162 -0.524 88 59 63
0.334019 -0.173105 -0.512 120 90 92
0.352833 -0.172767 -0.511 120 89 94
0.355474 -0.173105 -0.512 115 89 92
0.367677 -0.176148 -0.521 50 40 48
0.41028 -0.177838 -0.526 183 130 122
0.4165 -0.1775 -0.525 163 110 96
0.4175 -0.1775 -0.525 156 103 89
-0.286178 -0.22066 -0.649 252 253 248
-0.156403 -0.21726 -0.639 183 183 175
0.147327 -0.15334 -0.451 195 147 135
0.156237 -0.15198 -0.447 190 142 132
0.158929 -0.1513 -0.445 194 144 135
0.159776 -0.1513 -0.445 194 144 135
0.160263 -0.15096 -0.444 193 143 134
0.161109 -0.15096 -0.444 190 140 131
0.17139 -0.1496 -0.44 182 134 122
0.198364 -0.15164 -0.446 150 98 87
0.215283 -0.15402 -0.453 139 92 82
0.222789 -0.15504 -0.456 130 87 81
0.241647 -0.15946 -0.469 110 73 67
0.297065 -0.17884 -0.526 76 49 54
0.299069 -0.17884 -0.526 78 53 56
0.317213 -0.17612 -0.518 104 79 83
0.319555 -0.17578 -0.517 108 82 85
0.327491 -0.17476 -0.514 117 87 87
0.3431 -0.17374 -0.511 128 97 103
0.345047 -0.17374 -0.511 162 146 146
0.362183 -0.17544 -0.516 50 39 43
0.415533 -0.18428 -0.542 125 112 129
0.4185 -0.1785 -0.525 151 99 85
0.466911 -0.18666 -0.549 131 90 88
-0.284942 -0.221896 -0.649 251 252 247
0.142323 -0.15625 -0.457 195 149 136
0.160263 -0.151806 -0.444 192 144 134
0.172673 -0.150096 -0.439 180 132 120
0.18438 -0.15078 -0.441 164 107 96
0.191986 -0.152148 -0.445 153 99 89
0.196224 -0.152148 -0.445 152 100 87
0.204373 -0.153173 -0.448 146 96 85
0.208714 -0.153857 -0.45 145 95 86
0.272578 -0.171978 -0.503 69 40 45
0.30007 -0.179842 -0.526 77 55 57
0.319187 -0.177107 -0.518 109 83 84
0.326512 -0.175739 -0.514 117 88 92
0.345047 -0.174713 -0.511 223 202 209
0.4699 -0.21711 -0.635 75 76 106
0.474077 -0.218477 -0.639 77 78 108
0.411434 -0.182577 -0.534 182 138 129
0.410371 -0.18121 -0.53 183 135 125
0.4195 -0.1795 -0.525 146 93 77
0.426926 -0.180526 -0.528 130 82 78
0.46332 -0.18668 -0.546 133 92 88
-0.315847 -0.223132 -0.649 252 253 245
-0.309733 -0.221413 -0.644 243 244 238
-0.29992 -0.221413 -0.644 143 144 139
-0.284503 -0.222789 -0.648 248 249 244
-0.16198 -0.219007 -0.637 183 183 175
-0.147952 -0.223476 -0.65 187 187 177
0.153173 -0.154027 -0.448 190 140 129
0.160263 -0.152651 -0.444 191 143 131
0.174346 -0.150932 -0.439 177 127 116
0.180199 -0.150932 -0.439 163 111 100
0.181448 -0.151276 -0.44 162 110 99
0.196224 -0.152995 -0.445 151 99 88
0.210896 -0.155058 -0.451 142 94 84
0.218352 -0.15609 -0.454 135 90 84
0.219217 -0.15609 -0.454 135 90 84
0.220567 -0.156433 -0.455 132 87 81
0.221433 -0.156433 -0.455 129 84 78
0.225018 -0.157121 -0.457 124 81 74
0.249926 -0.164341 -0.478 94 63 60
0.279951 -0.176374 -0.513 65 38 45
0.2995 -0.1805 -0.525 80 55 58
0.30334 -0.179812 -0.523 89 63 64
0.304336 -0.179812 -0.523 90 64 65
0.306737 -0.179469 -0.522 96 70 71
0.313486 -0.178781 -0.52 105 76 78
0.323851 -0.177406 -0.516 116 87 89
0.326512 -0.176718 -0.514 115 86 90
0.327831 -0.176374 -0.513 118 89 91
0.345047 -0.175687 -0.511 197 178 184
0.47827 -0.22107 -0.643 77 78 108
0.411186 -0.183938 -0.535 172 125 117
0.410907 -0.182907 -0.532 186 138 128
0.440931 -0.183594 -0.534 133 88 85
0.473274 -0.19047 -0.554 133 92 88
-0.299454 -0.222294 -0.643 145 146 140
-0.287316 -0.223331 -0.646 130 129 125
-0.283269 -0.224023 -0.648 239 238 234
-0.159553 -0.22022 -0.637 184 184 176
0.16422 -0.15246 -0.441 189 139 130
0.171837 -0.151769 -0.439 184 134 123
0.189863 -0.153497 -0.444 156 104 93
0.198364 -0.154189 -0.446 146 96 85
0.201363 -0.154534 -0.447 144 94 87
0.202214 -0.154534 -0.447 144 94 87
0.258872 -0.168709 -0.488 86 60 61
0.289947 -0.181154 -0.524 70 43 50
0.296063 -0.181846 -0.526 77 50 55
0.3015 -0.1815 -0.525 84 59 62
0.301924 -0.181154 -0.524 86 61 64
0.30334 -0.180809 -0.523 89 63 64
0.321886 -0.178389 -0.516 114 85 87
0.353524 -0.177006 -0.512 115 90 94
0.410056 -0.182191 -0.527 183 133 124
0.411282 -0.181846 -0.526 176 126 115
0.413286 -0.181846 -0.526 161 111 100
0.421301 -0.181846 -0.526 141 92 87
0.480533 -0.1936 -0.56 131 90 88
-0.307549 -0.223171 -0.642 152 153 147
-0.29624 -0.223867 -0.644 139 138 134
-0.282034 -0.225257 -0.648 228 224 223
-0.15762 -0.222129 -0.639 185 185 175
-0.156648 -0.222476 -0.64 185 185 175
-0.155671 -0.222824 -0.641 184 184 174
-0.0488295 -0.225605 -0.649 70 68 73
-0.0449819 -0.22491 -0.647 72 69 76
0.16159 -0.153995 -0.443 192 142 131
0.16254 -0.1533 -0.441 192 142 131
0.171001 -0.152605 -0.439 181 133 121
0.171837 -0.152605 -0.439 181 133 121
0.178527 -0.152605 -0.439 166 114 103
0.18354 -0.1533 -0.441 160 106 96
0.212225 -0.157124 -0.452 140 90 83
0.216623 -0.157819 -0.454 134 85 78
0.218833 -0.158167 -0.455 134 86 82
0.259933 -0.170333 -0.49 82 57 60
0.26554 -0.172767 -0.497 76 51 57
0.286302 -0.18111 -0.521 68 41 48
0.304749 -0.181457 -0.522 91 65 66
0.31857 -0.179719 -0.517 112 83 87
0.327831 -0.178329 -0.513 116 87 89
0.329143 -0.177981 -0.512 117 88 90
0.333367 -0.177633 -0.511 121 92 94
0.338233 -0.177633 -0.511 122 93 97
0.468217 -0.221086 -0.636 82 84 107
0.412723 -0.186671 -0.537 175 127 117
0.410907 -0.184933 -0.532 183 135 125
0.41529 -0.182848 -0.526 158 106 93
0.418295 -0.182848 -0.526 149 97 84
0.42592 -0.183543 -0.528 134 86 82
0.431571 -0.184238 -0.53 129 84 79
-0.307549 -0.224394 -0.642 153 154 149
-0.153947 -0.225093 -0.644 185 185 175
-0.153194 -0.225792 -0.646 186 186 176
0.158571 -0.155189 -0.444 191 142 128
0.159058 -0.154839 -0.443 192 143 129
0.162067 -0.15449 -0.442 191 141 130
0.167656 -0.153441 -0.439 184 134 125
0.18061 -0.15379 -0.44 163 109 99
0.217967 -0.159033 -0.455 133 85 75
0.238073 -0.163927 -0.469 100 69 64
0.272814 -0.177209 -0.507 64 34 42
0.278539 -0.179655 -0.514 66 35 43
0.294059 -0.18385 -0.526 77 50 57
0.31857 -0.180704 -0.517 111 82 84
0.327831 -0.179306 -0.513 116 87 89
0.344371 -0.178257 -0.51 214 191 197
0.361613 -0.181053 -0.518 54 44 55
0.410371 -0.185248 -0.53 182 134 124
0.420299 -0.18385 -0.526 149 95 83
0.428742 -0.184898 -0.529 133 85 81
0.441121 -0.186296 -0.533 142 101 97
0.466061 -0.191539 -0.548 132 88 85
0.47242 -0.193287 -0.553 135 91 88
-0.316848 -0.227023 -0.646 249 250 242
-0.311217 -0.225617 -0.642 164 167 160
-0.30707 -0.225266 -0.641 159 160 155
-0.306326 -0.225617 -0.642 154 155 150
-0.305103 -0.225617 -0.642 155 154 150
-0.153194 -0.227023 -0.646 186 186 176
-0.0485286 -0.226671 -0.645 71 68 77
0.14475 -0.158494 -0.451 192 144 132
0.162067 -0.155331 -0.442 190 140 129
0.176854 -0.154277 -0.439 168 116 105
0.195815 -0.156737 -0.446 147 95 84
0.198364 -0.156737 -0.446 141 91 80
0.2955 -0.1845 -0.525 79 52 59
0.316227 -0.18204 -0.518 108 79 81
0.323575 -0.180634 -0.514 114 85 87
0.33434 -0.17958 -0.511 118 89 93
0.339207 -0.17958 -0.511 123 96 101
0.339514 -0.179229 -0.51 161 136 142
0.481 -0.228429 -0.65 95 92 121
0.410056 -0.185203 -0.527 180 132 122
0.412284 -0.184851 -0.526 167 115 104
0.421301 -0.184851 -0.526 141 93 89
0.431571 -0.186257 -0.53 124 80 77
0.441121 -0.187311 -0.533 144 103 99
0.458706 -0.190826 -0.543 126 82 79
-0.278761 -0.229313 -0.649 240 239 235
-0.157867 -0.226133 -0.64 185 185 175
-0.152199 -0.228607 -0.647 186 186 174
0.153173 -0.158293 -0.448 188 140 126
0.176018 -0.155113 -0.439 168 116 105
0.20352 -0.158293 -0.448 136 88 78
0.225619 -0.162533 -0.46 108 73 67
0.248746 -0.169953 -0.481 97 63 61
0.2905 -0.1855 -0.525 73 43 51
0.2945 -0.1855 -0.525 79 52 59
0.316601 -0.182673 -0.517 107 78 80
0.31857 -0.182673 -0.517 109 81 80
0.330447 -0.180553 -0.511 117 88 92
0.332393 -0.180553 -0.511 118 89 93
0.365104 -0.184793 -0.523 49 45 59
0.45947 -0.222247 -0.629 80 81 109
0.468474 -0.225427 -0.638 82 86 111
0.410664 -0.188327 -0.533 182 133 126
0.425113 -0.186207 -0.527 134 89 84
0.448709 -0.189387 -0.536 138 94 91
0.46521 -0.193273 -0.547 136 92 91
-0.30707 -0.227708 -0.641 151 150 146
-0.276714 -0.230905 -0.65 252 251 247
-0.169102 -0.227708 -0.641 182 184 173
-0.159553 -0.226287 -0.637 184 184 174
0.141851 -0.16483 -0.464 194 146 132
0.14389 -0.160212 -0.451 188 140 130
0.145609 -0.160212 -0.451 189 141 131
0.147 -0.159857 -0.45 188 142 126
0.154027 -0.159147 -0.448 191 141 130
0.1672 -0.156305 -0.44 183 131 118
0.17769 -0.15595 -0.439 165 111 101
0.185216 -0.15737 -0.443 156 102 92
0.215367 -0.161633 -0.455 125 80 74
0.220666 -0.162344 -0.457 116 81 75
0.242024 -0.168738 -0.475 99 65 63
0.272486 -0.181171 -0.51 62 35 40
0.2915 -0.1865 -0.525 76 46 54
0.31992 -0.183303 -0.516 110 82 81
0.336287 -0.181527 -0.511 118 92 95
0.349913 -0.181527 -0.511 110 81 85
0.4195 -0.1865 -0.525 150 94 81
0.426926 -0.187566 -0.528 132 89 83
0.427931 -0.187566 -0.528 129 86 80
0.436431 -0.188631 -0.531 126 85 81
0.455986 -0.192184 -0.541 130 86 85
0.462471 -0.193605 -0.545 132 88 87
-0.314886 -0.229286 -0.642 234 235 227
-0.277525 -0.231786 -0.649 251 250 246
-0.167619 -0.228571 -0.64 185 185 175
-0.156157 -0.229643 -0.643 186 186 176
-0.0562467 -0.231786 -0.649 68 66 77
-0.0483029 -0.229286 -0.642 69 68 76
0.142183 -0.167143 -0.468 191 144 124
0.155888 -0.159286 -0.446 192 142 131
0.169329 -0.156786 -0.439 180 128 117
0.175182 -0.156786 -0.439 171 117 107
0.176018 -0.156786 -0.439 169 115 105
0.194116 -0.159286 -0.446 144 94 85
0.195815 -0.159286 -0.446 142 94 82
0.19966 -0.159643 -0.447 138 90 80
0.201813 -0.16 -0.448 137 89 77
0.220276 -0.163571 -0.458 120 76 67
0.234 -0.167143 -0.468 100 69 66
0.251331 -0.173571 -0.486 91 59 60
0.2855 -0.1875 -0.525 62 40 52
0.2905 -0.1875 -0.525 73 46 55
0.292941 -0.187143 -0.524 78 51 58
0.298359 -0.186786 -0.523 88 59 63
0.30276 -0.186429 -0.522 92 63 65
0.320281 -0.183929 -0.515 112 82 82
0.321617 -0.183571 -0.514 114 84 86
0.4346 -0.189286 -0.53 119 76 70
-0.161726 -0.228354 -0.636 185 187 176
-0.0482276 -0.23015 -0.641 70 69 77
0.140833 -0.163367 -0.455 193 145 131
0.145286 -0.161571 -0.45 192 142 135
0.164686 -0.157981 -0.44 182 133 119
0.170165 -0.157622 -0.439 179 127 114
0.203974 -0.161212 -0.449 137 89 77
0.206143 -0.161571 -0.45 134 86 76
0.299777 -0.187423 -0.522 89 60 64
0.305562 -0.186705 -0.52 97 68 70
0.309524 -0.186705 -0.52 99 73 74
0.321617 -0.18455 -0.514 113 83 85
0.409597 -0.189936 -0.529 178 129 124
0.410056 -0.189218 -0.527 179 128 125
0.412064 -0.189218 -0.527 171 121 114
0.4185 -0.1885 -0.525 149 96 88
0.461623 -0.195322 -0.544 137 93 92
0.470711 -0.197835 -0.551 135 94 90
0.477959 -0.19999 -0.557 127 86 82
-0.320773 -0.232453 -0.644 250 251 245
-0.317826 -0.232092 -0.643 253 254 248
-0.161471 -0.229205 -0.635 185 187 176
-0.0518905 -0.23137 -0.641 70 67 78
0.141197 -0.165677 -0.459 192 144 134
0.152831 -0.161346 -0.447 190 140 129
0.159541 -0.159541 -0.442 194 146 132
0.161225 -0.159541 -0.442 193 144 130
0.164686 -0.158819 -0.44 182 133 119
0.203974 -0.162068 -0.449 136 88 78
0.205286 -0.162429 -0.45 135 87 77
0.221238 -0.166038 -0.46 110 72 69
0.24702 -0.17434 -0.483 99 64 58
0.279891 -0.188417 -0.522 68 42 51
0.2958 -0.188417 -0.522 87 58 63
0.296794 -0.188417 -0.522 89 58 64
0.31228 -0.186973 -0.518 102 76 77
0.321617 -0.18553 -0.514 113 83 85
0.322946 -0.185169 -0.513 113 83 85
0.323923 -0.185169 -0.513 114 84 86
0.351283 -0.185169 -0.513 81 64 72
0.362808 -0.189139 -0.524 56 50 60
0.412284 -0.189861 -0.526 166 116 105
0.436619 -0.191305 -0.53 143 99 96
0.447871 -0.19311 -0.535 135 92 86
0.148384 -0.162923 -0.449 193 145 135
0.15469 -0.161471 -0.445 192 142 131
0.155538 -0.161471 -0.445 193 143 132
0.159058 -0.160746 -0.443 195 147 135
0.159541 -0.160383 -0.442 194 146 134
0.160383 -0.160383 -0.442 195 145 134
0.168492 -0.159294 -0.439 176 124 110
0.183114 -0.160383 -0.442 158 103 96
0.197106 -0.162197 -0.447 134 87 77
0.200107 -0.16256 -0.448 133 89 80
0.205286 -0.163286 -0.45 133 86 76
0.212299 -0.164737 -0.454 121 80 74
0.229942 -0.169454 -0.467 103 69 67
0.240317 -0.173083 -0.477 96 66 66
0.290945 -0.190137 -0.524 77 52 56
0.297789 -0.189411 -0.522 88 59 64
0.316971 -0.187234 -0.516 107 78 80
0.322596 -0.186509 -0.514 111 82 84
0.330447 -0.18542 -0.511 117 85 88
0.332393 -0.18542 -0.511 114 85 89
0.4117 -0.194854 -0.537 176 127 123
0.43378 -0.191951 -0.529 130 87 81
0.436619 -0.192314 -0.53 143 99 96
-0.0517286 -0.233083 -0.639 69 68 76
0.147529 -0.163778 -0.449 194 146 136
0.14976 -0.163413 -0.448 194 146 136
0.15469 -0.162319 -0.445 192 142 131
0.158214 -0.16159 -0.443 194 146 136
0.16086 -0.16086 -0.441 194 144 133
0.163848 -0.160495 -0.44 184 134 123
0.189869 -0.162684 -0.446 144 94 85
0.1984 -0.163413 -0.448 133 86 78
0.199253 -0.163413 -0.448 133 86 78
0.205286 -0.164143 -0.45 133 86 76
0.20792 -0.164872 -0.452 128 84 75
0.209243 -0.165237 -0.453 126 83 76
0.215443 -0.166696 -0.457 115 76 71
0.221238 -0.16779 -0.46 107 69 66
0.24518 -0.17618 -0.483 95 65 67
0.278968 -0.191135 -0.524 64 38 47
0.28721 -0.193324 -0.53 73 46 53
0.289143 -0.192594 -0.528 71 49 52
0.2958 -0.190406 -0.522 84 57 62
0.299619 -0.189676 -0.52 90 61 66
0.3016 -0.189676 -0.52 91 65 68
0.310307 -0.188947 -0.518 101 75 76
0.314023 -0.188217 -0.516 106 77 79
0.316971 -0.188217 -0.516 107 78 80
0.317954 -0.188217 -0.516 107 78 80
0.321617 -0.187488 -0.514 110 81 83
0.33142 -0.186393 -0.511 116 85 90
0.344666 -0.185664 -0.509 115 92 98
0.426926 -0.192594 -0.528 138 94 85
0.429943 -0.192594 -0.528 125 82 75
0.438638 -0.193324 -0.53 140 99 93
-0.312686 -0.234667 -0.64 144 146 141
-0.310248 -0.234667 -0.64 133 134 129
-0.0552933 -0.233933 -0.638 68 66 79
-0.0481524 -0.234667 -0.64 69 69 79
-0.0425829 -0.2376 -0.648 73 71 82
0.162171 -0.161333 -0.44 192 142 131
0.1937 -0.1639 -0.447 139 90 83
0.196693 -0.164267 -0.448 136 89 81
0.199698 -0.164633 -0.449 132 85 77
0.219486 -0.168667 -0.46 107 72 68
0.221719 -0.169033 -0.461 105 70 66
0.2263 -0.1705 -0.465 101 70 68
0.280565 -0.193233 -0.527 63 43 54
0.3016 -0.190667 -0.52 94 65 69
0.31228 -0.189933 -0.518 102 76 77
0.334657 -0.187 -0.51 131 102 107
0.341086 -0.186267 -0.508 117 100 106
0.409649 -0.195433 -0.533 186 136 127
0.408823 -0.1936 -0.528 181 130 126
0.4125 -0.1925 -0.525 165 115 104
0.4155 -0.1925 -0.525 159 109 98
0.438638 -0.194333 -0.53 140 99 93
-0.164407 -0.23478 -0.637 185 185 173
-0.0539933 -0.23478 -0.637 69 67 81
0.142714 -0.165857 -0.45 193 147 134
0.153339 -0.164383 -0.446 194 146 132
0.178095 -0.162171 -0.44 158 105 97
0.185634 -0.163646 -0.444 150 100 93
0.198843 -0.165489 -0.449 131 86 80
0.199698 -0.165489 -0.449 129 84 78
0.202714 -0.165857 -0.45 128 85 78
0.224046 -0.171017 -0.464 98 72 71
0.227273 -0.172123 -0.467 98 70 67
0.290149 -0.194606 -0.528 73 50 58
0.312662 -0.190551 -0.517 102 76 77
0.3285 -0.18834 -0.511 116 87 91
0.332714 -0.187971 -0.51 130 103 108
0.425113 -0.194237 -0.527 139 95 86
-0.3215 -0.238216 -0.643 252 255 246
-0.159086 -0.237105 -0.64 188 188 178
-0.0539933 -0.235993 -0.637 68 68 80
0.140766 -0.167455 -0.452 189 141 127
0.14976 -0.165973 -0.448 194 147 131
0.1617 -0.16338 -0.441 188 138 127
0.16338 -0.16338 -0.441 187 137 126
0.172673 -0.162639 -0.439 167 115 104
0.184789 -0.164491 -0.444 151 98 90
0.185634 -0.164491 -0.444 148 99 92
0.191997 -0.165603 -0.447 136 89 81
0.192849 -0.165603 -0.447 135 88 80
0.20838 -0.167826 -0.453 119 80 73
0.2119 -0.168567 -0.455 111 73 70
0.217733 -0.170419 -0.46 107 73 71
0.229629 -0.174124 -0.47 96 68 64
0.232896 -0.175235 -0.473 95 67 64
0.285889 -0.198946 -0.537 56 44 64
0.290394 -0.197834 -0.534 66 43 53
0.29537 -0.193759 -0.523 87 60 67
0.299619 -0.192648 -0.52 90 63 68
0.310307 -0.191907 -0.518 99 74 77
0.331743 -0.188943 -0.51 114 88 91
0.338183 -0.188202 -0.508 111 88 94
0.340118 -0.188202 -0.508 120 94 103
0.470657 -0.239328 -0.646 99 100 121
0.410056 -0.195241 -0.527 176 127 123
0.4195 -0.1945 -0.525 138 88 81
0.427121 -0.195241 -0.527 129 85 76
0.433966 -0.195611 -0.528 147 104 97
0.4654 -0.20228 -0.546 141 100 96
0.471761 -0.204132 -0.551 140 99 95
0.141313 -0.167944 -0.451 190 142 130
0.150277 -0.166454 -0.447 191 145 130
0.159541 -0.164592 -0.442 193 146 128
0.164686 -0.163848 -0.44 186 134 123
0.183097 -0.165337 -0.444 151 98 90
0.186052 -0.16571 -0.445 148 98 87
0.199698 -0.167199 -0.449 129 86 79
0.20884 -0.169061 -0.454 122 79 73
0.215042 -0.17055 -0.458 106 74 75
0.228247 -0.174647 -0.469 99 69 69
0.2958 -0.194383 -0.522 88 61 68
0.299619 -0.193638 -0.52 90 63 68
0.302997 -0.193266 -0.519 96 67 72
0.312057 -0.192149 -0.516 102 76 79
0.325877 -0.191031 -0.513 112 83 87
0.341086 -0.18917 -0.508 115 89 98
0.4094 -0.198851 -0.534 184 136 126
0.408111 -0.197734 -0.531 183 133 126
0.4215 -0.1955 -0.525 137 92 86
0.4225 -0.1955 -0.525 139 95 86
0.431954 -0.196617 -0.528 144 99 93
-0.319777 -0.240291 -0.642 252 255 248
0.139659 -0.169926 -0.454 187 143 130
0.141313 -0.168803 -0.451 190 142 128
0.142397 -0.168054 -0.449 192 143 128
0.15164 -0.166931 -0.446 191 145 129
0.154343 -0.166183 -0.444 193 146 128
0.156034 -0.166183 -0.444 195 150 131
0.168492 -0.164311 -0.439 178 126 115
0.189019 -0.166931 -0.446 141 93 83
0.191146 -0.167306 -0.447 138 90 80
0.196277 -0.168054 -0.449 135 88 80
0.204476 -0.169177 -0.452 127 82 76
0.212366 -0.170674 -0.456 109 75 73
0.239086 -0.179657 -0.48 85 56 58
0.241 -0.180406 -0.482 86 57 59
0.252214 -0.185271 -0.495 119 115 140
0.292087 -0.20174 -0.539 64 33 49
0.29821 -0.195003 -0.521 91 62 67
0.305373 -0.19388 -0.518 98 72 75
0.308723 -0.193506 -0.517 100 73 78
0.315989 -0.193131 -0.516 106 77 79
0.31868 -0.192383 -0.514 109 80 82
0.326217 -0.191634 -0.512 114 85 87
0.329473 -0.19126 -0.511 110 84 85
0.467247 -0.240666 -0.643 80 78 100
0.428125 -0.197249 -0.527 134 89 83
0.43781 -0.197997 -0.529 145 100 95
0.452614 -0.200991 -0.537 133 89 86
0.460958 -0.202863 -0.542 137 93 90
0.470905 -0.205857 -0.55 141 97 94
-0.323729 -0.242643 -0.645 252 253 248
-0.276714 -0.244524 -0.65 251 252 247
-0.154903 -0.243771 -0.648 193 191 179
-0.153906 -0.244148 -0.649 193 191 179
-0.0704238 -0.24189 -0.643 66 66 78
-0.0687686 -0.240386 -0.639 68 68 80
-0.0608886 -0.238129 -0.633 68 68 80
-0.0483029 -0.241514 -0.642 69 69 81
0.144963 -0.16891 -0.449 193 146 130
0.147723 -0.168157 -0.447 192 145 125
0.15079 -0.167781 -0.446 193 146 128
0.159541 -0.166276 -0.442 195 148 128
0.16338 -0.1659 -0.441 184 135 120
0.170165 -0.165148 -0.439 173 121 108
0.171001 -0.165148 -0.439 171 119 106
0.18732 -0.167781 -0.446 143 95 83
0.204476 -0.170038 -0.452 125 82 76
0.221394 -0.174552 -0.464 98 69 73
0.223236 -0.175305 -0.466 98 69 73
0.236763 -0.180195 -0.479 94 65 69
0.251271 -0.186214 -0.495 122 109 127
0.294059 -0.197876 -0.526 79 56 64
0.303986 -0.195243 -0.519 96 69 74
0.305373 -0.194867 -0.518 99 73 76
0.308723 -0.19449 -0.517 101 74 79
0.331743 -0.191857 -0.51 123 96 101
0.451316 -0.235495 -0.626 72 70 91
0.472843 -0.244148 -0.649 78 76 98
0.411282 -0.197876 -0.526 163 114 107
0.427121 -0.198252 -0.527 137 90 82
0.43781 -0.199005 -0.529 146 101 96
0.452614 -0.202014 -0.537 131 88 82
0.470049 -0.206529 -0.549 141 97 94
-0.326972 -0.245384 -0.649 254 255 249
-0.0559771 -0.238956 -0.632 68 68 78
0.141297 -0.179217 -0.474 184 151 136
0.149941 -0.16863 -0.446 194 147 127
0.156173 -0.167118 -0.442 194 148 125
0.159541 -0.167118 -0.442 195 149 126
0.201447 -0.170521 -0.451 128 83 78
0.295777 -0.204928 -0.542 75 51 65
0.294276 -0.20039 -0.53 78 57 66
0.296063 -0.198878 -0.526 85 58 67
0.297363 -0.197744 -0.523 89 64 70
0.302997 -0.196231 -0.519 95 68 73
0.306753 -0.195475 -0.517 103 74 78
0.310091 -0.195097 -0.516 105 76 80
0.346697 -0.193585 -0.512 64 54 55
0.463123 -0.241603 -0.639 82 80 102
0.407582 -0.200012 -0.529 181 130 126
0.41028 -0.198878 -0.526 167 117 110
-0.277525 -0.24662 -0.649 255 255 251
-0.16614 -0.24282 -0.639 192 189 180
-0.160054 -0.24282 -0.639 190 190 180
-0.158113 -0.24358 -0.641 193 191 179
-0.0738676 -0.24358 -0.641 67 67 77
-0.07098 -0.24206 -0.637 65 65 77
-0.0494486 -0.24358 -0.641 66 69 78
-0.0438171 -0.24624 -0.648 68 70 82
0.145493 -0.17024 -0.448 192 145 125
0.153497 -0.16872 -0.444 193 146 126
0.165984 -0.16682 -0.439 178 126 113
0.169329 -0.16682 -0.439 170 118 107
0.171837 -0.16682 -0.439 167 115 104
0.17598 -0.16758 -0.441 157 104 96
0.186052 -0.1691 -0.445 142 94 82
0.2093 -0.1729 -0.455 116 76 74
0.310471 -0.1957 -0.515 106 77 81
0.317083 -0.19494 -0.513 107 78 82
0.330123 -0.19342 -0.509 166 143 153
0.348051 -0.19532 -0.514 59 50 53
0.4205 -0.1995 -0.525 144 97 89
0.429129 -0.20026 -0.527 129 82 76
0.459926 -0.20596 -0.542 135 90 85
0.46644 -0.20748 -0.546 142 99 93
0.469192 -0.20824 -0.548 140 96 93
-0.158113 -0.244801 -0.641 191 191 179
-0.157137 -0.245183 -0.642 194 192 180
-0.1564 -0.245947 -0.644 194 192 180
-0.155414 -0.246329 -0.645 194 192 180
-0.0793657 -0.24671 -0.646 70 68 73
0.1377 -0.175294 -0.459 190 143 125
0.16002 -0.16842 -0.441 187 140 120
0.180153 -0.169184 -0.443 151 101 92
0.200588 -0.172239 -0.451 127 82 77
0.235919 -0.183696 -0.481 97 65 68
0.298247 -0.205847 -0.539 78 57 62
0.297514 -0.203937 -0.534 83 58 61
0.3034 -0.197827 -0.518 98 71 76
0.310471 -0.196681 -0.515 104 78 81
0.31806 -0.195917 -0.513 109 80 84
0.320014 -0.195917 -0.513 110 81 85
0.340788 -0.19439 -0.509 112 87 91
0.4125 -0.2005 -0.525 156 106 99
0.434971 -0.201646 -0.528 137 92 87
0.44991 -0.204319 -0.535 130 85 80
-0.30781 -0.245638 -0.64 226 228 223
-0.304894 -0.245254 -0.639 172 174 169
-0.277952 -0.249476 -0.65 252 253 247
-0.171476 -0.249476 -0.65 189 191 178
-0.0741514 -0.242951 -0.633 63 63 75
-0.0438171 -0.248709 -0.648 69 69 81
0.142933 -0.171947 -0.448 189 143 119
0.146871 -0.171563 -0.447 192 147 128
0.147723 -0.171563 -0.447 194 149 130
0.1513 -0.170795 -0.445 195 148 128
0.152148 -0.170795 -0.445 194 147 127
0.163475 -0.168492 -0.439 180 128 115
0.165148 -0.168492 -0.439 178 126 113
0.169329 -0.168492 -0.439 170 116 106
0.200588 -0.173098 -0.451 126 83 76
0.301567 -0.209176 -0.545 67 51 61
0.298633 -0.202268 -0.527 87 62 68
0.302997 -0.199197 -0.519 96 71 75
0.307143 -0.198046 -0.516 101 76 80
0.309109 -0.198046 -0.516 103 77 80
0.324267 -0.19651 -0.512 111 82 86
0.334312 -0.194975 -0.508 124 103 110
0.33528 -0.194975 -0.508 114 93 100
0.435133 -0.234124 -0.61 75 73 94
0.439871 -0.236043 -0.615 84 82 103
0.471607 -0.249092 -0.649 66 64 86
0.408129 -0.205338 -0.535 182 131 128
0.408276 -0.201884 -0.526 176 126 119
0.4135 -0.2015 -0.525 154 104 97
0.422303 -0.201884 -0.526 149 102 94
0.436983 -0.202651 -0.528 139 94 89
-0.319547 -0.2484 -0.644 252 253 248
-0.156892 -0.247243 -0.641 193 191 179
-0.151667 -0.250714 -0.65 196 194 182
-0.0814467 -0.248014 -0.643 72 71 79
-0.0739171 -0.243386 -0.631 67 67 77
-0.0712867 -0.242614 -0.629 67 67 79
-0.0616038 -0.242229 -0.628 66 66 78
-0.0594943 -0.243386 -0.631 68 66 79
-0.0517286 -0.246471 -0.639 69 69 81
-0.0494486 -0.247243 -0.641 68 66 79
-0.0449819 -0.249557 -0.647 68 68 78
0.142397 -0.173186 -0.449 189 143 117
0.145169 -0.172414 -0.447 191 144 124
0.163475 -0.169329 -0.439 180 128 115
0.190294 -0.172414 -0.447 138 91 81
0.216508 -0.178586 -0.463 101 70 68
0.301211 -0.203657 -0.528 89 62 67
0.329153 -0.196329 -0.509 124 101 107
0.331092 -0.196329 -0.509 210 193 201
0.427843 -0.232586 -0.603 73 71 92
0.408049 -0.203271 -0.527 175 124 120
0.422303 -0.202886 -0.526 146 97 90
-0.317826 -0.249239 -0.643 252 253 248
-0.155914 -0.248851 -0.642 194 194 184
-0.0649848 -0.24265 -0.626 67 67 79
0.140373 -0.173653 -0.448 189 144 125
0.147392 -0.172878 -0.446 194 149 130
0.149091 -0.172878 -0.446 194 149 130
0.151806 -0.172103 -0.444 194 147 127
0.15449 -0.171328 -0.442 193 148 129
0.174743 -0.170552 -0.44 153 101 90
0.19072 -0.173653 -0.448 139 92 82
0.191573 -0.173653 -0.448 138 91 81
0.195422 -0.174041 -0.449 133 90 83
0.233655 -0.186832 -0.482 94 66 65
0.3025 -0.2035 -0.525 92 67 73
0.304387 -0.200787 -0.518 99 73 76
0.308126 -0.200011 -0.516 102 76 79
0.314151 -0.198849 -0.513 108 79 84
0.318415 -0.198461 -0.512 109 80 85
0.32266 -0.198073 -0.511 112 83 88
0.333345 -0.19691 -0.508 175 160 167
0.334312 -0.19691 -0.508 127 107 118
0.351124 -0.201562 -0.52 58 46 60
0.409127 -0.208927 -0.539 182 127 124
0.406333 -0.205438 -0.53 185 132 126
0.429129 -0.204275 -0.527 131 82 77
0.456353 -0.208927 -0.539 124 77 71
-0.313174 -0.249685 -0.641 254 255 249
-0.301714 -0.249295 -0.64 252 253 248
-0.300965 -0.249685 -0.641 254 255 250
-0.287653 -0.250853 -0.644 252 253 248
-0.158589 -0.248516 -0.638 191 191 181
-0.0848562 -0.249685 -0.641 74 74 84
-0.0529457 -0.248906 -0.639 68 68 80
-0.0460714 -0.251243 -0.645 68 66 79
0.137322 -0.176065 -0.452 187 144 125
0.139831 -0.174896 -0.449 189 144 123
0.177221 -0.17217 -0.442 149 101 89
0.19072 -0.174507 -0.448 142 92 81
0.197571 -0.175286 -0.45 129 86 80
0.210266 -0.178791 -0.459 105 75 75
0.21791 -0.181518 -0.466 91 65 64
0.229943 -0.186971 -0.48 98 63 67
0.23511 -0.188919 -0.485 88 59 63
0.303797 -0.206058 -0.529 81 58 64
0.303172 -0.202942 -0.521 96 69 76
0.311827 -0.200215 -0.514 104 78 77
0.31939 -0.199436 -0.512 111 82 87
0.341153 -0.199047 -0.511 93 76 86
0.408386 -0.227871 -0.585 90 91 109
0.406089 -0.206837 -0.531 180 131 124
0.406811 -0.205669 -0.528 183 130 126
0.417293 -0.20489 -0.526 154 103 100
0.436983 -0.205669 -0.528 135 90 84
0.44536 -0.207227 -0.532 139 92 86
0.459077 -0.210732 -0.541 124 80 71
0.460108 -0.210732 -0.541 124 80 71
0.468336 -0.21307 -0.547 143 98 92
-0.314886 -0.251297 -0.642 252 253 248
-0.298523 -0.250906 -0.641 253 254 249
-0.2808 -0.253646 -0.648 117 117 117
-0.155429 -0.250514 -0.64 197 194 185
-0.151964 -0.252863 -0.646 198 196 184
-0.0856743 -0.249731 -0.638 75 75 87
0.141227 -0.17536 -0.448 193 146 126
0.14602 -0.174969 -0.447 195 148 128
0.150452 -0.174186 -0.445 195 148 128
0.185621 -0.174577 -0.446 141 94 84
0.195857 -0.176143 -0.45 135 91 82
0.217023 -0.182406 -0.466 92 66 65
0.327214 -0.199237 -0.509 186 170 173
0.405879 -0.228203 -0.583 102 101 117
0.414826 -0.231334 -0.591 88 85 104
0.437529 -0.240729 -0.615 82 78 101
0.415381 -0.215286 -0.55 170 125 132
-0.296081 -0.252127 -0.641 253 254 249
-0.292874 -0.25252 -0.642 254 255 251
-0.279997 -0.255273 -0.649 144 144 142
-0.150733 -0.254093 -0.646 199 197 185
-0.147725 -0.255273 -0.649 198 196 184
-0.0819391 -0.247013 -0.628 74 74 84
-0.0741667 -0.245047 -0.623 71 71 83
-0.06942 -0.245047 -0.623 69 69 79
-0.0629 -0.247407 -0.629 70 68 81
-0.0496029 -0.252913 -0.643 68 68 80
0.1359 -0.17818 -0.453 193 148 129
0.141227 -0.176213 -0.448 193 146 126
0.142933 -0.176213 -0.448 194 147 127
0.150114 -0.17464 -0.444 195 148 128
0.160495 -0.173067 -0.44 187 140 122
0.167274 -0.17228 -0.438 168 119 105
0.19931 -0.177787 -0.452 123 84 77
0.214324 -0.182507 -0.464 97 71 70
0.313174 -0.20178 -0.513 105 78 83
0.334312 -0.199813 -0.508 110 89 98
0.411876 -0.232067 -0.59 92 89 106
0.40685 -0.210827 -0.536 186 133 127
0.405567 -0.208073 -0.529 187 129 125
0.422303 -0.206893 -0.526 139 90 85
0.430318 -0.206893 -0.526 132 83 76
0.436983 -0.20768 -0.528 138 91 83
0.459077 -0.212793 -0.541 125 80 74
-0.150267 -0.254533 -0.644 201 199 187
-0.09384 -0.254533 -0.644 65 63 74
-0.0921819 -0.253348 -0.641 69 67 78
-0.0706067 -0.246233 -0.623 69 69 79
-0.0672619 -0.247024 -0.625 69 69 81
-0.0619962 -0.24979 -0.632 70 68 81
-0.0529457 -0.252557 -0.639 68 66 79
0.135371 -0.18181 -0.46 198 151 133
0.136461 -0.178648 -0.452 191 146 127
0.138667 -0.177067 -0.448 193 146 126
0.150114 -0.175486 -0.444 194 147 127
0.157143 -0.173905 -0.44 190 143 123
0.165606 -0.173114 -0.438 175 126 112
0.16644 -0.173114 -0.438 170 121 107
0.241387 -0.196038 -0.496 145 135 159
0.308703 -0.211057 -0.534 92 67 73
0.306552 -0.205524 -0.52 101 72 77
0.325275 -0.201176 -0.509 108 83 89
0.417633 -0.235167 -0.595 85 83 97
0.40685 -0.211848 -0.536 183 134 127
0.40584 -0.210267 -0.532 178 129 125
0.414288 -0.207895 -0.526 153 100 92
0.434148 -0.20829 -0.527 136 87 80
0.455507 -0.212638 -0.538 122 77 71
-0.290107 -0.25576 -0.644 253 253 251
-0.286529 -0.256951 -0.647 253 253 251
-0.0608886 -0.251391 -0.633 70 68 81
-0.0496029 -0.255363 -0.643 70 70 82
-0.0461429 -0.256554 -0.646 70 70 82
-0.0449819 -0.256951 -0.647 72 72 84
0.136542 -0.185466 -0.467 201 154 136
0.140911 -0.177523 -0.447 195 148 128
0.143466 -0.177523 -0.447 197 152 133
0.148423 -0.176331 -0.444 194 149 128
0.15246 -0.17514 -0.441 196 150 127
0.15414 -0.17514 -0.441 194 146 124
0.155467 -0.174743 -0.44 193 147 124
0.159294 -0.174346 -0.439 185 138 120
0.168943 -0.173949 -0.438 160 110 99
0.1743 -0.17514 -0.441 154 104 95
0.179714 -0.176331 -0.444 148 100 90
0.197151 -0.179111 -0.451 127 84 77
0.207643 -0.182289 -0.459 103 72 80
0.212556 -0.184274 -0.464 99 69 69
0.23049 -0.192614 -0.485 91 66 72
0.232369 -0.193409 -0.487 89 66 74
0.3075 -0.2085 -0.525 100 73 80
0.307738 -0.205323 -0.517 106 75 83
0.30851 -0.204529 -0.515 108 78 86
0.330757 -0.201351 -0.507 109 88 97
0.33691 -0.202146 -0.509 95 82 91
0.347483 -0.206117 -0.519 46 41 48
0.410056 -0.233917 -0.589 89 86 103
0.44322 -0.24742 -0.623 66 62 85
0.406586 -0.213266 -0.537 179 132 124
0.406811 -0.209691 -0.528 179 126 122
0.409278 -0.208897 -0.526 165 112 104
0.43132 -0.208897 -0.526 136 87 80
0.435151 -0.209294 -0.527 144 97 89
0.441667 -0.210486 -0.53 140 91 86
0.450929 -0.212471 -0.535 122 74 70
-0.313641 -0.258184 -0.647 251 252 246
-0.287414 -0.258982 -0.649 253 253 251
-0.152273 -0.254193 -0.637 201 201 191
-0.151297 -0.254592 -0.638 205 205 195
-0.107095 -0.259381 -0.65 225 226 212
-0.0995076 -0.25579 -0.641 76 75 83
-0.0761714 -0.24741 -0.62 68 67 81
-0.0643019 -0.251799 -0.631 70 70 82
-0.0576333 -0.254193 -0.637 71 71 83
0.146731 -0.177177 -0.444 199 152 132
0.149776 -0.176778 -0.443 194 149 128
0.15379 -0.175581 -0.44 193 147 124
0.19845 -0.18037 -0.452 119 79 77
0.199751 -0.180769 -0.453 117 77 75
0.217095 -0.187552 -0.47 96 68 67
0.218918 -0.18835 -0.472 97 69 68
0.308333 -0.206707 -0.518 106 74 85
0.322029 -0.203514 -0.51 111 86 92
0.330757 -0.202317 -0.507 106 86 95
0.343509 -0.205909 -0.516 51 44 51
0.407073 -0.215087 -0.539 180 130 121
0.405331 -0.213091 -0.534 173 128 123
0.444523 -0.211894 -0.531 128 83 77
0.482006 -0.222669 -0.558 124 89 85
-0.14335 -0.259015 -0.646 201 201 189
-0.110469 -0.259817 -0.648 234 233 228
-0.0797143 -0.24859 -0.62 72 70 83
-0.0785333 -0.24859 -0.62 72 70 83
-0.0609848 -0.254204 -0.634 71 71 81
-0.05538 -0.256209 -0.639 69 69 81
0.135 -0.180429 -0.45 196 151 132
0.143145 -0.178825 -0.446 199 151 129
0.154629 -0.176419 -0.44 193 146 126
0.158931 -0.175617 -0.438 185 138 120
0.1606 -0.175617 -0.438 181 134 116
0.179714 -0.178023 -0.444 147 98 91
0.189013 -0.179627 -0.448 136 91 85
0.192429 -0.180429 -0.45 134 89 83
0.318767 -0.204887 -0.511 106 81 87
0.40824 -0.23576 -0.588 86 83 104
0.425101 -0.242175 -0.604 67 63 88
0.407045 -0.211302 -0.527 169 116 108
0.408049 -0.211302 -0.527 158 105 97
0.422303 -0.210901 -0.526 133 83 76
0.437989 -0.211703 -0.528 145 98 92
0.446373 -0.213307 -0.532 124 83 77
0.452792 -0.21491 -0.536 124 80 77
0.470236 -0.219722 -0.548 128 89 84
0.473 -0.220524 -0.55 132 93 88
-0.293595 -0.261454 -0.649 253 253 251
-0.290333 -0.261857 -0.65 253 253 251
-0.154934 -0.255009 -0.633 251 252 247
-0.152523 -0.255009 -0.633 242 243 238
-0.142685 -0.259037 -0.643 199 197 184
-0.135154 -0.261051 -0.648 229 225 213
-0.115406 -0.261051 -0.648 250 249 244
-0.09078 -0.25098 -0.623 76 74 85
-0.0762943 -0.250174 -0.621 72 70 83
-0.0483781 -0.259037 -0.643 68 71 80
0.133326 -0.183703 -0.456 198 153 134
0.146401 -0.178466 -0.443 198 152 129
0.14994 -0.17766 -0.441 195 150 129
0.152114 -0.177257 -0.44 196 150 127
0.189435 -0.180883 -0.449 133 90 83
0.198889 -0.182494 -0.453 114 79 77
0.202811 -0.183703 -0.456 106 74 75
0.20767 -0.185717 -0.461 99 74 80
0.311827 -0.207069 -0.514 104 83 88
0.316465 -0.206263 -0.512 108 83 87
0.422547 -0.24252 -0.602 68 68 96
0.4068 -0.217543 -0.54 176 123 117
0.413286 -0.211903 -0.526 156 104 91
0.42631 -0.211903 -0.526 145 95 88
0.4265 -0.2115 -0.525 138 88 81
0.434326 -0.211903 -0.526 147 100 94
-0.303485 -0.26269 -0.649 252 252 250
-0.302249 -0.26269 -0.649 253 253 251
-0.152282 -0.25581 -0.632 242 242 240
-0.131046 -0.261476 -0.646 227 224 215
-0.127749 -0.262286 -0.648 233 229 218
-0.122622 -0.261881 -0.647 253 250 241
-0.121202 -0.261476 -0.646 251 248 239
-0.118741 -0.261476 -0.646 246 243 236
-0.101078 -0.25419 -0.628 79 77 88
-0.0888743 -0.250143 -0.618 76 74 85
-0.0577238 -0.258238 -0.638 69 71 83
0.1347 -0.181738 -0.449 194 147 127
0.138897 -0.180524 -0.446 197 151 128
0.1491 -0.1785 -0.441 199 153 130
0.150438 -0.178095 -0.44 198 152 129
0.186037 -0.180929 -0.447 142 91 87
0.194143 -0.182143 -0.45 126 87 82
0.311827 -0.208048 -0.514 108 83 87
0.31549 -0.207238 -0.512 111 84 89
0.321057 -0.206429 -0.51 105 83 86
0.325604 -0.205619 -0.508 196 174 177
0.33141 -0.205619 -0.508 113 88 92
0.418159 -0.242452 -0.599 58 55 76
0.42862 -0.2465 -0.609 74 72 93
0.404572 -0.215738 -0.533 183 133 126
0.405806 -0.213714 -0.528 175 122 116
0.423305 -0.212905 -0.526 135 86 79
0.463695 -0.22019 -0.544 122 85 79
-0.147 -0.2562 -0.63 237 237 239
-0.109462 -0.258233 -0.635 73 72 80
-0.101623 -0.25376 -0.624 75 73 84
-0.100273 -0.253353 -0.623 77 75 86
-0.0989276 -0.252947 -0.622 77 75 86
-0.0962476 -0.252133 -0.62 76 75 83
-0.0622905 -0.258233 -0.635 68 71 80
-0.0414762 -0.264333 -0.65 68 68 78
0.132454 -0.18666 -0.459 194 155 138
0.132449 -0.18422 -0.453 195 150 131
0.1344 -0.182187 -0.448 193 148 127
0.134951 -0.18178 -0.447 194 149 128
0.138048 -0.181373 -0.446 197 150 130
0.143349 -0.18056 -0.444 199 153 130
0.1496 -0.178933 -0.44 195 149 126
0.152114 -0.178933 -0.44 195 149 126
0.169714 -0.178933 -0.44 156 108 96
0.178023 -0.18056 -0.444 152 102 93
0.180119 -0.180967 -0.445 150 102 92
0.186037 -0.18178 -0.447 139 90 83
0.225406 -0.196827 -0.484 93 80 98
0.312806 -0.209027 -0.514 107 80 85
0.313174 -0.20862 -0.513 108 81 86
0.314151 -0.20862 -0.513 108 81 86
0.31682 -0.207807 -0.511 109 84 88
0.323336 -0.206993 -0.509 149 126 132
0.327539 -0.206587 -0.508 131 109 112
0.409278 -0.213907 -0.526 161 108 100
0.4315 -0.2135 -0.525 150 103 93
0.463695 -0.221227 -0.544 127 88 83
0.476633 -0.224887 -0.553 127 88 83
-0.140688 -0.259034 -0.634 246 245 243
-0.137497 -0.259851 -0.636 245 244 242
-0.130638 -0.260669 -0.638 239 237 238
-0.108255 -0.256583 -0.628 68 68 78
-0.0919571 -0.251271 -0.615 76 74 85
-0.0622905 -0.259443 -0.635 68 71 80
-0.0554667 -0.261486 -0.64 69 72 81
0.134951 -0.182631 -0.447 194 149 128
0.14387 -0.180997 -0.443 196 151 130
0.144713 -0.180997 -0.443 195 150 129
0.154277 -0.179363 -0.439 194 147 127
0.165606 -0.178954 -0.438 167 119 105
0.180119 -0.181814 -0.445 151 102 95
0.193715 -0.184266 -0.451 124 83 77
0.195867 -0.184674 -0.452 118 81 75
0.201515 -0.186717 -0.457 103 75 74
0.215778 -0.193254 -0.473 90 64 67
0.222638 -0.196931 -0.482 84 70 85
0.320428 -0.207963 -0.509 122 99 105
0.323336 -0.207963 -0.509 134 111 117
0.32786 -0.207146 -0.507 108 83 87
1.13352 -0.262711 -0.643 200 202 189
-0.1398 -0.2586 -0.63 227 227 229
-0.13882 -0.25901 -0.631 229 229 231
-0.137618 -0.25901 -0.631 231 231 233
-0.135429 -0.259421 -0.632 226 227 229
-0.0976552 -0.252032 -0.614 76 75 83
-0.0810257 -0.254906 -0.621 75 74 82
-0.0778514 -0.256137 -0.624 74 74 84
-0.0757162 -0.256958 -0.626 73 73 83
-0.0449819 -0.265578 -0.647 69 69 77
-0.0414762 -0.26681 -0.65 72 72 82
0.130706 -0.188409 -0.459 202 157 138
0.131295 -0.185535 -0.452 200 154 139
0.13689 -0.182662 -0.445 197 152 131
0.1496 -0.18061 -0.44 196 150 127
0.153441 -0.180199 -0.439 193 147 124
0.17178 -0.18102 -0.441 154 104 93
0.190714 -0.184714 -0.45 128 88 80
0.192856 -0.185125 -0.451 124 83 77
0.203271 -0.188409 -0.459 97 71 74
0.324306 -0.208932 -0.509 153 132 139
0.32786 -0.208111 -0.507 113 88 94
0.335313 -0.209753 -0.511 77 56 61
0.33924 -0.210985 -0.514 50 35 42
0.346509 -0.214269 -0.522 49 44 51
0.41207 -0.227404 -0.554 158 113 110
0.4048 -0.216731 -0.528 171 118 112
0.4095 -0.2155 -0.525 156 103 97
0.440833 -0.217142 -0.529 134 91 84
1.14039 -0.266399 -0.649 205 207 193
-0.125997 -0.258563 -0.627 85 84 89
-0.113962 -0.255676 -0.62 63 61 72
-0.0843019 -0.255264 -0.619 75 75 83
-0.0623886 -0.262274 -0.636 71 71 79
-0.0543324 -0.264336 -0.641 76 76 86
-0.0426486 -0.267635 -0.649 69 69 77
-0.0414762 -0.268048 -0.65 69 69 77
0.135499 -0.183922 -0.446 198 153 132
0.13912 -0.183097 -0.444 199 152 132
0.162269 -0.180623 -0.438 169 122 106
0.163937 -0.180623 -0.438 167 120 104
0.165606 -0.180623 -0.438 161 113 101
0.16682 -0.181035 -0.439 158 110 98
0.168876 -0.181448 -0.44 155 107 97
0.17217 -0.182272 -0.442 156 104 93
0.17509 -0.182685 -0.443 153 103 92
0.213071 -0.194231 -0.471 93 68 74
0.217603 -0.196706 -0.477 98 73 79
0.238543 -0.208665 -0.506 218 224 255
0.406864 -0.225572 -0.547 165 117 113
0.403054 -0.218974 -0.531 172 123 118
0.437159 -0.217325 -0.527 141 93 83
0.45738 -0.222273 -0.539 118 81 75
0.466624 -0.224748 -0.545 127 90 84
1.14039 -0.267635 -0.649 203 205 191
-0.119867 -0.256857 -0.62 64 62 76
-0.106663 -0.253543 -0.612 59 59 67
-0.102829 -0.252714 -0.61 58 57 65
-0.101667 -0.252714 -0.61 60 59 67
-0.097019 -0.252714 -0.61 72 71 79
-0.085481 -0.256443 -0.619 75 73 86
-0.0658152 -0.262657 -0.634 72 71 79
-0.04968 -0.2668 -0.644 83 81 92
0.1449 -0.1827 -0.441 198 153 130
0.147588 -0.181871 -0.439 197 152 129
0.159401 -0.181043 -0.437 177 132 109
0.163103 -0.181457 -0.438 165 118 100
0.163937 -0.181457 -0.438 165 118 100
0.180119 -0.184357 -0.445 145 97 85
0.183072 -0.184771 -0.446 143 95 83
0.22126 -0.2001 -0.483 119 105 128
0.316465 -0.212114 -0.512 108 81 88
0.406041 -0.218329 -0.527 165 112 106
0.407274 -0.217914 -0.526 158 105 99
0.4095 -0.2175 -0.525 157 104 98
0.4295 -0.2175 -0.525 138 89 82
0.448228 -0.220814 -0.533 117 76 70
1.14039 -0.268871 -0.649 203 205 191
-0.139657 -0.259703 -0.624 105 104 112
-0.138469 -0.259703 -0.624 101 100 108
-0.135655 -0.25887 -0.622 101 100 108
-0.133071 -0.258454 -0.621 94 93 101
-0.122812 -0.25679 -0.617 67 65 76
-0.102323 -0.252628 -0.607 68 67 75
-0.0990171 -0.253044 -0.608 74 73 81
-0.0747619 -0.261368 -0.628 74 73 81
-0.0715133 -0.262616 -0.631 74 73 81
-0.0624867 -0.265113 -0.637 72 72 82
-0.0438171 -0.269691 -0.648 74 72 83
0.129266 -0.190199 -0.457 200 158 142
0.129857 -0.187286 -0.45 206 155 138
0.136043 -0.185205 -0.445 201 156 137
0.14238 -0.18354 -0.441 200 155 134
0.145915 -0.182708 -0.439 198 153 130
0.14926 -0.182708 -0.439 198 153 130
0.150096 -0.182708 -0.439 197 152 129
0.152257 -0.182291 -0.438 195 149 126
0.159401 -0.181875 -0.437 175 130 107
0.186453 -0.186453 -0.448 135 87 77
0.195437 -0.188534 -0.453 111 77 76
0.213075 -0.196858 -0.473 95 69 72
0.317701 -0.213922 -0.514 107 80 89
0.317793 -0.212673 -0.511 107 81 90
0.320428 -0.211841 -0.509 108 82 91
0.412214 -0.248466 -0.597 59 55 78
0.403305 -0.220581 -0.53 171 116 113
0.4185 -0.2185 -0.525 139 86 78
0.4195 -0.2185 -0.525 139 86 78
-0.13684 -0.260055 -0.622 101 102 107
-0.11523 -0.254202 -0.608 61 61 71
-0.112543 -0.253366 -0.606 60 60 70
-0.106595 -0.252948 -0.605 62 62 72
-0.0803571 -0.26131 -0.625 77 76 82
-0.0792933 -0.261728 -0.626 77 76 82
-0.0670229 -0.265072 -0.634 72 72 80
-0.0658152 -0.265072 -0.634 72 72 80
-0.0567743 -0.267999 -0.641 75 75 85
-0.0532771 -0.268835 -0.643 123 123 135
0.137963 -0.185216 -0.443 201 156 135
0.146751 -0.183544 -0.439 200 155 134
0.14892 -0.183126 -0.438 197 152 131
0.16682 -0.183544 -0.439 151 103 89
0.168038 -0.183962 -0.44 150 102 88
0.1701 -0.18438 -0.441 152 104 92
0.186453 -0.187307 -0.448 134 87 77
0.200211 -0.191488 -0.458 101 72 74
0.20372 -0.19316 -0.462 97 71 72
0.323997 -0.211974 -0.507 110 87 95
0.403305 -0.22159 -0.53 172 114 112
0.4155 -0.2195 -0.525 147 94 88
0.4175 -0.2195 -0.525 142 89 83
0.4205 -0.2195 -0.525 138 91 83
0.4225 -0.2195 -0.525 139 90 83
0.4305 -0.2195 -0.525 141 94 88
-0.142426 -0.26502 -0.631 107 108 112
-0.133822 -0.25998 -0.619 100 101 106
-0.130614 -0.2583 -0.615 89 90 95
-0.102627 -0.25284 -0.602 65 65 73
-0.0988543 -0.25494 -0.607 72 71 79
-0.09802 -0.25578 -0.609 73 72 80
-0.0960143 -0.25662 -0.611 74 73 81
-0.0929771 -0.25788 -0.614 76 75 83
-0.0727152 -0.26502 -0.631 74 73 81
-0.0555533 -0.26922 -0.641 70 68 81
0.134348 -0.1869 -0.445 201 156 137
0.155239 -0.18354 -0.437 193 148 127
0.157736 -0.18354 -0.437 178 133 112
0.320766 -0.21336 -0.508 108 85 95
0.420275 -0.25494 -0.607 65 63 85
0.401263 -0.22428 -0.534 165 116 112
0.4095 -0.2205 -0.525 156 103 99
0.4215 -0.2205 -0.525 141 92 87
0.452792 -0.22512 -0.536 116 79 71
0.465586 -0.2289 -0.545 124 87 81
-0.122729 -0.255252 -0.605 70 70 80
-0.118483 -0.253565 -0.601 77 77 87
-0.0624867 -0.268753 -0.637 71 71 81
0.135431 -0.186904 -0.443 200 154 138
0.151077 -0.184372 -0.437 194 149 130
0.195004 -0.191545 -0.454 105 77 74
0.213071 -0.200405 -0.475 119 95 95
0.226299 -0.208421 -0.494 209 207 228
0.321733 -0.214328 -0.508 109 83 94
0.399976 -0.225719 -0.535 174 123 119
0.4115 -0.2215 -0.525 162 109 105
0.4295 -0.2215 -0.525 148 97 93
0.442676 -0.22361 -0.53 126 87 80
0.460108 -0.22825 -0.541 118 81 75
0.481142 -0.235001 -0.557 120 81 76
-0.110686 -0.25259 -0.596 59 59 67
-0.109734 -0.253014 -0.597 56 56 64
-0.100667 -0.255981 -0.604 61 62 67
-0.08708 -0.26361 -0.622 76 75 81
-0.0806143 -0.265729 -0.627 76 75 81
-0.0671286 -0.269119 -0.635 73 73 81
0.145583 -0.185629 -0.438 202 157 138
0.149754 -0.185629 -0.438 197 152 133
0.156071 -0.185205 -0.437 181 136 115
0.165148 -0.186052 -0.439 153 107 92
0.17217 -0.187324 -0.442 148 100 86
0.177177 -0.188171 -0.444 146 96 87
0.183893 -0.189867 -0.448 130 90 82
0.18942 -0.191138 -0.451 116 81 75
0.227673 -0.210633 -0.497 214 213 229
0.357032 -0.25259 -0.596 125 94 102
0.321057 -0.216143 -0.51 107 81 90
0.33142 -0.216567 -0.511 65 49 59
0.335976 -0.218262 -0.515 41 31 42
0.399976 -0.226738 -0.535 173 122 118
0.400995 -0.226738 -0.535 173 122 118
0.406272 -0.222924 -0.526 159 106 102
0.4165 -0.2225 -0.525 150 97 91
0.4255 -0.2225 -0.525 153 98 93
0.4315 -0.2225 -0.525 134 89 83
0.436155 -0.223348 -0.527 124 85 78
0.438994 -0.223771 -0.528 122 85 76
0.450929 -0.226738 -0.535 116 82 73
0.452792 -0.227162 -0.536 112 78 69
-0.1335 -0.26522 -0.623 87 88 93
-0.122323 -0.256706 -0.603 64 64 74
-0.1105 -0.2533 -0.595 60 60 68
-0.106323 -0.254151 -0.597 62 62 70
-0.101649 -0.256706 -0.603 61 62 67
-0.0973371 -0.260537 -0.612 66 65 71
-0.0924057 -0.263091 -0.618 72 71 77
-0.0904886 -0.264369 -0.621 73 72 78
-0.07174 -0.269477 -0.633 74 73 81
-0.0486038 -0.275011 -0.646 74 72 83
0.13681 -0.188166 -0.442 201 155 139
0.13734 -0.18774 -0.441 202 156 140
0.146083 -0.186037 -0.437 200 155 136
0.162269 -0.186463 -0.438 155 107 93
0.1672 -0.187314 -0.44 151 103 91
0.16842 -0.18774 -0.441 151 103 91
0.18687 -0.191146 -0.449 120 83 74
0.188143 -0.191571 -0.45 116 82 80
0.191986 -0.192849 -0.453 109 79 77
0.193274 -0.193274 -0.454 103 77 78
0.35336 -0.25032 -0.588 133 103 115
0.321057 -0.217114 -0.51 107 81 90
0.406377 -0.234994 -0.552 159 108 104
0.40017 -0.229034 -0.538 175 122 116
0.4255 -0.2235 -0.525 153 98 95
0.433324 -0.223926 -0.526 126 87 80
