ply
format ascii 1.0
comment Created by Open3D
element vertex 1290
property double x
property double y
property double z
property uchar red
property uchar green
property uchar blue
end_header
-0.0487438 -0.321249 -0.403 185 141 104
-0.0369143 -0.325234 -0.408 176 132 95
-0.0324095 -0.326829 -0.41 176 132 97
-0.0285743 -0.327626 -0.411 171 126 95
-0.0139333 -0.333206 -0.418 151 109 85
-0.00684857 -0.337191 -0.423 138 100 79
0.00123143 -0.343569 -0.431 124 92 77
0.00794381 -0.349946 -0.439 113 85 71
0.0289714 -0.373063 -0.468 96 79 72
0.0624 -0.4464 -0.56 192 200 219
0.074001 -0.445603 -0.559 200 207 213
0.0878429 -0.445603 -0.559 69 100 155
0.108267 -0.4464 -0.56 113 137 183
0.121915 -0.445603 -0.559 178 182 194
0.135757 -0.445603 -0.559 199 201 213
0.178348 -0.445603 -0.559 199 207 218
0.18793 -0.445603 -0.559 181 185 194
0.202474 -0.444806 -0.558 204 210 222
0.2046 -0.444806 -0.558 202 204 217
0.213103 -0.444806 -0.558 149 166 194
0.233297 -0.444806 -0.558 190 203 222
0.36762 -0.444009 -0.557 204 217 233
0.421729 -0.444009 -0.557 141 165 203
0.42279 -0.444009 -0.557 170 190 217
0.437366 -0.444806 -0.558 106 127 158
0.444538 -0.445603 -0.559 125 153 201
0.47861 -0.445603 -0.559 119 145 182
0.482349 -0.396977 -0.498 167 123 94
0.520714 -0.387411 -0.486 161 114 84
0.817282 -0.441617 -0.554 190 190 180
0.820448 -0.441617 -0.554 184 184 174
0.826587 -0.443211 -0.556 162 164 151
0.851733 -0.4464 -0.56 140 141 133
0.853867 -0.4464 -0.56 138 139 131
-0.0712829 -0.32681 -0.409 183 148 110
-0.0576676 -0.320418 -0.401 183 144 105
-0.0569038 -0.320418 -0.401 184 145 106
-0.0495114 -0.322016 -0.403 181 142 103
-0.0346676 -0.32681 -0.409 175 130 97
-0.0092219 -0.336399 -0.421 142 104 83
0.00372 -0.346787 -0.434 118 89 75
0.0053981 -0.348385 -0.436 117 88 74
0.0105238 -0.353179 -0.442 112 84 72
0.0122629 -0.354777 -0.444 111 83 69
0.0149 -0.357174 -0.447 107 83 71
0.0203219 -0.362768 -0.454 103 81 70
0.02508 -0.36916 -0.462 98 78 71
0.0260162 -0.369959 -0.463 97 77 70
0.0342857 -0.383543 -0.48 90 75 72
0.03542 -0.38594 -0.483 89 74 71
0.0541 -0.432285 -0.541 214 221 229
0.0718714 -0.446668 -0.559 151 160 165
0.0931667 -0.446668 -0.559 72 97 153
0.127011 -0.445869 -0.558 182 188 200
0.140829 -0.445869 -0.558 208 211 220
0.162086 -0.445869 -0.558 82 114 163
0.188995 -0.446668 -0.559 169 172 177
0.199286 -0.445869 -0.558 202 206 215
0.201411 -0.445869 -0.558 200 208 221
0.206355 -0.44507 -0.557 195 200 219
0.209538 -0.44507 -0.557 129 144 173
0.220148 -0.44507 -0.557 111 136 167
0.225857 -0.445869 -0.558 128 161 204
0.240306 -0.44507 -0.557 100 125 165
0.276941 -0.44427 -0.556 199 205 217
0.299181 -0.44427 -0.556 208 210 222
0.309268 -0.44507 -0.557 161 172 192
0.316694 -0.44507 -0.557 196 204 217
0.341543 -0.44427 -0.556 205 207 220
0.34472 -0.44427 -0.556 176 185 194
0.354251 -0.44427 -0.556 126 153 182
0.374373 -0.44427 -0.556 133 158 198
0.410381 -0.44427 -0.556 147 176 216
0.43446 -0.44507 -0.557 192 200 211
0.483069 -0.445869 -0.558 72 105 148
0.498117 -0.44507 -0.557 165 170 173
0.4945 -0.4195 -0.525 130 100 89
0.484809 -0.390734 -0.489 177 132 101
0.487535 -0.389935 -0.488 179 132 102
0.802509 -0.442672 -0.554 182 184 173
0.819173 -0.44427 -0.556 170 170 160
0.820232 -0.44427 -0.556 170 170 160
0.846843 -0.448266 -0.561 122 123 115
-0.0722381 -0.32839 -0.41 181 146 108
-0.0398267 -0.325187 -0.406 178 134 99
-0.0193667 -0.332395 -0.415 158 113 90
-0.0170362 -0.333196 -0.416 151 109 84
-0.00763619 -0.338002 -0.422 140 102 83
-0.00684857 -0.338803 -0.423 139 100 83
0.0157867 -0.358827 -0.448 105 81 69
0.0656 -0.448533 -0.56 153 166 183
0.0666667 -0.448533 -0.56 159 172 189
0.0738686 -0.446931 -0.558 202 211 218
0.0940629 -0.446931 -0.558 71 95 157
0.0972514 -0.446931 -0.558 67 99 156
0.0983143 -0.446931 -0.558 66 98 155
0.131263 -0.446931 -0.558 205 207 222
0.134451 -0.446931 -0.558 203 205 218
0.146143 -0.446931 -0.558 172 174 195
0.147206 -0.446931 -0.558 141 143 164
0.15996 -0.446931 -0.558 100 130 182
0.185469 -0.446931 -0.558 206 211 215
0.18972 -0.446931 -0.558 204 209 215
0.215904 -0.44613 -0.557 188 194 208
0.237756 -0.44533 -0.556 137 154 180
0.238815 -0.44533 -0.556 97 121 159
0.26741 -0.44533 -0.556 196 202 216
0.281177 -0.44533 -0.556 150 165 186
0.308712 -0.44533 -0.556 131 143 167
0.324598 -0.44533 -0.556 169 181 197
0.341543 -0.44533 -0.556 206 208 220
0.386023 -0.44533 -0.556 145 170 211
0.392377 -0.44533 -0.556 111 142 196
0.418853 -0.44533 -0.556 103 134 181
0.429444 -0.44533 -0.556 205 203 206
0.436582 -0.44613 -0.557 126 142 167
0.47244 -0.446931 -0.558 85 104 134
0.482006 -0.446931 -0.558 62 96 144
0.495105 -0.44533 -0.556 162 167 171
0.498282 -0.44533 -0.556 154 158 161
0.511263 -0.443728 -0.554 64 75 105
0.483317 -0.399675 -0.499 160 118 93
0.483933 -0.392467 -0.49 175 132 100
0.483877 -0.391666 -0.489 177 134 102
0.824246 -0.446931 -0.558 141 143 132
-0.0331905 -0.329171 -0.41 176 131 98
-0.0316286 -0.329171 -0.41 173 128 95
-0.02478 -0.33158 -0.413 165 120 91
-0.0208971 -0.332383 -0.414 162 116 92
0.0184695 -0.362089 -0.451 103 81 70
0.0645333 -0.4496 -0.56 156 164 175
0.0726752 -0.447191 -0.557 209 213 216
0.0790409 -0.447191 -0.557 215 214 222
0.0887486 -0.447994 -0.558 91 125 186
0.0983143 -0.447994 -0.558 67 100 154
0.119571 -0.447994 -0.558 205 209 220
0.155709 -0.447994 -0.558 98 132 160
0.160734 -0.447191 -0.557 102 136 174
0.175588 -0.447191 -0.557 119 142 174
0.22333 -0.447191 -0.557 109 138 172
0.232461 -0.446389 -0.556 197 206 223
0.248347 -0.446389 -0.556 201 205 216
0.263757 -0.445586 -0.555 190 198 211
0.280671 -0.445586 -0.555 155 172 192
0.284387 -0.444783 -0.554 138 161 195
0.289129 -0.445586 -0.555 143 169 204
0.3071 -0.445586 -0.555 184 191 210
0.31083 -0.446389 -0.556 135 150 181
0.352557 -0.445586 -0.555 154 178 204
0.394495 -0.446389 -0.556 197 210 219
0.395554 -0.446389 -0.556 204 209 215
0.402968 -0.446389 -0.556 206 207 212
0.420214 -0.445586 -0.555 108 141 184
0.432621 -0.446389 -0.556 214 218 227
0.447994 -0.447994 -0.558 76 108 169
0.503729 -0.445586 -0.555 52 79 122
0.483097 -0.395006 -0.492 169 125 98
0.509084 -0.386977 -0.482 171 122 90
0.824 -0.4496 -0.56 123 123 115
0.850297 -0.452811 -0.564 118 118 110
0.862567 -0.453614 -0.565 123 122 117
-0.0590476 -0.321905 -0.4 187 148 109
-0.05614 -0.32271 -0.401 187 148 107
-0.0255048 -0.331562 -0.412 166 119 91
-0.0131371 -0.33639 -0.418 154 109 86
-0.00604286 -0.340414 -0.423 137 99 80
-0.00122571 -0.345243 -0.429 125 93 78
0.00966 -0.3549 -0.441 109 82 73
0.0633533 -0.449862 -0.559 180 189 198
0.0843457 -0.448252 -0.557 126 150 178
0.0917724 -0.448252 -0.557 72 106 154
0.107687 -0.448252 -0.557 121 140 170
0.109809 -0.448252 -0.557 176 182 216
0.13315 -0.448252 -0.557 204 208 220
0.19963 -0.447448 -0.556 200 207 215
0.215516 -0.447448 -0.556 186 190 201
0.228225 -0.447448 -0.556 108 128 165
0.231402 -0.447448 -0.556 163 186 218
0.250465 -0.447448 -0.556 201 204 223
0.280671 -0.446643 -0.555 154 171 191
0.31189 -0.447448 -0.556 114 134 169
0.325071 -0.446643 -0.555 133 159 196
0.3589 -0.446643 -0.555 197 213 229
0.379358 -0.445838 -0.554 121 152 199
0.3885 -0.446643 -0.555 73 110 162
0.389557 -0.446643 -0.555 79 116 168
0.402243 -0.446643 -0.555 208 209 214
0.405414 -0.446643 -0.555 109 140 187
0.451435 -0.448252 -0.557 45 81 143
0.471593 -0.448252 -0.557 96 113 143
0.48875 -0.447448 -0.556 152 166 179
0.492987 -0.447448 -0.556 163 162 158
0.495105 -0.447448 -0.556 130 130 130
0.51842 -0.3887 -0.483 157 112 81
0.525343 -0.391114 -0.486 149 110 81
0.816533 -0.450667 -0.56 104 103 99
0.827609 -0.451471 -0.561 123 123 115
0.830814 -0.451471 -0.561 119 119 111
0.839138 -0.453081 -0.563 111 110 105
0.86238 -0.4563 -0.567 118 118 110
-0.0645419 -0.323473 -0.401 189 149 113
-0.0515571 -0.323473 -0.401 181 142 103
-0.0472086 -0.325087 -0.403 178 135 100
-0.0390533 -0.327507 -0.406 177 134 99
-0.03014 -0.33154 -0.411 172 125 95
-0.00284667 -0.344447 -0.427 127 94 79
0.0250257 -0.371873 -0.461 102 79 71
0.0289714 -0.37752 -0.468 97 78 72
0.0387333 -0.395267 -0.49 86 76 75
0.0864676 -0.449313 -0.557 153 178 209
0.0917724 -0.449313 -0.557 83 117 162
0.104504 -0.449313 -0.557 189 211 232
0.121479 -0.449313 -0.557 206 209 216
0.131851 -0.448507 -0.556 205 212 222
0.151186 -0.449313 -0.557 187 199 213
0.153308 -0.449313 -0.557 169 187 207
0.15621 -0.448507 -0.556 111 145 173
0.17845 -0.448507 -0.556 125 143 179
0.190099 -0.448507 -0.556 204 208 219
0.209162 -0.448507 -0.556 162 187 218
0.230343 -0.448507 -0.556 133 158 189
0.235638 -0.448507 -0.556 201 207 219
0.253186 -0.4477 -0.555 178 187 204
0.254243 -0.4477 -0.555 153 162 179
0.2701 -0.4477 -0.555 196 203 219
0.284387 -0.446893 -0.554 154 173 205
0.305491 -0.446893 -0.554 149 153 162
0.330817 -0.446893 -0.554 168 180 194
0.339871 -0.4477 -0.555 204 206 218
0.3441 -0.4477 -0.555 149 158 167
0.36775 -0.446893 -0.554 211 210 216
0.377248 -0.446893 -0.554 71 104 158
0.380413 -0.446893 -0.554 125 156 210
0.400129 -0.4477 -0.555 209 209 219
0.403629 -0.446893 -0.554 152 162 164
0.40785 -0.446893 -0.554 108 155 201
0.417347 -0.446893 -0.554 102 143 195
0.418402 -0.446893 -0.554 90 131 183
0.424443 -0.4477 -0.555 197 211 222
0.426557 -0.4477 -0.555 207 211 214
0.4329 -0.4477 -0.555 201 204 209
0.44533 -0.448507 -0.556 47 79 138
0.460156 -0.448507 -0.556 190 190 198
0.46651 -0.448507 -0.556 183 180 187
0.493612 -0.421887 -0.523 133 99 87
0.485278 -0.408173 -0.506 149 113 91
0.484286 -0.403333 -0.5 159 119 93
0.484268 -0.402527 -0.499 161 121 95
0.489319 -0.392847 -0.487 170 123 95
0.49726 -0.38962 -0.483 174 125 95
0.506971 -0.3872 -0.48 171 124 94
0.513525 -0.388007 -0.481 156 111 80
0.536514 -0.39688 -0.492 144 107 78
0.842119 -0.455767 -0.565 110 111 105
-0.0685314 -0.325046 -0.402 181 141 105
-0.0493886 -0.325046 -0.402 182 139 104
-0.0293571 -0.332323 -0.411 170 123 93
-0.0131371 -0.337983 -0.418 149 107 85
0.0240429 -0.371134 -0.459 102 79 71
0.0843457 -0.450374 -0.557 150 168 190
0.0907114 -0.450374 -0.557 123 155 196
0.0928333 -0.450374 -0.557 91 129 176
0.099021 -0.449566 -0.556 102 130 170
0.117025 -0.449566 -0.556 202 209 217
0.137147 -0.449566 -0.556 206 209 218
0.17739 -0.449566 -0.556 83 111 150
0.17845 -0.449566 -0.556 92 112 147
0.206671 -0.448757 -0.555 117 140 172
0.239011 -0.447949 -0.554 192 200 211
0.278055 -0.447949 -0.554 190 201 219
0.291247 -0.44714 -0.553 109 133 169
0.362873 -0.44714 -0.553 211 215 218
0.366033 -0.44714 -0.553 196 194 197
0.392729 -0.448757 -0.555 201 208 214
0.40922 -0.44714 -0.553 86 122 172
0.411327 -0.44714 -0.553 74 121 177
0.415236 -0.447949 -0.554 83 126 177
0.419457 -0.447949 -0.554 99 136 181
0.423678 -0.447949 -0.554 206 210 222
0.435014 -0.448757 -0.555 198 209 205
0.464392 -0.449566 -0.556 189 193 204
0.46651 -0.449566 -0.556 168 174 196
0.486814 -0.448757 -0.555 82 119 164
0.486229 -0.410754 -0.508 146 109 90
0.49726 -0.39054 -0.483 173 126 98
0.531223 -0.394583 -0.488 150 111 82
0.819143 -0.456034 -0.564 96 95 91
0.832433 -0.456843 -0.565 119 118 113
0.84618 -0.45846 -0.567 120 121 113
0.887877 -0.463311 -0.573 109 108 103
0.898471 -0.466546 -0.577 109 110 102
-0.0675971 -0.325001 -0.401 185 145 109
-0.0666667 -0.32419 -0.4 188 145 110
-0.0598095 -0.32419 -0.4 188 146 108
-0.05092 -0.325811 -0.402 183 140 105
-0.037599 -0.329864 -0.407 177 132 99
-0.0232067 -0.334727 -0.413 164 118 92
0.02796 -0.377682 -0.466 97 78 72
0.0342857 -0.389029 -0.48 92 72 63
0.130557 -0.449814 -0.555 206 210 219
0.139265 -0.450625 -0.556 187 196 211
0.143501 -0.450625 -0.556 108 124 157
0.156986 -0.449814 -0.555 133 162 196
0.171786 -0.449814 -0.555 204 205 223
0.172843 -0.449814 -0.555 204 205 223
0.183414 -0.449814 -0.555 192 196 199
0.199271 -0.449814 -0.555 191 198 206
0.214071 -0.449814 -0.555 192 199 207
0.234157 -0.449814 -0.555 200 206 222
0.239011 -0.449004 -0.554 198 207 216
0.240067 -0.449004 -0.554 197 209 221
0.243232 -0.449004 -0.554 121 136 157
0.245343 -0.449004 -0.554 122 136 163
0.270669 -0.449004 -0.554 197 203 219
0.293353 -0.448193 -0.553 140 164 200
0.294407 -0.448193 -0.553 171 195 231
0.351922 -0.449004 -0.554 118 151 192
0.360767 -0.448193 -0.553 206 211 217
0.370247 -0.448193 -0.553 178 191 208
0.37446 -0.448193 -0.553 63 94 151
0.37762 -0.448193 -0.553 59 95 153
0.40922 -0.448193 -0.553 84 124 175
0.437129 -0.449814 -0.555 189 196 206
0.464614 -0.449814 -0.555 187 195 206
0.478357 -0.449814 -0.555 15 64 130
0.493487 -0.448193 -0.553 103 107 118
0.510629 -0.389029 -0.48 167 121 88
0.512457 -0.389029 -0.48 162 116 83
0.525025 -0.39227 -0.484 149 108 78
0.527033 -0.393081 -0.485 149 110 81
0.59118 -0.430363 -0.531 172 156 140
0.83214 -0.45954 -0.567 116 115 110
0.83538 -0.45954 -0.567 117 116 111
0.855 -0.461971 -0.57 116 116 108
0.857171 -0.461971 -0.57 114 114 106
0.866289 -0.462782 -0.571 92 93 87
0.869551 -0.462782 -0.571 93 95 90
0.876077 -0.462782 -0.571 128 131 122
-0.0598095 -0.324952 -0.4 188 146 108
-0.037599 -0.330639 -0.407 177 132 99
-0.0293571 -0.333889 -0.411 170 123 93
-0.0285743 -0.333889 -0.411 168 121 91
0.00456762 -0.354198 -0.436 115 88 77
0.03542 -0.39238 -0.483 92 73 66
0.0722838 -0.450059 -0.554 217 216 224
0.0946143 -0.450871 -0.555 104 137 178
0.0988429 -0.450871 -0.555 111 135 171
0.125271 -0.450871 -0.555 203 208 212
0.142186 -0.450871 -0.555 99 118 151
0.150643 -0.450871 -0.555 189 198 207
0.155929 -0.450871 -0.555 114 142 179
0.1813 -0.450871 -0.555 170 182 198
0.201386 -0.450871 -0.555 169 180 202
0.204189 -0.450059 -0.554 146 162 185
0.237956 -0.450059 -0.554 195 204 213
0.240687 -0.449247 -0.553 195 207 219
0.274393 -0.449247 -0.553 195 207 219
0.275447 -0.449247 -0.553 192 204 216
0.303337 -0.448434 -0.552 202 204 216
0.324366 -0.448434 -0.552 81 114 165
0.338647 -0.449247 -0.553 194 198 201
0.34224 -0.448434 -0.552 111 133 157
0.34602 -0.449247 -0.553 122 160 205
0.3555 -0.449247 -0.553 89 132 175
0.363269 -0.448434 -0.552 209 210 212
0.388153 -0.449247 -0.553 138 171 224
0.394473 -0.449247 -0.553 195 198 203
0.412686 -0.448434 -0.552 67 112 177
0.466729 -0.450871 -0.555 101 114 133
0.470957 -0.450871 -0.555 71 105 153
0.47433 -0.450059 -0.554 24 76 134
0.502967 -0.449247 -0.553 53 82 122
0.50402 -0.449247 -0.553 35 64 104
0.486242 -0.411065 -0.506 146 109 90
0.504229 -0.389943 -0.48 173 124 94
0.50774 -0.38913 -0.479 170 124 91
0.5489 -0.405378 -0.499 137 103 75
0.848081 -0.462245 -0.569 108 109 101
0.88197 -0.464682 -0.572 100 103 94
-0.0751781 -0.333043 -0.409 181 143 107
-0.0708286 -0.327343 -0.402 185 145 109
-0.0575238 -0.325714 -0.4 183 144 103
-0.0493886 -0.327343 -0.402 183 140 105
-0.0406 -0.3306 -0.406 180 135 102
-0.0390533 -0.3306 -0.406 179 134 101
-0.0361371 -0.332229 -0.408 175 128 98
-0.00684857 -0.344443 -0.423 137 100 81
-0.0020381 -0.348514 -0.428 126 94 81
0.000410476 -0.350957 -0.431 123 91 78
0.0203219 -0.369686 -0.454 98 79 72
0.0270143 -0.378643 -0.465 97 80 73
0.0311486 -0.385971 -0.474 93 75 71
0.0321867 -0.3876 -0.476 92 73 67
0.104996 -0.451114 -0.554 203 210 218
0.107107 -0.451114 -0.554 193 206 225
0.123157 -0.451929 -0.555 209 213 216
0.134543 -0.451114 -0.554 210 210 218
0.137957 -0.451929 -0.555 203 206 213
0.140071 -0.451929 -0.555 110 118 139
0.156703 -0.451114 -0.554 154 180 215
0.16906 -0.4503 -0.553 204 206 221
0.211575 -0.451114 -0.554 197 206 223
0.216851 -0.451114 -0.554 138 165 194
0.255433 -0.4503 -0.553 154 177 219
0.264913 -0.4503 -0.553 94 128 176
0.285995 -0.448671 -0.551 113 147 185
0.292292 -0.448671 -0.551 108 136 176
0.341189 -0.449486 -0.552 135 158 189
0.362217 -0.449486 -0.552 209 210 212
0.363269 -0.449486 -0.552 206 207 209
0.372056 -0.448671 -0.551 117 142 199
0.380091 -0.449486 -0.552 56 90 153
0.45428 -0.451114 -0.554 71 98 141
0.465888 -0.451114 -0.554 103 114 134
0.470109 -0.451114 -0.554 74 106 153
0.47644 -0.451114 -0.554 34 80 140
0.4977 -0.4503 -0.553 118 134 150
0.484268 -0.406329 -0.499 153 115 92
0.503178 -0.390043 -0.479 175 126 94
0.508652 -0.390043 -0.479 171 125 92
-0.0666667 -0.326476 -0.4 190 151 112
-0.0567619 -0.326476 -0.4 184 145 106
-0.0546124 -0.327292 -0.401 183 140 105
-0.0383743 -0.33219 -0.407 178 133 100
-0.0146943 -0.340351 -0.417 148 105 86
0.000410476 -0.351778 -0.431 122 90 77
0.0796705 -0.45217 -0.554 111 131 156
0.0828362 -0.45217 -0.554 196 203 219
0.09972 -0.45217 -0.554 116 139 171
0.112586 -0.452986 -0.555 90 116 153
0.139819 -0.45217 -0.554 98 109 129
0.14404 -0.45217 -0.554 197 205 228
0.14615 -0.45217 -0.554 205 209 221
0.156703 -0.45217 -0.554 160 185 216
0.173587 -0.45217 -0.554 202 206 218
0.176752 -0.45217 -0.554 203 210 226
0.199968 -0.45217 -0.554 107 122 153
0.240251 -0.450537 -0.552 182 192 204
0.244457 -0.450537 -0.552 93 114 143
0.324828 -0.449721 -0.551 145 170 210
0.337593 -0.451353 -0.553 187 190 195
0.351703 -0.450537 -0.552 99 139 190
0.372056 -0.449721 -0.551 128 150 207
0.376937 -0.450537 -0.552 56 93 148
0.382194 -0.450537 -0.552 54 93 152
0.414789 -0.450537 -0.552 54 102 164
0.443728 -0.45217 -0.554 49 81 142
0.463993 -0.451353 -0.553 155 163 184
0.482953 -0.451353 -0.553 70 111 163
0.495749 -0.450537 -0.552 145 157 169
0.485254 -0.408911 -0.501 151 113 90
0.485018 -0.402382 -0.493 164 120 93
0.486671 -0.399117 -0.489 169 123 97
0.50759 -0.390139 -0.478 172 126 93
0.511232 -0.390139 -0.478 169 123 90
0.517943 -0.391771 -0.48 155 114 84
0.843449 -0.466045 -0.571 127 128 122
0.881329 -0.467677 -0.573 101 104 95
0.884603 -0.467677 -0.573 53 56 47
-0.07236 -0.328874 -0.402 181 143 106
-0.06422 -0.32642 -0.399 192 150 112
-0.06194 -0.32642 -0.399 185 145 109
-0.0208971 -0.338691 -0.414 159 115 90
0.0251343 -0.378778 -0.463 98 81 74
0.0367162 -0.39923 -0.488 80 74 74
0.0378771 -0.401685 -0.491 90 84 84
0.0607857 -0.454043 -0.555 194 194 196
0.0753133 -0.452407 -0.553 146 162 178
0.0828362 -0.453225 -0.554 211 215 227
0.0872143 -0.454043 -0.555 175 186 204
0.0976095 -0.453225 -0.554 103 137 174
0.104807 -0.452407 -0.553 210 215 219
0.12798 -0.452407 -0.553 192 198 212
0.147206 -0.453225 -0.554 212 211 225
0.157473 -0.452407 -0.553 167 191 217
0.179593 -0.452407 -0.553 114 133 165
0.182029 -0.453225 -0.554 143 157 184
0.21962 -0.452407 -0.553 117 147 185
0.251361 -0.45077 -0.551 87 118 165
0.256609 -0.45077 -0.551 76 109 163
0.272846 -0.451589 -0.552 196 205 212
0.304887 -0.45077 -0.551 195 201 213
0.306986 -0.45077 -0.551 195 199 210
0.313283 -0.45077 -0.551 57 90 141
0.335931 -0.451589 -0.552 183 190 198
0.34267 -0.45077 -0.551 96 133 178
0.352115 -0.45077 -0.551 92 132 183
0.36261 -0.45077 -0.551 204 208 217
0.36366 -0.45077 -0.551 191 197 211
0.372056 -0.45077 -0.551 106 129 183
0.417186 -0.45077 -0.551 86 127 181
0.434766 -0.451589 -0.552 79 119 171
0.43766 -0.452407 -0.553 67 104 157
0.4661 -0.452407 -0.553 159 175 208
0.484007 -0.452407 -0.553 79 117 164
0.501913 -0.452407 -0.553 114 130 153
0.511393 -0.452407 -0.553 24 47 81
0.49284 -0.423773 -0.518 132 99 82
0.492017 -0.397594 -0.486 170 123 95
0.49358 -0.39514 -0.483 174 127 97
0.498866 -0.393504 -0.481 177 128 96
0.851062 -0.467132 -0.571 98 99 93
-0.0767362 -0.33538 -0.409 177 139 102
-0.06042 -0.32718 -0.399 184 144 108
-0.0538486 -0.32882 -0.401 185 142 107
-0.052321 -0.32882 -0.401 183 140 105
-0.037599 -0.33374 -0.407 179 132 102
-0.0369143 -0.33456 -0.408 178 131 101
-0.0224743 -0.33948 -0.414 159 115 90
0.0020619 -0.35506 -0.433 116 88 76
0.00372857 -0.3567 -0.435 116 88 76
0.0122905 -0.3649 -0.445 103 80 72
0.0194571 -0.37228 -0.454 100 79 74
0.0345 -0.39606 -0.483 86 71 68
0.0902229 -0.45428 -0.554 122 146 180
0.1656 -0.45264 -0.552 151 174 205
0.202767 -0.45346 -0.553 180 187 205
0.204503 -0.45264 -0.552 197 199 211
0.207657 -0.45264 -0.552 194 203 218
0.225531 -0.45264 -0.552 103 136 181
0.237097 -0.45264 -0.552 195 201 215
0.238149 -0.45264 -0.552 197 203 217
0.248212 -0.45182 -0.551 66 98 147
0.25451 -0.45182 -0.551 64 100 160
0.261856 -0.45182 -0.551 96 128 175
0.270743 -0.45264 -0.552 196 203 221
0.295952 -0.451 -0.55 194 204 213
0.329026 -0.45182 -0.551 185 192 208
0.331125 -0.45182 -0.551 189 196 202
0.332174 -0.45182 -0.551 166 173 179
0.335323 -0.45182 -0.551 200 206 218
0.357363 -0.45182 -0.551 170 188 212
0.391997 -0.45182 -0.551 86 113 158
0.412988 -0.45182 -0.551 67 109 169
0.480847 -0.45346 -0.553 76 119 170
0.505073 -0.45346 -0.553 32 61 103
0.511393 -0.45346 -0.553 29 52 84
0.485218 -0.40918 -0.499 149 111 88
0.485909 -0.40344 -0.492 169 125 100
0.486733 -0.4018 -0.49 168 124 99
0.863866 -0.46986 -0.573 103 104 96
0.869747 -0.47068 -0.574 104 105 97
0.877833 -0.4715 -0.575 99 102 95
-0.0552381 -0.328762 -0.4 186 143 108
-0.0515571 -0.329584 -0.401 183 139 104
-0.0500295 -0.329584 -0.401 182 138 103
-0.0456733 -0.331228 -0.403 178 135 101
-0.0420429 -0.332871 -0.405 175 132 98
-0.037599 -0.334515 -0.407 178 133 100
-0.0346676 -0.336159 -0.409 173 128 97
-0.0255667 -0.339447 -0.413 162 116 92
0.00710762 -0.360816 -0.439 108 84 72
0.0185514 -0.372323 -0.453 102 82 75
0.116393 -0.454513 -0.553 199 211 235
0.1185 -0.454513 -0.553 172 178 200
0.126927 -0.454513 -0.553 172 187 210
0.139314 -0.453691 -0.552 201 206 228
0.14694 -0.454513 -0.553 210 206 231
0.171909 -0.453691 -0.552 202 213 219
0.191886 -0.453691 -0.552 153 179 216
0.206606 -0.453691 -0.552 198 206 219
0.207657 -0.453691 -0.552 194 202 215
0.218171 -0.453691 -0.552 85 126 172
0.225123 -0.45287 -0.551 89 125 173
0.246714 -0.452048 -0.55 70 102 151
0.27445 -0.45287 -0.551 145 152 158
0.282333 -0.452048 -0.55 73 116 169
0.319 -0.452048 -0.55 57 86 142
0.360511 -0.45287 -0.551 196 207 227
0.364048 -0.452048 -0.55 101 115 142
0.38465 -0.45287 -0.551 59 92 161
0.390948 -0.45287 -0.551 79 103 151
0.400714 -0.452048 -0.55 137 154 180
0.403857 -0.452048 -0.55 98 138 189
0.433714 -0.453691 -0.552 168 186 206
0.4503 -0.454513 -0.553 93 132 189
0.458949 -0.453691 -0.552 192 196 208
0.46736 -0.453691 -0.552 96 122 159
0.492433 -0.454513 -0.553 171 177 177
0.495593 -0.454513 -0.553 168 176 178
0.512318 -0.455335 -0.554 51 66 89
0.513969 -0.451226 -0.549 98 86 88
0.4872 -0.41424 -0.504 147 110 91
0.486223 -0.412596 -0.502 153 112 92
0.486733 -0.402733 -0.49 168 124 97
0.500571 -0.394514 -0.48 172 126 93
0.50562 -0.392049 -0.477 174 127 97
0.531478 -0.397802 -0.484 152 111 83
0.846403 -0.470951 -0.573 121 123 118
0.871262 -0.472595 -0.575 99 102 95
0.873452 -0.472595 -0.575 93 96 89
0.881119 -0.472595 -0.575 126 131 124
0.882214 -0.472595 -0.575 99 105 95
0.88858 -0.474239 -0.577 100 103 94
-0.0625429 -0.327876 -0.398 190 148 110
-0.0521905 -0.329524 -0.4 185 141 106
-0.0500295 -0.330348 -0.401 181 138 103
-0.037599 -0.33529 -0.407 176 133 99
0.00625714 -0.360829 -0.438 109 85 73
0.0158219 -0.36989 -0.449 103 80 72
0.07728 -0.454743 -0.552 176 193 211
0.0847933 -0.455567 -0.553 196 203 213
0.0858467 -0.455567 -0.553 169 189 213
0.0879533 -0.455567 -0.553 122 148 181
0.0921667 -0.455567 -0.553 156 177 206
0.140366 -0.454743 -0.552 204 208 220
0.175795 -0.453919 -0.551 192 198 210
0.176845 -0.453919 -0.551 177 185 196
0.23247 -0.453919 -0.551 200 208 211
0.246714 -0.453095 -0.55 67 104 148
0.24881 -0.453095 -0.55 58 98 150
0.255095 -0.453095 -0.55 58 93 149
0.280238 -0.453095 -0.55 83 120 172
0.283911 -0.452271 -0.549 49 102 170
0.297506 -0.452271 -0.549 201 205 216
0.301689 -0.452271 -0.549 191 200 209
0.313762 -0.453095 -0.55 67 100 153
0.322603 -0.452271 -0.549 86 117 172
0.352524 -0.453095 -0.55 62 104 154
0.360905 -0.453095 -0.55 172 188 204
0.365095 -0.453095 -0.55 76 107 154
0.370706 -0.452271 -0.549 79 110 156
0.371751 -0.452271 -0.549 71 102 148
0.373843 -0.452271 -0.549 51 86 142
0.374889 -0.452271 -0.549 45 86 142
0.389898 -0.453919 -0.551 112 142 180
0.412238 -0.453095 -0.55 88 130 180
0.425582 -0.453919 -0.551 206 209 226
0.462103 -0.454743 -0.552 189 196 204
0.486113 -0.455567 -0.553 95 119 143
0.49454 -0.455567 -0.553 156 156 158
0.498753 -0.455567 -0.553 137 141 144
0.505987 -0.45639 -0.554 96 108 106
0.511263 -0.45639 -0.554 104 112 125
0.514791 -0.453919 -0.551 90 84 88
0.489125 -0.419319 -0.509 137 104 87
0.491929 -0.399548 -0.485 169 122 94
0.49358 -0.3979 -0.483 177 130 100
0.520337 -0.393781 -0.478 159 115 86
0.527268 -0.396252 -0.481 152 111 81
0.854731 -0.471219 -0.572 71 74 67
0.87168 -0.474514 -0.576 111 114 105
-0.0727619 -0.330286 -0.4 182 142 107
-0.0686076 -0.328634 -0.398 188 148 112
-0.0427086 -0.333589 -0.404 177 134 100
-0.00844 -0.348451 -0.422 137 100 84
-0.00684857 -0.349277 -0.423 134 97 81
0.0313457 -0.393866 -0.477 91 72 68
0.0741257 -0.455794 -0.552 146 162 187
0.111977 -0.455794 -0.552 200 207 225
0.147726 -0.455794 -0.552 200 199 217
0.149829 -0.455794 -0.552 137 153 178
0.159003 -0.454969 -0.551 168 183 204
0.16919 -0.454143 -0.55 199 206 224
0.177894 -0.454969 -0.551 163 169 181
0.182423 -0.455794 -0.552 83 110 157
0.197835 -0.454969 -0.551 74 102 150
0.223024 -0.454969 -0.551 79 122 177
0.24881 -0.454143 -0.55 62 99 151
0.282866 -0.453317 -0.549 48 101 169
0.316329 -0.453317 -0.549 60 90 144
0.335762 -0.454143 -0.55 144 154 164
0.346238 -0.454143 -0.55 63 103 164
0.363386 -0.453317 -0.549 104 122 144
0.366523 -0.453317 -0.549 106 132 169
0.372797 -0.453317 -0.549 61 92 156
0.374889 -0.453317 -0.549 49 85 147
0.380117 -0.453317 -0.549 57 88 152
0.382209 -0.453317 -0.549 60 92 153
0.397571 -0.454143 -0.55 201 207 219
0.42873 -0.454969 -0.551 201 213 227
0.437127 -0.454969 -0.551 130 162 201
0.444229 -0.455794 -0.552 59 105 167
0.446331 -0.455794 -0.552 43 89 151
0.486992 -0.457446 -0.554 102 114 138
0.504931 -0.457446 -0.554 141 141 139
0.515484 -0.457446 -0.554 116 117 122
0.49945 -0.434326 -0.526 121 97 87
0.494394 -0.397994 -0.482 175 128 98
0.498743 -0.396343 -0.48 177 128 98
0.510163 -0.393866 -0.477 170 124 91
0.51 -0.39304 -0.476 169 123 90
0.516523 -0.393866 -0.477 164 119 88
0.846787 -0.47396 -0.574 121 122 117
0.883257 -0.478914 -0.58 99 101 90
-0.0589 -0.33022 -0.399 187 145 105
-0.0449057 -0.33353 -0.403 178 135 100
-0.0308476 -0.339324 -0.41 165 121 92
-0.0263533 -0.341807 -0.413 162 116 90
-0.0178286 -0.34429 -0.416 147 105 83
-0.0139333 -0.345945 -0.418 139 101 82
-0.00446286 -0.352566 -0.426 128 92 76
-0.00122571 -0.355049 -0.429 117 89 77
0.0708429 -0.456018 -0.551 142 159 179
0.0739914 -0.456018 -0.551 192 206 232
0.0879533 -0.457673 -0.553 121 146 176
0.092 -0.456846 -0.552 176 192 217
0.0972571 -0.456846 -0.552 128 146 166
0.135913 -0.456018 -0.551 151 165 194
0.157667 -0.45519 -0.55 170 186 211
0.189439 -0.456018 -0.551 114 146 203
0.191538 -0.456018 -0.551 53 89 147
0.20481 -0.45519 -0.55 198 201 218
0.229952 -0.45519 -0.55 152 175 207
0.264524 -0.45519 -0.55 197 196 210
0.290701 -0.453535 -0.548 76 116 168
0.357111 -0.454363 -0.549 162 178 211
0.380117 -0.454363 -0.549 53 87 148
0.3843 -0.454363 -0.549 113 150 205
0.394429 -0.45519 -0.55 201 209 222
0.426631 -0.456018 -0.551 203 210 220
0.440023 -0.456846 -0.552 56 90 151
0.446331 -0.456846 -0.552 52 93 159
0.482771 -0.458501 -0.554 120 133 150
0.483827 -0.458501 -0.554 121 134 151
0.495434 -0.458501 -0.554 156 158 157
0.4995 -0.459329 -0.555 154 155 157
0.487163 -0.414637 -0.501 151 111 86
0.525075 -0.39643 -0.479 161 118 86
0.540518 -0.403878 -0.488 149 106 74
-0.037599 -0.337616 -0.407 173 130 96
-0.0255667 -0.342593 -0.413 160 114 88
-0.0154886 -0.345911 -0.417 141 103 82
-0.0092219 -0.34923 -0.421 136 99 81
0.0223429 -0.381581 -0.46 95 76 70
0.0242524 -0.38407 -0.463 94 75 68
0.0655952 -0.457068 -0.551 182 191 206
0.079239 -0.457068 -0.551 205 212 228
0.0813381 -0.457068 -0.551 209 212 221
0.0907838 -0.457068 -0.551 166 187 218
0.119952 -0.456238 -0.55 124 147 178
0.12519 -0.456238 -0.55 103 126 170
0.139857 -0.456238 -0.55 205 207 220
0.205857 -0.456238 -0.55 193 200 208
0.224306 -0.455409 -0.549 69 111 169
0.25986 -0.455409 -0.549 115 145 195
0.291745 -0.454579 -0.548 74 114 165
0.30427 -0.454579 -0.548 70 110 162
0.343517 -0.455409 -0.549 92 132 184
0.351883 -0.455409 -0.549 109 151 201
0.362724 -0.454579 -0.548 189 200 206
0.363768 -0.454579 -0.548 179 197 211
0.365855 -0.454579 -0.548 169 181 197
0.37525 -0.454579 -0.548 49 91 151
0.378026 -0.455409 -0.549 46 86 147
0.405214 -0.455409 -0.549 118 153 193
0.420619 -0.456238 -0.55 198 209 215
0.426631 -0.457068 -0.551 206 214 217
0.482586 -0.460386 -0.555 163 164 168
0.498443 -0.460386 -0.555 152 152 152
0.515092 -0.462045 -0.557 119 119 119
0.516286 -0.461215 -0.556 117 113 110
0.486791 -0.407296 -0.491 163 119 92
0.49266 -0.40066 -0.483 175 130 99
0.521974 -0.395683 -0.477 162 117 84
-0.0767571 -0.336729 -0.405 182 142 107
-0.0754229 -0.334234 -0.402 184 141 106
-0.0500295 -0.333403 -0.401 181 137 102
-0.0285743 -0.341717 -0.411 166 120 96
-0.0232629 -0.344211 -0.414 157 112 89
0.0303733 -0.39576 -0.476 91 72 68
0.0855362 -0.458117 -0.551 129 153 179
0.145095 -0.457286 -0.55 200 204 213
0.160517 -0.456454 -0.549 101 130 174
0.165746 -0.456454 -0.549 144 160 183
0.175157 -0.456454 -0.549 194 204 214
0.184905 -0.457286 -0.55 65 101 159
0.188048 -0.457286 -0.55 61 93 150
0.203391 -0.456454 -0.549 200 202 214
0.204437 -0.456454 -0.549 196 198 210
0.267737 -0.455623 -0.548 150 156 182
0.291212 -0.454791 -0.547 74 110 160
0.301631 -0.454791 -0.547 84 113 147
0.31205 -0.454791 -0.547 51 81 141
0.35502 -0.456454 -0.549 119 153 190
0.372118 -0.455623 -0.548 83 114 169
0.397571 -0.457286 -0.55 199 208 215
0.402077 -0.456454 -0.549 133 146 162
0.425582 -0.458117 -0.551 182 186 185
0.44398 -0.45978 -0.553 163 167 166
0.448193 -0.45978 -0.553 170 176 176
0.449247 -0.45978 -0.553 171 175 176
0.458727 -0.45978 -0.553 182 184 181
0.473274 -0.460611 -0.554 167 167 165
0.485573 -0.462274 -0.556 169 167 170
0.507666 -0.463106 -0.557 133 132 127
0.508727 -0.463106 -0.557 126 127 122
0.490081 -0.403243 -0.485 170 123 93
0.490914 -0.402411 -0.484 171 126 95
0.49174 -0.40158 -0.483 173 128 97
0.494394 -0.400749 -0.482 173 127 94
0.521787 -0.39576 -0.476 163 118 85
-0.07888 -0.34 -0.408 182 139 104
-0.05662 -0.3325 -0.399 184 141 106
-0.0434781 -0.336667 -0.404 177 134 100
-0.0338886 -0.340833 -0.409 169 124 95
-0.0155257 -0.348333 -0.418 145 104 84
0.0020619 -0.360833 -0.433 112 86 73
0.00456762 -0.363333 -0.436 106 84 71
0.0079619 -0.366667 -0.44 103 83 72
0.057199 -0.459167 -0.551 195 208 227
0.0759524 -0.458333 -0.55 205 211 227
0.0780476 -0.458333 -0.55 209 213 225
0.0895714 -0.458333 -0.55 152 175 209
0.108429 -0.458333 -0.55 204 207 216
0.132283 -0.4575 -0.549 89 120 167
0.137511 -0.4575 -0.549 203 203 215
0.158137 -0.456667 -0.548 115 141 190
0.176203 -0.4575 -0.549 196 199 216
0.203391 -0.4575 -0.549 196 200 212
0.22181 -0.456667 -0.548 55 104 173
0.229116 -0.456667 -0.548 153 181 221
0.26043 -0.456667 -0.548 59 98 155
0.281835 -0.455833 -0.547 63 105 163
0.29017 -0.455833 -0.547 95 129 177
0.29538 -0.455833 -0.547 178 195 215
0.302673 -0.455833 -0.547 109 133 161
0.326637 -0.455833 -0.547 171 183 199
0.330366 -0.456667 -0.548 189 198 213
0.37525 -0.456667 -0.548 48 89 143
0.385346 -0.4575 -0.549 109 141 200
0.400714 -0.458333 -0.55 182 187 191
0.408048 -0.458333 -0.55 131 147 172
0.414626 -0.4575 -0.549 151 161 171
0.468207 -0.460833 -0.553 179 179 181
0.475385 -0.461667 -0.554 172 172 172
0.485573 -0.463333 -0.556 163 162 167
0.490869 -0.463333 -0.556 160 155 161
0.492987 -0.463333 -0.556 155 150 154
0.497949 -0.465 -0.558 142 141 139
0.50097 -0.465833 -0.559 140 136 135
0.491057 -0.425 -0.51 131 102 86
0.488534 -0.4075 -0.489 162 118 91
0.49174 -0.4025 -0.483 175 128 98
0.545351 -0.4075 -0.489 148 104 75
-0.0708819 -0.332425 -0.398 186 146 110
-0.0652457 -0.330754 -0.396 187 145 107
-0.0507933 -0.33493 -0.401 178 134 99
-0.0434781 -0.337436 -0.404 177 133 98
-0.00204286 -0.358317 -0.429 118 90 78
0.0105714 -0.370846 -0.444 104 81 73
0.0262971 -0.390891 -0.468 96 72 68
0.0293429 -0.395903 -0.474 93 69 67
0.033719 -0.40509 -0.485 79 65 65
0.06954 -0.458546 -0.549 96 128 179
0.101957 -0.458546 -0.549 201 210 215
0.1281 -0.458546 -0.549 67 103 153
0.130191 -0.458546 -0.549 82 108 167
0.157093 -0.45771 -0.548 104 134 186
0.175882 -0.45771 -0.548 190 191 211
0.182477 -0.458546 -0.549 65 102 157
0.184569 -0.458546 -0.549 47 83 145
0.29796 -0.45604 -0.546 191 205 218
0.302673 -0.456875 -0.547 157 174 194
0.306841 -0.456875 -0.547 165 183 205
0.341848 -0.45771 -0.548 115 146 177
0.43056 -0.461051 -0.552 188 191 196
0.482396 -0.464392 -0.556 158 158 156
0.487179 -0.41929 -0.502 144 107 88
0.48706 -0.415113 -0.497 150 113 87
0.499529 -0.400079 -0.479 173 126 96
0.504405 -0.396738 -0.475 169 125 90
0.506214 -0.396738 -0.475 170 126 91
0.510566 -0.395903 -0.474 174 128 92
0.561256 -0.416784 -0.499 136 105 77
0.5688 -0.42096 -0.504 134 103 83
-0.0616295 -0.332346 -0.397 184 141 106
-0.059361 -0.332346 -0.397 182 139 104
-0.0529524 -0.334857 -0.4 180 136 101
-0.0092219 -0.352437 -0.421 133 98 78
-0.00686476 -0.354949 -0.424 130 98 77
-0.00366 -0.35746 -0.427 119 91 79
-0.000410476 -0.360809 -0.431 114 88 75
0.00884 -0.370017 -0.442 106 81 74
0.0123181 -0.373366 -0.446 101 81 70
0.0131971 -0.374203 -0.447 100 80 69
0.01408 -0.37504 -0.448 99 79 68
0.020501 -0.383411 -0.458 99 79 72
0.0643114 -0.459591 -0.549 115 143 182
0.08418 -0.459591 -0.549 108 137 167
0.0894086 -0.459591 -0.549 144 166 203
0.0904543 -0.459591 -0.549 158 180 217
0.118689 -0.459591 -0.549 68 100 151
0.152918 -0.458754 -0.548 85 121 171
0.170663 -0.458754 -0.548 198 199 217
0.21659 -0.458754 -0.548 52 96 159
0.232866 -0.457917 -0.547 174 187 204
0.247452 -0.457917 -0.547 50 75 142
0.265165 -0.457917 -0.547 81 113 152
0.27404 -0.45708 -0.546 114 141 170
0.363768 -0.458754 -0.548 180 185 191
0.380117 -0.459591 -0.549 157 162 166
0.419285 -0.461266 -0.551 185 199 200
0.435553 -0.46294 -0.553 194 192 195
0.45662 -0.46294 -0.553 183 174 175
0.485867 -0.4688 -0.56 153 147 149
0.49266 -0.40434 -0.483 174 127 99
0.493476 -0.403503 -0.482 173 126 96
0.506214 -0.397643 -0.475 169 123 89
-0.0485019 -0.336458 -0.401 179 135 98
-0.0390533 -0.340653 -0.406 175 130 97
-0.02478 -0.346527 -0.413 155 111 86
-0.0224743 -0.347366 -0.414 151 109 87
0.00456762 -0.365825 -0.436 108 84 74
0.0114429 -0.373376 -0.445 101 81 72
0.02838 -0.39687 -0.473 91 71 64
0.109078 -0.459798 -0.548 195 201 215
0.124735 -0.459798 -0.548 81 111 163
0.152918 -0.459798 -0.548 83 120 173
0.187022 -0.458959 -0.547 49 84 148
0.192231 -0.458959 -0.547 48 84 144
0.21307 -0.458959 -0.547 66 105 146
0.237033 -0.458959 -0.547 82 109 152
0.262039 -0.458959 -0.547 137 166 200
0.3146 -0.45812 -0.546 69 108 167
0.327679 -0.458959 -0.547 198 207 214
0.336629 -0.459798 -0.548 187 196 203
0.339334 -0.460637 -0.549 164 176 188
0.409839 -0.462315 -0.551 197 198 200
0.410889 -0.462315 -0.551 196 197 199
0.424251 -0.463154 -0.552 195 193 194
0.432393 -0.463993 -0.553 189 187 188
0.453225 -0.464832 -0.554 177 173 172
0.467998 -0.464832 -0.554 152 150 151
0.474776 -0.46735 -0.557 142 140 141
0.493433 -0.474062 -0.565 121 119 120
0.512577 -0.454764 -0.542 100 85 78
0.489129 -0.423719 -0.505 139 102 86
0.487603 -0.410294 -0.489 157 113 88
0.501986 -0.400226 -0.477 173 127 93
0.506954 -0.397709 -0.474 171 125 91
0.530352 -0.401065 -0.478 146 106 80
0.559586 -0.415329 -0.495 138 104 77
-0.0792667 -0.341427 -0.406 185 142 107
-0.0758095 -0.336381 -0.4 183 139 102
-0.0667543 -0.333017 -0.396 191 147 112
-0.05434 -0.33554 -0.399 182 138 103
-0.0240514 -0.348154 -0.414 155 110 87
-0.0201571 -0.348995 -0.415 148 107 87
-0.0123705 -0.352359 -0.419 136 100 78
-0.00366 -0.359087 -0.427 121 95 82
0.00456762 -0.366655 -0.436 108 84 74
0.0114429 -0.374224 -0.445 102 79 71
0.05252 -0.45916 -0.546 81 125 174
0.0590829 -0.461683 -0.549 134 168 206
0.060019 -0.460842 -0.548 133 157 203
0.065119 -0.460001 -0.547 84 117 162
0.0713705 -0.460001 -0.547 197 212 231
0.081939 -0.460842 -0.548 154 164 176
0.0840267 -0.460842 -0.548 97 130 171
0.121604 -0.460842 -0.548 64 94 146
0.1586 -0.45916 -0.546 74 111 179
0.172435 -0.460001 -0.547 136 143 161
0.190148 -0.460001 -0.547 54 88 149
0.196399 -0.460001 -0.547 69 106 161
0.203692 -0.460001 -0.547 163 177 203
0.204734 -0.460001 -0.547 173 179 193
0.25636 -0.45916 -0.546 73 106 173
0.26884 -0.45916 -0.546 187 199 213
0.297414 -0.458319 -0.545 191 200 199
0.32188 -0.45916 -0.546 113 129 154
0.335585 -0.460842 -0.548 162 163 167
0.357111 -0.461683 -0.549 184 188 197
0.361294 -0.461683 -0.549 186 191 195
0.396914 -0.464206 -0.552 195 196 198
0.397966 -0.464206 -0.552 195 196 198
0.400069 -0.464206 -0.552 192 193 195
0.433175 -0.465888 -0.554 177 175 176
0.451114 -0.465888 -0.554 157 153 154
0.462722 -0.465888 -0.554 129 127 128
0.49194 -0.47682 -0.567 97 95 96
0.52452 -0.469251 -0.558 86 76 74
0.496787 -0.435613 -0.518 125 95 84
0.487119 -0.419635 -0.499 149 108 86
0.486733 -0.412067 -0.49 160 116 91
0.489319 -0.409544 -0.487 167 121 95
0.521201 -0.39777 -0.473 166 120 87
0.553193 -0.412908 -0.491 140 106 78
0.562606 -0.417112 -0.496 137 101 77
-0.0820076 -0.347257 -0.412 184 142 104
-0.0390533 -0.3422 -0.406 174 129 96
-0.00767238 -0.357371 -0.424 128 97 79
-0.00366857 -0.360743 -0.428 122 94 82
0.00123714 -0.364957 -0.433 109 85 73
0.00798 -0.3717 -0.441 104 81 73
0.0195857 -0.385186 -0.457 99 75 71
0.0892457 -0.461886 -0.548 99 133 179
0.0955086 -0.461886 -0.548 82 121 176
0.117429 -0.461886 -0.548 75 106 152
0.14092 -0.4602 -0.546 199 202 217
0.149513 -0.461043 -0.547 83 110 155
0.19708 -0.4602 -0.546 54 94 156
0.20956 -0.4602 -0.546 111 133 170
0.21372 -0.4602 -0.546 68 114 174
0.21476 -0.4602 -0.546 58 104 164
0.21892 -0.4602 -0.546 45 93 157
0.2262 -0.4602 -0.546 81 119 168
0.25116 -0.4602 -0.546 44 79 145
0.25844 -0.4602 -0.546 143 167 203
0.27404 -0.4602 -0.546 139 155 168
0.27612 -0.4602 -0.546 109 133 169
0.28236 -0.4602 -0.546 65 106 168
0.31356 -0.4602 -0.546 98 118 143
0.32084 -0.4602 -0.546 147 158 154
0.328721 -0.461043 -0.547 179 179 189
0.35881 -0.463571 -0.55 183 187 190
0.363 -0.463571 -0.55 186 190 191
0.364048 -0.463571 -0.55 185 189 190
0.368238 -0.463571 -0.55 187 189 188
0.419753 -0.4661 -0.553 173 171 172
0.424733 -0.466943 -0.554 169 165 166
0.486791 -0.413843 -0.491 158 116 91
0.487603 -0.412157 -0.489 151 109 84
0.493369 -0.405414 -0.481 170 123 95
0.53106 -0.402043 -0.477 146 109 83
-0.07562 -0.33706 -0.399 185 143 105
-0.07128 -0.334526 -0.396 188 144 107
-0.0682629 -0.334526 -0.396 187 144 109
-0.0513 -0.33706 -0.399 180 137 102
-0.0116 -0.3548 -0.42 134 97 79
0.0254057 -0.395349 -0.468 90 71 65
0.0285 -0.401262 -0.475 87 69 67
0.03174 -0.40802 -0.483 87 68 70
0.06604 -0.46124 -0.546 145 168 199
0.0975962 -0.46293 -0.548 96 130 176
0.100544 -0.462085 -0.547 175 195 228
0.116172 -0.462085 -0.547 114 142 189
0.12555 -0.462085 -0.547 65 91 148
0.13676 -0.46124 -0.546 155 167 191
0.15028 -0.46124 -0.546 54 92 154
0.164538 -0.460395 -0.545 97 127 161
0.19084 -0.46124 -0.546 40 74 138
0.19292 -0.46124 -0.546 50 85 149
0.2418 -0.46124 -0.546 176 188 202
0.24596 -0.46124 -0.546 57 93 145
0.26468 -0.46124 -0.546 189 197 208
0.273 -0.46124 -0.546 176 193 203
0.27924 -0.46124 -0.546 103 134 178
0.290148 -0.460395 -0.545 112 127 150
0.291186 -0.460395 -0.545 131 140 155
0.328278 -0.46293 -0.548 180 183 190
0.335151 -0.463774 -0.549 184 188 189
0.338289 -0.463774 -0.549 182 186 185
0.369957 -0.465464 -0.551 184 185 187
0.372056 -0.465464 -0.551 185 186 188
0.4255 -0.468843 -0.555 139 134 138
0.430786 -0.468843 -0.555 131 126 130
0.456979 -0.469688 -0.556 75 73 76
0.508743 -0.489962 -0.58 57 54 61
0.511714 -0.456171 -0.54 102 85 78
0.489992 -0.408865 -0.484 173 126 98
0.495754 -0.403796 -0.478 173 126 96
0.506786 -0.399572 -0.473 172 126 93
-0.0652457 -0.33528 -0.396 185 141 102
-0.0345829 -0.34544 -0.408 170 123 93
-0.00447333 -0.361527 -0.427 122 95 78
0.00542286 -0.37084 -0.438 106 81 74
0.0177276 -0.384387 -0.454 98 78 71
0.06084 -0.46228 -0.546 70 100 160
0.07228 -0.46228 -0.546 205 211 225
0.08268 -0.46228 -0.546 95 128 182
0.118256 -0.463127 -0.547 54 83 139
0.119298 -0.463127 -0.547 52 81 137
0.14924 -0.46228 -0.546 68 95 142
0.166614 -0.461433 -0.545 137 154 180
0.19292 -0.46228 -0.546 71 105 166
0.197757 -0.461433 -0.545 123 144 171
0.219557 -0.461433 -0.545 52 98 158
0.221633 -0.461433 -0.545 85 126 182
0.22308 -0.46228 -0.546 93 134 190
0.243433 -0.461433 -0.545 113 134 165
0.246548 -0.461433 -0.545 51 80 146
0.25948 -0.46228 -0.546 147 170 202
0.2626 -0.46228 -0.546 192 198 210
0.28132 -0.46228 -0.546 108 132 168
0.308925 -0.463127 -0.547 179 183 184
0.408263 -0.470747 -0.556 136 132 133
0.409322 -0.470747 -0.556 134 130 131
0.416291 -0.469053 -0.554 120 116 117
0.426267 -0.470747 -0.556 102 97 101
0.453557 -0.471593 -0.557 65 63 68
0.465 -0.47244 -0.558 59 58 63
0.512485 -0.493607 -0.583 54 53 59
0.487603 -0.41402 -0.489 163 117 91
-0.059361 -0.336883 -0.397 183 139 102
-0.05358 -0.33858 -0.399 182 139 104
-0.04556 -0.341126 -0.402 178 132 99
-0.00846 -0.358946 -0.423 125 96 78
-0.00527429 -0.361491 -0.426 121 94 77
-0.00366857 -0.363189 -0.428 120 92 81
0.00290667 -0.369977 -0.436 107 82 75
0.02546 -0.39798 -0.469 91 64 69
0.0638429 -0.462471 -0.545 104 130 167
0.07956 -0.46332 -0.546 188 195 211
0.0963762 -0.464169 -0.547 64 113 172
0.10036 -0.46332 -0.546 136 163 206
0.13651 -0.462471 -0.545 102 122 149
0.143776 -0.462471 -0.545 115 128 163
0.144814 -0.462471 -0.545 112 125 160
0.176995 -0.462471 -0.545 145 167 204
0.214367 -0.462471 -0.545 95 138 191
0.227862 -0.462471 -0.545 167 187 214
0.238243 -0.462471 -0.545 191 201 211
0.27404 -0.46332 -0.546 159 163 166
0.28132 -0.46332 -0.546 168 182 185
0.299 -0.46332 -0.546 179 184 180
0.314134 -0.464169 -0.547 186 185 191
0.324103 -0.465017 -0.548 184 188 191
0.370247 -0.46926 -0.553 162 160 163
0.374082 -0.470109 -0.554 158 156 159
0.407271 -0.474351 -0.559 107 102 106
0.437366 -0.473503 -0.558 60 58 63
0.489048 -0.424286 -0.5 145 108 82
0.486846 -0.417497 -0.492 160 116 91
0.520791 -0.399677 -0.471 164 120 75
0.54602 -0.40986 -0.483 143 103 77
-0.0782905 -0.341041 -0.401 186 142 105
-0.0688429 -0.335938 -0.395 187 145 105
-0.0622286 -0.336789 -0.396 187 142 103
-0.05572 -0.33849 -0.398 182 140 102
-0.0139667 -0.35635 -0.419 137 100 81
-0.00366857 -0.364004 -0.428 120 92 81
-0.000411429 -0.367406 -0.432 113 86 77
0.00628571 -0.37421 -0.44 103 80 74
0.00972571 -0.377611 -0.444 101 78 72
0.0265219 -0.401425 -0.472 90 70 69
0.08164 -0.46436 -0.546 109 138 172
0.1118 -0.46436 -0.546 83 120 175
0.117 -0.46436 -0.546 55 86 141
0.11804 -0.46436 -0.546 54 81 136
0.12116 -0.46436 -0.546 54 83 141
0.12532 -0.46436 -0.546 50 81 145
0.140662 -0.46351 -0.545 180 188 207
0.162164 -0.462659 -0.544 70 100 164
0.170453 -0.462659 -0.544 181 191 200
0.175634 -0.462659 -0.544 167 176 193
0.195681 -0.46351 -0.545 179 188 205
0.210214 -0.46351 -0.545 121 142 163
0.216443 -0.46351 -0.545 71 111 162
0.222671 -0.46351 -0.545 99 133 181
0.239281 -0.46351 -0.545 166 175 180
0.25636 -0.46436 -0.546 145 155 156
0.26988 -0.46436 -0.546 180 178 179
0.291212 -0.46521 -0.547 180 178 181
0.30949 -0.466061 -0.548 180 188 191
0.364585 -0.471164 -0.554 150 148 149
0.383905 -0.472865 -0.556 114 112 115
0.510844 -0.457556 -0.538 99 84 81
0.48907 -0.41163 -0.484 170 124 98
0.492343 -0.408229 -0.48 172 125 95
-0.0616295 -0.338395 -0.397 186 143 101
-0.05358 -0.3401 -0.399 179 137 99
-0.0462105 -0.341805 -0.401 177 133 98
-0.0224743 -0.352886 -0.414 150 109 87
-0.0178714 -0.355443 -0.417 141 105 83
-0.00608571 -0.363114 -0.426 123 94 80
-0.00366857 -0.364819 -0.428 118 90 79
-0.00204762 -0.366524 -0.43 115 88 77
0.0196714 -0.391243 -0.459 96 75 70
0.0235219 -0.39721 -0.466 92 71 68
0.0275952 -0.404881 -0.475 86 67 61
0.0547 -0.466252 -0.547 67 97 157
0.0897952 -0.464548 -0.545 52 94 154
0.111595 -0.464548 -0.545 95 124 180
0.142476 -0.463695 -0.544 177 182 204
0.160091 -0.463695 -0.544 98 133 189
0.161128 -0.463695 -0.544 82 117 173
0.162164 -0.463695 -0.544 76 111 151
0.182888 -0.463695 -0.544 31 72 136
0.221633 -0.464548 -0.545 92 123 167
0.222671 -0.464548 -0.545 95 126 170
0.225786 -0.464548 -0.545 96 125 157
0.290701 -0.467105 -0.548 175 180 176
0.301139 -0.467105 -0.548 181 179 180
0.306358 -0.467105 -0.548 172 181 180
0.310054 -0.467957 -0.549 174 182 184
0.330075 -0.469662 -0.551 163 161 162
0.338647 -0.471367 -0.553 161 158 165
0.370803 -0.474776 -0.557 112 109 116
0.373594 -0.475629 -0.558 109 102 109
0.388426 -0.478186 -0.561 79 77 82
0.486846 -0.419371 -0.492 154 114 88
0.517895 -0.400619 -0.47 167 120 90
-0.0735429 -0.338297 -0.396 186 143 101
-0.065081 -0.337443 -0.395 186 144 102
-0.0367333 -0.34684 -0.406 165 118 92
-0.0224743 -0.353674 -0.414 155 111 86
0.00458857 -0.374177 -0.438 104 81 75
0.0276533 -0.40664 -0.476 86 69 62
0.033201 -0.419454 -0.491 146 143 152
0.0411838 -0.445083 -0.521 153 170 188
0.059581 -0.464731 -0.544 60 99 158
0.0814905 -0.465586 -0.545 84 113 153
0.0897952 -0.465586 -0.545 60 102 160
0.0970619 -0.465586 -0.545 86 119 173
0.105367 -0.465586 -0.545 172 187 194
0.146621 -0.464731 -0.544 83 121 160
0.150766 -0.464731 -0.544 92 129 181
0.169106 -0.463877 -0.543 184 192 205
0.171174 -0.463877 -0.543 180 191 209
0.189105 -0.464731 -0.544 32 74 146
0.203611 -0.464731 -0.544 184 194 204
0.218519 -0.465586 -0.545 115 128 137
0.222671 -0.465586 -0.545 142 145 152
0.23409 -0.465586 -0.545 175 176 180
0.243433 -0.465586 -0.545 174 177 182
0.272458 -0.467294 -0.547 181 182 186
0.275584 -0.467294 -0.547 183 184 188
0.277668 -0.467294 -0.547 182 183 185
0.300095 -0.468149 -0.548 175 175 175
0.323778 -0.470711 -0.551 159 159 161
0.335487 -0.47242 -0.553 146 144 147
0.3441 -0.474129 -0.555 135 134 139
0.360422 -0.477546 -0.559 107 105 110
0.3632 -0.4784 -0.56 101 99 104
0.3664 -0.4784 -0.56 95 93 98
0.3696 -0.4784 -0.56 88 86 91
0.370667 -0.4784 -0.56 86 84 89
0.429938 -0.482671 -0.565 59 58 63
0.4407 -0.482671 -0.565 59 58 64
0.49876 -0.44252 -0.518 117 88 74
0.487464 -0.416037 -0.487 157 113 86
0.4964 -0.40664 -0.476 172 121 90
0.49912 -0.40664 -0.476 176 130 97
0.500479 -0.404077 -0.473 173 127 94
0.502281 -0.404077 -0.473 172 126 93
0.506437 -0.402369 -0.471 172 123 91
0.5159 -0.40066 -0.469 167 121 88
-0.0742971 -0.339051 -0.396 186 141 99
-0.0570924 -0.339908 -0.397 181 137 98
-0.0563362 -0.339908 -0.397 181 137 98
-0.0542038 -0.340764 -0.398 180 136 97
-0.04556 -0.344189 -0.402 178 134 99
-0.0367333 -0.347613 -0.406 165 118 90
-0.03596 -0.347613 -0.406 165 118 90
-0.0163219 -0.357888 -0.418 143 105 86
0.00290667 -0.373299 -0.436 103 81 70
0.00458857 -0.375011 -0.438 103 80 74
0.00628571 -0.376724 -0.44 100 80 73
0.0123733 -0.383573 -0.448 99 79 70
0.0594714 -0.464911 -0.543 63 98 156
0.0625743 -0.464911 -0.543 61 96 160
0.0823771 -0.465768 -0.544 92 124 171
0.112633 -0.466624 -0.545 131 162 193
0.117824 -0.466624 -0.545 52 87 145
0.129006 -0.465768 -0.544 164 183 226
0.142214 -0.464911 -0.543 183 190 206
0.144283 -0.464911 -0.543 154 163 180
0.163934 -0.464911 -0.543 179 191 207
0.19325 -0.465768 -0.544 119 134 155
0.219557 -0.466624 -0.545 170 177 183
0.232014 -0.466624 -0.545 175 176 180
0.23409 -0.466624 -0.545 175 176 180
0.253704 -0.468336 -0.547 176 177 181
0.260997 -0.468336 -0.547 180 181 185
0.272956 -0.469192 -0.548 179 180 182
0.290714 -0.470905 -0.55 171 171 173
0.302238 -0.470905 -0.55 165 163 166
0.311184 -0.471761 -0.551 154 154 156
0.322375 -0.47433 -0.554 142 142 144
0.351467 -0.479467 -0.56 93 91 96
0.365794 -0.482891 -0.564 71 68 75
0.374389 -0.482891 -0.564 68 65 72
0.38502 -0.48546 -0.567 63 62 68
0.394657 -0.488029 -0.57 62 61 67
0.457651 -0.484604 -0.566 17 17 25
0.509966 -0.458918 -0.536 103 80 72
0.499723 -0.444363 -0.519 118 89 75
0.492997 -0.434089 -0.507 132 99 80
0.488989 -0.426383 -0.498 146 104 82
0.487389 -0.416109 -0.486 161 117 90
0.488233 -0.415252 -0.485 162 116 90
0.493933 -0.409259 -0.478 174 125 95
0.497307 -0.407547 -0.476 176 130 96
0.498976 -0.40669 -0.475 176 130 97
0.500786 -0.40669 -0.475 175 129 96
0.500479 -0.404978 -0.473 171 125 92
0.501219 -0.404122 -0.472 170 124 91
0.514314 -0.40241 -0.47 171 125 92
0.540146 -0.408403 -0.477 148 108 73
0.54834 -0.411828 -0.481 141 104 77
-0.0549619 -0.341522 -0.398 179 135 96
-0.0178714 -0.357826 -0.417 144 103 81
0.00628571 -0.377562 -0.44 100 80 73
0.0114943 -0.383569 -0.447 98 80 70
0.067621 -0.465088 -0.542 100 128 167
0.0791229 -0.465946 -0.543 156 178 199
0.0834133 -0.466804 -0.544 104 138 184
0.10621 -0.466804 -0.544 185 195 207
0.116571 -0.466804 -0.544 63 94 148
