ply
format ascii 1.0
comment Created by Open3D
element vertex 1296
property double x
property double y
property double z
property uchar red
property uchar green
property uchar blue
end_header
0.01298 -0.318993 -0.413 187 144 110
0.0138 -0.319766 -0.414 186 143 109
0.100543 -0.393914 -0.51 171 171 183
0.448943 -0.440257 -0.57 137 141 150
0.4522 -0.440257 -0.57 140 138 149
0.457629 -0.440257 -0.57 139 140 144
0.465038 -0.390825 -0.506 157 115 99
0.465258 -0.385418 -0.499 162 121 99
0.474429 -0.375377 -0.486 168 122 98
0.51319 -0.380784 -0.493 153 111 89
0.522287 -0.385418 -0.499 149 107 85
-0.0130429 -0.321329 -0.415 190 151 118
0.00667048 -0.319006 -0.412 189 146 112
0.01298 -0.31978 -0.413 188 145 111
0.0194133 -0.322103 -0.416 179 136 104
0.0307267 -0.324426 -0.419 164 120 95
0.0382714 -0.327523 -0.423 156 111 88
0.0604857 -0.339137 -0.438 116 83 74
0.0635638 -0.342234 -0.442 108 83 78
0.0959057 -0.387917 -0.501 89 73 74
0.447071 -0.440569 -0.569 137 142 148
0.463057 -0.441343 -0.57 91 99 120
0.4674 -0.441343 -0.57 120 128 147
0.469571 -0.441343 -0.57 110 123 140
0.487172 -0.440569 -0.569 126 128 141
0.46624 -0.384046 -0.496 165 123 99
0.468043 -0.378626 -0.489 169 127 102
0.468911 -0.377077 -0.487 172 128 103
0.479919 -0.375529 -0.485 168 120 97
0.485383 -0.374754 -0.484 171 123 101
0.527339 -0.388691 -0.502 146 109 82
-0.00588571 -0.31979 -0.412 193 153 118
-0.00353143 -0.31979 -0.412 193 155 116
-0.00117714 -0.31979 -0.412 193 153 117
0.00274667 -0.31979 -0.412 185 145 109
0.0138 -0.321343 -0.414 186 143 109
0.0202057 -0.322895 -0.416 177 134 102
0.0233752 -0.322895 -0.416 172 127 98
0.0324 -0.326 -0.42 160 115 92
0.034081 -0.326776 -0.421 161 115 92
0.0390771 -0.328329 -0.423 152 107 88
0.0415924 -0.329105 -0.424 150 104 88
0.0433095 -0.329881 -0.425 146 103 87
0.0585486 -0.338419 -0.436 120 85 79
0.0880419 -0.375676 -0.484 88 71 64
0.10251 -0.399738 -0.515 227 231 243
0.470915 -0.441652 -0.569 100 117 145
0.478502 -0.441652 -0.569 54 80 117
0.472952 -0.403619 -0.52 145 109 87
0.466237 -0.382662 -0.493 174 129 106
0.467151 -0.38111 -0.491 169 124 101
0.470726 -0.377229 -0.486 170 126 101
0.505196 -0.378781 -0.488 158 114 89
0.588187 -0.425352 -0.548 196 187 172
0.592456 -0.427681 -0.551 190 187 182
1.02474 -0.441652 -0.569 102 102 102
1.04031 -0.445533 -0.574 98 99 101
-0.0172 -0.3268 -0.42 191 150 118
0.0138 -0.322131 -0.414 184 141 107
0.0145886 -0.322131 -0.414 183 140 106
0.0162048 -0.32291 -0.415 183 140 106
0.0217905 -0.323688 -0.416 176 131 102
0.03 -0.3268 -0.42 162 118 93
0.0415924 -0.329912 -0.424 148 102 86
0.0913714 -0.382823 -0.492 88 74 74
0.102908 -0.402275 -0.517 215 218 233
0.451407 -0.442736 -0.569 144 145 150
0.464412 -0.442736 -0.569 70 80 92
0.487398 -0.441958 -0.568 128 135 145
0.477408 -0.409278 -0.526 141 110 92
0.466169 -0.389826 -0.501 163 122 100
0.467133 -0.381267 -0.49 167 122 99
0.468043 -0.380489 -0.489 169 124 101
0.468974 -0.380489 -0.489 170 125 102
0.468911 -0.378932 -0.487 168 123 100
0.473452 -0.377376 -0.485 169 123 99
0.482617 -0.376598 -0.484 166 120 94
0.489992 -0.376598 -0.484 162 116 90
0.492758 -0.376598 -0.484 161 115 91
0.4947 -0.377376 -0.485 160 114 90
0.9379 -0.439624 -0.565 186 188 174
0.976643 -0.439624 -0.565 116 117 112
0.978795 -0.439624 -0.565 111 116 110
0.982684 -0.440402 -0.566 109 114 107
0.991566 -0.441958 -0.568 112 112 110
0.99414 -0.44118 -0.567 109 110 114
-0.00824 -0.32136 -0.412 193 153 117
-0.00510095 -0.32136 -0.412 193 153 117
0.0019619 -0.32136 -0.412 190 147 112
0.0202057 -0.32448 -0.416 177 134 102
0.0258762 -0.32604 -0.418 165 119 93
0.0390771 -0.32994 -0.423 151 106 87
0.0558 -0.33852 -0.434 122 88 79
0.0586829 -0.34086 -0.437 116 85 80
0.0703229 -0.35334 -0.453 94 73 70
0.0804648 -0.36816 -0.472 85 69 69
0.093059 -0.38688 -0.496 88 76 78
0.101331 -0.40092 -0.514 223 226 245
0.103107 -0.40404 -0.518 208 211 230
0.464678 -0.44304 -0.568 109 119 128
0.479825 -0.44304 -0.568 61 81 114
0.466233 -0.38766 -0.497 169 127 103
0.466243 -0.3861 -0.495 165 123 99
0.468911 -0.37986 -0.487 169 124 101
0.478008 -0.37752 -0.484 172 128 103
0.481695 -0.37752 -0.484 168 122 96
0.484461 -0.37752 -0.484 166 120 94
0.992886 -0.4446 -0.57 109 110 105
0.998855 -0.44148 -0.566 109 109 111
-0.0179571 -0.327618 -0.419 190 150 115
-0.00588571 -0.322145 -0.412 194 154 118
-0.00117714 -0.322145 -0.412 192 153 114
0.00274667 -0.322145 -0.412 187 147 111
0.0234314 -0.326054 -0.417 170 125 96
0.0242257 -0.326054 -0.417 170 125 96
0.0258762 -0.326836 -0.418 164 118 92
0.0275343 -0.327618 -0.419 160 114 90
0.0341619 -0.329964 -0.422 158 113 90
0.0357695 -0.329964 -0.422 157 112 91
0.04514 -0.333873 -0.427 145 101 88
0.0494371 -0.335437 -0.429 134 97 81
0.0649886 -0.34873 -0.446 101 77 75
0.06946 -0.354203 -0.453 93 73 72
0.0728438 -0.358112 -0.458 91 71 70
0.0740381 -0.359676 -0.46 88 70 70
0.0932467 -0.388607 -0.497 88 76 80
0.0982133 -0.397208 -0.508 141 136 156
0.47898 -0.44334 -0.567 68 87 119
0.48654 -0.44334 -0.567 128 136 149
0.4775 -0.4105 -0.525 138 105 90
0.467889 -0.396426 -0.507 155 114 96
0.469 -0.383133 -0.49 165 120 97
0.468974 -0.382351 -0.489 173 128 105
0.468945 -0.38157 -0.488 174 129 106
0.469839 -0.380788 -0.487 169 124 101
0.972719 -0.444904 -0.569 116 113 104
1.00575 -0.448031 -0.573 104 106 105
1.00684 -0.448031 -0.573 105 107 106
0.000391429 -0.322146 -0.411 189 150 111
0.00824 -0.32293 -0.412 183 140 105
0.0267362 -0.328416 -0.419 158 112 86
0.0399771 -0.332335 -0.424 145 102 83
0.0425 -0.333119 -0.425 144 102 86
0.0549733 -0.340173 -0.434 121 91 81
0.0718143 -0.358201 -0.457 90 72 70
0.0815362 -0.370742 -0.473 82 66 66
0.103704 -0.408365 -0.521 186 188 213
0.45414 -0.44442 -0.567 145 145 155
0.4563 -0.44442 -0.567 104 111 130
0.468 -0.39504 -0.504 153 112 94
0.467176 -0.386418 -0.493 172 126 103
0.468945 -0.382499 -0.488 172 126 103
0.471651 -0.380931 -0.486 171 125 101
0.476224 -0.380148 -0.485 170 124 100
0.477148 -0.380148 -0.485 170 124 100
0.4853 -0.37858 -0.483 170 123 97
0.4899 -0.37858 -0.483 163 116 90
0.50209 -0.380148 -0.485 162 115 89
0.525983 -0.390337 -0.498 149 109 83
1.01518 -0.453826 -0.579 110 110 108
-0.0204486 -0.330786 -0.421 193 149 114
-0.00743714 -0.322929 -0.411 192 152 116
-0.00587143 -0.322929 -0.411 193 154 115
0.00588571 -0.323714 -0.412 186 146 110
0.00824 -0.323714 -0.412 183 140 105
0.0145886 -0.325286 -0.414 182 137 106
0.0202057 -0.326857 -0.416 174 129 100
0.0530743 -0.339429 -0.432 122 90 79
0.0707886 -0.358286 -0.456 92 72 71
0.12496 -0.446286 -0.568 161 163 175
0.450105 -0.444714 -0.566 146 146 158
0.4617 -0.4455 -0.567 126 139 156
0.485682 -0.444714 -0.566 126 136 148
0.495288 -0.430571 -0.548 115 97 95
0.477148 -0.381071 -0.485 171 125 101
0.479851 -0.380286 -0.484 175 128 102
0.53212 -0.394429 -0.502 144 105 72
0.591281 -0.429786 -0.547 196 183 167
0.990791 -0.453357 -0.577 111 109 97
-0.0121638 -0.324499 -0.412 192 154 118
0.0316752 -0.331588 -0.421 158 111 91
0.040881 -0.334738 -0.425 144 101 85
0.0494371 -0.337889 -0.429 131 93 82
0.0570181 -0.34419 -0.437 113 84 78
0.0685971 -0.356791 -0.453 95 74 73
0.0740381 -0.362305 -0.46 88 70 70
0.100743 -0.406411 -0.516 108 114 140
0.23922 -0.44658 -0.567 197 200 215
0.483748 -0.445005 -0.565 111 121 133
0.4859 -0.445005 -0.565 135 138 147
0.492357 -0.445005 -0.565 123 130 140
0.472329 -0.405624 -0.515 144 106 93
0.467967 -0.397748 -0.505 151 108 89
0.469906 -0.385146 -0.489 170 124 101
0.469874 -0.384358 -0.488 170 124 101
0.474429 -0.382783 -0.486 171 125 101
0.49082 -0.38042 -0.483 166 119 93
0.511703 -0.384358 -0.488 158 113 90
-0.01534 -0.326073 -0.413 188 150 113
-0.0105686 -0.324494 -0.411 191 151 115
-0.00741905 -0.323705 -0.41 191 151 115
0.0292 -0.3316 -0.42 161 114 94
0.0341619 -0.333179 -0.422 153 106 86
0.0503714 -0.339495 -0.43 127 91 77
0.0513095 -0.340285 -0.431 123 89 77
0.06216 -0.350549 -0.444 103 75 71
0.0642829 -0.352917 -0.447 99 78 75
0.0792286 -0.371076 -0.47 88 69 71
0.095899 -0.399499 -0.506 95 96 116
0.127124 -0.44845 -0.568 223 220 227
0.12906 -0.44766 -0.567 180 179 185
0.451462 -0.446081 -0.565 142 149 168
0.481595 -0.446081 -0.565 72 87 108
0.46812 -0.393183 -0.498 164 122 100
0.478071 -0.382919 -0.485 174 128 104
0.48346 -0.38134 -0.483 171 125 99
0.489804 -0.38055 -0.482 169 122 96
0.503821 -0.38213 -0.484 160 116 89
0.504743 -0.38213 -0.484 160 116 89
0.509606 -0.383709 -0.486 158 114 89
0.519646 -0.388446 -0.492 154 113 85
0.871176 -0.446081 -0.565 163 164 156
-0.0105686 -0.325277 -0.411 190 150 114
-0.0066381 -0.324486 -0.41 188 148 112
-0.00195238 -0.324486 -0.41 191 151 115
0.0121933 -0.32686 -0.413 179 136 102
0.0153771 -0.327651 -0.414 179 134 103
0.04862 -0.339523 -0.429 131 95 79
0.0531971 -0.342689 -0.433 120 88 75
0.0571486 -0.346646 -0.438 113 85 74
0.12798 -0.44874 -0.567 216 220 229
0.203221 -0.447949 -0.566 207 216 233
0.20969 -0.447949 -0.566 126 136 172
0.455767 -0.447157 -0.565 122 133 153
0.48488 -0.42104 -0.532 130 100 90
0.480413 -0.416291 -0.526 136 104 91
0.46811 -0.394923 -0.499 160 119 97
0.468127 -0.39334 -0.497 161 121 95
0.474376 -0.383843 -0.485 175 128 102
0.492558 -0.381469 -0.482 163 117 93
0.500821 -0.381469 -0.482 163 118 89
0.507633 -0.383843 -0.485 159 114 85
0.510531 -0.384634 -0.486 156 112 85
0.514491 -0.386217 -0.488 155 114 86
0.864875 -0.445574 -0.563 137 138 130
-0.0210486 -0.33082 -0.417 187 148 117
-0.0160876 -0.326853 -0.412 189 151 114
-0.0137 -0.32606 -0.411 189 151 114
-0.00584286 -0.324473 -0.409 190 147 112
0.00195238 -0.325267 -0.41 192 149 115
0.0121933 -0.327647 -0.413 177 132 99
0.0350486 -0.33558 -0.423 155 109 86
0.0468762 -0.339547 -0.428 134 96 77
0.04862 -0.34034 -0.429 128 95 76
0.0631476 -0.353033 -0.445 103 76 67
0.064139 -0.353827 -0.446 99 78 75
0.0781667 -0.372073 -0.469 86 68 68
0.449589 -0.44744 -0.564 105 113 149
0.455767 -0.448233 -0.565 130 146 172
0.458995 -0.448233 -0.565 148 153 159
0.48224 -0.41888 -0.528 133 101 90
0.469031 -0.39746 -0.501 158 120 101
0.468127 -0.394287 -0.497 163 123 98
0.482617 -0.383973 -0.484 172 125 97
0.48346 -0.38318 -0.483 172 125 97
0.846211 -0.445853 -0.562 136 137 129
0.854151 -0.446647 -0.563 126 127 121
0.0114067 -0.328433 -0.413 176 131 100
0.0202057 -0.330819 -0.416 164 118 92
0.0275343 -0.333205 -0.419 160 112 89
0.0504886 -0.342748 -0.431 123 90 73
0.0797343 -0.376148 -0.473 85 69 70
0.0811467 -0.378533 -0.476 85 69 70
0.0930429 -0.398414 -0.501 87 82 88
0.0947476 -0.401595 -0.505 108 103 109
0.0964676 -0.404776 -0.509 175 177 189
0.235148 -0.44931 -0.565 193 200 229
0.46896 -0.4008 -0.504 155 117 98
0.468077 -0.398414 -0.501 160 119 101
0.46906 -0.396824 -0.499 163 122 102
0.478071 -0.38569 -0.485 175 128 98
0.482617 -0.384895 -0.484 172 125 95
0.492558 -0.383305 -0.482 162 115 87
0.857817 -0.448514 -0.564 117 117 109
-0.00506381 -0.326031 -0.409 193 150 115
-0.00116857 -0.326031 -0.409 191 148 113
0.000389524 -0.326031 -0.409 190 147 113
0.0138 -0.330017 -0.414 173 128 99
0.0145886 -0.330017 -0.414 173 127 101
0.0185762 -0.330814 -0.415 169 122 96
0.0234314 -0.332409 -0.417 166 118 95
0.0300714 -0.335597 -0.421 160 112 90
0.0342429 -0.337191 -0.423 157 109 87
0.0644267 -0.35712 -0.448 95 74 73
0.0654257 -0.357917 -0.449 93 72 71
0.071099 -0.365091 -0.458 88 70 70
0.0722857 -0.366686 -0.46 86 68 68
0.0934143 -0.400963 -0.503 82 77 84
0.0951229 -0.404151 -0.507 143 138 145
0.446647 -0.448791 -0.563 101 124 156
0.451737 -0.449589 -0.564 42 69 114
0.473456 -0.448791 -0.563 106 120 157
0.476673 -0.448791 -0.563 107 123 156
0.469031 -0.399369 -0.501 160 115 96
0.468129 -0.394586 -0.495 163 117 94
0.469 -0.3906 -0.49 167 122 99
0.469933 -0.3906 -0.49 167 122 99
0.477086 -0.385817 -0.484 174 127 97
0.487968 -0.384223 -0.482 171 124 94
0.488886 -0.384223 -0.482 168 121 93
0.490722 -0.384223 -0.482 168 121 91
0.496117 -0.383426 -0.481 163 116 86
0.51728 -0.389006 -0.488 150 110 84
0.59431 -0.434443 -0.545 184 180 168
0.841703 -0.449589 -0.564 118 117 112
0.88088 -0.455966 -0.572 119 119 111
-0.0160095 -0.32761 -0.41 182 146 112
-0.0152286 -0.32761 -0.41 185 149 115
-0.00816 -0.326011 -0.408 181 141 105
0.00351429 -0.32761 -0.41 184 141 107
0.0169543 -0.330806 -0.414 174 127 101
0.0384524 -0.339595 -0.425 148 102 79
0.057279 -0.350782 -0.439 110 80 72
0.0712543 -0.366763 -0.459 87 69 69
0.450936 -0.449864 -0.563 38 69 115
0.462732 -0.449864 -0.563 158 157 162
0.46595 -0.449864 -0.563 97 114 144
0.474756 -0.449065 -0.562 112 130 168
0.469048 -0.399524 -0.5 164 119 100
0.471651 -0.388337 -0.486 172 128 103
0.481695 -0.386739 -0.484 174 127 99
0.485213 -0.385141 -0.482 171 124 96
0.494171 -0.383543 -0.48 166 119 89
0.505411 -0.385141 -0.482 160 113 85
0.51622 -0.389136 -0.487 151 109 84
0.521267 -0.391533 -0.49 150 110 84
0.808 -0.447467 -0.56 129 128 123
0.813717 -0.448266 -0.561 129 130 124
0.824802 -0.449065 -0.562 117 114 107
0.842119 -0.451462 -0.565 117 118 110
0.846844 -0.452261 -0.566 116 117 111
0.85374 -0.45306 -0.567 124 125 119
0.85482 -0.45306 -0.567 123 124 118
0.868673 -0.454658 -0.569 122 122 114
0.872371 -0.455457 -0.57 122 122 114
0.00429524 -0.32839 -0.41 185 140 109
0.00585714 -0.32839 -0.41 182 137 108
0.0169543 -0.331594 -0.414 172 125 99
0.0177429 -0.331594 -0.414 172 125 99
0.0267362 -0.335599 -0.419 161 113 90
0.0284 -0.3364 -0.42 159 111 88
0.0367467 -0.339604 -0.424 149 103 80
0.0435133 -0.342007 -0.427 139 98 78
0.0495524 -0.34441 -0.43 124 90 80
0.0843543 -0.387661 -0.484 86 73 67
0.0920886 -0.401277 -0.501 90 78 82
0.46084 -0.450135 -0.562 159 158 163
0.46906 -0.399675 -0.499 163 121 99
0.47893 -0.387661 -0.484 171 124 96
0.51014 -0.38686 -0.483 154 113 85
0.5141 -0.388462 -0.485 150 110 84
0.7984 -0.448533 -0.56 107 106 102
0.822366 -0.451737 -0.564 119 120 114
0.826663 -0.451737 -0.564 117 118 112
0.874343 -0.458145 -0.572 122 122 114
-0.0208467 -0.33158 -0.413 190 150 115
-0.00816 -0.327566 -0.408 186 143 108
0.00508857 -0.329974 -0.411 185 142 108
0.011379 -0.330777 -0.412 176 131 100
0.0275343 -0.336397 -0.419 161 114 86
0.046061 -0.343623 -0.428 132 95 76
0.0506057 -0.346834 -0.432 122 88 78
0.0594886 -0.355666 -0.443 106 78 74
0.0680333 -0.3653 -0.455 91 71 70
0.0788333 -0.379751 -0.473 84 70 70
0.123006 -0.452811 -0.564 149 160 178
0.452276 -0.451206 -0.562 102 117 140
0.462981 -0.451206 -0.562 166 164 169
0.471774 -0.450403 -0.561 78 97 140
0.476194 -0.414274 -0.516 141 104 86
0.469054 -0.395809 -0.493 162 122 97
0.487871 -0.386174 -0.481 172 122 95
0.491536 -0.386174 -0.481 170 120 95
0.496914 -0.385371 -0.48 167 120 92
0.81592 -0.452811 -0.564 123 122 118
0.82636 -0.454417 -0.566 118 119 113
0.830281 -0.453614 -0.565 113 114 108
0.839297 -0.454417 -0.566 119 120 114
0.869985 -0.459234 -0.572 122 123 115
0.881119 -0.461643 -0.575 122 123 117
-0.0241676 -0.334781 -0.416 188 148 113
-0.00893714 -0.328343 -0.408 187 144 109
0.00273333 -0.329952 -0.41 184 141 107
0.0830876 -0.387895 -0.482 85 67 67
0.231758 -0.452276 -0.562 118 133 156
0.452276 -0.452276 -0.562 136 147 165
0.469637 -0.451471 -0.561 61 85 133
0.47498 -0.451471 -0.561 58 81 123
0.494113 -0.435376 -0.541 113 89 89
0.471769 -0.393529 -0.489 171 127 102
0.476224 -0.39031 -0.485 169 123 97
0.4853 -0.3887 -0.483 173 126 98
0.486131 -0.387895 -0.482 169 122 94
0.487871 -0.38709 -0.481 172 122 97
0.495879 -0.385481 -0.479 168 121 95
0.496791 -0.385481 -0.479 169 122 96
0.5313 -0.398357 -0.495 144 104 78
0.595231 -0.436986 -0.543 200 191 182
0.813062 -0.45469 -0.565 104 103 101
0.867806 -0.460324 -0.572 117 118 112
0.893633 -0.467567 -0.581 116 118 113
-0.0112686 -0.32912 -0.408 190 147 112
-0.00582857 -0.32912 -0.408 188 145 110
-0.00427429 -0.32912 -0.408 187 144 109
0.0121638 -0.332347 -0.412 176 131 100
0.0177429 -0.33396 -0.414 168 121 93
0.0275343 -0.337993 -0.419 158 111 85
0.0496676 -0.347673 -0.431 127 90 82
0.054521 -0.352513 -0.437 110 81 75
0.0818286 -0.3872 -0.48 84 68 68
0.087801 -0.397687 -0.493 82 71 69
0.08928 -0.400107 -0.496 85 74 72
0.11957 -0.454153 -0.563 179 187 200
0.183587 -0.453347 -0.562 193 196 205
0.184657 -0.453347 -0.562 211 213 228
0.462157 -0.45254 -0.561 159 160 178
0.488 -0.451733 -0.56 116 116 118
0.496533 -0.451733 -0.56 113 128 147
0.469069 -0.40172 -0.498 161 115 91
0.469993 -0.397687 -0.493 164 119 96
0.475354 -0.39204 -0.486 168 121 95
0.490514 -0.3872 -0.48 171 124 98
0.496791 -0.386393 -0.479 172 125 99
0.510002 -0.388813 -0.482 155 114 86
0.51092 -0.388813 -0.482 152 113 84
0.51993 -0.392847 -0.487 151 111 85
0.525 -0.395267 -0.49 146 109 82
0.593039 -0.436407 -0.541 200 188 176
0.831824 -0.458993 -0.569 122 121 116
0.846711 -0.460607 -0.571 124 125 120
0.895171 -0.46948 -0.582 104 106 101
0.89936 -0.471093 -0.584 104 106 101
-0.0223657 -0.333131 -0.412 192 149 115
-0.0128229 -0.329897 -0.408 190 147 113
0.00273333 -0.331514 -0.41 182 137 104
0.0242257 -0.337174 -0.417 161 114 88
0.0350486 -0.342026 -0.423 147 104 87
0.0526143 -0.351729 -0.435 114 85 77
0.05548 -0.354154 -0.438 108 80 76
0.0585124 -0.357389 -0.442 108 78 76
0.0596229 -0.359006 -0.444 106 76 74
0.0638571 -0.363857 -0.45 94 74 73
0.0693543 -0.370326 -0.458 85 67 65
0.07172 -0.37356 -0.462 86 71 68
0.118288 -0.454417 -0.562 193 199 211
0.4745 -0.41318 -0.511 141 104 86
0.47 -0.404286 -0.5 158 113 90
0.470014 -0.400243 -0.495 162 120 98
0.470837 -0.395391 -0.489 169 124 101
0.48346 -0.39054 -0.483 176 129 103
0.488788 -0.388923 -0.481 169 122 96
0.500307 -0.386497 -0.478 160 115 86
0.507886 -0.388114 -0.48 156 115 87
0.519789 -0.392966 -0.486 148 111 84
0.59407 -0.437437 -0.541 195 188 178
0.834371 -0.460886 -0.57 125 124 120
0.85186 -0.463311 -0.573 108 110 105
0.86428 -0.46412 -0.574 95 97 96
0.865373 -0.46412 -0.574 97 99 96
-0.0167086 -0.330674 -0.408 193 150 116
0.00900286 -0.333106 -0.411 178 133 102
0.0161657 -0.335537 -0.414 170 123 95
0.0209981 -0.337158 -0.416 168 118 93
0.0300714 -0.34121 -0.421 156 110 86
0.0401657 -0.345263 -0.426 139 97 83
0.0410733 -0.346073 -0.427 137 95 81
0.0546457 -0.354989 -0.438 109 81 77
0.0754867 -0.380113 -0.469 83 68 65
0.0821695 -0.39065 -0.482 83 69 66
0.12257 -0.455488 -0.562 166 170 181
0.231346 -0.454677 -0.561 193 201 214
0.232414 -0.454677 -0.561 178 193 214
0.453867 -0.453867 -0.56 170 167 174
0.456 -0.453867 -0.56 165 165 173
0.472222 -0.453056 -0.559 27 64 119
0.486064 -0.453056 -0.559 142 154 166
0.491388 -0.453056 -0.559 84 87 104
0.469957 -0.397944 -0.491 165 123 101
0.470867 -0.397133 -0.49 164 122 100
0.472622 -0.394702 -0.487 169 124 101
0.474429 -0.393891 -0.486 164 118 95
0.481695 -0.39227 -0.484 174 126 103
0.494844 -0.387408 -0.478 170 123 97
0.505915 -0.388218 -0.479 162 118 91
0.579971 -0.429552 -0.53 125 104 85
0.830029 -0.461971 -0.57 119 120 115
0.839098 -0.462782 -0.571 124 125 119
0.857024 -0.466024 -0.575 114 115 110
0.861405 -0.466024 -0.575 110 112 109
0.867976 -0.466024 -0.575 111 113 110
0.869747 -0.465213 -0.574 112 115 108
0.877166 -0.466834 -0.576 100 101 96
0.884615 -0.468455 -0.578 102 103 95
-0.0190867 -0.332264 -0.409 188 145 110
0.00273333 -0.333076 -0.41 180 135 104
0.00507619 -0.333076 -0.41 184 139 108
0.011379 -0.334701 -0.412 174 127 97
0.0258762 -0.339575 -0.418 157 111 87
0.035939 -0.34445 -0.424 142 99 82
0.07084 -0.37532 -0.462 86 70 70
0.2288 -0.454933 -0.56 192 199 217
0.451733 -0.454933 -0.56 150 155 161
0.453867 -0.454933 -0.56 150 157 167
0.459445 -0.454121 -0.559 166 172 184
0.463704 -0.454121 -0.559 94 110 143
0.469028 -0.454121 -0.559 37 69 126
0.488193 -0.454121 -0.559 138 145 153
0.47184 -0.40944 -0.504 149 108 88
0.470932 -0.400504 -0.493 164 122 100
0.479851 -0.393192 -0.484 170 122 99
0.48254 -0.39238 -0.483 176 128 105
0.487871 -0.390755 -0.481 171 124 98
0.510629 -0.389943 -0.48 151 111 86
0.829293 -0.466307 -0.574 104 106 105
0.859214 -0.467119 -0.575 99 99 97
0.861806 -0.467931 -0.576 96 98 95
0.865786 -0.467119 -0.575 87 89 84
0.873452 -0.467119 -0.575 105 106 100
-0.0166676 -0.331414 -0.407 190 148 110
-0.00272 -0.332229 -0.408 182 137 104
-0.00194286 -0.332229 -0.408 183 138 105
0.00351429 -0.333857 -0.41 181 136 103
0.0145533 -0.3363 -0.413 168 121 93
0.0185762 -0.337929 -0.415 168 118 93
0.0267362 -0.341186 -0.419 154 108 84
0.0333581 -0.343629 -0.422 146 99 79
0.0350486 -0.344443 -0.423 142 99 82
0.0436152 -0.348514 -0.428 135 93 81
0.0758086 -0.383529 -0.471 86 68 68
0.0854 -0.399 -0.49 78 62 62
0.230933 -0.456 -0.56 196 198 210
0.453056 -0.455186 -0.559 117 134 160
0.488383 -0.454371 -0.558 106 110 121
0.489446 -0.454371 -0.558 84 88 99
0.491691 -0.435643 -0.535 112 92 85
0.477286 -0.418543 -0.514 135 102 85
0.471769 -0.398186 -0.489 165 120 97
0.488686 -0.390857 -0.48 173 126 100
0.490514 -0.390857 -0.48 167 120 94
0.501986 -0.388414 -0.477 167 121 95
0.516429 -0.392486 -0.482 150 110 85
0.522566 -0.395743 -0.486 149 109 84
0.829643 -0.468214 -0.575 32 28 27
0.830387 -0.4674 -0.574 116 118 117
0.84422 -0.466586 -0.573 100 101 96
0.873874 -0.469029 -0.576 103 105 100
-0.0230381 -0.334638 -0.41 182 142 106
-0.00891524 -0.33219 -0.407 189 144 111
-0.00581429 -0.33219 -0.407 186 141 110
0.0066381 -0.334638 -0.41 180 134 101
0.0445343 -0.350146 -0.429 131 91 79
0.0557333 -0.359124 -0.44 108 79 71
0.057801 -0.361572 -0.443 106 77 71
0.119146 -0.457883 -0.561 195 199 208
0.1232 -0.457067 -0.56 213 220 230
0.228391 -0.45625 -0.559 197 202 221
0.233715 -0.45625 -0.559 191 196 215
0.471733 -0.398301 -0.488 167 122 99
0.478008 -0.395036 -0.484 171 125 101
0.479851 -0.395036 -0.484 169 123 99
0.83658 -0.467677 -0.573 116 117 111
0.850452 -0.46931 -0.575 61 62 57
0.864401 -0.470942 -0.577 107 109 106
0.867698 -0.470942 -0.577 111 113 110
-0.02714 -0.337873 -0.413 188 145 110
0.00743714 -0.336237 -0.411 178 132 99
0.0105943 -0.337055 -0.412 173 126 98
0.0185762 -0.33951 -0.415 167 117 92
0.0209981 -0.340328 -0.416 164 114 89
0.02508 -0.341964 -0.418 153 106 80
0.035939 -0.346872 -0.424 140 94 78
0.0463838 -0.352599 -0.431 126 88 75
0.0481371 -0.353417 -0.432 125 89 75
0.0528562 -0.357508 -0.437 107 79 67
0.0735429 -0.382869 -0.468 88 68 67
0.1168 -0.458133 -0.56 204 207 214
0.184736 -0.457315 -0.559 175 181 193
0.464167 -0.455679 -0.557 68 100 147
0.465228 -0.455679 -0.557 56 90 138
0.493873 -0.455679 -0.557 90 114 138
0.488191 -0.432772 -0.529 114 91 83
0.471894 -0.409866 -0.501 147 110 91
0.470914 -0.402503 -0.492 158 116 94
0.471733 -0.39923 -0.488 165 123 99
0.485213 -0.394322 -0.482 172 125 99
0.486955 -0.393504 -0.481 168 121 95
0.486857 -0.392686 -0.48 169 122 96
0.495493 -0.389413 -0.476 174 128 102
0.516273 -0.393504 -0.481 155 113 88
0.83287 -0.472859 -0.578 27 23 20
0.864401 -0.472041 -0.577 88 90 87
0.868797 -0.472041 -0.577 88 90 87
-0.01044 -0.33292 -0.406 189 145 110
-0.00812 -0.33292 -0.406 188 142 108
0.00585714 -0.3362 -0.41 179 133 100
0.00978571 -0.33702 -0.411 173 126 98
0.0153771 -0.33948 -0.414 170 120 95
0.0177429 -0.33948 -0.414 167 117 92
0.0193667 -0.3403 -0.415 167 117 92
0.0218429 -0.34194 -0.417 159 111 88
0.0376429 -0.3485 -0.425 135 92 75
0.0418867 -0.35014 -0.427 134 95 80
0.0589095 -0.3649 -0.445 100 76 66
0.0801667 -0.39442 -0.481 84 69 64
0.08142 -0.39606 -0.483 84 69 64
0.0842943 -0.40098 -0.489 85 69 69
0.0859229 -0.40426 -0.493 78 66 68
0.22692 -0.45756 -0.558 195 202 218
0.227983 -0.45756 -0.558 195 202 218
0.441887 -0.45674 -0.557 32 68 116
0.452246 -0.45756 -0.558 59 87 127
0.453309 -0.45756 -0.558 61 84 115
0.464167 -0.45674 -0.557 66 97 144
0.483264 -0.45674 -0.557 128 145 165
0.486447 -0.45674 -0.557 148 154 168
0.475551 -0.41738 -0.509 134 101 84
0.47978 -0.39606 -0.483 166 120 97
0.482459 -0.39524 -0.482 170 124 100
0.508346 -0.39114 -0.477 157 113 84
0.842413 -0.47068 -0.574 102 103 98
0.865899 -0.47396 -0.578 102 104 101
0.869896 -0.47314 -0.577 107 109 106
0.885467 -0.4756 -0.58 66 67 61
-0.0158143 -0.332871 -0.405 189 147 109
-0.01276 -0.333693 -0.406 191 147 110
-0.00812 -0.333693 -0.406 185 141 106
-0.00272 -0.335337 -0.408 183 139 104
0.0275343 -0.344378 -0.419 153 106 86
0.0437171 -0.352597 -0.429 128 90 77
0.0491867 -0.356707 -0.434 118 86 75
0.06328 -0.371501 -0.452 95 73 62
0.078921 -0.393692 -0.479 82 68 59
0.199286 -0.458623 -0.558 195 202 221
0.452496 -0.457801 -0.557 114 131 151
0.46757 -0.456979 -0.556 62 94 135
0.470747 -0.456979 -0.556 30 76 125
0.476042 -0.456979 -0.556 73 106 159
0.504636 -0.456979 -0.556 41 51 86
0.470892 -0.403555 -0.491 158 116 92
0.47893 -0.397802 -0.484 171 127 100
0.482459 -0.396158 -0.482 174 128 102
0.494587 -0.391227 -0.476 173 126 98
0.502595 -0.390405 -0.475 165 120 91
0.512143 -0.39287 -0.478 157 113 86
0.840595 -0.472595 -0.575 121 120 115
0.850452 -0.472595 -0.575 33 34 29
0.875117 -0.475883 -0.579 130 132 127
0.884362 -0.476705 -0.58 99 100 95
-0.0229257 -0.336114 -0.408 188 146 108
-0.0197686 -0.33529 -0.407 185 146 105
-0.0058 -0.334467 -0.406 185 141 106
0.000389524 -0.336938 -0.409 181 137 102
0.00428476 -0.336938 -0.409 179 132 102
0.0137667 -0.340233 -0.413 167 120 92
0.0153771 -0.341057 -0.414 168 118 93
0.0437171 -0.353414 -0.429 128 90 77
0.0445343 -0.353414 -0.429 127 89 76
0.0473143 -0.355886 -0.432 123 85 72
0.05502 -0.3633 -0.441 106 78 67
0.0580619 -0.366595 -0.445 101 74 63
0.0833629 -0.402843 -0.489 86 70 71
0.447448 -0.458038 -0.556 142 163 194
0.465451 -0.458038 -0.556 84 111 156
0.492806 -0.439914 -0.534 103 90 82
0.489199 -0.435795 -0.529 112 92 83
0.482857 -0.428381 -0.52 128 96 85
0.472733 -0.403667 -0.49 157 115 91
0.474429 -0.400371 -0.486 167 121 97
0.483377 -0.397076 -0.482 179 133 107
0.489266 -0.392957 -0.477 170 123 95
0.49096 -0.392133 -0.476 171 124 96
0.508187 -0.392133 -0.476 160 116 87
0.521937 -0.397076 -0.482 157 113 86
0.858906 -0.475338 -0.577 104 105 100
-0.0181733 -0.33524 -0.406 189 150 111
-0.0165857 -0.334414 -0.405 188 146 106
-0.0058 -0.33524 -0.406 183 138 105
-0.00426381 -0.336066 -0.407 180 135 102
0.00822 -0.339369 -0.411 172 125 97
0.01298 -0.34102 -0.413 167 120 92
0.0145533 -0.34102 -0.413 165 118 90
0.0193667 -0.342671 -0.415 166 116 93
0.0202057 -0.343497 -0.416 164 114 91
0.0308733 -0.347626 -0.421 149 104 81
0.06356 -0.374874 -0.454 93 73 62
0.446389 -0.459097 -0.556 130 153 194
0.448507 -0.459097 -0.556 161 179 201
0.452743 -0.459097 -0.556 166 175 190
0.45592 -0.459097 -0.556 164 179 186
0.469471 -0.459923 -0.557 54 90 138
0.472654 -0.459923 -0.557 36 76 128
0.480081 -0.459923 -0.557 67 101 139
0.48732 -0.460749 -0.558 149 156 166
0.49069 -0.459923 -0.557 146 156 166
0.492812 -0.459923 -0.557 145 154 159
0.496886 -0.460749 -0.558 105 108 115
0.503422 -0.459923 -0.557 73 81 94
0.481987 -0.42772 -0.518 126 96 86
0.475614 -0.418637 -0.507 134 101 82
0.47564 -0.417811 -0.506 138 103 81
0.47286 -0.41038 -0.497 154 112 90
0.490174 -0.393866 -0.477 168 121 93
0.497023 -0.391389 -0.474 169 124 95
0.497926 -0.391389 -0.474 167 122 93
0.86524 -0.480566 -0.582 108 109 104
0.886414 -0.483043 -0.585 118 117 113
0.89208 -0.48552 -0.588 115 114 110
-0.0302133 -0.340979 -0.412 188 142 108
-0.0220943 -0.336841 -0.407 186 143 108
-0.0150057 -0.334358 -0.404 191 148 113
-0.0019381 -0.336841 -0.407 182 136 103
-0.000388571 -0.337669 -0.408 181 135 102
0.00350571 -0.338496 -0.409 173 126 96
0.00428476 -0.338496 -0.409 174 127 97
0.0145533 -0.341807 -0.413 165 118 90
0.01534 -0.341807 -0.413 167 117 90
0.0218429 -0.345117 -0.417 163 113 90
0.0446381 -0.355876 -0.43 126 88 75
0.0474238 -0.358359 -0.433 122 84 71
0.0551448 -0.365808 -0.442 105 78 69
0.0704143 -0.384843 -0.465 89 70 66
0.0880952 -0.41381 -0.5 171 162 165
0.0933171 -0.424569 -0.513 209 217 230
0.114052 -0.460984 -0.557 211 215 226
0.427614 -0.459329 -0.555 170 183 199
0.438186 -0.459329 -0.555 32 71 130
0.4403 -0.459329 -0.555 37 71 134
0.492634 -0.461811 -0.558 136 140 141
0.483848 -0.430362 -0.52 120 95 88
0.471888 -0.408844 -0.494 155 115 90
0.47794 -0.39974 -0.483 168 124 99
0.484018 -0.39643 -0.479 170 123 97
0.499578 -0.391464 -0.473 168 123 92
-0.0058 -0.336787 -0.406 180 135 102
0.0284 -0.3484 -0.42 149 102 82
0.0658648 -0.379922 -0.458 90 72 62
0.0838743 -0.408126 -0.492 82 70 72
0.093499 -0.426375 -0.514 216 218 230
0.437129 -0.460386 -0.555 40 77 132
0.46841 -0.462045 -0.557 90 114 142
0.473715 -0.462045 -0.557 73 98 128
0.486257 -0.462874 -0.558 127 127 127
0.507666 -0.462045 -0.557 106 104 107
0.471733 -0.404808 -0.488 162 120 96
0.4753 -0.402319 -0.485 167 122 99
0.476164 -0.40149 -0.484 169 125 100
0.482374 -0.399001 -0.481 174 128 102
0.484018 -0.397342 -0.479 168 122 96
0.48493 -0.397342 -0.479 170 124 98
0.48756 -0.396512 -0.478 172 127 98
0.489147 -0.394853 -0.476 172 127 98
0.493411 -0.393194 -0.474 172 127 98
0.500479 -0.392365 -0.473 169 124 91
0.506954 -0.393194 -0.474 162 117 84
0.53199 -0.403978 -0.487 142 105 79
-0.0284352 -0.340054 -0.409 184 141 109
-0.0260343 -0.339223 -0.408 181 138 106
0.00350571 -0.340054 -0.409 173 126 96
0.0258762 -0.347537 -0.418 154 106 83
0.0446381 -0.357514 -0.43 123 87 75
0.0660086 -0.381626 -0.459 88 70 60
0.0826 -0.4074 -0.49 84 68 68
0.227814 -0.461443 -0.555 197 201 212
0.417347 -0.460611 -0.554 188 196 207
0.421568 -0.460611 -0.554 190 193 210
0.456979 -0.462274 -0.556 155 155 157
0.463333 -0.462274 -0.556 114 117 124
0.486064 -0.464769 -0.559 139 139 141
0.493517 -0.464769 -0.559 128 129 131
0.508424 -0.464769 -0.559 109 101 99
0.482091 -0.429017 -0.516 117 100 92
0.485843 -0.398254 -0.479 171 126 97
0.48665 -0.397423 -0.478 169 124 95
0.489147 -0.39576 -0.476 174 129 100
0.509663 -0.394097 -0.474 160 117 85
0.512548 -0.394929 -0.475 157 116 86
-0.0268114 -0.34 -0.408 180 137 103
-0.0204429 -0.3375 -0.405 189 146 111
-0.0111581 -0.336667 -0.404 184 139 106
-0.0081 -0.3375 -0.405 185 139 105
0.00272 -0.34 -0.408 176 129 99
0.0242838 -0.348333 -0.418 154 106 83
0.0258762 -0.348333 -0.418 150 104 81
0.035939 -0.353333 -0.424 138 95 78
0.0513086 -0.365 -0.438 107 79 68
0.0552695 -0.369167 -0.443 102 78 68
0.05624 -0.37 -0.444 101 77 67
0.059439 -0.374167 -0.449 97 74 66
0.0604286 -0.375 -0.45 95 72 64
0.0732724 -0.393333 -0.472 85 67 65
0.433957 -0.4625 -0.555 55 80 111
0.442414 -0.4625 -0.555 95 102 118
0.447448 -0.463333 -0.556 128 135 143
0.450625 -0.463333 -0.556 147 151 152
0.45674 -0.464167 -0.557 147 148 152
0.48287 -0.465833 -0.559 142 144 143
0.489067 -0.466667 -0.56 141 139 140
0.503659 -0.468333 -0.562 119 117 118
0.510082 -0.468333 -0.562 105 96 97
0.480305 -0.426667 -0.512 123 98 91
0.471769 -0.4075 -0.489 153 113 88
0.474429 -0.405 -0.486 161 119 95
0.492509 -0.395 -0.474 171 126 95
0.49237 -0.394167 -0.473 172 127 96
-0.0308476 -0.342448 -0.41 184 144 108
-0.0299933 -0.341612 -0.409 184 142 104
-0.0119276 -0.337436 -0.404 184 140 105
-0.00501429 -0.338271 -0.405 181 135 102
0.00272 -0.340777 -0.408 175 128 98
0.0209981 -0.347459 -0.416 158 110 87
0.0342429 -0.353306 -0.423 140 97 80
0.0772571 -0.400914 -0.48 82 61 60
0.0829371 -0.410937 -0.492 89 75 72
0.1147 -0.463557 -0.555 172 188 213
0.460984 -0.465228 -0.557 155 163 166
0.465228 -0.465228 -0.557 149 152 157
0.471377 -0.466063 -0.558 152 153 155
0.478488 -0.424301 -0.508 130 102 91
0.472829 -0.412608 -0.494 151 110 88
0.47432 -0.404255 -0.484 163 119 94
0.484829 -0.399244 -0.478 172 127 98
0.490703 -0.395903 -0.474 172 126 93
-0.0324886 -0.344066 -0.411 184 144 109
-0.027521 -0.340717 -0.407 179 139 103
-0.0173143 -0.338206 -0.404 191 147 112
-0.00347143 -0.339043 -0.405 180 134 101
0.00349714 -0.341554 -0.408 172 125 95
0.00506381 -0.342391 -0.409 167 120 90
0.0121638 -0.344903 -0.412 167 120 94
0.0137667 -0.34574 -0.413 167 117 92
0.0234314 -0.349089 -0.417 154 106 86
0.0317505 -0.353274 -0.422 143 97 81
0.06398 -0.382574 -0.457 91 71 64
0.080239 -0.407689 -0.487 83 65 61
0.405007 -0.46294 -0.553 107 131 157
0.40606 -0.46294 -0.553 116 136 160
0.407113 -0.46294 -0.553 129 149 173
0.418402 -0.463777 -0.554 176 171 178
0.419457 -0.463777 -0.554 176 173 184
0.422623 -0.463777 -0.554 181 174 181
0.452496 -0.466289 -0.557 162 161 167
0.487602 -0.470474 -0.562 132 134 131
0.487635 -0.437826 -0.523 111 92 85
0.484894 -0.434477 -0.519 113 94 87
0.483106 -0.400991 -0.479 170 124 98
0.487333 -0.39848 -0.476 172 127 96
0.493128 -0.395131 -0.472 169 123 90
0.494926 -0.395131 -0.472 168 122 89
0.495825 -0.395131 -0.472 167 121 88
0.504643 -0.394294 -0.471 164 119 86
-0.0290714 -0.341492 -0.407 185 141 106
-0.0250714 -0.339814 -0.405 185 142 107
-0.00961905 -0.338975 -0.404 187 143 108
-0.00808 -0.338975 -0.404 185 141 106
-0.00654095 -0.338975 -0.404 183 137 103
0.00427429 -0.342331 -0.408 170 123 93
0.00978571 -0.344849 -0.411 170 123 93
0.0218429 -0.349883 -0.417 156 108 86
0.0234314 -0.349883 -0.417 153 105 83
0.0351314 -0.355756 -0.424 138 97 79
0.0585838 -0.376732 -0.449 97 74 66
0.37168 -0.463154 -0.552 72 102 162
0.39974 -0.463993 -0.553 173 174 179
0.413126 -0.464832 -0.554 186 186 188
0.417347 -0.464832 -0.554 187 187 189
0.423386 -0.465671 -0.555 183 183 185
0.44533 -0.46651 -0.556 171 171 173
0.462045 -0.46735 -0.557 151 152 147
0.469251 -0.468189 -0.558 144 144 142
0.485252 -0.472384 -0.563 133 133 131
0.49734 -0.47574 -0.567 120 118 119
0.49842 -0.47574 -0.567 118 116 117
0.512227 -0.481613 -0.574 88 82 84
0.518429 -0.478257 -0.57 66 60 60
0.495767 -0.44889 -0.535 96 85 83
0.493071 -0.445534 -0.531 101 86 83
0.475714 -0.419524 -0.5 141 106 84
0.47702 -0.40526 -0.483 167 123 98
0.489929 -0.398548 -0.475 172 125 95
0.49237 -0.39687 -0.473 165 119 86
0.493128 -0.39603 -0.472 171 122 92
0.511109 -0.39603 -0.472 161 117 88
-0.0258429 -0.340586 -0.405 185 142 107
-0.0188067 -0.338904 -0.403 189 145 110
-0.0149686 -0.338904 -0.403 189 147 109
-0.00270667 -0.341427 -0.406 181 135 102
0.00116286 -0.342268 -0.407 177 131 98
0.0343238 -0.356564 -0.424 139 94 75
0.043921 -0.36245 -0.431 117 87 76
0.0544257 -0.372542 -0.443 103 76 69
0.06412 -0.385156 -0.458 88 70 66
0.0687905 -0.391884 -0.466 85 70 67
0.36432 -0.464206 -0.552 129 138 155
0.366423 -0.464206 -0.552 95 109 136
0.374834 -0.464206 -0.552 127 141 150
0.398352 -0.465888 -0.554 184 185 190
0.414181 -0.465888 -0.554 186 187 189
0.416291 -0.465888 -0.554 187 187 189
0.44533 -0.46757 -0.556 161 161 161
0.448252 -0.46841 -0.557 160 160 160
0.452496 -0.46841 -0.557 157 157 157
0.488052 -0.475138 -0.565 115 111 112
0.478531 -0.425522 -0.506 135 102 87
0.4776 -0.42384 -0.504 139 102 86
0.476666 -0.421317 -0.501 140 105 85
0.47355 -0.409544 -0.487 164 119 96
0.474376 -0.407862 -0.485 154 114 88
0.47702 -0.40618 -0.483 167 123 98
0.477869 -0.405339 -0.482 169 125 98
0.478787 -0.405339 -0.482 167 123 96
0.482286 -0.403657 -0.48 169 123 97
0.485631 -0.401134 -0.477 175 128 100
0.496724 -0.39693 -0.472 171 124 94
0.52088 -0.400293 -0.476 150 111 82
0.531118 -0.405339 -0.482 143 108 80
-0.0350067 -0.3481 -0.413 190 142 102
-0.0341371 -0.347257 -0.412 185 141 106
-0.0218771 -0.339671 -0.403 191 147 110
-0.0203419 -0.339671 -0.403 190 146 109
-0.018039 -0.339671 -0.403 188 144 107
-0.014201 -0.339671 -0.403 184 142 104
0.00349714 -0.343886 -0.408 171 124 94
0.00898095 -0.345571 -0.41 170 124 91
0.0145533 -0.3481 -0.413 161 114 84
0.0193667 -0.349786 -0.415 159 112 86
0.0218429 -0.351471 -0.417 154 108 84
0.0385429 -0.359057 -0.426 130 93 77
0.0412657 -0.361586 -0.429 127 91 77
0.0457743 -0.364957 -0.433 114 85 77
0.0514257 -0.370014 -0.439 107 80 73
0.0576 -0.3776 -0.448 94 73 70
0.355909 -0.465257 -0.552 155 159 162
0.361166 -0.465257 -0.552 159 160 165
0.368526 -0.465257 -0.552 168 172 183
0.382887 -0.4661 -0.553 180 179 184
0.395187 -0.466943 -0.554 180 180 182
0.419157 -0.467786 -0.555 179 179 181
0.42203 -0.468629 -0.556 174 174 176
0.434739 -0.468629 -0.556 164 164 166
0.453309 -0.470314 -0.558 140 138 139
0.458623 -0.470314 -0.558 130 128 129
0.48137 -0.477057 -0.566 106 101 105
0.520929 -0.493071 -0.585 55 53 58
0.487697 -0.439971 -0.522 111 88 82
0.477869 -0.406257 -0.482 169 125 100
0.481458 -0.405414 -0.481 173 127 101
0.485739 -0.402886 -0.478 173 126 98
0.490703 -0.399514 -0.474 172 125 97
-0.0331905 -0.346352 -0.41 184 138 102
-0.0306971 -0.344663 -0.408 184 139 106
-0.00808 -0.341284 -0.404 182 138 103
-0.00424286 -0.342129 -0.405 180 136 99
0.0097619 -0.346352 -0.41 168 121 91
0.0105686 -0.347197 -0.411 169 120 90
0.0202057 -0.351421 -0.416 154 108 82
0.332174 -0.465464 -0.551 136 147 153
0.334273 -0.465464 -0.551 114 123 138
0.401186 -0.468843 -0.555 177 177 179
0.438704 -0.470532 -0.557 140 138 139
0.444806 -0.471377 -0.558 132 131 129
0.446931 -0.471377 -0.558 125 123 124
0.48671 -0.482359 -0.571 73 71 76
0.487797 -0.482359 -0.571 70 68 73
0.49692 -0.484893 -0.574 64 62 65
0.47761 -0.424915 -0.503 138 102 88
0.475709 -0.420691 -0.498 142 104 83
0.489024 -0.401262 -0.475 172 125 97
0.52671 -0.403796 -0.478 147 107 81
-0.0338886 -0.346287 -0.409 185 142 107
-0.0322514 -0.34544 -0.408 185 141 106
-0.0298467 -0.344593 -0.407 187 143 108
-0.029 -0.343747 -0.406 188 144 109
-0.00423238 -0.342053 -0.404 178 134 97
0.000386667 -0.343747 -0.406 173 126 96
0.00506381 -0.346287 -0.409 171 122 92
0.0300714 -0.356447 -0.421 139 101 80
0.0309467 -0.357293 -0.422 137 99 78
0.0352143 -0.359833 -0.425 131 94 76
0.0577286 -0.380153 -0.449 93 74 68
0.0667276 -0.392853 -0.464 88 67 66
0.0692333 -0.397087 -0.469 86 68 68
0.0798 -0.414867 -0.49 78 69 72
0.110926 -0.46736 -0.552 102 135 186
0.321679 -0.466513 -0.551 139 144 150
0.325877 -0.466513 -0.551 147 147 155
0.330075 -0.466513 -0.551 157 162 168
0.348549 -0.46736 -0.552 174 175 177
0.356553 -0.468207 -0.553 175 176 181
0.357607 -0.468207 -0.553 175 176 181
0.419912 -0.470747 -0.556 150 148 149
0.438429 -0.47244 -0.558 118 113 117
0.46002 -0.47498 -0.561 79 74 78
0.461333 -0.474133 -0.56 74 69 73
0.49708 -0.489373 -0.578 56 55 60
0.50101 -0.491067 -0.58 56 55 60
0.529589 -0.504613 -0.596 51 48 55
0.528452 -0.486833 -0.575 40 39 47
0.49323 -0.447887 -0.529 107 88 82
0.47856 -0.42672 -0.504 135 102 87
0.47518 -0.40894 -0.483 168 122 99
0.4761 -0.40894 -0.483 167 121 97
0.499095 -0.397933 -0.47 168 121 93
0.49999 -0.397933 -0.47 170 123 95
-0.0399771 -0.359794 -0.424 185 144 112
-0.0364914 -0.349611 -0.412 184 144 109
-0.0346676 -0.347066 -0.409 187 144 110
-0.0226448 -0.341974 -0.403 192 148 111
-0.00577143 -0.342823 -0.404 178 133 100
-0.00346286 -0.342823 -0.404 180 131 101
-0.00192857 -0.343671 -0.405 177 128 98
0.0019381 -0.345369 -0.407 172 123 93
0.00427429 -0.346217 -0.408 170 123 93
0.0105686 -0.348763 -0.411 169 119 92
0.0185762 -0.352157 -0.415 157 111 87
0.0300714 -0.357249 -0.421 143 100 81
0.062239 -0.387797 -0.457 88 69 62
0.0717771 -0.402223 -0.474 83 68 65
0.0842857 -0.424286 -0.5 127 127 139
0.322729 -0.467563 -0.551 168 169 171
0.354032 -0.470109 -0.554 178 178 190
0.358253 -0.470109 -0.554 179 177 182
0.362474 -0.470109 -0.554 174 176 175
0.380043 -0.470957 -0.555 168 168 168
0.382157 -0.470957 -0.555 163 162 160
0.393436 -0.471806 -0.556 159 160 162
0.428863 -0.473503 -0.558 105 100 106
0.433114 -0.473503 -0.558 96 94 99
0.46084 -0.476897 -0.562 59 54 60
0.462981 -0.476897 -0.562 57 52 58
0.47574 -0.48114 -0.567 56 54 59
0.481514 -0.483686 -0.57 55 54 60
0.50052 -0.493869 -0.582 55 53 58
0.53286 -0.49302 -0.581 29 28 34
0.48598 -0.438711 -0.517 119 91 79
0.47471 -0.419194 -0.494 152 109 92
0.476877 -0.408163 -0.481 172 124 101
0.481281 -0.406466 -0.479 167 120 94
0.484723 -0.404769 -0.477 171 124 98
0.486427 -0.40392 -0.476 171 124 98
0.493877 -0.399677 -0.471 171 121 94
0.497305 -0.398829 -0.47 172 122 95
0.516503 -0.400526 -0.472 150 110 84
-0.0111305 -0.342742 -0.403 182 136 102
-0.0103629 -0.342742 -0.403 183 137 103
-0.00423238 -0.343592 -0.404 176 130 97
-0.00346286 -0.343592 -0.404 178 129 99
0.0066219 -0.347845 -0.409 168 121 93
0.0386333 -0.363153 -0.427 126 90 76
0.0497533 -0.373359 -0.439 105 80 73
0.0527381 -0.376761 -0.443 103 78 71
0.0719286 -0.403976 -0.475 88 69 65
0.0759 -0.41078 -0.483 81 71 59
0.0815571 -0.420986 -0.495 82 70 70
0.215286 -0.467762 -0.55 53 97 162
0.311667 -0.467762 -0.55 172 171 177
0.31958 -0.468612 -0.551 170 168 173
0.331273 -0.470313 -0.553 171 171 179
0.365243 -0.472014 -0.555 165 167 164
0.3737 -0.472014 -0.555 163 162 167
0.383905 -0.472865 -0.556 158 156 159
0.411857 -0.474566 -0.558 108 106 111
0.417171 -0.474566 -0.558 98 96 101
0.441067 -0.476267 -0.56 60 59 65
0.444267 -0.476267 -0.56 59 58 64
0.4496 -0.476267 -0.56 58 57 63
0.486833 -0.489024 -0.575 52 51 59
0.501128 -0.496678 -0.584 53 52 58
0.507056 -0.49923 -0.587 51 50 56
0.508619 -0.467762 -0.55 87 77 75
0.474376 -0.412481 -0.485 158 113 90
0.480457 -0.408229 -0.48 170 122 99
0.481281 -0.407378 -0.479 167 120 94
0.48631 -0.403976 -0.475 171 124 98
0.498927 -0.398873 -0.469 169 119 96
0.503393 -0.398873 -0.469 169 119 96
-0.0225886 -0.342657 -0.402 190 148 110
-0.0156971 -0.342657 -0.402 184 139 100
-0.00882762 -0.34351 -0.403 182 133 100
0.0066219 -0.348624 -0.409 169 122 94
0.0169543 -0.352886 -0.414 159 113 89
0.0185762 -0.353738 -0.415 153 107 83
0.0259381 -0.357148 -0.419 144 99 78
0.0317505 -0.359705 -0.422 136 97 80
0.0326314 -0.360557 -0.423 137 98 81
0.042181 -0.366524 -0.43 120 86 76
0.0497533 -0.374195 -0.439 104 81 75
0.0557686 -0.381014 -0.447 95 74 69
0.06468 -0.3938 -0.462 86 68 66
0.0817219 -0.422781 -0.496 91 81 89
0.309571 -0.46881 -0.55 170 166 180
0.349386 -0.473071 -0.555 168 164 165
0.353192 -0.473924 -0.556 170 164 166
0.389537 -0.475629 -0.558 125 124 130
0.39343 -0.476481 -0.559 122 120 123
0.401249 -0.478186 -0.561 108 106 109
0.404454 -0.478186 -0.561 99 94 98
0.416854 -0.476481 -0.559 67 64 71
0.426133 -0.477333 -0.56 59 56 63
0.434374 -0.478186 -0.561 58 57 63
0.445853 -0.479038 -0.562 54 54 62
0.4633 -0.481595 -0.565 53 52 58
0.481866 -0.488414 -0.573 51 50 58
0.50568 -0.5012 -0.588 50 50 58
0.492369 -0.449205 -0.527 106 87 81
0.482314 -0.434714 -0.51 127 93 81
0.4761 -0.4117 -0.483 162 116 92
0.478544 -0.40829 -0.479 167 121 97
0.479456 -0.40829 -0.479 169 122 96
0.488767 -0.403176 -0.473 176 126 101
0.49043 -0.402324 -0.472 176 126 101
0.491186 -0.401471 -0.471 173 123 96
0.501607 -0.399767 -0.469 171 121 96
0.506777 -0.398914 -0.468 167 120 94
0.5192 -0.402324 -0.472 154 110 85
0.523206 -0.404029 -0.474 152 108 83
0.53958 -0.4117 -0.483 146 102 77
0.541619 -0.412552 -0.484 144 100 75
-0.0402076 -0.357091 -0.418 183 143 108
-0.0257152 -0.344277 -0.403 187 145 105
-0.01876 -0.343423 -0.402 187 143 106
-0.00729238 -0.344277 -0.403 181 132 99
0.00584286 -0.349403 -0.409 171 124 94
0.0066219 -0.349403 -0.409 170 123 93
0.0082 -0.350257 -0.41 168 121 91
0.0268 -0.3588 -0.42 143 100 81
0.0431 -0.368197 -0.431 119 85 75
0.0469219 -0.372469 -0.436 108 81 74
0.0497533 -0.375031 -0.439 104 81 75
0.0776152 -0.416891 -0.488 75 63 67
0.218031 -0.469003 -0.549 92 133 189
0.225351 -0.469003 -0.549 176 188 202
0.262997 -0.469003 -0.549 139 139 147
0.2745 -0.469003 -0.549 154 157 162
0.290186 -0.469003 -0.549 168 167 172
0.295414 -0.469003 -0.549 170 171 176
0.299095 -0.469857 -0.55 170 169 175
0.303286 -0.469857 -0.55 172 173 177
0.304333 -0.469857 -0.55 171 172 176
0.32016 -0.471566 -0.552 175 175 177
0.328113 -0.47242 -0.553 172 172 174
0.337149 -0.473274 -0.554 165 163 166
0.343043 -0.474129 -0.555 163 161 164
0.376393 -0.477546 -0.559 125 124 129
0.389494 -0.479254 -0.561 105 104 109
0.3927 -0.479254 -0.561 98 97 103
0.401246 -0.481817 -0.564 78 77 82
0.421551 -0.479254 -0.561 61 60 66
0.456034 -0.481817 -0.564 56 55 61
0.477756 -0.488651 -0.572 55 55 63
0.5151 -0.5083 -0.595 27 25 36
0.518236 -0.509154 -0.596 24 22 33
0.514954 -0.476691 -0.558 21 19 32
0.494237 -0.451917 -0.529 108 89 83
0.4888 -0.444229 -0.52 115 85 75
0.4768 -0.410057 -0.48 166 120 96
0.483008 -0.408349 -0.478 172 125 99
0.487091 -0.404931 -0.474 179 129 104
0.498033 -0.40066 -0.469 168 121 93
0.507669 -0.399806 -0.468 167 117 90
0.5181 -0.402369 -0.471 156 110 86
0.54234 -0.41262 -0.483 143 103 77
0.549614 -0.416037 -0.487 128 99 81
-0.020241 -0.343332 -0.401 187 143 104
-0.0118686 -0.344189 -0.402 181 133 97
0.0169543 -0.354463 -0.414 153 107 83
0.0335162 -0.363025 -0.424 128 90 77
0.0352143 -0.363881 -0.425 120 90 80
0.0528571 -0.380149 -0.444 96 75 70
0.057 -0.385286 -0.45 91 72 68
0.06482 -0.396416 -0.463 85 66 68
0.269271 -0.470049 -0.549 161 164 169
0.278683 -0.470049 -0.549 161 164 169
0.303837 -0.471761 -0.551 170 171 173
0.36 -0.479467 -0.56 131 129 132
0.374534 -0.480323 -0.561 103 102 107
0.389429 -0.482891 -0.564 75 74 80
0.414528 -0.484604 -0.566 62 61 67
0.419509 -0.482891 -0.564 61 60 66
0.434549 -0.482891 -0.564 59 58 66
0.439624 -0.483748 -0.565 60 59 67
0.463596 -0.486316 -0.568 51 51 59
0.481097 -0.493166 -0.576 27 27 37
0.4746 -0.419533 -0.49 153 112 90
0.486189 -0.405834 -0.474 175 128 100
0.498754 -0.400697 -0.468 168 121 93
0.501429 -0.400697 -0.468 168 121 91
0.503915 -0.399841 -0.467 169 122 92
0.511234 -0.400697 -0.468 158 112 86
0.513017 -0.400697 -0.468 159 113 87
-0.0187133 -0.344096 -0.401 186 142 103
0.0082 -0.351819 -0.41 165 119 86
0.0185762 -0.35611 -0.415 150 105 84
0.0284676 -0.361258 -0.421 140 99 81
0.05504 -0.384427 -0.448 91 70 67
0.139603 -0.471094 -0.549 128 152 176
0.220766 -0.470236 -0.548 114 130 155
0.222853 -0.470236 -0.548 168 178 188
0.275 -0.471952 -0.55 162 163 167
0.307543 -0.473669 -0.552 160 160 162
0.318154 -0.475385 -0.554 155 155 157
0.343834 -0.478817 -0.558 130 130 132
0.354231 -0.481391 -0.561 118 117 122
0.370091 -0.483966 -0.564 84 83 89
0.375052 -0.484824 -0.565 76 73 80
0.38502 -0.48654 -0.567 67 66 72
0.429938 -0.484824 -0.565 59 60 65
0.43902 -0.48654 -0.567 60 59 67
0.44118 -0.48654 -0.567 59 58 66
0.493372 -0.452216 -0.527 109 84 79
0.475651 -0.423899 -0.494 142 104 85
0.474376 -0.416176 -0.485 159 115 90
0.477714 -0.411886 -0.48 164 118 92
0.485405 -0.407595 -0.475 172 125 95
0.491933 -0.403305 -0.47 167 120 92
0.494297 -0.401589 -0.468 170 123 95
0.496971 -0.401589 -0.468 170 123 95
0.506584 -0.40073 -0.467 163 116 86
0.513909 -0.401589 -0.468 156 112 85
0.520791 -0.404163 -0.471 156 113 81
-0.0327048 -0.34744 -0.404 185 143 105
-0.0319352 -0.34744 -0.404 185 143 105
-0.0271829 -0.34572 -0.402 187 145 107
-0.02406 -0.34486 -0.401 186 144 104
-0.0225324 -0.34486 -0.401 187 145 105
-0.0179495 -0.34486 -0.401 184 142 102
-0.0164219 -0.34486 -0.401 178 136 96
-0.0156581 -0.34486 -0.401 180 136 99
0.00193333 -0.34916 -0.406 171 125 92
0.00348857 -0.35002 -0.407 171 125 92
0.0121638 -0.35432 -0.412 156 110 84
0.0161657 -0.35604 -0.414 152 108 83
0.0202057 -0.35776 -0.416 150 105 84
0.0243419 -0.36034 -0.419 142 99 80
0.0301429 -0.36292 -0.422 133 96 80
0.0450533 -0.37324 -0.434 109 80 72
0.0571267 -0.38786 -0.451 92 71 68
0.0582429 -0.38958 -0.453 91 71 70
0.0674467 -0.40334 -0.469 85 67 65
0.0779333 -0.4214 -0.49 75 66 69
0.0825457 -0.43086 -0.501 111 125 164
0.19467 -0.47128 -0.548 187 193 207
0.254048 -0.473 -0.55 159 162 169
0.265571 -0.473 -0.55 161 165 166
0.276048 -0.473 -0.55 164 165 167
0.302286 -0.47472 -0.552 151 151 151
0.312878 -0.47644 -0.554 147 147 149
0.318729 -0.4773 -0.555 142 141 146
0.32248 -0.47816 -0.556 135 136 138
0.34782 -0.48246 -0.561 100 99 104
0.361701 -0.48676 -0.566 79 78 84
0.383127 -0.48934 -0.569 63 62 68
0.391684 -0.49192 -0.572 60 59 65
0.397024 -0.4945 -0.575 61 60 68
0.4753 -0.4171 -0.485 160 116 89
0.4761 -0.41538 -0.483 158 117 89
0.4768 -0.4128 -0.48 163 119 90
0.491933 -0.4042 -0.47 167 120 90
0.492829 -0.4042 -0.47 168 121 91
0.503915 -0.40162 -0.467 167 121 88
0.54694 -0.41538 -0.483 134 93 71
-0.0430038 -0.363724 -0.422 180 145 113
-0.0334743 -0.34821 -0.404 185 143 105
-0.0287143 -0.346486 -0.402 187 145 107
-0.0209524 -0.344762 -0.4 185 143 105
-0.0164219 -0.345624 -0.401 181 137 100
-0.00729238 -0.347348 -0.403 179 130 97
0.00271333 -0.350795 -0.407 171 124 94
0.0161657 -0.356829 -0.414 152 107 84
0.0202057 -0.358552 -0.416 148 106 84
0.0226914 -0.360276 -0.418 143 100 83
0.02514 -0.361138 -0.419 138 97 79
0.0268638 -0.362862 -0.421 138 96 80
0.0388143 -0.369757 -0.429 123 89 79
0.0627838 -0.397338 -0.461 84 68 68
0.0664114 -0.403371 -0.468 83 68 65
0.0726857 -0.413714 -0.48 79 69 67
0.207196 -0.472324 -0.548 110 125 146
0.211371 -0.472324 -0.548 118 134 150
0.217634 -0.472324 -0.548 147 157 156
0.222214 -0.473186 -0.549 163 166 171
0.281797 -0.47491 -0.551 152 152 152
0.2923 -0.476633 -0.553 149 149 151
0.300215 -0.477495 -0.554 142 142 144
0.342626 -0.485252 -0.563 77 76 81
0.370334 -0.492148 -0.571 63 62 70
0.396893 -0.498181 -0.578 60 60 68
