ply
format ascii 1.0
comment Created by Open3D
element vertex 1296
property double x
property double y
property double z
property uchar red
property uchar green
property uchar blue
end_header
0.0272057 -0.318977 -0.414 196 152 123
0.0327257 -0.318977 -0.414 194 150 121
0.03588 -0.318977 -0.414 189 144 115
0.0374571 -0.318977 -0.414 192 147 118
0.043081 -0.319748 -0.415 185 139 113
0.0666286 -0.326682 -0.424 155 107 95
0.073779 -0.329764 -0.428 145 101 92
0.0795895 -0.333616 -0.433 129 90 83
0.0865457 -0.338239 -0.439 119 86 81
0.087581 -0.33901 -0.44 116 83 78
0.116862 -0.373681 -0.485 86 68 68
0.249379 -0.43763 -0.568 201 207 221
0.251543 -0.43763 -0.568 195 201 217
0.37746 -0.43686 -0.567 177 184 200
0.39258 -0.43686 -0.567 199 199 207
0.400512 -0.43609 -0.566 162 175 194
0.429621 -0.43609 -0.566 147 153 167
0.43794 -0.43686 -0.567 176 176 188
0.449531 -0.43763 -0.568 164 167 172
0.473333 -0.43763 -0.568 118 132 161
0.48006 -0.43686 -0.567 66 94 133
0.471888 -0.380615 -0.494 170 126 99
0.483986 -0.378304 -0.491 169 121 98
0.508833 -0.382927 -0.497 159 114 91
0.530953 -0.393713 -0.511 147 106 84
0.9904 -0.431467 -0.56 169 171 160
0.99858 -0.432237 -0.561 151 153 148
1.02423 -0.432237 -0.561 112 114 109
0.0382457 -0.319766 -0.414 189 144 115
0.0572 -0.3244 -0.42 173 126 106
0.0834629 -0.336758 -0.436 124 86 83
0.248297 -0.438712 -0.568 202 205 220
0.366013 -0.437168 -0.566 199 203 214
0.380029 -0.437168 -0.566 180 183 198
0.454941 -0.438712 -0.568 163 164 169
0.491281 -0.436395 -0.565 76 85 100
0.470602 -0.404728 -0.524 135 106 90
0.466366 -0.398549 -0.516 145 110 90
0.465537 -0.397004 -0.514 150 109 89
0.464887 -0.393142 -0.509 165 120 97
0.468127 -0.383873 -0.497 170 124 100
0.471888 -0.381556 -0.494 171 127 102
0.496217 -0.380011 -0.492 159 113 90
0.966271 -0.431761 -0.559 163 163 155
0.975467 -0.432533 -0.56 143 144 138
0.978277 -0.433306 -0.561 140 141 135
0.999995 -0.43485 -0.563 124 126 123
0.014659 -0.322103 -0.416 196 153 121
0.0423924 -0.322103 -0.416 184 138 112
0.0581381 -0.325974 -0.421 170 124 101
0.076759 -0.333717 -0.431 137 94 87
0.0826324 -0.337589 -0.436 126 88 85
0.088821 -0.342234 -0.442 114 80 79
0.0945038 -0.347654 -0.449 103 75 74
0.2511 -0.43902 -0.567 201 204 223
0.319655 -0.438246 -0.566 131 143 167
0.384341 -0.438246 -0.566 202 204 216
0.406262 -0.437471 -0.565 161 177 202
0.44874 -0.43902 -0.567 167 170 175
0.482448 -0.438246 -0.566 62 81 113
0.483526 -0.438246 -0.566 64 83 115
0.479337 -0.415017 -0.536 123 100 94
0.472398 -0.407274 -0.526 134 106 94
0.46899 -0.402629 -0.52 145 110 91
0.468127 -0.38482 -0.497 170 124 100
0.47471 -0.382497 -0.494 174 128 104
0.480245 -0.380174 -0.491 170 123 97
0.482115 -0.380174 -0.491 169 122 96
0.484921 -0.380174 -0.491 169 121 98
0.513651 -0.385594 -0.498 154 112 88
0.917867 -0.4336 -0.56 193 195 182
0.956028 -0.435923 -0.563 166 166 154
0.9554 -0.435149 -0.562 164 164 152
0.955837 -0.434374 -0.561 160 160 150
0.961354 -0.432051 -0.558 134 134 126
1.00462 -0.437471 -0.565 102 104 103
1.0057 -0.437471 -0.565 102 104 103
0.0108 -0.326 -0.42 191 150 118
0.0138667 -0.322895 -0.416 198 155 123
0.0185314 -0.321343 -0.414 197 154 120
0.0208971 -0.321343 -0.414 197 157 122
0.0366686 -0.321343 -0.414 187 143 114
0.0513543 -0.324448 -0.418 171 125 101
0.0996695 -0.354719 -0.457 92 70 72
0.10098 -0.356271 -0.459 90 70 71
0.122593 -0.385767 -0.497 83 72 80
0.16499 -0.440876 -0.568 181 201 234
0.20466 -0.4401 -0.567 209 211 223
0.2187 -0.4401 -0.567 171 190 220
0.23058 -0.4401 -0.567 147 162 205
0.366443 -0.438548 -0.565 149 150 152
0.380433 -0.438548 -0.565 201 202 204
0.445792 -0.439324 -0.566 163 166 175
0.46062 -0.4401 -0.567 70 85 108
0.4725 -0.4401 -0.567 115 122 148
0.48137 -0.439324 -0.566 66 85 115
0.48202 -0.418367 -0.539 127 100 89
0.465038 -0.392752 -0.506 168 124 97
0.465081 -0.391976 -0.505 170 126 101
0.47377 -0.383438 -0.494 171 125 101
0.475628 -0.382662 -0.493 169 123 99
0.4802 -0.380333 -0.49 168 122 98
0.544209 -0.402843 -0.519 145 105 79
0.968033 -0.438548 -0.565 121 122 114
1.00483 -0.442429 -0.57 104 106 105
0.00769048 -0.33069 -0.425 190 149 121
0.0092219 -0.327578 -0.421 191 150 120
0.0279267 -0.321353 -0.413 187 144 112
0.0343029 -0.322131 -0.414 190 147 115
0.0488486 -0.324466 -0.417 175 131 104
0.0538714 -0.326022 -0.419 169 123 100
0.0581381 -0.327578 -0.421 167 120 100
0.0640543 -0.329134 -0.423 156 109 93
0.0818019 -0.33925 -0.436 128 87 83
0.08468 -0.340806 -0.438 120 84 84
0.1012 -0.357924 -0.46 90 72 72
0.115938 -0.377376 -0.485 85 69 69
0.159862 -0.442736 -0.569 105 138 189
0.24311 -0.440402 -0.566 200 205 225
0.363214 -0.439624 -0.565 150 163 195
0.366443 -0.439624 -0.565 181 181 193
0.367519 -0.439624 -0.565 198 198 210
0.371824 -0.439624 -0.565 200 203 212
0.410914 -0.438846 -0.564 111 144 187
0.414137 -0.438846 -0.564 99 131 172
0.437471 -0.439624 -0.565 178 174 188
0.4407 -0.439624 -0.565 172 177 196
0.493634 -0.438846 -0.564 94 100 112
0.470014 -0.385157 -0.495 171 125 101
0.486733 -0.381267 -0.49 167 121 95
0.4886 -0.381267 -0.49 166 120 96
0.576614 -0.422506 -0.543 183 164 150
0.971691 -0.438846 -0.564 117 114 105
0.98118 -0.44118 -0.567 114 116 103
0.0177 -0.32214 -0.413 195 152 118
0.02006 -0.32214 -0.413 196 153 119
0.0279267 -0.32214 -0.413 186 143 111
0.0343029 -0.32292 -0.414 191 146 115
0.039919 -0.3237 -0.415 181 137 108
0.0464657 -0.32526 -0.417 178 134 107
0.0488486 -0.32526 -0.417 174 130 103
0.0598838 -0.32916 -0.422 162 115 99
0.0759381 -0.33618 -0.431 137 92 86
0.0818019 -0.34008 -0.436 127 86 80
0.225861 -0.44148 -0.566 99 133 194
0.226939 -0.44148 -0.566 128 159 216
0.234486 -0.44148 -0.566 92 111 153
0.271738 -0.4407 -0.565 183 186 203
0.3572 -0.43992 -0.564 184 199 222
0.430561 -0.43914 -0.563 79 96 139
0.46412 -0.44148 -0.566 162 165 174
0.467354 -0.44148 -0.566 153 157 160
0.490411 -0.43992 -0.564 138 142 151
0.465909 -0.39624 -0.508 167 123 98
0.476537 -0.38376 -0.492 173 126 100
0.478374 -0.38298 -0.491 174 127 101
0.487667 -0.3822 -0.49 169 122 96
0.521517 -0.39078 -0.501 148 106 81
0.532753 -0.39702 -0.509 148 107 79
0.537917 -0.40014 -0.513 143 106 77
0.986371 -0.4446 -0.57 117 112 108
0.0114895 -0.325272 -0.416 191 150 118
0.0192733 -0.322927 -0.413 197 154 120
0.0232067 -0.322927 -0.413 193 150 116
0.0447695 -0.325272 -0.416 178 133 104
0.0464657 -0.326054 -0.417 177 133 106
0.05908 -0.329964 -0.422 161 114 98
0.0598838 -0.329964 -0.422 161 113 99
0.0659762 -0.33231 -0.425 154 106 94
0.06954 -0.333873 -0.427 149 102 92
0.0759381 -0.337001 -0.431 138 93 87
0.0787648 -0.338565 -0.433 131 88 82
0.0962086 -0.354203 -0.453 96 75 74
0.108335 -0.369059 -0.472 86 68 68
0.121402 -0.387825 -0.496 87 71 72
0.16254 -0.44334 -0.567 130 163 217
0.235148 -0.441776 -0.565 172 193 236
0.244833 -0.441776 -0.565 191 197 209
0.250214 -0.441776 -0.565 154 161 169
0.374389 -0.440994 -0.564 202 202 214
0.390883 -0.440212 -0.563 201 201 211
0.414475 -0.440212 -0.563 92 116 152
0.431633 -0.440212 -0.563 94 109 140
0.469757 -0.441776 -0.565 146 150 162
0.477 -0.41441 -0.53 131 102 94
0.46704 -0.39408 -0.504 168 122 98
0.468095 -0.390952 -0.5 173 127 103
0.469074 -0.387825 -0.496 169 123 99
0.47377 -0.386261 -0.494 173 127 101
0.483933 -0.383133 -0.49 167 120 94
0.578683 -0.424574 -0.543 189 176 159
0.0366686 -0.324497 -0.414 188 143 112
0.0407095 -0.325281 -0.415 181 136 107
0.0514771 -0.328416 -0.419 168 122 99
0.06954 -0.334687 -0.427 149 102 92
0.0741238 -0.337038 -0.43 141 94 86
0.0881781 -0.347228 -0.443 114 79 77
0.10142 -0.361336 -0.461 91 70 69
0.11016 -0.373093 -0.476 87 67 68
0.118067 -0.384067 -0.49 87 71 72
0.119971 -0.387202 -0.494 86 70 71
0.15606 -0.44442 -0.567 107 134 177
0.15714 -0.44442 -0.567 91 128 183
0.162253 -0.443636 -0.566 120 156 216
0.365146 -0.441285 -0.563 134 148 177
0.391955 -0.441285 -0.563 185 192 210
0.424444 -0.440501 -0.562 186 188 200
0.425514 -0.440501 -0.562 184 186 198
0.427655 -0.440501 -0.562 146 152 174
0.442357 -0.441285 -0.563 145 151 167
0.47 -0.442069 -0.564 133 143 170
0.493831 -0.441285 -0.563 121 126 130
0.46704 -0.39504 -0.504 168 124 99
0.488534 -0.383283 -0.489 167 120 94
0.505496 -0.38485 -0.491 160 116 91
0.5084 -0.385634 -0.492 158 114 89
0.0302867 -0.3245 -0.413 192 147 114
0.0557324 -0.330786 -0.421 165 118 98
0.0741238 -0.337857 -0.43 141 94 86
0.0789467 -0.341 -0.434 128 90 81
0.0809714 -0.342571 -0.436 124 87 81
0.232583 -0.443143 -0.564 73 111 176
0.249771 -0.443143 -0.564 154 161 169
0.312599 -0.442357 -0.563 193 200 210
0.313671 -0.442357 -0.563 193 200 210
0.325468 -0.442357 -0.563 194 202 215
0.368363 -0.442357 -0.563 192 202 229
0.37158 -0.442357 -0.563 205 201 215
0.385907 -0.441571 -0.562 202 199 216
0.391259 -0.441571 -0.562 176 187 207
0.41695 -0.441571 -0.562 125 146 175
0.431937 -0.441571 -0.562 103 120 150
0.446647 -0.442357 -0.563 159 165 181
0.485252 -0.442357 -0.563 93 104 122
0.495283 -0.440786 -0.561 104 107 114
0.483877 -0.384214 -0.489 167 120 94
0.484809 -0.384214 -0.489 169 122 96
0.487603 -0.384214 -0.489 168 121 95
0.489466 -0.384214 -0.489 168 121 95
0.5026 -0.385 -0.49 161 115 89
0.507367 -0.385786 -0.491 157 113 86
0.511311 -0.387357 -0.493 156 112 87
0.84717 -0.437643 -0.557 181 183 172
0.00601429 -0.331588 -0.421 185 149 113
0.0651667 -0.334738 -0.425 148 102 89
0.0677543 -0.335526 -0.426 150 103 93
0.0705181 -0.337101 -0.428 146 99 91
0.0789467 -0.341827 -0.434 128 90 79
0.0842286 -0.346552 -0.44 117 84 77
0.108794 -0.373331 -0.474 87 67 69
0.118549 -0.387509 -0.492 89 69 70
0.122136 -0.393022 -0.499 88 72 72
0.154433 -0.445005 -0.565 112 140 188
0.16089 -0.445005 -0.565 87 122 188
0.198206 -0.444217 -0.564 207 210 227
0.2068 -0.444217 -0.564 199 202 221
0.268631 -0.44343 -0.563 196 202 216
0.361286 -0.442642 -0.562 161 165 177
0.434078 -0.442642 -0.562 106 118 142
0.447719 -0.44343 -0.563 159 167 190
0.477968 -0.442642 -0.562 127 135 158
0.486325 -0.44343 -0.563 88 97 112
0.4719 -0.389871 -0.495 168 122 96
0.471888 -0.389084 -0.494 169 123 97
0.472829 -0.389084 -0.494 172 126 100
0.477439 -0.386721 -0.491 173 126 100
0.495901 -0.384358 -0.488 163 116 88
0.8355 -0.438704 -0.557 171 174 163
0.845503 -0.439491 -0.558 163 165 154
0.847629 -0.439491 -0.558 161 161 151
0.850817 -0.439491 -0.558 159 159 149
0.855536 -0.440279 -0.559 151 152 144
0.00676762 -0.330021 -0.418 187 149 112
0.0121933 -0.326073 -0.413 192 149 115
0.0153029 -0.325284 -0.412 194 151 116
0.0334333 -0.326073 -0.413 186 143 108
0.039919 -0.327652 -0.415 178 135 101
0.0532 -0.3316 -0.42 167 120 100
0.0705181 -0.337916 -0.428 144 100 87
0.0842286 -0.34739 -0.44 117 85 72
0.11879 -0.389235 -0.493 87 67 68
0.157941 -0.44687 -0.566 71 102 159
0.32489 -0.443712 -0.562 193 203 212
0.396974 -0.442923 -0.561 199 201 214
0.401249 -0.442923 -0.561 198 202 214
0.461406 -0.445291 -0.564 124 128 131
0.470474 -0.443712 -0.562 70 96 131
0.48439 -0.443712 -0.562 82 98 123
0.481617 -0.421606 -0.534 125 99 82
0.470367 -0.406605 -0.515 151 109 95
0.46793 -0.399499 -0.506 165 119 95
0.488534 -0.386077 -0.489 170 120 93
0.49776 -0.385288 -0.488 161 114 84
0.500549 -0.385288 -0.488 163 116 88
0.502408 -0.385288 -0.488 159 114 83
0.506333 -0.386867 -0.49 158 113 82
0.52124 -0.393183 -0.498 161 111 86
0.565894 -0.419237 -0.531 147 109 90
0.824469 -0.438975 -0.556 180 182 171
0.845333 -0.442133 -0.56 138 138 130
0.865009 -0.442923 -0.561 116 116 108
0.00286667 -0.340314 -0.43 191 148 116
0.0052 -0.3324 -0.42 184 145 112
0.00597143 -0.330817 -0.418 186 147 114
0.0145181 -0.326069 -0.412 193 150 116
0.0422905 -0.328443 -0.415 176 133 101
0.0677543 -0.337149 -0.426 148 102 89
0.0875314 -0.351394 -0.444 109 81 69
0.0885762 -0.352186 -0.445 108 80 68
0.0932067 -0.356934 -0.451 102 77 72
0.142738 -0.431329 -0.545 85 109 157
0.155785 -0.447949 -0.566 91 114 166
0.203216 -0.445574 -0.563 210 213 228
0.221447 -0.445574 -0.563 83 118 174
0.227881 -0.445574 -0.563 128 159 214
0.239677 -0.445574 -0.563 198 204 220
0.341409 -0.443991 -0.561 155 164 193
0.375603 -0.443991 -0.561 189 194 214
0.419733 -0.4432 -0.56 179 183 194
0.425826 -0.443991 -0.561 191 196 200
0.473686 -0.444783 -0.562 86 115 149
0.48994 -0.443991 -0.561 137 139 138
0.469069 -0.394131 -0.498 168 122 96
0.470019 -0.392549 -0.496 167 122 93
0.479267 -0.3878 -0.49 176 129 99
0.483877 -0.387009 -0.489 173 127 94
0.494042 -0.386217 -0.488 163 116 88
0.501478 -0.386217 -0.488 163 116 86
0.567973 -0.42104 -0.532 139 108 90
0.806465 -0.440034 -0.556 174 175 167
0.821291 -0.440034 -0.556 164 165 157
0.830623 -0.441617 -0.558 153 154 146
0.834241 -0.442409 -0.559 121 121 113
0.840431 -0.443991 -0.561 120 119 114
0.860128 -0.444783 -0.562 118 118 110
0.86655 -0.444783 -0.562 116 116 108
0.869165 -0.445574 -0.563 117 117 109
0.00518762 -0.332407 -0.419 184 145 112
0.00673524 -0.330027 -0.416 188 148 112
0.0144829 -0.32606 -0.411 192 149 115
0.0422905 -0.329233 -0.415 177 132 103
0.0541286 -0.333993 -0.421 165 118 98
0.0625905 -0.336373 -0.424 154 105 90
0.0642057 -0.336373 -0.424 151 103 89
0.0733048 -0.341133 -0.43 136 94 82
0.0791286 -0.3451 -0.435 124 91 76
0.080141 -0.345893 -0.436 123 90 75
0.104967 -0.372073 -0.469 87 68 64
0.119271 -0.3927 -0.495 87 67 66
0.152011 -0.44744 -0.564 103 129 178
0.199999 -0.446647 -0.563 213 216 231
0.390933 -0.444267 -0.56 180 194 221
0.405867 -0.444267 -0.56 127 153 180
0.408 -0.444267 -0.56 164 188 212
0.409067 -0.444267 -0.56 157 182 212
0.450936 -0.446647 -0.563 69 92 144
0.457629 -0.445853 -0.562 171 172 164
0.472843 -0.44506 -0.561 74 99 140
0.485666 -0.44506 -0.561 113 127 156
0.495467 -0.444267 -0.56 112 115 120
0.475592 -0.415707 -0.524 133 101 86
0.47931 -0.389527 -0.491 179 130 100
0.484809 -0.38794 -0.489 173 124 92
0.485676 -0.387147 -0.488 172 123 93
0.497668 -0.386353 -0.487 164 117 87
0.502306 -0.386353 -0.487 163 116 86
0.517053 -0.391907 -0.494 159 113 87
0.52619 -0.396667 -0.5 146 113 80
0.529251 -0.398253 -0.502 144 111 78
0.581704 -0.429193 -0.541 190 183 173
0.799051 -0.441093 -0.556 163 163 155
0.815743 -0.44268 -0.558 145 145 137
0.826371 -0.44268 -0.558 131 131 123
0.00906857 -0.329229 -0.414 192 149 117
0.0129171 -0.326843 -0.411 193 150 116
0.0152286 -0.326048 -0.41 191 148 113
0.0309981 -0.327638 -0.412 185 140 107
0.03658 -0.328433 -0.413 184 139 106
0.0541286 -0.334795 -0.421 163 116 96
0.0565343 -0.334795 -0.421 162 115 95
0.0582762 -0.33559 -0.422 158 111 93
0.0752914 -0.343543 -0.432 127 94 79
0.0934133 -0.359448 -0.452 100 75 71
0.119512 -0.394438 -0.496 86 66 67
0.129496 -0.411138 -0.517 206 209 214
0.203926 -0.446924 -0.562 208 212 224
0.221053 -0.446924 -0.562 126 158 215
0.225335 -0.446924 -0.562 85 118 171
0.339733 -0.445333 -0.56 178 186 199
0.3472 -0.445333 -0.56 157 177 214
0.428267 -0.445333 -0.56 197 193 192
0.429333 -0.445333 -0.56 178 185 195
0.453347 -0.446924 -0.562 52 84 125
0.464294 -0.446129 -0.561 166 169 174
0.465363 -0.446129 -0.561 154 157 162
0.471774 -0.446129 -0.561 70 94 138
0.480934 -0.422271 -0.531 128 99 85
0.478333 -0.389667 -0.49 178 129 99
0.501378 -0.387281 -0.487 164 117 89
0.508094 -0.388871 -0.489 158 113 84
0.511 -0.389667 -0.49 159 114 85
0.810429 -0.443743 -0.558 124 124 116
0.81827 -0.444538 -0.559 118 118 110
0.821464 -0.444538 -0.559 115 114 109
0.822529 -0.444538 -0.559 115 114 109
0.8304 -0.445333 -0.56 116 115 110
0.863015 -0.450105 -0.566 114 115 109
0.868406 -0.450105 -0.566 120 120 112
0.00282667 -0.337989 -0.424 186 145 115
0.027859 -0.328423 -0.412 185 140 107
0.0309981 -0.328423 -0.412 185 140 109
0.0317829 -0.328423 -0.412 183 138 107
0.0473733 -0.333206 -0.418 167 121 97
0.0557324 -0.335597 -0.421 162 115 95
0.0651667 -0.338786 -0.425 150 104 88
0.0724857 -0.342771 -0.43 135 96 81
0.0774714 -0.346757 -0.435 123 90 75
0.0794924 -0.348351 -0.437 121 89 76
0.0866857 -0.353931 -0.444 108 79 71
0.121429 -0.398571 -0.5 88 75 82
0.157662 -0.450386 -0.565 78 108 160
0.159249 -0.448791 -0.563 78 108 162
0.381717 -0.445603 -0.559 154 172 210
0.43602 -0.445603 -0.559 65 93 143
0.437085 -0.445603 -0.559 62 92 144
0.458951 -0.447197 -0.561 174 174 176
0.477333 -0.4464 -0.56 66 91 131
0.482746 -0.424877 -0.533 121 93 81
0.47659 -0.417703 -0.524 131 98 81
0.469048 -0.398571 -0.5 167 122 93
0.470957 -0.394586 -0.495 169 124 95
0.476504 -0.391397 -0.491 176 129 99
0.491174 -0.388209 -0.487 168 119 87
0.58058 -0.42966 -0.539 188 172 156
0.822933 -0.4464 -0.56 119 119 111
0.825067 -0.4464 -0.56 116 116 108
0.844271 -0.450386 -0.565 118 119 113
0.850078 -0.451183 -0.566 118 118 110
0.873638 -0.452777 -0.568 122 122 112
0.0144829 -0.328409 -0.411 192 149 115
0.0199143 -0.32761 -0.41 194 151 117
0.0415 -0.331605 -0.415 170 126 99
0.049881 -0.334801 -0.419 167 121 97
0.0617829 -0.338796 -0.424 154 109 90
0.0688876 -0.341992 -0.428 141 100 82
0.0846114 -0.353179 -0.442 113 84 76
0.09362 -0.361969 -0.453 97 76 73
0.106763 -0.37795 -0.473 85 67 65
0.111549 -0.385141 -0.482 83 68 65
0.15551 -0.451462 -0.565 95 123 170
0.157383 -0.450663 -0.564 91 121 173
0.195014 -0.448266 -0.561 211 215 227
0.340191 -0.446668 -0.559 152 168 184
0.34658 -0.446668 -0.559 151 175 209
0.454677 -0.448266 -0.561 146 161 180
0.461333 -0.447467 -0.56 167 167 167
0.473067 -0.447467 -0.56 66 89 133
0.480533 -0.447467 -0.56 52 79 122
0.483934 -0.446668 -0.559 90 112 151
0.468055 -0.401122 -0.502 164 120 93
0.470019 -0.396328 -0.496 167 123 94
0.471888 -0.39473 -0.494 169 125 98
0.474689 -0.39393 -0.493 173 128 99
0.482067 -0.391533 -0.49 177 128 96
0.483877 -0.390734 -0.489 177 128 96
0.492102 -0.389136 -0.487 166 117 87
0.5022 -0.388337 -0.486 162 116 90
0.512867 -0.391533 -0.49 160 112 89
0.577349 -0.42829 -0.536 158 140 120
0.829084 -0.449065 -0.562 115 115 107
0.844688 -0.452261 -0.566 121 122 116
0.857835 -0.454658 -0.569 118 118 110
0.869757 -0.454658 -0.569 123 123 113
0.00154857 -0.434116 -0.542 187 144 112
0.00515048 -0.333196 -0.416 190 146 117
0.0199143 -0.32839 -0.41 196 153 119
0.0222571 -0.32839 -0.41 191 151 116
0.03588 -0.331594 -0.414 179 134 103
0.0447695 -0.333196 -0.416 169 123 97
0.0456714 -0.333997 -0.417 169 123 99
0.0490829 -0.335599 -0.419 167 121 97
0.0584143 -0.338803 -0.423 158 112 89
0.0609752 -0.339604 -0.424 153 108 87
0.0617829 -0.339604 -0.424 153 108 87
0.0825524 -0.352419 -0.44 113 83 73
0.0938267 -0.363632 -0.454 96 75 72
0.104073 -0.375647 -0.469 86 68 66
0.15067 -0.450936 -0.563 159 184 214
0.227071 -0.449334 -0.561 148 172 210
0.229209 -0.449334 -0.561 185 201 226
0.234133 -0.448533 -0.56 148 162 188
0.341256 -0.447732 -0.559 108 121 140
0.342321 -0.447732 -0.559 106 126 163
0.378909 -0.446931 -0.558 126 153 200
0.4278 -0.446931 -0.558 196 199 206
0.440279 -0.447732 -0.559 41 73 132
0.4624 -0.448533 -0.56 172 172 174
0.470092 -0.447732 -0.559 54 80 129
0.46896 -0.40368 -0.504 162 120 95
0.469069 -0.398874 -0.498 167 123 94
0.470957 -0.396471 -0.495 169 128 98
0.471871 -0.39487 -0.493 169 125 98
0.474663 -0.394069 -0.492 175 130 101
0.476537 -0.394069 -0.492 174 129 100
0.477439 -0.393268 -0.491 174 127 97
0.486536 -0.390064 -0.487 173 126 98
0.498497 -0.389263 -0.486 166 119 91
0.569876 -0.424505 -0.53 128 103 81
0.575194 -0.427709 -0.534 133 108 86
0.813027 -0.450135 -0.562 102 101 97
0.818763 -0.450936 -0.563 118 118 110
0.825589 -0.451737 -0.564 120 119 114
0.826663 -0.451737 -0.564 120 119 114
0.849836 -0.454941 -0.568 120 119 114
0.893423 -0.46295 -0.578 114 115 107
0.0121048 -0.329171 -0.41 190 145 112
0.0167905 -0.329171 -0.41 192 147 114
0.0481695 -0.335594 -0.418 166 120 97
0.055061 -0.338806 -0.422 161 115 92
0.0566686 -0.338806 -0.422 161 115 92
0.0688876 -0.343623 -0.428 141 99 83
0.0706829 -0.344426 -0.429 137 95 81
0.0815286 -0.352454 -0.439 114 84 76
0.120476 -0.401429 -0.5 81 71 70
0.195733 -0.4496 -0.56 209 213 225
0.227733 -0.4496 -0.56 171 183 209
0.230933 -0.4496 -0.56 197 204 220
0.25714 -0.448797 -0.559 192 195 210
0.416424 -0.447191 -0.557 98 132 180
0.43524 -0.447994 -0.558 94 118 152
0.447732 -0.448797 -0.559 47 80 134
0.456 -0.4496 -0.56 173 171 184
0.486606 -0.391794 -0.488 174 124 97
0.488314 -0.390189 -0.486 172 122 97
0.503938 -0.389386 -0.485 162 115 87
0.514733 -0.3934 -0.49 153 107 83
0.821671 -0.453614 -0.565 118 118 110
0.822748 -0.453614 -0.565 119 119 111
0.851743 -0.457629 -0.57 118 119 113
0.856086 -0.457629 -0.57 100 101 96
0.876522 -0.459234 -0.572 105 104 99
0.880237 -0.460037 -0.573 106 107 101
0.00278667 -0.33639 -0.418 190 147 113
0.00434762 -0.333976 -0.415 189 146 112
0.0317829 -0.331562 -0.412 181 136 105
0.03422 -0.332367 -0.413 180 135 106
0.03658 -0.332367 -0.413 179 132 102
0.0431848 -0.334781 -0.416 171 125 99
0.0481695 -0.33639 -0.418 167 121 95
0.07848 -0.350876 -0.436 120 85 79
0.104295 -0.378238 -0.47 85 67 63
0.152814 -0.453081 -0.563 122 146 180
0.2256 -0.450667 -0.56 119 137 175
0.2288 -0.450667 -0.56 192 203 231
0.231586 -0.449862 -0.559 200 204 216
0.411119 -0.448252 -0.557 88 124 176
0.41218 -0.448252 -0.557 91 127 179
0.431277 -0.448252 -0.557 177 184 194
0.433399 -0.448252 -0.557 130 151 182
0.440554 -0.449057 -0.558 42 70 133
0.468189 -0.449057 -0.558 52 82 136
0.486257 -0.449057 -0.558 119 128 143
0.493873 -0.448252 -0.557 79 86 102
0.46982 -0.408014 -0.507 152 110 88
0.481133 -0.394333 -0.49 171 124 96
0.493776 -0.39031 -0.485 173 123 96
0.4947 -0.39031 -0.485 171 121 94
0.498395 -0.39031 -0.485 168 121 95
0.501167 -0.39031 -0.485 164 118 92
0.522699 -0.397552 -0.494 149 109 83
0.856911 -0.460324 -0.572 107 107 105
0.881773 -0.461933 -0.574 102 103 97
0.00434762 -0.334767 -0.415 190 147 113
0.00745524 -0.332347 -0.412 188 144 109
0.00978571 -0.33154 -0.411 189 144 111
0.0121048 -0.330733 -0.41 190 145 112
0.0144124 -0.329927 -0.409 187 142 109
0.0206448 -0.329927 -0.409 193 148 115
0.0341371 -0.332347 -0.412 181 136 105
0.0381533 -0.333153 -0.413 176 131 100
0.0448771 -0.33638 -0.417 174 127 101
0.0508 -0.3388 -0.42 163 117 91
0.0600257 -0.34122 -0.423 154 107 87
0.0716667 -0.346867 -0.43 132 94 83
0.0776495 -0.351707 -0.436 121 86 80
0.07866 -0.352513 -0.437 119 84 78
0.08584 -0.35816 -0.444 110 80 78
0.106086 -0.38236 -0.474 86 68 66
0.19006 -0.450927 -0.559 213 216 225
0.21029 -0.450927 -0.559 208 212 223
0.226262 -0.450927 -0.559 144 162 200
0.231586 -0.450927 -0.559 204 208 219
0.354889 -0.449313 -0.557 191 198 206
0.42203 -0.448507 -0.556 193 196 205
0.427033 -0.449313 -0.557 188 190 202
0.432338 -0.449313 -0.557 185 189 200
0.433399 -0.449313 -0.557 146 167 198
0.441617 -0.45012 -0.558 40 68 133
0.443743 -0.45012 -0.558 43 68 132
0.456497 -0.45012 -0.558 159 162 179
0.475629 -0.45012 -0.558 15 55 114
0.483069 -0.45012 -0.558 40 73 126
0.49069 -0.449313 -0.557 78 78 88
0.491928 -0.448507 -0.556 55 61 77
0.476839 -0.420273 -0.521 131 98 83
0.469069 -0.40172 -0.498 163 123 97
0.470967 -0.400913 -0.497 167 125 100
0.473726 -0.39688 -0.492 167 121 97
0.4756 -0.39688 -0.492 166 120 96
0.486536 -0.392847 -0.487 171 121 96
0.488314 -0.39204 -0.486 172 122 97
0.503014 -0.391233 -0.485 157 111 85
0.875871 -0.46222 -0.573 97 98 92
0.0317829 -0.333131 -0.412 181 136 105
0.0373667 -0.33394 -0.413 176 131 102
0.0456714 -0.337174 -0.417 171 124 98
0.0776495 -0.352537 -0.436 120 85 79
0.0796743 -0.354154 -0.438 117 82 76
0.0929619 -0.367091 -0.454 93 73 72
0.146405 -0.451991 -0.559 197 210 229
0.152814 -0.455226 -0.563 129 154 185
0.183671 -0.451991 -0.559 215 217 229
0.386023 -0.449566 -0.556 173 193 220
0.387082 -0.449566 -0.556 191 201 210
0.418853 -0.449566 -0.556 185 193 204
0.428385 -0.449566 -0.556 147 143 144
0.440826 -0.450374 -0.557 39 71 132
0.454371 -0.451183 -0.558 116 128 154
0.472654 -0.450374 -0.557 20 57 110
0.494046 -0.449566 -0.556 42 51 66
0.486595 -0.432586 -0.535 118 90 78
0.483057 -0.428543 -0.53 123 95 83
0.470957 -0.400243 -0.495 167 123 98
0.47281 -0.398626 -0.493 171 125 101
0.475569 -0.397009 -0.491 168 122 96
0.478374 -0.397009 -0.491 168 121 95
0.496548 -0.392157 -0.485 169 122 94
0.501977 -0.391349 -0.484 159 114 85
0.503821 -0.391349 -0.484 159 114 85
0.526586 -0.400243 -0.495 144 108 82
0.8322 -0.460886 -0.57 117 120 113
0.836543 -0.460886 -0.57 123 122 117
0.840494 -0.460077 -0.569 104 103 99
0.844143 -0.460886 -0.57 104 103 98
0.869747 -0.46412 -0.574 87 90 83
0.88858 -0.466546 -0.577 94 97 90
0.00510095 -0.333916 -0.412 192 149 115
0.00665429 -0.333106 -0.411 188 143 110
0.0325676 -0.333916 -0.412 181 134 104
0.0333524 -0.333916 -0.412 180 133 103
0.0431848 -0.337158 -0.416 171 124 96
0.0662867 -0.346073 -0.427 142 99 83
0.0776495 -0.353368 -0.436 119 84 78
0.0829276 -0.35823 -0.442 115 81 79
0.083959 -0.359041 -0.443 109 78 76
0.107891 -0.387408 -0.478 84 66 66
0.1552 -0.453867 -0.56 133 162 196
0.199286 -0.452246 -0.558 148 151 170
0.21948 -0.452246 -0.558 164 187 218
0.338366 -0.450625 -0.556 96 126 180
0.353192 -0.450625 -0.556 123 154 201
0.419912 -0.450625 -0.556 178 194 210
0.438975 -0.450625 -0.556 41 71 131
0.440826 -0.451435 -0.557 42 72 132
0.441887 -0.451435 -0.557 37 73 133
0.454618 -0.451435 -0.557 64 90 125
0.471593 -0.451435 -0.557 29 65 117
0.481142 -0.451435 -0.557 48 79 125
0.483455 -0.450625 -0.556 71 94 126
0.48875 -0.450625 -0.556 116 126 138
0.470932 -0.399565 -0.493 167 123 98
0.473698 -0.397944 -0.491 162 116 92
0.486536 -0.394702 -0.487 174 124 99
0.497368 -0.39227 -0.484 169 122 94
0.505665 -0.39227 -0.484 163 116 88
0.507509 -0.39227 -0.484 158 113 84
0.827134 -0.462782 -0.571 30 26 25
0.830029 -0.461971 -0.57 116 116 114
0.862093 -0.465213 -0.574 100 103 96
0.869071 -0.466024 -0.575 104 107 100
0.874548 -0.466024 -0.575 123 128 121
0.0144124 -0.332264 -0.409 188 145 111
0.0159705 -0.332264 -0.409 188 145 111
0.0206448 -0.332264 -0.409 187 144 110
0.023819 -0.333076 -0.41 187 143 108
0.0246 -0.333076 -0.41 186 142 107
0.0261619 -0.333076 -0.41 188 143 110
0.0277238 -0.333076 -0.41 187 141 108
0.0398229 -0.336326 -0.414 171 126 97
0.0617829 -0.34445 -0.424 151 104 84
0.0698657 -0.348511 -0.429 133 93 83
0.121922 -0.411065 -0.506 140 136 150
0.151203 -0.455746 -0.561 124 148 182
0.230757 -0.452496 -0.557 202 204 219
0.390614 -0.450871 -0.555 195 196 201
0.44613 -0.452496 -0.557 34 64 124
0.485573 -0.451684 -0.556 114 127 146
0.494214 -0.450871 -0.555 79 94 115
0.49649 -0.450059 -0.554 90 99 114
0.47429 -0.418376 -0.515 135 98 80
0.46992 -0.40944 -0.504 152 111 91
0.471871 -0.400504 -0.493 167 121 97
0.48924 -0.394817 -0.486 173 123 96
0.50186 -0.39238 -0.483 165 118 90
0.50462 -0.39238 -0.483 162 117 88
0.51728 -0.396442 -0.488 147 110 84
0.519271 -0.397254 -0.489 145 108 82
0.528471 -0.402129 -0.495 140 106 81
0.844536 -0.46387 -0.571 101 102 97
0.849284 -0.464682 -0.572 53 52 47
0.00039619 -0.338743 -0.416 189 146 114
0.0097619 -0.333857 -0.41 189 146 112
0.0112962 -0.333043 -0.409 190 147 113
0.0120752 -0.333043 -0.409 190 147 113
0.0175286 -0.333043 -0.409 187 144 110
0.0190867 -0.333043 -0.409 186 143 109
0.025381 -0.333857 -0.41 184 139 106
0.0482848 -0.341186 -0.419 165 120 91
0.049881 -0.341186 -0.419 165 119 93
0.0700286 -0.350143 -0.43 133 93 83
0.108343 -0.390857 -0.48 86 68 68
0.19999 -0.453557 -0.557 193 198 217
0.20105 -0.453557 -0.557 204 209 228
0.226513 -0.453557 -0.557 157 174 200
0.253642 -0.452743 -0.556 146 173 218
0.337757 -0.451929 -0.555 92 128 180
0.348329 -0.451929 -0.555 89 123 169
0.402243 -0.451929 -0.555 66 106 158
0.4181 -0.451929 -0.555 101 126 157
0.419157 -0.451929 -0.555 110 135 166
0.424443 -0.451929 -0.555 147 154 172
0.441093 -0.452743 -0.556 39 70 127
0.469986 -0.407957 -0.501 154 112 90
0.4746 -0.399 -0.49 165 119 95
0.490081 -0.394929 -0.485 172 122 95
0.509352 -0.394114 -0.484 152 111 81
0.512252 -0.394929 -0.485 150 110 84
0.584424 -0.435643 -0.535 181 165 152
0.85186 -0.466586 -0.573 31 32 26
0.85444 -0.4674 -0.574 68 69 63
0.870583 -0.469029 -0.576 87 89 84
0.0082 -0.334638 -0.41 193 148 117
0.0105171 -0.333822 -0.409 189 146 112
0.0136 -0.333006 -0.408 190 147 113
0.0206448 -0.333822 -0.409 184 141 107
0.0229819 -0.333822 -0.409 189 144 111
0.03658 -0.337087 -0.413 176 131 100
0.05922 -0.345249 -0.423 150 104 81
0.0645086 -0.347697 -0.426 143 100 84
0.0758143 -0.355043 -0.435 118 85 80
0.0778276 -0.356675 -0.437 117 84 79
0.07884 -0.357491 -0.438 116 83 78
0.101177 -0.381977 -0.468 88 70 70
0.350443 -0.452986 -0.555 85 122 175
0.371971 -0.45217 -0.554 52 80 145
0.383579 -0.45217 -0.554 98 121 165
0.4329 -0.452986 -0.555 74 98 142
0.435014 -0.452986 -0.555 58 84 133
0.449566 -0.453802 -0.556 113 136 168
0.475186 -0.452986 -0.555 44 83 138
0.469946 -0.410544 -0.503 148 110 91
0.474633 -0.40075 -0.491 164 120 95
0.4746 -0.399933 -0.49 167 121 97
0.484747 -0.398301 -0.488 171 124 96
0.487389 -0.396669 -0.486 169 122 94
0.497149 -0.393404 -0.482 170 120 93
0.50253 -0.392588 -0.481 159 118 90
0.513176 -0.395852 -0.485 150 110 84
0.585443 -0.436662 -0.535 170 157 148
0.872094 -0.470942 -0.577 107 109 106
0.87911 -0.471758 -0.578 119 121 116
0.886817 -0.471758 -0.578 76 77 72
0.00507619 -0.335419 -0.41 189 144 111
0.0214238 -0.334601 -0.409 187 144 110
0.0293571 -0.336237 -0.411 183 138 107
0.0309229 -0.336237 -0.411 181 136 105
0.03658 -0.337873 -0.413 175 128 98
0.08106 -0.36078 -0.441 111 80 77
0.0935762 -0.37387 -0.457 89 69 71
0.102723 -0.385323 -0.471 86 67 69
0.190099 -0.454861 -0.556 187 197 222
0.216575 -0.454861 -0.556 125 148 179
0.266929 -0.454043 -0.555 193 202 209
0.348756 -0.453225 -0.554 83 120 175
0.444529 -0.454043 -0.555 50 82 143
0.449566 -0.454861 -0.556 150 170 194
0.465888 -0.453225 -0.554 75 108 151
0.469053 -0.453225 -0.554 59 91 138
0.4921 -0.454043 -0.555 131 135 144
0.474403 -0.419683 -0.513 137 100 82
0.470957 -0.404957 -0.495 165 120 97
0.470932 -0.403321 -0.493 162 120 96
0.472789 -0.402503 -0.492 163 121 96
0.473698 -0.401685 -0.491 167 123 98
0.482888 -0.39923 -0.488 172 125 97
0.487389 -0.397594 -0.486 169 122 94
0.842361 -0.467132 -0.571 101 101 99
0.857024 -0.470405 -0.575 76 77 71
0.866599 -0.472041 -0.577 112 112 110
0.873606 -0.472859 -0.578 99 101 98
0.888781 -0.474495 -0.58 103 104 99
0.0128229 -0.33456 -0.408 193 150 115
0.0293571 -0.33702 -0.411 182 137 104
0.0357067 -0.33784 -0.412 175 128 98
0.03658 -0.33866 -0.413 173 126 96
0.0473733 -0.34276 -0.418 164 114 89
0.0482848 -0.34358 -0.419 164 114 89
0.0516 -0.3444 -0.42 163 114 84
0.0845276 -0.36572 -0.446 102 76 75
0.0950667 -0.3772 -0.46 90 70 72
0.10902 -0.39606 -0.483 84 65 69
0.112008 -0.40016 -0.488 82 66 69
0.153308 -0.45674 -0.557 188 204 227
0.2257 -0.4551 -0.555 131 157 192
0.227814 -0.4551 -0.555 193 204 222
0.228871 -0.4551 -0.555 194 205 223
0.2627 -0.4551 -0.555 186 196 208
0.355088 -0.45428 -0.554 145 163 187
0.382887 -0.45346 -0.553 57 90 141
0.391313 -0.45346 -0.553 164 172 191
0.398687 -0.45346 -0.553 109 133 167
0.403953 -0.45346 -0.553 80 109 169
0.422623 -0.45428 -0.554 193 204 222
0.43423 -0.45428 -0.554 111 136 176
0.476243 -0.4551 -0.555 58 91 145
0.4773 -0.4551 -0.555 65 94 138
0.479414 -0.4551 -0.555 67 99 138
0.486632 -0.45592 -0.556 148 151 156
0.492987 -0.45592 -0.556 134 137 142
0.500557 -0.4551 -0.555 76 72 73
0.471785 -0.41492 -0.506 143 108 89
0.481029 -0.40016 -0.488 170 123 95
0.485609 -0.39934 -0.487 170 123 95
0.490081 -0.3977 -0.485 168 121 95
0.494394 -0.39524 -0.482 174 124 97
0.83731 -0.4715 -0.575 31 31 29
0.842037 -0.46986 -0.573 129 129 127
0.84422 -0.46986 -0.573 102 102 100
0.888936 -0.47806 -0.583 105 110 104
0.891573 -0.47888 -0.584 105 108 101
0.00118 -0.339447 -0.413 182 137 104
0.0019619 -0.338625 -0.412 181 136 103
0.0066219 -0.336159 -0.409 190 146 111
0.0127914 -0.334515 -0.407 192 149 114
0.0525248 -0.346022 -0.421 158 111 83
0.0542571 -0.346844 -0.422 158 112 88
0.06466 -0.350953 -0.427 140 97 80
0.0683905 -0.353419 -0.43 132 93 78
0.0781838 -0.360816 -0.439 114 81 76
0.112237 -0.401911 -0.489 82 68 67
0.190814 -0.456157 -0.555 145 159 206
0.198214 -0.456157 -0.555 168 185 211
0.2035 -0.456157 -0.555 209 215 231
0.258006 -0.455335 -0.554 139 168 212
0.263282 -0.455335 -0.554 185 198 207
0.266448 -0.455335 -0.554 196 199 208
0.334433 -0.454513 -0.553 131 149 171
0.350233 -0.454513 -0.553 76 111 165
0.39026 -0.454513 -0.553 127 150 184
0.39658 -0.454513 -0.553 164 181 209
0.397633 -0.454513 -0.553 152 177 208
0.398687 -0.454513 -0.553 110 135 166
0.401847 -0.454513 -0.553 99 139 190
0.437396 -0.455335 -0.554 45 77 136
0.497056 -0.457801 -0.557 111 110 116
0.485169 -0.434788 -0.529 114 92 81
0.49795 -0.395336 -0.481 171 124 96
0.499657 -0.394514 -0.48 170 123 93
0.5024 -0.394514 -0.48 163 118 89
0.588417 -0.438897 -0.534 68 64 65
-0.00522476 -0.347648 -0.422 187 146 114
0.00738286 -0.336114 -0.408 191 147 110
0.00816 -0.336114 -0.408 193 149 112
0.0143419 -0.33529 -0.407 187 144 109
0.0277238 -0.337762 -0.41 183 137 104
0.0349219 -0.33941 -0.412 174 128 95
0.03658 -0.340233 -0.413 172 126 93
0.0407095 -0.341881 -0.415 172 125 97
0.372731 -0.454743 -0.552 45 80 138
0.381143 -0.454743 -0.552 95 127 184
0.411634 -0.454743 -0.552 113 145 194
0.43001 -0.45639 -0.554 185 201 201
0.431065 -0.45639 -0.554 173 192 199
0.441617 -0.45639 -0.554 48 83 149
0.456157 -0.457214 -0.555 179 179 191
0.460386 -0.457214 -0.555 169 179 191
0.492812 -0.458862 -0.557 119 118 114
0.477177 -0.425086 -0.516 131 98 83
0.470947 -0.406962 -0.494 155 112 93
0.476426 -0.402843 -0.489 169 125 100
0.492558 -0.397076 -0.482 175 125 100
0.496914 -0.395429 -0.48 175 125 98
0.5024 -0.395429 -0.48 166 119 89
0.00350571 -0.337717 -0.409 181 137 102
0.00428476 -0.337717 -0.409 182 138 103
0.011241 -0.336066 -0.407 193 149 114
0.0222029 -0.337717 -0.409 186 141 108
0.0341371 -0.340194 -0.412 174 128 95
0.0382457 -0.341846 -0.414 172 125 95
0.0473733 -0.345149 -0.418 161 109 87
0.0713419 -0.357534 -0.433 127 89 76
0.0967771 -0.383131 -0.464 88 68 70
0.102042 -0.389737 -0.472 86 66 68
0.14482 -0.459923 -0.557 190 200 212
0.20841 -0.457446 -0.554 147 159 173
0.229514 -0.457446 -0.554 197 204 214
0.336983 -0.455794 -0.552 83 115 164
0.410583 -0.455794 -0.552 109 141 188
0.420807 -0.45662 -0.553 193 201 214
0.426073 -0.45662 -0.553 188 199 205
0.431065 -0.457446 -0.554 172 190 200
0.43212 -0.457446 -0.554 147 165 175
0.433447 -0.45662 -0.553 88 109 140
0.476042 -0.459097 -0.556 120 129 144
0.488569 -0.459923 -0.557 125 126 130
0.485257 -0.435977 -0.528 121 93 81
0.478102 -0.426894 -0.517 129 97 82
0.483753 -0.402123 -0.487 175 129 105
0.488149 -0.399646 -0.484 170 123 97
0.49164 -0.397994 -0.482 171 124 96
0.496 -0.396343 -0.48 174 127 99
0.511692 -0.397169 -0.481 161 116 87
0.519643 -0.400471 -0.485 156 112 83
0.583915 -0.436803 -0.529 69 64 60
-0.0043581 -0.34429 -0.416 182 139 105
0.0448771 -0.345117 -0.417 164 114 87
0.0490829 -0.346772 -0.419 160 110 87
0.0576086 -0.350083 -0.423 137 94 77
0.0628857 -0.352566 -0.426 139 96 80
0.07938 -0.36498 -0.441 110 80 70
0.0849067 -0.370773 -0.448 103 76 67
0.0943952 -0.381532 -0.461 90 71 64
0.112926 -0.407189 -0.492 82 66 69
0.114557 -0.409671 -0.495 83 66 74
0.152482 -0.458501 -0.554 162 170 193
0.191526 -0.458501 -0.554 75 109 157
0.2291 -0.457673 -0.553 198 202 214
0.2607 -0.457673 -0.553 184 193 210
0.26386 -0.457673 -0.553 188 196 207
0.382551 -0.456018 -0.551 160 186 219
0.411634 -0.456846 -0.552 105 140 182
0.42186 -0.457673 -0.553 193 203 202
0.438451 -0.458501 -0.554 77 96 139
0.468629 -0.460156 -0.556 147 149 146
0.498841 -0.462639 -0.559 115 112 107
0.479027 -0.428707 -0.518 129 97 84
0.471913 -0.411327 -0.497 161 114 94
0.478289 -0.404706 -0.489 170 124 100
0.587038 -0.438638 -0.53 69 60 63
0.0182629 -0.338446 -0.408 187 143 108
0.0198171 -0.338446 -0.408 186 141 108
0.0229257 -0.338446 -0.408 186 140 106
0.02454 -0.339275 -0.409 183 137 103
0.0308476 -0.340105 -0.41 177 131 98
0.0373667 -0.342593 -0.413 170 124 91
0.0525248 -0.34923 -0.421 156 108 85
0.0603095 -0.352548 -0.425 139 95 82
0.0828286 -0.369968 -0.446 105 76 68
0.106736 -0.399001 -0.481 85 67 65
0.143243 -0.460386 -0.555 197 213 228
0.205927 -0.458727 -0.553 201 203 216
0.335323 -0.457068 -0.551 85 117 158
0.34267 -0.457068 -0.551 58 97 152
0.346868 -0.457068 -0.551 105 141 189
0.354214 -0.457068 -0.551 179 195 208
0.36366 -0.457068 -0.551 185 194 209
0.376254 -0.457068 -0.551 51 86 150
0.392709 -0.457897 -0.552 193 202 207
0.399017 -0.457897 -0.552 117 141 169
0.431843 -0.460386 -0.555 157 162 155
0.460156 -0.461215 -0.556 154 159 163
0.468629 -0.461215 -0.556 145 149 150
0.483069 -0.462874 -0.558 134 133 138
0.486257 -0.462874 -0.558 129 130 134
0.498667 -0.464533 -0.56 115 110 107
0.47816 -0.428034 -0.516 129 97 84
0.475514 -0.423057 -0.51 138 101 85
0.471914 -0.413103 -0.498 160 115 94
0.472829 -0.409785 -0.494 161 119 97
0.482826 -0.403978 -0.487 172 126 102
0.488149 -0.40149 -0.484 171 124 98
0.490722 -0.39983 -0.482 167 120 94
0.493257 -0.398171 -0.48 173 126 100
0.500307 -0.396512 -0.478 169 123 90
0.59118 -0.440477 -0.531 54 50 51
-0.00195238 -0.340886 -0.41 184 140 103
0.00272 -0.339223 -0.408 189 145 108
0.00581429 -0.338391 -0.407 190 146 109
0.0260981 -0.340054 -0.409 176 130 96
0.0440829 -0.346706 -0.417 169 120 90
0.0473733 -0.347537 -0.418 160 109 88
0.0516 -0.3492 -0.42 156 108 85
0.0763371 -0.364166 -0.438 113 80 71
0.0840533 -0.37248 -0.448 103 76 67
0.101357 -0.393266 -0.473 89 69 68
0.108548 -0.403243 -0.485 83 65 65
0.140874 -0.460611 -0.554 212 220 231
0.150371 -0.460611 -0.554 129 153 191
0.198553 -0.45978 -0.553 209 208 224
0.222377 -0.458949 -0.552 85 120 184
0.334273 -0.458117 -0.551 148 161 177
0.352115 -0.458117 -0.551 165 188 219
0.374155 -0.458117 -0.551 65 105 167
0.383601 -0.458117 -0.551 167 181 190
0.3864 -0.458949 -0.552 190 194 203
0.396914 -0.458949 -0.552 151 160 175
0.407429 -0.458949 -0.552 133 141 143
0.411634 -0.458949 -0.552 161 167 167
0.41554 -0.45978 -0.553 166 167 169
0.437129 -0.461443 -0.555 171 170 175
0.462274 -0.462274 -0.556 157 157 157
0.469471 -0.463106 -0.557 145 145 147
0.483934 -0.464769 -0.559 127 131 130
0.483577 -0.435669 -0.524 119 89 78
0.472863 -0.414051 -0.498 155 112 93
0.472829 -0.410726 -0.494 162 117 94
0.48276 -0.404074 -0.486 174 128 104
0.493142 -0.398254 -0.479 171 125 99
0.494967 -0.398254 -0.479 169 124 95
0.553576 -0.419871 -0.505 141 105 79
-0.000389524 -0.340833 -0.409 185 141 104
0.00503905 -0.339167 -0.407 191 147 110
0.0119867 -0.338333 -0.406 188 145 110
0.0269429 -0.341667 -0.41 175 129 96
0.0324886 -0.3425 -0.411 178 129 97
0.0340543 -0.3425 -0.411 175 126 94
0.045781 -0.348333 -0.418 164 114 87
0.0490829 -0.349167 -0.419 159 111 89
0.049881 -0.349167 -0.419 159 111 89
0.0525248 -0.350833 -0.421 154 106 83
0.0630333 -0.355833 -0.427 138 96 82
0.0639962 -0.356667 -0.428 136 94 80
0.0675714 -0.358333 -0.43 131 93 74
0.0763371 -0.365 -0.438 111 79 68
0.110374 -0.4075 -0.489 81 65 65
0.115483 -0.415833 -0.499 84 71 81
0.352115 -0.459167 -0.551 168 188 215
0.36366 -0.459167 -0.551 186 196 206
0.36471 -0.459167 -0.551 171 181 191
0.367858 -0.459167 -0.551 77 100 134
0.371007 -0.459167 -0.551 54 82 129
0.377304 -0.459167 -0.551 65 93 143
0.392367 -0.460833 -0.553 160 161 165
0.419753 -0.460833 -0.553 184 183 189
0.435798 -0.463333 -0.556 177 179 178
0.446389 -0.463333 -0.556 167 168 170
0.448507 -0.463333 -0.556 165 165 165
0.456979 -0.463333 -0.556 151 152 147
0.469471 -0.464167 -0.557 140 138 143
0.488672 -0.468333 -0.562 124 122 123
0.497738 -0.470833 -0.565 113 107 107
0.508424 -0.465833 -0.559 77 67 65
0.476486 -0.425 -0.51 135 102 87
0.472763 -0.409167 -0.491 164 119 96
0.485462 -0.404167 -0.485 169 122 96
0.485383 -0.403333 -0.484 172 124 101
0.494844 -0.398333 -0.478 167 122 91
0.504859 -0.398333 -0.478 164 117 87
0.50668 -0.398333 -0.478 165 118 88
0.541821 -0.413333 -0.496 138 109 77
0.00194286 -0.340777 -0.408 190 146 111
0.0112133 -0.339107 -0.406 190 147 112
0.0158533 -0.339107 -0.406 189 143 110
0.0182181 -0.339942 -0.407 183 137 104
0.0205943 -0.340777 -0.408 184 138 105
0.0448771 -0.348294 -0.417 161 116 85
0.0603095 -0.354976 -0.425 141 98 82
0.0639962 -0.357482 -0.428 138 95 79
0.0705171 -0.361658 -0.433 123 87 75
0.0734971 -0.364164 -0.436 117 83 73
0.101571 -0.395903 -0.474 88 69 65
0.233519 -0.460216 -0.551 114 128 155
0.334714 -0.459381 -0.55 118 137 167
0.335762 -0.459381 -0.55 110 129 159
0.352115 -0.460216 -0.551 170 183 202
0.372056 -0.460216 -0.551 138 143 149
0.375205 -0.460216 -0.551 152 156 165
0.380452 -0.460216 -0.551 163 163 175
0.391313 -0.461887 -0.553 177 177 179
0.420512 -0.462722 -0.554 183 187 186
0.431843 -0.463557 -0.555 176 177 181
0.44533 -0.464392 -0.556 161 160 165
0.476267 -0.467733 -0.56 121 120 125
0.48365 -0.43683 -0.523 119 90 76
0.479983 -0.405926 -0.486 169 123 100
0.485383 -0.404255 -0.484 172 124 101
0.516114 -0.400914 -0.48 148 111 82
0.518106 -0.40175 -0.481 145 108 79
0.549048 -0.417619 -0.5 139 105 78
-0.00430571 -0.344066 -0.411 184 138 102
0.0143067 -0.33988 -0.406 186 142 107
0.0308476 -0.343229 -0.41 177 128 98
0.0349219 -0.344903 -0.412 173 124 94
0.0431848 -0.348251 -0.416 164 117 89
0.045781 -0.349926 -0.418 162 115 87
0.0517229 -0.352437 -0.421 154 108 84
0.07068 -0.36332 -0.434 122 85 76
0.0766857 -0.368343 -0.44 110 82 71
0.07974 -0.370854 -0.443 108 80 69
0.114073 -0.41606 -0.497 90 77 86
0.256143 -0.460429 -0.55 78 110 161
0.264524 -0.460429 -0.55 179 191 205
0.266619 -0.460429 -0.55 186 192 208
0.335762 -0.460429 -0.55 107 122 143
0.338905 -0.460429 -0.55 99 129 165
0.339952 -0.460429 -0.55 96 128 167
0.373106 -0.461266 -0.551 179 178 183
0.380091 -0.462103 -0.552 173 173 173
0.415236 -0.463777 -0.554 176 178 175
0.419457 -0.463777 -0.554 174 172 175
0.431562 -0.465451 -0.556 165 160 164
0.440034 -0.465451 -0.556 164 163 159
0.443211 -0.465451 -0.556 158 156 159
0.450625 -0.465451 -0.556 145 145 147
0.481817 -0.472149 -0.564 107 97 98
0.48676 -0.473823 -0.566 101 92 87
0.494971 -0.475497 -0.568 88 84 85
0.480071 -0.432803 -0.517 125 96 80
0.479983 -0.406851 -0.486 170 126 101
0.515039 -0.400991 -0.479 146 109 80
0.521019 -0.403503 -0.482 145 108 79
0.545753 -0.41606 -0.497 139 105 78
0.564748 -0.426106 -0.509 60 43 35
-0.00750952 -0.348205 -0.415 182 142 107
0.00887143 -0.339814 -0.405 190 145 112
0.0237029 -0.342331 -0.408 181 135 101
0.0268771 -0.34317 -0.409 176 130 97
0.0324886 -0.344849 -0.411 176 127 97
0.0340543 -0.344849 -0.411 174 125 95
0.084241 -0.376732 -0.449 99 75 65
0.107846 -0.407777 -0.486 80 61 55
0.114303 -0.417846 -0.498 92 81 89
0.223667 -0.461476 -0.55 78 113 169
0.267667 -0.461476 -0.55 180 190 202
0.351066 -0.462315 -0.551 169 172 177
0.35696 -0.463154 -0.552 177 178 182
0.395187 -0.464832 -0.554 182 182 182
0.450374 -0.46735 -0.557 125 119 123
0.452496 -0.46735 -0.557 120 114 118
0.469028 -0.469028 -0.559 97 91 93
0.482448 -0.474901 -0.566 75 73 76
0.5002 -0.481613 -0.574 64 62 65
0.526921 -0.489165 -0.583 47 47 49
0.475662 -0.423719 -0.505 143 101 85
0.473811 -0.417846 -0.498 156 111 90
0.473807 -0.417007 -0.497 156 111 90
0.473798 -0.416168 -0.496 156 114 90
0.475451 -0.409455 -0.488 166 120 97
0.476332 -0.408616 -0.487 166 118 96
0.491429 -0.402743 -0.48 172 125 95
0.539326 -0.412811 -0.492 141 107 80
0.561419 -0.424558 -0.506 97 75 62
-0.00667048 -0.346472 -0.412 183 139 104
-0.00428476 -0.34395 -0.409 185 141 106
-0.00194286 -0.343109 -0.408 177 134 99
0.00732857 -0.340586 -0.405 194 148 114
0.0104143 -0.340586 -0.405 185 139 106
0.021319 -0.342268 -0.407 182 136 103
0.0221486 -0.343109 -0.408 182 136 103
0.0237029 -0.343109 -0.408 182 136 103
0.0276562 -0.34395 -0.409 174 125 95
0.0292857 -0.34479 -0.41 175 126 96
0.0373667 -0.347313 -0.413 169 120 90
0.0423924 -0.349836 -0.416 165 118 90
0.0526495 -0.354882 -0.422 150 105 84
0.0604514 -0.358246 -0.426 141 98 81
0.0669076 -0.36245 -0.431 129 91 78
0.0746686 -0.368337 -0.438 115 82 73
0.103555 -0.402816 -0.479 86 67 61
0.10648 -0.407021 -0.484 83 64 58
0.112899 -0.417112 -0.496 77 67 76
0.181762 -0.462524 -0.55 75 97 154
0.200619 -0.462524 -0.55 183 194 212
0.258814 -0.461683 -0.549 164 178 189
0.265089 -0.461683 -0.549 184 186 201
0.324238 -0.462524 -0.55 147 152 155
0.331571 -0.462524 -0.55 171 172 176
0.345818 -0.463365 -0.551 174 175 179
0.348967 -0.463365 -0.551 175 176 180
0.36432 -0.464206 -0.552 179 180 184
0.366423 -0.464206 -0.552 175 176 180
0.370629 -0.464206 -0.552 180 181 183
0.393076 -0.465888 -0.554 170 170 170
0.415986 -0.466729 -0.555 155 153 156
0.439765 -0.46841 -0.557 118 113 117
0.504557 -0.486911 -0.579 57 55 58
0.522976 -0.483548 -0.575 48 42 46
0.484647 -0.439818 -0.523 112 89 75
0.477206 -0.408703 -0.486 166 119 93
0.479983 -0.408703 -0.486 170 123 97
0.486131 -0.405339 -0.482 173 126 98
0.487968 -0.405339 -0.482 171 124 96
0.491317 -0.402816 -0.479 169 122 94
0.493142 -0.402816 -0.479 160 113 85
0.493933 -0.401975 -0.478 165 118 88
0.511071 -0.401134 -0.477 165 118 90
0.52177 -0.404498 -0.481 149 109 83
-0.00828 -0.348943 -0.414 187 141 105
-0.00665429 -0.346414 -0.411 184 138 104
0.00964286 -0.341357 -0.405 186 142 107
0.0119571 -0.341357 -0.405 187 141 107
0.01508 -0.3422 -0.406 188 142 109
0.0189933 -0.343043 -0.407 185 136 104
0.0221486 -0.343886 -0.408 181 135 102
0.0292857 -0.345571 -0.41 176 127 97
0.0316286 -0.345571 -0.41 179 130 100
0.0324886 -0.346414 -0.411 176 127 97
0.0357067 -0.347257 -0.412 172 123 93
0.0407095 -0.349786 -0.415 166 119 91
0.0415 -0.349786 -0.415 166 119 91
0.06222 -0.3599 -0.427 140 98 82
0.0728333 -0.368329 -0.437 117 84 75
0.10534 -0.4071 -0.483 85 66 60
0.1067 -0.408786 -0.485 81 62 55
0.111729 -0.417214 -0.495 74 60 59
0.218031 -0.462729 -0.549 75 113 178
0.268226 -0.462729 -0.549 176 193 201
0.320048 -0.463571 -0.55 166 166 174
0.322143 -0.463571 -0.55 167 168 173
0.329476 -0.463571 -0.55 172 172 174
0.346446 -0.465257 -0.552 173 173 175
0.353393 -0.4661 -0.553 172 172 174
0.3555 -0.4661 -0.553 176 176 178
0.37446 -0.4661 -0.553 167 168 170
0.404027 -0.468629 -0.556 154 152 155
0.405086 -0.468629 -0.556 152 150 153
0.414617 -0.468629 -0.556 134 129 135
0.424149 -0.468629 -0.556 117 112 116
0.427033 -0.469471 -0.557 114 108 112
0.460267 -0.472 -0.56 61 59 62
0.504954 -0.490543 -0.582 56 55 60
0.513765 -0.494757 -0.587 53 52 57
0.51238 -0.472843 -0.561 82 74 72
0.4746 -0.413 -0.49 158 112 88
0.4853 -0.4071 -0.483 171 124 96
0.514706 -0.402043 -0.477 156 112 85
0.536969 -0.412157 -0.489 144 107 81
-0.00990476 -0.351421 -0.416 186 140 104
0.00193333 -0.342973 -0.406 190 146 111
0.0119571 -0.342129 -0.405 187 141 107
0.0473733 -0.35311 -0.418 158 112 88
0.0508 -0.3548 -0.42 154 108 85
0.0559971 -0.357334 -0.423 143 100 83
0.063181 -0.361558 -0.428 139 97 81
0.0641457 -0.362403 -0.429 136 94 78
0.0698533 -0.366627 -0.434 120 86 74
0.0758476 -0.371695 -0.44 112 82 72
0.0906857 -0.38859 -0.46 92 72 65
0.0956238 -0.394504 -0.467 90 69 64
0.224306 -0.463774 -0.549 151 178 225
0.25986 -0.463774 -0.549 179 193 206
0.269825 -0.46293 -0.548 118 139 160
0.283394 -0.46293 -0.548 100 119 149
0.28757 -0.46293 -0.548 123 133 143
0.292789 -0.46293 -0.548 148 148 150
0.330075 -0.465464 -0.551 170 170 172
0.34918 -0.467153 -0.553 174 174 176
0.396266 -0.470532 -0.557 135 133 138
0.40051 -0.470532 -0.557 131 129 134
0.42385 -0.470532 -0.557 85 80 84
0.441067 -0.473067 -0.56 64 62 67
0.458133 -0.473067 -0.56 57 56 61
0.470239 -0.475601 -0.563 54 53 58
0.474062 -0.47729 -0.565 53 52 57
0.483447 -0.482359 -0.571 55 54 59
0.490119 -0.485738 -0.575 56 54 59
0.518391 -0.499254 -0.591 53 52 58
0.47752 -0.429139 -0.508 138 99 84
0.473786 -0.418157 -0.495 157 112 89
0.473698 -0.414778 -0.491 156 112 87
0.476224 -0.40971 -0.485 168 120 97
0.481695 -0.408865 -0.484 168 121 95
0.484461 -0.408865 -0.484 166 119 93
0.503343 -0.400417 -0.474 163 118 89
0.510907 -0.402107 -0.476 165 120 91
0.532749 -0.410554 -0.486 147 107 81
0.534772 -0.411399 -0.487 144 107 81
-0.00741905 -0.347133 -0.41 179 136 102
0.0166267 -0.343747 -0.406 187 138 106
0.0237029 -0.34544 -0.408 181 134 104
0.0324886 -0.34798 -0.411 175 126 96
0.0398229 -0.35052 -0.414 165 118 92
0.0415 -0.351367 -0.415 165 118 90
0.057881 -0.359833 -0.425 140 98 82
0.0605933 -0.361527 -0.427 139 97 83
0.102643 -0.405553 -0.479 86 65 64
0.224941 -0.463973 -0.548 179 192 211
0.24373 -0.463973 -0.548 38 71 138
0.245817 -0.463973 -0.548 66 108 166
0.277131 -0.463973 -0.548 134 143 148
0.281307 -0.463973 -0.548 152 159 165
0.288094 -0.46482 -0.549 162 167 171
0.310619 -0.465667 -0.55 167 168 173
0.385656 -0.471593 -0.557 126 124 127
0.391663 -0.47244 -0.558 115 113 116
0.415046 -0.47244 -0.558 71 69 72
