ply
format ascii 1.0
comment Created by Open3D
element vertex 1288
property double x
property double y
property double z
property uchar red
property uchar green
property uchar blue
end_header
0.982549 -0.357032 -0.596 208 211 194
0.989967 -0.356433 -0.595 207 210 193
0.990566 -0.355834 -0.594 207 209 195
0.992829 -0.355834 -0.594 207 209 195
0.995091 -0.355834 -0.594 206 208 194
0.997354 -0.355834 -0.594 206 208 194
1.0183 -0.356433 -0.595 205 208 191
1.02283 -0.356433 -0.595 206 209 192
1.04097 -0.356433 -0.595 204 206 192
1.06411 -0.355834 -0.594 203 205 191
1.06458 -0.355235 -0.593 203 205 191
0.0536886 -0.262616 -0.437 197 150 140
0.0558 -0.260813 -0.434 199 153 140
0.0581457 -0.260212 -0.433 200 154 141
0.0644448 -0.25901 -0.431 204 158 145
0.0741238 -0.25841 -0.43 193 151 137
0.07722 -0.257809 -0.429 187 145 131
0.0804886 -0.257809 -0.429 177 138 123
0.0890733 -0.25901 -0.431 162 118 107
0.0917486 -0.259611 -0.432 155 112 103
0.0933943 -0.259611 -0.432 146 106 98
0.0992419 -0.262015 -0.436 134 95 88
0.428938 -0.320308 -0.533 153 104 89
0.430833 -0.310692 -0.517 166 114 93
0.477589 -0.314899 -0.524 153 106 86
0.848298 -0.35997 -0.599 212 214 201
0.85058 -0.35997 -0.599 212 214 201
0.857426 -0.35997 -0.599 212 214 201
0.86055 -0.35937 -0.598 212 214 201
0.863968 -0.35937 -0.598 211 213 200
0.922791 -0.358769 -0.597 209 212 195
0.939849 -0.358769 -0.597 208 210 196
0.943951 -0.358168 -0.596 209 211 197
0.969567 -0.357567 -0.595 208 210 196
0.982033 -0.357567 -0.595 207 210 193
1.01998 -0.356966 -0.594 205 208 191
1.04261 -0.356966 -0.594 204 207 190
1.04424 -0.356365 -0.593 205 208 191
1.04876 -0.356365 -0.593 205 207 193
1.05215 -0.356365 -0.593 203 205 191
1.06571 -0.356365 -0.593 203 205 191
1.06842 -0.355764 -0.592 204 207 190
1.07631 -0.355764 -0.592 202 204 190
1.07857 -0.355764 -0.592 203 205 191
0.0542714 -0.262243 -0.435 198 152 139
0.0909257 -0.260434 -0.432 153 111 99
0.0936105 -0.261037 -0.433 147 107 99
0.112213 -0.27008 -0.448 107 81 80
0.428546 -0.312883 -0.519 163 115 95
0.441061 -0.309869 -0.514 170 115 95
0.867385 -0.360509 -0.598 211 213 200
0.876497 -0.360509 -0.598 211 213 202
0.878775 -0.360509 -0.598 211 213 202
0.882192 -0.360509 -0.598 212 214 201
0.891305 -0.360509 -0.598 211 213 200
0.914831 -0.359906 -0.597 210 212 198
0.931889 -0.359906 -0.597 210 213 196
0.937574 -0.359906 -0.597 209 211 197
0.948703 -0.358097 -0.594 209 211 197
1.01488 -0.357494 -0.593 205 208 191
1.01601 -0.357494 -0.593 206 209 192
1.0279 -0.358097 -0.594 205 208 191
1.07067 -0.356891 -0.592 203 206 189
0.0706829 -0.259443 -0.429 194 148 135
0.07722 -0.259443 -0.429 187 144 128
0.43076 -0.322943 -0.534 151 102 87
0.42722 -0.315081 -0.521 166 110 95
0.430833 -0.312662 -0.517 166 110 93
0.444221 -0.309638 -0.512 167 112 91
0.453973 -0.309638 -0.512 154 102 81
0.462519 -0.311452 -0.515 156 106 83
0.47867 -0.31629 -0.523 150 103 83
0.4815 -0.3175 -0.525 148 101 81
0.485257 -0.319314 -0.528 150 103 83
0.850299 -0.361648 -0.598 212 214 201
0.857974 -0.361043 -0.597 211 213 199
0.911029 -0.360438 -0.596 210 212 198
0.918975 -0.360438 -0.596 210 212 198
0.926922 -0.360438 -0.596 209 211 197
0.933733 -0.360438 -0.596 209 211 197
0.944633 -0.359833 -0.595 208 210 196
0.953883 -0.358624 -0.593 208 210 196
0.975857 -0.359229 -0.594 208 211 194
0.982121 -0.358624 -0.593 207 209 195
0.0619819 -0.261473 -0.431 202 156 143
0.10458 -0.26754 -0.441 116 88 87
0.121 -0.28028 -0.462 97 72 75
0.124354 -0.28392 -0.468 90 63 68
0.436754 -0.330027 -0.544 146 102 89
0.44822 -0.310007 -0.511 162 110 88
0.455924 -0.310613 -0.512 157 107 84
0.486263 -0.32032 -0.528 150 105 84
0.565537 -0.362787 -0.598 115 116 147
0.568571 -0.364 -0.6 153 161 182
0.856837 -0.36218 -0.597 212 214 201
0.861386 -0.36218 -0.597 211 213 200
0.89627 -0.361573 -0.596 210 212 201
0.9061 -0.360967 -0.595 210 212 198
0.907233 -0.360967 -0.595 209 211 197
0.921967 -0.360967 -0.595 210 212 199
0.942367 -0.360967 -0.595 210 212 198
0.962919 -0.359753 -0.593 207 210 193
0.965178 -0.359753 -0.593 207 210 193
0.969696 -0.359753 -0.593 207 210 193
0.98723 -0.359147 -0.592 206 208 194
0.989486 -0.359147 -0.592 206 208 194
0.990066 -0.35854 -0.591 206 208 194
1.01317 -0.359147 -0.592 205 208 191
1.06031 -0.357933 -0.59 204 206 192
1.07043 -0.357933 -0.59 202 204 190
0.0642952 -0.261686 -0.43 199 153 140
0.0683905 -0.261686 -0.43 198 152 139
0.0723171 -0.261077 -0.429 195 149 136
0.07704 -0.260469 -0.428 181 138 122
0.0938267 -0.26412 -0.434 144 105 98
0.0946533 -0.26412 -0.434 141 102 95
0.097581 -0.265337 -0.436 137 100 94
0.106742 -0.269597 -0.443 108 84 82
0.109164 -0.271423 -0.446 103 82 79
0.111609 -0.273249 -0.449 99 79 78
0.11986 -0.280551 -0.461 95 73 75
0.429316 -0.320109 -0.526 160 107 91
0.430833 -0.314631 -0.517 169 113 96
0.464481 -0.313414 -0.515 157 109 87
0.832957 -0.363317 -0.597 212 214 201
0.84632 -0.362709 -0.596 211 213 200
0.847455 -0.362709 -0.596 211 213 200
0.875836 -0.362709 -0.596 210 212 201
0.901567 -0.3621 -0.595 211 213 200
0.910633 -0.3621 -0.595 210 212 199
0.931033 -0.3621 -0.595 209 211 197
0.947106 -0.360883 -0.593 209 211 197
0.951147 -0.360274 -0.592 208 210 196
0.985563 -0.359666 -0.591 207 209 195
1.05852 -0.358449 -0.589 204 206 192
1.07155 -0.359057 -0.59 203 206 189
0.0755857 -0.261894 -0.429 181 138 122
0.0762248 -0.261284 -0.428 181 138 122
0.108071 -0.271662 -0.445 106 82 82
0.431984 -0.325384 -0.533 155 104 87
0.431129 -0.314395 -0.515 172 117 96
0.434071 -0.314395 -0.515 172 117 96
0.435052 -0.314395 -0.515 173 118 97
0.455033 -0.311953 -0.511 159 107 85
0.467349 -0.315006 -0.516 156 109 89
0.469239 -0.315616 -0.517 155 108 88
0.476839 -0.318058 -0.521 151 106 87
0.487269 -0.322331 -0.528 148 103 84
0.495767 -0.326605 -0.535 152 103 86
0.87016 -0.363844 -0.596 211 213 200
0.895526 -0.362623 -0.594 211 213 200
0.923811 -0.362623 -0.594 209 211 197
0.924943 -0.362623 -0.594 209 211 197
0.941458 -0.362012 -0.593 209 211 197
0.955657 -0.361402 -0.592 208 210 196
0.96355 -0.361402 -0.592 208 210 196
0.968061 -0.361402 -0.592 208 210 196
0.972571 -0.361402 -0.592 207 210 193
0.974827 -0.361402 -0.592 207 209 195
0.976557 -0.360791 -0.591 208 210 196
1.00525 -0.360181 -0.59 206 208 194
1.01371 -0.360791 -0.591 204 207 190
1.02046 -0.360791 -0.591 204 207 190
1.02895 -0.361402 -0.592 205 208 191
1.02947 -0.360791 -0.591 204 207 190
1.03397 -0.360791 -0.591 204 207 190
1.0612 -0.35896 -0.588 203 205 192
0.0571886 -0.264549 -0.432 196 150 137
0.0634762 -0.263324 -0.43 197 151 136
0.0778552 -0.262099 -0.428 176 132 119
0.435187 -0.314764 -0.514 171 117 93
0.437271 -0.314151 -0.513 171 117 93
0.466443 -0.315376 -0.515 157 109 89
0.562886 -0.363754 -0.594 191 193 208
0.811128 -0.364979 -0.596 213 215 204
0.815669 -0.364979 -0.596 211 213 202
0.874367 -0.364367 -0.595 211 213 202
0.881167 -0.364367 -0.595 212 214 203
0.884567 -0.364367 -0.595 212 214 201
0.889869 -0.363754 -0.594 210 212 199
0.909103 -0.363754 -0.594 211 213 200
0.952917 -0.361917 -0.591 209 212 195
1.00637 -0.361305 -0.59 206 208 194
1.01649 -0.361305 -0.59 205 208 191
1.06792 -0.36008 -0.588 204 206 192
0.0602 -0.264143 -0.43 197 154 138
0.0649629 -0.263529 -0.429 196 153 137
0.0967505 -0.267829 -0.436 127 92 88
0.116463 -0.281343 -0.458 90 72 72
0.432386 -0.326186 -0.531 149 103 90
0.429371 -0.319429 -0.52 170 115 94
0.455033 -0.3139 -0.511 166 112 86
0.481658 -0.321271 -0.523 153 106 88
0.854794 -0.364886 -0.594 212 214 200
0.898536 -0.364271 -0.593 211 213 200
0.900795 -0.364271 -0.593 211 213 200
0.93085 -0.363657 -0.592 210 212 198
0.963049 -0.363043 -0.591 208 211 194
0.981648 -0.362429 -0.59 206 208 194
0.996812 -0.361814 -0.589 206 209 192
1.0471 -0.360586 -0.587 205 207 193
0.0537724 -0.265578 -0.431 200 154 139
0.0665971 -0.264346 -0.429 193 150 134
0.093 -0.267427 -0.434 140 102 93
0.0940429 -0.268043 -0.435 138 101 95
0.0948714 -0.268043 -0.435 138 101 95
0.118104 -0.284064 -0.461 92 72 73
0.429856 -0.322268 -0.523 163 112 95
0.429849 -0.31857 -0.517 171 117 93
0.439345 -0.31549 -0.512 175 121 97
0.443353 -0.314873 -0.511 177 121 96
0.450257 -0.314257 -0.51 172 116 91
0.463654 -0.316106 -0.513 163 111 90
0.467424 -0.317338 -0.515 160 109 90
0.475009 -0.319803 -0.519 154 107 89
0.478824 -0.321035 -0.521 154 107 89
0.870634 -0.366017 -0.594 211 213 200
0.919573 -0.364785 -0.592 210 212 199
0.94166 -0.364169 -0.591 208 211 194
0.944562 -0.363552 -0.59 209 211 197
0.971533 -0.363552 -0.59 208 210 196
1.02823 -0.362936 -0.589 203 205 191
0.0451238 -0.284324 -0.46 199 152 134
0.0476429 -0.268871 -0.435 199 153 140
0.0745943 -0.264545 -0.428 187 141 125
0.0847714 -0.265781 -0.43 161 117 104
0.110143 -0.278143 -0.45 96 78 76
0.114217 -0.281851 -0.456 90 74 74
0.437145 -0.317701 -0.514 174 120 96
0.44238 -0.315847 -0.511 179 123 98
0.461775 -0.316465 -0.512 162 111 92
0.46275 -0.316465 -0.512 160 112 92
0.837823 -0.367149 -0.594 211 213 200
0.86578 -0.36653 -0.593 211 213 200
0.874816 -0.36653 -0.593 211 213 200
0.898149 -0.365912 -0.592 211 213 200
0.916894 -0.365294 -0.591 210 212 199
0.944083 -0.364058 -0.589 208 210 196
0.949692 -0.364058 -0.589 208 210 197
0.973252 -0.364058 -0.589 207 210 193
0.9828 -0.36344 -0.588 206 209 192
1.00632 -0.36344 -0.588 206 208 194
0.0513095 -0.26722 -0.431 196 153 137
0.0585619 -0.2666 -0.43 199 153 140
0.06006 -0.26598 -0.429 197 153 140
0.09614 -0.27094 -0.437 133 96 90
0.44238 -0.31682 -0.511 180 124 99
0.453171 -0.3162 -0.51 169 119 96
0.458029 -0.3162 -0.51 161 113 93
0.460873 -0.31682 -0.511 160 112 92
0.490286 -0.32736 -0.528 151 107 94
0.875596 -0.36704 -0.592 211 213 200
0.895893 -0.36704 -0.592 211 213 200
0.899276 -0.36704 -0.592 211 213 200
0.909014 -0.36642 -0.591 210 212 198
0.927705 -0.3658 -0.59 210 212 198
0.93623 -0.36518 -0.589 209 212 195
0.949692 -0.36518 -0.589 208 210 197
0.968765 -0.36518 -0.589 208 211 194
0.97944 -0.36456 -0.588 206 209 192
0.996782 -0.36394 -0.587 207 209 195
1.00684 -0.36394 -0.587 206 209 192
0.0561048 -0.267419 -0.43 201 155 139
0.0794857 -0.266175 -0.428 171 127 114
0.0813057 -0.266797 -0.429 168 124 111
0.0894867 -0.269285 -0.433 151 108 99
0.100152 -0.273638 -0.44 121 90 85
0.102291 -0.274882 -0.442 116 85 82
0.1036 -0.276126 -0.444 119 85 76
0.105766 -0.27737 -0.446 109 81 80
0.465152 -0.359461 -0.578 126 98 94
0.430523 -0.322769 -0.519 165 113 92
0.447435 -0.31655 -0.509 178 126 104
0.448405 -0.31655 -0.509 174 122 100
0.453252 -0.31655 -0.509 169 118 97
0.454222 -0.31655 -0.509 169 121 99
0.84515 -0.368168 -0.592 212 214 203
0.850789 -0.368168 -0.592 212 213 205
0.854171 -0.368168 -0.592 212 214 201
0.871086 -0.368168 -0.592 211 213 202
0.872213 -0.368168 -0.592 211 213 202
0.911971 -0.366924 -0.59 209 211 197
0.933324 -0.366924 -0.59 209 211 197
0.94857 -0.366302 -0.589 209 211 198
0.989503 -0.364436 -0.586 207 209 195
0.998432 -0.364436 -0.586 207 209 195
1.00178 -0.364436 -0.586 206 208 194
1.00684 -0.365058 -0.587 207 209 195
1.01132 -0.365058 -0.587 206 209 192
1.02138 -0.365058 -0.587 205 208 191
1.04464 -0.363814 -0.585 204 206 192
1.0491 -0.363814 -0.585 204 206 192
0.0513095 -0.268862 -0.431 200 155 136
0.0608771 -0.267614 -0.429 196 150 134
0.0706829 -0.267614 -0.429 185 142 125
0.0896933 -0.270733 -0.434 148 105 96
0.0971943 -0.273229 -0.438 127 94 89
0.118243 -0.290071 -0.465 93 73 75
0.121563 -0.293814 -0.471 96 77 79
0.431849 -0.326252 -0.523 160 111 94
0.442486 -0.318143 -0.51 182 127 106
0.446466 -0.317519 -0.509 184 129 109
0.448405 -0.317519 -0.509 179 124 103
0.45713 -0.317519 -0.509 168 117 96
0.477974 -0.323757 -0.519 154 111 94
0.84064 -0.369295 -0.592 211 213 200
0.842895 -0.369295 -0.592 212 214 203
0.866575 -0.369295 -0.592 211 213 202
0.885 -0.368048 -0.59 211 214 197
0.895506 -0.368671 -0.591 210 212 198
0.896631 -0.368671 -0.591 210 212 198
0.922767 -0.367424 -0.589 209 211 198
0.93062 -0.367424 -0.589 209 211 197
0.932864 -0.367424 -0.589 209 211 197
0.933986 -0.367424 -0.589 208 210 196
0.93912 -0.3668 -0.588 208 210 197
0.94136 -0.3668 -0.588 208 210 197
0.990619 -0.365552 -0.586 207 210 193
1.01294 -0.365552 -0.586 204 206 192
1.04464 -0.364929 -0.585 203 206 189
0.0431619 -0.275314 -0.44 196 153 136
0.0649629 -0.268431 -0.429 193 148 129
0.06578 -0.268431 -0.429 192 147 128
0.0690486 -0.268431 -0.429 192 149 130
0.0747686 -0.268431 -0.429 177 131 116
0.0974162 -0.274689 -0.439 128 93 91
0.102754 -0.277817 -0.444 109 84 80
0.10624 -0.28032 -0.448 105 80 83
0.10867 -0.282197 -0.451 96 77 83
0.448434 -0.345394 -0.552 125 99 100
0.43624 -0.33288 -0.532 141 107 97
0.434788 -0.331003 -0.529 149 106 99
0.450344 -0.318489 -0.509 173 121 97
0.452283 -0.318489 -0.509 172 120 98
0.46574 -0.31974 -0.511 161 114 94
0.840346 -0.369797 -0.591 212 214 203
0.842597 -0.369797 -0.591 212 214 203
0.851603 -0.369797 -0.591 211 213 200
0.857231 -0.369797 -0.591 211 213 202
0.865111 -0.369797 -0.591 211 213 202
0.877133 -0.369171 -0.59 212 214 201
0.897362 -0.369171 -0.59 210 212 198
0.935287 -0.367294 -0.587 208 210 197
0.94472 -0.36792 -0.588 209 211 198
0.94696 -0.36792 -0.588 208 210 197
0.954294 -0.367294 -0.587 209 212 195
0.9867 -0.366043 -0.585 207 209 195
1.00341 -0.366043 -0.585 205 207 193
1.00959 -0.366669 -0.586 205 208 191
1.04953 -0.365417 -0.584 203 206 189
1.05732 -0.365417 -0.584 203 206 189
0.05434 -0.269249 -0.429 202 157 134
0.0616943 -0.269249 -0.429 194 149 128
0.0698657 -0.269249 -0.429 187 145 123
0.444008 -0.341425 -0.544 130 105 101
0.431966 -0.323851 -0.516 173 118 97
0.436419 -0.321341 -0.512 169 121 99
0.447524 -0.31883 -0.508 177 126 99
0.451394 -0.31883 -0.508 174 122 98
0.849351 -0.370923 -0.591 210 212 199
0.859152 -0.370295 -0.59 211 213 200
0.881256 -0.369668 -0.589 211 213 199
0.884622 -0.369668 -0.589 212 214 201
0.90706 -0.369668 -0.589 210 212 199
0.91672 -0.36904 -0.588 210 212 198
0.938641 -0.368412 -0.587 209 211 198
0.963831 -0.367785 -0.586 206 208 194
0.984471 -0.367157 -0.585 207 209 195
1.0179 -0.367157 -0.585 205 208 191
1.03507 -0.36653 -0.584 204 207 190
1.03618 -0.36653 -0.584 204 207 190
1.04286 -0.36653 -0.584 203 206 189
1.04397 -0.36653 -0.584 203 206 189
1.04508 -0.36653 -0.584 203 206 189
1.04953 -0.36653 -0.584 204 207 190
1.05954 -0.36653 -0.584 203 205 191
1.06581 -0.367157 -0.585 202 205 188
0.0435 -0.273843 -0.435 197 156 138
0.0496676 -0.271325 -0.431 201 159 137
0.0520095 -0.270695 -0.43 203 158 135
0.0592429 -0.270066 -0.429 197 151 127
0.0841476 -0.271325 -0.431 160 116 105
0.0859886 -0.271954 -0.432 152 108 97
0.0878371 -0.272584 -0.433 147 104 98
0.0976381 -0.27699 -0.44 118 88 86
0.11484 -0.29084 -0.462 93 71 73
0.433011 -0.328611 -0.522 152 109 100
0.4325 -0.326723 -0.519 163 116 100
0.440649 -0.320428 -0.509 181 127 103
0.446556 -0.319798 -0.508 179 128 101
0.448491 -0.319798 -0.508 176 125 98
0.45333 -0.319798 -0.508 172 120 98
0.462948 -0.320428 -0.509 160 113 93
0.8378 -0.371419 -0.59 211 213 200
0.842295 -0.371419 -0.59 211 213 200
0.8614 -0.371419 -0.59 211 213 200
0.88424 -0.37016 -0.588 211 213 200
0.88648 -0.37016 -0.588 212 214 201
0.933693 -0.368901 -0.586 208 210 197
0.942623 -0.368901 -0.586 208 210 197
0.949822 -0.36953 -0.587 209 211 197
0.962714 -0.368901 -0.586 206 208 194
1.01567 -0.368271 -0.585 204 207 190
1.02395 -0.367642 -0.584 205 208 191
1.06288 -0.367642 -0.584 203 205 191
1.0651 -0.367642 -0.584 203 205 191
0.0448457 -0.272777 -0.432 198 158 133
0.0625114 -0.270883 -0.429 191 146 125
0.0715 -0.270883 -0.429 183 141 119
0.0723171 -0.270883 -0.429 184 142 120
0.0796714 -0.270883 -0.429 167 123 110
0.0833267 -0.272146 -0.431 159 115 104
0.0936429 -0.275934 -0.437 136 98 95
0.0955257 -0.276566 -0.438 123 92 89
0.102138 -0.280986 -0.445 111 81 81
0.106951 -0.284774 -0.451 100 78 80
0.435977 -0.333394 -0.528 145 108 100
0.432653 -0.32708 -0.518 163 117 101
0.438487 -0.32266 -0.511 174 120 96
0.442686 -0.320766 -0.508 183 129 105
0.44954 -0.320134 -0.507 179 128 101
0.454369 -0.320134 -0.507 171 120 99
0.457266 -0.320134 -0.507 166 115 94
0.459135 -0.320766 -0.508 163 115 95
0.462948 -0.321397 -0.509 159 112 94
0.4658 -0.322029 -0.51 154 108 92
0.475271 -0.325186 -0.515 150 105 86
0.858818 -0.371911 -0.589 211 213 200
0.868915 -0.371911 -0.589 211 213 200
0.88312 -0.37128 -0.588 210 212 199
0.88648 -0.37128 -0.588 211 213 200
0.88872 -0.37128 -0.588 211 213 200
0.89656 -0.37128 -0.588 210 212 199
0.911807 -0.370649 -0.587 210 212 198
0.917397 -0.370649 -0.587 210 212 198
0.922531 -0.370017 -0.586 209 211 197
0.924764 -0.370017 -0.586 209 211 198
0.932577 -0.370017 -0.586 208 210 197
0.940391 -0.370017 -0.586 209 211 198
0.943739 -0.370017 -0.586 209 211 198
0.945971 -0.370017 -0.586 208 210 197
0.947088 -0.370017 -0.586 208 210 197
0.962714 -0.370017 -0.586 206 209 192
0.9633 -0.369386 -0.585 206 208 194
0.964414 -0.369386 -0.585 206 208 194
0.968871 -0.369386 -0.585 207 209 195
0.974443 -0.369386 -0.585 207 209 195
0.995025 -0.368754 -0.584 205 207 193
0.998362 -0.368754 -0.584 206 208 194
1.00059 -0.368754 -0.584 205 207 193
1.0017 -0.368754 -0.584 205 207 193
1.01616 -0.368754 -0.584 204 207 188
0.0470952 -0.272333 -0.43 201 156 133
0.0527057 -0.2717 -0.429 201 155 132
0.0558438 -0.271067 -0.428 199 153 130
0.0849686 -0.272967 -0.431 153 109 100
0.108289 -0.2869 -0.453 96 76 78
0.449134 -0.3477 -0.549 131 105 104
0.436155 -0.333767 -0.527 144 106 95
0.43364 -0.328067 -0.518 169 117 96
0.439571 -0.323 -0.51 177 122 101
0.4563 -0.3211 -0.507 170 119 98
0.467743 -0.323 -0.51 152 106 90
0.845355 -0.373033 -0.589 211 213 202
0.852087 -0.373033 -0.589 211 213 202
0.856574 -0.373033 -0.589 211 213 200
0.872673 -0.371767 -0.587 210 212 199
0.901744 -0.371767 -0.587 210 212 198
0.907334 -0.371767 -0.587 211 213 199
0.916951 -0.371133 -0.586 209 211 197
0.9399 -0.3705 -0.585 208 210 197
0.949929 -0.3705 -0.585 208 210 197
0.960541 -0.369867 -0.584 207 210 193
0.977774 -0.369233 -0.583 207 209 195
0.980564 -0.369867 -0.584 206 208 194
0.998362 -0.369867 -0.584 205 208 191
1.0106 -0.369867 -0.584 204 207 188
1.01282 -0.369867 -0.584 204 207 188
1.01616 -0.369867 -0.584 205 208 189
1.01664 -0.369233 -0.583 205 208 189
1.03042 -0.3686 -0.582 204 207 190
1.03639 -0.367967 -0.581 204 206 192
1.04926 -0.3686 -0.582 203 205 191
1.06733 -0.369867 -0.584 203 205 191
0.0432 -0.274423 -0.432 200 158 136
0.0706829 -0.272517 -0.429 182 137 116
0.07704 -0.271882 -0.428 174 128 113
0.104767 -0.285222 -0.449 99 78 85
0.107426 -0.287763 -0.453 97 76 81
0.108767 -0.289033 -0.455 95 74 79
0.112835 -0.292845 -0.461 94 73 78
0.453403 -0.322066 -0.507 176 124 102
0.467743 -0.323971 -0.51 155 110 91
0.8372 -0.37352 -0.588 211 213 202
0.86744 -0.37352 -0.588 211 213 200
0.887209 -0.372885 -0.587 210 212 199
0.891681 -0.372885 -0.587 211 213 200
0.895035 -0.372885 -0.587 210 212 199
0.912043 -0.371614 -0.585 209 211 197
0.933214 -0.371614 -0.585 209 211 198
0.954386 -0.371614 -0.585 207 209 195
0.956091 -0.370979 -0.584 206 209 192
0.962766 -0.370979 -0.584 207 209 195
0.99221 -0.370344 -0.583 206 208 194
1.00998 -0.370344 -0.583 205 208 189
1.01664 -0.370344 -0.583 204 207 190
1.02598 -0.369709 -0.582 203 206 189
1.0282 -0.369709 -0.582 204 207 190
1.02975 -0.369073 -0.581 204 206 192
1.03418 -0.369073 -0.581 203 205 191
1.04303 -0.369073 -0.581 204 206 193
0.0423771 -0.275246 -0.432 198 156 134
0.0431 -0.274609 -0.431 199 157 135
0.0478029 -0.273334 -0.429 201 157 132
0.05992 -0.272697 -0.428 193 148 125
0.07722 -0.273334 -0.429 175 129 114
0.105233 -0.287351 -0.451 96 75 80
0.447116 -0.346606 -0.544 132 107 100
0.435317 -0.326854 -0.513 168 116 95
0.4386 -0.324943 -0.51 167 119 99
0.83944 -0.37464 -0.588 211 213 202
0.854 -0.37464 -0.588 212 214 201
0.868201 -0.374003 -0.587 210 212 199
0.869319 -0.374003 -0.587 210 212 199
0.881232 -0.373366 -0.586 211 213 200
0.884972 -0.374003 -0.587 210 212 199
0.921608 -0.372091 -0.584 209 211 197
0.928282 -0.372091 -0.584 207 209 196
0.930507 -0.372091 -0.584 208 210 197
0.938293 -0.372091 -0.584 209 211 198
0.961117 -0.371454 -0.583 207 209 195
0.96667 -0.371454 -0.583 206 208 194
0.985548 -0.371454 -0.583 205 207 193
0.986074 -0.370817 -0.582 205 207 193
0.9894 -0.370817 -0.582 206 208 194
0.993834 -0.370817 -0.582 205 208 191
0.994943 -0.370817 -0.582 205 208 191
1.01442 -0.371454 -0.583 204 207 190
1.02975 -0.37018 -0.581 204 206 192
1.05299 -0.37018 -0.581 203 205 192
1.0541 -0.37018 -0.581 203 205 192
1.05521 -0.37018 -0.581 203 205 192
0.0607352 -0.273512 -0.428 194 148 125
0.0623657 -0.273512 -0.428 194 147 127
0.0825057 -0.27543 -0.431 151 109 97
0.0851657 -0.276069 -0.432 149 106 97
0.0859886 -0.276069 -0.432 148 105 98
0.0983038 -0.283098 -0.443 113 86 79
0.435187 -0.32847 -0.514 170 118 96
0.435317 -0.327831 -0.513 169 117 95
0.440649 -0.325275 -0.509 171 119 95
0.443746 -0.323997 -0.507 177 125 101
0.465909 -0.324636 -0.508 158 110 90
0.571457 -0.377038 -0.59 94 106 146
0.841367 -0.375121 -0.587 211 213 202
0.877884 -0.374482 -0.586 210 212 199
0.897975 -0.374482 -0.586 210 212 198
0.914933 -0.373204 -0.584 208 210 196
0.91827 -0.373204 -0.584 209 211 197
0.92717 -0.373204 -0.584 207 209 196
0.928282 -0.373204 -0.584 207 209 196
0.936069 -0.373204 -0.584 208 210 197
0.952754 -0.373204 -0.584 208 210 196
0.962228 -0.372565 -0.583 207 209 195
0.979423 -0.371926 -0.582 206 208 194
0.983857 -0.371926 -0.582 206 208 194
0.989913 -0.371287 -0.581 206 208 194
1.00492 -0.371926 -0.582 205 208 189
1.04013 -0.370648 -0.58 203 205 191
1.04124 -0.370648 -0.58 203 205 191
1.04455 -0.370648 -0.58 204 206 193
0.043 -0.27561 -0.43 202 160 138
0.0814952 -0.27561 -0.43 155 113 101
0.0932352 -0.281378 -0.439 130 92 81
0.111079 -0.295479 -0.461 92 73 75
0.44992 -0.389699 -0.608 183 181 203
0.440477 -0.340346 -0.531 141 107 98
0.439571 -0.326886 -0.51 170 120 95
0.461183 -0.324322 -0.506 166 118 96
0.486871 -0.332654 -0.519 151 109 95
0.852211 -0.375598 -0.586 211 213 200
0.887529 -0.374957 -0.585 210 212 198
0.8931 -0.374957 -0.585 210 212 198
0.921608 -0.374316 -0.584 209 211 197
0.94446 -0.373675 -0.583 207 210 193
0.948902 -0.373675 -0.583 208 211 194
0.99434 -0.372393 -0.581 205 207 193
1.00935 -0.373034 -0.582 203 205 191
1.01205 -0.372393 -0.581 205 208 191
1.02952 -0.371111 -0.579 203 205 192
1.04275 -0.371111 -0.579 203 205 191
1.05008 -0.371752 -0.58 203 205 191
0.0814952 -0.276429 -0.43 151 111 101
0.0833267 -0.277071 -0.431 150 110 100
0.0851657 -0.277714 -0.432 150 110 100
0.0911457 -0.280929 -0.437 131 91 83
0.09534 -0.2835 -0.441 121 88 81
0.46421 -0.390214 -0.607 15 57 133
0.475839 -0.374786 -0.583 124 102 105
0.439571 -0.327857 -0.51 168 118 95
0.444711 -0.325929 -0.507 176 124 102
0.492616 -0.336214 -0.523 147 108 93
0.501229 -0.340714 -0.53 148 109 94
0.855214 -0.376071 -0.585 211 213 200
0.8619 -0.376071 -0.585 211 213 199
0.87155 -0.375429 -0.584 211 213 200
0.874888 -0.375429 -0.584 211 213 199
0.877112 -0.375429 -0.584 211 213 200
0.919383 -0.375429 -0.584 208 210 196
0.943949 -0.374143 -0.582 207 210 193
0.947274 -0.374143 -0.582 208 211 194
0.955607 -0.3735 -0.581 207 209 195
0.958927 -0.3735 -0.581 206 209 192
0.988807 -0.3735 -0.581 205 208 189
0.99434 -0.3735 -0.581 205 207 193
1.01094 -0.3735 -0.581 205 208 191
1.0567 -0.372857 -0.58 204 206 192
0.0361257 -0.281116 -0.436 194 151 132
0.0429 -0.276603 -0.429 201 156 135
0.0444305 -0.275958 -0.428 202 157 136
0.0516467 -0.275313 -0.427 201 156 135
0.0623657 -0.275958 -0.428 191 145 121
0.0755857 -0.276603 -0.429 176 129 113
0.0788543 -0.276603 -0.429 162 119 103
0.0841476 -0.277892 -0.431 150 110 100
0.08804 -0.279827 -0.434 137 99 88
0.459586 -0.39137 -0.607 23 60 131
0.460742 -0.39137 -0.607 16 55 130
0.436166 -0.331408 -0.514 164 116 93
0.860786 -0.377186 -0.585 210 212 198
0.862651 -0.376541 -0.584 210 212 198
0.887124 -0.376541 -0.584 210 213 196
0.904483 -0.375896 -0.583 210 212 198
0.925582 -0.375896 -0.583 207 209 195
0.93508 -0.375251 -0.582 208 210 196
0.958927 -0.374607 -0.581 207 210 193
0.998152 -0.373962 -0.58 205 208 191
1.02135 -0.373962 -0.58 205 207 193
1.04275 -0.373317 -0.579 203 205 191
0.0420829 -0.27742 -0.429 198 153 132
0.0436152 -0.276773 -0.428 198 153 132
0.0540867 -0.276127 -0.427 195 148 128
0.0589667 -0.276127 -0.427 194 147 127
0.0892762 -0.281947 -0.436 132 95 86
0.0903133 -0.282593 -0.437 131 94 88
0.0913543 -0.28324 -0.438 131 94 88
0.0934476 -0.284533 -0.44 121 87 85
0.0989695 -0.288413 -0.446 102 80 83
0.109323 -0.298113 -0.461 93 73 75
0.118817 -0.309107 -0.478 91 72 74
0.451903 -0.39188 -0.606 128 141 183
0.461137 -0.39188 -0.606 20 58 133
0.446284 -0.347907 -0.538 139 104 98
0.441514 -0.3298 -0.51 167 119 96
0.443557 -0.329153 -0.509 168 120 97
0.445677 -0.32786 -0.507 172 122 99
0.474543 -0.3298 -0.51 153 110 93
0.480266 -0.33174 -0.513 152 111 93
0.48504 -0.33368 -0.516 149 108 90
0.849643 -0.3783 -0.585 210 212 199
0.867837 -0.377007 -0.583 211 213 200
0.87339 -0.377007 -0.583 211 213 200
0.89671 -0.377007 -0.583 209 211 197
0.901151 -0.377007 -0.583 210 212 198
0.908474 -0.37636 -0.582 208 211 194
0.93508 -0.37636 -0.582 209 211 197
0.9379 -0.375713 -0.581 207 209 195
0.939007 -0.375713 -0.581 207 209 195
0.950648 -0.375067 -0.58 208 211 194
0.958381 -0.375067 -0.58 208 211 194
0.982686 -0.375067 -0.58 205 208 191
0.98379 -0.375067 -0.58 206 209 190
0.994838 -0.375067 -0.58 205 208 191
0.998152 -0.375067 -0.58 204 207 190
1.00699 -0.375067 -0.58 205 207 193
1.0081 -0.375067 -0.58 205 207 193
1.02444 -0.373773 -0.578 203 207 193
1.02884 -0.373773 -0.578 201 205 191
1.03214 -0.373773 -0.578 203 207 193
1.05488 -0.37442 -0.579 202 204 190
1.05819 -0.37442 -0.579 202 204 190
0.0549 -0.27694 -0.427 192 145 127
0.0664419 -0.277589 -0.428 185 140 121
0.0853629 -0.280831 -0.433 143 103 93
0.0882429 -0.282129 -0.435 137 100 91
0.10821 -0.298343 -0.46 94 72 74
0.114143 -0.304829 -0.47 92 73 77
0.11766 -0.309369 -0.477 97 78 82
0.468063 -0.393034 -0.606 31 66 134
0.453535 -0.355417 -0.548 135 105 97
0.449602 -0.351526 -0.542 136 103 96
0.438249 -0.332717 -0.513 166 118 96
0.443557 -0.330123 -0.509 169 121 99
0.445589 -0.329474 -0.508 171 121 98
0.447609 -0.328826 -0.507 174 123 102
0.44769 -0.328177 -0.506 177 126 105
0.448653 -0.328177 -0.506 178 127 106
0.566898 -0.378117 -0.583 143 138 145
0.570931 -0.380063 -0.586 160 163 170
0.861539 -0.378766 -0.584 212 214 203
0.877831 -0.378117 -0.583 210 212 199
0.877434 -0.377469 -0.582 210 212 199
0.890047 -0.378117 -0.583 210 212 198
0.898497 -0.377469 -0.582 210 212 198
0.899606 -0.377469 -0.582 210 212 198
0.90404 -0.377469 -0.582 209 211 197
0.912909 -0.377469 -0.582 208 211 194
0.949009 -0.375523 -0.579 207 209 195
0.954523 -0.375523 -0.579 207 209 195
0.991524 -0.376171 -0.58 206 209 192
1.01849 -0.375523 -0.579 204 206 192
1.02444 -0.374874 -0.578 203 207 193
1.04937 -0.375523 -0.579 203 205 191
0.0343857 -0.282957 -0.435 198 155 136
0.0474686 -0.277103 -0.426 198 156 134
0.0549 -0.277753 -0.427 193 148 129
0.05978 -0.277753 -0.427 191 146 123
0.0656267 -0.278404 -0.428 182 137 118
0.0892762 -0.283608 -0.436 130 96 86
0.0926095 -0.28621 -0.44 120 86 85
0.444167 -0.346704 -0.533 140 106 97
0.438136 -0.338898 -0.521 152 109 93
0.437014 -0.334995 -0.515 162 114 94
0.448653 -0.329141 -0.506 178 127 106
0.855977 -0.379878 -0.584 211 213 200
0.860064 -0.379228 -0.583 212 214 203
0.868566 -0.378577 -0.582 211 213 199
0.899606 -0.378577 -0.582 209 211 197
0.909127 -0.377927 -0.581 208 210 196
0.9396 -0.377276 -0.58 207 210 193
0.944597 -0.376626 -0.579 208 211 194
0.96114 -0.376626 -0.579 208 210 196
0.967757 -0.376626 -0.579 206 208 194
0.96886 -0.376626 -0.579 206 208 194
0.982094 -0.376626 -0.579 205 208 191
0.9843 -0.376626 -0.579 206 209 190
1.01453 -0.375975 -0.578 203 205 191
1.01893 -0.375975 -0.578 203 205 192
1.03695 -0.375325 -0.577 201 205 191
1.04245 -0.375325 -0.577 203 205 192
1.05306 -0.375975 -0.578 202 204 190
0.0329543 -0.285743 -0.438 197 157 132
0.0442229 -0.277914 -0.426 198 155 136
0.0466571 -0.277914 -0.426 200 158 136
0.0565267 -0.278567 -0.427 193 150 131
0.0589667 -0.278567 -0.427 191 148 129
0.07722 -0.279871 -0.429 160 117 101
0.0816848 -0.281176 -0.431 153 111 99
0.089481 -0.28509 -0.437 126 96 94
0.107567 -0.300748 -0.461 90 74 74
0.115114 -0.309229 -0.474 96 75 80
0.439226 -0.334671 -0.513 168 119 102
0.451614 -0.329452 -0.505 174 124 101
0.453538 -0.329452 -0.505 176 126 103
0.477457 -0.332714 -0.51 155 110 91
0.860064 -0.380338 -0.583 211 213 202
0.871891 -0.379686 -0.582 211 213 199
0.880353 -0.379033 -0.581 210 212 198
0.890737 -0.379686 -0.582 209 211 197
0.89142 -0.379033 -0.581 209 211 197
0.930762 -0.378381 -0.58 209 211 197
0.953975 -0.377076 -0.578 206 208 194
0.982094 -0.377729 -0.579 205 208 191
1.00572 -0.377076 -0.578 205 207 193
1.02266 -0.376424 -0.577 202 206 192
1.02376 -0.376424 -0.577 202 206 192
1.03735 -0.375771 -0.576 203 205 192
1.04756 -0.377076 -0.578 203 205 192
1.04976 -0.377076 -0.578 203 205 191
1.05086 -0.377076 -0.578 203 205 191
1.05234 -0.376424 -0.577 203 205 191
0.0688876 -0.280034 -0.428 175 133 111
0.0876152 -0.285269 -0.436 133 96 88
0.0938724 -0.289194 -0.442 115 85 83
0.473421 -0.395189 -0.604 124 130 144
0.439818 -0.342191 -0.523 149 109 97
0.437863 -0.337611 -0.516 164 116 96
0.440433 -0.33434 -0.511 169 118 97
0.44238 -0.33434 -0.511 170 122 102
0.461323 -0.329106 -0.503 168 117 96
0.467967 -0.330414 -0.505 161 113 93
0.468929 -0.330414 -0.505 163 115 95
0.470821 -0.331069 -0.506 163 116 96
0.476521 -0.333031 -0.509 152 107 88
0.844517 -0.381449 -0.583 211 213 202
0.847849 -0.381449 -0.583 211 213 200
0.853401 -0.381449 -0.583 211 213 200
0.87482 -0.38014 -0.581 210 212 199
0.931363 -0.378831 -0.579 209 211 197
0.935774 -0.378831 -0.579 208 210 196
0.94683 -0.377523 -0.577 208 210 196
0.989206 -0.378177 -0.578 205 208 191
1.00022 -0.378177 -0.578 205 208 191
1.00242 -0.378177 -0.578 205 208 191
1.04464 -0.377523 -0.577 203 205 192
1.05124 -0.377523 -0.577 203 205 191
0.0326533 -0.284787 -0.434 197 157 132
0.0409771 -0.279537 -0.426 193 152 130
0.0434114 -0.279537 -0.426 194 153 131
0.05396 -0.279537 -0.426 192 150 128
0.0656267 -0.28085 -0.428 181 136 117
0.108267 -0.304472 -0.464 89 74 77
0.442178 -0.345812 -0.527 143 109 99
0.438711 -0.33925 -0.517 161 114 96
0.4536 -0.33072 -0.504 172 121 100
0.859697 -0.381903 -0.582 211 213 200
0.878838 -0.38059 -0.58 210 212 198
0.886571 -0.38059 -0.58 209 211 197
0.905352 -0.38059 -0.58 208 211 194
0.909771 -0.38059 -0.58 209 212 195
0.918609 -0.38059 -0.58 209 212 195
0.921437 -0.379934 -0.579 207 209 195
0.931363 -0.379934 -0.579 208 210 196
0.935259 -0.379278 -0.578 208 211 194
0.945731 -0.378622 -0.577 207 210 193
0.949028 -0.378622 -0.577 207 210 193
0.967187 -0.379278 -0.578 206 209 192
0.99299 -0.378622 -0.577 205 207 193
1.01541 -0.377966 -0.576 203 205 192
1.0176 -0.377966 -0.576 204 206 192
1.02418 -0.377966 -0.576 203 207 193
1.04942 -0.377966 -0.576 203 205 191
0.0355457 -0.282323 -0.429 198 157 135
0.05978 -0.281007 -0.427 189 144 123
0.09198 -0.29022 -0.441 117 86 83
0.0930305 -0.290878 -0.442 115 85 83
0.100301 -0.297459 -0.452 98 76 78
0.465746 -0.396831 -0.603 26 63 133
0.438846 -0.339577 -0.516 162 116 100
0.44118 -0.337603 -0.513 171 120 101
0.441295 -0.336945 -0.512 170 119 98
0.442486 -0.335629 -0.51 175 124 105
0.470852 -0.332338 -0.505 162 115 95
0.480371 -0.335629 -0.51 153 111 89
0.487076 -0.338261 -0.514 153 112 90
0.573432 -0.384328 -0.584 190 191 193
0.838634 -0.383011 -0.582 210 212 201
0.857113 -0.382353 -0.581 211 213 202
0.859327 -0.382353 -0.581 211 213 202
0.880631 -0.381037 -0.579 210 212 199
0.886571 -0.381695 -0.58 209 211 197
0.903791 -0.381037 -0.579 208 211 194
0.910409 -0.381037 -0.579 209 212 195
0.915923 -0.381037 -0.579 210 213 196
0.919231 -0.381037 -0.579 209 212 195
0.931956 -0.380379 -0.578 209 212 195
0.941334 -0.379721 -0.577 208 211 194
0.945731 -0.379721 -0.577 207 210 193
1.02309 -0.379063 -0.576 203 207 192
1.03047 -0.377747 -0.574 201 205 191
1.04832 -0.379063 -0.576 204 206 193
0.0296848 -0.28974 -0.439 194 156 137
0.0303819 -0.28842 -0.437 195 157 138
0.0331714 -0.2838 -0.43 196 159 133
0.0401657 -0.28116 -0.426 198 153 130
0.0449286 -0.2805 -0.425 190 145 122
0.0457381 -0.2805 -0.425 191 146 123
0.0589667 -0.28182 -0.427 190 144 121
0.0656267 -0.28248 -0.428 178 133 112
0.078219 -0.2838 -0.43 152 110 96
0.0849286 -0.2871 -0.435 137 98 91
0.0979248 -0.29634 -0.449 99 77 79
0.116571 -0.3168 -0.48 99 77 80
0.471853 -0.39732 -0.602 166 168 183
0.477587 -0.39732 -0.602 168 173 192
0.440203 -0.33858 -0.513 172 121 104
0.441295 -0.33792 -0.512 169 118 99
0.445589 -0.33528 -0.508 161 110 91
0.44969 -0.3333 -0.505 173 122 101
0.472776 -0.3333 -0.505 160 115 94
0.84826 -0.38346 -0.581 211 213 200
0.8549 -0.38346 -0.581 211 213 200
0.857848 -0.3828 -0.58 212 214 201
0.885043 -0.38214 -0.579 209 211 197
0.93474 -0.38082 -0.577 208 211 194
0.942994 -0.38016 -0.576 206 208 194
0.949577 -0.38016 -0.576 207 210 193
0.950674 -0.38016 -0.576 207 210 193
0.956721 -0.38082 -0.577 206 209 192
0.963884 -0.38148 -0.578 206 209 192
0.987977 -0.38016 -0.576 206 208 194
0.999584 -0.38082 -0.577 204 207 190
1.025 -0.37884 -0.574 202 206 192
1.02609 -0.37884 -0.574 202 206 192
1.03156 -0.37884 -0.574 201 205 191
1.03593 -0.37884 -0.574 202 204 190
0.0330943 -0.283957 -0.429 197 157 131
0.0555829 -0.281971 -0.426 193 148 125
0.06466 -0.282633 -0.427 180 135 114
0.0808638 -0.285281 -0.431 145 105 97
0.442655 -0.346838 -0.524 145 105 93
0.44238 -0.338233 -0.511 169 118 101
0.478488 -0.336248 -0.508 151 108 89
0.568523 -0.383243 -0.579 193 189 186
0.736646 -0.385229 -0.582 211 213 202
0.81174 -0.384567 -0.581 210 212 201
0.852324 -0.383905 -0.58 211 213 200
0.862267 -0.383905 -0.58 210 212 199
0.866294 -0.383243 -0.579 210 212 199
0.893423 -0.382581 -0.578 208 210 196
0.905533 -0.382581 -0.578 209 211 197
0.906634 -0.382581 -0.578 209 211 197
0.920452 -0.381919 -0.577 208 210 196
0.929245 -0.381919 -0.577 208 210 196
0.942994 -0.381257 -0.576 206 208 194
0.960018 -0.381919 -0.577 206 209 192
0.961117 -0.381919 -0.577 207 210 193
0.980297 -0.381257 -0.576 206 208 194
0.993463 -0.381257 -0.576 204 207 190
0.998949 -0.381257 -0.576 204 207 190
1.02828 -0.379933 -0.574 202 206 192
0.0530238 -0.282119 -0.425 195 150 127
0.0563943 -0.282783 -0.426 187 141 118
0.0630333 -0.283447 -0.427 185 138 120
0.0638467 -0.283447 -0.427 181 134 116
0.0671 -0.283447 -0.427 177 132 113
0.0739514 -0.284774 -0.429 161 118 102
0.0810514 -0.286766 -0.432 141 103 94
0.104932 -0.306016 -0.461 90 74 77
0.108077 -0.309999 -0.467 90 74 77
0.451742 -0.333896 -0.503 161 110 91
0.456581 -0.333232 -0.502 168 117 98
0.462351 -0.332569 -0.501 164 116 96
0.473738 -0.335224 -0.505 159 114 93
0.509351 -0.351155 -0.529 152 111 91
0.837962 -0.38501 -0.58 211 213 200
0.862596 -0.383682 -0.578 210 212 199
0.884184 -0.383018 -0.577 209 211 198
0.907264 -0.383018 -0.577 210 212 198
0.932023 -0.382354 -0.576 207 209 195
0.937509 -0.382354 -0.576 207 209 195
0.938606 -0.382354 -0.576 207 209 195
0.977006 -0.382354 -0.576 206 208 194
0.980297 -0.382354 -0.576 206 208 194
1.04359 -0.381027 -0.574 203 205 192
0.0272381 -0.292914 -0.44 192 152 127
0.0589667 -0.28426 -0.427 187 142 121
0.0688876 -0.284926 -0.428 173 126 108
0.103829 -0.306229 -0.46 91 72 74
0.11638 -0.32154 -0.483 98 81 89
0.474167 -0.378791 -0.569 124 98 97
0.446643 -0.337517 -0.507 167 116 99
0.447767 -0.336186 -0.505 169 118 101
0.454669 -0.334189 -0.502 163 114 97
0.566674 -0.383451 -0.576 195 178 168
0.574794 -0.387446 -0.582 185 185 183
0.811448 -0.386114 -0.58 211 213 200
0.85599 -0.384783 -0.578 211 213 200
0.865899 -0.384783 -0.578 210 212 199
0.871404 -0.384783 -0.578 209 211 197
0.874707 -0.384783 -0.578 208 210 196
0.889679 -0.384117 -0.577 208 210 196
0.905066 -0.384117 -0.577 210 212 198
0.918857 -0.383451 -0.576 208 211 194
0.938071 -0.382786 -0.575 207 209 195
0.95669 -0.382786 -0.575 207 210 193
0.967131 -0.383451 -0.576 205 208 191
0.997214 -0.382786 -0.575 204 207 190
1.0005 -0.382786 -0.575 205 208 191
0.999853 -0.38212 -0.574 204 207 190
1.00969 -0.38212 -0.574 204 207 190
1.01735 -0.38212 -0.574 202 206 189
1.01776 -0.381454 -0.573 203 207 190
1.02103 -0.381454 -0.573 203 207 192
1.02649 -0.381454 -0.573 203 205 191
1.03232 -0.380789 -0.572 203 205 191
0.0321267 -0.285073 -0.427 197 155 130
0.03294 -0.285073 -0.427 197 155 130
0.0376429 -0.283738 -0.425 199 155 126
0.0440152 -0.28307 -0.424 198 153 122
0.0448229 -0.28307 -0.424 198 153 124
0.0456305 -0.28307 -0.424 196 151 122
0.0504762 -0.28307 -0.424 191 146 117
0.0605933 -0.285073 -0.427 187 141 117
0.0614067 -0.285073 -0.427 184 138 115
0.0938724 -0.297758 -0.446 106 81 77
0.113354 -0.319122 -0.478 94 75 79
0.116862 -0.323795 -0.485 97 81 91
0.466857 -0.400571 -0.6 64 83 125
0.469143 -0.400571 -0.6 68 86 126
0.473714 -0.400571 -0.6 165 168 185
0.445347 -0.351168 -0.526 146 108 99
0.443457 -0.340486 -0.51 165 116 99
0.444429 -0.340486 -0.51 164 115 98
0.445589 -0.33915 -0.508 161 112 97
0.455671 -0.334477 -0.501 166 117 100
0.46426 -0.334477 -0.501 162 115 95
0.85599 -0.385884 -0.578 210 212 199
0.868797 -0.385216 -0.577 209 211 197
0.87759 -0.385216 -0.577 209 211 197
0.892526 -0.384549 -0.576 208 210 196
0.942452 -0.383881 -0.575 207 209 195
0.973714 -0.384549 -0.576 205 208 191
0.990013 -0.383213 -0.574 206 208 194
0.99876 -0.383213 -0.574 205 208 191
1.01121 -0.382546 -0.573 205 207 193
1.01667 -0.382546 -0.573 203 207 190
1.01885 -0.382546 -0.573 203 207 190
1.04286 -0.382546 -0.573 203 205 192
0.0321267 -0.285887 -0.427 198 156 131
0.0580171 -0.285217 -0.426 186 140 114
0.0589667 -0.285887 -0.427 187 141 115
0.0630333 -0.285887 -0.427 184 138 114
0.0688876 -0.286556 -0.428 176 129 109
0.0802286 -0.289234 -0.432 144 100 91
0.0928143 -0.297938 -0.445 106 81 77
0.101632 -0.306642 -0.458 95 74 73
0.463154 -0.369577 -0.552 135 105 95
0.445589 -0.340118 -0.508 158 111 93
0.453712 -0.336101 -0.502 167 118 101
0.454669 -0.336101 -0.502 166 117 100
0.455671 -0.335431 -0.501 161 112 95
0.45758 -0.335431 -0.501 162 113 96
0.47472 -0.33744 -0.504 161 118 99
0.733951 -0.387654 -0.579 211 212 204
0.802329 -0.387654 -0.579 211 213 200
0.803431 -0.387654 -0.579 210 212 199
0.810049 -0.387654 -0.579 209 211 198
0.851587 -0.386985 -0.578 211 213 200
0.863302 -0.386315 -0.577 210 212 199
0.866599 -0.386315 -0.577 209 211 197
0.892526 -0.385646 -0.576 208 210 197
0.900833 -0.384976 -0.575 208 210 197
0.920548 -0.384976 -0.575 209 211 197
0.937533 -0.384307 -0.574 207 209 195
0.94956 -0.384307 -0.574 207 210 193
0.9775 -0.384976 -0.575 206 208 194
0.999853 -0.384307 -0.574 205 208 189
1.01557 -0.383637 -0.573 204 208 191
1.01667 -0.383637 -0.573 204 208 191
1.01925 -0.382968 -0.572 204 207 190
1.03668 -0.382968 -0.572 203 205 191
1.03777 -0.382968 -0.572 203 205 191
1.04322 -0.382968 -0.572 202 204 191
0.0268048 -0.290729 -0.433 199 157 132
0.0424 -0.284686 -0.424 198 153 124
0.0554524 -0.285357 -0.425 186 140 114
0.0697029 -0.287371 -0.428 170 124 101
0.472925 -0.402186 -0.599 152 162 187
0.479427 -0.3854 -0.574 126 105 104
0.444111 -0.344443 -0.513 160 114 99
0.446556 -0.341086 -0.508 162 115 99
0.448653 -0.339743 -0.506 168 119 102
0.44969 -0.339071 -0.505 169 120 103
0.45072 -0.3384 -0.504 163 114 97
0.460476 -0.335714 -0.5 164 115 98
0.468077 -0.336386 -0.501 161 114 96
0.73726 -0.388757 -0.579 210 211 203
0.868797 -0.387414 -0.577 209 211 197
0.884405 -0.386071 -0.575 209 211 198
0.88769 -0.386071 -0.575 209 211 198
0.98938 -0.384729 -0.573 205 207 193
0.991563 -0.384729 -0.573 204 206 192
1.00575 -0.384729 -0.573 204 207 190
1.03777 -0.384057 -0.572 202 204 190
0.0367467 -0.285493 -0.424 199 155 130
0.0383619 -0.285493 -0.424 201 157 130
0.0399771 -0.285493 -0.424 200 156 129
0.048861 -0.285493 -0.424 193 149 122
0.08862 -0.29694 -0.441 111 82 78
0.0994514 -0.30704 -0.456 94 73 70
0.469857 -0.402653 -0.598 97 106 135
0.472135 -0.402653 -0.598 102 112 139
0.47783 -0.402653 -0.598 169 172 191
0.4602 -0.36764 -0.546 132 104 103
0.443635 -0.348113 -0.517 154 108 93
0.451742 -0.338687 -0.503 162 113 96
0.46619 -0.336667 -0.5 164 115 98
0.800943 -0.389187 -0.578 211 213 200
0.802044 -0.389187 -0.578 211 213 200
0.80865 -0.389187 -0.578 211 213 200
0.87168 -0.38784 -0.576 208 210 196
0.909107 -0.386493 -0.574 209 211 197
0.921133 -0.386493 -0.574 208 210 197
0.941357 -0.38582 -0.573 207 210 193
0.982831 -0.38582 -0.573 205 207 193
0.995929 -0.38582 -0.573 205 207 193
1.01094 -0.384473 -0.571 204 207 190
1.01598 -0.385147 -0.572 204 207 190
1.02654 -0.3838 -0.57 202 205 188
1.03596 -0.384473 -0.571 202 205 188
0.0288733 -0.288327 -0.427 194 152 127
0.0351314 -0.286301 -0.424 201 157 132
0.0456305 -0.286301 -0.424 194 148 122
0.0522143 -0.286976 -0.425 195 149 125
0.0580171 -0.287651 -0.426 183 137 113
0.076759 -0.291028 -0.431 146 104 92
0.0867429 -0.297105 -0.44 114 83 80
0.09344 -0.302507 -0.448 103 77 76
0.1012 -0.31061 -0.46 92 71 70
0.454669 -0.33897 -0.502 166 117 100
0.458571 -0.337619 -0.5 169 121 101
0.461429 -0.337619 -0.5 168 120 100
0.467143 -0.337619 -0.5 166 117 100
0.491047 -0.345047 -0.511 147 106 88
0.493946 -0.346397 -0.513 146 108 89
0.505594 -0.352474 -0.522 145 108 89
0.573153 -0.389612 -0.577 187 183 182
0.732684 -0.390288 -0.578 210 211 203
0.742592 -0.390288 -0.578 210 211 203
0.833628 -0.389612 -0.577 211 213 200
0.861806 -0.388937 -0.576 210 212 201
0.867291 -0.388937 -0.576 210 212 198
0.8938 -0.387587 -0.574 209 211 197
0.922803 -0.386911 -0.573 207 209 196
0.980027 -0.386236 -0.572 206 208 194
1.01677 -0.384886 -0.57 204 206 192
1.02654 -0.384886 -0.57 202 205 188
0.024981 -0.291171 -0.43 198 156 131
0.0407848 -0.287109 -0.424 194 150 123
0.0472457 -0.287109 -0.424 191 147 122
0.0538333 -0.287786 -0.425 189 143 119
0.0664419 -0.289817 -0.428 172 124 104
0.0816143 -0.294557 -0.435 133 94 89
0.0900686 -0.300651 -0.444 108 82 81
0.10142 -0.312163 -0.461 92 71 70
0.104295 -0.315549 -0.466 90 70 69
0.469071 -0.404254 -0.597 151 161 186
0.471346 -0.404254 -0.597 66 77 109
0.474297 -0.381909 -0.564 126 100 99
0.4572 -0.365657 -0.54 133 104 98
0.451603 -0.359563 -0.531 141 104 95
0.458605 -0.337894 -0.499 172 124 104
0.465238 -0.338571 -0.5 167 119 99
0.838766 -0.390034 -0.576 210 212 199
0.867976 -0.389357 -0.575 209 211 197
0.875643 -0.389357 -0.575 210 212 198
0.895987 -0.38868 -0.574 208 210 196
0.898791 -0.388003 -0.573 209 211 197
0.903157 -0.388003 -0.573 208 210 197
0.931534 -0.388003 -0.573 208 210 196
0.933177 -0.387326 -0.572 207 209 195
0.940804 -0.387326 -0.572 207 210 193
0.981116 -0.387326 -0.572 205 208 191
1.0055 -0.386649 -0.571 205 207 193
1.01677 -0.385971 -0.57 203 205 191
1.02111 -0.385971 -0.57 204 206 192
1.03922 -0.386649 -0.571 203 206 189
0.0303571 -0.288595 -0.425 194 150 123
0.0440152 -0.287916 -0.424 191 145 119
0.0480533 -0.287916 -0.424 188 144 117
0.0554524 -0.288595 -0.425 182 138 113
0.0588286 -0.289274 -0.426 173 127 103
0.0605933 -0.289953 -0.427 164 116 96
0.06222 -0.289953 -0.427 174 126 106
0.110854 -0.325264 -0.479 94 76 76
0.466309 -0.374834 -0.552 128 100 96
0.445726 -0.350389 -0.516 157 111 95
0.445843 -0.34971 -0.515 158 112 96
0.454669 -0.340882 -0.502 169 121 101
0.463357 -0.338845 -0.499 168 120 100
0.478569 -0.341561 -0.503 158 111 91
0.831086 -0.391131 -0.576 211 213 200
0.831833 -0.390452 -0.575 211 213 200
0.84169 -0.390452 -0.575 209 211 198
0.855929 -0.390452 -0.575 210 212 201
0.863595 -0.390452 -0.575 210 212 198
0.875213 -0.389773 -0.574 210 212 198
0.8774 -0.389773 -0.574 210 212 199
0.887877 -0.389094 -0.573 209 211 197
0.928819 -0.388415 -0.572 208 210 196
0.987014 -0.387736 -0.571 205 207 193
0.991365 -0.387736 -0.571 204 206 192
1.007 -0.387057 -0.57 204 206 192
1.00917 -0.387057 -0.57 204 207 190
1.02799 -0.386378 -0.569 203 206 189
1.0374 -0.387057 -0.57 203 206 189
0.05964 -0.290086 -0.426 173 127 103
0.0639962 -0.291448 -0.428 172 123 106
0.0690486 -0.292129 -0.429 161 112 97
0.0706829 -0.292129 -0.429 161 112 98
0.0818019 -0.296895 -0.436 129 89 89
0.0848733 -0.298938 -0.439 117 83 82
0.0904743 -0.303705 -0.446 106 82 80
0.096421 -0.309152 -0.454 97 73 71
0.100542 -0.313919 -0.461 91 71 72
0.10363 -0.318005 -0.467 91 71 70
0.455714 -0.340476 -0.5 166 118 98
0.470961 -0.339795 -0.499 160 115 94
0.489131 -0.345924 -0.508 144 109 89
0.797074 -0.392229 -0.576 211 213 200
0.83731 -0.391548 -0.575 210 212 199
0.858813 -0.390867 -0.574 210 212 199
0.876307 -0.390867 -0.574 209 211 197
0.893954 -0.389505 -0.572 209 211 197
0.90653 -0.388824 -0.571 207 209 195
0.920103 -0.389505 -0.572 207 209 195
0.933721 -0.388824 -0.571 207 209 195
0.942422 -0.388824 -0.571 207 210 193
0.961999 -0.388824 -0.571 205 207 193
1.00591 -0.388143 -0.57 204 206 192
1.01065 -0.387462 -0.569 204 206 192
1.0139 -0.387462 -0.569 204 206 192
1.02041 -0.387462 -0.569 204 206 192
1.02366 -0.387462 -0.569 205 207 194
1.0374 -0.388143 -0.57 203 206 189
0.0212743 -0.299091 -0.438 194 154 128
0.0294781 -0.289531 -0.424 196 151 128
0.0302857 -0.289531 -0.424 197 152 129
0.0358543 -0.288849 -0.423 197 155 130
0.0554524 -0.290214 -0.425 183 135 112
0.0682314 -0.292946 -0.429 167 118 101
0.0940657 -0.307969 -0.451 99 77 79
0.110171 -0.327771 -0.48 91 75 76
0.482233 -0.4063 -0.595 133 147 182
0.447435 -0.347574 -0.509 161 114 98
0.450581 -0.345526 -0.506 165 116 99
0.453763 -0.342111 -0.501 169 121 101
0.459555 -0.340746 -0.499 177 129 109
0.463377 -0.340063 -0.498 168 121 101
0.466223 -0.340063 -0.498 166 119 99
0.478573 -0.342794 -0.502 160 114 91
0.573453 -0.39196 -0.574 190 186 177
0.83476 -0.39196 -0.574 210 212 199
0.84132 -0.39196 -0.574 210 212 199
0.846403 -0.391277 -0.573 210 212 199
0.876963 -0.391277 -0.573 209 211 198
0.887417 -0.390594 -0.572 208 210 196
0.903268 -0.389911 -0.571 208 210 196
0.907618 -0.389911 -0.571 207 209 195
0.922845 -0.389911 -0.571 208 210 197
0.980943 -0.389229 -0.57 205 207 193
1.00415 -0.388546 -0.569 204 206 193
1.02835 -0.387863 -0.568 202 205 188
0.0294781 -0.290339 -0.424 196 151 128
0.0791286 -0.297871 -0.435 132 95 87
0.0885762 -0.304719 -0.445 108 80 79
0.450506 -0.347174 -0.507 163 117 94
0.455671 -0.343066 -0.501 168 120 100
0.457654 -0.341696 -0.499 163 115 95
0.460531 -0.341011 -0.498 165 118 100
0.830387 -0.393053 -0.574 210 212 201
0.8595 -0.392369 -0.573 210 212 199
0.891775 -0.391684 -0.572 209 211 197
0.891304 -0.390999 -0.571 208 210 196
0.894567 -0.390999 -0.571 207 209 195
0.926657 -0.390314 -0.57 206 208 195
0.944029 -0.390314 -0.57 205 207 193
0.972257 -0.390314 -0.57 204 206 192
0.978771 -0.390314 -0.57 204 206 192
0.991144 -0.38963 -0.569 205 207 194
1.01282 -0.38963 -0.569 203 205 191
1.03051 -0.388945 -0.568 202 205 188
0.0432076 -0.291147 -0.424 194 150 125
0.0472457 -0.291147 -0.424 195 150 127
0.10296 -0.32136 -0.468 90 71 73
0.104295 -0.322733 -0.47 90 71 73
0.472371 -0.40788 -0.594 155 162 178
0.485486 -0.39552 -0.576 109 96 106
0.461138 -0.371487 -0.541 132 105 94
0.44954 -0.34814 -0.507 165 119 96
0.45264 -0.34608 -0.504 167 120 100
0.455671 -0.34402 -0.501 168 120 100
0.578743 -0.39552 -0.576 193 189 188
0.824574 -0.39346 -0.573 209 211 200
0.834397 -0.39346 -0.573 210 212 199
0.858 -0.392773 -0.572 210 212 199
0.893479 -0.392087 -0.571 207 209 195
0.894567 -0.392087 -0.571 208 210 196
0.909286 -0.3914 -0.57 208 210 196
0.917971 -0.3914 -0.57 207 209 196
0.966829 -0.3914 -0.57 205 207 193
0.97597 -0.390713 -0.569 204 207 190
0.992228 -0.390713 -0.569 206 208 195
1.03376 -0.390027 -0.568 203 206 189
0.0278629 -0.291954 -0.424 196 154 129
0.0326314 -0.291266 -0.423 197 155 131
0.0334371 -0.291266 -0.423 200 156 131
0.03666 -0.291266 -0.423 189 145 120
0.06222 -0.29402 -0.427 173 122 103
0.447805 -0.354614 -0.515 160 119 101
0.448786 -0.354614 -0.515 160 119 101
0.450652 -0.347729 -0.505 165 118 98
0.471914 -0.342909 -0.498 162 116 93
0.576733 -0.39524 -0.574 189 185 184
0.824574 -0.394551 -0.573 210 212 201
0.872164 -0.393863 -0.572 209 211 198
0.910942 -0.391797 -0.569 207 209 196
0.922314 -0.392486 -0.57 208 210 196
0.929367 -0.391797 -0.569 207 209 195
0.931534 -0.391797 -0.569 207 209 195
0.940205 -0.391797 -0.569 206 208 194
0.95321 -0.391797 -0.569 206 209 192
0.968384 -0.391797 -0.569 205 207 193
0.977054 -0.391797 -0.569 205 207 193
0.980306 -0.391797 -0.569 204 206 192
1.00022 -0.391109 -0.568 204 206 192
1.02294 -0.391109 -0.568 201 203 189
