ply
format ascii 1.0
comment Created by Open3D
element vertex 1282
property double x
property double y
property double z
property uchar red
property uchar green
property uchar blue
end_header
0.50286 -0.363881 -0.493 157 115 93
-0.0435552 -0.40774 -0.551 189 153 117
0.00661429 -0.34262 -0.463 177 133 108
0.0298381 -0.35668 -0.482 141 109 96
0.0328629 -0.35964 -0.486 138 108 98
0.042381 -0.37 -0.5 126 98 94
0.0499305 -0.37666 -0.509 127 103 99
0.0700657 -0.39738 -0.537 120 100 102
0.100389 -0.42624 -0.576 61 88 141
0.110263 -0.42624 -0.576 178 178 188
0.121234 -0.42624 -0.576 131 137 163
0.143177 -0.42624 -0.576 137 151 177
0.144274 -0.42624 -0.576 86 106 139
0.152786 -0.4255 -0.575 87 117 171
0.384307 -0.42476 -0.574 130 144 179
0.386493 -0.42476 -0.574 57 79 120
0.404374 -0.42402 -0.573 96 125 169
0.406557 -0.42402 -0.573 125 156 200
0.436787 -0.42476 -0.574 177 180 199
0.453976 -0.4255 -0.575 126 130 141
0.466024 -0.4255 -0.575 148 157 172
0.482452 -0.4255 -0.575 147 159 183
0.492069 -0.42624 -0.576 62 73 93
0.497786 -0.4255 -0.575 162 164 176
0.501071 -0.4255 -0.575 159 163 172
0.505877 -0.42402 -0.573 152 151 159
0.508263 -0.42328 -0.572 113 109 110
0.469031 -0.37074 -0.501 170 127 108
0.471851 -0.36408 -0.492 173 127 104
0.478188 -0.36038 -0.487 172 124 102
0.488391 -0.36038 -0.487 159 115 90
-0.0460686 -0.412499 -0.556 190 150 115
-0.0346848 -0.342018 -0.461 190 157 124
-0.00218571 -0.340534 -0.459 183 139 110
0.00219048 -0.341276 -0.46 183 139 112
0.00307333 -0.342018 -0.461 183 139 112
0.0174571 -0.348695 -0.47 165 124 104
0.0202286 -0.350179 -0.472 158 120 99
0.02212 -0.351663 -0.474 156 118 99
0.0298381 -0.357598 -0.482 142 110 99
0.0318057 -0.359082 -0.484 138 108 98
0.0381086 -0.366501 -0.494 126 98 94
0.0412629 -0.369469 -0.498 124 99 94
0.0445514 -0.373178 -0.503 125 100 95
0.0566238 -0.383565 -0.517 127 103 99
0.0802457 -0.413983 -0.558 64 62 83
0.110071 -0.426595 -0.575 182 182 190
0.125623 -0.427337 -0.576 146 153 163
0.129786 -0.426595 -0.575 198 202 213
0.146214 -0.426595 -0.575 115 138 169
0.167827 -0.425853 -0.574 127 145 181
0.373814 -0.425111 -0.573 156 175 207
0.382546 -0.425111 -0.573 164 178 207
0.394551 -0.425111 -0.573 160 163 172
0.395643 -0.425111 -0.573 187 190 199
0.415289 -0.425111 -0.573 140 169 213
0.41638 -0.425111 -0.573 184 186 201
0.420387 -0.425853 -0.574 187 190 199
0.45428 -0.425853 -0.574 133 136 145
0.504786 -0.425111 -0.573 146 150 161
0.505877 -0.425111 -0.573 154 152 163
0.470704 -0.37763 -0.509 158 119 102
0.479057 -0.360566 -0.486 168 122 98
0.479983 -0.360566 -0.486 168 122 98
0.505677 -0.365759 -0.493 153 111 87
0.509614 -0.367243 -0.495 151 109 85
-0.00218095 -0.340665 -0.458 185 141 112
-0.000437143 -0.341409 -0.459 185 141 112
0.0258943 -0.354797 -0.477 148 112 98
0.03082 -0.35926 -0.483 144 110 98
0.04342 -0.372649 -0.501 123 98 93
0.0445514 -0.374136 -0.503 124 99 94
0.0686571 -0.397194 -0.534 114 98 98
0.319775 -0.425459 -0.572 144 166 190
0.343745 -0.425459 -0.572 143 172 212
0.349192 -0.425459 -0.572 117 141 185
0.356819 -0.425459 -0.572 207 211 222
0.3629 -0.426203 -0.573 197 205 218
0.365083 -0.426203 -0.573 78 98 125
0.375997 -0.426203 -0.573 81 110 166
0.379699 -0.425459 -0.572 189 201 217
0.381878 -0.425459 -0.572 182 193 215
0.410206 -0.425459 -0.572 115 147 186
0.428386 -0.426203 -0.573 145 152 162
0.43166 -0.426203 -0.573 184 184 196
0.432751 -0.426203 -0.573 180 182 195
0.437117 -0.426203 -0.573 181 184 199
0.445533 -0.426947 -0.574 174 177 184
0.452093 -0.426947 -0.574 122 123 128
0.4838 -0.426947 -0.574 167 172 192
0.48708 -0.426947 -0.574 77 92 123
0.501293 -0.426947 -0.574 158 161 170
0.476914 -0.386781 -0.52 150 118 105
0.472733 -0.364467 -0.49 173 126 106
0.475405 -0.362235 -0.487 173 127 104
0.492183 -0.362979 -0.488 162 118 93
0.50082 -0.36521 -0.491 155 110 87
0.504651 -0.365954 -0.492 151 109 84
-0.0472124 -0.415363 -0.557 189 150 119
-0.0167886 -0.337063 -0.452 194 154 119
-0.0108095 -0.338554 -0.454 195 154 122
-0.00130857 -0.341537 -0.458 185 141 114
0.01742 -0.34974 -0.469 163 122 100
0.0220733 -0.352723 -0.473 155 117 98
0.0249333 -0.35496 -0.476 152 113 98
0.0278276 -0.357197 -0.479 146 110 98
0.0477086 -0.377331 -0.506 124 100 96
0.0787571 -0.413871 -0.555 59 70 102
0.0958333 -0.428786 -0.575 49 75 124
0.100214 -0.428786 -0.575 60 87 134
0.117533 -0.42804 -0.574 172 175 190
0.1394 -0.42804 -0.574 154 169 192
0.153346 -0.427294 -0.573 101 133 172
0.160986 -0.427294 -0.573 186 193 219
0.165351 -0.427294 -0.573 174 188 214
0.37643 -0.426549 -0.572 99 122 176
0.37752 -0.426549 -0.572 162 174 198
0.380789 -0.426549 -0.572 192 198 212
0.420011 -0.426549 -0.572 177 184 194
0.421101 -0.426549 -0.572 167 174 184
0.427638 -0.426549 -0.572 110 117 123
0.443666 -0.427294 -0.573 180 184 187
0.448031 -0.427294 -0.573 177 181 182
0.451306 -0.427294 -0.573 152 152 154
0.456763 -0.427294 -0.573 74 87 121
0.46084 -0.42804 -0.574 107 120 155
0.465213 -0.42804 -0.574 149 162 178
0.491453 -0.42804 -0.574 148 149 151
0.493871 -0.427294 -0.573 149 155 153
0.494963 -0.427294 -0.573 165 165 173
0.486703 -0.398211 -0.534 153 115 106
0.47429 -0.384043 -0.515 155 117 104
0.47 -0.372857 -0.5 175 129 106
0.472733 -0.3654 -0.49 173 127 104
0.506526 -0.366891 -0.492 154 112 88
0.521517 -0.373603 -0.501 151 110 88
-0.0278571 -0.336429 -0.45 195 157 121
0.00926 -0.346148 -0.463 177 133 108
0.0183524 -0.351381 -0.47 161 120 102
0.0444629 -0.375305 -0.502 124 99 95
0.05882 -0.388014 -0.519 128 104 104
0.10004 -0.429133 -0.574 58 81 125
0.107693 -0.429133 -0.574 179 179 189
0.110973 -0.429133 -0.574 180 180 190
0.131517 -0.428386 -0.573 199 203 215
0.320304 -0.42689 -0.571 171 188 216
0.33118 -0.42689 -0.571 212 214 227
0.389911 -0.42689 -0.571 92 90 114
0.394262 -0.42689 -0.571 189 192 209
0.398612 -0.42689 -0.571 192 201 218
0.413839 -0.42689 -0.571 147 162 195
0.416743 -0.427638 -0.572 183 194 214
0.428728 -0.427638 -0.572 123 122 128
0.433086 -0.427638 -0.572 178 187 196
0.436354 -0.427638 -0.572 174 189 194
0.487323 -0.428386 -0.573 57 78 123
0.479666 -0.391005 -0.523 152 114 103
0.470821 -0.378295 -0.506 168 125 109
0.470947 -0.369324 -0.494 175 130 107
0.473592 -0.364838 -0.488 175 129 106
0.478995 -0.362595 -0.485 165 121 96
0.483686 -0.363343 -0.486 164 120 95
0.484611 -0.363343 -0.486 164 120 95
-0.0341581 -0.340284 -0.454 190 156 118
-0.0295714 -0.337286 -0.45 192 156 120
-0.02694 -0.336536 -0.449 193 155 119
0.00482952 -0.34553 -0.461 179 135 110
0.03082 -0.36202 -0.483 137 107 99
0.0380314 -0.369515 -0.493 123 99 97
0.0455095 -0.37701 -0.503 124 98 97
0.0509 -0.381508 -0.509 126 102 100
0.0542314 -0.384506 -0.513 127 103 101
0.122786 -0.429477 -0.573 194 196 209
0.130426 -0.429477 -0.573 197 201 213
0.137825 -0.428728 -0.572 116 130 157
0.141093 -0.428728 -0.572 166 177 207
0.150899 -0.428728 -0.572 123 143 178
0.35402 -0.427978 -0.571 210 213 228
0.364896 -0.427978 -0.571 201 204 219
0.394262 -0.427978 -0.571 169 176 204
0.396437 -0.427978 -0.571 192 199 218
0.397525 -0.427978 -0.571 185 194 209
0.404429 -0.427229 -0.57 98 123 164
0.413114 -0.427229 -0.57 151 168 196
0.455966 -0.428728 -0.572 140 158 182
0.457055 -0.428728 -0.572 119 137 161
0.464682 -0.428728 -0.572 131 148 174
0.465771 -0.428728 -0.572 116 133 159
0.495189 -0.428728 -0.572 162 167 171
0.501726 -0.428728 -0.572 140 144 156
0.505199 -0.427978 -0.571 89 99 124
0.476132 -0.387504 -0.517 144 111 96
0.470961 -0.374012 -0.499 172 125 105
0.486463 -0.364269 -0.486 160 115 92
0.506431 -0.368016 -0.491 154 112 88
0.520386 -0.374012 -0.499 148 106 84
-0.0322143 -0.338894 -0.451 194 156 120
-0.0167514 -0.338894 -0.451 194 153 121
-0.00906 -0.340397 -0.453 188 147 117
0.00043619 -0.344154 -0.458 183 139 112
0.00748 -0.34716 -0.462 176 132 107
0.00926 -0.347911 -0.463 173 131 109
0.0156 -0.351669 -0.468 164 123 103
0.0359333 -0.3682 -0.49 123 99 95
0.04118 -0.37346 -0.497 124 98 97
0.0673867 -0.39976 -0.532 116 100 100
0.0945733 -0.43132 -0.574 109 123 158
0.136735 -0.429817 -0.572 121 138 168
0.200666 -0.429066 -0.571 190 198 219
0.326257 -0.428314 -0.57 194 205 235
0.357743 -0.428314 -0.57 188 191 210
0.403343 -0.428314 -0.57 108 136 176
0.488885 -0.429066 -0.571 144 141 148
0.492148 -0.429066 -0.571 167 168 173
0.506486 -0.428314 -0.57 108 120 144
0.508849 -0.427563 -0.569 87 83 84
0.474403 -0.385483 -0.513 153 120 105
0.470966 -0.374211 -0.498 170 125 104
0.47281 -0.370454 -0.493 172 127 106
0.474522 -0.366697 -0.488 177 132 109
0.478995 -0.364443 -0.485 169 124 101
0.5183 -0.37346 -0.497 145 103 81
-0.0481867 -0.418853 -0.556 185 149 115
-0.0158924 -0.339753 -0.451 194 153 121
-0.00130571 -0.344273 -0.457 181 137 110
0.00748 -0.34804 -0.462 174 130 105
0.0318057 -0.364613 -0.484 132 105 96
0.0369419 -0.369887 -0.491 123 98 93
0.0422962 -0.375913 -0.499 124 99 95
0.0574971 -0.38872 -0.516 126 101 104
0.0647457 -0.397007 -0.527 119 100 96
0.065999 -0.398513 -0.529 119 100 96
0.105139 -0.430907 -0.572 144 153 184
0.108408 -0.430907 -0.572 179 182 201
0.109497 -0.430907 -0.572 186 185 201
0.112963 -0.43166 -0.573 185 183 197
0.363171 -0.4294 -0.57 171 176 180
0.399 -0.4294 -0.57 177 188 206
0.401551 -0.428647 -0.569 167 182 213
0.402635 -0.428647 -0.569 116 144 183
0.435591 -0.430153 -0.571 184 187 194
0.456256 -0.430153 -0.571 166 175 184
0.464957 -0.430153 -0.571 75 96 141
0.501936 -0.430153 -0.571 116 127 149
0.484251 -0.39776 -0.528 142 114 103
0.4719 -0.3729 -0.495 177 130 110
0.471888 -0.372147 -0.494 177 130 110
0.476332 -0.366873 -0.487 169 123 100
0.486386 -0.365367 -0.485 164 118 95
0.48924 -0.36612 -0.486 161 115 91
0.491091 -0.36612 -0.486 162 116 92
0.495812 -0.366873 -0.487 161 116 93
-0.02944 -0.338347 -0.448 193 157 123
-0.0209533 -0.339102 -0.449 192 153 120
0.0137581 -0.351941 -0.466 163 120 101
0.0348571 -0.368556 -0.488 127 100 91
0.0466524 -0.381395 -0.505 123 100 94
0.0498324 -0.383661 -0.508 126 103 97
0.0756762 -0.41387 -0.548 121 120 138
0.07728 -0.416891 -0.552 121 120 138
0.131058 -0.431241 -0.571 196 198 213
0.139759 -0.431241 -0.571 193 205 227
0.140847 -0.431241 -0.571 205 208 223
0.141934 -0.431241 -0.571 200 203 218
0.199229 -0.430486 -0.57 218 225 241
0.392881 -0.42973 -0.569 58 77 117
0.405173 -0.428975 -0.568 69 110 164
0.462782 -0.431241 -0.571 41 61 111
0.464957 -0.431241 -0.571 55 80 136
0.466045 -0.431241 -0.571 64 93 149
0.476086 -0.430486 -0.57 58 89 144
0.477171 -0.430486 -0.57 60 100 152
0.478257 -0.430486 -0.57 49 89 141
0.483447 -0.431241 -0.571 39 68 124
0.484771 -0.430486 -0.57 127 149 188
0.509036 -0.428975 -0.568 132 133 138
0.470957 -0.373843 -0.495 172 129 110
0.471888 -0.373088 -0.494 174 129 108
0.475451 -0.368556 -0.488 179 133 110
0.478995 -0.36629 -0.485 177 131 108
0.485462 -0.36629 -0.485 167 121 98
0.497668 -0.367801 -0.487 162 117 94
0.522189 -0.376109 -0.498 146 109 83
1.0268 -0.425199 -0.563 159 160 154
-0.0293743 -0.338443 -0.447 192 156 122
0.00218095 -0.346771 -0.458 175 134 106
0.0422962 -0.377814 -0.499 123 98 91
0.0742238 -0.412643 -0.545 122 107 110
0.118007 -0.432329 -0.571 176 178 193
0.122357 -0.432329 -0.571 190 192 207
0.126708 -0.432329 -0.571 197 196 212
0.1406 -0.431571 -0.57 207 209 222
0.36687 -0.430814 -0.569 191 193 192
0.375962 -0.430057 -0.568 200 207 213
0.387863 -0.430057 -0.568 203 203 211
0.39219 -0.430057 -0.568 81 98 126
0.4674 -0.431571 -0.57 48 83 139
0.468486 -0.431571 -0.57 48 83 139
0.478257 -0.431571 -0.57 30 67 122
0.493457 -0.431571 -0.57 170 169 175
0.494543 -0.431571 -0.57 166 166 174
0.498886 -0.431571 -0.57 130 136 148
0.50343 -0.430814 -0.569 104 112 125
0.505597 -0.430814 -0.569 138 146 157
0.475451 -0.369486 -0.488 177 130 110
0.476332 -0.368729 -0.487 171 124 104
0.491091 -0.367971 -0.486 163 117 94
0.492943 -0.367971 -0.486 164 118 95
0.516112 -0.374029 -0.494 150 110 85
1.01072 -0.426271 -0.563 172 173 165
1.01286 -0.426271 -0.563 166 167 159
1.02037 -0.426271 -0.563 139 140 134
-0.0358086 -0.343849 -0.453 190 154 120
-0.02176 -0.340053 -0.448 194 153 121
-0.0115971 -0.34233 -0.451 186 145 115
0.00569524 -0.349162 -0.46 174 130 103
0.0192476 -0.356752 -0.47 154 115 100
0.0348571 -0.370415 -0.488 127 100 91
0.03586 -0.371174 -0.489 126 99 92
0.0585933 -0.392428 -0.517 119 99 98
0.0621429 -0.396223 -0.522 116 98 94
0.115629 -0.432657 -0.57 182 181 199
0.12562 -0.433416 -0.571 194 195 213
0.135171 -0.432657 -0.57 150 161 181
0.357115 -0.431898 -0.569 85 104 146
0.368389 -0.431139 -0.568 209 212 221
0.386781 -0.431139 -0.568 202 205 212
0.4023 -0.43038 -0.567 70 106 158
0.426811 -0.431139 -0.568 147 151 152
0.434066 -0.431898 -0.569 160 162 183
0.451114 -0.432657 -0.57 170 171 173
0.480429 -0.432657 -0.57 36 69 120
0.494759 -0.431898 -0.569 171 171 179
0.487095 -0.402295 -0.53 143 115 103
0.480809 -0.395464 -0.521 151 115 103
0.484461 -0.367379 -0.484 168 121 101
0.494794 -0.368897 -0.486 165 119 96
0.49572 -0.368897 -0.486 165 119 96
0.496646 -0.368897 -0.486 165 119 95
1.01216 -0.428862 -0.565 147 148 140
1.01718 -0.429621 -0.566 136 137 129
-0.0200533 -0.340907 -0.448 193 152 120
-0.00733429 -0.344711 -0.453 183 142 112
0.00924 -0.35156 -0.462 171 125 101
0.0110238 -0.352321 -0.463 167 122 99
0.0183133 -0.356887 -0.469 154 117 101
0.0220267 -0.35917 -0.472 148 112 100
0.0307562 -0.366779 -0.482 132 102 91
0.0476143 -0.384281 -0.505 123 100 94
0.0519714 -0.388086 -0.51 125 101 97
0.0598086 -0.394934 -0.519 118 100 96
0.116714 -0.433743 -0.57 173 174 194
0.130599 -0.432982 -0.569 196 202 218
0.141437 -0.432982 -0.569 202 207 226
0.34506 -0.43146 -0.567 176 196 231
0.35154 -0.43146 -0.567 209 216 235
0.3591 -0.43146 -0.567 214 217 226
0.361897 -0.432221 -0.568 203 214 218
0.3699 -0.43146 -0.567 207 214 224
0.38286 -0.43146 -0.567 187 195 198
0.39474 -0.43146 -0.567 94 117 161
0.41634 -0.43146 -0.567 106 134 182
0.424648 -0.432221 -0.568 183 192 191
0.428975 -0.432221 -0.568 180 185 189
0.434385 -0.432221 -0.568 161 165 192
0.458993 -0.432982 -0.569 126 138 162
0.479586 -0.432982 -0.569 53 85 134
0.481753 -0.432982 -0.569 41 65 111
0.485005 -0.432982 -0.569 126 130 141
0.496053 -0.432221 -0.568 165 169 180
0.504709 -0.432221 -0.568 156 161 164
0.482654 -0.397978 -0.523 146 115 97
0.479951 -0.394934 -0.519 147 116 98
0.4728 -0.38352 -0.504 167 125 101
0.4727 -0.372106 -0.489 169 127 103
0.478131 -0.369823 -0.486 172 127 106
0.48731 -0.369062 -0.485 164 118 95
0.503233 -0.370584 -0.487 156 114 90
0.516946 -0.37515 -0.493 150 110 85
0.519986 -0.376671 -0.495 150 110 85
0.984303 -0.427655 -0.562 151 152 144
0.994633 -0.428416 -0.563 160 162 151
1.0197 -0.432221 -0.568 109 110 105
-0.0355714 -0.343286 -0.45 190 151 118
-0.0174933 -0.34176 -0.448 192 151 121
-0.00902 -0.344049 -0.451 186 145 115
-0.00474571 -0.345574 -0.453 181 138 106
0.00393429 -0.350151 -0.459 175 131 106
0.00746381 -0.351677 -0.461 170 125 102
0.0277695 -0.364646 -0.478 139 107 94
0.02874 -0.365409 -0.479 138 106 93
0.045419 -0.382954 -0.502 125 102 96
0.0541257 -0.390583 -0.512 122 101 96
0.0552086 -0.391346 -0.513 123 102 97
0.0758143 -0.418809 -0.549 124 122 146
0.0906571 -0.434829 -0.57 83 101 139
0.0991686 -0.434066 -0.569 162 163 181
0.121929 -0.434066 -0.569 167 173 205
0.13385 -0.434066 -0.569 195 200 220
0.142521 -0.434066 -0.569 208 210 225
0.33426 -0.43254 -0.567 211 213 228
0.33534 -0.43254 -0.567 201 203 218
0.34938 -0.43254 -0.567 184 197 231
0.35478 -0.43254 -0.567 89 108 141
0.36666 -0.43254 -0.567 179 183 186
0.3699 -0.43254 -0.567 206 213 223
0.411293 -0.431777 -0.566 53 89 149
0.4239 -0.43254 -0.567 123 123 121
0.447368 -0.433303 -0.568 182 185 194
0.44845 -0.433303 -0.568 163 164 169
0.458993 -0.434066 -0.569 149 154 176
0.487398 -0.433303 -0.568 166 165 173
0.497135 -0.433303 -0.568 166 169 176
0.507244 -0.431777 -0.566 155 158 165
0.50155 -0.418046 -0.548 135 108 101
0.481801 -0.397449 -0.521 148 116 101
0.472863 -0.379903 -0.498 168 127 107
0.480843 -0.369986 -0.485 172 127 104
0.982162 -0.428726 -0.562 122 124 119
-0.0344829 -0.341849 -0.447 191 153 117
-0.0200086 -0.341849 -0.447 193 152 120
-0.01408 -0.342613 -0.448 189 148 118
-0.0107143 -0.344143 -0.45 188 147 117
-0.00645714 -0.345672 -0.452 179 138 108
0.00746381 -0.352555 -0.461 170 125 104
0.0155333 -0.356379 -0.466 159 118 100
0.0476143 -0.386205 -0.505 123 100 94
0.0758143 -0.419854 -0.549 121 121 149
0.0904981 -0.43515 -0.569 75 94 134
0.0980848 -0.43515 -0.569 165 169 181
0.10242 -0.43515 -0.569 166 168 189
0.112174 -0.43515 -0.569 180 181 201
0.118677 -0.43515 -0.569 88 111 153
0.336905 -0.432855 -0.566 173 186 220
0.351998 -0.432855 -0.566 138 158 193
0.35478 -0.43362 -0.567 111 129 165
0.35694 -0.43362 -0.567 203 212 229
0.3645 -0.43362 -0.567 201 210 209
0.381107 -0.432855 -0.566 205 207 219
0.43794 -0.43362 -0.567 124 137 154
0.450613 -0.434385 -0.568 148 147 152
0.457105 -0.434385 -0.568 155 163 186
0.463596 -0.434385 -0.568 93 127 173
0.477661 -0.434385 -0.568 109 138 178
0.487398 -0.434385 -0.568 160 163 178
0.497135 -0.434385 -0.568 169 172 181
0.472862 -0.381616 -0.499 170 128 106
0.473667 -0.374733 -0.49 174 130 105
0.480843 -0.37091 -0.485 172 128 103
0.487227 -0.370145 -0.484 166 120 96
0.491836 -0.370145 -0.484 168 122 98
0.496548 -0.37091 -0.485 164 120 95
0.519876 -0.377792 -0.494 149 109 83
0.587002 -0.41603 -0.544 199 181 169
0.948662 -0.43209 -0.565 187 187 175
0.950494 -0.429031 -0.561 176 174 161
0.957974 -0.429031 -0.561 156 157 149
-0.0309381 -0.341167 -0.445 197 159 123
-0.0250048 -0.341167 -0.445 189 150 117
-0.0216629 -0.341933 -0.446 190 149 117
-0.0191143 -0.341933 -0.446 195 154 122
0.0347857 -0.373367 -0.487 126 98 94
0.0464676 -0.385633 -0.503 124 99 94
0.05402 -0.391767 -0.511 124 101 95
0.0621429 -0.4002 -0.522 117 96 93
0.0925029 -0.435467 -0.568 101 114 149
0.109813 -0.435467 -0.568 139 148 181
0.14227 -0.435467 -0.568 204 206 221
0.329358 -0.433933 -0.566 129 143 172
0.332592 -0.433933 -0.566 186 201 242
0.344451 -0.433933 -0.566 146 178 229
0.346608 -0.433933 -0.566 124 148 192
0.353076 -0.433933 -0.566 112 136 174
0.407338 -0.433167 -0.565 32 70 133
0.417762 -0.433933 -0.566 185 195 204
0.42423 -0.433933 -0.566 172 176 179
0.43146 -0.4347 -0.567 188 188 190
0.4347 -0.4347 -0.567 174 182 195
0.44118 -0.4347 -0.567 180 184 195
0.47466 -0.4347 -0.567 47 85 134
0.47682 -0.4347 -0.567 120 149 181
0.4747 -0.387167 -0.505 163 122 100
0.480843 -0.371833 -0.485 173 127 103
0.484461 -0.371067 -0.484 167 121 97
0.488149 -0.371067 -0.484 165 119 95
0.489992 -0.371067 -0.484 167 121 97
0.496446 -0.371067 -0.484 165 119 95
0.509844 -0.374133 -0.488 157 114 82
0.517771 -0.3772 -0.492 152 111 81
0.582686 -0.414 -0.54 168 146 132
0.894929 -0.4301 -0.561 201 205 188
0.952354 -0.4324 -0.564 154 156 145
0.952811 -0.431633 -0.563 146 148 137
-0.0372029 -0.345089 -0.449 189 150 117
-0.009 -0.345857 -0.45 183 142 114
-0.0073019 -0.346626 -0.451 179 138 110
-0.00473524 -0.347394 -0.452 177 133 106
-0.00129714 -0.348931 -0.454 175 131 104
0.0267467 -0.36584 -0.476 141 107 97
0.03266 -0.37122 -0.483 129 100 94
0.0685286 -0.409649 -0.533 113 93 92
0.0727829 -0.416566 -0.542 116 112 126
0.10224 -0.436549 -0.568 173 172 188
0.1269 -0.43578 -0.567 98 119 162
0.13662 -0.43578 -0.567 206 205 219
0.229095 -0.435011 -0.566 199 210 232
0.236642 -0.435011 -0.566 221 227 241
0.33631 -0.434243 -0.565 128 159 206
0.376129 -0.434243 -0.565 175 192 208
0.383662 -0.434243 -0.565 195 199 200
0.394424 -0.434243 -0.565 86 110 154
0.420252 -0.434243 -0.565 150 148 162
0.43609 -0.435011 -0.566 178 182 191
0.44226 -0.43578 -0.567 182 185 192
0.44766 -0.43578 -0.567 182 183 188
0.45738 -0.43578 -0.567 86 97 125
0.46062 -0.43578 -0.567 162 179 205
0.4617 -0.43578 -0.567 151 168 194
0.5085 -0.434243 -0.565 155 152 161
0.47564 -0.388897 -0.506 162 122 97
0.473807 -0.38198 -0.497 169 127 102
0.47628 -0.373526 -0.486 175 130 107
0.962594 -0.439623 -0.572 127 127 115
0.970551 -0.437317 -0.569 114 114 102
-0.0501629 -0.418369 -0.543 190 151 120
-0.0381429 -0.346714 -0.45 188 149 118
-0.0343286 -0.342862 -0.445 192 151 121
0.0047981 -0.352878 -0.458 171 127 102
0.0357867 -0.375992 -0.488 125 100 95
0.0464676 -0.38755 -0.503 125 100 95
0.0756762 -0.422221 -0.548 93 97 132
0.091421 -0.43763 -0.568 67 80 114
0.09666 -0.43686 -0.567 162 167 186
0.1053 -0.43686 -0.567 155 156 174
0.1161 -0.43686 -0.567 140 152 174
0.14202 -0.43686 -0.567 207 206 220
0.146082 -0.43609 -0.566 115 143 180
0.384057 -0.434549 -0.564 214 215 219
0.404469 -0.434549 -0.564 54 100 159
0.442558 -0.43609 -0.566 189 189 197
0.452261 -0.43609 -0.566 156 156 166
0.455495 -0.43609 -0.566 111 125 154
0.466276 -0.43609 -0.566 65 105 157
0.468432 -0.43609 -0.566 69 109 161
0.473823 -0.43609 -0.566 67 105 152
0.483526 -0.43609 -0.566 85 89 114
0.502931 -0.43609 -0.566 156 157 162
0.503119 -0.435319 -0.565 159 158 166
0.484714 -0.402189 -0.522 139 112 101
0.474563 -0.376763 -0.489 172 127 104
0.476381 -0.375992 -0.488 177 132 109
0.478995 -0.373681 -0.485 175 129 105
0.48907 -0.37291 -0.484 167 121 97
0.512632 -0.375992 -0.488 159 112 84
0.900789 -0.434549 -0.564 186 188 175
-0.0390867 -0.348344 -0.451 191 152 121
-0.0361048 -0.344482 -0.446 188 149 118
-0.02072 -0.342937 -0.444 193 152 122
-0.0190714 -0.34371 -0.445 193 152 122
-0.000432381 -0.350661 -0.454 173 129 104
0.000432381 -0.350661 -0.454 174 130 105
0.0013 -0.351433 -0.455 174 130 105
0.00655714 -0.354523 -0.459 165 123 101
0.0092 -0.355295 -0.46 164 123 105
0.011 -0.35684 -0.462 163 120 103
0.0127876 -0.357612 -0.463 160 119 101
0.0155 -0.359157 -0.465 150 111 96
0.0201 -0.362247 -0.469 143 107 93
0.0296524 -0.36997 -0.479 132 102 92
0.0529429 -0.393914 -0.51 124 101 95
0.0685286 -0.411679 -0.533 114 94 93
0.0964895 -0.437168 -0.566 165 170 190
0.120208 -0.437168 -0.566 118 136 174
0.121286 -0.437168 -0.566 155 173 211
0.133145 -0.437168 -0.566 200 203 220
0.195329 -0.436395 -0.565 156 164 183
0.33464 -0.435623 -0.564 87 123 181
0.347531 -0.435623 -0.564 75 113 175
0.375463 -0.435623 -0.564 190 202 214
0.389429 -0.435623 -0.564 200 197 206
0.429177 -0.435623 -0.564 191 193 205
0.433474 -0.435623 -0.564 193 193 201
0.437471 -0.436395 -0.565 192 192 200
0.456573 -0.437168 -0.566 83 98 127
0.457651 -0.437168 -0.566 119 127 148
0.462224 -0.436395 -0.565 150 163 180
0.4633 -0.436395 -0.565 121 147 182
0.468681 -0.436395 -0.565 69 107 154
0.475979 -0.437168 -0.566 107 133 156
0.4859 -0.436395 -0.565 65 82 112
0.47568 -0.38928 -0.504 166 122 97
0.475451 -0.376922 -0.488 175 131 106
0.476332 -0.37615 -0.487 175 131 106
0.478995 -0.374605 -0.485 175 129 105
0.479919 -0.374605 -0.485 174 128 104
0.485383 -0.373832 -0.484 169 123 97
0.48907 -0.373832 -0.484 168 121 95
0.496446 -0.373832 -0.484 163 117 91
0.886889 -0.434078 -0.562 194 195 181
-0.030799 -0.343009 -0.443 197 158 125
-0.0190714 -0.344557 -0.445 196 152 123
-0.0182238 -0.344557 -0.445 195 151 122
0.00567048 -0.354623 -0.458 165 123 101
0.02198 -0.364689 -0.471 143 109 97
0.03266 -0.37398 -0.483 130 102 91
0.05402 -0.39566 -0.511 123 100 94
0.0997238 -0.438246 -0.566 165 169 178
0.122364 -0.438246 -0.566 172 187 208
0.143671 -0.437471 -0.565 123 144 175
0.370508 -0.435923 -0.563 182 190 203
0.379087 -0.435923 -0.563 211 215 216
0.384449 -0.435923 -0.563 217 221 224
0.393028 -0.435923 -0.563 128 144 177
0.429177 -0.436697 -0.564 197 201 213
0.437771 -0.436697 -0.564 193 194 199
0.457919 -0.437471 -0.565 171 177 191
0.500967 -0.437471 -0.565 129 133 142
0.505451 -0.436697 -0.564 152 155 164
0.506526 -0.436697 -0.564 153 153 165
0.5018 -0.42276 -0.546 121 107 96
0.47933 -0.396434 -0.512 150 115 96
0.473786 -0.383271 -0.495 170 129 101
0.47375 -0.381723 -0.493 172 128 101
0.479851 -0.374754 -0.484 173 127 103
0.481695 -0.374754 -0.484 176 130 104
0.500133 -0.374754 -0.484 160 114 88
0.50868 -0.376303 -0.486 159 113 89
0.511582 -0.377077 -0.487 159 113 87
0.513562 -0.377851 -0.488 159 115 88
0.877831 -0.434374 -0.561 189 189 179
-0.0359429 -0.344629 -0.444 193 154 123
-0.0257362 -0.343852 -0.443 192 151 119
-0.0198743 -0.344629 -0.444 194 150 121
-0.0164914 -0.344629 -0.444 192 149 117
0.0257314 -0.367914 -0.474 139 106 91
0.0266905 -0.36869 -0.475 139 106 91
0.0900209 -0.439324 -0.566 73 87 124
0.118919 -0.438548 -0.565 99 125 160
0.370508 -0.436995 -0.563 195 204 213
0.379087 -0.436995 -0.563 217 223 221
0.383376 -0.436995 -0.563 211 217 217
0.42091 -0.436995 -0.563 180 191 213
0.445291 -0.437771 -0.564 192 193 197
0.446366 -0.437771 -0.564 193 194 198
0.487189 -0.437771 -0.564 56 72 98
0.500077 -0.421471 -0.543 125 102 94
0.479851 -0.375676 -0.484 174 128 104
0.49174 -0.3749 -0.483 169 123 97
0.505786 -0.376452 -0.485 157 111 85
0.510531 -0.377229 -0.486 157 113 86
0.513437 -0.378005 -0.487 158 114 89
0.515421 -0.378781 -0.488 159 114 91
0.864409 -0.436219 -0.562 187 189 176
0.86655 -0.436219 -0.562 185 187 174
-0.0256781 -0.343918 -0.442 192 151 119
-0.0239943 -0.343918 -0.442 194 153 121
-0.0232048 -0.344696 -0.443 194 153 121
-0.0139857 -0.346252 -0.445 189 146 114
-0.0114943 -0.347809 -0.447 184 141 109
-0.00558381 -0.350921 -0.451 178 137 107
-0.00129429 -0.352477 -0.453 172 128 103
0.0219333 -0.365705 -0.47 140 106 94
0.0237743 -0.366483 -0.471 139 106 89
0.0295905 -0.37193 -0.478 135 103 90
0.0306286 -0.373486 -0.48 135 103 90
0.0357133 -0.378932 -0.487 126 100 87
0.0452381 -0.389048 -0.5 126 99 90
0.0495381 -0.392938 -0.505 124 99 92
0.114614 -0.439624 -0.565 165 172 190
0.123224 -0.439624 -0.565 183 188 210
0.363001 -0.438068 -0.563 222 221 229
0.363427 -0.43729 -0.562 220 219 227
0.37199 -0.43729 -0.562 216 216 226
0.373061 -0.43729 -0.562 221 221 231
0.391259 -0.43729 -0.562 135 150 173
0.413739 -0.43729 -0.562 168 172 181
0.423373 -0.43729 -0.562 189 199 226
0.429796 -0.43729 -0.562 199 201 213
0.464629 -0.438846 -0.564 87 111 147
0.46595 -0.438068 -0.563 98 126 165
0.468926 -0.438846 -0.564 108 136 175
0.48504 -0.438846 -0.564 159 161 176
0.509011 -0.43729 -0.562 72 87 110
0.509174 -0.436511 -0.561 58 73 96
0.483026 -0.402275 -0.517 146 112 100
0.481202 -0.399941 -0.514 148 114 102
0.484461 -0.376598 -0.484 170 124 98
0.49082 -0.37582 -0.483 167 119 96
0.49818 -0.37582 -0.483 168 121 95
0.504743 -0.376598 -0.484 158 112 86
0.844267 -0.435733 -0.56 187 189 176
-0.0367057 -0.34554 -0.443 193 154 123
-0.0215171 -0.34554 -0.443 193 152 120
-0.0206733 -0.34554 -0.443 195 152 120
-0.0148 -0.34632 -0.444 190 147 115
-0.00896 -0.34944 -0.448 181 137 108
0.0154667 -0.36192 -0.464 150 111 96
0.0305648 -0.37362 -0.479 134 102 87
0.0316086 -0.37518 -0.481 133 104 90
0.0430733 -0.38766 -0.497 126 99 88
0.0595781 -0.40326 -0.517 122 97 93
0.0671333 -0.4134 -0.53 116 95 92
0.102594 -0.43992 -0.564 161 167 189
0.123006 -0.43992 -0.564 187 190 209
0.193565 -0.43914 -0.563 217 224 240
0.329171 -0.43836 -0.562 149 163 190
0.353792 -0.43836 -0.562 189 197 216
0.420483 -0.43758 -0.561 136 150 177
0.449864 -0.43914 -0.563 69 90 119
0.467022 -0.43914 -0.563 121 149 188
0.48847 -0.43914 -0.563 98 113 132
0.494904 -0.43914 -0.563 136 141 160
0.495976 -0.43914 -0.563 139 144 163
0.50687 -0.43836 -0.562 97 113 147
0.500189 -0.42276 -0.542 117 102 95
0.527404 -0.38532 -0.494 150 108 83
0.826371 -0.43524 -0.558 198 200 187
0.842569 -0.43758 -0.561 177 177 167
0.858891 -0.43992 -0.564 161 161 151
-0.0548 -0.428484 -0.548 186 150 118
-0.0366229 -0.345602 -0.442 193 154 123
-0.035781 -0.345602 -0.442 195 156 125
0.00129429 -0.354203 -0.453 168 126 104
0.00918 -0.358894 -0.459 160 119 101
0.01364 -0.36124 -0.462 151 112 95
0.0181962 -0.364368 -0.466 142 108 96
0.0451476 -0.39017 -0.499 126 99 90
0.0875543 -0.440994 -0.564 79 95 131
0.10152 -0.440994 -0.564 142 149 167
0.104743 -0.440994 -0.564 149 155 181
0.105817 -0.440994 -0.564 167 173 199
0.111189 -0.440994 -0.564 171 179 190
0.11656 -0.440994 -0.564 96 103 121
0.134823 -0.440994 -0.564 190 192 215
0.329171 -0.43943 -0.562 143 159 185
0.376671 -0.438649 -0.561 220 223 232
0.384151 -0.438649 -0.561 204 212 233
0.436219 -0.43943 -0.562 156 160 172
0.440501 -0.43943 -0.562 194 194 202
0.460588 -0.440212 -0.563 147 154 172
0.492954 -0.43943 -0.562 114 127 159
0.477568 -0.395644 -0.506 154 119 97
0.4756 -0.384697 -0.492 172 128 103
0.490722 -0.376878 -0.482 171 121 94
0.501739 -0.376878 -0.482 164 118 92
0.823593 -0.437085 -0.559 191 193 182
0.835089 -0.438649 -0.561 185 187 174
0.841283 -0.440212 -0.563 160 162 151
0.849862 -0.440212 -0.563 142 142 132
-0.0546 -0.42796 -0.546 186 150 118
-0.0413867 -0.351147 -0.448 192 153 122
-0.0331048 -0.344876 -0.44 198 157 127
-0.0322667 -0.344876 -0.44 197 156 126
-0.0297524 -0.344876 -0.44 194 153 121
-0.02394 -0.34566 -0.441 194 150 121
-0.0147667 -0.347228 -0.443 187 146 118
-0.00892 -0.349579 -0.446 179 134 111
-0.003 -0.352714 -0.45 171 129 104
0.00215714 -0.355066 -0.453 165 122 103
0.00476667 -0.356633 -0.455 160 119 99
0.00652857 -0.358201 -0.457 159 118 98
0.0345714 -0.379364 -0.484 128 100 89
0.0991952 -0.441285 -0.563 157 164 182
0.119783 -0.442069 -0.564 155 155 165
0.185728 -0.440501 -0.562 225 226 230
0.19108 -0.440501 -0.562 222 224 236
0.379877 -0.439717 -0.561 223 222 227
0.384151 -0.439717 -0.561 175 191 217
0.391631 -0.439717 -0.561 165 178 194
0.413333 -0.438933 -0.56 204 206 218
0.432237 -0.439717 -0.561 196 200 212
0.468333 -0.440501 -0.562 146 165 198
0.472615 -0.440501 -0.562 105 124 154
0.476897 -0.440501 -0.562 166 169 184
0.481179 -0.440501 -0.562 175 175 185
0.492954 -0.440501 -0.562 89 111 150
0.498307 -0.440501 -0.562 146 162 187
0.505067 -0.438933 -0.56 63 85 134
0.476667 -0.391905 -0.5 166 122 97
0.476657 -0.390337 -0.498 170 124 100
0.485383 -0.379364 -0.484 176 129 99
0.494285 -0.377012 -0.481 170 123 95
0.49795 -0.377012 -0.481 168 123 94
0.502657 -0.377796 -0.482 162 117 88
0.518075 -0.381715 -0.487 157 112 83
0.794486 -0.437366 -0.558 200 200 190
0.805492 -0.43815 -0.559 194 194 182
0.8272 -0.438933 -0.56 172 174 163
0.850729 -0.442852 -0.565 121 121 113
0.862819 -0.445204 -0.568 122 122 112
-0.0189429 -0.347286 -0.442 193 149 120
-0.00214286 -0.353571 -0.45 171 129 105
0.00302 -0.355929 -0.453 162 121 101
0.0154333 -0.363786 -0.463 150 111 94
0.0163505 -0.364571 -0.464 147 110 94
0.0209486 -0.367714 -0.468 142 110 97
0.0315429 -0.377143 -0.48 133 101 90
0.0335105 -0.378714 -0.482 131 101 93
0.0345714 -0.380286 -0.484 130 100 92
0.0376457 -0.383429 -0.488 127 97 89
0.0538086 -0.399929 -0.509 121 96 91
0.0884714 -0.442357 -0.563 88 101 136
0.0895438 -0.442357 -0.563 97 110 145
0.108847 -0.442357 -0.563 179 181 196
0.126005 -0.442357 -0.563 192 196 208
0.133274 -0.441571 -0.562 108 123 164
0.140768 -0.441571 -0.562 177 177 189
0.141838 -0.441571 -0.562 146 146 158
0.154684 -0.441571 -0.562 171 188 214
0.3568 -0.44 -0.56 198 209 231
0.364267 -0.44 -0.56 219 221 233
0.371733 -0.44 -0.56 219 219 229
0.405867 -0.44 -0.56 111 145 180
0.4112 -0.44 -0.56 193 199 211
0.429333 -0.44 -0.56 191 194 209
0.467263 -0.441571 -0.562 153 170 198
0.476049 -0.440786 -0.561 145 152 168
0.486531 -0.441571 -0.562 177 175 180
0.508424 -0.439214 -0.559 78 85 111
0.492297 -0.414857 -0.528 131 106 99
0.481313 -0.4015 -0.511 141 113 91
0.476657 -0.391286 -0.498 171 125 99
0.475494 -0.384214 -0.489 177 130 104
0.484461 -0.380286 -0.484 172 125 97
0.493369 -0.377929 -0.481 169 122 94
0.792715 -0.439214 -0.559 193 193 185
0.803733 -0.44 -0.56 186 186 178
0.86217 -0.447071 -0.569 122 122 114
-0.040081 -0.348915 -0.443 192 153 122
-0.03738 -0.34734 -0.441 196 157 124
-0.0230476 -0.346552 -0.44 192 151 119
-0.0155752 -0.348128 -0.442 184 143 113
-0.00807048 -0.351278 -0.446 178 133 112
0.00826952 -0.359942 -0.457 159 116 99
0.0136105 -0.363092 -0.461 152 110 94
0.0285 -0.374119 -0.475 135 103 90
0.0314771 -0.37727 -0.479 131 101 91
0.0325248 -0.378845 -0.481 131 101 91
0.0461905 -0.39381 -0.5 124 97 88
0.06068 -0.407987 -0.518 114 95 88
0.0863267 -0.44343 -0.563 86 102 136
0.0958076 -0.442642 -0.562 163 167 178
0.12257 -0.442642 -0.562 200 198 199
0.12471 -0.442642 -0.562 194 199 205
0.227071 -0.441854 -0.561 214 220 246
0.333333 -0.441067 -0.56 190 200 210
0.3792 -0.441067 -0.56 221 218 225
0.3888 -0.441067 -0.56 205 216 236
0.452276 -0.442642 -0.562 200 198 201
0.454417 -0.442642 -0.562 189 190 195
0.466192 -0.442642 -0.562 146 169 203
0.467263 -0.442642 -0.562 157 173 199
0.477117 -0.441854 -0.561 133 142 159
0.484597 -0.441854 -0.561 185 184 189
0.487803 -0.441854 -0.561 143 147 159
0.494214 -0.441854 -0.561 74 102 149
0.501867 -0.441067 -0.56 63 87 135
0.492222 -0.41665 -0.529 130 105 98
0.476647 -0.391447 -0.497 170 124 100
0.476632 -0.390659 -0.496 171 125 101
0.476614 -0.389871 -0.495 171 125 101
0.476332 -0.38357 -0.487 176 129 103
0.500698 -0.378845 -0.481 162 115 85
0.532243 -0.389871 -0.495 147 101 77
0.788109 -0.439491 -0.558 175 174 169
0.835257 -0.444217 -0.564 119 120 114
0.867376 -0.44973 -0.571 121 121 113
-0.0246676 -0.346601 -0.439 192 153 120
-0.0230476 -0.34739 -0.44 190 151 120
-0.00638571 -0.352917 -0.447 175 130 109
-0.0021381 -0.354496 -0.449 170 128 106
0.00128857 -0.356075 -0.451 165 123 101
0.00389143 -0.358444 -0.454 163 120 101
0.0237238 -0.371076 -0.47 139 105 95
0.0365657 -0.383709 -0.486 127 98 90
0.0895438 -0.444502 -0.563 104 119 152
0.390235 -0.441344 -0.559 224 222 233
0.395559 -0.441344 -0.559 151 178 208
0.412595 -0.441344 -0.559 214 222 235
0.417919 -0.441344 -0.559 212 210 223
0.457629 -0.443712 -0.562 192 195 202
0.478186 -0.442923 -0.561 155 157 169
0.480323 -0.442923 -0.561 184 184 194
0.504165 -0.441344 -0.559 39 68 112
0.477206 -0.383709 -0.486 170 122 99
0.478995 -0.382919 -0.485 176 129 103
0.48714 -0.38134 -0.483 176 129 103
0.496914 -0.378971 -0.48 168 118 91
0.514884 -0.38213 -0.484 160 115 86
0.812329 -0.444502 -0.563 126 126 118
0.816618 -0.444502 -0.563 119 119 111
0.839297 -0.44687 -0.566 120 119 115
0.848081 -0.449239 -0.569 119 118 114
0.856086 -0.450029 -0.57 118 117 113
-0.0552324 -0.428954 -0.542 189 153 119
-0.044339 -0.357726 -0.452 190 154 120
-0.0355381 -0.347437 -0.439 197 158 125
-0.0188571 -0.348229 -0.44 186 147 116
-0.0089 -0.352186 -0.445 175 134 106
-0.00805238 -0.352186 -0.445 172 131 103
-0.00128286 -0.355351 -0.449 166 124 100
0.00128857 -0.356934 -0.451 166 124 102
0.00302 -0.358517 -0.453 164 122 100
0.0181571 -0.368014 -0.465 150 110 98
0.0237238 -0.371971 -0.47 138 104 95
0.0265781 -0.374346 -0.473 136 102 92
0.0285 -0.375929 -0.475 133 101 90
0.0493419 -0.398089 -0.503 123 98 91
0.0915257 -0.444783 -0.562 130 137 163
0.126626 -0.443991 -0.561 196 196 208
0.406543 -0.441617 -0.558 133 164 195
0.422486 -0.441617 -0.558 121 140 170
0.425372 -0.442409 -0.559 95 124 158
0.431761 -0.442409 -0.559 188 207 240
0.447197 -0.443991 -0.561 162 176 189
0.471774 -0.443991 -0.561 105 131 166
0.4752 -0.4432 -0.56 111 128 148
0.480533 -0.4432 -0.56 181 183 195
0.4816 -0.4432 -0.56 184 183 191
0.489067 -0.4432 -0.56 94 101 127
0.504165 -0.442409 -0.559 38 60 110
0.481369 -0.402837 -0.509 143 111 96
0.476567 -0.390174 -0.493 170 124 100
0.477148 -0.383843 -0.485 172 126 102
0.47893 -0.383051 -0.484 174 128 104
0.497829 -0.379886 -0.48 169 119 92
0.499657 -0.379886 -0.48 170 120 93
0.51092 -0.381469 -0.482 161 115 89
0.79946 -0.445574 -0.563 98 99 94
0.814138 -0.447157 -0.565 121 120 115
0.823824 -0.447157 -0.565 111 110 105
0.8397 -0.44874 -0.567 114 113 109
-0.0560571 -0.4284 -0.54 189 152 123
-0.0428048 -0.353033 -0.445 192 156 122
-0.032879 -0.346687 -0.437 192 153 120
-0.018019 -0.349067 -0.44 183 144 113
-0.01638 -0.34986 -0.441 185 144 112
-0.00298667 -0.355413 -0.448 169 128 106
0.0246714 -0.37366 -0.471 137 104 95
0.0285 -0.376833 -0.475 132 99 90
0.0450571 -0.39508 -0.498 123 99 87
0.0657495 -0.418087 -0.527 109 94 89
0.0892257 -0.44506 -0.561 115 130 163
0.0945686 -0.44506 -0.561 142 148 174
0.10098 -0.44506 -0.561 152 164 190
0.113803 -0.44506 -0.561 186 190 199
0.223068 -0.443473 -0.559 151 170 212
0.36828 -0.44268 -0.558 172 180 203
0.374657 -0.44268 -0.558 199 205 227
0.379971 -0.44268 -0.558 157 168 200
0.39804 -0.44268 -0.558 157 180 212
0.40548 -0.44268 -0.558 138 167 201
0.409731 -0.44268 -0.558 206 209 218
0.41292 -0.44268 -0.558 200 204 207
0.43602 -0.443473 -0.559 166 188 229
0.467733 -0.444267 -0.56 149 175 212
0.472 -0.444267 -0.56 89 118 160
0.48074 -0.443473 -0.559 181 184 189
0.494162 -0.420467 -0.53 134 107 100
0.488748 -0.413327 -0.521 139 103 89
0.484139 -0.407773 -0.514 136 108 97
0.476467 -0.388733 -0.49 171 125 99
0.479851 -0.383973 -0.484 174 128 102
0.489804 -0.382387 -0.482 178 128 101
0.490722 -0.382387 -0.482 177 127 100
0.503314 -0.3808 -0.48 164 117 91
0.827438 -0.449027 -0.566 110 109 105
0.862093 -0.455373 -0.574 126 125 120
0.887411 -0.46172 -0.582 118 117 113
-0.01722 -0.3507 -0.441 183 144 113
-0.00468286 -0.355471 -0.447 170 128 104
0.0109286 -0.365014 -0.459 154 113 93
0.0209038 -0.371376 -0.467 144 108 94
0.02184 -0.372171 -0.468 142 106 92
0.0246714 -0.374557 -0.471 136 104 93
0.0439314 -0.394438 -0.496 122 98 88
0.0504 -0.4008 -0.504 122 97 92
0.0526314 -0.403186 -0.507 119 96 90
0.324703 -0.443743 -0.558 196 208 232
0.387411 -0.443743 -0.558 217 219 231
0.416424 -0.442948 -0.557 209 217 219
0.439214 -0.444538 -0.559 93 125 172
0.448533 -0.445333 -0.56 202 203 207
0.475416 -0.444538 -0.559 90 118 157
0.477546 -0.444538 -0.559 172 185 202
0.493517 -0.444538 -0.559 39 66 121
0.497776 -0.444538 -0.559 38 73 129
0.481409 -0.403186 -0.507 152 114 91
0.47731 -0.388076 -0.488 171 125 99
0.479851 -0.384895 -0.484 170 123 97
0.486305 -0.384895 -0.484 173 126 98
0.48714 -0.3841 -0.483 178 128 101
0.48806 -0.3841 -0.483 179 129 102
0.520567 -0.38569 -0.485 156 112 85
0.816297 -0.451695 -0.568 117 116 111
0.821707 -0.451695 -0.568 115 114 110
0.865786 -0.457262 -0.575 112 113 108
-0.03796 -0.349149 -0.438 193 157 123
-0.0344648 -0.347554 -0.436 193 157 121
-0.0278848 -0.348351 -0.437 194 156 119
-0.0245552 -0.348351 -0.437 190 152 116
-0.01638 -0.35154 -0.441 184 145 114
-0.00805238 -0.354729 -0.445 170 130 105
-0.00637143 -0.355526 -0.446 169 127 103
0.00387429 -0.360309 -0.452 161 120 100
0.00474571 -0.361106 -0.453 161 120 100
0.0100105 -0.364294 -0.457 157 116 96
0.0209038 -0.372266 -0.467 144 108 92
0.02184 -0.373063 -0.468 143 107 93
0.0265781 -0.377049 -0.473 133 103 92
0.02844 -0.377846 -0.474 130 100 90
0.033441 -0.383426 -0.481 129 100 92
0.0364905 -0.386614 -0.485 126 99 90
0.0559667 -0.40734 -0.511 118 93 89
0.0645 -0.4185 -0.525 105 90 87
0.102933 -0.4464 -0.56 175 179 191
0.106133 -0.4464 -0.56 176 178 191
0.121067 -0.4464 -0.56 188 188 196
0.125333 -0.4464 -0.56 198 198 206
0.135757 -0.445603 -0.559 91 110 153
0.354889 -0.444009 -0.557 209 215 239
0.360193 -0.444009 -0.557 189 198 227
0.388839 -0.444009 -0.557 188 190 185
0.416424 -0.444009 -0.557 215 221 219
0.470092 -0.445603 -0.559 81 115 163
0.48074 -0.445603 -0.559 136 137 132
0.490509 -0.444806 -0.558 123 141 177
0.49476 -0.444806 -0.558 28 64 116
0.490564 -0.417703 -0.524 130 100 89
0.486023 -0.411326 -0.516 132 105 96
0.493257 -0.382629 -0.48 176 126 99
0.50409 -0.381831 -0.479 165 118 90
0.51551 -0.384223 -0.482 157 113 86
0.810486 -0.454371 -0.57 105 99 101
0.821343 -0.454371 -0.57 121 120 115
0.848586 -0.456763 -0.573 118 118 116
0.873193 -0.459951 -0.577 98 101 94
0.882567 -0.46314 -0.581 105 106 101
-0.0253876 -0.349184 -0.437 190 155 117
-0.0245552 -0.349184 -0.437 187 152 114
0.0100105 -0.365165 -0.457 155 114 94
0.0144886 -0.368361 -0.461 150 112 93
0.0265781 -0.37795 -0.473 135 103 92
0.0427267 -0.39393 -0.493 125 98 89
0.0933333 -0.447467 -0.56 94 108 143
0.115527 -0.446668 -0.559 131 139 158
0.124045 -0.446668 -0.559 198 198 208
0.188657 -0.445869 -0.558 218 221 236
0.325182 -0.44507 -0.557 220 225 244
0.395554 -0.44427 -0.556 134 169 207
0.406145 -0.44427 -0.556 116 148 189
0.408263 -0.44427 -0.556 173 193 218
0.41144 -0.44427 -0.556 214 219 225
0.416735 -0.44427 -0.556 214 213 218
0.44268 -0.445869 -0.558 98 132 180
0.451991 -0.446668 -0.559 202 203 208
0.45625 -0.446668 -0.559 183 190 198
0.478565 -0.398725 -0.499 160 118 94
0.478995 -0.387538 -0.485 174 127 101
0.479919 -0.387538 -0.485 172 125 99
0.480773 -0.386739 -0.484 173 126 100
0.481695 -0.386739 -0.484 175 125 100
0.4853 -0.38594 -0.483 178 128 101
0.489704 -0.384342 -0.481 180 129 100
0.493257 -0.383543 -0.48 177 127 100
0.495879 -0.382744 -0.479 176 126 99
0.528586 -0.390734 -0.489 151 110 80
0.823871 -0.456256 -0.571 125 124 119
0.830029 -0.455457 -0.57 129 130 125
0.834748 -0.456256 -0.571 123 124 119
0.859611 -0.460251 -0.576 110 112 111
0.864401 -0.46105 -0.577 116 117 112
-0.0319 -0.348414 -0.435 193 155 119
-0.027821 -0.349215 -0.436 192 156 120
-0.0270524 -0.350016 -0.437 192 154 118
-0.0237229 -0.350016 -0.437 190 152 116
-0.0221086 -0.350817 -0.438 189 151 115
0.00473524 -0.36203 -0.452 157 119 96
0.010881 -0.366035 -0.457 153 112 94
0.0217467 -0.373244 -0.466 144 107 91
0.0333714 -0.384457 -0.48 126 97 91
0.0395048 -0.390865 -0.488 124 97 86
0.0437543 -0.39567 -0.494 124 99 92
0.0480952 -0.400476 -0.5 122 97 92
0.0534914 -0.405282 -0.506 117 93 89
0.0942314 -0.447732 -0.559 63 81 119
0.0952962 -0.447732 -0.559 84 99 132
0.113397 -0.447732 -0.559 137 143 167
0.136577 -0.446931 -0.558 75 98 148
0.13764 -0.446931 -0.558 79 104 158
0.358488 -0.44533 -0.556 107 132 172
0.388141 -0.44533 -0.556 192 197 190
0.390259 -0.44533 -0.556 222 222 230
0.409322 -0.44533 -0.556 177 206 238
0.415676 -0.44533 -0.556 211 215 214
0.416735 -0.44533 -0.556 217 218 222
0.426267 -0.44533 -0.556 68 102 163
0.441887 -0.44613 -0.557 143 167 205
0.455434 -0.446931 -0.558 192 199 209
0.45756 -0.446931 -0.558 93 128 170
0.459686 -0.446931 -0.558 76 113 168
0.469251 -0.446931 -0.558 63 98 152
0.471377 -0.446931 -0.558 59 98 157
0.474566 -0.446931 -0.558 75 112 167
0.492812 -0.44613 -0.557 45 79 140
0.507957 -0.444529 -0.555 85 103 139
0.493257 -0.384457 -0.48 176 126 99
0.493142 -0.383656 -0.479 175 125 98
0.494967 -0.383656 -0.479 174 124 97
0.498616 -0.383656 -0.479 172 122 95
0.500441 -0.383656 -0.479 163 116 88
0.51934 -0.38686 -0.483 157 112 81
0.8213 -0.458946 -0.573 103 103 101
0.822046 -0.458145 -0.572 120 119 114
0.852643 -0.460548 -0.575 109 111 108
0.861104 -0.46215 -0.577 86 88 85
0.867698 -0.46215 -0.577 109 110 105
-0.0386171 -0.350046 -0.436 192 156 122
-0.0377 -0.349243 -0.435 192 156 122
-0.0286514 -0.350046 -0.436 192 156 120
-0.027821 -0.350046 -0.436 192 156 120
-0.024499 -0.350046 -0.436 188 150 114
-0.0046619 -0.357271 -0.445 166 124 102
-0.00127714 -0.358877 -0.447 162 122 97
0.00300667 -0.362089 -0.451 159 121 98
0.00736667 -0.3653 -0.455 154 116 95
0.018079 -0.371723 -0.463 147 108 93
0.0293429 -0.380554 -0.474 131 99 88
0.0415333 -0.3934 -0.49 124 97 86
0.04686 -0.39902 -0.497 123 98 91
0.127011 -0.447994 -0.558 193 197 206
0.368019 -0.446389 -0.556 89 112 154
0.37755 -0.446389 -0.556 110 138 185
0.422329 -0.445586 -0.555 178 189 211
0.423386 -0.445586 -0.555 145 171 206
0.430786 -0.445586 -0.555 55 96 158
0.440826 -0.447191 -0.557 134 164 226
0.449057 -0.447994 -0.558 200 204 207
0.479515 -0.400626 -0.499 157 115 93
0.478188 -0.390991 -0.487 170 126 99
0.48346 -0.38778 -0.483 178 133 104
0.504859 -0.383766 -0.478 161 115 89
0.82492 -0.46084 -0.574 120 119 114
0.831123 -0.460037 -0.573 110 109 105
0.851931 -0.462446 -0.576 111 113 108
0.862596 -0.464051 -0.578 97 99 96
0.864798 -0.464051 -0.578 100 100 98
0.874014 -0.464854 -0.579 84 85 80
-0.0294143 -0.350071 -0.435 192 156 120
-0.0253295 -0.350876 -0.436 189 151 115
-0.0171419 -0.35329 -0.439 186 143 111
-0.0046619 -0.358119 -0.445 165 125 100
0.00473524 -0.363752 -0.452 157 119 98
0.00648571 -0.365362 -0.454 154 116 95
0.018079 -0.372605 -0.463 146 109 93
0.0236229 -0.376629 -0.468 143 106 90
0.0352733 -0.38709 -0.481 124 96 92
0.0467657 -0.399162 -0.496 122 99 93
0.0501 -0.403186 -0.501 119 95 91
0.06688 -0.424914 -0.528 98 92 96
0.0887486 -0.449057 -0.558 30 62 111
0.0898114 -0.449057 -0.558 23 55 104
0.0951257 -0.449057 -0.558 149 158 173
0.110006 -0.449057 -0.558 150 156 180
0.116383 -0.449057 -0.558 116 121 141
0.131028 -0.448252 -0.557 192 202 211
0.137393 -0.448252 -0.557 73 95 153
0.357843 -0.446643 -0.555 118 152 198
0.380043 -0.446643 -0.555 218 230 246
0.384271 -0.446643 -0.555 219 223 226
0.406471 -0.446643 -0.555 107 139 190
0.415986 -0.446643 -0.555 174 177 182
0.426557 -0.446643 -0.555 67 103 151
0.436857 -0.447448 -0.556 44 92 154
0.474776 -0.448252 -0.557 110 139 181
0.4995 -0.446643 -0.555 29 67 112
0.481695 -0.389505 -0.484 174 130 101
0.482617 -0.389505 -0.484 175 131 102
0.489804 -0.387895 -0.482 174 127 99
0.489704 -0.38709 -0.481 175 128 100
0.51719 -0.38709 -0.481 159 116 84
0.525186 -0.39031 -0.485 149 108 78
0.828891 -0.463543 -0.576 116 115 110
0.833306 -0.461129 -0.573 103 104 99
-0.0591429 -0.4356 -0.54 189 154 122
0.000427619 -0.362193 -0.449 161 120 100
0.0091 -0.367033 -0.455 149 110 93
0.010881 -0.368647 -0.457 149 110 93
0.0264095 -0.379133 -0.47 138 102 90
0.0293429 -0.38236 -0.474 130 100 90
0.0342143 -0.386393 -0.479 122 97 92
0.0352 -0.3872 -0.48 122 97 92
0.03726 -0.38962 -0.483 124 96 92
0.0467657 -0.400107 -0.496 121 98 92
0.0479029 -0.40172 -0.498 121 98 92
0.0832848 -0.449313 -0.557 26 51 91
0.112991 -0.449313 -0.557 140 145 167
0.118509 -0.45012 -0.558 156 160 172
0.129967 -0.449313 -0.557 193 199 213
0.367357 -0.4477 -0.555 147 179 230
0.371586 -0.4477 -0.555 83 122 179
0.38991 -0.446893 -0.554 185 195 207
0.404684 -0.446893 -0.554 111 148 201
0.40785 -0.446893 -0.554 151 189 234
0.416291 -0.446893 -0.554 167 172 176
0.444009 -0.449313 -0.557 175 186 190
0.46757 -0.448507 -0.556 50 95 162
0.476042 -0.448507 -0.556 141 159 181
0.47816 -0.448507 -0.556 171 180 195
0.48981 -0.448507 -0.556 50 81 135
0.501766 -0.446893 -0.554 29 62 113
0.508233 -0.446087 -0.553 60 86 119
0.480476 -0.403333 -0.5 152 114 95
0.480466 -0.402527 -0.499 158 120 101
0.480843 -0.391233 -0.485 175 130 101
0.48254 -0.38962 -0.483 173 127 101
0.485213 -0.388813 -0.482 174 129 98
0.497443 -0.38478 -0.477 165 118 88
0.498351 -0.38478 -0.477 166 119 91
0.829989 -0.46464 -0.576 119 118 114
0.86078 -0.46706 -0.579 88 90 87
-0.0342276 -0.350111 -0.433 191 155 119
-0.0317533 -0.350111 -0.433 195 159 123
-0.0293467 -0.35092 -0.434 190 154 118
-0.0276933 -0.35092 -0.434 188 152 116
-0.00801619 -0.358197 -0.443 169 128 106
-0.00127714 -0.361431 -0.447 158 117 97
0.0135514 -0.371134 -0.459 149 110 95
0.0302457 -0.383263 -0.474 126 97 91
0.03128 -0.38488 -0.476 125 96 90
0.0478067 -0.40186 -0.497 120 97 91
0.0489495 -0.403477 -0.499 119 96 90
0.0605629 -0.418031 -0.517 108 86 89
0.0670067 -0.427734 -0.529 94 89 95
0.0844971 -0.451183 -0.558 28 51 93
0.11193 -0.450374 -0.557 157 160 177
0.382524 -0.447949 -0.554 177 178 180
0.406794 -0.447949 -0.554 101 145 192
0.420512 -0.447949 -0.554 212 211 217
0.421568 -0.447949 -0.554 212 211 217
0.425789 -0.447949 -0.554 109 140 195
0.443211 -0.449566 -0.556 174 179 185
0.472865 -0.449566 -0.556 61 102 164
0.482586 -0.448757 -0.555 93 101 120
0.4921 -0.448757 -0.555 32 57 121
0.499655 -0.447949 -0.554 33 64 121
0.504931 -0.447949 -0.554 95 126 172
0.491674 -0.422074 -0.522 121 99 88
0.479919 -0.392157 -0.485 173 127 101
0.496534 -0.385689 -0.477 168 121 91
0.497443 -0.385689 -0.477 167 120 90
0.52302 -0.39054 -0.483 148 108 82
0.831086 -0.465737 -0.576 120 121 116
-0.0446343 -0.354989 -0.438 192 161 132
-0.041939 -0.353368 -0.436 196 160 126
-0.02604 -0.351747 -0.434 186 148 112
-0.0227857 -0.352557 -0.435 187 147 111
-0.0171029 -0.354989 -0.438 182 138 109
-0.00632857 -0.359041 -0.443 166 125 105
0.003 -0.364714 -0.45 158 117 99
0.02546 -0.380113 -0.469 143 104 89
0.0273629 -0.381734 -0.471 141 105 93
0.0617857 -0.420637 -0.519 105 87 87
0.0643771 -0.42469 -0.524 99 85 85
0.0656248 -0.42631 -0.526 90 88 93
0.11067 -0.450625 -0.556 177 179 194
0.113848 -0.450625 -0.556 129 136 144
0.115966 -0.450625 -0.556 184 188 197
0.39658 -0.448193 -0.553 87 128 180
0.397633 -0.448193 -0.553 75 126 189
0.40606 -0.448193 -0.553 97 140 191
0.419457 -0.449004 -0.554 162 160 165
0.43212 -0.449004 -0.554 50 89 156
0.442414 -0.449814 -0.555 140 158 180
0.44427 -0.450625 -0.556 141 159 181
0.457214 -0.449814 -0.555 69 109 161
0.459329 -0.449814 -0.555 46 86 155
0.465451 -0.450625 -0.556 38 87 153
0.470747 -0.450625 -0.556 37 82 141
0.509287 -0.448193 -0.553 148 153 159
0.489837 -0.420637 -0.519 127 99 87
0.491536 -0.389839 -0.481 179 132 104
