ply
format ascii 1.0
comment Created by Open3D
element vertex 1288
property double x
property double y
property double z
property uchar red
property uchar green
property uchar blue
end_header
0.45203 -0.295233 -0.521 161 110 89
0.457869 -0.2958 -0.522 145 96 79
0.484442 -0.303733 -0.536 149 96 78
0.0412029 -0.356494 -0.627 247 244 251
0.0567914 -0.243917 -0.429 202 159 150
0.0661314 -0.242211 -0.426 192 149 140
0.112727 -0.259837 -0.457 95 73 76
0.217454 -0.357631 -0.629 248 251 255
0.2322 -0.3582 -0.63 245 253 255
0.255 -0.3582 -0.63 193 205 247
0.305885 -0.358769 -0.631 184 193 222
0.331125 -0.358769 -0.631 184 202 248
0.333529 -0.358769 -0.631 200 212 236
0.347299 -0.359337 -0.632 166 173 192
0.352114 -0.359337 -0.632 160 168 191
0.36714 -0.359906 -0.633 197 201 230
0.370171 -0.359337 -0.632 137 141 168
0.371375 -0.359337 -0.632 138 142 169
0.387637 -0.359906 -0.633 54 86 159
0.394871 -0.359906 -0.633 149 169 220
0.40147 -0.359337 -0.632 194 193 207
0.440498 -0.358769 -0.631 96 119 173
0.43187 -0.311009 -0.547 113 76 67
0.4425 -0.2985 -0.525 155 105 82
0.453022 -0.296226 -0.521 159 108 87
0.0536476 -0.245305 -0.43 207 164 155
0.0559743 -0.244734 -0.429 202 158 149
0.0630333 -0.243593 -0.427 195 152 143
0.0866105 -0.245875 -0.431 149 104 101
0.230633 -0.35883 -0.629 243 252 249
0.2946 -0.3594 -0.63 234 239 255
0.3042 -0.3594 -0.63 222 229 255
0.3102 -0.3594 -0.63 131 144 186
0.3138 -0.3594 -0.63 101 123 181
0.358133 -0.360541 -0.632 166 174 195
0.375595 -0.35997 -0.631 64 102 165
0.380403 -0.35997 -0.631 57 86 156
0.390636 -0.360541 -0.632 91 117 176
0.409249 -0.35997 -0.631 179 182 201
0.441 -0.3594 -0.63 67 96 152
0.444104 -0.35997 -0.631 62 94 155
0.452517 -0.35997 -0.631 133 147 182
0.459729 -0.35997 -0.631 56 63 105
0.449267 -0.334299 -0.586 114 79 75
0.432285 -0.308628 -0.541 117 79 70
0.434829 -0.304634 -0.534 132 88 77
0.445795 -0.298359 -0.523 163 111 89
0.449052 -0.297218 -0.521 160 108 86
0.455007 -0.297218 -0.521 155 104 83
0.458863 -0.297789 -0.522 147 99 79
0.460738 -0.298359 -0.523 147 98 81
0.461734 -0.298359 -0.523 146 97 80
-0.0172895 -0.35831 -0.626 234 232 235
0.0984762 -0.251848 -0.44 125 91 90
0.207209 -0.358883 -0.627 243 247 255
0.212324 -0.359455 -0.628 250 255 255
0.22309 -0.359455 -0.628 247 250 255
0.226678 -0.359455 -0.628 247 253 253
0.254595 -0.360028 -0.629 178 195 241
0.277359 -0.360028 -0.629 235 241 253
0.303 -0.3606 -0.63 219 226 244
0.3258 -0.3606 -0.63 83 113 177
0.333 -0.3606 -0.63 198 210 234
0.3462 -0.3606 -0.63 152 155 174
0.368968 -0.361745 -0.632 160 166 182
0.374393 -0.361172 -0.631 117 147 201
0.375595 -0.361172 -0.631 100 130 184
0.380403 -0.361172 -0.631 76 103 170
0.4014 -0.3606 -0.63 182 184 199
0.4134 -0.3606 -0.63 178 179 200
0.435 -0.3606 -0.63 168 175 204
0.4458 -0.3606 -0.63 70 96 153
0.433543 -0.309086 -0.54 120 80 70
0.433987 -0.307941 -0.538 126 83 74
0.439826 -0.30279 -0.529 142 90 77
0.449052 -0.29821 -0.521 159 107 85
0.456991 -0.29821 -0.521 149 101 81
0.48184 -0.304507 -0.532 147 100 82
0.483761 -0.305079 -0.533 153 106 88
-0.0363676 -0.359503 -0.626 222 222 222
0.056659 -0.245794 -0.428 196 153 146
0.0607352 -0.245794 -0.428 198 154 145
0.0794857 -0.245794 -0.428 165 122 116
0.0944752 -0.250963 -0.437 135 95 95
0.0997657 -0.253834 -0.442 123 87 87
0.22154 -0.360077 -0.627 235 237 250
0.233483 -0.360077 -0.627 246 249 254
0.253397 -0.361226 -0.629 149 167 213
0.260171 -0.360651 -0.628 171 187 236
0.264956 -0.360651 -0.628 206 216 252
0.272133 -0.360651 -0.628 241 248 255
0.281703 -0.360651 -0.628 206 207 227
0.304915 -0.361226 -0.629 188 196 217
0.328877 -0.361226 -0.629 117 135 183
0.348047 -0.361226 -0.629 152 157 177
0.367182 -0.362374 -0.631 160 166 188
0.439102 -0.361226 -0.629 123 141 179
0.441498 -0.361226 -0.629 91 115 161
0.4566 -0.3618 -0.63 166 168 193
0.442069 -0.323897 -0.564 116 81 79
0.434443 -0.312986 -0.545 122 84 81
0.434116 -0.311263 -0.542 124 84 76
0.44565 -0.300926 -0.524 158 108 83
0.451162 -0.298629 -0.52 161 109 88
0.464613 -0.300926 -0.524 139 92 76
-0.0672619 -0.360119 -0.625 207 207 209
-0.0363095 -0.360119 -0.625 225 225 225
0.0339286 -0.360119 -0.625 231 237 251
0.0496676 -0.248338 -0.431 205 161 150
0.0511905 -0.247762 -0.43 204 160 149
0.0528286 -0.247762 -0.43 200 157 148
0.0536476 -0.247762 -0.43 201 158 149
0.056659 -0.24661 -0.428 199 155 146
0.0727933 -0.246033 -0.427 180 136 127
0.0839524 -0.247762 -0.43 154 110 107
0.0936429 -0.251795 -0.437 136 95 93
0.116972 -0.269081 -0.467 89 69 70
0.199405 -0.360119 -0.625 186 192 224
0.217957 -0.361271 -0.627 207 207 219
0.23864 -0.361848 -0.628 244 248 255
0.241032 -0.361848 -0.628 203 210 239
0.244621 -0.361848 -0.628 165 179 218
0.30443 -0.361848 -0.628 183 192 209
0.309215 -0.361848 -0.628 127 141 188
0.317589 -0.361848 -0.628 91 119 182
0.337264 -0.362424 -0.629 209 209 233
0.3558 -0.363 -0.63 196 201 221
0.368384 -0.363576 -0.631 111 119 140
0.3798 -0.363 -0.63 99 120 177
0.398367 -0.362424 -0.629 176 178 203
0.461474 -0.34341 -0.596 113 82 80
0.434917 -0.312871 -0.543 127 84 77
0.435226 -0.309414 -0.537 133 86 76
0.435846 -0.307686 -0.534 137 89 77
0.438454 -0.305957 -0.531 146 94 80
0.452152 -0.299619 -0.52 150 99 80
0.454133 -0.299619 -0.52 156 108 88
0.460851 -0.300771 -0.522 146 98 78
0.483867 -0.306533 -0.532 153 106 88
0.0535229 -0.248003 -0.429 202 158 149
0.0685657 -0.246269 -0.426 177 134 127
0.0752333 -0.246847 -0.427 168 123 118
0.0936429 -0.252628 -0.437 131 92 93
0.0957438 -0.253784 -0.439 128 92 92
0.100217 -0.256674 -0.444 114 86 85
0.102368 -0.25783 -0.446 107 86 85
0.104767 -0.259565 -0.449 103 81 83
0.251397 -0.362466 -0.627 127 146 202
0.276477 -0.362466 -0.627 232 236 245
0.300842 -0.363044 -0.628 220 227 253
0.328354 -0.363044 -0.628 135 152 196
0.334335 -0.363044 -0.628 201 212 242
0.345101 -0.363044 -0.628 206 203 220
0.34869 -0.363044 -0.628 190 193 212
0.355235 -0.363622 -0.629 198 204 226
0.361226 -0.363622 -0.629 197 198 219
0.3654 -0.3642 -0.63 159 172 191
0.37081 -0.363622 -0.629 183 188 220
0.377999 -0.363622 -0.629 115 139 183
0.392376 -0.363622 -0.629 161 161 195
0.407951 -0.363622 -0.629 191 189 202
0.452281 -0.363622 -0.629 143 166 208
0.454677 -0.363622 -0.629 169 167 191
0.435643 -0.309281 -0.535 138 89 74
0.482957 -0.306969 -0.531 152 105 87
0.486807 -0.308125 -0.533 149 102 84
0.0438 -0.25404 -0.438 197 154 145
0.0527057 -0.24882 -0.429 200 156 145
0.0630333 -0.24766 -0.427 189 145 136
0.0752333 -0.24766 -0.427 166 121 116
0.0841476 -0.24998 -0.431 149 105 104
0.0928105 -0.25346 -0.437 131 92 93
0.09702 -0.25578 -0.441 121 91 91
0.224764 -0.36308 -0.626 212 215 234
0.248611 -0.36308 -0.626 148 164 216
0.251397 -0.36366 -0.627 134 154 207
0.306334 -0.36366 -0.627 208 214 250
0.307529 -0.36366 -0.627 208 218 254
0.315196 -0.36424 -0.628 116 149 203
0.325962 -0.36424 -0.628 203 218 251
0.334335 -0.36424 -0.628 193 204 236
0.379197 -0.36482 -0.629 127 150 191
0.392949 -0.36424 -0.628 162 169 195
0.406107 -0.36424 -0.628 187 188 208
0.407303 -0.36424 -0.628 184 182 196
0.415676 -0.36424 -0.628 189 185 210
0.437706 -0.36366 -0.627 91 109 147
0.46488 -0.34568 -0.596 108 79 75
0.439767 -0.32074 -0.553 120 87 80
0.438638 -0.3074 -0.53 150 99 82
0.488737 -0.30972 -0.534 152 105 87
0.0472048 -0.250801 -0.431 194 150 139
0.0614067 -0.248473 -0.427 192 148 139
0.0821229 -0.249637 -0.429 150 109 107
0.0878371 -0.251965 -0.433 139 102 96
0.109484 -0.266512 -0.458 96 78 76
0.231918 -0.364272 -0.626 242 249 255
0.241457 -0.364272 -0.626 153 159 185
0.243842 -0.364272 -0.626 150 168 208
0.265729 -0.364854 -0.627 196 203 232
0.268882 -0.364272 -0.626 238 248 255
0.289152 -0.364272 -0.626 234 240 254
0.298691 -0.364272 -0.626 226 232 254
0.324249 -0.364854 -0.627 175 194 227
0.333803 -0.364854 -0.627 177 187 223
0.344551 -0.364854 -0.627 176 174 188
0.385771 -0.365436 -0.628 132 154 193
0.392949 -0.365436 -0.628 184 186 207
0.43054 -0.364854 -0.627 176 178 193
0.436181 -0.315392 -0.542 130 90 82
0.44565 -0.304918 -0.524 155 103 82
0.44892 -0.303754 -0.522 154 99 78
0.454014 -0.303172 -0.521 159 102 82
0.464829 -0.303754 -0.522 145 93 71
0.0557133 -0.249287 -0.427 198 156 144
0.0581533 -0.249287 -0.427 199 155 144
0.0628857 -0.248703 -0.426 189 142 134
0.0823143 -0.251038 -0.43 147 106 102
0.0861876 -0.25279 -0.433 141 101 99
0.0940714 -0.256292 -0.439 130 90 90
0.21216 -0.364297 -0.624 240 243 248
0.219643 -0.364881 -0.625 184 186 207
0.235495 -0.365465 -0.626 248 255 255
0.26769 -0.365465 -0.626 222 230 249
0.272024 -0.364881 -0.625 235 244 253
0.285575 -0.365465 -0.626 202 205 220
0.316577 -0.365465 -0.626 132 160 207
0.326116 -0.365465 -0.626 207 219 235
0.341617 -0.365465 -0.626 190 193 202
0.354106 -0.366049 -0.627 193 196 213
0.387546 -0.366049 -0.627 191 188 215
0.395274 -0.365465 -0.626 168 172 199
0.403071 -0.366049 -0.627 165 170 199
0.410775 -0.365465 -0.626 91 105 150
0.427469 -0.365465 -0.626 127 128 149
0.429853 -0.365465 -0.626 172 174 187
0.434623 -0.365465 -0.626 143 145 166
0.436986 -0.317009 -0.543 130 90 82
0.444345 -0.307084 -0.526 156 101 81
0.461953 -0.304165 -0.521 148 96 75
0.485991 -0.310003 -0.531 153 106 88
0.0509524 -0.250686 -0.428 201 157 146
0.0565267 -0.2501 -0.427 196 152 143
0.0589667 -0.2501 -0.427 197 153 142
0.0711667 -0.2501 -0.427 177 132 126
0.07198 -0.2501 -0.427 172 127 121
0.0796714 -0.251271 -0.429 159 118 112
0.0911457 -0.255957 -0.437 129 91 90
0.111079 -0.270014 -0.461 92 76 76
0.183046 -0.364314 -0.622 154 172 218
0.194893 -0.364314 -0.622 146 158 206
0.202002 -0.364314 -0.622 247 251 255
0.2047 -0.3649 -0.623 245 249 255
0.205887 -0.3649 -0.623 243 248 252
0.219643 -0.366071 -0.625 194 195 215
0.222024 -0.366071 -0.625 214 215 235
0.230357 -0.366071 -0.625 247 252 255
0.251786 -0.366071 -0.625 161 184 226
0.256548 -0.366071 -0.625 201 219 255
0.257738 -0.366071 -0.625 200 213 248
0.260119 -0.366071 -0.625 233 241 255
0.307738 -0.366071 -0.625 207 209 232
0.33327 -0.366657 -0.626 88 101 136
0.353541 -0.366657 -0.626 198 201 218
0.361271 -0.367243 -0.627 165 167 192
0.366049 -0.367243 -0.627 183 189 213
0.39289 -0.366657 -0.626 190 187 214
0.464432 -0.366657 -0.626 66 71 109
0.475682 -0.364314 -0.622 144 150 184
0.43706 -0.312186 -0.533 157 101 84
0.450909 -0.305743 -0.522 152 95 75
0.481234 -0.309257 -0.528 147 101 78
0.485076 -0.310429 -0.53 152 105 85
0.0433 -0.254439 -0.433 199 156 150
0.0669429 -0.250326 -0.426 180 133 125
0.0987476 -0.26149 -0.445 112 83 85
0.10112 -0.263253 -0.448 103 82 81
0.186011 -0.366674 -0.624 140 158 204
0.224046 -0.366674 -0.624 238 238 250
0.2288 -0.366674 -0.624 244 247 252
0.243063 -0.366674 -0.624 225 228 245
0.247817 -0.366674 -0.624 188 206 246
0.29536 -0.366674 -0.624 227 232 254
0.323214 -0.367262 -0.625 189 203 238
0.341071 -0.367262 -0.625 171 170 186
0.351786 -0.367262 -0.625 193 196 215
0.35831 -0.36785 -0.626 192 199 228
0.369042 -0.36785 -0.626 159 161 173
0.393452 -0.367262 -0.625 189 187 208
0.399405 -0.367262 -0.625 56 69 101
0.400595 -0.367262 -0.625 71 88 142
0.407738 -0.367262 -0.625 89 120 167
0.421349 -0.366674 -0.624 134 150 199
0.429167 -0.367262 -0.625 168 171 186
0.431548 -0.367262 -0.625 173 170 187
0.44297 -0.36785 -0.626 98 124 183
0.458929 -0.367262 -0.625 174 175 193
0.475682 -0.365499 -0.622 152 161 194
0.477695 -0.364324 -0.62 107 118 150
0.445869 -0.327891 -0.558 128 88 80
0.436045 -0.313201 -0.533 157 100 80
0.444651 -0.307912 -0.524 162 107 87
0.449914 -0.306737 -0.522 160 105 84
0.0478029 -0.252906 -0.429 201 157 144
0.07198 -0.251727 -0.427 172 125 119
0.073779 -0.252316 -0.428 168 124 111
0.07722 -0.252906 -0.429 163 120 111
0.0957724 -0.261159 -0.443 125 91 90
0.103974 -0.267054 -0.453 94 75 71
0.204043 -0.366094 -0.621 241 247 255
0.216567 -0.367273 -0.623 247 249 255
0.21894 -0.367273 -0.623 233 235 248
0.220127 -0.367273 -0.623 235 237 250
0.229989 -0.367863 -0.624 246 250 253
0.239497 -0.367863 -0.624 222 227 247
0.246233 -0.367273 -0.623 226 233 255
0.285851 -0.367863 -0.624 235 235 255
0.298926 -0.367863 -0.624 153 159 185
0.323214 -0.368452 -0.625 192 206 243
0.371427 -0.369042 -0.626 148 155 174
0.382738 -0.368452 -0.625 88 119 174
0.385119 -0.368452 -0.625 97 128 183
0.391071 -0.368452 -0.625 195 191 214
0.392262 -0.368452 -0.625 195 191 214
0.418971 -0.367863 -0.624 52 71 127
0.431548 -0.368452 -0.625 131 127 141
0.433929 -0.368452 -0.625 167 166 182
0.43631 -0.368452 -0.625 88 106 152
0.439881 -0.368452 -0.625 96 123 176
0.457738 -0.368452 -0.625 174 175 193
0.460571 -0.367863 -0.624 148 155 174
0.437657 -0.318343 -0.54 153 100 82
0.436457 -0.315985 -0.536 158 103 83
0.461067 -0.306552 -0.52 151 100 81
0.462057 -0.306552 -0.52 148 97 78
0.557791 -0.348409 -0.591 189 193 205
0.0402781 -0.257863 -0.436 201 159 147
0.07722 -0.253723 -0.429 163 120 111
0.09052 -0.259046 -0.438 130 95 91
0.184527 -0.36846 -0.623 147 170 212
0.192214 -0.367277 -0.621 212 217 249
0.202533 -0.366686 -0.62 214 222 245
0.207257 -0.366686 -0.62 245 250 253
0.271153 -0.36846 -0.623 241 243 255
0.27234 -0.36846 -0.623 239 241 254
0.280647 -0.36846 -0.623 201 201 225
0.30082 -0.36846 -0.623 221 230 247
0.331017 -0.369051 -0.624 193 206 222
0.342903 -0.369051 -0.624 184 195 223
0.389881 -0.369643 -0.625 189 195 209
0.391634 -0.369051 -0.624 176 173 192
0.41118 -0.36846 -0.623 145 162 192
0.423726 -0.369051 -0.624 175 180 202
0.429669 -0.369051 -0.624 185 182 193
0.435119 -0.369643 -0.625 93 110 154
0.448214 -0.369643 -0.625 78 104 155
0.464137 -0.369051 -0.624 144 155 185
0.470513 -0.36846 -0.623 121 140 170
0.473312 -0.367869 -0.622 100 121 166
0.440337 -0.311091 -0.526 164 109 89
0.443653 -0.309909 -0.524 164 107 87
0.456114 -0.307543 -0.52 160 107 89
0.458095 -0.307543 -0.52 155 104 83
0.501429 -0.319371 -0.54 151 106 83
0.0604514 -0.25276 -0.426 192 146 133
0.073779 -0.253947 -0.428 163 119 108
0.0780371 -0.25454 -0.429 159 119 111
0.0816848 -0.255727 -0.431 148 109 102
0.0865857 -0.2581 -0.435 138 100 97
0.0915629 -0.260473 -0.439 127 93 91
0.0959886 -0.26344 -0.444 116 87 89
0.191905 -0.367867 -0.62 215 222 250
0.212323 -0.36846 -0.621 247 253 255
0.23674 -0.369647 -0.623 211 216 245
0.241099 -0.369053 -0.622 208 213 233
0.26878 -0.369647 -0.623 178 180 205
0.278273 -0.369647 -0.623 207 205 227
0.302007 -0.369647 -0.623 228 231 250
0.303193 -0.369647 -0.623 227 230 247
0.305567 -0.369647 -0.623 194 200 222
0.332206 -0.37024 -0.624 209 210 241
0.334047 -0.369647 -0.623 182 184 205
0.33642 -0.369647 -0.623 98 109 141
0.340526 -0.37024 -0.624 165 172 200
0.358354 -0.37024 -0.624 93 106 151
0.374994 -0.37024 -0.624 105 125 175
0.38688 -0.37024 -0.624 188 192 204
0.388069 -0.37024 -0.624 195 191 214
0.389257 -0.37024 -0.624 193 189 212
0.408807 -0.369647 -0.623 64 88 158
0.414074 -0.369053 -0.622 149 162 194
0.417629 -0.369053 -0.622 107 125 161
0.439177 -0.37024 -0.624 109 132 186
0.438086 -0.319213 -0.538 157 104 86
0.444799 -0.310313 -0.523 161 106 86
0.457105 -0.308533 -0.52 160 108 87
0.460076 -0.308533 -0.52 152 100 79
0.040001 -0.257738 -0.433 200 158 144
0.0414581 -0.256548 -0.431 200 157 141
0.0468762 -0.254762 -0.428 200 155 136
0.0938724 -0.263095 -0.442 118 88 88
0.100938 -0.268452 -0.451 101 81 83
0.187483 -0.369643 -0.621 170 188 228
0.21114 -0.369643 -0.621 242 249 255
0.223328 -0.370238 -0.622 246 251 255
0.235175 -0.370238 -0.622 222 226 255
0.25254 -0.369643 -0.621 193 206 240
0.256089 -0.369643 -0.621 206 211 241
0.269533 -0.370238 -0.622 207 209 234
0.279011 -0.370238 -0.622 218 218 242
0.296783 -0.370238 -0.622 227 232 254
0.303891 -0.370238 -0.622 226 229 248
0.307446 -0.370238 -0.622 140 153 185
0.332326 -0.370238 -0.622 205 210 229
0.355407 -0.370833 -0.623 69 86 140
0.367863 -0.371429 -0.624 193 199 213
0.398127 -0.370833 -0.623 95 107 149
0.404596 -0.370238 -0.622 161 176 207
0.405781 -0.370238 -0.622 125 155 181
0.41289 -0.370238 -0.622 169 176 202
0.433727 -0.370833 -0.623 137 152 185
0.434913 -0.370833 -0.623 96 111 144
0.44678 -0.370833 -0.623 116 137 182
0.449153 -0.370833 -0.623 157 166 195
0.483217 -0.367857 -0.618 127 134 160
0.440899 -0.32381 -0.544 156 103 85
0.43706 -0.317262 -0.533 162 107 86
0.437989 -0.314286 -0.528 163 108 88
0.439335 -0.313095 -0.526 168 113 93
0.444651 -0.311905 -0.524 162 107 87
0.455124 -0.309524 -0.52 167 112 91
0.47659 -0.311905 -0.524 149 101 81
0.0580171 -0.254383 -0.426 193 150 133
0.0612629 -0.254383 -0.426 191 145 130
0.102474 -0.271103 -0.454 99 78 83
0.176268 -0.369631 -0.619 237 237 249
0.20188 -0.369034 -0.618 161 166 195
0.226517 -0.370826 -0.621 243 249 247
0.231249 -0.370826 -0.621 175 180 200
0.27738 -0.370826 -0.621 228 232 255
0.279746 -0.370826 -0.621 170 182 220
0.296306 -0.370826 -0.621 225 231 255
0.305769 -0.370826 -0.621 193 197 222
0.314049 -0.370826 -0.621 160 183 227
0.326402 -0.371423 -0.622 209 215 229
0.348912 -0.371423 -0.622 177 191 220
0.412226 -0.370826 -0.621 174 179 201
0.416957 -0.370826 -0.621 171 177 201
0.422368 -0.371423 -0.622 100 105 135
0.427107 -0.371423 -0.622 171 175 204
0.428291 -0.371423 -0.622 177 179 200
0.447967 -0.37202 -0.623 119 137 185
0.465767 -0.37202 -0.623 168 173 195
0.466953 -0.37202 -0.623 167 172 194
0.46814 -0.37202 -0.623 170 175 195
0.469758 -0.371423 -0.622 166 171 193
0.453022 -0.311111 -0.521 169 114 93
0.458095 -0.310514 -0.52 159 107 85
0.459086 -0.310514 -0.52 156 104 82
0.464038 -0.310514 -0.52 157 106 85
0.472783 -0.311709 -0.522 155 104 85
0.035619 -0.263581 -0.44 198 157 139
0.0389952 -0.25819 -0.431 203 160 143
0.0581533 -0.255793 -0.427 192 149 132
0.07722 -0.256991 -0.429 156 114 102
0.0953571 -0.266576 -0.445 112 83 85
0.181861 -0.372608 -0.622 188 199 229
0.183934 -0.372009 -0.621 191 200 233
0.204234 -0.370211 -0.618 222 227 249
0.212818 -0.37081 -0.619 250 254 255
0.239143 -0.37141 -0.62 244 249 255
0.266734 -0.372009 -0.621 239 242 255
0.29701 -0.37141 -0.62 228 230 255
0.322329 -0.372009 -0.621 204 215 235
0.345986 -0.372009 -0.621 94 116 176
0.387386 -0.372009 -0.621 186 189 208
0.388569 -0.372009 -0.621 185 192 202
0.402763 -0.372009 -0.621 180 186 208
0.405129 -0.372009 -0.621 160 177 197
0.429476 -0.372608 -0.622 166 168 193
0.44678 -0.373207 -0.623 128 146 194
0.469003 -0.372009 -0.621 168 173 192
0.484394 -0.370211 -0.618 145 150 169
0.44714 -0.331273 -0.553 140 101 94
0.463048 -0.311505 -0.52 158 106 84
0.470885 -0.312104 -0.521 154 103 84
0.498643 -0.321689 -0.537 151 106 87
0.50535 -0.324684 -0.542 145 102 85
0.05002 -0.256607 -0.427 196 151 132
0.0620743 -0.256006 -0.426 184 138 122
0.0828886 -0.260212 -0.433 141 102 97
0.101833 -0.273433 -0.455 99 80 84
0.181569 -0.373191 -0.621 187 198 226
0.186879 -0.37199 -0.619 198 210 248
0.230876 -0.37259 -0.62 239 242 255
0.233238 -0.37259 -0.62 242 247 251
0.237962 -0.37259 -0.62 245 248 255
0.262762 -0.37259 -0.62 239 239 247
0.263943 -0.37259 -0.62 242 242 250
0.27221 -0.37259 -0.62 159 164 196
0.275752 -0.37259 -0.62 212 218 250
0.280476 -0.37259 -0.62 119 133 178
0.289924 -0.37259 -0.62 129 138 181
0.314724 -0.37259 -0.62 142 165 206
0.361363 -0.373191 -0.621 183 188 217
0.379676 -0.37259 -0.62 116 137 180
0.416286 -0.37259 -0.62 175 182 208
0.419829 -0.37259 -0.62 170 177 203
0.461906 -0.373191 -0.621 169 177 190
0.463089 -0.373191 -0.621 168 176 189
0.485571 -0.371389 -0.618 109 111 124
0.442655 -0.314899 -0.524 169 112 93
0.0581533 -0.25742 -0.427 192 147 124
0.0711667 -0.25742 -0.427 172 126 113
0.0849286 -0.262243 -0.435 132 94 91
0.0859543 -0.262846 -0.436 131 93 90
0.0890543 -0.264654 -0.439 125 94 89
0.10581 -0.277917 -0.461 92 76 79
0.180095 -0.373771 -0.62 178 190 216
0.193327 -0.371963 -0.617 245 248 253
0.200378 -0.371963 -0.617 236 238 251
0.205079 -0.371963 -0.617 208 214 238
0.212474 -0.372566 -0.618 207 212 232
0.22343 -0.373169 -0.619 220 226 248
0.236399 -0.373169 -0.619 244 248 249
0.241115 -0.373169 -0.619 197 200 219
0.24819 -0.373169 -0.619 195 210 241
0.255264 -0.373169 -0.619 189 199 235
0.258801 -0.373169 -0.619 242 246 255
0.261159 -0.373169 -0.619 243 243 253
0.280024 -0.373169 -0.619 121 134 176
0.290635 -0.373169 -0.619 126 135 176
0.295351 -0.373169 -0.619 227 234 255
0.331902 -0.373169 -0.619 155 162 178
0.335439 -0.373169 -0.619 182 187 216
0.339524 -0.373771 -0.62 202 203 233
0.34779 -0.373771 -0.62 189 194 223
0.354876 -0.373771 -0.62 192 199 218
0.3596 -0.373771 -0.62 112 121 154
0.370826 -0.374374 -0.621 164 172 195
0.376133 -0.373771 -0.62 126 143 186
0.378495 -0.373771 -0.62 124 148 192
0.386762 -0.373771 -0.62 174 179 201
0.402114 -0.373771 -0.62 186 188 209
0.413256 -0.373169 -0.619 182 187 209
0.414435 -0.373169 -0.619 179 187 210
0.42101 -0.373771 -0.62 163 169 191
0.435181 -0.373771 -0.62 120 134 181
0.440614 -0.374374 -0.621 66 96 160
0.461906 -0.374374 -0.621 171 175 187
0.469429 -0.373771 -0.62 170 171 192
0.48204 -0.372566 -0.618 169 168 176
0.485571 -0.372566 -0.618 113 113 123
0.443191 -0.327351 -0.543 154 105 90
0.4415 -0.3165 -0.525 172 115 96
0.454249 -0.312883 -0.519 172 117 97
0.0380857 -0.260048 -0.43 203 161 139
0.0467667 -0.258233 -0.427 198 153 132
0.0483933 -0.258233 -0.427 197 152 131
0.0492067 -0.258233 -0.427 196 151 130
0.0531486 -0.257629 -0.426 195 150 129
0.0669429 -0.257629 -0.426 183 137 121
0.0792219 -0.260652 -0.431 145 106 99
0.0820638 -0.261862 -0.433 141 104 98
0.0851238 -0.263676 -0.436 132 94 91
0.104477 -0.277586 -0.459 94 78 79
0.25132 -0.373743 -0.618 181 194 229
0.318932 -0.374348 -0.619 146 161 202
0.320111 -0.374348 -0.619 177 192 233
0.335439 -0.374348 -0.619 193 195 218
0.367867 -0.374952 -0.62 190 195 214
0.374952 -0.374952 -0.62 120 143 187
0.401466 -0.374348 -0.619 189 191 212
0.419151 -0.374348 -0.619 182 184 205
0.432121 -0.374348 -0.619 132 140 177
0.443448 -0.374952 -0.62 125 152 199
0.447711 -0.375557 -0.621 132 146 185
0.485961 -0.373138 -0.617 154 156 171
0.43928 -0.321733 -0.532 166 111 90
0.442807 -0.31629 -0.523 174 117 98
0.443803 -0.31629 -0.523 175 118 99
0.453373 -0.313267 -0.518 174 119 99
0.45436 -0.313267 -0.518 173 118 98
0.0342276 -0.262687 -0.433 200 157 138
0.0547714 -0.25844 -0.426 192 147 128
0.0962143 -0.272393 -0.449 105 84 79
0.176837 -0.37674 -0.621 219 221 233
0.178626 -0.375527 -0.619 175 187 213
0.179805 -0.375527 -0.619 168 177 216
0.183925 -0.374313 -0.617 202 215 247
0.188626 -0.374313 -0.617 176 184 220
0.197707 -0.373707 -0.616 243 243 253
0.20592 -0.373707 -0.616 151 158 187
0.237194 -0.37492 -0.618 247 251 254
0.249738 -0.374313 -0.617 189 203 240
0.250913 -0.374313 -0.617 175 189 226
0.25679 -0.374313 -0.617 243 247 255
0.278394 -0.37492 -0.618 158 171 205
0.323649 -0.375527 -0.619 213 214 242
0.329544 -0.375527 -0.619 125 129 158
0.33372 -0.37492 -0.618 199 207 230
0.34723 -0.375527 -0.619 205 205 233
0.365505 -0.376133 -0.62 177 191 220
0.390854 -0.375527 -0.619 104 108 133
0.399108 -0.375527 -0.619 187 192 212
0.419151 -0.375527 -0.619 182 181 199
0.42033 -0.375527 -0.619 181 180 198
0.425047 -0.375527 -0.619 85 92 118
0.438724 -0.376133 -0.62 50 89 154
0.448171 -0.376133 -0.62 122 138 189
0.462776 -0.375527 -0.619 172 174 187
0.474977 -0.37492 -0.618 146 152 176
0.457919 -0.342767 -0.565 138 94 85
0.469077 -0.31486 -0.519 159 106 90
0.472952 -0.315467 -0.52 157 109 89
0.477754 -0.31668 -0.522 157 109 89
0.497805 -0.324567 -0.535 148 103 80
0.504514 -0.3276 -0.54 146 100 77
0.03212 -0.266554 -0.438 197 156 136
0.0515257 -0.259251 -0.426 198 151 133
0.0677543 -0.259251 -0.426 174 131 115
0.0794057 -0.262903 -0.432 148 105 98
0.081239 -0.263511 -0.433 142 102 94
0.181574 -0.375489 -0.617 203 213 248
0.194187 -0.37488 -0.616 245 248 255
0.19536 -0.37488 -0.616 246 250 253
0.216831 -0.375489 -0.617 152 170 208
0.218007 -0.375489 -0.617 194 207 239
0.223883 -0.375489 -0.617 150 162 200
0.246212 -0.375489 -0.617 181 195 232
0.255614 -0.375489 -0.617 229 235 255
0.260315 -0.375489 -0.617 243 243 253
0.267367 -0.375489 -0.617 179 181 206
0.277944 -0.375489 -0.617 156 167 199
0.280294 -0.375489 -0.617 139 150 182
0.31724 -0.376097 -0.618 165 177 215
0.338429 -0.376097 -0.618 203 210 229
0.344314 -0.376097 -0.618 178 183 202
0.362557 -0.376706 -0.619 72 94 133
0.386691 -0.376097 -0.618 102 114 152
0.413096 -0.375489 -0.617 180 186 202
0.4326 -0.376097 -0.618 88 117 175
0.448628 -0.376706 -0.619 63 92 152
0.439826 -0.321934 -0.529 165 109 86
0.4671 -0.315849 -0.519 158 104 80
0.0370933 -0.261284 -0.428 204 159 140
0.0499029 -0.260063 -0.426 199 152 132
0.0507143 -0.260063 -0.426 199 152 132
0.0515257 -0.260063 -0.426 198 151 133
0.0547714 -0.260063 -0.426 195 150 131
0.0580171 -0.260063 -0.426 183 137 121
0.076581 -0.262505 -0.43 153 110 103
0.088419 -0.26861 -0.44 113 86 79
0.10032 -0.278377 -0.456 98 77 76
0.19184 -0.376053 -0.616 242 246 255
0.199729 -0.375443 -0.615 237 244 250
0.202071 -0.375443 -0.615 240 242 254
0.205586 -0.375443 -0.615 147 156 189
0.214133 -0.376053 -0.616 157 173 206
0.243467 -0.376053 -0.616 178 188 224
0.247388 -0.376664 -0.617 191 207 241
0.254027 -0.376053 -0.616 201 207 239
0.257547 -0.376053 -0.616 240 244 255
0.276769 -0.376664 -0.617 215 219 244
0.302624 -0.376664 -0.617 226 227 255
0.339606 -0.377274 -0.618 203 210 228
0.369034 -0.377274 -0.618 159 160 180
0.394931 -0.377274 -0.618 193 191 204
0.397818 -0.376664 -0.617 190 191 209
0.417297 -0.377274 -0.618 179 179 203
0.422006 -0.377274 -0.618 122 122 134
0.42436 -0.377274 -0.618 143 150 158
0.434954 -0.377274 -0.618 59 93 156
0.444371 -0.377274 -0.618 56 83 152
0.459674 -0.377274 -0.618 154 149 153
0.463631 -0.376664 -0.617 129 130 148
0.479686 -0.377274 -0.618 115 113 118
0.451283 -0.316837 -0.519 176 119 99
0.475847 -0.318058 -0.521 161 110 89
0.0339905 -0.263324 -0.43 203 160 141
0.0386333 -0.261487 -0.427 198 153 134
0.0563943 -0.260874 -0.426 187 141 125
0.0711667 -0.261487 -0.427 160 116 105
0.07758 -0.263936 -0.431 148 105 98
0.178049 -0.377839 -0.617 169 184 213
0.21296 -0.377227 -0.616 202 217 250
0.249333 -0.377227 -0.616 189 204 237
0.256373 -0.377227 -0.616 244 248 255
0.263413 -0.377227 -0.616 194 196 219
0.268107 -0.377227 -0.616 234 237 255
0.278667 -0.377227 -0.616 189 195 219
0.302133 -0.377227 -0.616 221 225 252
0.322603 -0.377839 -0.617 205 211 237
0.426714 -0.378451 -0.618 148 160 184
0.439663 -0.378451 -0.618 34 72 137
0.445549 -0.378451 -0.618 46 75 143
0.471858 -0.377839 -0.617 133 138 167
0.48126 -0.377839 -0.617 109 107 112
0.467119 -0.352119 -0.575 120 89 87
0.444857 -0.330686 -0.54 156 108 88
0.4415 -0.3215 -0.525 173 116 96
0.44819 -0.318438 -0.52 175 118 98
0.45732 -0.317213 -0.518 176 120 97
0.461267 -0.317213 -0.518 168 112 89
0.471054 -0.317826 -0.519 161 110 89
0.0347286 -0.263529 -0.429 207 164 147
0.0386333 -0.2623 -0.427 195 150 131
0.0458457 -0.261686 -0.426 197 150 130
0.0619286 -0.261071 -0.425 182 136 120
0.0729638 -0.262914 -0.428 160 117 111
0.0865457 -0.269671 -0.439 122 88 79
0.0996695 -0.280729 -0.457 97 76 75
0.173629 -0.379629 -0.618 249 247 255
0.180986 -0.377786 -0.615 202 215 250
0.192387 -0.377171 -0.614 241 244 253
0.216129 -0.377786 -0.615 186 198 236
0.2376 -0.3784 -0.616 245 249 255
0.2728 -0.3784 -0.616 233 236 253
0.275147 -0.3784 -0.616 232 233 253
0.298129 -0.377786 -0.615 188 202 239
0.322603 -0.379014 -0.617 197 203 235
0.331467 -0.3784 -0.616 189 188 202
0.340231 -0.379014 -0.617 207 210 227
0.344932 -0.379014 -0.617 195 202 220
0.350809 -0.379014 -0.617 197 204 223
0.35551 -0.379014 -0.617 198 203 222
0.394292 -0.379014 -0.617 118 118 120
0.401867 -0.3784 -0.616 151 161 188
0.424849 -0.379014 -0.617 158 166 187
0.436601 -0.379014 -0.617 20 59 128
0.452611 -0.379629 -0.618 151 161 188
0.461281 -0.379014 -0.617 133 127 137
0.468332 -0.379014 -0.617 139 145 169
0.473033 -0.379014 -0.617 151 157 173
0.47891 -0.379014 -0.617 124 121 132
0.489017 -0.375943 -0.612 73 84 114
0.442966 -0.328029 -0.534 162 109 91
0.441174 -0.323729 -0.527 175 118 98
0.451283 -0.318814 -0.519 178 122 99
0.496027 -0.3268 -0.532 154 108 85
0.0361933 -0.263113 -0.427 200 157 140
0.0393543 -0.262497 -0.426 199 154 135
0.0417886 -0.262497 -0.426 203 158 139
0.0466571 -0.262497 -0.426 198 151 133
0.0588286 -0.262497 -0.426 188 142 126
0.180986 -0.378957 -0.615 202 215 250
0.185671 -0.378957 -0.615 177 192 221
0.204917 -0.377725 -0.613 221 228 247
0.229014 -0.378957 -0.615 184 186 211
0.243846 -0.378341 -0.614 191 204 236
0.245414 -0.378957 -0.615 197 210 242
0.277043 -0.378957 -0.615 232 233 251
0.279386 -0.378957 -0.615 215 220 240
0.286414 -0.378957 -0.615 229 231 252
0.297644 -0.378341 -0.614 158 173 214
0.309843 -0.378957 -0.615 121 144 198
0.35786 -0.38019 -0.617 200 203 220
0.363736 -0.38019 -0.617 75 81 113
0.432373 -0.379573 -0.616 36 71 137
0.45423 -0.38019 -0.617 175 177 192
0.46992 -0.379573 -0.616 145 148 165
0.4435 -0.3235 -0.525 178 118 94
0.443653 -0.322884 -0.524 178 118 92
0.443949 -0.321651 -0.522 181 121 97
0.44621 -0.320419 -0.52 176 121 100
0.459391 -0.31857 -0.517 175 119 96
0.0293467 -0.268253 -0.434 200 155 134
0.0490914 -0.263309 -0.426 196 149 133
0.0669429 -0.263309 -0.426 175 131 118
0.0806 -0.268253 -0.434 137 100 94
0.0867429 -0.271962 -0.44 118 87 82
0.0975 -0.281233 -0.455 99 79 80
0.216947 -0.37951 -0.614 232 234 255
0.218116 -0.37951 -0.614 240 242 255
0.230186 -0.380129 -0.615 169 173 202
0.243846 -0.37951 -0.614 179 190 222
0.25905 -0.37951 -0.614 190 198 221
0.272357 -0.380129 -0.615 236 238 251
0.292271 -0.380129 -0.615 225 232 255
0.294135 -0.37951 -0.614 190 201 229
0.296474 -0.37951 -0.614 107 119 157
0.302322 -0.37951 -0.614 183 188 208
0.326243 -0.380129 -0.615 197 207 232
0.333271 -0.380129 -0.615 169 167 178
0.3432 -0.380747 -0.616 160 168 189
0.359627 -0.380747 -0.616 194 202 215
0.403557 -0.380129 -0.615 125 136 166
0.408243 -0.380129 -0.615 149 155 181
0.409414 -0.380129 -0.615 127 133 159
0.41712 -0.380747 -0.616 126 124 125
0.458614 -0.380129 -0.615 142 136 148
0.47344 -0.380747 -0.616 173 175 188
0.478133 -0.380747 -0.616 157 154 165
0.48048 -0.380747 -0.616 175 172 183
0.485557 -0.380129 -0.615 156 158 181
0.450413 -0.320173 -0.518 178 120 98
0.452498 -0.319555 -0.517 179 121 99
0.459391 -0.319555 -0.517 177 119 95
0.466285 -0.319555 -0.517 167 115 91
0.49323 -0.326972 -0.529 153 107 91
0.03692 -0.26412 -0.426 199 156 137
0.0401657 -0.26412 -0.426 201 156 137
0.0425 -0.2635 -0.425 202 157 136
0.0450343 -0.26412 -0.426 197 152 131
0.0523371 -0.26412 -0.426 194 147 127
0.05396 -0.26412 -0.426 191 146 125
0.0645086 -0.26412 -0.426 177 133 120
0.0797733 -0.26908 -0.434 137 98 91
0.0807857 -0.2697 -0.435 135 98 90
0.08694 -0.27342 -0.441 119 88 85
0.210755 -0.38006 -0.613 243 245 255
0.243846 -0.38068 -0.614 170 181 213
0.248524 -0.38068 -0.614 162 176 213
0.250863 -0.38068 -0.614 210 220 247
0.298327 -0.38006 -0.613 153 163 190
0.303491 -0.38068 -0.614 142 155 189
0.304661 -0.38068 -0.614 174 187 221
0.320386 -0.3813 -0.615 107 137 187
0.322729 -0.3813 -0.615 110 133 183
0.334443 -0.3813 -0.615 158 155 164
0.337957 -0.3813 -0.615 197 199 214
0.34672 -0.38192 -0.616 172 183 205
0.366667 -0.38192 -0.616 45 74 130
0.370187 -0.38192 -0.616 75 110 174
0.379573 -0.38192 -0.616 53 86 157
0.39248 -0.38192 -0.616 189 189 197
0.393014 -0.3813 -0.615 184 184 192
0.408243 -0.3813 -0.615 151 156 178
0.426986 -0.3813 -0.615 81 98 142
0.428157 -0.3813 -0.615 104 128 172
0.435186 -0.3813 -0.615 56 95 154
0.451586 -0.3813 -0.615 117 131 166
0.447113 -0.33418 -0.539 144 106 95
0.442849 -0.32798 -0.529 164 114 91
0.4435 -0.3255 -0.525 174 117 90
0.443949 -0.32364 -0.522 179 119 91
0.454468 -0.32054 -0.517 184 126 102
0.459391 -0.32054 -0.517 180 123 96
0.501881 -0.3317 -0.535 149 107 93
0.0401657 -0.264931 -0.426 199 154 131
0.0572057 -0.264931 -0.426 181 136 117
0.0588286 -0.264931 -0.426 186 141 120
0.0620743 -0.264931 -0.426 178 136 114
0.182434 -0.380606 -0.612 191 205 234
0.197589 -0.380606 -0.612 173 177 204
0.217761 -0.381228 -0.613 245 245 255
0.275423 -0.38185 -0.614 233 230 247
0.278931 -0.38185 -0.614 202 210 231
0.320386 -0.382471 -0.615 107 137 187
0.325712 -0.38185 -0.614 204 211 229
0.337408 -0.38185 -0.614 181 180 194
0.342086 -0.38185 -0.614 127 138 160
0.343814 -0.382471 -0.615 150 161 183
0.370757 -0.382471 -0.615 44 79 145
0.397053 -0.38185 -0.614 124 125 127
0.419467 -0.383093 -0.616 182 179 188
0.427461 -0.38185 -0.614 151 170 210
0.4387 -0.382471 -0.615 47 92 147
0.488276 -0.38185 -0.614 85 99 134
0.447943 -0.335829 -0.54 137 103 93
0.450529 -0.321525 -0.517 180 122 98
0.467349 -0.320903 -0.516 170 116 92
0.490432 -0.327122 -0.526 153 111 89
0.02622 -0.272605 -0.437 196 155 133
0.0465476 -0.265119 -0.425 200 154 131
0.0697029 -0.26699 -0.428 161 119 105
0.0751171 -0.268862 -0.431 147 107 99
0.0840371 -0.273852 -0.439 119 88 85
0.170443 -0.383643 -0.615 235 238 255
0.178937 -0.381771 -0.612 182 191 220
0.210411 -0.381771 -0.612 246 249 254
0.230605 -0.382395 -0.613 152 165 199
0.23761 -0.382395 -0.613 229 237 250
0.249287 -0.382395 -0.613 178 190 228
0.27731 -0.382395 -0.613 190 192 207
0.307166 -0.381771 -0.612 78 111 180
0.321034 -0.383019 -0.614 88 115 170
0.33102 -0.382395 -0.613 205 210 230
0.35612 -0.383019 -0.614 201 199 212
0.3731 -0.383643 -0.615 38 69 134
0.395884 -0.383019 -0.614 152 156 155
0.45553 -0.383019 -0.614 153 162 193
0.467225 -0.383019 -0.614 174 175 195
0.476581 -0.383019 -0.614 169 173 184
0.48009 -0.383019 -0.614 104 105 107
0.44814 -0.336233 -0.539 141 107 98
0.456537 -0.321886 -0.516 185 128 101
0.0522143 -0.265929 -0.425 191 146 123
0.0919381 -0.280946 -0.449 103 82 81
0.104073 -0.29346 -0.469 94 75 77
0.193774 -0.382311 -0.611 200 205 224
0.19843 -0.382311 -0.611 213 224 252
0.213559 -0.382311 -0.611 243 245 255
0.223234 -0.382937 -0.612 246 246 255
0.231394 -0.382937 -0.612 141 155 184
0.238389 -0.382937 -0.612 199 212 246
0.244217 -0.382937 -0.612 149 164 207
0.347367 -0.383563 -0.613 168 171 186
0.353205 -0.383563 -0.613 199 203 215
0.363713 -0.383563 -0.613 63 88 142
0.390036 -0.384189 -0.614 189 190 211
0.392375 -0.384189 -0.614 190 190 202
0.418105 -0.384189 -0.614 181 181 193
0.445004 -0.384189 -0.614 149 163 200
0.459458 -0.383563 -0.613 170 172 185
0.475411 -0.384189 -0.614 172 176 188
0.482429 -0.384189 -0.614 95 96 116
0.484768 -0.384189 -0.614 73 79 113
0.446197 -0.333506 -0.533 154 108 92
0.445083 -0.325997 -0.521 175 121 97
0.472263 -0.322869 -0.516 163 115 93
0.0252133 -0.272387 -0.434 195 157 136
0.0505952 -0.266738 -0.425 191 146 123
0.0547714 -0.267366 -0.426 186 141 120
0.0588286 -0.267366 -0.426 183 138 117
0.0604514 -0.267366 -0.426 181 136 115
0.0620743 -0.267366 -0.426 180 135 114
0.16298 -0.38222 -0.609 193 202 235
0.181838 -0.382848 -0.61 164 177 212
0.220542 -0.383475 -0.611 242 246 255
0.251965 -0.383475 -0.611 146 163 207
0.254292 -0.383475 -0.611 133 148 189
0.263603 -0.383475 -0.611 234 237 254
0.282224 -0.383475 -0.611 187 187 211
0.283388 -0.383475 -0.611 197 197 221
0.297353 -0.383475 -0.611 142 149 177
0.302009 -0.383475 -0.611 84 116 173
0.322847 -0.38473 -0.613 182 193 221
0.327517 -0.38473 -0.613 208 214 230
0.354372 -0.38473 -0.613 201 201 213
0.396407 -0.38473 -0.613 174 173 178
0.430268 -0.38473 -0.613 130 155 186
0.436106 -0.38473 -0.613 97 133 191
0.446373 -0.333893 -0.532 153 111 95
0.510686 -0.338914 -0.54 150 109 91
0.0296171 -0.268177 -0.426 200 158 136
0.0473571 -0.267548 -0.425 193 148 125
0.0481667 -0.267548 -0.425 193 148 125
0.0923476 -0.283915 -0.451 98 78 79
0.0957667 -0.286433 -0.455 96 78 78
0.09988 -0.29084 -0.462 93 75 75
0.104739 -0.297135 -0.472 94 78 79
0.17399 -0.384639 -0.611 213 214 242
0.212048 -0.38401 -0.61 210 210 222
0.240327 -0.384639 -0.611 174 193 235
0.249637 -0.384639 -0.611 159 182 236
0.282924 -0.38401 -0.61 208 206 228
0.287571 -0.38401 -0.61 225 227 248
0.29037 -0.384639 -0.611 224 225 243
0.324651 -0.385269 -0.612 206 207 227
0.329314 -0.385269 -0.612 205 210 230
0.334595 -0.384639 -0.611 205 208 223
0.351463 -0.385269 -0.612 198 203 222
0.36312 -0.385269 -0.612 158 178 211
0.366049 -0.385898 -0.613 145 171 206
0.368384 -0.385898 -0.613 128 159 206
0.370719 -0.385898 -0.613 78 112 173
0.382395 -0.385898 -0.613 176 191 224
0.389401 -0.385898 -0.613 177 186 215
0.411586 -0.385898 -0.613 185 189 201
0.431435 -0.385898 -0.613 83 111 158
0.450549 -0.385269 -0.612 162 168 192
0.454046 -0.385269 -0.612 77 84 110
0.485146 -0.385898 -0.613 158 161 180
0.45396 -0.34372 -0.546 133 104 98
0.4455 -0.3305 -0.525 169 117 95
0.44634 -0.326723 -0.519 178 122 97
0.454671 -0.324205 -0.515 186 130 107
0.4635 -0.324205 -0.515 175 121 97
0.465537 -0.323575 -0.514 175 123 99
0.0425 -0.268357 -0.425 198 154 129
0.0671 -0.26962 -0.427 165 121 108
0.0877286 -0.280986 -0.445 107 81 80
0.0900267 -0.28288 -0.448 101 81 82
0.2175 -0.38454 -0.609 233 233 245
0.22599 -0.385171 -0.61 242 246 255
0.27434 -0.38454 -0.609 177 174 193
0.27782 -0.38454 -0.609 203 202 216
0.293381 -0.385171 -0.61 179 178 192
0.31481 -0.385803 -0.611 127 160 214
0.317138 -0.385803 -0.611 120 151 205
0.334595 -0.385803 -0.611 206 209 226
0.33925 -0.385803 -0.611 172 172 180
0.358457 -0.386434 -0.612 155 161 187
0.373611 -0.386434 -0.612 82 124 182
0.37944 -0.386434 -0.612 166 178 218
0.385269 -0.386434 -0.612 86 103 146
0.426069 -0.386434 -0.612 175 181 197
0.443554 -0.386434 -0.612 137 150 185
0.445886 -0.386434 -0.612 178 183 203
0.448649 -0.385803 -0.611 183 180 199
0.481636 -0.370017 -0.586 127 102 95
0.470432 -0.324554 -0.514 166 119 99
0.482917 -0.327711 -0.519 156 113 94
0.0376429 -0.269167 -0.425 195 153 131
0.0563943 -0.2698 -0.426 185 140 117
0.0671 -0.270433 -0.427 164 120 107
0.09362 -0.2869 -0.453 98 78 79
0.163515 -0.386967 -0.611 235 238 255
0.18386 -0.3857 -0.609 187 204 248
0.18734 -0.3857 -0.609 163 181 219
0.2059 -0.3857 -0.609 228 229 247
0.21634 -0.3857 -0.609 215 217 230
0.23142 -0.3857 -0.609 187 196 227
0.23838 -0.3857 -0.609 125 146 191
0.24418 -0.3857 -0.609 114 135 190
0.25346 -0.3857 -0.609 134 156 205
0.26274 -0.3857 -0.609 235 238 255
0.321793 -0.386967 -0.611 120 136 170
0.325285 -0.386967 -0.611 202 209 235
0.330562 -0.386333 -0.61 210 212 227
0.332886 -0.386333 -0.61 208 207 221
0.338087 -0.386967 -0.611 183 186 195
0.342742 -0.386967 -0.611 202 205 220
0.357871 -0.386967 -0.611 112 119 148
0.367182 -0.386967 -0.611 139 162 204
0.36951 -0.386967 -0.611 96 125 181
0.381148 -0.386967 -0.611 189 197 220
0.433519 -0.386967 -0.611 108 134 191
0.448649 -0.386967 -0.611 183 180 199
0.453304 -0.386967 -0.611 165 167 182
0.46727 -0.386967 -0.611 116 125 154
0.47736 -0.3876 -0.612 71 84 119
0.49277 -0.385067 -0.608 84 101 144
0.47396 -0.363533 -0.574 126 100 99
0.446034 -0.3344 -0.528 156 113 96
0.456633 -0.326167 -0.515 186 132 108
0.0219571 -0.276329 -0.435 191 150 128
0.0263714 -0.270611 -0.426 200 158 136
0.0375543 -0.269341 -0.424 200 155 132
0.0391695 -0.269341 -0.424 199 154 133
0.0562619 -0.269976 -0.425 181 139 114
0.0636971 -0.270611 -0.426 167 124 107
0.0662867 -0.271247 -0.427 162 118 105
0.0825524 -0.279505 -0.44 120 90 88
0.0994286 -0.29475 -0.464 96 78 78
0.178926 -0.386225 -0.608 123 143 193
0.1824 -0.386225 -0.608 158 175 231
0.203246 -0.386225 -0.608 238 240 255
0.204404 -0.386225 -0.608 217 219 234
0.23026 -0.38686 -0.609 224 227 244
0.2581 -0.38686 -0.609 227 234 255
0.31378 -0.38686 -0.609 178 196 232
0.317781 -0.387495 -0.61 201 216 249
0.321267 -0.387495 -0.61 139 155 189
0.324752 -0.387495 -0.61 190 201 231
0.34799 -0.387495 -0.61 204 206 219
0.360771 -0.387495 -0.61 183 188 210
0.366018 -0.38813 -0.611 152 163 191
0.373001 -0.38813 -0.611 91 132 176
0.375329 -0.38813 -0.611 91 122 169
0.376492 -0.38813 -0.611 97 128 175
0.39395 -0.38813 -0.611 167 167 177
0.396277 -0.38813 -0.611 192 195 202
0.416062 -0.38813 -0.611 87 95 116
0.438174 -0.38813 -0.611 93 117 165
0.452057 -0.343029 -0.54 142 108 98
0.451623 -0.327783 -0.516 179 127 105
0.457705 -0.326512 -0.514 184 132 108
0.47337 -0.326512 -0.514 165 117 97
0.498331 -0.335406 -0.528 152 111 93
0.0225238 -0.273971 -0.43 196 154 132
0.0239933 -0.27206 -0.427 202 160 138
0.0383619 -0.270149 -0.424 198 153 130
0.0399771 -0.270149 -0.424 199 153 130
0.048861 -0.270149 -0.424 194 148 124
0.0612629 -0.271423 -0.426 174 128 105
0.0680724 -0.272697 -0.428 156 113 97
0.0766429 -0.277157 -0.435 130 95 89
0.096819 -0.293086 -0.46 91 77 77
0.0983324 -0.294997 -0.463 93 79 79
0.193662 -0.386746 -0.607 224 231 247
0.210194 -0.387383 -0.608 201 202 220
0.211352 -0.387383 -0.608 179 180 198
0.248411 -0.387383 -0.608 163 186 238
0.268099 -0.387383 -0.608 231 237 253
0.275751 -0.386746 -0.607 201 202 207
0.2987 -0.38802 -0.609 201 216 249
0.31378 -0.38802 -0.609 178 198 233
0.33698 -0.38802 -0.609 206 208 221
0.33814 -0.38802 -0.609 203 205 218
0.34046 -0.38802 -0.609 206 204 225
0.346829 -0.388657 -0.61 205 207 222
0.349152 -0.388657 -0.61 202 204 217
0.365419 -0.388657 -0.61 147 161 188
0.381686 -0.388657 -0.61 190 192 213
0.400276 -0.388657 -0.61 164 166 189
0.403762 -0.388657 -0.61 161 166 188
0.410243 -0.389294 -0.611 178 181 200
0.420029 -0.388657 -0.61 139 139 151
0.44559 -0.388657 -0.61 171 179 200
0.453724 -0.388657 -0.61 171 176 198
0.461857 -0.388657 -0.61 117 135 183
0.481235 -0.389294 -0.611 139 143 172
0.49242 -0.38802 -0.609 78 99 144
0.447724 -0.337686 -0.53 148 110 97
0.457705 -0.327491 -0.514 181 129 107
0.48781 -0.331314 -0.52 149 108 88
0.0286705 -0.270956 -0.424 202 158 131
0.0415924 -0.270956 -0.424 197 151 127
0.0580171 -0.272234 -0.426 180 134 111
0.0630333 -0.272873 -0.427 169 124 103
0.0718333 -0.27543 -0.431 141 101 93
0.0728229 -0.276069 -0.432 140 100 92
0.076819 -0.278625 -0.436 129 94 88
0.0796743 -0.279903 -0.438 124 93 90
0.0817143 -0.281181 -0.44 121 93 90
0.17285 -0.387902 -0.607 157 170 204
0.174007 -0.387902 -0.607 159 172 214
0.25494 -0.387902 -0.607 156 171 204
0.261877 -0.387902 -0.607 235 236 255
0.295893 -0.388541 -0.608 211 216 245
0.29821 -0.388541 -0.608 204 215 247
0.310949 -0.388541 -0.608 121 152 206
0.31842 -0.38918 -0.609 216 214 236
0.32538 -0.38918 -0.609 147 160 192
0.33814 -0.38918 -0.609 205 205 217
0.34394 -0.38918 -0.609 208 203 225
0.38338 -0.38918 -0.609 181 186 205
0.38686 -0.38918 -0.609 140 147 173
0.38802 -0.38918 -0.609 101 108 137
0.40841 -0.389819 -0.61 161 167 191
0.43094 -0.38918 -0.609 112 138 189
0.443267 -0.389819 -0.61 132 149 192
0.453724 -0.389819 -0.61 177 179 204
0.472314 -0.389819 -0.61 81 100 156
0.478908 -0.390458 -0.611 86 102 136
0.483933 -0.389819 -0.61 177 176 184
0.49358 -0.38918 -0.609 80 102 143
0.447068 -0.332944 -0.521 172 120 98
0.469577 -0.327192 -0.512 174 119 99
0.0231257 -0.273046 -0.426 200 158 134
0.0440152 -0.271764 -0.424 192 147 118
0.0656267 -0.274328 -0.428 156 113 97
0.0710124 -0.27625 -0.431 144 104 94
0.165571 -0.390981 -0.61 214 222 243
0.199443 -0.389058 -0.607 241 245 255
0.219098 -0.389058 -0.607 241 248 255
0.222567 -0.389058 -0.607 240 244 255
0.251471 -0.389058 -0.607 225 240 255
0.257252 -0.389058 -0.607 181 192 222
0.258409 -0.389058 -0.607 195 206 236
0.268814 -0.389058 -0.607 231 232 250
0.280376 -0.389058 -0.607 234 230 245
0.286157 -0.389058 -0.607 223 229 245
0.313906 -0.389058 -0.607 173 192 235
0.331794 -0.389699 -0.608 185 186 204
0.36018 -0.39034 -0.609 155 154 168
0.38222 -0.39034 -0.609 193 194 215
0.41238 -0.39034 -0.609 77 96 129
0.42514 -0.39034 -0.609 176 174 196
0.42746 -0.39034 -0.609 114 119 148
0.46574 -0.39034 -0.609 63 90 145
0.471152 -0.390981 -0.61 63 87 147
0.48894 -0.39034 -0.609 148 150 163
0.49242 -0.39034 -0.609 84 105 148
0.462722 -0.355088 -0.554 139 109 101
0.45183 -0.32945 -0.514 174 122 100
0.460723 -0.328809 -0.513 180 125 104
0.463726 -0.328168 -0.512 179 125 101
0.466713 -0.327527 -0.511 172 120 98
0.479195 -0.33009 -0.515 153 112 92
0.0302143 -0.271929 -0.423 203 160 128
0.0318257 -0.271929 -0.423 200 157 125
0.0358543 -0.271929 -0.423 200 155 126
0.0374657 -0.271929 -0.423 198 153 124
0.0504762 -0.272571 -0.424 186 141 112
0.0512838 -0.272571 -0.424 185 139 113
0.0674143 -0.275786 -0.429 155 113 101
0.0729914 -0.278357 -0.433 138 99 92
0.0808762 -0.282857 -0.44 119 89 87
0.0872714 -0.287357 -0.447 109 85 85
0.16298 -0.3915 -0.609 237 240 255
0.187571 -0.389571 -0.606 142 166 210
0.193343 -0.389571 -0.606 234 237 252
0.195651 -0.389571 -0.606 238 242 253
0.215274 -0.389571 -0.606 237 240 249
0.226817 -0.389571 -0.606 207 210 229
0.231434 -0.389571 -0.606 207 213 235
0.248749 -0.389571 -0.606 206 221 255
0.27068 -0.389571 -0.606 230 231 249
0.319687 -0.390214 -0.607 211 214 245
0.353216 -0.390214 -0.607 147 156 185
0.40658 -0.3915 -0.609 145 161 197
0.41122 -0.3915 -0.609 69 91 140
0.41586 -0.3915 -0.609 169 178 209
0.42166 -0.3915 -0.609 179 182 189
0.426758 -0.390857 -0.608 106 115 144
0.427916 -0.390857 -0.608 90 115 156
0.44022 -0.3915 -0.609 82 110 158
0.45182 -0.3915 -0.609 181 178 187
0.4727 -0.3915 -0.609 39 70 134
0.48546 -0.3915 -0.609 173 171 184
0.447329 -0.333643 -0.519 172 121 100
0.451623 -0.331714 -0.516 172 122 99
0.455747 -0.330429 -0.514 177 125 101
0.0269914 -0.272734 -0.423 200 159 129
0.0294086 -0.272734 -0.423 203 160 128
0.0374657 -0.272734 -0.423 195 150 121
0.0580171 -0.274669 -0.426 177 129 106
0.0739867 -0.279827 -0.434 132 97 93
0.0749857 -0.280471 -0.435 128 93 89
0.0923 -0.293367 -0.455 94 73 78
0.158714 -0.390726 -0.606 242 241 255
0.168824 -0.390081 -0.605 167 176 207
0.175738 -0.390081 -0.605 129 157 207
0.217583 -0.390726 -0.606 239 249 251
0.231052 -0.390081 -0.605 214 221 240
0.23451 -0.390081 -0.605 222 228 242
0.248749 -0.390726 -0.606 203 217 255
0.267217 -0.390726 -0.606 230 233 248
0.276451 -0.390726 -0.606 230 231 249
0.291938 -0.39137 -0.607 183 196 231
0.321999 -0.39137 -0.607 198 204 230
0.339342 -0.39137 -0.607 149 153 182
0.350904 -0.39137 -0.607 131 150 183
0.360747 -0.392015 -0.608 178 175 192
0.38559 -0.39137 -0.607 176 175 189
0.386746 -0.39137 -0.607 186 189 206
0.388541 -0.392015 -0.608 184 187 204
0.393173 -0.392015 -0.608 69 95 146
0.396648 -0.392015 -0.608 127 150 192
0.40128 -0.392015 -0.608 73 95 145
0.403596 -0.392015 -0.608 149 176 223
0.411703 -0.392015 -0.608 71 92 145
0.428369 -0.39137 -0.607 94 118 164
0.438339 -0.392015 -0.608 90 116 165
0.46226 -0.39266 -0.609 33 62 120
0.467291 -0.392015 -0.608 42 76 139
0.475833 -0.368159 -0.571 136 102 100
0.44844 -0.333987 -0.518 171 120 99
0.450529 -0.333342 -0.517 173 122 101
0.45885 -0.330118 -0.512 180 128 106
0.469633 -0.329473 -0.511 173 121 97
0.0191581 -0.276773 -0.428 195 158 131
0.0302143 -0.27354 -0.423 202 159 127
0.0334371 -0.27354 -0.423 199 154 125
0.0398829 -0.27354 -0.423 195 149 123
0.0455229 -0.27354 -0.423 191 144 118
0.0530238 -0.274833 -0.425 179 131 108
0.0580171 -0.27548 -0.426 174 126 104
0.0612629 -0.27548 -0.426 164 118 102
0.0721667 -0.280007 -0.433 140 99 93
0.0899695 -0.292293 -0.452 99 74 77
0.170846 -0.390587 -0.604 189 202 236
0.175738 -0.391233 -0.605 151 181 235
0.202243 -0.391233 -0.605 243 245 255
0.2057 -0.391233 -0.605 242 244 255
0.251795 -0.391233 -0.605 237 239 255
0.277148 -0.391233 -0.605 228 229 247
0.299537 -0.39188 -0.606 141 156 187
0.303 -0.39188 -0.606 143 166 207
0.33532 -0.39188 -0.606 186 191 220
0.421431 -0.392527 -0.607 192 190 195
0.443399 -0.392527 -0.607 97 114 166
0.478872 -0.393173 -0.608 165 164 182
0.481189 -0.393173 -0.608 173 172 190
0.483505 -0.393173 -0.608 166 169 188
0.485821 -0.393173 -0.608 171 170 188
0.491959 -0.392527 -0.607 79 104 158
0.474415 -0.367307 -0.568 136 102 101
0.466713 -0.330447 -0.511 175 123 99
0.469633 -0.330447 -0.511 173 121 97
0.480223 -0.332387 -0.514 153 112 92
0.571071 -0.3783 -0.585 107 97 108
0.0261857 -0.274346 -0.423 200 156 129
0.029339 -0.273697 -0.422 200 156 127
0.06222 -0.27694 -0.427 158 112 97
0.158976 -0.393683 -0.607 240 242 255
0.183501 -0.391737 -0.604 205 221 255
0.219529 -0.392386 -0.605 237 241 252
0.2299 -0.392386 -0.605 232 238 255
0.232971 -0.391737 -0.604 191 194 209
0.250643 -0.392386 -0.605 231 236 255
0.270233 -0.392386 -0.605 190 191 209
0.293766 -0.393034 -0.606 218 220 241
0.309414 -0.392386 -0.605 145 170 210
0.342246 -0.393034 -0.606 180 195 234
0.39188 -0.393034 -0.606 58 84 133
0.401776 -0.393683 -0.607 60 91 148
0.423046 -0.393034 -0.606 143 146 153
0.428817 -0.393034 -0.606 96 121 175
0.429971 -0.393034 -0.606 90 115 169
0.435306 -0.393683 -0.607 75 107 164
0.436462 -0.393683 -0.607 87 115 163
0.445711 -0.393683 -0.607 178 185 195
0.493457 -0.393034 -0.606 65 94 152
0.449205 -0.341797 -0.527 158 110 96
