ply
format ascii 1.0
comment Created by Open3D
element vertex 1277
property double x
property double y
property double z
property uchar red
property uchar green
property uchar blue
end_header
0.0472371 -0.322071 -0.501 140 109 106
0.0589333 -0.334286 -0.52 129 101 98
0.0675133 -0.342643 -0.533 129 104 100
0.07686 -0.352929 -0.549 125 104 103
0.105269 -0.388286 -0.604 80 98 148
0.122526 -0.388286 -0.604 178 181 196
0.124827 -0.388286 -0.604 182 185 200
0.155373 -0.387 -0.602 119 129 156
0.382413 -0.387 -0.602 57 89 146
0.450067 -0.387 -0.602 41 77 137
0.47112 -0.388286 -0.604 136 145 176
0.475722 -0.388286 -0.604 154 157 176
0.478023 -0.388286 -0.604 135 149 175
0.485271 -0.387643 -0.603 43 81 144
0.491347 -0.387 -0.602 42 73 138
0.494787 -0.387 -0.602 58 88 140
0.476049 -0.360643 -0.561 150 116 106
0.458571 -0.321429 -0.5 180 125 104
0.471894 -0.322071 -0.501 166 115 96
0.955034 -0.374143 -0.582 207 210 191
0.972771 -0.374143 -0.582 206 209 192
0.976097 -0.374143 -0.582 206 209 192
1.00603 -0.374143 -0.582 204 207 190
1.03263 -0.374143 -0.582 203 205 191
1.04039 -0.374143 -0.582 203 207 192
-0.010339 -0.304328 -0.472 200 163 134
-0.00491333 -0.302393 -0.469 194 157 130
0.00134286 -0.303038 -0.47 199 160 131
0.0139648 -0.304972 -0.473 194 153 125
0.0213067 -0.306907 -0.476 191 150 122
0.0250381 -0.308196 -0.478 183 141 117
0.0601543 -0.336566 -0.522 129 101 100
0.111205 -0.390081 -0.605 70 88 154
0.120225 -0.389436 -0.604 183 189 203
0.122526 -0.389436 -0.604 183 185 198
0.125977 -0.389436 -0.604 185 188 205
0.1407 -0.388791 -0.603 151 150 155
0.141849 -0.388791 -0.603 165 164 169
0.434437 -0.387502 -0.601 179 184 206
0.447773 -0.388147 -0.602 122 150 197
0.47034 -0.388791 -0.603 100 113 148
0.48114 -0.36558 -0.567 144 112 101
0.448653 -0.32625 -0.506 174 126 103
0.46619 -0.322381 -0.5 172 120 99
0.47 -0.322381 -0.5 171 119 98
0.490086 -0.328829 -0.51 151 113 92
0.492983 -0.330118 -0.512 149 114 94
0.923361 -0.375896 -0.583 208 211 194
0.928913 -0.375896 -0.583 208 211 194
0.941129 -0.375896 -0.583 208 211 192
0.94557 -0.375896 -0.583 208 211 192
0.953344 -0.375896 -0.583 208 211 192
0.953926 -0.375251 -0.582 207 210 191
0.961686 -0.375251 -0.582 206 209 192
0.970554 -0.375251 -0.582 207 210 193
0.973313 -0.374607 -0.581 205 208 191
0.982167 -0.374607 -0.581 207 210 193
0.996553 -0.374607 -0.581 205 208 191
1.05299 -0.374607 -0.581 203 205 192
1.05702 -0.375251 -0.582 202 204 190
1.05813 -0.375251 -0.582 203 205 191
1.06185 -0.374607 -0.581 202 204 191
0.00672857 -0.30458 -0.471 198 159 130
0.0176057 -0.30652 -0.474 192 151 123
0.0297143 -0.3104 -0.48 172 129 110
0.0395857 -0.31622 -0.489 146 112 103
0.062381 -0.338853 -0.524 130 101 103
0.0710886 -0.34726 -0.537 129 105 105
0.114283 -0.38994 -0.603 143 156 208
0.122323 -0.38994 -0.603 185 188 203
0.136106 -0.38994 -0.603 186 189 204
0.384068 -0.388647 -0.601 43 79 137
0.387502 -0.388647 -0.601 43 81 146
0.39666 -0.388647 -0.601 107 138 185
0.397805 -0.388647 -0.601 138 169 216
0.401239 -0.388647 -0.601 190 185 205
0.443595 -0.388647 -0.601 145 155 182
0.448574 -0.32786 -0.507 172 124 102
0.4518 -0.324627 -0.502 174 126 104
0.482395 -0.326567 -0.505 155 110 89
0.504648 -0.336267 -0.52 146 108 89
0.941731 -0.37636 -0.582 208 211 192
0.96114 -0.375713 -0.581 206 209 192
0.962247 -0.375713 -0.581 206 209 192
0.965567 -0.375713 -0.581 207 210 193
0.97442 -0.375713 -0.581 205 208 189
0.977162 -0.375067 -0.58 206 209 190
1.0541 -0.375713 -0.581 204 206 193
0.010339 -0.306126 -0.472 198 159 130
0.0167029 -0.307423 -0.474 189 150 121
0.0395857 -0.317151 -0.489 146 112 103
0.0449667 -0.32234 -0.497 142 109 104
0.0472371 -0.324934 -0.501 136 105 102
0.0517676 -0.329474 -0.508 131 101 101
0.05882 -0.336609 -0.519 131 101 103
0.110837 -0.391089 -0.603 69 85 137
0.1462 -0.39044 -0.602 202 204 217
0.375429 -0.389143 -0.6 191 200 209
0.399429 -0.389143 -0.6 174 186 212
0.406286 -0.389143 -0.6 188 190 211
0.418857 -0.389143 -0.6 65 104 163
0.431429 -0.389143 -0.6 123 135 161
0.432571 -0.389143 -0.6 134 146 172
0.440571 -0.389143 -0.6 87 100 134
0.448174 -0.389791 -0.601 42 76 137
0.477587 -0.39044 -0.602 123 138 161
0.485613 -0.39044 -0.602 31 73 133
0.487096 -0.389791 -0.601 20 63 131
0.448893 -0.333366 -0.514 166 124 102
0.448574 -0.328826 -0.507 171 123 101
0.933971 -0.377469 -0.582 209 212 195
0.933473 -0.37682 -0.581 209 212 193
0.93458 -0.37682 -0.581 208 211 192
0.95118 -0.37682 -0.581 207 210 191
0.971638 -0.376171 -0.58 207 210 193
0.978267 -0.376171 -0.58 206 209 192
1.00651 -0.37682 -0.581 205 208 189
1.04787 -0.376171 -0.58 203 205 191
0.00671429 -0.305724 -0.47 200 158 134
0.0121371 -0.307025 -0.472 197 156 128
0.0325924 -0.31353 -0.482 166 124 110
0.0345 -0.31418 -0.483 159 121 110
0.0395857 -0.318083 -0.489 148 114 105
0.0565143 -0.335646 -0.516 128 98 100
0.0749857 -0.353209 -0.543 126 101 104
0.10854 -0.392237 -0.603 122 142 192
0.120973 -0.391587 -0.602 186 188 203
0.449714 -0.390286 -0.6 15 52 122
0.46612 -0.391587 -0.602 78 102 150
0.473359 -0.390936 -0.601 168 170 193
0.495429 -0.390286 -0.6 121 139 177
0.4644 -0.351257 -0.54 150 112 101
0.452152 -0.338248 -0.52 158 120 101
0.448314 -0.331743 -0.51 165 123 99
0.46906 -0.324588 -0.499 165 117 95
0.930153 -0.377927 -0.581 208 211 194
0.959486 -0.377276 -0.58 207 210 193
0.969429 -0.377276 -0.58 207 210 193
0.998637 -0.376626 -0.579 205 208 189
1.01804 -0.377276 -0.58 205 208 191
1.01914 -0.377276 -0.58 204 207 190
1.03503 -0.376626 -0.579 203 207 190
1.05781 -0.377276 -0.58 204 206 192
-0.0202267 -0.374467 -0.574 192 157 127
-0.0139352 -0.307924 -0.472 196 161 129
-0.00222381 -0.304662 -0.467 200 161 130
0.0112143 -0.307271 -0.471 198 157 129
0.03542 -0.3151 -0.483 157 119 108
0.0364152 -0.315752 -0.484 153 116 107
0.0460057 -0.324886 -0.498 138 105 100
0.0576086 -0.337281 -0.517 131 101 101
0.0708238 -0.349024 -0.535 124 102 105
0.120772 -0.392081 -0.601 175 185 197
0.123062 -0.392081 -0.601 192 190 204
0.126707 -0.392733 -0.602 190 192 204
0.150536 -0.392081 -0.601 109 123 152
0.154599 -0.390776 -0.599 202 205 222
0.40789 -0.390776 -0.599 135 142 158
0.415877 -0.390776 -0.599 56 92 152
0.426146 -0.390776 -0.599 46 90 151
0.428428 -0.390776 -0.599 56 92 142
0.455429 -0.391429 -0.6 23 60 130
0.460767 -0.392081 -0.601 48 79 146
0.463056 -0.392081 -0.601 99 124 165
0.473359 -0.392081 -0.601 168 173 195
0.494603 -0.390776 -0.599 95 118 160
0.498026 -0.390776 -0.599 167 172 175
0.451513 -0.337281 -0.517 161 123 100
0.45072 -0.3288 -0.504 174 128 104
0.451742 -0.328148 -0.503 174 128 104
0.452756 -0.327495 -0.502 174 128 104
0.471905 -0.32619 -0.5 166 121 100
0.472857 -0.32619 -0.5 163 118 97
0.491064 -0.332062 -0.509 146 114 91
0.95342 -0.377729 -0.579 207 210 193
0.972169 -0.377729 -0.579 206 209 190
0.980398 -0.377076 -0.578 206 209 192
1.01804 -0.378381 -0.58 205 208 191
0.00580667 -0.30686 -0.469 197 156 128
0.00848667 -0.30686 -0.469 197 156 128
0.024881 -0.310786 -0.475 176 133 116
0.0406 -0.3206 -0.49 142 109 104
0.0416181 -0.321254 -0.491 141 108 103
0.0471429 -0.327143 -0.5 135 104 102
0.04944 -0.32976 -0.504 134 103 101
0.0670067 -0.346117 -0.529 129 103 106
0.0708238 -0.350043 -0.535 123 101 104
0.0903571 -0.376214 -0.575 126 115 123
0.10589 -0.393226 -0.601 139 161 210
0.118483 -0.393226 -0.601 137 153 187
0.119429 -0.392571 -0.6 157 170 189
0.436414 -0.391917 -0.599 161 167 189
0.438696 -0.391917 -0.599 114 135 166
0.448965 -0.391917 -0.599 26 60 124
0.460767 -0.393226 -0.601 65 98 165
0.479429 -0.392571 -0.6 60 89 149
0.485143 -0.392571 -0.6 65 100 158
0.479675 -0.365746 -0.559 146 114 99
0.450072 -0.334994 -0.512 164 121 102
0.450167 -0.33434 -0.511 169 124 103
0.467159 -0.326489 -0.499 168 122 99
0.476666 -0.327797 -0.501 163 118 97
0.47762 -0.327797 -0.501 164 119 98
0.578449 -0.378831 -0.579 192 185 175
0.932971 -0.379486 -0.58 208 210 196
0.9396 -0.379486 -0.58 207 210 193
0.952874 -0.378177 -0.578 206 209 190
0.981499 -0.378177 -0.578 205 208 191
1.00242 -0.378177 -0.578 204 207 188
1.03104 -0.378177 -0.578 203 207 192
1.03214 -0.378177 -0.578 203 207 192
-0.0158 -0.311034 -0.474 193 156 127
-0.00133143 -0.305785 -0.466 202 163 132
0.0184695 -0.310378 -0.473 191 149 124
0.02212 -0.311034 -0.474 186 144 119
0.0505 -0.331376 -0.505 131 103 102
0.0564048 -0.337938 -0.515 131 103 100
0.0902 -0.376653 -0.574 123 117 127
0.109325 -0.39437 -0.601 166 179 211
0.138857 -0.393714 -0.6 195 194 210
0.151176 -0.393058 -0.599 200 207 225
0.152063 -0.392402 -0.598 203 210 228
0.186234 -0.392402 -0.598 185 192 221
0.376455 -0.392402 -0.598 75 105 157
0.385568 -0.392402 -0.598 23 69 144
0.404931 -0.392402 -0.598 143 148 167
0.440242 -0.392402 -0.598 165 174 181
0.443659 -0.392402 -0.598 167 174 193
0.452388 -0.393058 -0.599 21 55 126
0.482052 -0.393058 -0.599 65 99 160
0.454014 -0.341875 -0.521 158 121 105
0.450851 -0.337282 -0.514 163 120 101
0.4518 -0.329408 -0.502 171 125 102
0.458605 -0.327439 -0.499 176 128 105
0.480486 -0.329408 -0.502 161 116 97
0.924133 -0.38059 -0.58 208 210 196
0.929657 -0.38059 -0.58 207 210 193
0.940186 -0.379934 -0.579 208 211 194
0.94847 -0.379278 -0.578 206 208 194
0.957278 -0.379278 -0.578 206 208 194
0.960581 -0.379278 -0.578 206 208 194
0.962783 -0.379278 -0.578 208 210 196
0.967187 -0.379278 -0.578 205 207 193
0.973792 -0.379278 -0.578 206 208 194
0.975994 -0.379278 -0.578 205 207 193
0.990791 -0.378622 -0.577 204 207 190
1.01077 -0.379934 -0.579 205 207 193
1.04245 -0.378622 -0.577 204 206 192
1.04866 -0.379278 -0.578 201 203 189
1.05526 -0.379278 -0.578 203 205 192
-0.0147086 -0.307989 -0.468 191 155 123
0.00044381 -0.306672 -0.466 200 161 130
0.00757714 -0.307989 -0.468 198 157 129
0.0120857 -0.309305 -0.47 195 154 126
0.012981 -0.309305 -0.47 195 154 126
0.0211724 -0.311279 -0.473 184 142 118
0.0267467 -0.313253 -0.476 173 129 116
0.0427267 -0.324441 -0.493 135 106 102
0.0789514 -0.361294 -0.549 122 101 108
0.0804343 -0.363269 -0.552 121 100 107
0.112384 -0.394199 -0.599 173 180 199
0.121714 -0.394857 -0.6 178 179 199
0.132921 -0.394199 -0.599 142 141 155
0.137485 -0.394199 -0.599 191 192 212
0.14433 -0.394199 -0.599 129 136 164
0.145229 -0.393541 -0.598 94 101 129
0.154341 -0.393541 -0.598 208 211 226
0.425434 -0.393541 -0.598 55 100 165
0.448215 -0.393541 -0.598 27 60 127
0.456951 -0.394199 -0.599 27 60 131
0.484665 -0.393541 -0.598 90 126 176
0.452498 -0.340235 -0.517 160 121 104
0.46812 -0.327731 -0.498 168 120 100
0.469069 -0.327731 -0.498 165 119 96
0.470017 -0.327731 -0.498 165 119 96
0.473812 -0.32839 -0.499 163 116 96
0.494943 -0.335629 -0.51 151 110 90
0.976504 -0.379721 -0.577 206 209 192
1.05526 -0.380379 -0.578 204 206 192
-0.0166324 -0.31152 -0.472 188 152 118
-0.00751238 -0.30624 -0.464 201 162 131
-0.00662857 -0.30624 -0.464 199 160 129
-0.00044381 -0.30756 -0.466 201 162 133
0.00936 -0.30888 -0.468 197 156 128
0.0138762 -0.3102 -0.47 195 153 128
0.0574971 -0.34056 -0.516 130 102 98
0.0598086 -0.34254 -0.519 131 103 100
0.0656248 -0.34716 -0.526 130 104 105
0.0718429 -0.3531 -0.535 128 104 104
0.0731343 -0.35442 -0.537 128 103 106
0.115613 -0.39468 -0.598 115 124 155
0.151809 -0.39402 -0.597 203 206 221
0.182511 -0.39402 -0.597 222 223 243
0.415626 -0.39402 -0.597 62 106 169
0.431546 -0.39402 -0.597 175 182 200
0.436094 -0.39402 -0.597 177 185 196
0.442917 -0.39402 -0.597 163 166 183
0.480109 -0.39468 -0.598 64 94 146
0.489221 -0.39468 -0.598 73 103 153
0.494089 -0.39402 -0.597 139 161 198
0.474231 -0.36234 -0.549 153 115 106
0.452756 -0.33132 -0.502 180 132 110
0.457686 -0.32868 -0.498 176 129 109
0.460531 -0.32868 -0.498 179 131 109
0.925849 -0.38214 -0.579 208 210 196
0.934671 -0.38214 -0.579 207 209 195
0.941334 -0.38082 -0.577 208 210 196
0.942433 -0.38082 -0.577 207 209 195
0.962783 -0.38148 -0.578 206 209 192
0.971009 -0.38082 -0.577 206 209 192
0.980297 -0.38016 -0.576 206 208 194
0.98688 -0.38016 -0.576 207 210 193
1.02047 -0.38082 -0.577 206 208 194
1.02156 -0.38082 -0.577 205 207 193
-0.0187038 -0.317052 -0.479 186 152 117
-0.0175314 -0.312419 -0.472 184 150 115
0.00756095 -0.30911 -0.467 196 154 129
0.0621429 -0.345514 -0.522 131 103 100
0.0916114 -0.381257 -0.576 112 118 144
0.117891 -0.395819 -0.598 88 101 135
0.121309 -0.395819 -0.598 169 176 205
0.151809 -0.395157 -0.597 204 206 219
0.463023 -0.395819 -0.598 98 106 129
0.46644 -0.395819 -0.598 170 172 193
0.466779 -0.356105 -0.538 151 114 105
0.451394 -0.336248 -0.508 172 127 106
0.452809 -0.331614 -0.501 175 127 107
0.459607 -0.328967 -0.497 176 128 106
0.990171 -0.381257 -0.576 204 207 190
1.00398 -0.381919 -0.577 205 207 193
1.00948 -0.381919 -0.577 204 206 192
1.01497 -0.381919 -0.577 204 206 192
1.03296 -0.381257 -0.576 202 204 190
1.04613 -0.381257 -0.576 202 204 190
0.00845048 -0.309999 -0.467 199 158 130
0.0174943 -0.312654 -0.471 187 145 121
0.0482876 -0.333232 -0.502 132 103 99
0.0585933 -0.34319 -0.517 131 102 98
0.06688 -0.350491 -0.528 126 102 100
0.0692829 -0.352483 -0.531 126 102 100
0.0704267 -0.353147 -0.532 127 103 103
0.0717086 -0.354474 -0.534 128 104 104
0.109918 -0.396958 -0.598 178 183 202
0.130421 -0.396958 -0.598 119 125 149
0.134977 -0.396958 -0.598 174 185 217
0.14295 -0.396958 -0.598 124 135 167
0.444446 -0.39563 -0.596 70 88 124
0.470996 -0.396958 -0.598 166 172 188
0.472135 -0.396958 -0.598 169 175 187
0.484991 -0.396294 -0.597 118 138 175
0.451394 -0.337215 -0.508 173 128 107
0.454762 -0.331905 -0.5 158 110 88
0.4615 -0.329913 -0.497 171 122 105
0.476664 -0.331241 -0.499 163 116 96
0.492997 -0.336551 -0.507 153 110 91
0.578743 -0.382354 -0.576 190 181 176
0.939136 -0.383018 -0.577 207 209 195
0.941897 -0.382354 -0.576 208 210 196
0.967131 -0.382354 -0.576 206 208 194
0.970423 -0.382354 -0.576 205 207 193
0.978595 -0.38169 -0.575 205 207 193
1.01321 -0.382354 -0.576 204 206 192
1.0176 -0.382354 -0.576 204 206 192
-0.013699 -0.308891 -0.464 195 159 125
-0.00396857 -0.308226 -0.463 196 157 126
0.0220267 -0.314217 -0.472 183 141 119
0.0352733 -0.320209 -0.481 150 116 106
0.0383381 -0.322871 -0.485 140 109 104
0.0471429 -0.332857 -0.5 134 103 100
0.117694 -0.397431 -0.597 176 183 211
0.118831 -0.397431 -0.597 156 166 201
0.140437 -0.397431 -0.597 81 112 159
0.149284 -0.396766 -0.596 199 205 221
0.453528 -0.396766 -0.596 82 114 163
0.452362 -0.338183 -0.508 174 127 109
0.452437 -0.337517 -0.507 176 129 111
0.459607 -0.33086 -0.497 175 124 105
0.460553 -0.33086 -0.497 175 127 107
0.46434 -0.33086 -0.497 162 114 94
0.486223 -0.334189 -0.502 161 116 95
0.944091 -0.383451 -0.576 207 209 195
0.945189 -0.383451 -0.576 207 209 195
0.947383 -0.383451 -0.576 207 209 195
0.952869 -0.383451 -0.576 207 210 193
0.97908 -0.38212 -0.574 206 208 194
0.99456 -0.383451 -0.576 205 207 193
0.996754 -0.383451 -0.576 205 207 193
1.00443 -0.383451 -0.576 205 207 193
1.0235 -0.382786 -0.575 204 206 192
1.03774 -0.382786 -0.575 203 206 189
-0.000440952 -0.309108 -0.463 197 158 127
0.0437543 -0.329804 -0.494 137 106 103
0.0799971 -0.366523 -0.549 127 101 102
0.0906571 -0.380543 -0.57 130 124 136
0.117497 -0.397901 -0.596 180 182 205
0.118632 -0.397901 -0.596 174 176 201
0.140202 -0.397901 -0.596 83 103 164
0.452392 -0.397901 -0.596 60 87 130
0.46488 -0.397901 -0.596 158 165 191
0.47362 -0.398569 -0.597 166 174 187
0.452576 -0.337148 -0.505 173 126 108
0.45381 -0.33381 -0.5 170 122 102
0.455753 -0.333142 -0.499 160 112 92
0.4615 -0.331807 -0.497 169 118 97
0.477606 -0.332474 -0.498 164 113 94
0.492014 -0.337148 -0.505 157 110 90
0.501753 -0.341153 -0.511 154 112 90
0.575813 -0.381878 -0.572 192 182 170
0.886382 -0.385216 -0.577 208 210 196
0.952869 -0.384549 -0.576 207 210 193
0.957257 -0.384549 -0.576 205 208 191
0.98564 -0.383213 -0.574 205 207 193
0.99831 -0.383881 -0.575 206 208 194
1.01844 -0.383213 -0.574 203 205 191
1.0235 -0.383881 -0.575 204 206 192
1.02609 -0.383213 -0.574 204 206 192
1.02828 -0.383213 -0.574 202 205 188
1.02937 -0.383213 -0.574 202 205 188
1.04102 -0.383881 -0.575 204 207 190
1.04431 -0.383881 -0.575 204 207 190
1.04979 -0.383881 -0.575 203 206 189
-0.0172714 -0.311329 -0.465 192 157 125
0.0192476 -0.314676 -0.47 182 140 116
0.0481914 -0.335431 -0.501 133 103 101
0.0585933 -0.346144 -0.517 130 104 103
0.0655 -0.3515 -0.525 127 103 103
0.0923867 -0.384307 -0.574 144 147 166
0.108415 -0.399036 -0.596 172 183 203
0.115227 -0.399036 -0.596 177 180 195
0.139067 -0.399036 -0.596 76 96 155
0.1479 -0.398367 -0.595 206 207 227
0.1513 -0.398367 -0.595 204 207 222
0.449367 -0.398367 -0.595 148 172 206
0.473962 -0.399036 -0.596 169 170 191
0.484131 -0.373594 -0.558 145 111 99
0.453763 -0.335431 -0.501 171 124 104
0.454762 -0.334762 -0.5 160 112 92
0.457686 -0.333423 -0.498 175 124 105
0.468127 -0.332753 -0.497 165 116 99
0.483333 -0.334762 -0.5 162 117 96
0.502727 -0.342127 -0.511 156 114 92
0.861104 -0.386315 -0.577 211 213 200
0.916056 -0.386315 -0.577 208 210 196
0.919353 -0.386315 -0.577 207 209 195
0.921051 -0.385646 -0.576 208 210 196
0.936976 -0.384976 -0.575 208 210 196
0.950119 -0.384976 -0.575 206 209 192
0.962167 -0.384976 -0.575 206 209 192
0.976893 -0.384307 -0.574 206 208 194
0.983453 -0.384307 -0.574 207 209 195
1.00269 -0.384976 -0.575 205 207 193
1.00817 -0.384976 -0.575 205 207 193
1.01255 -0.384976 -0.575 204 206 192
1.02281 -0.384307 -0.574 204 206 192
1.02649 -0.383637 -0.573 203 206 189
1.03304 -0.383637 -0.573 204 207 190
-0.01452 -0.3102 -0.462 194 157 128
-0.00395143 -0.309529 -0.461 199 160 131
-0.0022 -0.3102 -0.462 193 154 123
0.00220476 -0.310871 -0.463 198 159 128
0.0265781 -0.317586 -0.473 171 130 110
0.0322543 -0.320271 -0.477 159 121 110
0.03726 -0.3243 -0.483 146 109 101
0.0906571 -0.382714 -0.57 140 133 149
0.115227 -0.400171 -0.596 176 179 194
0.124309 -0.400171 -0.596 79 101 151
0.152177 -0.398829 -0.594 191 200 217
0.4709 -0.3995 -0.595 169 172 189
0.479967 -0.3995 -0.595 80 102 139
0.4845 -0.3995 -0.595 124 145 188
0.491606 -0.398829 -0.594 126 139 173
0.461377 -0.353171 -0.526 156 116 104
0.454768 -0.345114 -0.514 168 122 106
0.453252 -0.341757 -0.509 168 125 109
0.453472 -0.339743 -0.506 172 127 108
0.453538 -0.339071 -0.505 171 126 107
0.88704 -0.386743 -0.576 209 211 198
0.926024 -0.386071 -0.575 208 210 196
0.9315 -0.386071 -0.575 207 209 195
0.934786 -0.386071 -0.575 206 208 194
0.935347 -0.3854 -0.574 207 209 195
0.968147 -0.3854 -0.574 205 207 193
0.987197 -0.384729 -0.573 205 207 193
0.99876 -0.3854 -0.574 206 209 192
1.00423 -0.3854 -0.574 205 208 191
1.01188 -0.3854 -0.574 204 206 192
1.01516 -0.3854 -0.574 205 208 191
1.01776 -0.384729 -0.573 204 207 190
1.01885 -0.384729 -0.573 203 206 189
1.02321 -0.384729 -0.573 204 207 190
1.03085 -0.384729 -0.573 204 207 190
-0.0144886 -0.310407 -0.461 194 157 128
-0.013581 -0.309733 -0.46 196 159 130
-0.00481905 -0.309733 -0.46 200 161 130
0.00396857 -0.311753 -0.463 199 158 130
0.0093 -0.3131 -0.465 195 154 126
0.02844 -0.31916 -0.474 162 123 106
0.0470486 -0.335993 -0.499 132 104 101
0.0505 -0.340033 -0.505 130 102 101
0.0756 -0.3636 -0.54 124 103 108
0.0783762 -0.366967 -0.545 126 104 107
0.115033 -0.400633 -0.595 181 184 199
0.122967 -0.400633 -0.595 70 93 143
0.125233 -0.400633 -0.595 73 96 148
0.1309 -0.400633 -0.595 93 116 170
0.132033 -0.400633 -0.595 58 82 144
0.442954 -0.39996 -0.594 122 132 167
0.461057 -0.39996 -0.594 118 127 158
0.4777 -0.400633 -0.595 118 133 162
0.482233 -0.400633 -0.595 92 111 151
0.484817 -0.39996 -0.594 103 124 167
0.453763 -0.33734 -0.501 172 125 107
0.456704 -0.335993 -0.499 172 125 107
0.4615 -0.334647 -0.497 163 115 95
0.463393 -0.334647 -0.497 168 120 100
0.46434 -0.334647 -0.497 168 120 100
0.488117 -0.33734 -0.501 160 115 94
0.574961 -0.383127 -0.569 190 178 166
0.855223 -0.38784 -0.576 210 212 198
0.877166 -0.38784 -0.576 210 212 199
0.919954 -0.38784 -0.576 207 209 195
0.921643 -0.387167 -0.575 207 209 195
0.93316 -0.386493 -0.574 207 209 195
0.94628 -0.386493 -0.574 206 209 192
0.953933 -0.386493 -0.574 207 209 195
1.00204 -0.386493 -0.574 205 208 191
1.01079 -0.386493 -0.574 204 206 192
1.01188 -0.386493 -0.574 204 206 192
1.04723 -0.38582 -0.573 203 205 191
-0.00219524 -0.311285 -0.461 197 158 129
0.00573238 -0.312635 -0.463 197 156 128
0.00662857 -0.31331 -0.464 197 156 128
0.0119571 -0.313986 -0.465 192 150 125
0.0173829 -0.316011 -0.468 184 142 118
0.0404343 -0.329516 -0.488 137 108 104
0.0470486 -0.336944 -0.499 131 103 100
0.0515638 -0.34167 -0.506 128 102 101
0.0678857 -0.356526 -0.528 127 102 106
0.11484 -0.401091 -0.594 176 182 196
0.1207 -0.401767 -0.595 104 126 165
0.1275 -0.401767 -0.595 59 81 138
0.160957 -0.400416 -0.593 103 137 183
0.43769 -0.400416 -0.593 159 165 191
0.445597 -0.400416 -0.593 154 159 181
0.453504 -0.400416 -0.593 157 168 190
0.46254 -0.400416 -0.593 83 90 116
0.472371 -0.401091 -0.594 166 172 194
0.475766 -0.401091 -0.594 144 149 169
0.478029 -0.401091 -0.594 93 108 137
0.47684 -0.36868 -0.546 145 113 100
0.455747 -0.347072 -0.514 169 120 105
0.454369 -0.342346 -0.507 170 123 105
0.45866 -0.335593 -0.497 176 127 110
0.4615 -0.335593 -0.497 167 118 101
0.474743 -0.334918 -0.496 167 120 100
0.501729 -0.343696 -0.509 154 108 85
0.502698 -0.343696 -0.509 137 90 70
0.57193 -0.382185 -0.566 179 161 147
0.8625 -0.388262 -0.575 210 212 198
0.878929 -0.388262 -0.575 209 211 198
0.881119 -0.388262 -0.575 209 211 198
0.8855 -0.388262 -0.575 208 210 197
0.88769 -0.388262 -0.575 209 211 198
0.925507 -0.387587 -0.574 207 209 195
0.927693 -0.387587 -0.574 207 209 195
0.932067 -0.387587 -0.574 207 209 195
0.934809 -0.386911 -0.573 207 209 195
0.947906 -0.386911 -0.573 207 209 195
0.953363 -0.386911 -0.573 207 210 193
0.960493 -0.387587 -0.574 206 209 192
0.965369 -0.386911 -0.573 206 208 194
0.983923 -0.386911 -0.573 206 208 194
0.999203 -0.386911 -0.573 204 207 190
1.00139 -0.386911 -0.573 206 209 192
1.00575 -0.386911 -0.573 204 206 192
1.00684 -0.386911 -0.573 204 206 192
1.03668 -0.386236 -0.572 202 206 191
-0.0209933 -0.31758 -0.469 192 155 129
0.0155667 -0.316226 -0.467 185 143 119
0.0228286 -0.318257 -0.47 175 133 111
0.03726 -0.32706 -0.483 140 105 99
0.08556 -0.377846 -0.558 118 104 117
0.133849 -0.401546 -0.593 57 85 148
0.464799 -0.401546 -0.593 72 81 114
0.473503 -0.402223 -0.594 163 171 194
0.488 -0.3792 -0.56 150 116 106
0.455837 -0.347374 -0.513 168 121 105
0.454669 -0.339926 -0.502 171 124 106
0.474743 -0.335863 -0.496 168 120 100
0.475688 -0.335863 -0.496 158 111 91
0.49196 -0.339926 -0.502 159 113 97
0.493898 -0.340603 -0.503 158 112 96
0.567888 -0.380554 -0.562 156 133 119
0.878493 -0.38868 -0.574 210 212 199
0.88068 -0.38868 -0.574 208 210 197
0.896452 -0.389357 -0.575 209 211 197
0.919452 -0.389357 -0.575 208 210 196
0.928787 -0.38868 -0.574 208 210 197
0.930973 -0.38868 -0.574 208 210 197
0.934809 -0.388003 -0.573 207 209 195
0.940804 -0.387326 -0.572 206 208 194
0.947341 -0.387326 -0.572 207 209 195
0.966952 -0.387326 -0.572 205 207 193
0.977848 -0.387326 -0.572 206 208 194
-0.018001 -0.313041 -0.461 195 158 131
0.00661429 -0.314399 -0.463 197 156 128
0.00928 -0.315078 -0.464 195 154 124
0.0119571 -0.315757 -0.465 192 151 123
0.0322543 -0.323906 -0.477 154 118 106
0.0352 -0.325943 -0.48 145 111 101
0.0690219 -0.359216 -0.529 125 103 105
0.13068 -0.403354 -0.594 48 77 137
0.132719 -0.402675 -0.593 50 81 145
0.150537 -0.401996 -0.592 198 204 220
0.478353 -0.402675 -0.593 86 105 145
0.483185 -0.401996 -0.592 93 115 164
0.492357 -0.383662 -0.565 144 114 106
0.455191 -0.345635 -0.509 169 122 104
0.456737 -0.338166 -0.498 175 126 109
0.476632 -0.336808 -0.496 162 113 96
0.49 -0.339524 -0.5 160 114 98
0.513543 -0.350389 -0.516 148 110 87
0.563846 -0.378909 -0.558 147 118 102
0.865373 -0.389773 -0.574 210 212 199
0.87412 -0.389773 -0.574 209 211 198
0.917853 -0.389773 -0.574 207 209 195
0.92826 -0.389094 -0.573 208 210 196
0.932626 -0.389094 -0.573 207 209 195
0.940804 -0.388415 -0.572 206 209 192
0.94952 -0.388415 -0.572 205 207 193
0.956057 -0.388415 -0.572 205 208 191
0.957147 -0.388415 -0.572 205 208 191
0.965369 -0.389094 -0.573 206 209 192
0.966952 -0.388415 -0.572 206 208 194
0.9707 -0.387736 -0.571 205 207 193
0.971788 -0.387736 -0.571 206 208 194
0.994191 -0.388415 -0.572 205 208 191
0.999638 -0.388415 -0.572 204 207 190
1.03052 -0.387736 -0.571 203 207 192
1.03378 -0.387736 -0.571 203 207 192
1.03813 -0.387736 -0.571 202 206 191
-0.0220267 -0.32141 -0.472 193 157 131
0.00484 -0.3146 -0.462 196 157 128
0.00749619 -0.315281 -0.463 196 157 128
0.0209486 -0.318686 -0.468 176 133 114
0.0255686 -0.320729 -0.471 169 126 110
0.02838 -0.32209 -0.473 162 120 106
0.0351267 -0.326176 -0.479 149 112 103
0.0371829 -0.328219 -0.482 145 111 102
0.0665 -0.3575 -0.525 130 106 106
0.0702943 -0.361586 -0.531 126 104 106
0.13159 -0.403805 -0.593 42 76 139
0.476419 -0.403124 -0.592 132 146 173
0.465295 -0.337752 -0.496 166 119 101
0.852253 -0.390867 -0.574 210 212 199
0.873689 -0.390186 -0.573 209 211 198
0.915163 -0.390186 -0.573 208 211 194
0.917346 -0.390186 -0.573 207 210 193
0.923371 -0.389505 -0.572 208 210 196
0.939159 -0.388824 -0.571 206 209 192
0.946772 -0.388824 -0.571 205 207 193
0.958736 -0.388824 -0.571 206 209 192
0.968042 -0.389505 -0.572 205 208 191
0.987014 -0.388824 -0.571 204 207 190
0.990277 -0.388824 -0.571 204 207 190
0.991365 -0.388824 -0.571 205 208 191
1.00115 -0.388824 -0.571 205 207 193
1.0146 -0.388143 -0.57 204 206 192
1.02399 -0.388824 -0.571 203 206 189
1.02834 -0.388824 -0.571 203 207 192
1.03089 -0.388143 -0.57 202 206 191
-0.0188381 -0.314114 -0.46 197 160 131
0.000437143 -0.313431 -0.459 197 158 127
0.00748 -0.31548 -0.462 197 156 128
0.0200143 -0.318894 -0.467 177 135 113
0.0237238 -0.320943 -0.47 171 128 111
0.0255686 -0.321626 -0.471 167 124 107
0.0446952 -0.337331 -0.494 132 103 99
0.0492438 -0.342794 -0.502 130 102 99
0.0807476 -0.373523 -0.547 122 102 104
0.0838914 -0.378303 -0.554 124 101 107
0.119165 -0.404934 -0.593 154 154 180
0.137006 -0.404251 -0.592 129 160 214
0.440717 -0.403569 -0.591 172 180 193
0.462106 -0.403569 -0.591 159 167 186
0.483185 -0.404251 -0.592 73 103 155
0.480674 -0.374206 -0.548 143 112 109
0.455625 -0.342794 -0.502 172 125 109
0.455671 -0.342111 -0.501 174 127 111
0.460571 -0.338697 -0.496 174 127 107
0.461516 -0.338697 -0.496 170 123 103
0.469071 -0.338014 -0.495 167 120 102
0.470014 -0.338014 -0.495 167 120 102
0.472829 -0.337331 -0.494 167 118 101
0.475651 -0.337331 -0.494 162 115 97
0.477557 -0.338014 -0.495 162 115 97
0.870414 -0.391277 -0.573 209 211 198
0.881329 -0.391277 -0.573 209 211 198
0.963087 -0.389911 -0.571 205 208 191
0.969612 -0.389911 -0.571 205 207 193
0.986371 -0.389229 -0.57 204 207 190
1.0146 -0.389229 -0.57 204 206 192
1.0298 -0.389229 -0.57 203 205 191
1.03957 -0.389229 -0.57 203 205 191
-0.0217 -0.318414 -0.465 196 159 130
-0.0170114 -0.313621 -0.458 195 158 129
-0.0108571 -0.312251 -0.456 199 160 131
-0.00738286 -0.312251 -0.456 198 159 128
-0.00218095 -0.313621 -0.458 194 155 124
0.00218571 -0.314306 -0.459 198 157 129
0.0155333 -0.319099 -0.466 183 141 119
0.0457286 -0.338957 -0.495 129 99 97
0.0560762 -0.350598 -0.512 126 101 97
0.0641314 -0.357446 -0.522 127 103 101
0.0675 -0.3595 -0.525 129 105 105
0.0724533 -0.364293 -0.532 127 102 105
0.10787 -0.406064 -0.593 157 169 209
0.115581 -0.405379 -0.592 119 130 162
0.465483 -0.404694 -0.591 133 140 168
0.473363 -0.404694 -0.591 165 171 195
0.474489 -0.404694 -0.591 147 162 195
0.478991 -0.404694 -0.591 54 80 131
0.45866 -0.340327 -0.497 177 129 109
0.459607 -0.340327 -0.497 176 128 108
0.47471 -0.338272 -0.494 165 118 98
0.475651 -0.338272 -0.494 165 118 98
0.49968 -0.34512 -0.504 151 106 85
0.876522 -0.391684 -0.572 209 211 198
0.887877 -0.392369 -0.573 209 211 198
0.927195 -0.390999 -0.571 208 210 196
0.954386 -0.390999 -0.571 205 207 193
0.971171 -0.390314 -0.57 205 207 193
0.987457 -0.390314 -0.57 205 208 191
1.01894 -0.390314 -0.57 204 206 192
1.03197 -0.390314 -0.57 203 207 192
1.03631 -0.390314 -0.57 202 206 191
-0.0226829 -0.320673 -0.467 192 155 128
-0.00564571 -0.31312 -0.456 196 157 126
0.0119057 -0.317927 -0.463 185 143 119
0.0236733 -0.322047 -0.469 169 126 109
0.0255143 -0.322733 -0.47 165 124 106
0.0361143 -0.3296 -0.48 149 112 104
0.0724533 -0.365307 -0.532 126 101 104
0.0919038 -0.392087 -0.571 71 95 155
0.105432 -0.406507 -0.592 86 107 160
0.123266 -0.40582 -0.591 54 78 140
0.134523 -0.40582 -0.591 63 89 150
0.461324 -0.405133 -0.59 165 172 188
0.464695 -0.405133 -0.59 152 165 174
0.466943 -0.405133 -0.59 102 114 136
0.469986 -0.40582 -0.591 80 89 130
0.459576 -0.353633 -0.515 154 116 105
0.467183 -0.339213 -0.494 169 121 101
0.471888 -0.339213 -0.494 169 120 103
0.480356 -0.339213 -0.494 162 115 97
0.4851 -0.3399 -0.495 162 115 95
0.871074 -0.392773 -0.572 209 211 198
0.872164 -0.392773 -0.572 209 211 198
0.919582 -0.392087 -0.571 207 210 193
0.941334 -0.392087 -0.571 206 208 194
0.962486 -0.3914 -0.57 206 209 192
0.964657 -0.3914 -0.57 204 207 190
1.00591 -0.3914 -0.57 204 207 190
1.01065 -0.390713 -0.569 204 206 192
1.0139 -0.390713 -0.569 203 206 189
1.01607 -0.390713 -0.569 202 205 188
1.01824 -0.390713 -0.569 203 206 189
1.02763 -0.3914 -0.57 202 206 191
1.03341 -0.390713 -0.569 203 207 192
-0.0294381 -0.386977 -0.562 193 156 127
-0.0160333 -0.3133 -0.455 191 154 125
-0.0143 -0.3133 -0.455 196 157 128
-0.00908 -0.312611 -0.454 196 157 126
-0.00821524 -0.312611 -0.454 196 157 126
-0.00390857 -0.313989 -0.456 194 155 124
0.00658571 -0.317431 -0.461 192 151 123
0.013699 -0.319497 -0.464 184 139 118
0.0172714 -0.320186 -0.465 182 137 118
0.0340714 -0.328449 -0.477 151 112 105
0.0446048 -0.339466 -0.493 129 104 100
0.0538086 -0.350483 -0.509 125 101 99
0.0791229 -0.373894 -0.543 120 102 102
0.0867781 -0.384911 -0.559 121 105 105
0.108815 -0.407634 -0.592 100 111 139
0.463406 -0.341531 -0.496 177 128 111
0.839478 -0.393863 -0.572 211 213 199
0.875432 -0.393863 -0.572 210 212 199
0.877165 -0.393174 -0.571 209 211 198
0.910297 -0.393863 -0.572 208 210 196
0.951629 -0.392486 -0.57 206 208 194
0.955971 -0.392486 -0.57 206 209 192
0.972719 -0.391797 -0.569 204 207 190
0.980306 -0.391797 -0.569 205 208 191
0.98139 -0.391797 -0.569 205 208 191
0.983557 -0.391797 -0.569 204 207 190
1.01932 -0.391797 -0.569 203 206 189
1.0345 -0.391797 -0.569 204 206 192
1.03558 -0.391797 -0.569 204 206 192
-0.0234714 -0.321071 -0.465 196 156 130
0.00746381 -0.31831 -0.461 186 145 117
0.011 -0.319 -0.462 185 140 117
0.0154667 -0.320381 -0.464 184 139 118
0.0350533 -0.330048 -0.478 149 110 103
0.0371057 -0.332119 -0.481 144 107 99
0.0514619 -0.34869 -0.505 125 101 99
0.0776571 -0.372857 -0.54 123 99 99
0.0791229 -0.374929 -0.543 120 100 101
0.0820886 -0.379071 -0.549 121 99 101
0.102829 -0.407381 -0.59 62 84 142
0.137667 -0.407381 -0.59 135 154 194
0.468395 -0.40669 -0.589 119 125 151
0.479305 -0.407381 -0.59 29 61 122
0.482676 -0.407381 -0.59 25 59 120
0.484102 -0.40669 -0.589 24 56 115
0.458927 -0.352833 -0.511 160 120 108
0.457328 -0.349381 -0.506 170 123 107
0.45758 -0.345929 -0.501 173 124 107
0.847799 -0.394262 -0.571 209 211 197
0.880428 -0.394262 -0.571 208 210 197
0.914144 -0.394262 -0.571 208 211 194
0.934786 -0.392881 -0.569 206 209 192
0.956462 -0.392881 -0.569 206 209 192
0.979222 -0.392881 -0.569 204 206 192
1.0074 -0.392881 -0.569 204 207 190
1.01645 -0.39219 -0.568 202 205 188
1.03809 -0.39219 -0.568 203 206 189
-0.0039 -0.315033 -0.455 196 157 126
0.00657143 -0.318495 -0.46 190 149 121
0.0083419 -0.319188 -0.461 192 148 123
0.0570514 -0.354499 -0.512 124 100 96
0.0593476 -0.356576 -0.515 126 102 98
0.130924 -0.408505 -0.59 49 77 140
0.467273 -0.407812 -0.589 162 167 187
0.479614 -0.407812 -0.589 23 55 116
0.463146 -0.359346 -0.519 155 117 106
0.459825 -0.354499 -0.512 160 120 108
0.45744 -0.34896 -0.504 172 123 106
0.475628 -0.341344 -0.493 169 121 101
0.501563 -0.348268 -0.503 149 108 88
0.584715 -0.393965 -0.569 190 190 190
0.865201 -0.39535 -0.571 209 211 198
0.885866 -0.39535 -0.571 209 211 198
0.896742 -0.39535 -0.571 208 210 196
0.901092 -0.39535 -0.571 208 210 197
0.904355 -0.39535 -0.571 209 211 197
0.90653 -0.39535 -0.571 207 209 195
0.913629 -0.394657 -0.57 208 211 194
0.947791 -0.393965 -0.569 205 208 191
0.960191 -0.393272 -0.568 205 208 191
0.976419 -0.393272 -0.568 205 208 191
0.992648 -0.393272 -0.568 203 205 191
0.995893 -0.393272 -0.568 204 207 190
1.01212 -0.393272 -0.568 202 205 188
1.02727 -0.393272 -0.568 203 205 191
-0.0195 -0.3159 -0.455 196 159 130
-0.00216667 -0.3159 -0.455 197 156 126
0.00832381 -0.319371 -0.46 192 148 123
0.0199714 -0.323537 -0.466 171 125 110
0.0301819 -0.328397 -0.473 154 116 105
0.038101 -0.334646 -0.482 136 105 100
0.0401857 -0.336729 -0.485 133 103 95
0.0445143 -0.341589 -0.492 128 100 96
0.125092 -0.408934 -0.589 48 79 143
0.13519 -0.408934 -0.589 130 154 202
0.4788 -0.40824 -0.588 24 56 115
0.479541 -0.376303 -0.542 143 110 103
0.464357 -0.343671 -0.495 178 129 112
0.468115 -0.342283 -0.493 168 120 100
0.471871 -0.342283 -0.493 167 118 101
0.477506 -0.342283 -0.493 167 120 100
0.487884 -0.342977 -0.494 156 111 90
0.875629 -0.395743 -0.57 208 210 197
0.878886 -0.395743 -0.57 208 210 197
0.904943 -0.395743 -0.57 207 209 195
0.935307 -0.394354 -0.568 206 209 192
0.936389 -0.394354 -0.568 206 209 192
0.941798 -0.394354 -0.568 205 208 191
0.946126 -0.394354 -0.568 206 209 192
0.958027 -0.394354 -0.568 205 208 189
0.959109 -0.394354 -0.568 205 208 189
0.991566 -0.394354 -0.568 204 206 192
0.99414 -0.39366 -0.567 203 205 191
1.0251 -0.394354 -0.568 203 205 191
0.00217619 -0.318159 -0.457 195 154 126
0.00304667 -0.318159 -0.457 196 155 127
0.00654286 -0.318855 -0.458 190 149 121
0.0100762 -0.320248 -0.46 189 142 122
0.01452 -0.32164 -0.462 183 137 114
0.0422067 -0.339045 -0.487 133 104 98
0.0454514 -0.342526 -0.492 125 100 95
0.0465771 -0.343918 -0.494 128 100 96
0.0546705 -0.353665 -0.508 124 100 100
0.0592324 -0.357842 -0.514 126 101 97
0.0851 -0.386386 -0.555 114 103 107
0.107324 -0.410752 -0.59 163 177 203
0.12376 -0.40936 -0.588 45 80 144
0.130702 -0.410056 -0.589 58 83 147
0.13944 -0.40936 -0.588 198 203 225
0.477027 -0.37455 -0.538 146 113 108
0.462447 -0.346007 -0.497 172 123 106
0.462461 -0.34531 -0.496 172 123 106
0.463406 -0.34531 -0.496 173 124 107
0.466243 -0.344614 -0.495 178 130 110
0.466242 -0.343918 -0.494 174 126 106
0.478411 -0.342526 -0.492 165 118 98
0.48216 -0.342526 -0.492 165 118 100
0.497574 -0.347399 -0.499 151 108 89
0.50544 -0.35088 -0.504 146 108 89
0.586883 -0.396132 -0.569 186 189 194
0.861514 -0.396829 -0.57 208 210 197
0.912026 -0.396132 -0.569 207 209 195
0.94554 -0.39474 -0.567 205 208 191
0.95958 -0.39474 -0.567 204 207 188
0.96066 -0.39474 -0.567 205 208 189
0.97146 -0.39474 -0.567 205 208 191
0.97686 -0.39474 -0.567 206 209 192
1.00494 -0.39474 -0.567 203 206 189
-0.0264095 -0.328105 -0.47 192 155 128
-0.0240429 -0.320426 -0.459 194 155 126
-0.0193714 -0.315539 -0.452 189 152 123
-0.0013 -0.317633 -0.455 193 154 121
0.01628 -0.32252 -0.462 179 135 110
0.0181181 -0.323916 -0.464 175 130 109
0.0401029 -0.337878 -0.484 137 104 99
0.0673714 -0.365802 -0.524 126 105 104
0.1148 -0.41048 -0.588 172 186 197
0.11704 -0.41048 -0.588 164 173 206
0.12376 -0.41048 -0.588 53 83 145
0.13496 -0.41048 -0.588 129 148 190
0.14056 -0.41048 -0.588 195 201 223
0.474631 -0.409782 -0.587 65 93 143
0.479104 -0.409782 -0.587 22 59 114
0.46333 -0.360915 -0.517 155 118 109
0.459555 -0.34835 -0.499 171 125 110
0.468115 -0.344161 -0.493 172 123 106
0.850249 -0.397216 -0.569 210 212 198
0.851332 -0.397216 -0.569 210 212 198
0.93366 -0.39582 -0.567 206 209 192
0.9369 -0.39582 -0.567 206 209 192
0.94014 -0.39582 -0.567 206 209 192
0.94122 -0.39582 -0.567 206 209 192
0.950341 -0.395122 -0.566 205 208 189
0.95958 -0.39582 -0.567 205 208 191
1.00425 -0.395122 -0.566 203 206 189
1.01071 -0.395122 -0.566 203 206 189
1.02978 -0.39582 -0.567 203 206 189
-0.0352857 -0.399 -0.57 189 152 125
-0.0115971 -0.3157 -0.451 199 158 126
0.0013 -0.3185 -0.455 197 156 128
0.00217143 -0.3192 -0.456 196 155 127
0.0144886 -0.3227 -0.461 182 139 107
0.01716 -0.3234 -0.462 176 132 103
0.0465771 -0.3458 -0.494 125 100 95
0.0721809 -0.371 -0.53 121 101 102
0.10602 -0.4123 -0.589 163 178 197
0.474631 -0.4109 -0.587 67 94 139
0.47575 -0.4109 -0.587 88 120 167
0.477986 -0.4109 -0.587 42 78 130
0.465301 -0.3458 -0.494 175 127 105
0.46904 -0.3444 -0.492 169 121 99
0.851332 -0.3983 -0.569 209 211 197
0.865422 -0.3983 -0.569 209 211 197
0.878428 -0.3983 -0.569 209 211 197
0.879511 -0.3983 -0.569 209 211 197
0.897936 -0.3983 -0.569 207 209 195
0.907177 -0.3976 -0.568 207 209 195
0.91746 -0.3969 -0.567 206 209 192
0.934169 -0.3962 -0.566 206 209 190
0.93956 -0.3962 -0.566 206 209 190
0.949263 -0.3962 -0.566 206 209 190
0.960044 -0.3962 -0.566 205 208 191
0.972981 -0.3962 -0.566 206 209 192
0.978371 -0.3962 -0.566 204 206 192
0.992387 -0.3962 -0.566 205 207 193
1.00101 -0.3962 -0.566 203 205 191
1.03153 -0.3955 -0.565 202 204 190
1.0326 -0.3955 -0.565 203 205 191
-0.0158571 -0.315857 -0.45 192 154 118
0.00916 -0.321472 -0.458 183 141 116
0.0290952 -0.329895 -0.47 157 114 105
0.0359638 -0.33551 -0.478 148 109 102
0.0379429 -0.336914 -0.48 146 109 103
0.0422067 -0.341828 -0.487 132 101 96
0.0883143 -0.39447 -0.562 99 108 137
0.472707 -0.411316 -0.586 107 130 164
0.479404 -0.411316 -0.586 39 77 142
0.461775 -0.359375 -0.512 157 119 106
0.45936 -0.35376 -0.504 168 125 106
0.472789 -0.345337 -0.492 166 118 98
0.473698 -0.344635 -0.491 168 120 98
0.481133 -0.343933 -0.49 169 121 99
0.484921 -0.344635 -0.491 166 121 100
0.876884 -0.398682 -0.568 209 211 197
0.898522 -0.398682 -0.568 207 209 195
0.899604 -0.398682 -0.568 207 209 196
0.9099 -0.39798 -0.567 206 208 194
0.917998 -0.397278 -0.566 206 209 190
0.920154 -0.397278 -0.566 206 209 190
0.921232 -0.397278 -0.566 206 209 190
0.932013 -0.397278 -0.566 206 209 190
0.937404 -0.397278 -0.566 205 208 189
0.942794 -0.397278 -0.566 205 208 189
0.965434 -0.397278 -0.566 203 205 191
0.971903 -0.397278 -0.566 206 209 192
0.972338 -0.396576 -0.565 205 208 191
0.973414 -0.396576 -0.565 205 208 191
0.986329 -0.396576 -0.565 201 204 187
1.0057 -0.396576 -0.565 203 205 191
1.024 -0.396576 -0.565 203 205 191
1.03153 -0.396576 -0.565 202 204 190
-0.0270143 -0.327271 -0.465 192 156 124
-0.00215714 -0.318826 -0.453 198 157 127
0.013581 -0.323752 -0.46 182 138 111
0.0162448 -0.324456 -0.461 179 134 111
0.0225857 -0.327271 -0.465 170 122 108
0.0533857 -0.355424 -0.505 126 100 99
0.0602114 -0.361758 -0.514 127 103 101
0.130258 -0.413136 -0.587 90 113 154
0.135617 -0.412432 -0.586 87 107 144
0.50058 -0.39906 -0.567 129 114 109
0.462677 -0.361054 -0.513 157 120 104
0.46148 -0.350497 -0.498 171 126 107
0.4653 -0.348386 -0.495 176 129 111
0.468115 -0.346978 -0.493 171 123 103
0.472763 -0.34557 -0.491 170 122 102
0.473667 -0.344867 -0.49 155 107 87
0.5797 -0.394837 -0.561 190 180 171
0.827116 -0.399764 -0.568 209 211 197
0.876884 -0.399764 -0.568 207 209 195
0.886621 -0.399764 -0.568 208 210 197
0.901768 -0.399764 -0.568 207 210 193
0.919605 -0.397652 -0.565 206 209 192
0.94651 -0.397652 -0.565 204 207 188
0.954043 -0.397652 -0.565 205 208 189
0.958966 -0.398356 -0.566 205 208 191
0.959424 -0.397652 -0.565 205 208 191
0.9605 -0.397652 -0.565 205 208 191
0.971262 -0.397652 -0.565 206 209 192
0.972338 -0.397652 -0.565 205 208 191
0.980948 -0.397652 -0.565 204 207 190
0.984176 -0.397652 -0.565 203 205 191
0.984583 -0.396949 -0.564 203 205 191
0.99171 -0.397652 -0.565 204 207 190
-0.0256229 -0.321806 -0.456 196 157 126
-0.0183876 -0.316866 -0.449 193 157 121
0.0290952 -0.331686 -0.47 157 114 105
0.0476143 -0.349329 -0.495 126 102 98
0.0898619 -0.398729 -0.565 128 134 160
0.108829 -0.413549 -0.586 175 181 197
0.116642 -0.413549 -0.586 65 92 139
0.460443 -0.353563 -0.501 172 126 110
0.46435 -0.350034 -0.496 172 125 107
0.467183 -0.348623 -0.494 173 125 105
0.469054 -0.347917 -0.493 172 124 104
0.479267 -0.3458 -0.49 170 122 99
0.823871 -0.400846 -0.568 208 210 196
0.847672 -0.400846 -0.568 209 211 197
0.854164 -0.400846 -0.568 209 211 197
0.856328 -0.400846 -0.568 209 211 197
0.914224 -0.398729 -0.565 205 208 191
0.924986 -0.398729 -0.565 205 208 191
0.92929 -0.398729 -0.565 206 209 192
0.934671 -0.398729 -0.565 206 209 190
0.943281 -0.398729 -0.565 206 209 192
0.997474 -0.398023 -0.564 204 206 192
1.01896 -0.398023 -0.564 203 205 191
-0.0265495 -0.323382 -0.457 194 155 124
-0.0218086 -0.317721 -0.449 197 158 127
-0.0132267 -0.317013 -0.448 192 154 118
-0.00812476 -0.317721 -0.449 195 155 120
-0.00300667 -0.319136 -0.451 194 153 123
0.0319838 -0.334704 -0.473 149 111 102
0.0521124 -0.355225 -0.502 127 101 102
0.0600943 -0.363009 -0.513 127 103 101
0.0707686 -0.372915 -0.527 125 103 105
0.1131 -0.413957 -0.585 159 163 174
0.142071 -0.413957 -0.585 202 203 208
0.496533 -0.396267 -0.56 136 113 105
0.460443 -0.354517 -0.501 171 125 109
0.46148 -0.352394 -0.498 172 127 106
0.46434 -0.351687 -0.497 173 126 106
0.467183 -0.349564 -0.494 173 125 103
0.472733 -0.346733 -0.49 171 123 101
0.473667 -0.346733 -0.49 173 125 103
0.482946 -0.346026 -0.489 169 123 99
0.500371 -0.352394 -0.498 145 107 84
0.89478 -0.40122 -0.567 208 210 196
0.912608 -0.400512 -0.566 206 209 192
0.96632 -0.399097 -0.564 205 208 191
0.970617 -0.399097 -0.564 206 209 192
0.971691 -0.399097 -0.564 205 208 191
1.02037 -0.39839 -0.563 203 205 191
-0.0235714 -0.319286 -0.45 200 161 130
-0.0183057 -0.317157 -0.447 199 159 124
0.00129429 -0.321414 -0.453 192 153 122
0.00563333 -0.322833 -0.455 184 139 116
0.00914 -0.324252 -0.457 181 138 119
0.0162095 -0.326381 -0.46 171 130 98
0.0411095 -0.344119 -0.485 135 104 102
0.0521124 -0.356181 -0.502 125 99 100
0.134271 -0.415071 -0.585 115 128 160
0.475494 -0.346957 -0.489 168 120 97
0.480151 -0.346957 -0.489 164 117 91
0.85698 -0.4023 -0.567 208 210 196
0.85914 -0.4023 -0.567 209 211 197
0.870562 -0.40159 -0.566 208 210 196
0.89694 -0.4023 -0.567 206 208 194
0.89802 -0.4023 -0.567 206 208 194
0.907217 -0.40159 -0.566 207 209 195
0.909373 -0.40159 -0.566 207 209 195
0.916903 -0.400171 -0.564 205 208 191
0.919051 -0.400171 -0.564 205 208 191
0.929794 -0.400171 -0.564 206 209 190
0.940537 -0.400171 -0.564 205 208 191
0.945304 -0.399462 -0.563 206 209 192
0.954503 -0.400171 -0.564 204 206 192
0.956651 -0.400171 -0.564 204 206 192
0.968469 -0.400171 -0.564 204 206 192
1.01608 -0.399462 -0.563 202 204 190
-0.0284143 -0.326546 -0.459 189 152 123
-0.02736 -0.324411 -0.456 194 155 124
-0.00810667 -0.31872 -0.448 195 154 122
0.0100105 -0.325123 -0.457 182 136 110
0.0117771 -0.325834 -0.458 180 134 110
0.0243571 -0.330814 -0.465 165 122 105
0.0410248 -0.344331 -0.484 134 106 103
0.068239 -0.372077 -0.523 125 104 103
0.0772257 -0.382037 -0.537 114 99 102
0.0831343 -0.390574 -0.549 117 99 99
0.120693 -0.415474 -0.584 148 162 189
0.134042 -0.415474 -0.584 153 164 196
0.4689 -0.370654 -0.521 150 114 100
0.461429 -0.355714 -0.5 169 124 103
0.464357 -0.352157 -0.495 177 130 110
0.465301 -0.351446 -0.494 171 124 104
0.467176 -0.350734 -0.493 169 122 102
0.500313 -0.35358 -0.497 151 110 88
0.503217 -0.354291 -0.498 149 111 88
0.857625 -0.402669 -0.566 209 211 197
0.874874 -0.402669 -0.566 208 210 196
0.875952 -0.402669 -0.566 208 210 196
0.879187 -0.402669 -0.566 209 211 197
0.885655 -0.402669 -0.566 208 210 197
0.907217 -0.402669 -0.566 207 209 195
0.924929 -0.400534 -0.563 206 209 190
0.937797 -0.400534 -0.563 204 207 190
0.984982 -0.400534 -0.563 203 205 191
0.986054 -0.400534 -0.563 204 206 192
1.02037 -0.400534 -0.563 204 206 192
1.02252 -0.400534 -0.563 203 205 191
1.02605 -0.399823 -0.562 202 204 190
-0.02724 -0.323853 -0.454 194 155 124
-0.0165657 -0.318147 -0.446 202 162 127
-0.00810667 -0.319573 -0.448 195 154 122
0.000429524 -0.321713 -0.451 194 153 125
0.00562095 -0.323853 -0.454 181 139 114
0.0243571 -0.3317 -0.465 164 121 105
0.0531743 -0.358807 -0.503 122 98 98
0.0693676 -0.373787 -0.524 122 102 101
0.0801571 -0.38734 -0.543 115 99 102
0.462948 -0.363087 -0.509 159 121 100
0.46904 -0.35096 -0.492 176 128 106
0.474563 -0.34882 -0.489 169 121 98
0.475494 -0.34882 -0.489 167 119 96
0.591367 -0.403033 -0.565 192 192 190
0.812345 -0.403747 -0.566 210 212 198
0.823126 -0.403747 -0.566 208 210 197
0.845766 -0.403747 -0.566 208 210 196
0.858703 -0.403747 -0.566 209 211 198
0.865171 -0.403747 -0.566 208 210 196
0.888395 -0.403033 -0.565 208 210 196
0.895358 -0.403747 -0.566 207 209 195
0.908843 -0.403033 -0.565 207 210 193
0.910457 -0.40232 -0.564 207 209 195
0.913132 -0.401607 -0.563 206 209 192
0.921711 -0.401607 -0.563 206 209 192
0.956028 -0.401607 -0.563 205 207 193
0.983232 -0.400893 -0.562 204 206 192
1.00357 -0.400893 -0.562 204 206 192
-0.0123181 -0.318996 -0.446 195 154 122
-0.00808857 -0.319711 -0.447 195 154 122
0.0271305 -0.334016 -0.467 158 116 104
0.0338571 -0.339023 -0.474 146 109 103
0.0348333 -0.339738 -0.475 142 107 103
0.0368743 -0.341884 -0.478 142 107 103
0.0410248 -0.346175 -0.484 133 103 101
0.04212 -0.347606 -0.486 132 102 100
0.0730524 -0.378361 -0.529 120 100 101
0.0801571 -0.388374 -0.543 115 99 102
0.114934 -0.416984 -0.583 171 182 204
0.124929 -0.416984 -0.583 117 125 146
0.126039 -0.416984 -0.583 149 157 178
0.462351 -0.358334 -0.501 167 124 105
0.462381 -0.357619 -0.5 166 123 104
0.473631 -0.349751 -0.489 163 117 94
0.479115 -0.348321 -0.487 167 121 97
0.493406 -0.351897 -0.492 155 113 89
0.51612 -0.36191 -0.506 144 108 86
0.860414 -0.40411 -0.565 209 211 198
0.864719 -0.40411 -0.565 208 210 196
0.889471 -0.40411 -0.565 208 210 196
0.93292 -0.401964 -0.562 206 208 194
0.947907 -0.401964 -0.562 205 207 193
0.961823 -0.401964 -0.562 205 207 193
0.968246 -0.401964 -0.562 205 207 193
0.973598 -0.401964 -0.562 205 207 193
0.986444 -0.401964 -0.562 203 205 191
1.00892 -0.401964 -0.562 203 205 191
1.0207 -0.401964 -0.562 204 206 192
-0.00469333 -0.32128 -0.448 192 153 120
-0.000428571 -0.322714 -0.45 193 154 123
0.00128857 -0.323431 -0.451 190 149 121
0.00560857 -0.324866 -0.453 182 137 114
0.0224886 -0.332037 -0.463 163 118 97
0.0508505 -0.357854 -0.499 126 100 101
0.100498 -0.418094 -0.583 147 152 182
0.10605 -0.418094 -0.583 169 178 195
0.121597 -0.418094 -0.583 173 181 202
0.483943 -0.387257 -0.54 149 112 103
0.478685 -0.382237 -0.533 151 114 105
0.469981 -0.372914 -0.52 154 118 96
0.463157 -0.362157 -0.505 165 124 102
0.470892 -0.352117 -0.491 170 124 101
0.478188 -0.349249 -0.487 168 122 98
0.8249 -0.405186 -0.565 210 212 201
0.83889 -0.405186 -0.565 209 211 197
0.849652 -0.405186 -0.565 209 211 198
0.860414 -0.405186 -0.565 209 211 198
0.882526 -0.404469 -0.564 207 209 196
0.900789 -0.404469 -0.564 206 208 194
0.91206 -0.403751 -0.563 207 210 193
0.919004 -0.403034 -0.562 205 207 193
0.920074 -0.403034 -0.562 206 208 194
0.922215 -0.403034 -0.562 207 209 195
0.928638 -0.403034 -0.562 206 208 194
0.931849 -0.403034 -0.562 206 208 194
0.954769 -0.402317 -0.561 205 208 191
0.971866 -0.402317 -0.561 204 206 192
1.02529 -0.402317 -0.561 203 205 191
-0.0260267 -0.322133 -0.448 197 158 127
-0.0251171 -0.321414 -0.447 197 158 127
-0.00976952 -0.320695 -0.446 195 154 122
-0.00808857 -0.321414 -0.447 197 156 124
-0.00554667 -0.322133 -0.448 193 152 120
0.00128857 -0.32429 -0.451 186 145 117
0.00473524 -0.32501 -0.452 184 140 115
0.00996667 -0.327167 -0.455 179 137 112
0.0621695 -0.36959 -0.514 125 101 99
0.100326 -0.418486 -0.582 149 154 183
0.10476 -0.418486 -0.582 166 174 193
0.106977 -0.418486 -0.582 142 151 180
0.493646 -0.396914 -0.552 145 111 101
0.46916 -0.372467 -0.518 153 117 95
0.464286 -0.359524 -0.5 168 126 104
0.466242 -0.35521 -0.494 172 127 104
0.469977 -0.353771 -0.492 176 128 106
0.470892 -0.353052 -0.491 172 126 103
0.824514 -0.405543 -0.564 210 212 199
0.825589 -0.405543 -0.564 210 212 199
0.864263 -0.405543 -0.564 208 210 196
0.873931 -0.405543 -0.564 208 210 196
0.875006 -0.405543 -0.564 208 210 196
0.877154 -0.405543 -0.564 207 209 195
0.879303 -0.405543 -0.564 208 210 197
0.895417 -0.405543 -0.564 207 209 195
0.91044 -0.404105 -0.562 206 208 194
0.918437 -0.403386 -0.561 206 208 194
0.924849 -0.403386 -0.561 206 208 194
0.93126 -0.403386 -0.561 206 208 194
0.943014 -0.403386 -0.561 205 207 193
0.9537 -0.403386 -0.561 205 207 193
0.966523 -0.403386 -0.561 205 208 191
0.971866 -0.403386 -0.561 205 207 193
0.9904 -0.402667 -0.56 203 207 192
1.00285 -0.403386 -0.561 202 206 191
1.0064 -0.402667 -0.56 201 205 190
0.00300667 -0.32515 -0.451 181 140 112
