ply
format ascii 1.0
comment Created by Open3D
element vertex 1311
property double x
property double y
property double z
property uchar red
property uchar green
property uchar blue
end_header
0.462274 -0.453802 -0.556 68 99 145
0.46757 -0.453802 -0.556 36 66 118
0.47816 -0.453802 -0.556 55 81 116
0.47508 -0.422787 -0.518 127 98 84
0.469074 -0.40483 -0.496 164 118 94
0.471851 -0.401566 -0.492 166 120 94
0.475451 -0.398301 -0.488 170 123 95
0.476381 -0.398301 -0.488 169 122 94
0.47731 -0.398301 -0.488 168 121 93
0.483614 -0.395852 -0.485 170 123 95
0.48806 -0.39422 -0.483 164 115 85
0.497033 -0.392588 -0.481 167 120 92
0.502266 -0.390955 -0.479 156 113 81
0.51304 -0.395036 -0.484 153 114 83
0.837274 -0.471758 -0.578 113 118 114
0.864089 -0.472574 -0.579 112 114 109
0.874014 -0.472574 -0.579 129 134 130
0.0121933 -0.337873 -0.413 190 147 112
0.0184419 -0.337055 -0.412 187 145 107
0.0255048 -0.337055 -0.412 188 144 109
0.0510419 -0.345236 -0.422 164 117 89
0.0545143 -0.346872 -0.424 157 111 87
0.06222 -0.349327 -0.427 147 99 85
0.0665971 -0.350963 -0.429 138 96 80
0.0866133 -0.366507 -0.448 99 77 80
0.150394 -0.456497 -0.558 162 188 221
0.219752 -0.454861 -0.556 127 156 190
0.236697 -0.454861 -0.556 107 122 155
0.258937 -0.454861 -0.556 156 172 205
0.259996 -0.454861 -0.556 188 191 208
0.348329 -0.454043 -0.555 81 114 165
0.369471 -0.454043 -0.555 54 81 148
0.386745 -0.453225 -0.554 119 136 156
0.392021 -0.453225 -0.554 174 181 199
0.407529 -0.454043 -0.555 55 98 166
0.413871 -0.454043 -0.555 105 131 164
0.4255 -0.454043 -0.555 71 106 162
0.452496 -0.455679 -0.557 129 144 165
0.462045 -0.455679 -0.557 79 99 124
0.465451 -0.454861 -0.556 76 109 160
0.480278 -0.454861 -0.556 108 124 149
0.48981 -0.454861 -0.556 126 136 145
0.495105 -0.454861 -0.556 84 95 113
0.497545 -0.453225 -0.554 37 38 56
0.473667 -0.400867 -0.49 167 121 95
0.48269 -0.396776 -0.485 172 125 97
0.4899 -0.39514 -0.483 168 118 93
0.84096 -0.471223 -0.576 122 123 117
0.872607 -0.475313 -0.581 82 86 85
0.00826 -0.33866 -0.413 190 147 112
0.0176143 -0.33702 -0.411 186 144 106
0.0376381 -0.34112 -0.416 176 130 97
0.0553219 -0.34768 -0.424 155 110 87
0.0638467 -0.35014 -0.427 145 100 81
0.07316 -0.35588 -0.434 123 86 77
0.0751581 -0.35752 -0.436 116 81 75
0.0792 -0.3608 -0.44 114 83 81
0.0822714 -0.36326 -0.443 107 79 78
0.100071 -0.38294 -0.467 88 69 73
0.102723 -0.38622 -0.471 88 69 75
0.113169 -0.40098 -0.489 84 67 73
0.118334 -0.40918 -0.499 91 80 84
0.120241 -0.41246 -0.503 103 106 123
0.185863 -0.45592 -0.556 196 204 225
0.196453 -0.45592 -0.556 202 210 233
0.201749 -0.45592 -0.556 211 208 227
0.209162 -0.45592 -0.556 123 141 165
0.220811 -0.45592 -0.556 110 140 176
0.34348 -0.45428 -0.554 93 132 189
0.34559 -0.45428 -0.554 90 121 176
0.364186 -0.4551 -0.555 112 129 157
0.399408 -0.45428 -0.554 65 100 156
0.40996 -0.45428 -0.554 80 120 172
0.415236 -0.45428 -0.554 141 156 177
0.433957 -0.4551 -0.555 46 81 137
0.438975 -0.45592 -0.556 37 68 133
0.44427 -0.45592 -0.556 100 132 183
0.471629 -0.4182 -0.51 135 104 86
0.470747 -0.41656 -0.508 138 107 89
0.469031 -0.41082 -0.501 148 111 92
0.469074 -0.40672 -0.496 156 115 93
0.470006 -0.40508 -0.494 161 117 92
0.476332 -0.39934 -0.487 169 123 97
0.483614 -0.3977 -0.485 170 123 95
0.496791 -0.39278 -0.479 173 123 96
0.497704 -0.39278 -0.479 171 121 94
0.498616 -0.39278 -0.479 168 118 91
0.842057 -0.47232 -0.576 122 123 117
0.843154 -0.47232 -0.576 114 119 115
0.000401905 -0.346844 -0.422 190 147 113
0.00904667 -0.339447 -0.413 190 147 112
0.0129486 -0.338625 -0.412 189 146 111
0.0183971 -0.337803 -0.411 184 140 105
0.0367571 -0.34109 -0.415 174 127 97
0.0392229 -0.341912 -0.416 173 126 98
0.0675714 -0.353419 -0.43 133 94 79
0.0914333 -0.373967 -0.455 90 70 71
0.0927057 -0.37561 -0.457 91 71 72
0.107205 -0.393692 -0.479 78 66 70
0.154091 -0.456979 -0.556 147 166 196
0.219357 -0.456157 -0.555 127 159 198
0.2257 -0.456157 -0.555 206 207 225
0.264814 -0.456157 -0.555 189 196 206
0.273834 -0.455335 -0.554 100 136 196
0.280166 -0.455335 -0.554 71 110 169
0.333983 -0.455335 -0.554 109 124 163
0.36775 -0.455335 -0.554 54 84 148
0.38078 -0.454513 -0.553 75 97 147
0.424733 -0.455335 -0.554 162 169 187
0.43212 -0.455335 -0.554 61 93 150
0.433175 -0.455335 -0.554 45 83 145
0.436071 -0.456157 -0.555 36 73 126
0.46757 -0.456979 -0.556 64 89 129
0.472865 -0.456979 -0.556 50 86 138
0.476986 -0.426569 -0.519 117 97 86
0.473631 -0.401911 -0.489 168 121 95
0.525933 -0.402733 -0.49 150 109 81
0.573406 -0.430678 -0.524 121 100 83
0.846816 -0.474239 -0.577 116 118 113
0.0051381 -0.341881 -0.415 191 148 113
0.0105943 -0.33941 -0.412 191 151 115
0.0351762 -0.341881 -0.415 175 128 98
0.0485152 -0.346824 -0.421 165 115 90
0.057881 -0.350119 -0.425 149 104 85
0.0771714 -0.360829 -0.438 115 85 77
0.0847171 -0.368243 -0.447 100 76 74
0.103159 -0.389662 -0.473 84 68 69
0.116913 -0.409433 -0.497 71 70 78
0.153814 -0.457214 -0.555 149 168 200
0.189757 -0.457214 -0.555 124 154 182
0.202443 -0.457214 -0.555 213 212 226
0.204557 -0.457214 -0.555 207 211 220
0.206671 -0.457214 -0.555 156 169 185
0.235214 -0.457214 -0.555 172 179 189
0.243232 -0.45639 -0.554 64 95 152
0.258471 -0.457214 -0.555 190 203 220
0.263282 -0.45639 -0.554 194 201 207
0.271724 -0.45639 -0.554 74 114 165
0.272779 -0.45639 -0.554 88 127 186
0.32706 -0.455567 -0.553 189 192 199
0.33022 -0.455567 -0.553 168 174 196
0.354447 -0.455567 -0.553 179 186 204
0.362873 -0.455567 -0.553 73 101 151
0.389207 -0.455567 -0.553 183 200 216
0.398352 -0.45639 -0.554 96 131 185
0.408905 -0.45639 -0.554 100 140 192
0.425789 -0.45639 -0.554 175 184 199
0.43423 -0.45639 -0.554 38 70 127
0.454861 -0.458038 -0.556 169 178 193
0.48963 -0.458862 -0.557 131 133 132
0.472733 -0.403667 -0.49 168 122 98
0.481767 -0.399548 -0.485 175 128 102
0.490722 -0.397076 -0.482 173 123 98
0.496665 -0.393781 -0.478 168 121 93
0.498486 -0.393781 -0.478 167 120 92
0.509714 -0.395429 -0.48 161 115 89
0.518719 -0.399548 -0.485 157 113 84
0.0160486 -0.339369 -0.411 189 145 110
0.0279267 -0.34102 -0.413 184 139 106
0.0351762 -0.342671 -0.415 173 126 96
0.0502381 -0.348451 -0.422 161 114 88
0.0588286 -0.351754 -0.426 147 102 83
0.0773476 -0.362489 -0.439 114 86 75
0.117149 -0.411206 -0.498 92 89 98
0.202443 -0.458271 -0.555 210 212 227
0.20841 -0.457446 -0.554 115 139 177
0.211575 -0.457446 -0.554 127 151 189
0.218962 -0.457446 -0.554 107 141 186
0.220017 -0.457446 -0.554 101 135 180
0.226757 -0.458271 -0.555 204 203 217
0.259061 -0.457446 -0.554 190 202 218
0.272287 -0.45662 -0.553 73 111 173
0.281767 -0.45662 -0.553 67 112 171
0.34286 -0.45662 -0.553 64 104 165
0.381143 -0.455794 -0.552 137 159 198
0.382194 -0.455794 -0.552 144 161 189
0.39658 -0.45662 -0.553 94 120 153
0.40606 -0.45662 -0.553 89 132 177
0.438186 -0.458271 -0.555 63 95 156
0.4403 -0.458271 -0.555 37 70 123
0.491751 -0.459923 -0.557 124 119 123
0.49476 -0.460749 -0.558 118 113 120
0.501459 -0.459097 -0.556 101 93 90
0.479983 -0.401297 -0.486 174 127 101
0.494054 -0.395517 -0.479 173 126 98
0.50774 -0.395517 -0.479 165 118 90
0.51658 -0.39882 -0.483 160 115 86
0.524716 -0.402949 -0.488 146 109 83
-0.00200952 -0.349255 -0.422 183 142 110
0.0121343 -0.340151 -0.411 193 150 115
0.0183971 -0.340151 -0.411 187 143 108
0.0302867 -0.341807 -0.413 179 135 100
0.0418 -0.345945 -0.418 167 120 92
0.0468 -0.3476 -0.42 161 114 88
0.063181 -0.354221 -0.428 137 99 80
0.114094 -0.408016 -0.493 86 70 71
0.115733 -0.410499 -0.496 85 69 70
0.117384 -0.412982 -0.499 124 118 128
0.148796 -0.460156 -0.556 196 210 237
0.1517 -0.459329 -0.555 158 174 199
0.154592 -0.458501 -0.554 151 171 204
0.242793 -0.457673 -0.553 63 94 151
0.333829 -0.456846 -0.552 73 111 160
0.39342 -0.457673 -0.553 181 192 210
0.43423 -0.458501 -0.554 41 78 133
0.439243 -0.459329 -0.555 47 79 136
0.469471 -0.460984 -0.557 128 135 141
0.485194 -0.461811 -0.558 131 135 136
0.498667 -0.463467 -0.56 115 115 115
0.5008 -0.463467 -0.56 108 108 106
0.5031 -0.462639 -0.559 100 97 92
0.502361 -0.460984 -0.557 98 93 89
0.470852 -0.417948 -0.505 140 103 87
0.494844 -0.395602 -0.478 169 122 94
0.498351 -0.394774 -0.477 170 123 93
0.5175 -0.39974 -0.483 157 112 81
0.0160486 -0.340934 -0.411 187 143 108
0.0215286 -0.340934 -0.411 187 143 108
0.0230943 -0.340934 -0.411 185 141 106
0.0351762 -0.344252 -0.415 173 126 96
0.0410038 -0.346741 -0.418 169 122 94
0.05964 -0.353377 -0.426 140 99 81
0.0775238 -0.36499 -0.44 114 84 74
0.0838657 -0.370797 -0.447 101 76 71
0.152482 -0.459556 -0.554 174 190 216
0.184139 -0.459556 -0.554 133 156 206
0.198912 -0.459556 -0.554 209 210 228
0.204189 -0.459556 -0.554 187 193 205
0.211193 -0.458727 -0.553 103 135 186
0.221727 -0.458727 -0.553 91 127 177
0.2607 -0.458727 -0.553 189 195 209
0.287566 -0.457897 -0.552 152 172 207
0.354857 -0.457897 -0.552 189 195 207
0.355909 -0.457897 -0.552 168 185 195
0.36182 -0.458727 -0.553 159 177 199
0.389554 -0.457897 -0.552 187 198 216
0.405007 -0.458727 -0.553 77 109 158
0.448507 -0.461215 -0.556 142 146 147
0.451684 -0.461215 -0.556 153 151 152
0.45592 -0.461215 -0.556 149 153 154
0.47 -0.414762 -0.5 152 110 88
0.47002 -0.412273 -0.497 154 112 88
0.473592 -0.404808 -0.488 171 125 101
0.480843 -0.402319 -0.485 174 127 101
0.484461 -0.40149 -0.484 171 124 98
0.493023 -0.396512 -0.478 172 125 95
0.504711 -0.395683 -0.477 163 119 84
0.542109 -0.413103 -0.498 143 103 78
0.549468 -0.41725 -0.503 145 103 78
-0.00667333 -0.44814 -0.539 179 145 110
-0.00119143 -0.346706 -0.417 184 143 111
0.0105429 -0.340886 -0.41 190 145 112
0.0136667 -0.340886 -0.41 187 142 109
0.0255048 -0.342549 -0.412 185 139 105
0.0343029 -0.344211 -0.414 174 127 97
0.0805838 -0.368323 -0.443 107 77 69
0.0817952 -0.369986 -0.445 106 76 68
0.114557 -0.411557 -0.495 85 69 69
0.187305 -0.460611 -0.554 92 122 176
0.196802 -0.460611 -0.554 209 211 224
0.197857 -0.460611 -0.554 209 211 224
0.201023 -0.460611 -0.554 209 207 221
0.21014 -0.45978 -0.553 99 134 188
0.220673 -0.45978 -0.553 91 127 179
0.22594 -0.45978 -0.553 195 202 218
0.258126 -0.458949 -0.552 179 186 204
0.260229 -0.458949 -0.552 176 185 200
0.325877 -0.458117 -0.551 182 190 209
0.334273 -0.458117 -0.551 93 124 179
0.3496 -0.458949 -0.552 171 184 201
0.351703 -0.458949 -0.552 181 197 213
0.355909 -0.458949 -0.552 178 196 200
0.368526 -0.458949 -0.552 49 81 138
0.388503 -0.458949 -0.552 194 199 203
0.45592 -0.462274 -0.556 156 160 163
0.460984 -0.463106 -0.557 154 155 160
0.489067 -0.4656 -0.56 124 125 127
0.492267 -0.4656 -0.56 123 123 123
0.500238 -0.457286 -0.55 86 75 71
0.470017 -0.414051 -0.498 151 110 88
0.472622 -0.404906 -0.487 168 124 99
0.474477 -0.404906 -0.487 168 124 99
0.477206 -0.404074 -0.486 168 122 96
0.479919 -0.403243 -0.485 174 126 103
0.481695 -0.402411 -0.484 172 125 99
0.532618 -0.408231 -0.491 142 105 79
0.00665429 -0.3425 -0.411 191 146 113
0.0238771 -0.3425 -0.411 185 140 107
0.0450924 -0.349167 -0.419 161 113 90
0.0477133 -0.350833 -0.421 160 113 87
0.0519686 -0.3525 -0.423 156 110 87
0.0687086 -0.36 -0.432 128 92 80
0.10516 -0.398333 -0.478 82 66 66
0.106514 -0.4 -0.48 83 67 67
0.186967 -0.460833 -0.553 77 108 165
0.193287 -0.460833 -0.553 196 207 227
0.19434 -0.460833 -0.553 208 209 227
0.1975 -0.460833 -0.553 213 215 228
0.201713 -0.460833 -0.553 210 207 224
0.20976 -0.46 -0.552 90 129 186
0.229737 -0.46 -0.552 197 201 213
0.294391 -0.459167 -0.551 69 104 146
0.31853 -0.459167 -0.551 123 149 184
0.351066 -0.459167 -0.551 180 196 209
0.368908 -0.459167 -0.551 51 82 146
0.383246 -0.46 -0.552 187 194 202
0.395527 -0.460833 -0.553 133 145 161
0.398687 -0.460833 -0.553 117 137 164
0.429729 -0.4625 -0.555 179 179 187
0.437916 -0.463333 -0.556 176 171 175
0.438975 -0.463333 -0.556 171 171 173
0.451435 -0.464167 -0.557 166 167 171
0.452496 -0.464167 -0.557 162 161 166
0.453557 -0.464167 -0.557 162 161 166
0.510652 -0.470833 -0.565 77 67 68
0.481658 -0.435833 -0.523 109 86 72
0.470019 -0.413333 -0.496 151 115 93
0.472663 -0.406667 -0.488 166 122 97
0.47355 -0.405833 -0.487 167 123 98
0.50184 -0.396667 -0.476 166 119 89
0.503653 -0.396667 -0.476 163 118 85
0.509254 -0.3975 -0.477 155 112 80
0.544954 -0.415 -0.498 145 107 86
0.0097381 -0.341612 -0.409 189 149 113
0.0136667 -0.342448 -0.41 187 144 109
0.0367571 -0.346624 -0.415 170 123 93
0.0434962 -0.349965 -0.419 165 118 90
0.0519686 -0.353306 -0.423 157 110 90
0.0562619 -0.354976 -0.425 136 94 78
0.0873867 -0.377528 -0.452 94 73 68
0.0886381 -0.379198 -0.454 93 72 67
0.0933143 -0.38421 -0.46 90 71 64
0.102474 -0.395903 -0.474 84 68 68
0.108324 -0.404255 -0.484 78 66 68
0.142727 -0.461887 -0.553 113 141 180
0.149047 -0.461887 -0.553 165 184 216
0.177166 -0.461051 -0.552 80 106 163
0.183474 -0.461051 -0.552 72 100 165
0.218171 -0.461051 -0.552 83 119 179
0.220274 -0.461051 -0.552 93 128 186
0.223429 -0.461051 -0.552 170 192 229
0.22448 -0.461051 -0.552 183 191 212
0.232891 -0.461051 -0.552 182 188 210
0.25451 -0.460216 -0.551 102 132 182
0.255559 -0.460216 -0.551 103 129 178
0.267104 -0.460216 -0.551 96 121 162
0.34057 -0.460216 -0.551 69 105 157
0.378353 -0.460216 -0.551 125 136 154
0.404684 -0.462722 -0.554 180 178 181
0.416291 -0.462722 -0.554 179 180 184
0.421568 -0.462722 -0.554 179 180 174
0.4329 -0.463557 -0.555 172 173 177
0.474133 -0.467733 -0.56 138 137 142
0.491486 -0.471074 -0.564 118 113 117
0.471862 -0.420125 -0.503 142 106 90
0.493809 -0.398409 -0.477 170 125 94
0.530293 -0.407596 -0.488 141 106 78
0.538544 -0.411772 -0.493 141 105 79
-0.00358286 -0.349926 -0.418 184 141 107
0.0152286 -0.343229 -0.41 188 144 109
0.0160095 -0.343229 -0.41 186 142 107
0.0262895 -0.344903 -0.412 181 135 102
0.0310733 -0.34574 -0.413 177 130 100
0.0376381 -0.348251 -0.416 171 124 96
0.0450924 -0.350763 -0.419 161 114 88
0.0615505 -0.358297 -0.428 139 97 81
0.0623657 -0.358297 -0.428 138 96 80
0.07068 -0.36332 -0.434 122 88 79
0.0766857 -0.368343 -0.44 111 82 76
0.0809476 -0.372529 -0.445 105 77 73
0.0863343 -0.377551 -0.451 96 72 68
0.0898971 -0.381737 -0.456 93 72 69
0.14404 -0.463777 -0.554 129 161 202
0.2024 -0.462103 -0.552 181 184 199
0.266054 -0.461266 -0.551 97 112 135
0.291762 -0.460429 -0.55 168 182 193
0.335762 -0.460429 -0.55 95 133 178
0.354214 -0.461266 -0.551 195 193 206
0.362217 -0.462103 -0.552 152 164 176
0.372731 -0.462103 -0.552 121 130 147
0.374834 -0.462103 -0.552 132 142 144
0.397297 -0.463777 -0.554 178 180 179
0.405739 -0.463777 -0.554 181 180 176
0.40785 -0.463777 -0.554 176 181 187
0.422329 -0.464614 -0.555 182 177 183
0.435798 -0.465451 -0.556 174 174 176
0.44533 -0.465451 -0.556 156 158 157
0.48978 -0.47466 -0.567 105 101 100
0.487095 -0.443686 -0.53 107 89 79
0.479027 -0.43364 -0.518 119 92 73
0.470966 -0.416897 -0.498 156 109 89
0.470957 -0.414386 -0.495 153 111 89
0.471733 -0.408526 -0.488 164 119 96
0.473452 -0.406014 -0.485 168 122 99
0.4753 -0.406014 -0.485 165 120 97
0.479919 -0.406014 -0.485 169 123 99
0.492112 -0.400154 -0.478 168 121 91
0.504405 -0.397643 -0.475 164 119 86
0.509093 -0.39848 -0.476 162 117 86
0.56267 -0.425269 -0.508 109 81 69
0.0066219 -0.34317 -0.409 190 147 112
0.0254429 -0.344849 -0.411 177 130 100
0.027859 -0.345688 -0.412 179 132 102
0.0401114 -0.349883 -0.417 170 123 95
0.0670629 -0.362469 -0.432 129 91 78
0.0746686 -0.367503 -0.438 111 81 73
0.0766857 -0.369181 -0.44 109 81 77
0.111989 -0.412811 -0.492 79 68 74
0.182092 -0.462315 -0.551 80 104 164
0.190489 -0.462315 -0.551 188 203 236
0.226172 -0.462315 -0.551 188 201 210
0.23142 -0.462315 -0.551 108 126 162
0.236668 -0.462315 -0.551 59 93 154
0.258708 -0.462315 -0.551 66 95 137
0.327381 -0.461476 -0.55 178 191 197
0.332174 -0.462315 -0.551 121 131 158
0.352754 -0.463154 -0.552 154 163 170
0.358011 -0.463154 -0.552 153 156 161
0.37904 -0.463154 -0.552 180 179 184
0.382194 -0.463154 -0.552 183 182 187
0.3871 -0.463993 -0.553 181 180 185
0.408586 -0.465671 -0.555 186 186 188
0.44613 -0.46735 -0.557 153 153 151
0.471545 -0.471545 -0.562 110 104 106
0.48114 -0.47574 -0.567 102 96 100
0.486943 -0.478257 -0.57 95 89 93
0.479951 -0.435466 -0.519 117 91 74
0.47355 -0.408616 -0.487 165 119 96
0.484295 -0.404421 -0.482 173 126 98
0.486039 -0.403582 -0.481 173 126 98
0.490405 -0.401904 -0.479 169 123 90
0.494452 -0.398548 -0.475 170 123 93
0.521937 -0.404421 -0.482 147 110 84
0.537294 -0.411972 -0.491 143 105 82
0.553009 -0.420363 -0.501 138 102 76
0.562529 -0.425397 -0.507 99 76 68
0.00429524 -0.34479 -0.41 192 149 114
0.0112962 -0.34395 -0.409 186 146 110
0.0199143 -0.34479 -0.41 183 136 106
0.0214762 -0.34479 -0.41 181 134 104
0.0286438 -0.346472 -0.412 175 128 98
0.0410038 -0.351518 -0.418 167 120 94
0.0458905 -0.352359 -0.419 161 115 91
0.0680429 -0.364132 -0.433 127 89 78
0.0716714 -0.365814 -0.435 118 85 76
0.0913629 -0.385997 -0.459 91 70 65
0.100244 -0.39693 -0.472 85 67 65
0.104468 -0.402816 -0.479 85 67 65
0.114073 -0.417953 -0.497 97 86 92
0.200984 -0.463365 -0.551 149 151 164
0.206231 -0.463365 -0.551 76 117 181
0.227857 -0.462524 -0.55 149 164 185
0.236238 -0.462524 -0.55 56 90 151
0.238333 -0.462524 -0.55 48 80 141
0.264524 -0.462524 -0.55 170 181 201
0.268226 -0.461683 -0.549 74 111 156
0.271363 -0.461683 -0.549 91 132 178
0.314237 -0.461683 -0.549 83 115 164
0.34057 -0.463365 -0.551 115 132 152
0.344769 -0.463365 -0.551 138 148 158
0.353806 -0.464206 -0.552 170 171 176
0.372353 -0.465047 -0.553 178 179 183
0.379727 -0.465047 -0.553 176 175 180
0.3959 -0.466729 -0.555 181 183 182
0.400129 -0.466729 -0.555 181 181 181
0.417043 -0.466729 -0.555 168 166 169
0.43446 -0.46841 -0.557 151 149 152
0.445869 -0.469251 -0.558 131 127 126
0.447994 -0.469251 -0.558 122 118 119
0.45625 -0.470092 -0.559 107 102 106
0.478214 -0.43309 -0.515 120 92 78
0.473712 -0.425522 -0.506 134 98 82
0.471769 -0.411226 -0.489 156 111 88
0.4929 -0.401134 -0.477 171 124 94
0.500634 -0.398611 -0.474 165 118 88
-0.000392381 -0.347257 -0.412 184 141 107
0.0350914 -0.348943 -0.414 174 125 95
0.0410038 -0.352314 -0.418 166 119 93
0.0484 -0.354 -0.42 159 113 90
0.0718362 -0.367486 -0.436 117 84 75
0.0952143 -0.391929 -0.465 90 69 68
0.151381 -0.463571 -0.55 109 141 192
0.156619 -0.463571 -0.55 118 146 196
0.181762 -0.463571 -0.55 86 111 175
0.18629 -0.464414 -0.551 89 119 179
0.188048 -0.463571 -0.55 142 168 219
0.189095 -0.463571 -0.55 160 177 220
0.197476 -0.463571 -0.55 207 206 222
0.201667 -0.463571 -0.55 135 155 182
0.214238 -0.463571 -0.55 51 94 162
0.218429 -0.463571 -0.55 61 102 166
0.237286 -0.463571 -0.55 55 88 142
0.238946 -0.462729 -0.549 45 76 133
0.243129 -0.462729 -0.549 35 69 133
0.248357 -0.462729 -0.549 48 89 143
0.253586 -0.462729 -0.549 137 161 187
0.328429 -0.463571 -0.55 151 156 162
0.333224 -0.464414 -0.551 158 159 164
0.350651 -0.465257 -0.552 171 172 176
0.352754 -0.465257 -0.552 170 173 178
0.357607 -0.4661 -0.553 175 176 181
0.380413 -0.466943 -0.554 174 173 178
0.389557 -0.467786 -0.555 172 171 176
0.394495 -0.468629 -0.556 169 169 169
0.40085 -0.468629 -0.556 165 165 165
0.405086 -0.468629 -0.556 168 166 167
0.410381 -0.468629 -0.556 164 162 163
0.415676 -0.468629 -0.556 158 156 159
0.433114 -0.470314 -0.558 129 124 128
0.451991 -0.471157 -0.559 89 84 88
0.499043 -0.488014 -0.579 57 56 61
0.477086 -0.407943 -0.484 169 123 97
0.47893 -0.407943 -0.484 169 123 97
0.494452 -0.400357 -0.475 173 123 96
0.500634 -0.399514 -0.474 163 116 88
0.507857 -0.399514 -0.474 163 118 89
0.534941 -0.411314 -0.488 146 106 80
0.0167495 -0.345508 -0.409 182 137 104
0.0183524 -0.346352 -0.41 184 139 106
0.0199143 -0.346352 -0.41 184 138 105
0.0326467 -0.348887 -0.413 174 124 97
0.0450924 -0.353955 -0.419 161 113 90
0.074839 -0.37085 -0.439 110 81 75
0.0813114 -0.377609 -0.447 103 76 69
0.0892238 -0.386056 -0.457 95 72 66
0.102 -0.402107 -0.476 84 66 64
0.109667 -0.413933 -0.49 76 61 64
0.13881 -0.464619 -0.55 163 170 186
0.192238 -0.464619 -0.55 118 144 193
0.20862 -0.463774 -0.549 60 98 169
0.217381 -0.464619 -0.55 66 104 167
0.23519 -0.464619 -0.55 122 150 189
0.274 -0.46293 -0.548 58 101 144
0.276088 -0.46293 -0.548 53 101 150
0.290186 -0.463774 -0.549 185 192 202
0.348549 -0.466309 -0.552 171 170 175
0.382524 -0.467998 -0.554 163 163 165
0.406875 -0.470532 -0.557 148 143 147
0.414302 -0.470532 -0.557 133 131 134
0.423549 -0.471377 -0.558 117 112 118
0.479343 -0.481514 -0.57 54 53 58
0.493276 -0.489962 -0.58 54 55 60
0.50249 -0.492496 -0.583 55 56 61
0.504711 -0.492496 -0.583 55 56 61
0.486346 -0.44519 -0.527 102 79 71
0.471914 -0.420691 -0.498 151 109 85
0.472622 -0.411399 -0.487 164 120 95
0.484295 -0.407175 -0.482 173 126 100
0.490174 -0.402951 -0.477 167 118 88
0.516523 -0.402951 -0.477 154 110 81
-0.00515048 -0.352213 -0.416 179 138 108
0.00195238 -0.347133 -0.41 189 146 112
0.00427429 -0.34544 -0.408 194 150 115
0.00660571 -0.34544 -0.408 193 149 114
0.0120457 -0.34544 -0.408 189 144 111
0.027859 -0.348827 -0.412 172 125 99
0.0343029 -0.35052 -0.414 172 125 99
0.0367571 -0.351367 -0.415 168 121 95
0.0384305 -0.352213 -0.416 167 120 94
0.0433924 -0.353907 -0.418 163 115 92
0.0642952 -0.364067 -0.43 132 92 80
0.0680429 -0.366607 -0.433 123 89 79
0.089419 -0.387773 -0.458 92 72 65
0.102214 -0.40386 -0.477 82 67 64
0.139857 -0.465667 -0.55 159 168 185
0.153197 -0.46482 -0.549 88 128 189
0.198524 -0.465667 -0.55 170 176 192
0.199571 -0.465667 -0.55 129 142 158
0.216986 -0.46482 -0.549 86 122 182
0.218031 -0.46482 -0.549 91 127 187
0.224306 -0.46482 -0.549 182 192 217
0.231626 -0.46482 -0.549 149 164 183
0.279219 -0.463973 -0.548 88 125 177
0.288094 -0.46482 -0.549 158 162 171
0.311667 -0.465667 -0.55 161 164 171
0.327976 -0.466513 -0.551 170 170 170
0.372643 -0.4699 -0.555 159 159 161
0.376871 -0.4699 -0.555 158 158 160
0.382846 -0.470747 -0.556 152 150 153
0.388839 -0.471593 -0.557 152 150 153
0.410058 -0.471593 -0.557 110 108 111
0.441067 -0.474133 -0.56 64 62 67
0.444267 -0.474133 -0.56 60 58 63
0.459515 -0.476673 -0.563 59 58 66
0.47142 -0.48006 -0.567 58 57 63
0.4725 -0.48006 -0.567 56 55 61
0.481 -0.438573 -0.518 112 85 76
0.475585 -0.430107 -0.508 133 97 81
0.4761 -0.40894 -0.483 169 121 98
0.490174 -0.40386 -0.477 174 125 95
0.504083 -0.400473 -0.473 166 119 91
0.503916 -0.399627 -0.472 167 120 92
0.513452 -0.402167 -0.475 154 110 81
0.51544 -0.403013 -0.476 152 108 79
0.526528 -0.408093 -0.482 151 107 82
0.530556 -0.409787 -0.484 147 106 78
0.5357 -0.412327 -0.487 144 103 75
0.538831 -0.41402 -0.489 144 102 77
0.00272667 -0.347066 -0.409 191 148 113
0.0104914 -0.346217 -0.408 186 142 107
0.0199143 -0.347914 -0.41 184 135 105
0.0493171 -0.357249 -0.421 154 107 87
0.0510419 -0.358097 -0.422 154 107 89
0.06624 -0.366583 -0.432 127 89 78
0.073 -0.371674 -0.438 112 81 76
0.0738343 -0.371674 -0.438 112 81 76
0.0772086 -0.375917 -0.443 106 77 69
0.0782286 -0.376766 -0.444 106 77 69
0.0982371 -0.399677 -0.471 88 69 65
0.111729 -0.420043 -0.495 84 74 83
0.147969 -0.465866 -0.549 61 105 168
0.184569 -0.465866 -0.549 67 91 151
0.20862 -0.465866 -0.549 83 121 183
0.209666 -0.465866 -0.549 78 116 178
0.239991 -0.465866 -0.549 38 78 140
0.241037 -0.465866 -0.549 35 75 137
0.260906 -0.465866 -0.549 176 191 198
0.262997 -0.465866 -0.549 181 190 195
0.280263 -0.465017 -0.548 111 132 153
0.290186 -0.465866 -0.549 155 155 163
0.325417 -0.468411 -0.552 168 169 171
0.335487 -0.46926 -0.553 169 169 181
0.352977 -0.470109 -0.554 164 158 162
0.359957 -0.470957 -0.555 156 156 158
0.36696 -0.471806 -0.556 152 152 152
0.373314 -0.471806 -0.556 146 146 148
0.426133 -0.4752 -0.56 58 55 62
0.443991 -0.476049 -0.561 55 54 59
0.452009 -0.477746 -0.563 57 56 61
0.458183 -0.478594 -0.564 56 55 61
0.5219 -0.5049 -0.595 34 33 39
0.472862 -0.423437 -0.499 152 110 85
0.47518 -0.40986 -0.483 167 119 96
0.484207 -0.408163 -0.481 173 126 98
0.489266 -0.404769 -0.477 175 126 96
0.49096 -0.40392 -0.476 172 123 93
0.516347 -0.40392 -0.476 153 109 82
0.524343 -0.407314 -0.48 151 107 82
-0.00274 -0.349546 -0.411 184 141 106
0.0183076 -0.347845 -0.409 184 138 105
0.027859 -0.350396 -0.412 176 129 101
0.0326467 -0.351247 -0.413 172 127 98
0.0493171 -0.35805 -0.421 155 109 85
0.0634762 -0.365705 -0.43 133 93 81
0.0652657 -0.366555 -0.431 129 91 78
0.0750095 -0.37421 -0.44 110 80 70
0.168575 -0.466061 -0.548 96 128 175
0.19398 -0.466911 -0.549 143 160 188
0.196071 -0.466911 -0.549 197 209 231
0.205483 -0.466911 -0.549 99 132 175
0.21594 -0.466911 -0.549 100 140 192
0.224306 -0.466911 -0.549 183 192 209
0.225351 -0.466911 -0.549 188 195 211
0.227029 -0.466061 -0.548 184 196 210
0.236423 -0.466061 -0.548 114 135 166
0.24373 -0.466061 -0.548 51 87 147
0.298551 -0.466911 -0.549 160 166 166
0.315954 -0.469463 -0.552 168 170 169
0.362315 -0.473715 -0.557 142 142 144
0.393769 -0.477117 -0.561 87 85 90
0.413403 -0.478818 -0.563 58 57 63
0.418346 -0.477117 -0.561 56 55 61
0.445574 -0.478818 -0.563 54 53 59
0.48607 -0.491575 -0.578 44 43 51
0.50008 -0.50008 -0.588 34 32 43
0.489266 -0.405677 -0.477 173 126 98
0.490053 -0.404827 -0.476 173 126 98
0.492643 -0.403976 -0.475 172 123 93
0.493548 -0.403976 -0.475 171 122 92
0.49612 -0.403126 -0.474 170 121 89
0.497776 -0.402275 -0.473 169 120 90
0.513274 -0.403126 -0.474 156 112 83
0.5313 -0.41078 -0.483 149 108 80
-0.0092 -0.358 -0.42 182 136 102
-0.00671905 -0.353738 -0.415 180 140 104
0.03186 -0.352033 -0.413 172 127 96
0.0343029 -0.352886 -0.414 171 124 96
0.0384305 -0.35459 -0.416 165 118 92
0.0393171 -0.355443 -0.417 165 118 92
0.0510419 -0.359705 -0.422 154 107 87
0.0772086 -0.377605 -0.443 103 78 71
0.0860438 -0.386981 -0.454 93 73 66
0.0885467 -0.39039 -0.458 92 72 65
0.0960333 -0.399767 -0.469 88 69 65
0.101518 -0.407438 -0.478 82 66 66
0.10736 -0.415962 -0.488 72 60 62
0.148743 -0.467105 -0.548 74 114 175
0.184232 -0.467105 -0.548 97 120 187
0.198846 -0.467105 -0.548 188 194 210
0.20824 -0.467105 -0.548 100 136 186
0.222853 -0.467105 -0.548 187 195 208
0.231204 -0.467105 -0.548 186 195 202
0.236423 -0.467105 -0.548 99 117 141
0.256255 -0.467105 -0.548 144 147 154
0.293857 -0.46881 -0.55 167 162 166
0.295952 -0.46881 -0.55 163 163 165
0.306429 -0.46881 -0.55 166 167 169
0.311184 -0.469662 -0.551 166 167 172
0.334586 -0.473071 -0.555 151 155 156
0.398356 -0.482448 -0.566 58 57 63
0.40014 -0.4833 -0.567 58 57 63
0.40301 -0.484152 -0.568 59 58 64
0.41202 -0.4833 -0.567 56 55 61
0.412371 -0.482448 -0.566 55 54 60
0.42091 -0.47989 -0.563 54 53 59
0.508577 -0.475629 -0.558 15 13 24
0.483786 -0.44409 -0.521 105 83 72
0.473811 -0.424486 -0.498 154 108 85
0.471694 -0.41511 -0.487 146 99 73
0.477869 -0.410848 -0.482 169 122 96
0.481458 -0.409995 -0.481 171 121 96
0.482374 -0.409995 -0.481 171 121 96
0.4832 -0.409143 -0.48 175 125 98
0.502849 -0.401471 -0.471 170 121 91
0.50554 -0.401471 -0.471 163 116 86
0.5302 -0.410848 -0.482 154 110 81
0.54776 -0.419371 -0.492 136 99 73
0.550928 -0.421076 -0.494 138 101 75
-0.0110057 -0.365634 -0.428 181 138 103
-0.00273333 -0.350257 -0.41 186 143 109
0.00272 -0.348549 -0.408 190 147 112
0.00736476 -0.347694 -0.407 188 146 108
0.0254429 -0.351111 -0.411 175 128 98
0.0376381 -0.355383 -0.416 167 120 94
0.0477133 -0.359654 -0.421 154 107 87
0.0502381 -0.360509 -0.422 153 106 86
0.0862333 -0.3887 -0.455 92 71 68
0.10758 -0.417746 -0.489 72 62 63
0.151597 -0.467294 -0.547 94 132 194
0.153681 -0.467294 -0.547 104 144 203
0.195714 -0.468149 -0.548 193 200 218
0.21659 -0.468149 -0.548 100 133 186
0.236423 -0.468149 -0.548 106 113 121
0.245817 -0.468149 -0.548 148 151 156
0.269271 -0.469003 -0.549 166 165 170
0.290714 -0.469857 -0.55 167 167 169
0.293342 -0.470711 -0.551 168 168 170
0.31442 -0.47242 -0.553 158 158 158
0.31758 -0.47242 -0.553 153 153 153
0.327186 -0.474129 -0.555 152 151 156
0.351274 -0.476691 -0.558 118 117 122
0.3568 -0.4784 -0.56 113 112 117
0.379357 -0.482671 -0.565 71 69 74
0.40836 -0.49036 -0.574 63 62 68
0.414171 -0.492069 -0.576 64 63 69
0.4182 -0.49036 -0.574 61 60 66
0.425309 -0.483526 -0.566 58 57 63
0.483848 -0.444229 -0.52 109 87 76
0.480542 -0.410911 -0.481 170 123 95
0.484114 -0.410057 -0.48 168 118 93
0.493411 -0.404931 -0.474 170 120 93
0.495217 -0.404931 -0.474 172 123 91
0.49612 -0.404931 -0.474 170 121 89
0.496724 -0.403223 -0.472 168 119 87
0.50032 -0.403223 -0.472 170 121 89
0.517071 -0.405786 -0.475 158 113 82
-0.014721 -0.45635 -0.533 183 140 105
-0.0059 -0.353607 -0.413 183 143 107
-0.00352286 -0.351894 -0.411 186 143 108
0.00503905 -0.34847 -0.407 188 146 108
0.0254429 -0.351894 -0.411 175 128 100
0.0310733 -0.353607 -0.413 174 127 99
0.0350914 -0.354463 -0.414 172 125 97
0.0359667 -0.355319 -0.415 171 124 96
0.0410038 -0.357888 -0.418 162 114 91
0.0519686 -0.362169 -0.423 151 104 84
0.0654171 -0.369874 -0.432 127 91 77
0.0663933 -0.37073 -0.433 125 89 75
0.0753505 -0.378436 -0.442 109 80 74
0.0839429 -0.386998 -0.452 93 72 69
0.0938448 -0.399841 -0.467 85 67 65
0.111233 -0.425527 -0.497 71 73 94
0.189451 -0.469192 -0.548 187 201 214
0.207196 -0.469192 -0.548 103 138 170
0.225985 -0.469192 -0.548 140 141 146
0.237467 -0.469192 -0.548 160 161 166
0.25986 -0.470049 -0.549 166 166 168
0.262429 -0.470905 -0.55 165 165 167
0.263476 -0.470905 -0.55 165 165 167
0.288094 -0.471761 -0.551 161 161 163
0.308594 -0.472617 -0.552 152 152 154
0.317671 -0.475186 -0.555 144 144 146
0.345067 -0.479467 -0.56 109 107 112
0.357639 -0.482035 -0.563 81 79 84
0.36429 -0.483748 -0.565 72 71 76
0.366443 -0.483748 -0.565 69 66 73
0.386378 -0.487172 -0.569 64 63 69
0.396734 -0.490597 -0.573 61 60 66
0.419594 -0.498303 -0.582 59 60 65
0.425459 -0.489741 -0.572 58 57 63
0.42973 -0.487172 -0.569 53 52 60
0.484778 -0.446075 -0.521 109 86 78
0.477546 -0.434089 -0.507 135 99 83
0.472577 -0.416109 -0.486 158 116 91
0.47432 -0.414396 -0.484 163 119 90
0.488357 -0.408403 -0.477 172 125 95
0.500157 -0.403266 -0.471 170 121 89
-0.00995238 -0.358684 -0.418 184 141 106
0.0127914 -0.349245 -0.407 187 143 106
0.0167086 -0.350103 -0.408 185 141 106
0.0485152 -0.361258 -0.421 154 108 85
0.0644448 -0.369839 -0.431 128 91 75
0.0701752 -0.37413 -0.436 116 83 74
0.0818571 -0.386143 -0.45 97 73 69
0.15444 -0.46852 -0.546 106 135 177
0.16068 -0.46852 -0.546 202 209 227
0.17524 -0.46852 -0.546 59 97 162
0.18148 -0.46852 -0.546 56 90 154
0.188064 -0.469378 -0.547 190 202 218
0.190148 -0.469378 -0.547 196 202 224
0.195357 -0.469378 -0.547 197 197 223
0.201977 -0.470236 -0.548 157 169 191
0.212028 -0.469378 -0.547 101 118 162
0.246266 -0.471094 -0.549 164 163 168
0.258238 -0.471952 -0.55 165 165 167
0.299673 -0.474527 -0.553 148 146 149
0.317185 -0.477101 -0.556 125 126 130
0.364702 -0.488256 -0.569 66 64 69
0.380595 -0.493405 -0.575 63 60 67
0.382786 -0.493405 -0.575 62 59 66
0.432751 -0.491689 -0.573 23 22 30
0.486571 -0.449642 -0.524 107 84 78
0.483026 -0.443635 -0.517 118 91 80
0.478488 -0.435912 -0.508 133 97 81
0.47281 -0.423041 -0.493 155 113 91
0.47695 -0.413602 -0.482 166 121 92
0.496875 -0.405879 -0.473 172 123 93
0.519786 -0.407595 -0.475 153 112 80
0.52069 -0.407595 -0.475 151 110 78
0.529829 -0.411886 -0.48 147 106 74
0.533872 -0.413602 -0.482 145 106 77
-0.00909048 -0.3569 -0.415 183 144 105
0.00425333 -0.34916 -0.406 186 142 105
0.0182629 -0.35088 -0.408 182 137 104
0.0270086 -0.35346 -0.411 173 126 98
0.0286438 -0.35432 -0.412 174 127 99
0.0351762 -0.3569 -0.415 171 124 96
0.0477133 -0.36206 -0.421 153 107 84
0.0546429 -0.3655 -0.425 146 103 86
0.0853667 -0.3913 -0.455 90 71 67
0.0889333 -0.3956 -0.46 88 70 68
0.0927562 -0.40076 -0.466 87 69 67
0.138305 -0.47128 -0.548 135 161 188
0.14716 -0.46956 -0.546 78 123 180
0.1482 -0.46956 -0.546 93 127 190
0.15652 -0.46956 -0.546 195 205 215
0.15964 -0.46956 -0.546 206 207 227
0.193273 -0.47042 -0.547 169 167 178
0.197441 -0.47042 -0.547 154 151 160
0.199525 -0.47042 -0.547 148 149 154
0.206152 -0.47128 -0.548 140 149 158
0.246266 -0.47214 -0.549 164 164 166
0.253 -0.473 -0.55 162 164 163
0.258238 -0.473 -0.55 161 161 161
0.263955 -0.47386 -0.551 156 156 156
0.28914 -0.47558 -0.553 141 140 145
0.304436 -0.47644 -0.554 124 122 125
0.307602 -0.47644 -0.554 118 117 122
0.328101 -0.48332 -0.562 85 84 90
0.336789 -0.48504 -0.564 70 69 75
0.381695 -0.4988 -0.58 61 60 66
0.498926 -0.46784 -0.544 59 50 51
0.477568 -0.43516 -0.506 136 99 81
0.473807 -0.42742 -0.497 149 107 85
0.480457 -0.4128 -0.48 170 123 93
0.502676 -0.4042 -0.47 163 116 86
0.506257 -0.4042 -0.47 160 115 84
-0.0116 -0.362 -0.42 183 143 108
0.00812 -0.349933 -0.406 184 140 105
0.0151543 -0.351657 -0.408 182 137 104
0.0222029 -0.352519 -0.409 176 130 97
0.0418 -0.360276 -0.418 160 114 90
0.05992 -0.368895 -0.428 135 93 79
0.16068 -0.4706 -0.546 205 212 222
0.164538 -0.469738 -0.545 187 194 200
0.195357 -0.471462 -0.547 169 168 174
0.210328 -0.472324 -0.548 171 169 172
0.245667 -0.474048 -0.55 158 159 161
0.24881 -0.474048 -0.55 158 158 160
0.251361 -0.47491 -0.551 157 157 159
0.27966 -0.476633 -0.553 137 136 141
0.283331 -0.477495 -0.554 133 130 137
0.316267 -0.482667 -0.56 74 73 79
0.3277 -0.486976 -0.565 67 66 72
0.333768 -0.489562 -0.568 64 63 69
0.384528 -0.505076 -0.586 60 59 67
0.481243 -0.442157 -0.513 121 91 80
0.47943 -0.43871 -0.509 128 95 78
0.483008 -0.41199 -0.478 174 128 95
0.493271 -0.407681 -0.473 171 125 92
0.5025 -0.404233 -0.469 164 117 87
0.509838 -0.405095 -0.47 158 113 84
0.513614 -0.405957 -0.471 161 116 85
0.539775 -0.417162 -0.484 144 105 74
0.546831 -0.419748 -0.487 143 103 77
-0.0166571 -0.457819 -0.53 184 144 109
-0.00824 -0.35589 -0.412 184 141 106
0.00347143 -0.349843 -0.405 191 147 110
0.00812 -0.350707 -0.406 185 139 103
0.0143419 -0.35157 -0.407 184 139 106
0.0167086 -0.352434 -0.408 180 135 102
0.0182629 -0.352434 -0.408 179 132 102
0.0591048 -0.36971 -0.428 132 93 78
0.113986 -0.436224 -0.505 211 214 231
0.13701 -0.472504 -0.547 193 201 214
0.143 -0.47164 -0.546 114 147 192
0.155195 -0.470776 -0.545 143 159 182
0.166614 -0.470776 -0.545 154 158 169
0.170767 -0.470776 -0.545 175 178 183
0.181812 -0.472504 -0.547 185 182 189
0.213849 -0.474231 -0.549 171 168 179
0.216986 -0.474231 -0.549 168 167 172
0.22681 -0.475095 -0.55 163 165 164
0.232048 -0.475095 -0.55 164 165 167
0.233095 -0.475095 -0.55 164 165 167
0.234143 -0.475095 -0.55 163 163 163
0.247163 -0.475959 -0.551 153 153 153
0.31042 -0.484597 -0.561 66 64 69
0.34176 -0.497554 -0.576 62 61 67
0.47377 -0.426722 -0.494 154 112 87
0.473398 -0.418084 -0.484 160 119 89
0.475045 -0.415492 -0.481 170 127 93
0.475961 -0.415492 -0.481 164 121 87
0.511629 -0.40599 -0.47 159 114 83
-0.0066381 -0.354943 -0.41 185 143 105
-0.00349714 -0.353211 -0.408 189 145 110
-0.000386667 -0.35148 -0.406 190 148 110
0.03186 -0.35754 -0.413 170 125 96
0.0343029 -0.358406 -0.414 168 121 95
0.0351762 -0.359271 -0.415 167 120 94
0.0494343 -0.365331 -0.422 148 105 88
0.0675286 -0.376586 -0.435 116 86 75
0.08932 -0.39996 -0.462 88 70 68
0.112352 -0.434589 -0.502 197 200 215
0.115175 -0.438051 -0.506 207 210 225
0.15831 -0.471814 -0.545 173 174 178
0.17004 -0.47268 -0.546 188 188 196
0.17524 -0.47268 -0.546 183 183 185
0.178687 -0.473546 -0.547 185 183 184
0.18077 -0.473546 -0.547 171 181 183
0.213849 -0.475277 -0.549 170 171 176
0.216333 -0.476143 -0.55 169 169 171
0.23037 -0.477009 -0.551 156 157 159
0.233519 -0.477009 -0.551 154 154 156
0.237717 -0.477009 -0.551 153 153 155
0.239816 -0.477009 -0.551 152 152 154
0.258593 -0.47874 -0.553 132 131 136
0.2785 -0.482203 -0.557 98 95 102
0.314265 -0.489994 -0.566 61 60 68
0.33131 -0.497786 -0.575 59 58 66
0.339129 -0.501249 -0.579 60 59 67
0.4305 -0.532414 -0.615 10 10 20
0.458739 -0.543669 -0.628 9 9 19
0.459935 -0.543669 -0.628 9 9 19
0.480371 -0.441514 -0.51 126 92 80
0.473631 -0.423334 -0.489 153 113 87
0.482193 -0.414677 -0.479 171 127 92
0.483106 -0.414677 -0.479 170 125 92
0.483918 -0.413811 -0.478 168 122 89
0.511433 -0.40602 -0.469 159 115 80
-0.0115171 -0.361797 -0.417 186 143 108
-0.00822 -0.356591 -0.411 185 143 105
0.0198171 -0.353989 -0.408 181 134 104
0.025381 -0.355724 -0.41 175 129 96
0.0685143 -0.378282 -0.436 114 84 73
0.0868019 -0.39737 -0.458 89 70 66
0.0959514 -0.410384 -0.473 86 68 66
0.105933 -0.425133 -0.49 77 71 75
0.111681 -0.432942 -0.499 169 164 171
0.134927 -0.474588 -0.547 176 181 185
0.16588 -0.47372 -0.546 189 190 194
0.211757 -0.476323 -0.549 165 169 170
0.23184 -0.478926 -0.552 153 151 154
0.240251 -0.478926 -0.552 143 142 148
0.272134 -0.483264 -0.557 84 81 90
0.290079 -0.48847 -0.563 65 62 71
0.304009 -0.493675 -0.569 60 57 64
0.305092 -0.493675 -0.569 59 56 63
0.3078 -0.494543 -0.57 58 55 62
0.446066 -0.543997 -0.627 8 8 18
0.461433 -0.550938 -0.635 9 9 19
0.473503 -0.421663 -0.486 156 112 83
0.47432 -0.419928 -0.484 164 120 91
0.475114 -0.418192 -0.482 168 125 93
0.477714 -0.416457 -0.48 170 125 94
0.496569 -0.408649 -0.471 168 123 90
0.497305 -0.407781 -0.47 166 121 88
0.517203 -0.408649 -0.471 156 113 78
0.522102 -0.410384 -0.473 152 109 74
-0.0142333 -0.371287 -0.427 181 141 106
-0.00271333 -0.353896 -0.407 186 144 106
0.0310733 -0.359113 -0.413 169 122 96
0.0647438 -0.376504 -0.433 126 90 78
0.0946486 -0.409546 -0.471 86 68 66
0.139094 -0.47563 -0.547 190 191 196
0.145852 -0.47389 -0.545 191 192 194
0.16796 -0.47476 -0.546 188 188 190
0.188408 -0.476499 -0.548 177 176 181
0.197117 -0.477369 -0.549 174 173 178
0.205857 -0.478238 -0.55 168 166 169
0.216727 -0.479108 -0.551 160 158 159
0.243671 -0.482586 -0.555 121 120 128
0.253037 -0.484325 -0.557 104 101 110
0.260931 -0.485194 -0.558 87 86 94
0.265183 -0.485194 -0.558 82 81 89
0.295338 -0.494759 -0.569 66 64 75
0.312679 -0.501715 -0.577 63 62 70
0.393653 -0.535627 -0.616 11 11 21
0.429853 -0.544322 -0.626 10 10 20
0.457314 -0.553017 -0.636 12 12 20
0.466286 -0.556495 -0.64 10 10 20
0.500077 -0.472151 -0.543 52 48 45
0.49742 -0.468673 -0.539 77 73 70
0.485883 -0.451283 -0.519 114 87 76
0.48316 -0.446935 -0.514 117 87 76
0.4757 -0.432153 -0.497 143 108 88
0.47471 -0.429545 -0.494 147 112 90
0.475045 -0.418241 -0.481 167 124 92
0.486965 -0.411285 -0.473 172 126 93
0.486834 -0.410415 -0.472 172 126 93
0.498033 -0.407807 -0.469 169 124 91
0.505886 -0.406937 -0.468 163 117 84
0.523003 -0.411285 -0.473 149 108 78
0.531969 -0.414763 -0.477 146 107 76
0.538971 -0.417371 -0.48 144 103 75
0.54602 -0.41998 -0.483 132 101 83
-0.0082 -0.357286 -0.41 186 143 108
0.0269429 -0.357286 -0.41 177 130 102
0.0368457 -0.362514 -0.416 159 113 90
0.0376381 -0.362514 -0.416 159 112 92
0.0418 -0.364257 -0.418 158 111 91
0.05734 -0.3721 -0.427 131 94 78
0.0602 -0.374714 -0.43 127 91 77
0.0647438 -0.377329 -0.433 125 88 79
0.08136 -0.393886 -0.452 92 72 65
0.08844 -0.4026 -0.462 89 70 64
0.0895133 -0.403471 -0.463 89 70 66
0.110287 -0.4331 -0.497 160 158 161
0.138052 -0.476671 -0.547 191 191 193
0.14196 -0.4758 -0.546 189 189 191
0.144814 -0.474929 -0.545 190 189 195
0.150005 -0.474929 -0.545 187 188 190
0.171393 -0.476671 -0.547 187 187 189
0.176603 -0.476671 -0.547 180 179 184
0.196071 -0.478414 -0.549 167 166 171
0.201667 -0.479286 -0.55 166 164 169
0.256533 -0.488 -0.56 76 73 82
0.2608 -0.488 -0.56 67 66 74
0.287751 -0.495843 -0.569 65 64 72
0.290938 -0.497586 -0.571 66 65 73
0.293627 -0.498457 -0.572 66 65 73
0.318129 -0.509786 -0.585 62 61 69
0.420461 -0.547257 -0.628 10 10 20
0.433287 -0.549871 -0.631 10 10 20
0.434489 -0.549871 -0.631 11 11 21
0.436892 -0.549871 -0.631 8 11 20
0.458971 -0.557714 -0.64 12 12 20
0.462851 -0.559457 -0.642 12 12 22
0.481343 -0.444429 -0.51 126 92 80
0.476667 -0.435714 -0.5 134 101 82
0.473698 -0.427871 -0.491 148 113 91
0.473452 -0.422643 -0.485 156 117 88
0.477714 -0.418286 -0.48 167 124 92
0.491186 -0.410443 -0.471 167 121 88
0.537849 -0.417414 -0.479 146 105 77
0.54489 -0.420029 -0.482 134 99 77
-0.00581429 -0.355447 -0.407 185 143 105
0.0285743 -0.35894 -0.411 172 125 97
0.0402076 -0.365053 -0.418 156 111 90
0.0478267 -0.368547 -0.422 148 103 84
0.0582895 -0.373787 -0.428 128 90 77
0.137261 -0.478587 -0.548 190 191 196
0.139094 -0.477713 -0.547 190 190 192
0.14404 -0.47684 -0.546 189 190 194
0.15028 -0.47684 -0.546 188 189 191
0.15756 -0.47684 -0.546 185 185 187
0.16068 -0.47684 -0.546 186 184 187
0.176926 -0.478587 -0.548 165 164 169
0.181101 -0.478587 -0.548 164 163 168
0.216851 -0.483827 -0.554 125 124 130
0.2257 -0.4847 -0.555 106 105 111
0.228225 -0.485573 -0.556 101 100 108
0.246933 -0.489067 -0.56 68 65 72
0.251649 -0.48994 -0.561 69 66 75
0.25852 -0.490813 -0.562 64 61 70
0.262197 -0.491687 -0.563 66 63 72
0.268034 -0.49256 -0.564 62 61 69
0.279672 -0.496053 -0.568 64 63 69
0.317476 -0.515267 -0.59 54 54 62
0.412854 -0.551073 -0.631 9 9 17
0.425014 -0.55282 -0.633 9 9 19
0.440871 -0.554567 -0.635 9 12 21
0.456737 -0.56068 -0.642 8 8 18
0.473631 -0.42706 -0.489 151 114 88
0.477714 -0.4192 -0.48 164 123 93
0.48348 -0.41396 -0.474 169 124 91
0.495353 -0.409593 -0.469 170 123 93
0.517 -0.410467 -0.47 156 112 83
0.524805 -0.413087 -0.473 150 111 80
-0.00895905 -0.357972 -0.409 184 142 104
-0.000385714 -0.354471 -0.405 187 143 106
0.00732857 -0.354471 -0.405 185 141 102
0.0205943 -0.357097 -0.408 177 131 98
0.02454 -0.357972 -0.409 175 128 98
0.0385229 -0.364974 -0.417 158 111 91
0.0565267 -0.373727 -0.427 131 94 78
0.0686714 -0.382479 -0.437 109 79 71
0.0838171 -0.399109 -0.456 91 71 62
0.0899 -0.406986 -0.465 87 68 61
0.0992 -0.420114 -0.48 84 64 55
0.110952 -0.437619 -0.5 193 193 195
0.136217 -0.47963 -0.548 189 193 196
0.137261 -0.47963 -0.548 189 193 196
0.157849 -0.478755 -0.547 176 174 177
0.178294 -0.480506 -0.549 150 149 155
0.183857 -0.481381 -0.55 136 135 141
0.190489 -0.482256 -0.551 122 121 129
0.195736 -0.482256 -0.551 144 141 148
0.2024 -0.483131 -0.552 128 127 133
0.207354 -0.484882 -0.554 116 115 123
0.211575 -0.484882 -0.554 109 108 116
0.230109 -0.488383 -0.558 74 73 81
0.255595 -0.49451 -0.565 63 61 72
0.259282 -0.495385 -0.566 64 62 73
0.279463 -0.500636 -0.572 62 61 67
0.320705 -0.521642 -0.596 20 20 28
0.363713 -0.545273 -0.623 10 9 17
0.365486 -0.546149 -0.624 11 10 18
0.376797 -0.548774 -0.627 6 9 14
0.3894 -0.5514 -0.63 11 10 18
0.3906 -0.5514 -0.63 11 10 18
0.403311 -0.554026 -0.633 10 10 18
0.410633 -0.555776 -0.635 10 10 18
0.425941 -0.558402 -0.638 10 10 18
0.441214 -0.559277 -0.639 7 10 19
0.446781 -0.560152 -0.64 8 11 20
0.454999 -0.562778 -0.643 10 10 20
0.468411 -0.567154 -0.648 11 11 19
0.501111 -0.475254 -0.543 48 48 50
0.473631 -0.427991 -0.489 149 112 86
0.477714 -0.420114 -0.48 164 123 93
0.488494 -0.412237 -0.471 168 122 89
0.499646 -0.409611 -0.468 164 117 87
0.505694 -0.408736 -0.467 166 119 91
0.541498 -0.419239 -0.479 141 104 75
-0.00658952 -0.356997 -0.407 185 142 107
-0.000385714 -0.355243 -0.405 188 145 103
0.00192381 -0.354366 -0.404 187 143 104
0.0104143 -0.355243 -0.405 182 138 103
0.025319 -0.358751 -0.409 175 125 98
0.0495514 -0.371031 -0.423 141 98 79
0.0582895 -0.375417 -0.428 129 91 78
0.0792857 -0.394714 -0.45 93 73 62
0.084001 -0.400854 -0.457 93 71 60
0.137511 -0.481551 -0.549 191 192 196
0.145346 -0.479797 -0.547 180 181 183
0.156807 -0.479797 -0.547 164 162 167
0.163356 -0.480674 -0.548 160 159 165
0.168883 -0.481551 -0.549 147 146 152
0.177571 -0.482429 -0.55 123 122 130
0.178619 -0.482429 -0.55 118 117 125
0.184191 -0.483306 -0.551 108 107 115
0.18734 -0.483306 -0.551 99 98 106
0.201713 -0.48506 -0.553 101 100 108
0.212339 -0.487691 -0.556 80 78 89
0.223068 -0.490323 -0.559 66 64 75
0.226262 -0.490323 -0.559 67 65 76
0.25002 -0.49734 -0.567 64 62 73
0.258489 -0.499094 -0.569 62 60 73
0.282394 -0.506989 -0.578 55 54 62
0.305114 -0.517514 -0.59 15 15 23
0.37199 -0.553477 -0.631 9 9 17
0.38402 -0.555231 -0.633 7 10 15
0.43649 -0.562249 -0.641 9 9 17
0.444509 -0.563126 -0.642 10 10 20
0.4501 -0.564003 -0.643 10 10 20
0.461006 -0.568389 -0.648 10 10 18
0.483595 -0.416643 -0.475 170 125 92
0.484383 -0.415766 -0.474 168 123 90
0.491038 -0.412257 -0.47 169 122 92
0.500537 -0.410503 -0.468 167 120 90
0.541278 -0.419274 -0.478 135 98 69
-0.0215819 -0.463258 -0.527 179 140 107
-0.0097381 -0.35953 -0.409 184 141 106
-0.00115714 -0.356014 -0.405 190 146 107
0.00346286 -0.355135 -0.404 187 142 103
0.00423238 -0.355135 -0.404 187 142 103
0.0135333 -0.356893 -0.406 183 137 101
0.023761 -0.35953 -0.409 175 129 96
0.0461095 -0.370079 -0.421 144 103 85
0.0547714 -0.374474 -0.426 134 97 81
0.0574743 -0.376232 -0.428 131 92 77
0.0688286 -0.385023 -0.438 107 80 69
0.151874 -0.481718 -0.548 160 159 165
0.158137 -0.481718 -0.548 144 143 151
0.174746 -0.484355 -0.551 101 100 108
0.186967 -0.486113 -0.553 76 75 83
0.213485 -0.491388 -0.559 63 60 71
0.235148 -0.496662 -0.565 61 59 70
0.23922 -0.49842 -0.567 60 60 70
0.253314 -0.502815 -0.572 61 61 73
0.276743 -0.509848 -0.58 38 38 48
0.286438 -0.513364 -0.584 17 16 24
0.315382 -0.528308 -0.601 10 10 20
0.325468 -0.533582 -0.607 11 11 21
0.327162 -0.534461 -0.608 11 11 21
0.374313 -0.559953 -0.637 8 8 16
0.375527 -0.559953 -0.637 8 8 16
0.389484 -0.560832 -0.638 8 8 16
0.442751 -0.565228 -0.643 9 9 19
0.47951 -0.443919 -0.505 127 96 76
0.474633 -0.431612 -0.491 147 106 84
0.47432 -0.425459 -0.484 153 111 86
0.477631 -0.421064 -0.479 167 122 93
0.488494 -0.414031 -0.471 164 119 86
0.491038 -0.413152 -0.47 168 122 89
0.493406 -0.411394 -0.468 172 126 93
0.497863 -0.411394 -0.468 165 119 86
0.499646 -0.411394 -0.468 166 120 87
-0.0225857 -0.464262 -0.527 183 140 105
-0.00192857 -0.356786 -0.405 192 148 111
-0.000384762 -0.355905 -0.404 189 145 106
0.01276 -0.357667 -0.406 185 139 105
0.0444 -0.37 -0.42 145 104 86
0.0461095 -0.370881 -0.421 144 103 85
0.100531 -0.424619 -0.482 73 64 59
0.140649 -0.483643 -0.549 158 157 162
0.141694 -0.483643 -0.549 156 155 160
0.155006 -0.482762 -0.548 121 119 130
0.166651 -0.486286 -0.552 92 91 99
0.17222 -0.487167 -0.553 83 82 90
0.18904 -0.48981 -0.556 61 58 67
0.206031 -0.492452 -0.559 62 61 69
0.211043 -0.494214 -0.561 61 60 68
0.215701 -0.495095 -0.562 61 60 68
0.259925 -0.50831 -0.577 46 46 56
0.272154 -0.512714 -0.582 20 20 30
0.282954 -0.516238 -0.586 13 13 23
0.28728 -0.518 -0.588 11 10 18
0.349964 -0.551476 -0.626 10 10 18
0.361611 -0.560286 -0.636 6 6 14
0.38092 -0.565571 -0.642 7 10 15
0.387034 -0.565571 -0.642 6 9 14
0.42136 -0.567333 -0.644 7 10 17
0.439214 -0.568214 -0.645 9 9 17
0.4429 -0.568214 -0.645 6 9 18
0.501221 -0.477476 -0.542 50 44 48
0.47952 -0.444 -0.504 134 95 80
0.474477 -0.429024 -0.487 154 109 86
0.485935 -0.41581 -0.472 169 122 92
0.489248 -0.414048 -0.47 169 123 90
0.505499 -0.410524 -0.466 163 118 85
0.511712 -0.410524 -0.466 160 116 81
0.51459 -0.411405 -0.467 157 113 78
0.524162 -0.414048 -0.47 147 107 72
0.536071 -0.418452 -0.475 146 107 74
-0.0137 -0.362854 -0.411 185 142 107
-0.00969048 -0.359323 -0.407 185 142 107
0.00115429 -0.356674 -0.404 190 144 110
0.00345429 -0.355791 -0.403 185 139 105
0.00731048 -0.356674 -0.404 186 140 107
0.0444 -0.3708 -0.42 145 104 86
0.0503571 -0.373449 -0.423 135 97 78
0.0557133 -0.37698 -0.427 132 95 77
0.0584257 -0.378746 -0.429 129 93 77
0.0741667 -0.392871 -0.445 96 77 70
0.077399 -0.396403 -0.449 92 73 67
0.0808552 -0.400817 -0.454 93 71 60
0.0854286 -0.406114 -0.46 91 71 62
0.08668 -0.40788 -0.462 90 70 61
0.0913714 -0.413177 -0.468 90 70 63
0.11 -0.441429 -0.5 177 171 175
0.140905 -0.485571 -0.55 130 130 138
0.1662 -0.489103 -0.554 76 73 84
0.181953 -0.491751 -0.557 66 64 75
0.184406 -0.492634 -0.558 66 66 76
0.207137 -0.496166 -0.562 57 57 65
0.242173 -0.50676 -0.574 50 48 59
0.24369 -0.507643 -0.575 48 46 57
0.270865 -0.515589 -0.584 12 10 21
0.28601 -0.520886 -0.59 14 13 21
0.293111 -0.523534 -0.593 9 9 17
0.298 -0.526183 -0.596 6 6 16
0.354522 -0.557966 -0.632 6 9 16
0.379653 -0.56856 -0.644 3 7 10
0.381471 -0.569443 -0.645 4 8 11
0.38456 -0.56856 -0.644 4 7 12
0.394373 -0.56856 -0.644 8 9 14
0.3956 -0.56856 -0.644 9 10 15
0.412186 -0.569443 -0.645 9 12 17
0.415871 -0.569443 -0.645 8 11 16
0.4171 -0.569443 -0.645 8 11 16
0.434973 -0.570326 -0.646 9 9 17
0.46119 -0.573857 -0.65 9 9 17
0.480471 -0.445843 -0.505 126 97 79
0.47518 -0.42642 -0.483 156 112 87
0.475886 -0.423771 -0.48 162 120 95
0.48018 -0.421123 -0.477 164 120 91
0.483361 -0.417591 -0.473 168 123 92
0.4867 -0.415826 -0.471 170 124 91
0.506387 -0.411411 -0.466 161 116 83
0.525952 -0.414943 -0.47 143 104 71
0.0042219 -0.356559 -0.403 185 139 106
0.00884952 -0.357444 -0.404 185 136 103
0.0166267 -0.359213 -0.406 176 130 97
0.02454 -0.361868 -0.409 172 125 95
0.0294286 -0.364522 -0.412 166 120 96
0.0335143 -0.366291 -0.414 160 114 90
0.0368457 -0.368061 -0.416 160 114 90
0.0531486 -0.376909 -0.426 136 97 80
0.0743333 -0.394604 -0.446 97 77 70
