ply
format ascii 1.0
comment Created by Open3D
element vertex 1317
property double x
property double y
property double z
property uchar red
property uchar green
property uchar blue
end_header
0.396686 -0.120343 -0.52 133 101 104
0.417214 -0.122889 -0.531 179 131 131
0.423283 -0.122889 -0.531 195 146 142
0.164751 -0.1043 -0.447 189 139 130
0.167306 -0.1043 -0.447 191 141 132
0.16863 -0.104067 -0.446 194 144 135
0.17033 -0.104067 -0.446 192 142 133
0.171643 -0.103833 -0.445 193 143 132
0.179271 -0.103833 -0.445 181 129 118
0.264743 -0.1148 -0.492 194 136 134
0.271071 -0.1155 -0.495 189 130 132
0.294806 -0.1218 -0.522 19 13 17
0.307686 -0.1246 -0.534 20 14 18
0.314216 -0.124367 -0.533 65 49 52
0.326354 -0.1232 -0.528 105 76 80
0.32736 -0.1232 -0.528 107 78 82
0.351829 -0.122267 -0.524 138 104 105
0.356138 -0.122033 -0.523 139 103 103
0.360429 -0.1218 -0.522 181 156 162
0.375163 -0.1211 -0.519 132 100 105
0.391443 -0.120633 -0.517 137 101 105
0.432586 -0.124833 -0.535 173 114 110
0.146203 -0.108445 -0.461 194 144 135
0.146762 -0.10821 -0.46 194 144 135
0.155917 -0.106092 -0.451 195 145 136
0.157286 -0.105857 -0.45 194 144 135
0.176729 -0.104681 -0.445 186 134 123
0.189863 -0.104446 -0.444 163 113 104
0.252534 -0.119266 -0.507 100 51 57
0.278174 -0.117854 -0.501 149 102 96
0.2808 -0.11856 -0.504 117 86 81
0.300641 -0.12397 -0.527 15 10 14
0.311754 -0.125617 -0.534 56 44 46
0.317495 -0.124676 -0.53 81 58 64
0.329371 -0.124206 -0.528 112 83 87
0.332763 -0.12397 -0.527 119 88 93
0.3415 -0.1235 -0.525 130 100 102
0.349832 -0.123265 -0.524 135 103 104
0.351829 -0.123265 -0.524 138 104 105
0.352827 -0.123265 -0.524 137 104 111
0.364 -0.122324 -0.52 133 110 118
0.38036 -0.121853 -0.518 120 91 93
0.42712 -0.125147 -0.532 189 138 134
0.154541 -0.107189 -0.452 193 143 134
0.160853 -0.10624 -0.448 193 145 135
0.184789 -0.105291 -0.444 174 120 110
0.193246 -0.105291 -0.444 158 108 97
0.260123 -0.119283 -0.503 161 109 111
0.259232 -0.117149 -0.494 194 135 137
0.259647 -0.116911 -0.493 198 139 141
0.32395 -0.125449 -0.529 100 71 75
0.362715 -0.123551 -0.521 247 230 238
0.3774 -0.12284 -0.518 131 99 104
0.378387 -0.12284 -0.518 130 98 103
0.38036 -0.12284 -0.518 138 103 107
0.38872 -0.122366 -0.516 132 97 103
0.391443 -0.122603 -0.517 135 96 101
0.42126 -0.125923 -0.531 196 141 138
0.42712 -0.12616 -0.532 187 136 132
0.145886 -0.109962 -0.46 195 147 137
0.15402 -0.108289 -0.453 192 142 131
0.178023 -0.106137 -0.444 183 131 120
0.195376 -0.106376 -0.445 157 107 96
0.207857 -0.107571 -0.45 142 95 89
0.258708 -0.11785 -0.493 194 136 135
0.25912 -0.117611 -0.492 197 139 138
0.267946 -0.117372 -0.491 185 127 125
0.295233 -0.124544 -0.521 19 8 12
0.304371 -0.126695 -0.53 33 27 27
0.331759 -0.125978 -0.527 115 84 89
0.335137 -0.125739 -0.526 124 93 98
0.372914 -0.124305 -0.52 119 89 91
0.378641 -0.123588 -0.517 133 98 102
0.41192 -0.127173 -0.532 32 17 20
0.42126 -0.126934 -0.531 188 133 130
0.422271 -0.126934 -0.531 192 137 134
0.424294 -0.126934 -0.531 193 139 137
0.143702 -0.11397 -0.473 197 147 140
0.150367 -0.109633 -0.455 198 150 140
0.153157 -0.109151 -0.453 194 144 135
0.155571 -0.108429 -0.45 193 145 133
0.157791 -0.108188 -0.449 193 145 133
0.193246 -0.106983 -0.444 157 107 96
0.202667 -0.107947 -0.448 147 100 90
0.211831 -0.109151 -0.453 137 92 86
0.258486 -0.119994 -0.498 177 122 125
0.270366 -0.118549 -0.492 176 121 116
0.310155 -0.128428 -0.533 57 42 45
0.312613 -0.128187 -0.532 66 50 53
0.332131 -0.126741 -0.526 118 88 90
0.334135 -0.126741 -0.526 121 91 93
0.352153 -0.126018 -0.523 135 104 110
0.360429 -0.125777 -0.522 252 231 236
0.373186 -0.125054 -0.519 129 97 102
0.381595 -0.124572 -0.517 134 93 101
0.393187 -0.124813 -0.518 128 93 99
0.415503 -0.128669 -0.534 42 21 26
0.418786 -0.128428 -0.533 144 98 98
0.433605 -0.12891 -0.535 165 114 110
0.151233 -0.1105 -0.455 198 150 140
0.163533 -0.108314 -0.446 189 141 131
0.17249 -0.108071 -0.445 193 143 132
0.189863 -0.107829 -0.444 164 112 101
0.199213 -0.108314 -0.446 150 100 89
0.207857 -0.109286 -0.45 141 94 86
0.248591 -0.121671 -0.501 97 48 51
0.253 -0.122886 -0.506 100 50 53
0.259529 -0.119243 -0.491 196 138 137
0.321326 -0.128229 -0.528 97 68 72
0.325349 -0.128229 -0.528 104 75 79
0.327744 -0.127986 -0.527 109 80 82
0.3425 -0.1275 -0.525 131 101 103
0.355457 -0.126771 -0.522 134 105 107
0.361723 -0.126529 -0.521 250 231 237
0.364 -0.126286 -0.52 168 145 153
0.370933 -0.126286 -0.52 130 95 101
0.378387 -0.1258 -0.518 132 100 105
0.393187 -0.1258 -0.518 128 93 99
0.4025 -0.1275 -0.525 38 22 23
0.417537 -0.129686 -0.534 95 63 64
0.422271 -0.128957 -0.531 196 138 137
0.143707 -0.116507 -0.476 196 147 140
0.150901 -0.111122 -0.454 199 151 141
0.177177 -0.108674 -0.444 183 131 120
0.200511 -0.109409 -0.447 148 98 87
0.310587 -0.130213 -0.532 58 43 48
0.3435 -0.1285 -0.525 130 100 100
0.351157 -0.12801 -0.523 134 102 105
0.366971 -0.127276 -0.52 119 88 93
0.367962 -0.127276 -0.52 110 79 84
0.368952 -0.127276 -0.52 114 82 87
0.3774 -0.126787 -0.518 133 102 107
0.386754 -0.126297 -0.516 123 92 97
0.391443 -0.126542 -0.517 129 98 103
0.424294 -0.129969 -0.531 193 137 136
0.156081 -0.110753 -0.449 194 146 134
0.171643 -0.109767 -0.445 195 145 134
0.189435 -0.109273 -0.443 164 112 101
0.197071 -0.109767 -0.445 152 104 94
0.205685 -0.110753 -0.449 140 96 87
0.207857 -0.111 -0.45 137 94 85
0.25683 -0.121607 -0.493 189 133 134
0.259802 -0.120373 -0.488 199 141 139
0.268333 -0.120867 -0.49 168 109 105
0.271303 -0.12136 -0.492 163 108 105
0.293533 -0.127773 -0.518 26 8 8
0.316486 -0.130733 -0.53 84 59 65
0.319919 -0.130487 -0.529 97 66 74
0.328124 -0.129747 -0.526 117 76 84
0.3375 -0.1295 -0.525 130 96 95
0.355457 -0.12876 -0.522 134 104 106
0.42126 -0.13098 -0.531 189 134 129
0.427329 -0.13098 -0.531 193 135 133
0.143074 -0.116331 -0.468 196 146 139
0.148091 -0.113349 -0.456 196 148 138
0.154714 -0.111857 -0.45 195 147 135
0.185216 -0.110117 -0.443 167 115 104
0.188591 -0.110117 -0.443 164 112 101
0.189435 -0.110117 -0.443 163 111 100
0.194091 -0.110366 -0.444 152 104 94
0.195783 -0.110366 -0.444 152 104 94
0.202214 -0.111111 -0.447 142 98 87
0.219963 -0.114591 -0.461 129 89 81
0.222278 -0.115337 -0.464 128 88 80
0.263908 -0.121054 -0.487 176 126 119
0.265379 -0.121303 -0.488 171 121 114
0.3005 -0.1305 -0.525 39 27 27
0.309573 -0.13224 -0.532 60 44 45
0.319314 -0.131246 -0.528 95 66 71
0.321721 -0.130997 -0.527 100 73 80
0.338853 -0.130251 -0.524 130 98 99
0.343844 -0.130251 -0.524 132 104 101
0.356761 -0.129506 -0.521 135 103 106
0.373453 -0.12876 -0.518 131 98 105
0.380857 -0.128263 -0.516 136 96 104
0.383806 -0.128263 -0.516 131 96 100
0.420249 -0.131991 -0.531 178 123 118
0.439927 -0.13398 -0.539 153 104 99
0.146354 -0.114217 -0.456 193 144 137
0.15334 -0.112965 -0.451 193 145 133
0.155226 -0.112464 -0.449 194 146 134
0.162684 -0.111712 -0.446 193 145 131
0.179714 -0.111211 -0.444 177 123 113
0.221799 -0.11597 -0.463 129 86 80
0.257811 -0.121731 -0.486 197 137 136
0.270751 -0.122984 -0.491 148 97 93
0.283281 -0.12649 -0.505 97 69 66
0.3116 -0.133253 -0.532 68 48 49
0.323729 -0.132001 -0.527 97 75 78
0.356761 -0.130498 -0.521 135 103 106
0.357753 -0.130498 -0.521 134 102 105
0.358746 -0.130498 -0.521 136 104 107
0.361029 -0.130248 -0.52 139 107 110
0.367254 -0.129997 -0.519 108 87 86
0.380857 -0.129246 -0.516 132 95 102
0.405324 -0.132752 -0.53 32 20 24
0.425514 -0.132752 -0.53 198 143 138
0.43911 -0.134756 -0.538 153 106 100
0.143094 -0.118871 -0.471 195 146 139
0.15334 -0.113824 -0.451 192 144 132
0.15744 -0.113067 -0.448 195 147 135
0.160494 -0.112814 -0.447 192 146 131
0.162684 -0.112562 -0.446 191 143 129
0.178023 -0.112057 -0.444 181 129 118
0.182685 -0.111805 -0.443 172 117 110
0.1924 -0.112057 -0.444 153 105 95
0.195783 -0.112057 -0.444 150 102 92
0.210037 -0.113824 -0.451 133 88 82
0.212694 -0.114329 -0.453 130 85 80
0.21584 -0.115086 -0.456 130 85 80
0.247055 -0.125181 -0.496 94 44 47
0.252912 -0.126695 -0.502 118 66 70
0.255433 -0.122405 -0.485 194 136 135
0.275398 -0.125181 -0.496 131 86 81
0.296648 -0.131238 -0.52 51 35 36
0.324732 -0.133005 -0.527 94 80 80
0.32612 -0.132752 -0.526 99 83 84
0.329126 -0.132752 -0.526 111 86 89
0.339851 -0.132248 -0.524 126 96 98
0.342191 -0.131995 -0.523 132 103 105
0.346176 -0.131995 -0.523 132 103 105
0.349491 -0.131743 -0.522 135 103 106
0.355769 -0.13149 -0.521 134 104 106
0.370493 -0.130733 -0.518 89 64 67
0.372467 -0.130733 -0.518 95 66 70
0.388489 -0.130481 -0.517 128 95 102
0.412723 -0.135529 -0.537 31 16 19
0.41734 -0.136033 -0.539 32 15 21
0.425514 -0.133762 -0.53 197 142 139
0.436457 -0.135276 -0.536 159 112 106
0.1434 -0.121549 -0.478 195 146 139
0.148843 -0.115191 -0.453 194 146 136
0.172103 -0.112903 -0.444 191 142 128
0.172949 -0.112903 -0.444 191 142 128
0.175486 -0.112903 -0.444 185 136 122
0.22922 -0.119769 -0.471 130 85 80
0.254907 -0.123074 -0.484 194 135 137
0.296648 -0.132229 -0.52 58 39 43
0.313037 -0.135026 -0.531 71 55 56
0.314467 -0.134771 -0.53 73 59 59
0.3315 -0.1335 -0.525 119 90 94
0.333863 -0.133246 -0.524 126 94 97
0.338207 -0.132991 -0.523 128 96 99
0.341195 -0.132991 -0.523 132 106 107
0.36852 -0.13172 -0.518 87 63 63
0.370493 -0.13172 -0.518 86 61 64
0.149375 -0.115798 -0.452 194 146 136
0.155733 -0.114773 -0.448 192 144 132
0.156237 -0.114517 -0.447 193 145 133
0.157089 -0.114517 -0.447 195 147 135
0.171257 -0.113749 -0.444 188 140 126
0.194091 -0.113749 -0.444 149 100 93
0.207 -0.115286 -0.45 133 88 82
0.220841 -0.118104 -0.461 123 78 75
0.265763 -0.124765 -0.487 160 111 106
0.315476 -0.135781 -0.53 70 64 64
0.334861 -0.134244 -0.524 128 96 101
0.36852 -0.132707 -0.518 116 86 88
0.37148 -0.132707 -0.518 89 65 65
0.385771 -0.132194 -0.516 130 93 100
0.395986 -0.133988 -0.523 48 29 33
0.417334 -0.139111 -0.543 30 18 20
0.418 -0.136293 -0.532 148 102 102
0.44362 -0.138599 -0.541 166 118 114
0.142468 -0.124144 -0.481 199 150 143
0.143043 -0.120014 -0.465 193 146 138
0.148514 -0.116659 -0.452 194 146 136
0.182272 -0.114078 -0.442 170 115 108
0.186482 -0.114078 -0.442 163 110 102
0.191123 -0.114336 -0.443 151 101 92
0.193246 -0.114594 -0.444 149 99 92
0.2222 -0.11924 -0.462 124 81 74
0.227273 -0.12053 -0.467 127 82 76
0.232486 -0.122337 -0.474 138 93 90
0.252017 -0.124402 -0.482 190 134 135
0.316297 -0.136274 -0.528 53 55 52
0.3295 -0.1355 -0.525 116 105 109
0.333863 -0.135242 -0.524 123 90 97
0.350807 -0.134468 -0.521 138 104 105
0.352791 -0.134468 -0.521 136 102 103
0.36852 -0.133693 -0.518 136 101 105
0.370763 -0.133435 -0.517 120 90 90
0.375687 -0.133435 -0.517 128 97 102
0.38184 -0.133177 -0.516 109 83 84
0.383806 -0.133177 -0.516 126 94 99
0.384789 -0.133177 -0.516 129 94 101
0.404827 -0.137307 -0.532 32 17 22
0.42172 -0.14092 -0.546 34 19 24
0.471074 -0.145566 -0.564 164 122 123
0.15488 -0.11648 -0.448 193 147 134
0.158436 -0.11596 -0.446 191 145 132
0.159286 -0.11596 -0.446 194 148 135
0.166183 -0.11544 -0.444 193 145 135
0.174247 -0.11518 -0.443 184 136 124
0.184798 -0.11492 -0.442 164 111 103
0.197071 -0.1157 -0.445 145 98 92
0.226787 -0.12116 -0.466 125 80 74
0.245859 -0.12688 -0.488 167 117 118
0.30639 -0.1378 -0.53 58 46 48
0.315889 -0.13754 -0.529 47 51 50
0.322725 -0.13702 -0.527 157 168 172
0.3335 -0.1365 -0.525 120 93 100
0.340543 -0.13572 -0.522 160 135 139
0.348822 -0.13546 -0.521 133 100 107
0.352791 -0.13546 -0.521 135 101 100
0.357067 -0.1352 -0.52 137 103 104
0.363587 -0.13468 -0.518 118 86 89
0.382823 -0.13416 -0.516 126 95 101
0.419101 -0.13936 -0.536 115 83 88
0.456238 -0.143 -0.55 183 132 129
0.147653 -0.118381 -0.452 193 146 138
0.163167 -0.116548 -0.445 188 140 128
0.174247 -0.116024 -0.443 184 135 121
0.176778 -0.116024 -0.443 183 133 124
0.193246 -0.116286 -0.444 149 98 95
0.200063 -0.11681 -0.446 145 94 91
0.205685 -0.117595 -0.449 137 88 84
0.20654 -0.117595 -0.449 135 86 82
0.2461 -0.1265 -0.483 178 124 124
0.253186 -0.125452 -0.479 184 130 128
0.256457 -0.125714 -0.48 176 125 122
0.269267 -0.128333 -0.49 140 95 89
0.278571 -0.130952 -0.5 111 77 75
0.283842 -0.132524 -0.506 89 63 62
0.287057 -0.133571 -0.51 81 55 54
0.324732 -0.138024 -0.527 111 125 128
0.3265 -0.1375 -0.525 140 151 157
0.350807 -0.136452 -0.521 126 95 100
0.419457 -0.13881 -0.53 186 132 130
0.423909 -0.138286 -0.528 194 143 139
0.439317 -0.140643 -0.537 152 103 99
0.143 -0.12188 -0.462 192 148 139
0.147653 -0.119242 -0.452 192 145 137
0.150429 -0.118714 -0.45 193 146 138
0.158436 -0.117659 -0.446 193 145 135
0.160624 -0.117395 -0.445 191 143 133
0.170871 -0.116868 -0.443 187 137 126
0.177221 -0.116604 -0.442 179 129 120
0.202214 -0.117923 -0.447 141 92 87
0.213557 -0.119506 -0.453 123 75 71
0.267238 -0.128739 -0.488 140 95 89
0.311438 -0.139819 -0.53 69 58 62
0.321721 -0.139028 -0.527 75 89 92
0.3275 -0.1385 -0.525 83 94 100
0.342868 -0.137445 -0.521 212 193 199
0.353105 -0.137181 -0.52 132 100 105
0.361613 -0.136653 -0.518 131 100 105
0.454791 -0.144304 -0.547 180 132 130
0.142946 -0.121963 -0.459 194 147 137
0.143749 -0.121166 -0.456 194 147 137
0.151805 -0.119306 -0.449 194 147 137
0.15266 -0.119306 -0.449 192 145 135
0.161471 -0.118243 -0.445 191 144 134
0.165337 -0.117977 -0.444 191 144 134
0.18985 -0.117446 -0.442 149 100 93
0.202214 -0.118774 -0.447 141 92 87
0.205685 -0.119306 -0.449 136 87 83
0.226697 -0.123291 -0.464 130 85 80
0.236097 -0.125949 -0.474 153 104 100
0.247452 -0.126214 -0.475 177 126 123
0.252129 -0.126746 -0.477 176 125 121
0.316297 -0.140297 -0.528 108 119 123
0.320717 -0.140031 -0.527 120 134 137
0.322725 -0.140031 -0.527 130 144 147
0.3285 -0.1395 -0.525 68 73 79
0.3315 -0.1395 -0.525 135 129 133
0.338554 -0.138703 -0.522 144 121 129
0.357369 -0.137906 -0.519 209 190 196
0.3626 -0.13764 -0.518 123 96 103
0.437168 -0.150394 -0.566 45 30 37
0.425352 -0.145611 -0.548 64 43 48
0.419883 -0.142689 -0.537 110 78 81
0.435846 -0.141891 -0.534 156 107 102
0.147327 -0.120696 -0.451 190 143 133
0.154534 -0.119626 -0.447 191 143 131
0.155038 -0.119358 -0.446 191 143 131
0.161954 -0.118823 -0.444 193 145 135
0.164491 -0.118823 -0.444 194 146 134
0.169184 -0.118555 -0.443 188 140 128
0.170028 -0.118555 -0.443 187 139 127
0.170871 -0.118555 -0.443 186 136 125
0.184798 -0.118288 -0.442 164 111 105
0.20352 -0.119893 -0.448 138 91 85
0.220276 -0.12257 -0.458 123 75 73
0.223867 -0.123105 -0.46 125 80 75
0.239709 -0.126851 -0.474 164 115 111
0.307828 -0.14157 -0.529 64 52 54
0.350133 -0.139162 -0.52 133 98 105
0.351124 -0.139162 -0.52 133 98 105
0.376195 -0.137824 -0.515 109 79 79
0.390257 -0.139697 -0.522 85 58 63
0.422506 -0.145317 -0.543 70 51 55
0.141257 -0.129371 -0.48 200 153 145
0.1419 -0.127485 -0.473 196 149 141
0.141895 -0.126676 -0.47 195 148 140
0.142634 -0.123442 -0.458 192 145 137
0.17217 -0.11913 -0.442 183 133 122
0.175537 -0.11913 -0.442 175 125 114
0.178905 -0.11913 -0.442 174 121 113
0.186482 -0.11913 -0.442 159 106 100
0.197071 -0.119938 -0.445 138 93 88
0.213557 -0.122094 -0.453 126 78 74
0.236397 -0.126946 -0.471 158 109 105
0.237294 -0.126946 -0.471 160 111 107
0.241394 -0.127215 -0.472 168 119 115
0.24551 -0.127485 -0.473 174 123 120
0.26174 -0.13018 -0.483 146 97 92
0.289309 -0.138535 -0.514 80 56 56
0.3432 -0.140152 -0.52 148 122 131
0.358653 -0.139613 -0.518 138 127 133
0.390257 -0.140691 -0.522 63 41 44
0.420681 -0.142578 -0.529 197 142 139
0.45708 -0.14716 -0.546 178 122 121
0.14212 -0.1254 -0.462 195 146 139
0.142381 -0.124857 -0.46 194 145 138
0.147857 -0.122143 -0.45 188 141 131
0.155038 -0.121057 -0.446 191 143 131
0.178063 -0.119971 -0.442 175 122 114
0.18522 -0.1197 -0.441 159 106 102
0.189435 -0.120243 -0.443 146 97 92
0.211364 -0.122686 -0.452 128 80 76
0.2266 -0.1254 -0.462 129 81 79
0.23261 -0.126757 -0.467 149 101 97
0.25974 -0.130557 -0.481 150 99 95
0.316702 -0.143043 -0.527 157 164 172
0.325118 -0.142771 -0.526 143 153 163
0.330869 -0.142229 -0.524 104 101 108
0.341219 -0.141143 -0.52 217 191 200
0.343529 -0.140871 -0.519 132 105 112
0.35372 -0.1406 -0.518 237 225 235
0.419457 -0.143857 -0.53 192 136 137
0.44857 -0.147114 -0.542 163 116 110
0.451466 -0.147386 -0.543 173 117 116
0.461043 -0.148471 -0.547 181 127 127
0.141291 -0.12792 -0.468 195 148 140
0.147857 -0.123 -0.45 190 142 132
0.150094 -0.122727 -0.449 187 139 129
0.152831 -0.12218 -0.447 189 141 129
0.160263 -0.12136 -0.444 192 144 132
0.165434 -0.120813 -0.442 193 145 131
0.166276 -0.120813 -0.442 193 145 131
0.175537 -0.120813 -0.442 178 128 119
0.17934 -0.12054 -0.441 170 117 111
0.18018 -0.12054 -0.441 166 113 107
0.187324 -0.120813 -0.442 150 101 94
0.196224 -0.121633 -0.445 137 92 86
0.22338 -0.12546 -0.459 124 79 74
0.2592 -0.1312 -0.48 147 97 90
0.281357 -0.138033 -0.505 98 68 68
0.29893 -0.143227 -0.524 59 48 52
0.310263 -0.14432 -0.528 63 50 57
0.311269 -0.14432 -0.528 51 50 55
0.314286 -0.14432 -0.528 161 169 172
0.316702 -0.144047 -0.527 162 166 175
0.325118 -0.143773 -0.526 167 175 186
0.368348 -0.140767 -0.515 128 96 101
0.376195 -0.140767 -0.515 126 96 98
0.38061 -0.141313 -0.517 129 97 102
0.423106 -0.144047 -0.527 198 143 138
0.426117 -0.144047 -0.527 180 127 119
0.430562 -0.144867 -0.53 169 119 112
0.44506 -0.147327 -0.539 150 101 94
0.451466 -0.14842 -0.543 165 111 109
0.140669 -0.131564 -0.478 202 155 147
0.14069 -0.130738 -0.475 198 154 145
0.163277 -0.12193 -0.443 192 144 134
0.169644 -0.121655 -0.442 188 140 128
0.175537 -0.121655 -0.442 175 125 116
0.18102 -0.12138 -0.441 165 112 108
0.18186 -0.12138 -0.441 162 109 105
0.18522 -0.12138 -0.441 151 104 96
0.18606 -0.12138 -0.441 150 103 95
0.189008 -0.121655 -0.442 145 98 90
0.205685 -0.123582 -0.449 131 83 79
0.213086 -0.124408 -0.452 122 77 72
0.235279 -0.128536 -0.467 155 106 101
0.236169 -0.128536 -0.467 160 109 105
0.23986 -0.129087 -0.469 166 117 112
0.240753 -0.129087 -0.469 168 119 114
0.2995 -0.1445 -0.525 59 48 54
0.308835 -0.145601 -0.529 73 56 64
0.321721 -0.14505 -0.527 164 167 176
0.323114 -0.144775 -0.526 139 146 156
0.324116 -0.144775 -0.526 148 155 165
0.345506 -0.142849 -0.519 122 99 105
0.35668 -0.142573 -0.518 236 227 244
0.356976 -0.142298 -0.517 244 235 252
0.374486 -0.141472 -0.514 127 97 99
0.420122 -0.147528 -0.536 139 94 99
0.14069 -0.131643 -0.475 200 150 143
0.142071 -0.127209 -0.459 190 142 132
0.151467 -0.12416 -0.448 187 140 130
0.156737 -0.123606 -0.446 190 144 131
0.157587 -0.123606 -0.446 190 144 131
0.174695 -0.122497 -0.442 180 127 119
0.18186 -0.12222 -0.441 158 107 103
0.187324 -0.122497 -0.442 148 104 93
0.190279 -0.122774 -0.443 140 96 87
0.194529 -0.123329 -0.445 136 93 84
0.220183 -0.126377 -0.456 120 77 71
0.237058 -0.129426 -0.467 161 111 104
0.249486 -0.130811 -0.472 164 111 105
0.250385 -0.130811 -0.472 168 110 106
0.282471 -0.140511 -0.507 82 62 63
0.294241 -0.144391 -0.521 59 45 45
0.310263 -0.146331 -0.528 59 50 55
0.319713 -0.146054 -0.527 185 192 202
0.333226 -0.144946 -0.523 122 96 109
0.360217 -0.143006 -0.516 209 195 208
0.3612 -0.143006 -0.516 142 128 141
0.363443 -0.142729 -0.515 133 101 104
0.365405 -0.142729 -0.515 133 101 106
0.420027 -0.14744 -0.532 182 131 128
0.431571 -0.146886 -0.53 169 116 110
0.436045 -0.147717 -0.533 162 112 105
0.460395 -0.151043 -0.545 168 115 111
0.14005 -0.133664 -0.479 201 154 146
0.143118 -0.126688 -0.454 187 140 130
0.158929 -0.124176 -0.445 190 144 131
0.18018 -0.12306 -0.441 163 112 108
0.202667 -0.125013 -0.448 133 88 82
0.210896 -0.12585 -0.451 125 80 75
0.217967 -0.126967 -0.455 121 76 71
0.218833 -0.126967 -0.455 118 75 69
0.220183 -0.127246 -0.456 119 76 70
0.250385 -0.13171 -0.472 167 109 105
0.263748 -0.135338 -0.485 132 85 75
0.314694 -0.147058 -0.527 67 80 86
0.317706 -0.147058 -0.527 138 147 156
0.3255 -0.1465 -0.525 215 213 224
0.332589 -0.145663 -0.522 120 94 107
0.359234 -0.143989 -0.516 225 222 231
0.365674 -0.14343 -0.514 129 97 102
0.371549 -0.14343 -0.514 128 98 100
0.422303 -0.146779 -0.526 195 142 134
0.427121 -0.147058 -0.527 180 125 120
0.46228 -0.15236 -0.546 155 100 97
0.145609 -0.12671 -0.451 190 143 133
0.146143 -0.126429 -0.45 190 143 133
0.158929 -0.125024 -0.445 190 144 131
0.160263 -0.124743 -0.444 189 143 130
0.16758 -0.1239 -0.441 189 141 131
0.16926 -0.1239 -0.441 186 138 126
0.17346 -0.1239 -0.441 182 130 119
0.176419 -0.123619 -0.44 169 119 110
0.18354 -0.1239 -0.441 153 104 99
0.18438 -0.1239 -0.441 149 102 96
0.188166 -0.124181 -0.442 148 101 95
0.207 -0.126429 -0.45 127 84 77
0.215283 -0.127271 -0.453 122 79 73
0.233768 -0.130362 -0.464 155 104 100
0.253251 -0.133171 -0.474 156 98 94
0.268333 -0.137667 -0.49 118 79 74
0.29537 -0.146938 -0.523 55 45 46
0.30279 -0.148624 -0.529 60 48 50
0.310679 -0.148062 -0.527 48 52 55
0.327874 -0.147219 -0.524 153 156 161
0.329241 -0.146938 -0.523 162 163 168
0.334577 -0.146657 -0.522 195 175 184
0.349773 -0.145533 -0.518 237 223 236
0.351747 -0.145533 -0.518 231 223 234
0.371549 -0.14441 -0.514 129 97 100
0.385286 -0.146657 -0.522 69 50 56
0.435227 -0.149467 -0.532 169 116 110
0.43706 -0.149748 -0.533 167 112 109
0.443409 -0.150871 -0.537 154 99 96
0.452699 -0.152276 -0.542 165 105 104
0.152831 -0.126437 -0.447 191 143 131
0.162909 -0.125023 -0.442 191 143 131
0.16506 -0.12474 -0.441 191 143 131
0.17178 -0.12474 -0.441 184 132 119
0.17514 -0.12474 -0.441 178 126 115
0.231 -0.13068 -0.462 146 97 92
0.236929 -0.131529 -0.465 165 112 106
0.311269 -0.149349 -0.528 46 46 48
0.323114 -0.148783 -0.526 167 169 181
0.327874 -0.148217 -0.524 212 213 218
0.329606 -0.147651 -0.522 166 165 170
0.335571 -0.147651 -0.522 189 172 180
0.341219 -0.147086 -0.52 122 95 104
0.348471 -0.146803 -0.519 181 156 162
0.360217 -0.145954 -0.516 233 227 237
0.363443 -0.145671 -0.515 138 113 117
0.372528 -0.145389 -0.514 131 96 100
0.39072 -0.149349 -0.528 47 35 39
0.432581 -0.149914 -0.53 171 116 111
0.1404 -0.133269 -0.468 199 150 143
0.16674 -0.12558 -0.441 188 140 128
0.168876 -0.125295 -0.44 185 137 125
0.173905 -0.125295 -0.44 178 126 113
0.176419 -0.125295 -0.44 168 118 107
0.211755 -0.128428 -0.451 124 83 77
0.248429 -0.133838 -0.47 164 111 105
0.253251 -0.134977 -0.474 153 98 93
0.25721 -0.136116 -0.478 140 91 84
0.317706 -0.15007 -0.527 142 153 159
0.345506 -0.147791 -0.519 126 101 107
0.351747 -0.147507 -0.518 230 224 234
0.352733 -0.147507 -0.518 226 225 233
0.356976 -0.147222 -0.517 228 227 235
0.357961 -0.147222 -0.517 226 225 233
0.48958 -0.181393 -0.637 108 101 109
0.419457 -0.150924 -0.53 194 141 137
0.419886 -0.150354 -0.528 200 142 138
0.422303 -0.149785 -0.526 191 138 132
0.46521 -0.155765 -0.547 151 97 95
0.143349 -0.129573 -0.452 187 140 130
0.149239 -0.128713 -0.449 187 139 129
0.159902 -0.126993 -0.443 194 146 132
0.18522 -0.12642 -0.441 150 103 93
0.190279 -0.126993 -0.443 144 100 89
0.208714 -0.129 -0.45 127 87 79
0.246113 -0.134447 -0.469 169 116 110
0.263748 -0.139033 -0.485 118 78 68
0.31871 -0.151073 -0.527 141 150 159
0.329606 -0.14964 -0.522 200 195 201
0.337906 -0.149353 -0.521 135 114 123
0.34254 -0.14878 -0.519 123 96 105
0.347483 -0.14878 -0.519 151 128 134
0.361481 -0.147633 -0.515 222 216 228
0.36959 -0.147347 -0.514 125 94 99
0.372528 -0.147347 -0.514 130 95 99
0.374233 -0.147633 -0.515 127 92 96
0.388976 -0.151073 -0.527 49 37 41
0.438897 -0.15308 -0.534 170 117 113
0.139506 -0.135917 -0.471 195 148 142
0.1417 -0.1313 -0.455 193 146 136
0.148384 -0.129569 -0.449 184 136 126
0.16674 -0.12726 -0.441 186 138 126
0.168876 -0.126971 -0.44 184 136 124
0.170552 -0.126971 -0.44 185 133 119
0.172229 -0.126971 -0.44 181 129 115
0.173905 -0.126971 -0.44 176 127 112
0.18438 -0.12726 -0.441 151 104 94
0.189435 -0.127837 -0.443 145 98 88
0.1924 -0.128126 -0.444 142 98 89
0.211755 -0.130146 -0.451 126 85 79
0.217488 -0.131011 -0.454 127 84 78
0.220567 -0.1313 -0.455 125 85 77
0.264291 -0.140246 -0.486 112 74 63
0.269429 -0.141977 -0.492 100 69 64
0.279433 -0.145729 -0.505 74 59 56
0.292256 -0.150346 -0.521 55 46 49
0.300774 -0.152654 -0.529 60 48 52
0.301782 -0.152654 -0.529 60 48 52
0.339238 -0.150057 -0.52 120 97 107
0.354022 -0.149191 -0.517 227 224 235
0.363716 -0.148326 -0.514 181 165 166
0.364695 -0.148326 -0.514 133 106 111
0.371549 -0.148326 -0.514 124 95 99
0.375943 -0.148903 -0.516 120 90 92
0.42301 -0.156117 -0.541 109 78 84
0.427121 -0.152077 -0.527 186 133 127
0.470711 -0.159003 -0.551 147 94 90
0.139509 -0.135943 -0.468 191 147 138
0.149239 -0.130424 -0.449 185 137 127
0.194529 -0.129262 -0.445 140 96 87
0.22192 -0.132457 -0.456 128 88 80
0.224148 -0.132748 -0.457 131 88 81
0.226383 -0.133038 -0.458 135 90 84
0.2479 -0.136233 -0.469 158 105 99
0.252717 -0.137395 -0.473 142 93 86
0.286929 -0.149595 -0.515 52 40 40
0.289587 -0.150467 -0.518 51 39 39
0.292817 -0.151629 -0.522 55 44 48
0.308251 -0.153371 -0.528 80 68 72
0.31369 -0.153081 -0.527 191 190 196
0.318105 -0.15279 -0.526 64 71 79
0.333936 -0.151338 -0.521 157 142 149
0.349773 -0.150467 -0.518 223 221 234
0.492007 -0.185033 -0.637 72 61 69
0.490123 -0.183871 -0.633 77 66 74
0.451864 -0.157148 -0.541 160 105 102
0.455796 -0.157438 -0.542 159 104 101
0.460587 -0.158019 -0.544 156 100 99
0.139782 -0.135372 -0.463 193 149 140
0.150613 -0.130987 -0.448 188 140 126
0.154189 -0.130402 -0.446 190 142 130
0.162909 -0.129232 -0.442 187 141 126
0.181448 -0.128648 -0.44 156 108 98
0.196224 -0.13011 -0.445 138 94 83
0.203066 -0.130694 -0.447 132 89 82
0.214808 -0.132156 -0.452 129 86 80
0.240471 -0.135957 -0.465 162 109 105
0.252717 -0.138296 -0.473 141 92 85
0.30279 -0.15467 -0.529 73 53 62
0.309257 -0.154377 -0.528 82 67 70
0.328974 -0.15233 -0.521 119 99 111
0.331951 -0.15233 -0.521 211 195 205
0.348471 -0.151746 -0.519 244 224 233
0.351747 -0.151453 -0.518 228 222 234
0.355007 -0.151161 -0.517 228 224 238
0.366917 -0.149991 -0.513 97 66 71
0.371549 -0.150284 -0.514 121 94 99
0.424307 -0.153792 -0.526 189 134 129
0.44814 -0.157593 -0.539 155 101 99
0.46436 -0.15964 -0.546 150 94 93
0.467105 -0.160225 -0.548 144 91 87
-0.135154 -0.190697 -0.648 193 193 185
0.155038 -0.131251 -0.446 190 142 128
0.158571 -0.130663 -0.444 187 141 126
0.168038 -0.129486 -0.44 179 132 116
0.190709 -0.130663 -0.444 143 97 84
0.210429 -0.132429 -0.45 129 89 81
0.222789 -0.134194 -0.456 128 90 81
0.252717 -0.139197 -0.473 134 90 81
0.25469 -0.139786 -0.475 130 86 77
0.270524 -0.145377 -0.494 84 59 62
0.315099 -0.154794 -0.526 163 158 164
0.326623 -0.153617 -0.522 167 154 164
0.331951 -0.153323 -0.521 209 196 206
0.334286 -0.153029 -0.52 171 148 156
0.337597 -0.152734 -0.519 120 97 107
0.341551 -0.152734 -0.519 121 98 104
0.346813 -0.15244 -0.518 188 165 171
0.363716 -0.151263 -0.514 122 105 111
0.369849 -0.150969 -0.513 126 97 99
0.460587 -0.160091 -0.544 157 102 99
0.13921 -0.13921 -0.47 194 147 139
0.145286 -0.133286 -0.45 190 142 130
0.148907 -0.132693 -0.448 187 140 130
0.1672 -0.130324 -0.44 180 132 118
0.183124 -0.130324 -0.44 155 105 96
0.193246 -0.131509 -0.444 144 97 87
0.202214 -0.132397 -0.447 134 91 82
0.239954 -0.137432 -0.464 154 101 95
0.267946 -0.14543 -0.491 84 62 65
0.304805 -0.156685 -0.529 78 58 60
0.334286 -0.154019 -0.52 139 116 124
0.340563 -0.153723 -0.519 122 99 105
0.444431 -0.159054 -0.537 145 94 93
0.455796 -0.160535 -0.542 161 106 103
0.148384 -0.133845 -0.449 188 141 131
0.164686 -0.131162 -0.44 186 137 123
0.178527 -0.130864 -0.439 160 110 99
0.179771 -0.131162 -0.44 160 110 99
0.18438 -0.13146 -0.441 153 105 93
0.196224 -0.132652 -0.445 144 97 89
0.200063 -0.13295 -0.446 140 93 87
0.227255 -0.136528 -0.458 137 93 84
0.228626 -0.136826 -0.459 139 92 86
0.239954 -0.138316 -0.464 148 97 93
0.241357 -0.138614 -0.465 147 96 92
0.249324 -0.140105 -0.47 134 87 81
0.3195 -0.1565 -0.525 153 154 156
0.323264 -0.155904 -0.523 127 122 128
0.326623 -0.155606 -0.522 116 100 110
0.330959 -0.155308 -0.521 152 135 145
0.339574 -0.154711 -0.519 119 94 100
0.341551 -0.154711 -0.519 121 96 102
0.353037 -0.154115 -0.517 185 165 176
0.376413 -0.154413 -0.518 103 78 81
0.479837 -0.187502 -0.629 62 52 60
0.42432 -0.162164 -0.544 152 108 109
0.4225 -0.1565 -0.525 187 129 125
0.452894 -0.16127 -0.541 161 106 103
-0.144357 -0.1935 -0.645 189 186 179
0.142253 -0.1362 -0.454 191 143 131
0.145818 -0.1347 -0.449 190 142 130
0.148384 -0.1347 -0.449 189 143 130
0.175182 -0.1317 -0.439 166 116 105
0.206933 -0.1344 -0.448 132 88 79
0.220567 -0.1365 -0.455 131 89 77
0.23452 -0.1386 -0.462 147 98 93
0.237673 -0.1389 -0.463 146 97 90
0.255227 -0.1428 -0.476 118 77 71
0.275861 -0.1506 -0.502 66 46 48
0.30279 -0.1587 -0.529 82 60 63
0.305812 -0.1587 -0.529 84 62 64
0.309675 -0.1581 -0.527 91 71 72
0.3165 -0.1575 -0.525 126 114 116
0.318891 -0.1572 -0.524 143 134 137
0.327617 -0.1566 -0.522 112 91 100
0.327982 -0.1563 -0.521 167 146 155
0.336609 -0.1557 -0.519 121 96 102
0.342867 -0.1554 -0.518 122 95 102
0.350083 -0.1551 -0.517 127 100 109
0.355303 -0.1548 -0.516 174 155 161
0.38277 -0.1572 -0.524 43 26 32
0.479074 -0.1884 -0.628 61 50 58
0.419338 -0.1605 -0.535 182 131 127
0.418 -0.1596 -0.532 192 141 137
0.430949 -0.1584 -0.528 146 93 89
-0.148272 -0.19503 -0.646 187 184 177
-0.140671 -0.194729 -0.645 190 190 182
0.159902 -0.133744 -0.443 188 139 125
0.16086 -0.13314 -0.441 189 140 126
0.1672 -0.132838 -0.44 179 130 115
0.1827 -0.13314 -0.441 156 108 96
0.18354 -0.13314 -0.441 157 109 97
0.191554 -0.134046 -0.444 147 99 85
0.200063 -0.13465 -0.446 141 94 86
0.23628 -0.13948 -0.462 141 94 88
0.245589 -0.141291 -0.468 131 83 79
0.298759 -0.159708 -0.529 77 52 56
0.309675 -0.159104 -0.527 94 69 72
0.312093 -0.158802 -0.526 97 77 79
0.350083 -0.156085 -0.517 121 94 99
0.351371 -0.155783 -0.516 125 95 103
0.357269 -0.155783 -0.516 128 105 111
0.358538 -0.155481 -0.515 173 150 158
0.362462 -0.155481 -0.515 119 96 104
0.471369 -0.187483 -0.621 60 49 55
0.418666 -0.159708 -0.529 193 138 133
0.41888 -0.159406 -0.528 192 137 132
0.420094 -0.159104 -0.527 189 134 129
0.428125 -0.159104 -0.527 146 93 87
0.453925 -0.16333 -0.541 164 111 107
0.469003 -0.165746 -0.549 151 98 94
-0.146359 -0.19535 -0.643 190 187 180
-0.139443 -0.195957 -0.645 191 190 185
0.14976 -0.136107 -0.448 192 143 129
0.153683 -0.135803 -0.447 191 142 127
0.163848 -0.133676 -0.44 185 136 121
0.176854 -0.133372 -0.439 163 114 100
0.190709 -0.134891 -0.444 150 102 90
0.192833 -0.135195 -0.445 148 101 91
0.220082 -0.13793 -0.454 135 91 80
0.224526 -0.138537 -0.456 136 92 81
0.228128 -0.139145 -0.458 136 92 83
0.232629 -0.139752 -0.46 140 96 87
0.240471 -0.141271 -0.465 136 89 81
0.244697 -0.142183 -0.468 129 82 76
0.246113 -0.142487 -0.469 125 80 75
0.247533 -0.14279 -0.47 124 79 74
0.26136 -0.147044 -0.484 95 61 59
0.28386 -0.155854 -0.513 66 41 45
0.308671 -0.160108 -0.527 94 69 72
0.313095 -0.159804 -0.526 96 76 78
0.322268 -0.158892 -0.523 114 91 97
0.325629 -0.158589 -0.522 118 91 100
0.327982 -0.158285 -0.521 187 168 174
0.332305 -0.157981 -0.52 123 104 110
0.336609 -0.157677 -0.519 119 94 98
0.337933 -0.157373 -0.518 120 93 98
0.345159 -0.15707 -0.517 124 97 102
0.350083 -0.15707 -0.517 118 93 97
0.353337 -0.156766 -0.516 125 95 103
0.356576 -0.156462 -0.515 122 92 100
0.364963 -0.155854 -0.513 110 84 87
0.36959 -0.156158 -0.514 119 89 91
0.373717 -0.15707 -0.517 112 83 87
0.472128 -0.18897 -0.622 61 48 55
0.421301 -0.159804 -0.526 187 130 123
0.451029 -0.164057 -0.54 155 102 98
0.453925 -0.164361 -0.541 164 111 107
0.466252 -0.166184 -0.547 154 101 97
0.144429 -0.137571 -0.45 192 144 132
0.156386 -0.136043 -0.445 186 137 122
0.171001 -0.134209 -0.439 174 125 110
0.198364 -0.136349 -0.446 144 97 87
0.248957 -0.143991 -0.471 117 73 70
0.252349 -0.144909 -0.474 112 71 69
0.258824 -0.147049 -0.481 95 63 64
0.278059 -0.154691 -0.506 71 42 47
0.309675 -0.161111 -0.527 94 69 72
0.322268 -0.159889 -0.523 107 84 90
0.329333 -0.158971 -0.52 196 180 183
0.3598 -0.157137 -0.514 115 88 93
0.360779 -0.157137 -0.514 116 91 97
0.367632 -0.157137 -0.514 120 91 93
0.417537 -0.163251 -0.534 176 130 130
0.443604 -0.163863 -0.536 121 73 69
0.447309 -0.164474 -0.538 141 88 82
0.453925 -0.165391 -0.541 164 111 107
0.455986 -0.165391 -0.541 165 112 108
-0.150033 -0.197799 -0.643 187 184 177
-0.145134 -0.197799 -0.643 190 187 180
-0.135571 -0.199952 -0.65 196 193 188
0.137976 -0.146119 -0.475 200 147 141
0.148053 -0.137813 -0.448 194 145 131
0.161225 -0.135968 -0.442 189 137 124
0.170611 -0.134737 -0.438 174 125 110
0.17228 -0.134737 -0.438 171 122 107
0.179771 -0.135352 -0.44 159 109 98
0.196665 -0.137198 -0.446 146 98 86
0.197514 -0.137198 -0.446 145 99 86
0.2295 -0.141197 -0.459 141 94 84
0.2599 -0.14858 -0.483 94 62 63
0.288169 -0.159654 -0.519 71 42 46
0.309675 -0.162115 -0.527 96 71 74
0.31009 -0.161808 -0.526 96 76 78
0.3115 -0.1615 -0.525 98 79 81
0.330677 -0.159654 -0.519 118 96 99
0.355884 -0.158116 -0.514 120 93 98
0.364963 -0.157809 -0.513 118 92 95
0.36594 -0.157809 -0.513 122 93 95
0.372011 -0.158731 -0.516 105 76 81
0.463716 -0.188878 -0.614 54 43 51
0.416987 -0.163653 -0.532 191 135 134
0.418666 -0.16273 -0.529 192 132 131
0.431765 -0.16273 -0.529 124 75 68
0.447309 -0.165499 -0.538 139 86 80
0.47433 -0.170421 -0.554 147 93 91
0.148907 -0.138667 -0.448 194 145 131
0.164686 -0.13619 -0.44 185 136 122
0.165984 -0.135881 -0.439 181 132 118
0.167656 -0.135881 -0.439 178 129 115
0.209571 -0.139286 -0.45 137 93 84
0.237673 -0.14331 -0.463 132 89 83
0.246638 -0.145476 -0.47 107 67 65
0.269186 -0.153214 -0.495 79 47 50
0.31009 -0.16281 -0.526 101 75 78
0.3115 -0.1625 -0.525 102 76 79
0.314899 -0.16219 -0.524 109 80 84
0.324012 -0.161262 -0.521 122 92 100
0.336296 -0.160024 -0.517 121 90 96
0.355595 -0.159405 -0.515 125 94 99
0.363986 -0.158786 -0.513 123 93 101
0.377601 -0.161262 -0.521 42 27 32
0.141627 -0.140766 -0.452 191 143 131
0.149426 -0.139209 -0.447 194 145 131
0.165148 -0.136717 -0.439 186 134 120
0.18061 -0.137029 -0.44 160 110 99
0.213473 -0.140454 -0.451 137 93 84
0.231752 -0.143257 -0.46 140 96 85
0.233134 -0.143569 -0.461 138 94 85
0.31009 -0.163811 -0.526 100 74 77
0.344491 -0.160697 -0.516 123 92 98
0.35069 -0.160386 -0.515 122 91 96
0.353633 -0.160386 -0.515 123 92 97
0.3598 -0.160074 -0.514 124 93 98
0.360779 -0.160074 -0.514 122 91 96
0.482126 -0.196823 -0.632 83 76 92
0.439914 -0.166303 -0.534 121 76 70
0.140214 -0.14194 -0.453 192 146 131
0.159541 -0.138493 -0.442 187 135 121
0.16254 -0.13818 -0.441 186 134 120
0.170611 -0.13724 -0.438 173 125 111
0.18061 -0.137867 -0.44 159 109 98
0.18354 -0.13818 -0.441 158 108 97
0.192833 -0.139433 -0.445 151 101 92
0.203066 -0.14006 -0.447 143 95 85
0.217871 -0.14194 -0.453 139 92 82
0.239586 -0.1457 -0.465 125 81 78
0.256991 -0.150713 -0.481 92 57 61
0.271361 -0.156353 -0.499 74 43 49
0.2925 -0.1645 -0.525 77 48 53
0.298759 -0.165753 -0.529 79 52 57
0.3115 -0.1645 -0.525 104 75 79
0.32302 -0.163247 -0.521 136 105 111
0.332654 -0.16262 -0.519 121 90 96
0.415863 -0.16544 -0.528 195 142 136
0.446477 -0.16826 -0.537 139 89 82
0.470711 -0.172647 -0.551 143 95 91
-0.153469 -0.202383 -0.642 186 183 176
0.170611 -0.138074 -0.438 172 124 110
0.178527 -0.13839 -0.439 159 109 98
0.18061 -0.138705 -0.44 158 108 99
0.189017 -0.139966 -0.444 153 103 94
0.215669 -0.142488 -0.452 134 91 82
0.2925 -0.1655 -0.525 76 47 52
0.296183 -0.166446 -0.528 79 50 55
0.317674 -0.164554 -0.522 108 80 79
0.326362 -0.163924 -0.52 143 122 129
0.339577 -0.162663 -0.516 123 92 98
0.347072 -0.162032 -0.514 122 91 96
0.415863 -0.166446 -0.528 193 140 132
0.434409 -0.167391 -0.531 121 72 65
0.467105 -0.17275 -0.548 149 101 97
0.137127 -0.14874 -0.469 195 146 139
0.150277 -0.141763 -0.447 189 141 129
0.15688 -0.140811 -0.444 188 139 125
0.159541 -0.140177 -0.442 188 139 125
0.16086 -0.13986 -0.441 186 137 123
0.165984 -0.139226 -0.439 181 131 120
0.174384 -0.138591 -0.437 168 120 108
0.175216 -0.138591 -0.437 166 118 106
0.18354 -0.13986 -0.441 156 106 97
0.184798 -0.140177 -0.442 154 104 95
0.189863 -0.140811 -0.444 152 102 93
0.193681 -0.141129 -0.445 151 103 93
0.20825 -0.142397 -0.449 141 94 86
0.210429 -0.142714 -0.45 138 93 87
0.214332 -0.143031 -0.451 135 92 85
0.232256 -0.146203 -0.461 133 88 82
0.254098 -0.151911 -0.479 95 59 63
0.321035 -0.165231 -0.521 114 85 89
0.331027 -0.16428 -0.518 114 89 93
0.347072 -0.163011 -0.514 121 90 95
0.367367 -0.163329 -0.515 113 88 91
0.422303 -0.166817 -0.526 169 117 104
0.438897 -0.169354 -0.534 128 81 75
0.441757 -0.169671 -0.535 130 83 77
0.461623 -0.172526 -0.544 153 108 105
-0.158607 -0.205148 -0.643 180 180 172
-0.14212 -0.206105 -0.646 191 188 179
0.1377 -0.146443 -0.459 197 148 141
0.155538 -0.141976 -0.445 188 138 127
0.15688 -0.141657 -0.444 186 137 123
0.193681 -0.141976 -0.445 152 103 96
0.197514 -0.142295 -0.446 149 100 93
0.202214 -0.142614 -0.447 144 97 89
0.210429 -0.143571 -0.45 138 93 87
0.21653 -0.14421 -0.452 136 93 86
0.228128 -0.146124 -0.458 134 91 84
0.293614 -0.168138 -0.527 79 48 56
0.310907 -0.167181 -0.524 105 76 80
0.3287 -0.165586 -0.519 122 91 97
0.329689 -0.165586 -0.519 119 88 94
0.345114 -0.16399 -0.514 122 91 97
0.35226 -0.163671 -0.513 124 93 98
0.485031 -0.203871 -0.639 108 115 143
0.43706 -0.170052 -0.533 133 86 80
0.449167 -0.171967 -0.539 139 94 89
0.471566 -0.176114 -0.552 137 95 96
-0.146359 -0.206372 -0.643 190 186 175
0.148574 -0.143466 -0.447 192 144 132
0.160495 -0.141219 -0.44 186 138 126
0.161333 -0.141219 -0.44 185 137 125
0.165606 -0.140577 -0.438 182 134 122
0.176451 -0.140577 -0.438 163 115 103
0.193681 -0.142824 -0.445 151 102 95
0.209106 -0.144108 -0.449 140 95 89
0.248357 -0.152452 -0.475 100 61 64
0.252273 -0.153736 -0.479 95 59 61
0.257672 -0.155341 -0.484 88 53 59
0.300206 -0.169463 -0.528 86 57 62
0.312306 -0.167858 -0.523 109 78 83
0.31905 -0.167216 -0.521 110 81 85
0.33004 -0.166253 -0.518 119 90 95
0.359375 -0.164328 -0.512 124 92 97
0.490814 -0.207014 -0.645 138 142 169
0.41441 -0.170105 -0.53 195 148 138
0.438897 -0.171389 -0.534 126 79 73
0.46436 -0.17524 -0.546 145 104 102
0.476042 -0.17845 -0.556 133 93 93
-0.156892 -0.206951 -0.641 183 180 171
0.138794 -0.146577 -0.454 197 149 139
0.144108 -0.144963 -0.449 191 143 133
0.14464 -0.14464 -0.448 191 143 131
0.156527 -0.143026 -0.443 191 142 128
0.169777 -0.141411 -0.438 175 127 115
0.18061 -0.142057 -0.44 157 109 99
0.189863 -0.143349 -0.444 152 99 91
0.204373 -0.14464 -0.448 144 97 89
0.205227 -0.14464 -0.448 142 98 89
0.228626 -0.148191 -0.459 134 91 84
0.3224 -0.167886 -0.52 207 191 192
0.324746 -0.167563 -0.519 122 92 102
0.3287 -0.167563 -0.519 114 83 88
0.485329 -0.206951 -0.641 114 123 154
0.421301 -0.169823 -0.526 173 121 110
0.43706 -0.172083 -0.533 125 80 74
0.46436 -0.17628 -0.546 146 102 99
0.137124 -0.14939 -0.46 195 145 136
0.155683 -0.14387 -0.443 192 144 132
0.157015 -0.143545 -0.442 191 141 130
0.162639 -0.14257 -0.439 189 140 126
0.165606 -0.142246 -0.438 177 129 115
0.173949 -0.142246 -0.438 166 118 106
0.18061 -0.142895 -0.44 161 109 98
0.18564 -0.143545 -0.442 158 104 94
0.186904 -0.14387 -0.443 158 104 92
0.211286 -0.146143 -0.45 140 93 87
0.212143 -0.146143 -0.45 140 93 87
0.217871 -0.147117 -0.453 134 89 83
0.225018 -0.148416 -0.457 133 90 83
0.297751 -0.171799 -0.529 83 54 59
0.304656 -0.17115 -0.527 93 65 64
0.313697 -0.169526 -0.522 112 82 84
0.338261 -0.166928 -0.514 122 93 98
0.364695 -0.166928 -0.514 114 89 95
0.416869 -0.171474 -0.528 183 134 127
0.441757 -0.173748 -0.535 125 80 74
-0.165499 -0.211027 -0.646 178 178 170
-0.157867 -0.209067 -0.64 181 181 173
-0.15421 -0.209067 -0.64 184 184 174
-0.1498 -0.20972 -0.642 186 186 176
-0.145811 -0.211027 -0.646 190 187 178
0.167725 -0.142753 -0.437 176 127 113
0.170222 -0.142753 -0.437 173 125 113
0.18061 -0.143733 -0.44 161 106 99
0.1827 -0.14406 -0.441 161 106 99
0.205227 -0.146347 -0.448 147 97 88
0.215669 -0.147653 -0.452 134 89 83
0.2895 -0.1715 -0.525 75 44 50
0.294171 -0.17248 -0.528 78 47 53
0.296744 -0.172807 -0.529 79 50 55
0.314089 -0.170193 -0.521 112 82 84
0.414486 -0.17444 -0.534 166 126 116
0.426926 -0.17248 -0.528 143 95 85
0.432386 -0.17346 -0.531 131 86 81
0.436045 -0.174113 -0.533 125 84 80
0.441757 -0.174767 -0.535 122 77 71
0.4475 -0.17542 -0.537 141 93 91
0.455143 -0.1764 -0.54 149 99 100
0.46881 -0.179667 -0.55 143 95 95
-0.148809 -0.211271 -0.643 186 186 176
-0.144805 -0.212586 -0.647 190 188 176
0.136544 -0.151471 -0.461 194 144 135
0.147723 -0.146871 -0.447 191 142 128
0.1513 -0.146214 -0.445 192 142 131
0.156173 -0.145229 -0.442 189 141 129
0.161803 -0.144243 -0.439 188 138 127
0.18564 -0.145229 -0.442 160 103 94
0.191554 -0.145886 -0.444 153 98 91
0.194529 -0.146214 -0.445 152 97 90
0.196665 -0.146543 -0.446 150 97 89
0.202214 -0.146871 -0.447 148 95 87
0.211286 -0.147857 -0.45 140 93 85
0.2305 -0.151471 -0.461 122 83 76
0.246548 -0.156071 -0.475 103 64 67
0.2895 -0.1725 -0.525 75 44 50
0.294171 -0.173486 -0.528 78 47 53
0.302649 -0.173157 -0.527 93 64 69
0.31131 -0.171843 -0.523 108 78 78
0.313697 -0.171514 -0.522 111 81 83
0.323757 -0.170529 -0.519 153 126 131
0.338261 -0.168886 -0.514 123 92 97
0.33924 -0.168886 -0.514 122 91 96
0.348351 -0.168557 -0.513 128 93 99
0.349329 -0.168557 -0.513 120 89 97
0.359375 -0.168229 -0.512 126 91 97
0.418087 -0.173157 -0.527 182 125 114
0.420299 -0.172829 -0.526 170 112 101
0.43788 -0.175457 -0.534 125 82 76
0.450383 -0.176771 -0.538 150 100 99
0.455986 -0.177757 -0.541 149 101 99
0.457016 -0.177757 -0.541 149 101 99
0.473274 -0.182029 -0.554 138 89 92
-0.151023 -0.212166 -0.642 186 186 176
0.160967 -0.145079 -0.439 190 141 127
0.170222 -0.144418 -0.437 175 120 113
0.189017 -0.146731 -0.444 156 102 92
0.194529 -0.147062 -0.445 151 98 90
0.214332 -0.149045 -0.451 132 87 81
0.215669 -0.149375 -0.452 132 87 81
0.25596 -0.160611 -0.486 85 55 57
0.26554 -0.164247 -0.497 76 46 54
0.30508 -0.17383 -0.526 97 66 71
0.3085 -0.1735 -0.525 104 73 78
0.326093 -0.171187 -0.518 120 89 95
0.346093 -0.169865 -0.514 118 89 93
0.359375 -0.169204 -0.512 123 91 96
0.423106 -0.174161 -0.527 161 104 93
0.428742 -0.174822 -0.529 136 87 80
0.47242 -0.182753 -0.553 134 88 90
0.476898 -0.184075 -0.557 135 91 92
0.481391 -0.185397 -0.561 140 96 97
-0.160054 -0.212391 -0.639 182 182 174
-0.150033 -0.213721 -0.643 186 186 176
0.142933 -0.148907 -0.448 195 146 132
0.15079 -0.148242 -0.446 193 144 130
0.155683 -0.147245 -0.443 191 143 129
0.171887 -0.14525 -0.437 172 118 108
0.192833 -0.14791 -0.445 151 98 90
0.199213 -0.148242 -0.446 146 96 87
0.200063 -0.148242 -0.446 146 96 87
0.20352 -0.148907 -0.448 145 95 86
0.205227 -0.148907 -0.448 144 94 85
0.279081 -0.171176 -0.515 66 41 47
0.295177 -0.175497 -0.528 85 54 60
0.324746 -0.172506 -0.519 121 90 96
0.329053 -0.172173 -0.518 120 87 94
0.332357 -0.171841 -0.517 120 89 94
0.342177 -0.170844 -0.514 123 88 94
0.347374 -0.170511 -0.513 121 89 94
0.365131 -0.171509 -0.516 96 69 74
0.41441 -0.176162 -0.53 192 145 135
0.42592 -0.175497 -0.528 143 88 81
0.436045 -0.177159 -0.533 125 80 77
0.136524 -0.157114 -0.47 194 146 134
0.152148 -0.148757 -0.445 193 144 130
0.153995 -0.148089 -0.443 193 145 133
0.158458 -0.146751 -0.439 190 141 127
0.170222 -0.146083 -0.437 176 122 112
0.189435 -0.148089 -0.443 153 101 90
0.196224 -0.148757 -0.445 147 97 88
0.20654 -0.150094 -0.449 142 93 86
0.217009 -0.151431 -0.453 127 84 77
0.219217 -0.151766 -0.454 127 84 78
0.25754 -0.163466 -0.489 84 54 56
0.260586 -0.164803 -0.493 80 50 52
0.27756 -0.171823 -0.514 67 40 47
0.322769 -0.173494 -0.519 119 88 93
0.348351 -0.171489 -0.513 119 87 92
0.357425 -0.171154 -0.512 120 89 95
0.373073 -0.174831 -0.523 43 37 51
0.415017 -0.179177 -0.536 158 127 125
0.41441 -0.177171 -0.53 188 140 130
0.414635 -0.176837 -0.529 185 138 130
0.414857 -0.176503 -0.528 185 138 130
0.428742 -0.176837 -0.529 132 83 78
-0.159804 -0.21449 -0.638 182 182 172
-0.157373 -0.21449 -0.638 183 183 173
-0.152246 -0.215834 -0.642 184 184 174
-0.150267 -0.216507 -0.644 186 186 176
-0.149271 -0.216843 -0.645 187 187 177
0.143466 -0.150277 -0.447 193 145 131
0.146871 -0.150277 -0.447 191 142 128
0.149091 -0.149941 -0.446 192 143 129
0.150452 -0.149605 -0.445 189 140 126
0.17769 -0.147588 -0.439 164 110 98
0.181448 -0.147924 -0.44 162 105 94
0.197919 -0.149605 -0.445 147 97 88
0.292713 -0.177845 -0.529 77 47 55
0.301645 -0.177172 -0.527 89 62 67
0.303076 -0.176836 -0.526 93 66 71
0.315081 -0.175155 -0.521 111 82 84
0.319803 -0.174483 -0.519 113 84 86
0.32708 -0.174147 -0.518 118 87 92
0.328418 -0.17381 -0.517 120 89 94
0.352549 -0.17213 -0.512 156 139 145
0.355474 -0.17213 -0.512 119 92 99
0.35645 -0.17213 -0.512 119 88 94
0.3591 -0.172466 -0.513 117 86 92
0.428742 -0.177845 -0.529 130 81 76
0.46881 -0.184905 -0.55 132 93 86
0.476042 -0.186922 -0.556 131 92 85
-0.29281 -0.219762 -0.65 254 255 250
0.135957 -0.157214 -0.465 196 147 133
0.13623 -0.15451 -0.457 195 146 132
0.161434 -0.148086 -0.438 189 140 126
0.16273 -0.147748 -0.437 187 138 124
0.201363 -0.151129 -0.447 142 94 84
0.216146 -0.153157 -0.453 125 82 76
0.217488 -0.153495 -0.454 124 81 75
0.251738 -0.163976 -0.485 84 60 58
0.256723 -0.166005 -0.491 80 54 55
0.271951 -0.17209 -0.509 71 42 47
0.278195 -0.174795 -0.517 68 38 46
0.284956 -0.177162 -0.524 74 42 53
0.2865 -0.1775 -0.525 74 44 52
0.302074 -0.177838 -0.526 95 66 71
0.32412 -0.175133 -0.518 118 87 92
0.341511 -0.173443 -0.513 124 93 98
0.350306 -0.173443 -0.513 208 189 195
0.354499 -0.173105 -0.512 122 92 100
0.415863 -0.178514 -0.528 175 125 114
0.441757 -0.180881 -0.535 116 71 68
0.455986 -0.18291 -0.541 139 98 94
-0.291123 -0.22066 -0.649 255 255 251
-0.170421 -0.21964 -0.646 182 179 170
-0.155186 -0.21726 -0.639 185 185 175
-0.1505 -0.2193 -0.645 188 186 174
0.135931 -0.15504 -0.456 192 148 135
0.137018 -0.15334 -0.451 194 146 134
0.169002 -0.14824 -0.436 175 125 114
0.171054 -0.14858 -0.437 172 122 111
0.18186 -0.14994 -0.441 159 102 93
0.18564 -0.15028 -0.442 155 101 89
0.187748 -0.15062 -0.443 154 102 91
0.191554 -0.15096 -0.444 148 96 85
0.294171 -0.17952 -0.528 82 53 58
0.296626 -0.17918 -0.527 88 59 64
0.314476 -0.1768 -0.52 112 81 87
0.32116 -0.17612 -0.518 111 85 88
0.322147 -0.17612 -0.518 112 83 87
0.341511 -0.17442 -0.513 123 94 98
0.347672 -0.17408 -0.512 176 149 156
0.348648 -0.17408 -0.512 193 176 182
0.351573 -0.17408 -0.512 209 198 202
0.364854 -0.17578 -0.517 51 49 52
0.423909 -0.17952 -0.528 151 97 85
0.427734 -0.17986 -0.529 134 85 80
0.436045 -0.18122 -0.533 124 80 77
0.47242 -0.18802 -0.553 128 89 82
-0.311657 -0.221554 -0.648 250 251 245
-0.305014 -0.221212 -0.647 216 219 212
-0.29762 -0.221212 -0.647 157 158 153
-0.29269 -0.221212 -0.647 169 170 165
-0.291123 -0.221896 -0.649 210 211 205
-0.287857 -0.222238 -0.65 250 251 245
-0.16345 -0.218135 -0.638 182 182 172
-0.152483 -0.219845 -0.643 187 185 173
0.140373 -0.153173 -0.448 195 147 133
0.153151 -0.151464 -0.443 196 147 133
0.153648 -0.151122 -0.442 194 145 131
0.16273 -0.149412 -0.437 182 134 122
0.188591 -0.151464 -0.443 149 99 88
0.190279 -0.151464 -0.443 144 94 85
0.196224 -0.152148 -0.445 145 95 86
0.219314 -0.155909 -0.456 120 75 70
0.291154 -0.180526 -0.528 79 49 57
0.299069 -0.179842 -0.526 92 61 67
0.3045 -0.1795 -0.525 98 68 76
0.306329 -0.178816 -0.523 102 73 78
0.334671 -0.175397 -0.513 119 88 93
0.343466 -0.175397 -0.513 120 91 96
0.344443 -0.175397 -0.513 121 92 97
0.352549 -0.175055 -0.512 144 114 122
0.352833 -0.174713 -0.511 129 99 107
0.415791 -0.183603 -0.537 177 133 132
0.416079 -0.180184 -0.527 169 118 97
0.47242 -0.189073 -0.553 129 90 85
-0.307479 -0.222445 -0.647 200 203 196
-0.303312 -0.222101 -0.646 152 155 148
-0.294699 -0.222101 -0.646 141 142 136
-0.16614 -0.219694 -0.639 184 181 172
-0.151493 -0.221413 -0.644 187 185 173
-0.0439524 -0.223476 -0.65 75 72 79
0.20352 -0.154027 -0.448 139 91 79
0.239203 -0.162622 -0.473 99 67 68
0.25589 -0.169498 -0.493 80 54 57
0.28404 -0.180844 -0.526 72 42 50
0.299069 -0.180844 -0.526 93 62 68
0.313871 -0.178437 -0.519 112 81 86
0.332052 -0.177062 -0.515 119 89 91
0.369377 -0.179469 -0.522 49 40 45
0.414486 -0.183594 -0.534 194 136 132
-0.295471 -0.222986 -0.645 135 136 130
-0.164407 -0.22022 -0.637 184 181 172
-0.156403 -0.220911 -0.639 183 183 173
-0.155429 -0.221257 -0.64 184 184 174
-0.0427143 -0.224714 -0.65 78 75 82
0.137686 -0.163869 -0.474 192 148 135
0.15582 -0.15246 -0.441 191 142 128
0.158458 -0.151769 -0.439 190 141 127
0.165228 -0.151077 -0.437 177 128 113
0.176854 -0.151769 -0.439 160 108 97
0.184798 -0.152806 -0.442 154 102 91
0.198364 -0.154189 -0.446 139 91 81
0.216233 -0.1573 -0.455 116 77 70
0.227972 -0.160066 -0.463 105 72 67
0.242134 -0.164906 -0.477 97 66 64
0.296063 -0.181846 -0.526 88 59 64
