ply
format ascii 1.0
comment Created by Open3D
element vertex 1302
property double x
property double y
property double z
property uchar red
property uchar green
property uchar blue
end_header
0.339466 -0.188279 -0.493 116 91 94
0.428954 -0.206992 -0.542 146 104 106
0.434627 -0.197827 -0.518 153 106 96
0.443238 -0.19859 -0.52 127 84 75
0.44978 -0.199736 -0.523 131 91 83
0.4535 -0.2005 -0.525 131 91 83
0.455366 -0.200882 -0.526 131 91 83
-0.3198 -0.2418 -0.63 251 252 246
-0.30637 -0.242568 -0.632 237 238 232
-0.293771 -0.244103 -0.636 250 251 246
-0.29256 -0.244103 -0.636 252 252 250
-0.174501 -0.243335 -0.634 191 193 182
-0.161524 -0.245638 -0.64 195 193 181
-0.0912448 -0.24679 -0.643 70 70 72
-0.0858 -0.2418 -0.63 71 70 78
-0.0826057 -0.239497 -0.624 65 64 70
-0.0569095 -0.241416 -0.629 69 70 75
-0.0546867 -0.242184 -0.631 68 69 73
0.0831343 -0.210711 -0.549 204 165 148
0.1386 -0.2418 -0.63 60 73 117
0.302986 -0.192289 -0.501 91 75 85
0.305578 -0.191521 -0.499 117 88 92
0.306247 -0.190753 -0.497 126 97 99
0.339466 -0.189218 -0.493 164 142 145
0.344161 -0.189218 -0.493 126 104 107
0.347682 -0.189602 -0.494 131 105 108
0.434627 -0.198813 -0.518 152 105 95
0.440267 -0.199581 -0.52 134 90 81
0.447926 -0.200349 -0.522 129 86 79
-0.335493 -0.2484 -0.644 252 253 247
-0.320308 -0.243386 -0.631 251 252 246
-0.310692 -0.243386 -0.631 252 253 247
-0.166728 -0.243771 -0.632 191 191 181
-0.159583 -0.247629 -0.642 195 195 183
-0.154664 -0.249557 -0.647 191 189 177
-0.150429 -0.250714 -0.65 194 192 180
-0.0952143 -0.248786 -0.645 127 127 127
-0.0720429 -0.237214 -0.615 67 66 72
-0.0675762 -0.237986 -0.617 67 66 71
0.0788076 -0.211371 -0.548 207 169 156
0.0808952 -0.211371 -0.548 202 164 151
0.08418 -0.211757 -0.549 203 161 145
0.10223 -0.216771 -0.562 159 116 99
0.123587 -0.230657 -0.598 100 87 94
0.3772 -0.2484 -0.644 128 128 152
0.311614 -0.190929 -0.495 128 94 95
0.328197 -0.190157 -0.493 124 92 95
0.344161 -0.190157 -0.493 122 100 103
0.3451 -0.190157 -0.493 122 100 103
0.42394 -0.199414 -0.517 175 123 110
0.427879 -0.199414 -0.517 156 104 90
0.431667 -0.1998 -0.518 147 99 87
0.445083 -0.200957 -0.521 125 80 74
0.460114 -0.203657 -0.528 135 90 84
-0.336535 -0.250402 -0.646 252 253 248
-0.313592 -0.244975 -0.632 253 254 248
-0.311185 -0.244975 -0.632 250 251 245
-0.296938 -0.246138 -0.635 252 253 248
-0.292265 -0.247301 -0.638 251 253 248
-0.284855 -0.250402 -0.646 179 179 177
-0.283706 -0.251565 -0.649 251 251 249
-0.281667 -0.251952 -0.65 255 254 255
-0.160054 -0.247689 -0.639 197 197 187
-0.154664 -0.25079 -0.647 193 191 179
-0.0976714 -0.250014 -0.645 138 138 136
-0.0805038 -0.239161 -0.617 69 68 76
-0.0536543 -0.245363 -0.633 67 68 72
-0.0503533 -0.246913 -0.637 68 69 73
-0.04708 -0.248851 -0.642 70 69 74
0.0777638 -0.212415 -0.548 208 172 158
0.0874762 -0.21319 -0.55 203 161 145
0.12818 -0.23606 -0.609 107 85 88
0.311926 -0.191484 -0.494 126 94 95
0.320685 -0.191096 -0.493 123 91 92
0.331953 -0.191096 -0.493 123 92 87
0.434627 -0.200787 -0.518 143 96 86
0.43942 -0.201174 -0.519 139 95 86
0.442248 -0.201562 -0.52 138 94 85
-0.298148 -0.247348 -0.635 252 253 248
-0.295447 -0.248127 -0.637 254 255 250
-0.166464 -0.24579 -0.631 192 192 180
-0.165262 -0.24579 -0.631 196 194 182
-0.150197 -0.252801 -0.649 202 198 186
-0.0570905 -0.24579 -0.631 68 69 73
-0.0459286 -0.250464 -0.643 71 70 76
-0.0425829 -0.252411 -0.648 72 71 77
0.0807476 -0.21307 -0.547 205 167 154
0.0852257 -0.213849 -0.549 202 161 143
0.103485 -0.219302 -0.563 147 110 94
0.118361 -0.22943 -0.589 110 88 91
0.124207 -0.234104 -0.601 106 86 95
0.132857 -0.241505 -0.62 96 87 108
0.335029 -0.191646 -0.492 118 86 91
0.338777 -0.191646 -0.492 133 114 116
0.420813 -0.201773 -0.518 185 130 125
0.42197 -0.201384 -0.517 179 125 113
0.427879 -0.201384 -0.517 161 106 99
0.452636 -0.20411 -0.524 130 90 78
-0.298617 -0.248949 -0.636 251 252 247
-0.29348 -0.249731 -0.638 254 255 250
-0.154932 -0.251689 -0.643 196 194 182
-0.148731 -0.253646 -0.648 217 213 201
-0.0943495 -0.246991 -0.631 75 76 81
-0.0825857 -0.240729 -0.615 70 69 75
-0.0689743 -0.242294 -0.619 69 68 76
-0.0657543 -0.243469 -0.622 67 68 73
-0.0582 -0.2466 -0.63 68 69 74
0.133286 -0.243469 -0.622 100 92 115
0.309154 -0.198846 -0.508 93 82 90
0.311299 -0.194149 -0.496 122 90 91
0.3135 -0.193757 -0.495 126 96 94
0.326594 -0.192583 -0.492 122 92 92
0.338777 -0.192583 -0.492 114 94 96
0.416705 -0.205109 -0.524 185 135 128
0.417486 -0.203543 -0.52 191 134 127
0.420986 -0.202369 -0.517 181 126 121
0.43364 -0.20276 -0.518 134 87 79
0.461993 -0.207066 -0.529 134 86 82
-0.322646 -0.250947 -0.638 252 253 247
-0.31871 -0.249767 -0.635 252 253 247
-0.305405 -0.249767 -0.635 253 254 249
-0.30104 -0.25016 -0.636 253 254 249
-0.296374 -0.25134 -0.639 253 254 249
-0.289329 -0.2537 -0.645 252 254 249
-0.174257 -0.25252 -0.642 241 242 237
-0.167666 -0.248193 -0.631 205 205 197
-0.141544 -0.255273 -0.649 224 219 200
-0.114524 -0.255667 -0.65 243 237 225
-0.105942 -0.252913 -0.643 190 190 190
-0.0810171 -0.24072 -0.612 70 69 77
-0.0786857 -0.24072 -0.612 70 69 77
-0.0690857 -0.243867 -0.62 70 69 77
0.0754 -0.21476 -0.546 205 169 155
0.0850705 -0.215547 -0.548 199 158 140
0.122857 -0.236 -0.6 105 85 96
0.125033 -0.237967 -0.605 104 84 95
0.129232 -0.241507 -0.614 105 88 98
0.386905 -0.255667 -0.65 129 130 160
0.311927 -0.195487 -0.497 125 99 102
0.31569 -0.194307 -0.494 125 95 93
0.332217 -0.19352 -0.492 122 92 92
0.343222 -0.193913 -0.493 124 99 102
0.346741 -0.194307 -0.494 114 88 89
0.418448 -0.208467 -0.53 167 125 127
0.422137 -0.20296 -0.516 174 120 108
0.42312 -0.20296 -0.516 171 120 103
0.427879 -0.203353 -0.517 153 101 88
0.43364 -0.203747 -0.518 135 88 80
0.451772 -0.205713 -0.523 134 91 82
-0.294097 -0.253743 -0.642 254 255 253
-0.175886 -0.256114 -0.648 244 246 241
-0.152751 -0.252557 -0.639 197 195 182
-0.14234 -0.255719 -0.647 225 220 201
-0.118056 -0.25651 -0.649 240 238 225
-0.113995 -0.255719 -0.647 243 240 231
-0.0627 -0.247814 -0.627 69 69 77
-0.0402381 -0.256905 -0.65 72 71 76
0.0773381 -0.215405 -0.545 205 169 157
0.0794143 -0.215405 -0.545 195 158 142
0.0806 -0.2158 -0.546 199 162 146
0.08268 -0.2158 -0.546 197 158 141
0.1008 -0.221333 -0.56 150 108 94
0.129653 -0.243467 -0.616 107 91 102
0.31663 -0.195248 -0.494 126 94 97
0.320685 -0.194852 -0.493 124 94 96
0.340651 -0.194457 -0.492 204 179 185
0.347443 -0.195643 -0.495 114 88 91
0.35074 -0.196433 -0.497 114 85 89
0.415114 -0.206314 -0.522 188 129 121
0.416109 -0.206314 -0.522 188 129 121
0.42312 -0.203943 -0.516 167 116 99
0.429849 -0.204338 -0.517 141 94 86
0.437587 -0.204733 -0.518 136 89 81
0.440409 -0.205129 -0.519 143 96 88
-0.314139 -0.253377 -0.638 252 253 247
-0.308793 -0.25298 -0.637 253 254 249
-0.296543 -0.254966 -0.642 253 253 251
-0.292238 -0.256554 -0.646 253 253 251
-0.164738 -0.249803 -0.629 230 231 226
-0.155179 -0.251789 -0.634 203 201 188
-0.152273 -0.25298 -0.637 196 194 181
-0.147125 -0.254569 -0.641 221 219 206
-0.113114 -0.254966 -0.642 229 228 224
-0.108423 -0.252583 -0.636 129 129 127
-0.102437 -0.249803 -0.629 70 71 76
-0.0808848 -0.242654 -0.611 72 71 79
-0.0691971 -0.246626 -0.621 69 68 74
-0.0493714 -0.254171 -0.64 69 70 75
0.0707143 -0.218429 -0.55 206 173 164
0.0895714 -0.218429 -0.55 190 145 126
0.102412 -0.223591 -0.563 142 102 90
0.313483 -0.198969 -0.501 85 72 82
0.323783 -0.195394 -0.492 125 93 96
0.326866 -0.194997 -0.491 123 93 95
0.420171 -0.204926 -0.516 177 122 117
0.438573 -0.20572 -0.518 142 95 87
0.449914 -0.207309 -0.522 139 92 86
-0.3215 -0.256588 -0.643 252 253 247
-0.303407 -0.25579 -0.641 253 254 249
-0.172882 -0.257785 -0.646 232 234 231
-0.16354 -0.251001 -0.629 245 247 244
-0.152764 -0.252996 -0.634 204 204 194
-0.140453 -0.256987 -0.644 226 223 204
-0.133507 -0.257785 -0.646 227 224 207
-0.122053 -0.256987 -0.644 243 241 229
-0.1074 -0.2514 -0.63 75 74 79
-0.104333 -0.249804 -0.626 75 74 79
-0.07038 -0.247809 -0.621 69 68 74
-0.0671543 -0.249006 -0.624 69 68 74
-0.0638943 -0.250203 -0.627 70 71 76
0.0967286 -0.221471 -0.555 161 119 103
0.126067 -0.243419 -0.61 107 88 94
0.32472 -0.196331 -0.492 125 93 96
0.329406 -0.196331 -0.492 123 93 95
0.339024 -0.195932 -0.491 147 122 128
0.4472 -0.207505 -0.52 133 88 82
0.47131 -0.21349 -0.535 125 82 75
-0.324732 -0.259416 -0.647 252 253 247
-0.308771 -0.257411 -0.642 252 253 248
-0.148906 -0.253803 -0.633 201 201 191
-0.146957 -0.254605 -0.635 218 215 206
-0.125343 -0.257411 -0.642 249 246 237
-0.11448 -0.255006 -0.636 171 170 168
-0.0901952 -0.244982 -0.611 74 72 83
-0.0779 -0.246586 -0.615 72 71 79
-0.0572714 -0.253803 -0.633 69 68 73
-0.0448429 -0.258614 -0.645 72 71 77
0.0883629 -0.220123 -0.549 187 144 125
0.108787 -0.230147 -0.574 124 95 89
0.112327 -0.232953 -0.581 110 86 86
0.116117 -0.236161 -0.589 107 84 90
0.126273 -0.244982 -0.611 108 91 97
0.318489 -0.204085 -0.509 79 71 82
0.317297 -0.199674 -0.498 123 98 104
0.316968 -0.198872 -0.496 126 101 107
0.417853 -0.207693 -0.518 179 121 119
0.421319 -0.20649 -0.515 157 103 91
0.430833 -0.207292 -0.517 139 90 83
0.4565 -0.2105 -0.525 137 94 88
-0.136929 -0.257426 -0.639 233 229 218
-0.125777 -0.257023 -0.638 249 245 236
-0.102833 -0.248563 -0.617 76 74 87
-0.0985029 -0.246549 -0.612 76 74 87
-0.0971781 -0.246146 -0.611 76 74 85
-0.0888857 -0.245743 -0.61 74 72 83
-0.0877238 -0.245743 -0.61 73 71 82
-0.0823171 -0.246951 -0.613 72 71 79
-0.0738095 -0.249771 -0.62 71 69 80
-0.0661771 -0.252189 -0.626 67 66 72
0.0729171 -0.218751 -0.543 205 171 162
0.131127 -0.25098 -0.623 97 99 122
0.319157 -0.199414 -0.495 125 95 97
0.345557 -0.199414 -0.495 117 88 92
0.421319 -0.207471 -0.515 165 111 99
0.427051 -0.207874 -0.516 152 100 89
0.46112 -0.212709 -0.528 132 83 79
-0.319555 -0.26269 -0.649 252 253 248
-0.307954 -0.262286 -0.648 253 254 249
-0.148451 -0.253381 -0.626 246 245 243
-0.147494 -0.253786 -0.627 245 244 242
-0.143103 -0.256619 -0.634 235 232 223
-0.14091 -0.257024 -0.635 240 237 228
-0.134073 -0.257833 -0.637 253 250 243
-0.116257 -0.253381 -0.626 77 76 81
-0.0993429 -0.246905 -0.61 76 74 85
-0.0803733 -0.249333 -0.616 72 71 79
-0.0573619 -0.256619 -0.634 69 68 74
-0.0528629 -0.258238 -0.638 67 66 74
0.07588 -0.219381 -0.542 197 160 151
0.081341 -0.22019 -0.544 199 161 148
0.0918333 -0.223024 -0.551 174 132 116
0.394333 -0.263095 -0.65 169 167 188
0.384959 -0.250548 -0.619 91 88 97
0.330607 -0.198738 -0.491 122 90 93
0.415643 -0.214119 -0.529 154 108 110
0.413524 -0.210476 -0.52 184 129 124
0.414514 -0.210476 -0.52 184 129 124
0.418206 -0.208857 -0.516 183 128 121
0.4223 -0.208452 -0.515 164 112 101
0.427051 -0.208857 -0.516 147 97 90
0.469411 -0.216143 -0.534 124 83 79
-0.158748 -0.255793 -0.629 152 153 157
-0.1254 -0.2562 -0.63 146 146 146
-0.113594 -0.25132 -0.618 74 72 83
-0.08874 -0.24766 -0.609 75 74 82
-0.0834848 -0.249287 -0.613 73 72 80
-0.0740476 -0.252947 -0.622 71 70 78
0.0668867 -0.224887 -0.553 208 175 166
0.0726486 -0.220007 -0.541 202 169 160
0.320802 -0.204147 -0.502 91 75 85
0.323783 -0.20008 -0.492 123 92 97
0.327801 -0.199673 -0.491 121 91 91
0.3486 -0.20252 -0.498 88 65 71
0.430983 -0.20984 -0.516 143 94 89
-0.15755 -0.256991 -0.629 105 109 112
-0.151997 -0.253723 -0.621 133 134 136
-0.141297 -0.255766 -0.626 221 223 220
-0.136746 -0.256174 -0.627 214 216 215
-0.121048 -0.253314 -0.62 79 77 88
-0.108638 -0.249229 -0.61 72 71 77
-0.0973762 -0.247186 -0.605 75 74 82
-0.0950714 -0.247186 -0.605 76 75 81
-0.0909105 -0.248411 -0.608 75 74 80
-0.083621 -0.250863 -0.614 74 73 81
-0.0563314 -0.259851 -0.636 70 69 75
0.38869 -0.255357 -0.625 80 69 83
0.383643 -0.251271 -0.615 86 75 89
0.334348 -0.200609 -0.491 208 181 188
0.417223 -0.210823 -0.516 184 127 118
0.44819 -0.212457 -0.52 148 101 93
0.45563 -0.214091 -0.524 135 92 86
0.4575 -0.2145 -0.525 134 90 87
-0.141351 -0.254906 -0.621 158 158 156
-0.123787 -0.252853 -0.616 64 65 70
-0.0949143 -0.247928 -0.604 77 76 82
-0.0720238 -0.256548 -0.625 72 71 77
0.0810419 -0.222478 -0.542 190 150 138
0.0984905 -0.229456 -0.559 138 104 94
0.119429 -0.246286 -0.6 106 87 93
0.12354 -0.24998 -0.609 109 87 90
0.323217 -0.202775 -0.494 120 93 100
0.32538 -0.202365 -0.493 122 91 97
0.342977 -0.202775 -0.494 119 90 92
0.434772 -0.212216 -0.517 136 88 78
0.44634 -0.213037 -0.519 142 95 87
0.45563 -0.21509 -0.524 134 91 85
0.490491 -0.226583 -0.552 130 95 91
-0.147731 -0.254851 -0.618 102 103 105
-0.146317 -0.254439 -0.617 88 88 88
-0.137867 -0.254027 -0.616 79 78 83
-0.0880114 -0.252377 -0.612 75 74 79
-0.0797143 -0.255676 -0.62 73 72 78
-0.0643019 -0.260212 -0.631 69 68 76
-0.0575429 -0.262274 -0.636 123 122 130
-0.0483781 -0.265161 -0.643 70 69 77
0.065 -0.22516 -0.546 205 172 163
0.0684 -0.222686 -0.54 205 171 162
0.0713533 -0.222273 -0.539 198 164 155
0.0788314 -0.223098 -0.541 195 157 146
0.0834133 -0.224335 -0.544 190 148 136
0.086999 -0.225572 -0.547 179 137 125
0.327801 -0.202479 -0.491 124 92 95
0.330607 -0.202479 -0.491 122 87 91
0.41624 -0.212789 -0.516 176 118 116
0.418376 -0.212376 -0.515 169 115 105
0.437727 -0.213201 -0.517 143 96 88
0.440547 -0.213613 -0.518 142 95 87
0.44252 -0.213613 -0.518 137 90 82
0.447329 -0.214026 -0.519 139 94 88
0.451037 -0.21485 -0.521 132 91 85
-0.146317 -0.255614 -0.617 100 100 102
-0.12839 -0.252714 -0.61 63 62 68
-0.114857 -0.248571 -0.6 56 57 61
-0.105538 -0.248157 -0.599 69 72 79
-0.0850667 -0.2552 -0.616 74 73 78
0.0766286 -0.223714 -0.54 196 158 149
0.0788314 -0.224129 -0.541 195 157 146
0.086999 -0.226614 -0.547 175 133 119
0.104771 -0.236143 -0.57 116 94 97
0.108256 -0.239043 -0.577 114 91 97
0.121978 -0.251471 -0.607 107 86 93
0.39621 -0.268043 -0.647 135 127 148
0.338777 -0.203829 -0.492 118 86 87
0.417395 -0.213357 -0.515 170 113 106
0.449181 -0.215429 -0.52 134 94 86
-0.142097 -0.255541 -0.614 101 102 106
-0.130071 -0.252628 -0.607 64 63 69
-0.101143 -0.249714 -0.6 75 74 80
-0.0798429 -0.258454 -0.621 74 73 79
-0.0787867 -0.25887 -0.622 74 73 79
-0.0733314 -0.260535 -0.626 73 72 78
0.0810419 -0.225575 -0.542 189 147 135
0.104955 -0.237645 -0.571 114 92 94
0.108631 -0.240974 -0.579 112 90 93
0.124149 -0.254709 -0.612 112 89 99
0.363235 -0.240142 -0.577 121 101 110
0.327922 -0.205598 -0.494 112 91 96
0.341095 -0.205598 -0.494 118 88 88
0.35727 -0.211841 -0.509 70 63 81
0.41292 -0.215587 -0.518 176 120 119
0.415077 -0.21517 -0.517 178 118 118
0.422459 -0.213922 -0.514 158 106 95
0.424417 -0.213922 -0.514 158 105 97
0.428186 -0.214338 -0.515 145 97 87
0.439696 -0.21517 -0.517 140 93 83
0.44265 -0.21517 -0.517 141 94 84
0.465763 -0.220997 -0.531 120 83 77
0.468532 -0.22183 -0.533 117 82 76
-0.121106 -0.249603 -0.597 63 62 70
-0.113517 -0.24793 -0.593 58 59 64
-0.106145 -0.249185 -0.596 69 68 74
-0.0820762 -0.259219 -0.62 74 73 79
-0.0745238 -0.261728 -0.626 73 72 78
-0.0722543 -0.262146 -0.627 73 72 78
-0.0598714 -0.26549 -0.635 135 134 142
0.090619 -0.229952 -0.55 162 118 109
0.0960162 -0.232879 -0.557 143 105 94
0.10206 -0.23706 -0.567 125 97 96
0.112369 -0.245422 -0.587 111 88 94
0.360546 -0.238732 -0.571 121 98 104
0.328967 -0.207793 -0.497 123 108 113
0.333412 -0.205285 -0.491 113 87 90
0.411137 -0.218246 -0.522 176 121 116
0.41292 -0.216573 -0.518 175 119 118
0.43211 -0.215319 -0.515 144 96 84
0.460247 -0.220336 -0.527 123 89 80
0.47131 -0.223681 -0.535 119 84 78
-0.142329 -0.2583 -0.615 102 105 110
-0.14001 -0.2562 -0.61 96 99 104
-0.127929 -0.25074 -0.597 71 72 77
-0.106145 -0.25032 -0.596 68 67 73
-0.0946952 -0.2562 -0.61 77 76 81
-0.0915086 -0.25704 -0.612 76 75 80
-0.0766629 -0.26208 -0.624 73 72 78
-0.0587543 -0.26712 -0.636 123 122 130
-0.0565086 -0.26796 -0.638 104 103 111
-0.0507486 -0.26964 -0.642 73 72 80
-0.0496029 -0.27006 -0.643 72 71 79
0.0632571 -0.2268 -0.54 205 175 165
0.0894086 -0.23058 -0.549 164 121 112
0.393147 -0.27048 -0.644 128 115 125
0.383837 -0.26082 -0.621 86 60 73
0.330471 -0.2079 -0.495 126 107 113
0.333412 -0.20622 -0.491 114 92 95
0.335283 -0.20622 -0.491 113 84 86
0.341786 -0.2079 -0.495 115 85 83
0.347143 -0.21 -0.5 72 56 59
0.417858 -0.22722 -0.541 149 110 113
0.409932 -0.21966 -0.523 181 123 119
0.411342 -0.21882 -0.521 180 121 113
0.440681 -0.21714 -0.517 147 100 90
-0.114605 -0.247658 -0.587 55 56 61
-0.0896143 -0.259471 -0.615 77 76 81
-0.0853429 -0.260737 -0.618 73 72 77
-0.0679076 -0.266222 -0.631 73 72 80
-0.0588467 -0.268753 -0.637 77 76 82
-0.0518905 -0.270441 -0.641 71 70 78
0.0731343 -0.226563 -0.537 196 159 151
0.0933886 -0.233735 -0.554 153 113 105
0.0976 -0.236267 -0.56 142 105 97
0.334348 -0.207155 -0.491 116 87 89
0.344806 -0.210109 -0.498 82 66 69
0.41035 -0.219812 -0.521 182 123 117
0.416414 -0.217281 -0.515 169 114 107
0.441666 -0.218125 -0.517 141 96 90
0.4575 -0.2215 -0.525 122 89 82
0.465763 -0.224031 -0.531 120 87 80
0.483233 -0.229938 -0.545 118 89 83
-0.0736829 -0.266576 -0.629 73 72 78
-0.0669171 -0.268271 -0.633 70 69 74
0.0921667 -0.234367 -0.553 154 111 102
0.132026 -0.268271 -0.633 100 100 136
0.391924 -0.271238 -0.64 110 88 101
0.359938 -0.244538 -0.577 90 55 62
0.36 -0.237333 -0.56 85 68 78
0.331905 -0.211905 -0.5 74 64 72
0.335029 -0.208514 -0.492 116 90 93
0.338527 -0.208938 -0.493 118 87 85
0.340154 -0.209362 -0.494 115 87 84
0.413108 -0.21911 -0.517 171 116 111
0.425396 -0.217838 -0.514 160 108 95
0.43688 -0.218686 -0.516 148 102 87
0.460247 -0.223348 -0.527 118 87 82
-0.120195 -0.249894 -0.587 68 68 76
-0.108999 -0.252449 -0.593 54 55 60
-0.0759581 -0.267349 -0.628 73 72 77
-0.0635 -0.270329 -0.635 71 70 75
-0.0588467 -0.27118 -0.637 73 72 77
0.0762029 -0.228609 -0.537 192 154 145
0.0907838 -0.234569 -0.551 157 114 107
0.10569 -0.244786 -0.575 116 95 100
0.393137 -0.275011 -0.646 129 99 111
0.387652 -0.270329 -0.635 129 99 111
0.335888 -0.215411 -0.506 69 59 68
0.336649 -0.209877 -0.493 115 88 93
0.341531 -0.211154 -0.496 110 86 84
0.409597 -0.225203 -0.529 163 115 113
0.4095 -0.2235 -0.525 171 116 113
0.415433 -0.219243 -0.515 165 110 105
-0.120195 -0.251012 -0.587 109 109 117
-0.0693286 -0.270683 -0.633 73 72 77
-0.0647095 -0.271538 -0.635 70 69 74
-0.0636 -0.271966 -0.636 72 71 76
-0.0485286 -0.275814 -0.645 68 67 73
-0.0473 -0.275814 -0.645 69 68 74
0.0647095 -0.228776 -0.535 205 171 162
0.0949552 -0.238184 -0.557 145 106 99
0.115227 -0.254861 -0.596 108 88 97
0.356973 -0.245453 -0.574 137 95 107
0.410751 -0.221934 -0.519 162 109 105
0.468532 -0.227921 -0.533 117 87 79
-0.141749 -0.269741 -0.628 119 122 127
-0.117356 -0.250842 -0.584 121 124 131
-0.106323 -0.256426 -0.597 58 59 64
-0.105538 -0.257285 -0.599 58 59 64
-0.0973371 -0.262869 -0.612 69 68 74
-0.0900514 -0.265446 -0.618 76 75 83
-0.0857571 -0.266734 -0.621 75 74 82
-0.0845743 -0.266734 -0.621 76 75 80
-0.0814171 -0.268023 -0.624 75 74 80
-0.0438848 -0.278761 -0.649 71 70 76
0.0696743 -0.229366 -0.534 201 162 155
0.0718429 -0.229795 -0.535 200 161 154
0.0921667 -0.237527 -0.553 150 107 100
0.109757 -0.251271 -0.585 110 90 99
0.11542 -0.256426 -0.597 108 88 99
0.125771 -0.266305 -0.62 99 95 112
0.127976 -0.268452 -0.625 115 111 128
0.361014 -0.238386 -0.555 87 67 78
0.409149 -0.224211 -0.522 174 118 117
0.41174 -0.222923 -0.519 165 112 108
0.413108 -0.222064 -0.517 163 108 103
0.415257 -0.221634 -0.516 166 111 106
0.417395 -0.221205 -0.515 166 111 106
0.444493 -0.222493 -0.518 121 87 75
-0.0974962 -0.264466 -0.613 66 65 70
-0.0944533 -0.26576 -0.616 73 72 80
-0.0649133 -0.27482 -0.637 70 69 74
-0.0532771 -0.277409 -0.643 70 69 75
0.0668533 -0.27784 -0.644 209 178 176
0.0654829 -0.229951 -0.533 205 168 162
0.0706914 -0.230383 -0.534 199 160 155
0.0907838 -0.237717 -0.551 152 112 104
0.0951257 -0.240737 -0.558 142 105 97
0.128181 -0.270074 -0.626 117 115 137
0.337729 -0.217009 -0.503 57 47 55
0.338697 -0.213989 -0.496 111 87 87
0.40859 -0.228226 -0.529 166 115 111
0.41624 -0.222617 -0.516 164 109 104
0.430148 -0.222186 -0.515 152 103 89
0.452897 -0.225206 -0.522 124 87 78
-0.129714 -0.26 -0.6 118 121 128
-0.119376 -0.252633 -0.583 114 117 122
-0.114934 -0.252633 -0.583 108 111 118
-0.10728 -0.258267 -0.596 60 61 66
-0.0913762 -0.268233 -0.619 74 73 79
-0.08694 -0.2691 -0.621 76 75 83
-0.08366 -0.269967 -0.623 74 75 80
-0.0672343 -0.2756 -0.636 72 71 76
-0.0474467 -0.280367 -0.647 68 69 73
0.0624371 -0.230967 -0.533 207 174 169
0.0831067 -0.234867 -0.542 172 132 120
0.116 -0.26 -0.6 106 90 103
0.117924 -0.261733 -0.604 107 89 101
0.370414 -0.2613 -0.603 150 104 114
0.410751 -0.2249 -0.519 167 112 107
0.423438 -0.222733 -0.514 161 109 96
0.428333 -0.222733 -0.514 159 104 97
-0.12376 -0.25592 -0.588 115 118 125
-0.122014 -0.254614 -0.585 117 120 127
-0.106679 -0.260708 -0.599 62 61 67
-0.103479 -0.26419 -0.607 60 59 65
-0.10266 -0.26506 -0.609 61 60 66
-0.0979733 -0.268107 -0.616 63 62 67
-0.08708 -0.270718 -0.622 75 74 82
-0.0509857 -0.280729 -0.645 70 69 75
-0.045121 -0.28247 -0.649 69 70 75
0.0593914 -0.231982 -0.533 209 176 171
0.0633333 -0.231547 -0.532 203 168 162
0.135968 -0.281164 -0.646 141 146 184
0.353076 -0.246345 -0.566 148 104 119
0.357198 -0.241122 -0.554 79 54 57
0.341157 -0.218054 -0.501 102 90 92
0.416717 -0.238946 -0.549 133 103 103
0.424417 -0.223712 -0.514 163 108 103
0.439829 -0.224583 -0.516 127 88 73
-0.102 -0.267531 -0.612 60 59 65
-0.0818086 -0.274089 -0.627 75 74 82
-0.062781 -0.279771 -0.64 71 70 76
-0.0592162 -0.280209 -0.641 72 71 77
0.0602933 -0.23256 -0.532 210 175 171
0.0895714 -0.240429 -0.55 148 113 107
0.105141 -0.252669 -0.578 118 93 97
0.361561 -0.240866 -0.551 97 80 86
0.406333 -0.231686 -0.53 164 111 105
0.40794 -0.228626 -0.523 163 110 104
0.439829 -0.225566 -0.516 134 92 80
0.447329 -0.226877 -0.519 127 87 75
0.482347 -0.237806 -0.544 122 84 73
-0.109183 -0.260794 -0.594 67 68 72
-0.108415 -0.261672 -0.596 66 67 71
-0.0849829 -0.273966 -0.624 74 73 81
-0.0534429 -0.283186 -0.645 71 70 76
-0.048679 -0.284064 -0.647 69 70 75
0.06018 -0.233134 -0.531 209 174 168
0.0620857 -0.232695 -0.53 205 170 164
0.0642257 -0.233134 -0.531 202 168 159
0.0938943 -0.24455 -0.557 132 106 107
0.13144 -0.279234 -0.636 123 135 175
0.351904 -0.245428 -0.559 145 102 111
0.345526 -0.222158 -0.506 132 119 128
0.408365 -0.228744 -0.521 163 108 103
0.411933 -0.227427 -0.518 164 109 102
0.414092 -0.226988 -0.517 160 105 98
0.415077 -0.226988 -0.517 160 105 98
0.417223 -0.226549 -0.516 158 103 96
0.449181 -0.228305 -0.52 132 90 78
-0.133474 -0.269863 -0.612 113 113 121
-0.118967 -0.256193 -0.581 107 110 115
-0.113824 -0.257075 -0.583 87 91 94
-0.0941886 -0.274272 -0.622 66 65 71
-0.065219 -0.28221 -0.64 71 70 76
0.0737429 -0.235469 -0.534 189 147 135
0.361294 -0.242083 -0.549 74 53 58
0.348257 -0.224886 -0.51 140 127 136
0.4048 -0.232823 -0.528 164 110 100
0.408365 -0.229736 -0.521 162 107 102
0.411933 -0.228413 -0.518 163 108 103
0.414092 -0.227972 -0.517 156 101 94
0.418376 -0.22709 -0.515 159 104 97
0.42066 -0.226209 -0.513 161 106 99
0.490652 -0.242965 -0.551 125 88 80
-0.0875 -0.276786 -0.625 70 69 75
-0.0830029 -0.277671 -0.627 71 71 79
0.054621 -0.237371 -0.536 208 178 170
0.060961 -0.234271 -0.529 207 173 164
0.0641048 -0.234714 -0.53 201 167 158
0.105505 -0.256857 -0.58 120 95 101
0.123011 -0.273686 -0.618 109 98 114
0.127191 -0.277671 -0.627 115 124 165
0.351922 -0.245343 -0.554 150 104 117
0.354373 -0.242686 -0.548 134 89 94
0.358543 -0.236486 -0.534 75 60 67
0.350989 -0.227629 -0.514 116 103 110
0.407553 -0.239586 -0.541 145 101 102
0.405948 -0.231614 -0.523 161 108 102
0.412123 -0.228957 -0.517 159 104 99
0.414092 -0.228957 -0.517 158 103 98
0.420501 -0.227629 -0.514 160 105 100
0.429312 -0.227629 -0.514 149 99 90
0.490652 -0.244014 -0.551 125 88 80
-0.123129 -0.260186 -0.585 104 107 112
-0.114737 -0.258851 -0.582 87 91 94
-0.112177 -0.26063 -0.586 68 69 74
-0.110508 -0.261965 -0.589 82 83 88
-0.106595 -0.269081 -0.605 71 70 76
-0.105791 -0.26997 -0.607 68 67 73
-0.10498 -0.27086 -0.609 65 64 70
-0.103503 -0.273084 -0.614 62 59 66
-0.0987686 -0.276197 -0.621 58 57 62
-0.0820695 -0.279755 -0.629 72 72 80
0.0544171 -0.237503 -0.534 207 177 169
0.0661238 -0.235724 -0.53 202 165 157
0.086999 -0.243285 -0.547 154 115 108
0.0926667 -0.247288 -0.556 134 103 101
0.0940629 -0.248177 -0.558 128 102 105
0.102227 -0.255293 -0.574 122 95 102
0.351476 -0.244619 -0.55 155 105 117
0.354095 -0.231276 -0.52 176 163 170
0.404728 -0.233055 -0.524 160 107 101
0.408365 -0.231721 -0.521 158 105 99
0.417395 -0.229052 -0.515 157 102 97
0.423438 -0.228608 -0.514 159 104 99
0.447329 -0.230831 -0.519 134 92 78
0.474094 -0.238837 -0.537 123 86 77
-0.144133 -0.287653 -0.644 107 110 115
-0.112907 -0.260853 -0.584 64 63 69
-0.108 -0.268 -0.6 76 75 81
-0.0510648 -0.288547 -0.646 70 69 77
0.0639838 -0.236287 -0.529 201 167 158
0.0819229 -0.241647 -0.541 167 123 112
0.0844495 -0.242987 -0.544 159 116 109
0.0885238 -0.245667 -0.55 145 110 106
0.132267 -0.285867 -0.64 107 121 168
0.352767 -0.248793 -0.557 150 107 117
0.360151 -0.241647 -0.541 56 30 33
0.408365 -0.232713 -0.521 160 107 101
0.410552 -0.232267 -0.52 159 106 100
0.41174 -0.23182 -0.519 157 104 98
0.413108 -0.230927 -0.517 157 102 99
0.417395 -0.230033 -0.515 156 101 98
0.462126 -0.23584 -0.528 126 86 76
-0.108779 -0.268246 -0.598 80 79 84
-0.0990867 -0.27946 -0.623 59 58 64
-0.0968686 -0.279909 -0.624 58 57 63
-0.0901686 -0.281254 -0.627 64 63 69
-0.0811286 -0.283049 -0.631 73 72 80
-0.0687686 -0.286637 -0.639 73 72 80
0.0692829 -0.238191 -0.531 188 148 138
0.0819229 -0.242677 -0.541 167 123 114
0.0858 -0.24492 -0.546 154 115 110
0.1278 -0.2826 -0.63 108 123 178
0.356311 -0.243574 -0.543 122 81 77
0.35772 -0.243126 -0.542 116 75 71
0.360204 -0.241331 -0.538 57 26 32
0.404951 -0.234603 -0.523 156 103 99
0.40716 -0.234154 -0.522 153 100 96
0.409357 -0.233706 -0.521 159 106 100
0.43688 -0.231463 -0.516 143 94 87
-0.146037 -0.291458 -0.647 104 107 112
-0.130147 -0.271187 -0.602 98 101 108
-0.116351 -0.260826 -0.579 92 93 98
-0.11454 -0.261727 -0.581 77 78 83
-0.110695 -0.265781 -0.59 89 88 94
-0.0901686 -0.282449 -0.627 63 62 68
-0.0891162 -0.282899 -0.628 65 64 70
-0.0846 -0.2838 -0.63 68 67 75
-0.0834 -0.2838 -0.63 69 68 76
-0.0676571 -0.288305 -0.64 73 72 77
-0.0605314 -0.289206 -0.642 71 70 76
0.0649914 -0.238302 -0.529 209 172 166
0.0724533 -0.239653 -0.532 188 151 135
0.07476 -0.240554 -0.534 180 136 127
0.0944 -0.252267 -0.56 130 99 104
0.35204 -0.24596 -0.546 148 108 117
0.400773 -0.239653 -0.532 159 104 97
0.407372 -0.234698 -0.521 153 100 96
0.41624 -0.232446 -0.516 150 95 90
0.464009 -0.238302 -0.529 119 79 71
0.470429 -0.240554 -0.534 123 83 75
0.488871 -0.247311 -0.549 122 83 76
-0.0903124 -0.284095 -0.628 61 60 66
-0.0846 -0.285 -0.63 67 66 72
-0.0778914 -0.28681 -0.634 71 70 76
-0.0642 -0.290429 -0.642 73 72 77
-0.05704 -0.291333 -0.644 71 70 76
0.0759191 -0.242024 -0.535 175 133 121
0.0820743 -0.24519 -0.542 166 123 114
0.0834133 -0.246095 -0.544 159 118 112
0.0873171 -0.248357 -0.549 141 106 104
0.0886848 -0.249262 -0.551 134 104 104
0.132887 -0.290881 -0.643 64 86 146
0.359886 -0.242476 -0.536 77 43 44
0.408365 -0.23569 -0.521 153 100 96
0.420338 -0.232976 -0.515 161 106 101
0.422459 -0.232524 -0.514 157 104 98
0.424417 -0.232524 -0.514 156 103 97
0.430148 -0.232976 -0.515 153 101 90
-0.102811 -0.283474 -0.624 68 67 72
-0.0858 -0.2862 -0.63 65 64 70
-0.0642 -0.291651 -0.642 73 72 77
0.06688 -0.239863 -0.528 200 163 155
0.0701619 -0.240771 -0.53 189 153 141
0.112196 -0.271663 -0.598 113 91 94
0.352558 -0.246223 -0.542 135 89 92
0.35359 -0.246223 -0.542 134 88 91
0.397466 -0.242134 -0.533 145 99 99
0.401263 -0.238954 -0.526 157 108 101
0.41174 -0.235774 -0.519 150 97 91
0.420338 -0.233957 -0.515 159 106 98
0.425396 -0.233503 -0.514 156 103 95
0.426375 -0.233503 -0.514 155 102 94
0.43688 -0.234411 -0.516 145 97 85
1.13377 -0.290289 -0.639 207 209 195
-0.116351 -0.264134 -0.579 87 88 93
-0.10854 -0.275083 -0.603 86 85 93
-0.079099 -0.289225 -0.634 70 69 74
0.0586114 -0.239956 -0.526 203 170 163
0.063621 -0.239956 -0.526 202 167 163
0.354889 -0.254098 -0.557 146 100 110
0.361252 -0.244062 -0.535 80 54 55
0.458971 -0.291962 -0.64 137 128 145
0.402731 -0.239044 -0.524 153 103 96
0.407372 -0.237675 -0.521 146 96 89
0.426375 -0.234482 -0.514 153 103 92
0.428333 -0.234482 -0.514 156 104 93
0.439829 -0.235394 -0.516 141 91 82
0.4585 -0.2395 -0.525 128 85 78
0.480573 -0.247255 -0.542 126 87 80
-0.142119 -0.29089 -0.635 97 100 107
-0.13173 -0.27669 -0.604 96 96 104
-0.12403 -0.267528 -0.584 94 94 102
-0.11454 -0.266153 -0.581 74 74 82
-0.113824 -0.26707 -0.583 69 68 76
-0.103141 -0.286768 -0.626 72 71 76
-0.0666457 -0.294097 -0.642 73 72 77
-0.0630752 -0.294555 -0.643 71 70 76
0.0545 -0.2405 -0.525 203 169 160
0.352174 -0.248746 -0.543 139 88 93
0.370451 -0.246455 -0.538 70 54 64
0.397095 -0.246455 -0.538 125 85 93
0.4025 -0.2405 -0.525 153 104 99
0.41292 -0.237293 -0.518 150 100 89
0.415257 -0.236377 -0.516 152 100 87
0.423438 -0.235461 -0.514 155 105 94
0.427205 -0.235919 -0.515 153 103 92
0.437863 -0.236377 -0.516 144 96 84
0.44548 -0.237293 -0.518 137 89 79
-0.13486 -0.28198 -0.613 96 96 104
-0.120763 -0.26634 -0.579 94 94 102
-0.119453 -0.26588 -0.578 92 93 98
-0.108104 -0.27922 -0.607 90 89 95
-0.0769257 -0.29256 -0.636 69 68 74
0.0553943 -0.24104 -0.524 205 168 160
0.0861143 -0.25208 -0.548 141 107 105
0.0980848 -0.26174 -0.569 119 97 99
0.112571 -0.276 -0.6 114 94 96
0.114472 -0.27784 -0.604 113 93 95
0.353165 -0.25346 -0.551 143 97 99
0.398257 -0.24196 -0.526 154 103 99
0.41174 -0.23874 -0.519 149 97 86
0.414092 -0.23782 -0.517 151 99 86
0.428186 -0.2369 -0.515 156 106 95
0.430148 -0.2369 -0.515 148 98 87
0.457627 -0.24104 -0.524 128 88 80
0.476002 -0.24748 -0.538 121 84 76
-0.1014 -0.291 -0.63 68 69 73
0.0484952 -0.247581 -0.536 207 173 164
0.0736048 -0.246195 -0.533 169 131 122
0.35956 -0.246657 -0.534 146 97 103
0.36431 -0.247119 -0.535 127 96 101
0.365329 -0.247119 -0.535 110 79 84
0.394021 -0.248505 -0.538 133 92 96
0.409357 -0.240652 -0.521 148 98 89
0.41035 -0.240652 -0.521 151 98 90
0.410751 -0.239729 -0.519 148 95 87
0.417395 -0.237881 -0.515 152 100 89
0.418376 -0.237881 -0.515 152 100 89
0.419522 -0.237419 -0.514 152 100 89
-0.130857 -0.278286 -0.6 96 96 104
-0.110314 -0.275503 -0.594 101 100 108
-0.1026 -0.2922 -0.63 71 75 78
-0.0862086 -0.293591 -0.633 54 53 59
-0.0758333 -0.295447 -0.637 70 69 75
0.063379 -0.243036 -0.524 200 165 161
0.0688914 -0.244891 -0.528 189 151 138
0.07476 -0.247674 -0.534 167 128 121
0.101662 -0.267618 -0.577 118 96 99
0.11658 -0.28246 -0.609 113 96 102
0.118513 -0.284315 -0.613 114 97 103
0.358506 -0.260197 -0.561 144 93 102
0.359214 -0.248138 -0.535 146 104 106
0.365329 -0.248138 -0.535 143 107 111
0.400735 -0.243036 -0.524 148 97 93
0.401733 -0.243036 -0.524 148 97 93
0.414092 -0.23979 -0.517 150 97 89
0.41624 -0.239326 -0.516 151 98 90
0.443635 -0.23979 -0.517 136 89 79
0.447329 -0.240717 -0.519 127 89 80
0.448317 -0.240717 -0.519 125 87 78
0.449306 -0.240717 -0.519 125 87 78
0.453022 -0.241645 -0.521 124 86 75
0.487981 -0.254168 -0.548 127 90 81
-0.13398 -0.28362 -0.609 94 97 104
-0.105189 -0.290606 -0.624 82 81 87
-0.0874143 -0.294797 -0.633 52 51 57
-0.0828524 -0.295729 -0.635 61 60 66
0.0495943 -0.244966 -0.526 204 169 163
0.0592733 -0.243569 -0.523 205 171 162
0.0759191 -0.249157 -0.535 165 122 115
0.1053 -0.272443 -0.585 118 95 101
0.35333 -0.255211 -0.548 145 94 99
0.353687 -0.25102 -0.539 140 89 94
0.365329 -0.249157 -0.535 152 111 115
0.389627 -0.24776 -0.532 131 94 88
0.401963 -0.243569 -0.523 149 100 95
0.420338 -0.239843 -0.515 153 103 94
0.420501 -0.239377 -0.514 153 103 94
0.426224 -0.239843 -0.515 144 96 84
0.43211 -0.239843 -0.515 150 100 89
-0.125357 -0.273557 -0.585 96 99 106
0.0622619 -0.244565 -0.523 200 163 155
0.063379 -0.245032 -0.524 199 162 154
0.0677571 -0.246435 -0.527 186 149 141
0.0952429 -0.264205 -0.565 120 97 105
0.353727 -0.255788 -0.547 139 88 95
0.361594 -0.249709 -0.534 149 106 113
0.372137 -0.250644 -0.536 137 98 101
0.379029 -0.252514 -0.54 131 91 92
0.388897 -0.251579 -0.538 133 93 93
0.38804 -0.249709 -0.534 138 98 96
0.409357 -0.24363 -0.521 148 98 91
0.41174 -0.242694 -0.519 149 100 93
0.414092 -0.241759 -0.517 156 103 95
0.42148 -0.240356 -0.514 153 103 96
0.422459 -0.240356 -0.514 155 105 98
-0.137137 -0.290166 -0.618 95 98 105
-0.11454 -0.272793 -0.581 69 69 77
-0.0794733 -0.299087 -0.637 64 63 69
-0.0783829 -0.299556 -0.638 67 66 72
0.0469429 -0.248848 -0.53 210 175 169
0.0513038 -0.245561 -0.523 204 169 163
0.0541886 -0.245091 -0.522 207 172 166
0.0580543 -0.244622 -0.521 206 172 163
0.05916 -0.245091 -0.522 203 169 160
0.0677571 -0.247439 -0.527 184 147 141
0.0822257 -0.254951 -0.543 140 108 109
0.353969 -0.254012 -0.541 136 87 91
0.355371 -0.253543 -0.54 136 87 91
0.387152 -0.248848 -0.53 139 98 96
0.3895 -0.2465 -0.525 139 93 93
0.402189 -0.245091 -0.522 148 99 94
0.409562 -0.244152 -0.52 145 95 88
0.409763 -0.243683 -0.519 145 95 88
0.437995 -0.241805 -0.515 143 95 83
0.446467 -0.243213 -0.518 127 89 78
0.462254 -0.247439 -0.527 127 89 78
-0.122969 -0.272957 -0.579 101 101 109
-0.118833 -0.271071 -0.575 101 101 109
-0.112907 -0.275314 -0.584 103 102 108
-0.109734 -0.281443 -0.597 109 108 114
-0.0840619 -0.299357 -0.635 50 49 55
-0.0783829 -0.300771 -0.638 67 66 72
-0.0748543 -0.301243 -0.639 69 68 74
0.0522 -0.246086 -0.522 201 166 160
0.0550771 -0.245614 -0.521 205 170 164
0.0877943 -0.260229 -0.552 134 105 109
0.35451 -0.256929 -0.545 142 93 99
0.359214 -0.252214 -0.535 152 103 106
0.362271 -0.252214 -0.535 152 107 112
0.364646 -0.251743 -0.534 151 106 111
0.368714 -0.251743 -0.534 149 104 107
0.370749 -0.251743 -0.534 143 101 105
0.3745 -0.252214 -0.535 142 100 102
0.382954 -0.251743 -0.534 134 92 94
0.40638 -0.245614 -0.521 149 100 95
0.410751 -0.244671 -0.519 152 102 95
0.415077 -0.243729 -0.517 153 105 95
0.428186 -0.242786 -0.515 153 103 92
0.471446 -0.251743 -0.534 126 88 79
0.491702 -0.259757 -0.551 128 90 81
-0.129767 -0.281633 -0.595 98 101 108
-0.112907 -0.276427 -0.584 108 107 113
-0.09752 -0.30104 -0.636 54 55 59
0.0450933 -0.251813 -0.532 207 174 167
0.0512057 -0.24708 -0.522 204 169 163
0.0723171 -0.25134 -0.531 166 129 123
0.10219 -0.274533 -0.58 119 97 110
0.116963 -0.289207 -0.611 116 96 105
0.128611 -0.300093 -0.634 159 162 197
0.35451 -0.257967 -0.545 142 93 99
0.362271 -0.253233 -0.535 150 105 108
0.367009 -0.252287 -0.533 149 105 106
0.374817 -0.25276 -0.534 143 98 101
0.377161 -0.252287 -0.533 138 96 98
0.416062 -0.244713 -0.517 151 103 93
0.427205 -0.243767 -0.515 158 108 97
0.438976 -0.243767 -0.515 144 96 86
0.44462 -0.244713 -0.517 134 87 77
0.465016 -0.250393 -0.529 129 91 82
0.4862 -0.25844 -0.546 130 92 83
-0.136471 -0.292271 -0.615 97 100 107
-0.120346 -0.274212 -0.577 104 104 112
-0.112907 -0.277539 -0.584 116 115 123
-0.09752 -0.302251 -0.636 54 55 59
-0.0963086 -0.302251 -0.636 49 50 54
-0.0950971 -0.302251 -0.636 47 48 52
0.0492171 -0.248074 -0.522 207 172 166
0.0610314 -0.247599 -0.521 200 166 157
0.0759191 -0.254252 -0.535 150 115 113
0.0908743 -0.265183 -0.558 123 100 110
0.356767 -0.256153 -0.539 140 91 94
0.359886 -0.254728 -0.536 152 103 106
0.363629 -0.253777 -0.534 149 104 107
0.364646 -0.253777 -0.534 151 106 109
0.364978 -0.253302 -0.533 150 106 107
0.379369 -0.251401 -0.529 139 97 98
0.380663 -0.250926 -0.528 142 98 99
0.381669 -0.250926 -0.528 141 97 98
0.392997 -0.24855 -0.523 151 103 101
0.4056 -0.247124 -0.52 151 102 97
0.418206 -0.245223 -0.516 152 104 94
0.428186 -0.244748 -0.515 152 102 91
0.437995 -0.244748 -0.515 145 96 89
0.44462 -0.245698 -0.517 135 88 80
0.456753 -0.24855 -0.523 126 88 77
-0.117943 -0.274834 -0.576 109 109 117
-0.110686 -0.284377 -0.596 113 112 120
-0.0851371 -0.302509 -0.634 47 48 53
0.0464114 -0.250023 -0.524 210 177 170
0.053981 -0.248114 -0.52 208 173 167
0.0676286 -0.250977 -0.526 179 142 136
0.0698971 -0.251931 -0.528 173 136 130
0.0783943 -0.256703 -0.538 148 114 115
0.355931 -0.259566 -0.544 140 91 95
0.37878 -0.253363 -0.531 141 99 101
0.380946 -0.251454 -0.527 142 98 97
0.388016 -0.249546 -0.523 144 100 99
0.391005 -0.249546 -0.523 146 101 98
0.4056 -0.248114 -0.52 155 107 97
0.421154 -0.246206 -0.516 149 99 90
0.424103 -0.246206 -0.516 151 101 92
0.425086 -0.246206 -0.516 157 107 98
0.484419 -0.259566 -0.544 127 89 78
-0.11595 -0.27641 -0.577 95 95 105
-0.112177 -0.280722 -0.586 209 208 213
-0.111258 -0.284075 -0.593 137 136 142
0.0431476 -0.255332 -0.533 208 175 168
0.0620238 -0.249584 -0.521 195 160 154
0.129017 -0.304674 -0.636 164 167 200
0.358004 -0.260602 -0.544 136 87 91
0.36431 -0.25629 -0.535 146 102 99
0.365663 -0.255811 -0.534 150 106 105
0.370373 -0.254853 -0.532 146 102 99
0.373723 -0.254374 -0.531 147 105 106
0.377057 -0.253895 -0.53 142 100 101
0.383229 -0.251979 -0.526 143 99 98
0.402629 -0.249105 -0.52 155 107 95
0.414092 -0.247668 -0.517 157 109 97
0.431966 -0.247189 -0.516 148 100 90
0.435897 -0.247189 -0.516 146 99 89
0.472463 -0.255811 -0.534 122 84 75
0.475253 -0.25677 -0.536 122 84 75
0.483529 -0.260123 -0.543 126 88 79
-0.127552 -0.283762 -0.59 107 110 117
0.0519 -0.249614 -0.519 203 170 163
0.094 -0.271257 -0.564 120 99 104
0.359592 -0.263562 -0.548 135 86 90
0.36431 -0.25731 -0.535 147 102 99
0.382227 -0.252981 -0.526 148 103 100
0.398667 -0.250095 -0.52 156 108 98
0.399657 -0.250095 -0.52 160 110 101
0.401854 -0.249614 -0.519 156 106 95
0.411933 -0.249133 -0.518 160 112 100
0.4605 -0.2525 -0.525 129 89 81
-0.127769 -0.285369 -0.591 106 109 116
-0.108231 -0.299854 -0.621 99 100 102
-0.104624 -0.306614 -0.635 95 96 100
0.0480381 -0.251086 -0.52 203 168 162
0.0508133 -0.25012 -0.518 204 169 163
0.07854 -0.26026 -0.539 143 112 117
0.0865857 -0.266054 -0.551 126 103 111
0.1062 -0.284886 -0.59 114 98 109
0.113697 -0.292611 -0.606 108 91 99
0.11561 -0.294543 -0.61 114 97 105
0.362062 -0.264123 -0.547 129 83 86
0.362571 -0.260743 -0.54 144 98 100
0.3636 -0.260743 -0.54 145 97 97
0.363953 -0.26026 -0.539 146 98 98
0.369039 -0.257363 -0.533 147 102 97
0.3717 -0.256397 -0.531 145 101 98
0.390502 -0.251569 -0.521 147 100 94
0.399877 -0.250603 -0.519 161 111 104
0.401854 -0.250603 -0.519 156 106 97
0.405809 -0.250603 -0.519 159 109 100
0.406797 -0.250603 -0.519 158 108 99
0.410947 -0.25012 -0.518 163 115 103
0.428186 -0.248671 -0.515 152 102 91
0.430983 -0.249154 -0.516 152 104 92
0.0567333 -0.251107 -0.518 200 166 156
0.068761 -0.25547 -0.527 170 132 129
0.0925962 -0.272436 -0.562 118 98 109
0.36498 -0.268073 -0.553 130 80 91
0.36498 -0.261287 -0.539 143 100 94
0.38702 -0.25353 -0.523 150 102 98
0.401854 -0.251591 -0.519 157 107 100
0.405809 -0.251591 -0.519 158 109 102
0.420171 -0.250137 -0.516 148 100 88
0.421154 -0.250137 -0.516 148 100 88
0.454014 -0.252561 -0.521 125 82 75
-0.125143 -0.284213 -0.584 104 104 112
-0.123393 -0.282753 -0.581 103 103 111
-0.121866 -0.28178 -0.579 105 105 113
-0.11016 -0.29784 -0.612 189 192 185
0.0431686 -0.253553 -0.521 208 174 165
0.0536695 -0.251607 -0.517 205 168 160
0.0630162 -0.253553 -0.521 187 150 144
0.0975124 -0.278373 -0.572 116 98 114
0.10638 -0.28762 -0.591 114 98 109
0.125002 -0.305627 -0.628 162 167 196
0.127203 -0.30806 -0.633 167 175 211
0.36762 -0.271073 -0.557 127 80 88
0.36562 -0.26426 -0.543 139 95 92
0.365657 -0.2628 -0.54 141 98 92
0.375038 -0.257933 -0.53 143 98 93
0.396911 -0.25258 -0.519 158 109 102
0.402843 -0.25258 -0.519 157 108 101
0.428034 -0.25112 -0.516 152 104 92
0.453022 -0.253553 -0.521 128 85 76
0.472593 -0.259393 -0.533 132 89 80
0.603571 -0.316333 -0.65 189 196 222
-0.11904 -0.281417 -0.576 100 100 108
-0.115448 -0.283371 -0.58 80 80 90
-0.111021 -0.295097 -0.604 221 221 221
-0.106537 -0.308777 -0.632 157 159 158
0.0430857 -0.254057 -0.52 209 175 166
0.0439914 -0.253569 -0.519 206 172 163
0.055639 -0.252591 -0.517 203 166 158
0.0587067 -0.25308 -0.518 198 161 153
0.0721809 -0.258943 -0.53 158 118 118
0.0772257 -0.262363 -0.537 144 108 108
0.0825286 -0.266271 -0.545 133 102 107
0.0945 -0.27702 -0.567 118 98 109
0.119093 -0.30096 -0.616 105 102 121
0.366967 -0.266271 -0.545 140 96 93
0.37693 -0.257477 -0.527 145 100 95
0.378938 -0.257477 -0.527 145 100 95
0.384031 -0.255523 -0.523 153 106 100
0.390502 -0.254546 -0.521 149 102 96
0.399877 -0.253569 -0.519 159 110 105
0.409169 -0.252591 -0.517 160 110 99
0.456874 -0.255034 -0.522 129 86 77
0.601095 -0.317571 -0.65 128 146 182
-0.132602 -0.29821 -0.608 91 94 101
-0.122076 -0.284476 -0.58 95 95 105
0.0772257 -0.263386 -0.537 145 109 109
0.116963 -0.299681 -0.611 110 96 109
0.416619 -0.31881 -0.65 183 179 194
0.370247 -0.271233 -0.553 134 90 87
0.3724 -0.260933 -0.532 144 96 92
0.373019 -0.259952 -0.53 142 97 91
0.3805 -0.2575 -0.525 149 101 97
0.385286 -0.256029 -0.522 151 104 98
0.390502 -0.255538 -0.521 150 101 96
0.392724 -0.255048 -0.52 156 107 102
0.393714 -0.255048 -0.52 156 107 102
0.399877 -0.254557 -0.519 159 110 105
0.419016 -0.253576 -0.517 151 103 91
0.427051 -0.253086 -0.516 154 104 93
0.434914 -0.253086 -0.516 148 100 88
0.471707 -0.260933 -0.532 129 86 79
0.603879 -0.318319 -0.649 148 166 204
-0.111205 -0.29789 -0.605 230 229 235
-0.109767 -0.306753 -0.623 207 207 205
-0.0872762 -0.311185 -0.632 34 32 43
0.0535657 -0.254069 -0.516 204 167 159
0.0734667 -0.261947 -0.532 154 118 122
0.07854 -0.265393 -0.539 143 108 112
0.0811914 -0.267363 -0.543 135 104 110
0.0898114 -0.274749 -0.558 122 99 107
0.0962543 -0.28115 -0.571 120 99 106
0.117154 -0.301337 -0.612 107 93 108
0.370113 -0.265393 -0.539 138 94 91
0.387274 -0.257023 -0.522 150 101 94
0.394934 -0.255546 -0.519 157 107 100
0.400093 -0.255053 -0.518 158 108 99
0.447453 -0.255053 -0.518 122 79 72
0.479076 -0.264901 -0.538 127 87 79
-0.127714 -0.294594 -0.596 83 86 93
-0.0908876 -0.312389 -0.632 31 31 39
-0.0871381 -0.311894 -0.631 32 31 37
0.0466857 -0.255051 -0.516 209 172 164
0.0565143 -0.255051 -0.516 193 159 150
0.07476 -0.263949 -0.534 147 112 118
0.085381 -0.271857 -0.55 129 102 111
0.255667 -0.321286 -0.65 142 154 196
0.261857 -0.321286 -0.65 147 161 206
0.371474 -0.268891 -0.544 135 91 90
0.371809 -0.265431 -0.537 137 92 89
0.374427 -0.26296 -0.532 146 98 94
0.389263 -0.258017 -0.522 150 101 94
0.435052 -0.254557 -0.515 145 97 85
0.44844 -0.25604 -0.518 123 80 71
0.463381 -0.259994 -0.526 132 89 80
1.1262 -0.309423 -0.626 201 201 189
1.1256 -0.308929 -0.625 205 205 193
1.12498 -0.308434 -0.624 203 207 192
-0.138912 -0.310615 -0.626 85 85 95
-0.0895419 -0.313096 -0.631 34 35 40
0.0494419 -0.255042 -0.514 207 170 162
0.0662467 -0.259508 -0.523 168 130 127
0.202117 -0.322028 -0.649 104 125 182
0.254037 -0.322028 -0.649 151 163 205
0.419095 -0.322524 -0.65 161 163 184
0.375746 -0.263477 -0.531 147 98 94
0.37693 -0.261492 -0.527 148 99 95
0.38277 -0.260004 -0.524 152 103 98
0.386024 -0.259508 -0.523 149 100 95
0.391733 -0.258019 -0.52 153 103 96
0.39812 -0.257027 -0.518 160 110 99
0.402067 -0.257027 -0.518 161 111 100
0.40523 -0.25653 -0.517 162 113 99
0.407394 -0.256034 -0.516 157 108 94
0.410343 -0.256034 -0.516 159 110 95
0.41624 -0.256034 -0.516 155 106 92
0.42394 -0.25653 -0.517 154 106 92
0.5013 -0.276378 -0.557 133 100 95
1.12501 -0.310615 -0.626 201 203 189
0.0367086 -0.262994 -0.528 203 167 155
0.0436524 -0.256519 -0.515 207 170 161
0.05848 -0.257017 -0.516 190 151 144
0.117346 -0.305332 -0.613 113 100 120
0.1254 -0.3138 -0.63 129 141 183
0.201806 -0.322766 -0.648 87 112 176
0.253646 -0.322766 -0.648 173 186 228
0.266399 -0.323264 -0.649 193 205 245
0.376937 -0.274949 -0.552 133 89 88
0.390743 -0.25901 -0.52 153 103 96
0.399107 -0.258013 -0.518 161 111 100
0.434914 -0.257017 -0.516 145 99 86
0.44659 -0.257515 -0.517 128 86 74
0.484703 -0.269968 -0.542 130 87 78
0.48932 -0.27196 -0.546 131 88 79
-0.116954 -0.291 -0.582 73 73 81
0.0371429 -0.26 -0.52 209 172 163
0.03806 -0.2595 -0.519 212 172 164
0.0573857 -0.2575 -0.515 192 153 146
0.10692 -0.297 -0.594 117 95 107
0.123214 -0.3125 -0.625 144 157 202
0.197172 -0.3245 -0.649 80 104 168
0.276289 -0.3245 -0.649 240 245 255
0.296068 -0.3245 -0.649 252 253 255
0.313374 -0.3245 -0.649 216 224 247
0.420333 -0.325 -0.65 157 167 202
0.425086 -0.258 -0.516 161 109 96
1.1244 -0.3125 -0.625 201 204 187
-0.122014 -0.293614 -0.585 73 76 83
-0.117155 -0.29261 -0.583 72 72 80
-0.113517 -0.29763 -0.593 68 66 77
-0.112571 -0.301143 -0.6 223 222 230
-0.109885 -0.309675 -0.617 221 221 223
-0.106889 -0.314694 -0.627 215 217 216
0.0932552 -0.284078 -0.566 120 98 110
0.10692 -0.298131 -0.594 119 96 112
0.198103 -0.325234 -0.648 87 111 173
0.252022 -0.324732 -0.647 218 225 254
0.262286 -0.325234 -0.648 167 180 224
0.264754 -0.325234 -0.648 217 226 255
0.269691 -0.325234 -0.648 247 251 255
0.2808 -0.325234 -0.648 250 249 255
0.326469 -0.325234 -0.648 161 180 222
0.382782 -0.280565 -0.559 125 85 85
0.377869 -0.268017 -0.534 148 100 96
0.385028 -0.262496 -0.523 148 99 92
0.409548 -0.258481 -0.515 159 112 96
0.430983 -0.258983 -0.516 156 107 93
0.439829 -0.258983 -0.516 137 93 80
-0.117356 -0.294225 -0.584 73 73 83
-0.112571 -0.302286 -0.6 195 193 204
0.0352295 -0.262485 -0.521 207 170 162
0.0414476 -0.25795 -0.512 209 172 164
0.0627743 -0.261477 -0.519 172 135 127
0.0697648 -0.265508 -0.527 152 118 119
0.0710371 -0.266515 -0.529 151 116 120
0.076061 -0.270042 -0.536 140 109 117
0.1118 -0.303293 -0.602 118 99 119
0.134946 -0.325965 -0.647 102 114 162
0.14919 -0.327476 -0.65 187 196 211
0.154143 -0.327476 -0.65 184 189 208
0.155381 -0.327476 -0.65 185 190 210
0.197797 -0.325965 -0.647 91 117 176
0.254487 -0.325965 -0.647 188 197 230
0.29808 -0.326469 -0.648 250 250 250
0.303017 -0.326469 -0.648 226 225 239
0.305486 -0.326469 -0.648 193 195 218
0.307954 -0.326469 -0.648 186 192 216
0.314126 -0.326469 -0.648 244 248 255
0.328937 -0.326469 -0.648 183 197 234
0.338098 -0.326972 -0.649 224 229 251
0.422743 -0.326469 -0.648 106 127 172
0.384911 -0.28163 -0.559 130 93 100
0.378263 -0.270042 -0.536 149 101 97
0.378886 -0.269034 -0.534 154 105 101
0.382227 -0.265004 -0.526 152 102 95
0.3835 -0.2645 -0.525 151 101 94
0.41151 -0.259462 -0.515 158 110 98
0.44376 -0.259966 -0.516 133 91 77
0.452271 -0.261477 -0.519 128 86 72
0.454249 -0.261477 -0.519 129 87 73
0.4635 -0.2645 -0.525 130 88 74
0.469047 -0.266515 -0.529 129 87 75
1.12555 -0.313873 -0.623 202 205 188
-0.135219 -0.313543 -0.62 74 77 86
-0.116642 -0.296349 -0.586 72 75 82
0.0501267 -0.25842 -0.511 199 162 154
0.0552086 -0.259431 -0.513 193 154 149
0.0902943 -0.283706 -0.561 119 98 113
0.136389 -0.327703 -0.648 126 139 184
0.141762 -0.328714 -0.65 108 120 168
0.166524 -0.328714 -0.65 192 194 215
0.172714 -0.328714 -0.65 190 195 215
0.186047 -0.328209 -0.649 174 187 222
0.29269 -0.327197 -0.647 250 249 255
0.321531 -0.327703 -0.648 191 198 240
0.356641 -0.328209 -0.649 155 153 175
0.359113 -0.328209 -0.649 200 201 229
0.381952 -0.328714 -0.65 129 145 171
0.385667 -0.328714 -0.65 126 157 204
0.404238 -0.328714 -0.65 181 187 213
0.42636 -0.326691 -0.646 63 86 138
0.380663 -0.267017 -0.528 149 100 93
0.391733 -0.262971 -0.52 157 107 98
0.393946 -0.262466 -0.519 153 105 95
0.396147 -0.26196 -0.518 156 108 98
0.407586 -0.260443 -0.515 161 113 101
0.408567 -0.260443 -0.515 161 113 101
0.425086 -0.260949 -0.516 159 109 98
0.430983 -0.260949 -0.516 156 104 91
0.460738 -0.264489 -0.523 129 87 75
-0.107049 -0.315231 -0.621 158 158 156
0.0480857 -0.258886 -0.51 206 167 160
0.0775133 -0.273607 -0.539 134 106 118
0.0788314 -0.274622 -0.541 132 106 119
0.140524 -0.329952 -0.65 112 124 166
0.144016 -0.329445 -0.649 161 166 204
0.146489 -0.329445 -0.649 193 196 227
0.16874 -0.329445 -0.649 192 198 214
0.222986 -0.327414 -0.645 218 217 235
0.257785 -0.327922 -0.646 192 206 243
0.287316 -0.327922 -0.646 252 253 255
0.345515 -0.329445 -0.649 131 139 176
0.385667 -0.329952 -0.65 118 149 196
0.42768 -0.328937 -0.648 71 96 150
0.428157 -0.327414 -0.645 155 170 203
0.382169 -0.275637 -0.543 145 97 93
0.38195 -0.267515 -0.527 146 97 90
0.390502 -0.26447 -0.521 157 107 98
0.417395 -0.261424 -0.515 162 112 101
0.445726 -0.261931 -0.516 132 90 76
0.457984 -0.26447 -0.521 128 86 74
0.459857 -0.264977 -0.522 128 86 74
0.462617 -0.265992 -0.524 131 91 79
0.4941 -0.278683 -0.549 134 98 84
1.12493 -0.315739 -0.622 201 203 189
-0.133822 -0.315395 -0.619 76 79 86
-0.127128 -0.307752 -0.604 74 77 86
-0.111205 -0.308262 -0.605 205 205 213
0.0490571 -0.259857 -0.51 206 167 160
0.0672429 -0.266481 -0.523 156 120 120
0.0685 -0.2675 -0.525 155 119 123
0.101957 -0.298071 -0.585 114 97 113
0.177393 -0.330681 -0.649 146 157 185
