ply
format ascii 1.0
comment Created by Open3D
element vertex 1298
property double x
property double y
property double z
property uchar red
property uchar green
property uchar blue
end_header
0.288683 -0.117388 -0.529 37 35 46
0.343696 -0.11295 -0.509 137 110 115
0.354086 -0.113171 -0.51 136 107 112
0.409912 -0.118941 -0.536 162 111 108
0.410933 -0.118941 -0.536 172 121 118
0.424527 -0.119607 -0.539 186 133 127
0.22448 -0.123543 -0.552 217 161 164
0.225123 -0.123319 -0.551 215 159 162
0.234569 -0.123319 -0.551 184 124 123
0.246051 -0.124886 -0.558 128 74 74
0.27683 -0.132495 -0.592 208 182 185
0.27041 -0.127348 -0.569 21 11 19
0.25404 -0.116829 -0.522 22 14 25
0.266011 -0.118171 -0.528 95 93 106
0.2675 -0.1175 -0.525 91 93 106
0.290786 -0.118843 -0.531 33 33 43
0.303643 -0.121976 -0.545 17 16 22
0.302634 -0.112352 -0.502 155 122 131
0.30359 -0.112352 -0.502 153 120 129
0.3192 -0.1128 -0.504 149 118 124
0.383555 -0.116605 -0.521 136 97 102
0.412205 -0.119738 -0.535 185 134 130
0.4173 -0.119738 -0.535 197 142 137
0.224073 -0.124369 -0.551 218 159 163
0.224714 -0.124143 -0.55 217 158 162
0.261024 -0.130237 -0.577 91 49 51
0.302033 -0.120306 -0.533 135 124 130
0.294029 -0.113309 -0.502 154 123 131
0.294985 -0.113309 -0.502 152 121 129
0.31248 -0.11376 -0.504 150 117 124
0.344956 -0.114663 -0.508 134 107 112
0.406318 -0.121434 -0.538 77 43 44
0.4081 -0.12166 -0.539 92 52 52
0.415262 -0.120757 -0.535 196 141 134
0.421143 -0.120983 -0.536 188 138 131
0.223667 -0.12519 -0.55 220 160 162
0.264849 -0.132702 -0.583 151 109 110
0.249652 -0.117224 -0.515 19 11 24
0.263853 -0.116996 -0.514 81 79 92
0.267104 -0.115858 -0.509 69 67 80
0.273457 -0.116086 -0.51 30 28 41
0.283869 -0.118817 -0.522 36 34 48
0.301467 -0.121093 -0.532 125 114 118
0.3288 -0.11472 -0.504 145 115 123
0.357535 -0.11563 -0.508 122 98 98
0.364056 -0.115858 -0.509 136 104 109
0.4173 -0.121776 -0.535 191 141 134
0.421376 -0.121776 -0.535 190 141 136
0.226397 -0.126009 -0.549 205 151 151
0.232048 -0.126238 -0.55 183 129 127
0.243926 -0.128074 -0.558 119 69 68
0.247374 -0.128763 -0.561 109 59 58
0.246744 -0.116828 -0.509 19 13 23
0.253074 -0.117516 -0.512 56 50 62
0.263676 -0.116598 -0.508 66 65 73
0.268852 -0.11591 -0.505 34 32 45
0.304122 -0.124861 -0.544 10 15 18
0.302712 -0.123025 -0.536 148 131 137
0.293443 -0.114991 -0.501 150 121 126
0.31186 -0.11545 -0.503 151 119 122
0.31665 -0.11545 -0.503 154 116 127
0.32976 -0.11568 -0.504 147 115 128
0.344277 -0.116369 -0.507 138 107 115
0.360438 -0.116598 -0.508 137 106 112
0.409912 -0.123025 -0.536 152 106 106
0.220925 -0.127517 -0.551 218 164 162
0.272567 -0.1377 -0.595 205 161 162
0.246253 -0.117103 -0.506 18 11 19
0.247706 -0.117334 -0.507 26 19 27
0.303563 -0.125666 -0.543 11 14 19
0.296667 -0.115714 -0.5 151 121 129
0.32367 -0.116177 -0.502 139 109 117
0.32719 -0.116409 -0.503 145 111 125
0.33648 -0.11664 -0.504 141 108 117
0.343598 -0.117103 -0.506 139 108 116
0.356831 -0.117334 -0.507 134 105 109
0.365276 -0.117566 -0.508 132 100 105
0.375465 -0.118954 -0.514 128 93 99
0.386762 -0.121269 -0.524 132 102 104
0.394219 -0.122657 -0.53 99 64 68
0.224941 -0.127867 -0.548 207 156 155
0.245237 -0.1309 -0.561 106 60 60
0.24432 -0.1176 -0.504 84 69 74
0.244793 -0.117367 -0.503 25 12 19
0.25872 -0.1176 -0.504 60 61 66
0.26064 -0.1176 -0.504 56 57 62
0.26928 -0.1176 -0.504 26 24 35
0.291321 -0.116433 -0.499 152 119 126
0.29381 -0.116667 -0.5 151 118 125
0.297619 -0.116667 -0.5 147 122 126
0.331022 -0.117367 -0.503 202 181 190
0.33648 -0.1176 -0.504 144 111 122
0.343598 -0.118067 -0.506 135 103 114
0.34814 -0.1183 -0.507 160 129 144
0.391726 -0.1232 -0.528 122 87 91
0.409654 -0.1253 -0.537 127 85 86
0.409912 -0.125067 -0.536 146 100 102
0.413469 -0.1246 -0.534 189 135 133
0.227029 -0.12891 -0.548 188 139 135
0.244286 -0.117619 -0.5 118 99 103
0.251905 -0.117619 -0.5 50 47 54
0.284317 -0.122559 -0.521 32 32 42
0.28944 -0.11856 -0.504 152 125 132
0.293222 -0.117384 -0.499 150 119 125
0.295123 -0.117384 -0.499 146 121 125
0.297024 -0.117384 -0.499 147 122 126
0.311905 -0.117619 -0.5 154 137 143
0.327495 -0.11809 -0.502 140 108 121
0.333232 -0.11809 -0.502 200 178 190
0.3384 -0.11856 -0.504 139 106 113
0.340033 -0.118795 -0.505 133 106 113
0.342919 -0.118795 -0.505 137 105 116
0.366244 -0.119501 -0.508 131 100 106
0.384291 -0.122794 -0.522 128 99 103
0.403993 -0.126793 -0.539 87 48 51
0.220766 -0.129954 -0.548 216 165 164
0.256589 -0.118097 -0.498 49 46 53
0.286405 -0.124026 -0.523 46 49 56
0.292809 -0.125923 -0.531 24 21 30
0.297065 -0.124737 -0.526 135 114 121
0.2941 -0.123077 -0.519 142 121 128
0.295123 -0.118334 -0.499 146 121 125
0.299875 -0.118334 -0.499 136 121 126
0.308095 -0.118571 -0.5 175 174 182
0.316667 -0.118571 -0.5 145 119 128
0.318571 -0.118571 -0.5 141 114 121
0.33936 -0.11952 -0.504 135 105 113
0.3432 -0.11952 -0.504 139 109 121
0.356128 -0.119994 -0.506 213 199 212
0.364557 -0.120231 -0.507 130 99 105
0.420816 -0.126397 -0.533 194 144 137
0.217634 -0.13291 -0.556 215 160 163
0.27876 -0.144863 -0.606 152 102 105
0.240463 -0.119046 -0.498 175 144 149
0.241411 -0.119046 -0.498 175 144 149
0.243767 -0.118807 -0.497 173 147 150
0.252724 -0.118568 -0.496 78 65 72
0.267143 -0.119524 -0.5 33 32 40
0.2885 -0.1255 -0.525 32 29 36
0.294927 -0.127412 -0.533 29 24 31
0.316667 -0.119524 -0.5 140 119 128
0.323026 -0.119763 -0.501 139 116 122
0.355424 -0.120719 -0.505 200 188 202
0.368904 -0.121675 -0.509 132 100 105
0.381829 -0.124305 -0.52 127 95 100
0.400449 -0.128369 -0.537 79 43 47
0.410094 -0.129803 -0.543 66 30 30
0.410677 -0.128369 -0.537 133 89 88
0.410933 -0.12813 -0.536 142 98 97
0.411186 -0.12789 -0.535 161 107 105
0.422847 -0.127412 -0.533 185 135 126
0.223489 -0.131801 -0.547 198 147 144
0.227029 -0.132042 -0.548 176 125 124
0.233943 -0.133006 -0.552 141 91 90
0.239045 -0.120235 -0.499 169 140 145
0.294831 -0.127946 -0.531 26 19 27
0.2907 -0.123609 -0.513 161 138 146
0.293583 -0.119994 -0.498 145 119 128
0.307479 -0.120235 -0.499 228 236 247
0.323026 -0.120717 -0.501 139 116 122
0.34128 -0.12144 -0.504 137 110 117
0.411675 -0.130355 -0.541 96 56 56
0.412451 -0.128669 -0.534 181 128 124
0.233943 -0.134057 -0.552 141 91 90
0.270524 -0.145229 -0.598 156 110 112
0.27922 -0.147414 -0.607 131 82 86
0.23998 -0.1207 -0.497 177 146 151
0.257448 -0.120457 -0.496 76 63 72
0.2907 -0.124586 -0.513 161 138 146
0.287313 -0.1207 -0.497 140 118 120
0.294531 -0.120943 -0.498 145 119 128
0.30212 -0.120943 -0.498 90 101 105
0.348 -0.1224 -0.504 234 232 246
0.36191 -0.122886 -0.506 130 101 106
0.411186 -0.129929 -0.535 161 108 104
0.216727 -0.134864 -0.551 214 163 162
0.225572 -0.133885 -0.547 178 127 124
0.282442 -0.147836 -0.604 177 146 152
0.2414 -0.124829 -0.51 172 143 148
0.263116 -0.121402 -0.496 50 37 46
0.282571 -0.126297 -0.516 26 26 34
0.285752 -0.127276 -0.52 33 27 37
0.286735 -0.121402 -0.496 141 115 116
0.310657 -0.121891 -0.498 130 136 150
0.315083 -0.122136 -0.499 180 180 192
0.349226 -0.123115 -0.503 237 235 248
0.402686 -0.132171 -0.54 74 38 42
0.411031 -0.133885 -0.547 67 31 35
0.416203 -0.129969 -0.531 198 145 139
0.282686 -0.15096 -0.612 172 139 146
0.283388 -0.150713 -0.611 179 146 153
0.283154 -0.149973 -0.608 173 143 151
0.251705 -0.121853 -0.494 162 135 144
0.286743 -0.128267 -0.52 30 20 29
0.286379 -0.123827 -0.502 146 120 129
0.2871 -0.1221 -0.495 146 116 124
0.294887 -0.122593 -0.497 128 114 127
0.295238 -0.122347 -0.496 115 101 114
0.304353 -0.122593 -0.497 166 169 178
0.327797 -0.12358 -0.501 186 165 172
0.336101 -0.123827 -0.502 128 109 115
0.3576 -0.12432 -0.504 161 143 155
0.411679 -0.131473 -0.533 174 123 120
0.419237 -0.13098 -0.531 194 141 135
0.214628 -0.136963 -0.551 215 163 165
0.225985 -0.136217 -0.548 173 122 119
0.248521 -0.141934 -0.571 82 48 46
0.277114 -0.151629 -0.61 105 59 62
0.28244 -0.152623 -0.614 152 111 117
0.247 -0.122794 -0.494 164 137 146
0.249317 -0.122546 -0.493 163 136 145
0.271494 -0.124534 -0.501 158 137 144
0.286627 -0.12876 -0.518 29 13 23
0.284271 -0.123043 -0.495 144 117 124
0.292404 -0.123291 -0.496 142 121 128
0.310033 -0.12354 -0.497 100 114 123
0.314451 -0.123789 -0.498 212 219 229
0.34375 -0.124783 -0.502 243 237 251
0.355932 -0.125031 -0.503 239 230 247
0.213849 -0.137511 -0.549 216 164 166
0.28336 -0.154293 -0.616 168 128 136
0.260586 -0.123485 -0.493 156 129 138
0.262996 -0.123735 -0.494 152 126 135
0.28386 -0.128494 -0.513 79 58 65
0.284638 -0.123735 -0.494 141 114 121
0.288986 -0.123986 -0.495 142 120 122
0.289929 -0.123986 -0.495 142 120 122
0.307193 -0.124487 -0.497 176 189 198
0.330952 -0.125238 -0.5 147 121 130
0.339926 -0.125739 -0.502 128 105 115
0.362157 -0.12649 -0.505 124 103 110
0.376195 -0.128995 -0.515 131 99 102
0.21892 -0.1378 -0.546 201 150 149
0.27731 -0.15471 -0.613 94 52 54
0.235718 -0.125181 -0.496 171 141 149
0.26784 -0.125181 -0.496 161 134 143
0.282878 -0.127705 -0.506 155 130 136
0.283697 -0.124676 -0.494 140 115 121
0.296529 -0.124929 -0.495 220 229 238
0.298414 -0.124929 -0.495 212 225 233
0.301243 -0.124929 -0.495 182 189 197
0.30752 -0.125181 -0.496 177 187 197
0.315713 -0.125433 -0.497 119 123 132
0.338294 -0.126443 -0.501 127 100 109
0.345929 -0.126443 -0.501 232 230 244
0.348791 -0.126443 -0.501 232 230 244
0.369873 -0.128462 -0.509 114 84 84
0.4181 -0.140071 -0.555 66 34 35
0.410417 -0.134771 -0.534 133 82 81
0.421476 -0.133762 -0.53 186 133 127
0.211095 -0.139857 -0.55 219 166 162
0.286843 -0.157911 -0.621 178 147 155
0.241314 -0.125109 -0.492 173 143 153
0.254434 -0.125109 -0.492 162 135 144
0.256309 -0.125109 -0.492 160 133 142
0.257246 -0.125109 -0.492 159 132 141
0.264342 -0.125363 -0.493 156 129 138
0.265819 -0.125617 -0.494 163 136 145
0.280476 -0.127143 -0.5 148 123 129
0.285001 -0.125363 -0.493 141 116 122
0.30752 -0.126126 -0.496 189 197 208
0.313189 -0.126126 -0.496 187 191 202
0.338294 -0.127397 -0.501 129 102 111
0.342111 -0.127397 -0.501 242 228 241
0.358807 -0.127906 -0.503 233 225 236
0.42036 -0.141891 -0.558 67 35 36
0.419673 -0.134517 -0.529 189 136 130
0.421476 -0.134771 -0.53 183 130 124
0.43076 -0.135789 -0.534 143 93 92
0.23268 -0.14193 -0.554 118 72 74
0.239677 -0.144235 -0.563 90 48 49
0.285119 -0.160119 -0.625 118 82 86
0.234768 -0.126558 -0.494 170 140 150
0.244565 -0.12579 -0.491 169 139 149
0.253917 -0.12579 -0.491 163 133 143
0.274212 -0.127839 -0.499 154 127 136
0.2805 -0.126814 -0.495 139 114 120
0.294989 -0.126558 -0.494 148 163 170
0.318553 -0.127327 -0.497 175 165 173
0.32868 -0.127583 -0.498 137 120 128
0.344286 -0.128095 -0.5 232 230 244
0.351654 -0.128351 -0.501 234 228 242
0.420971 -0.142442 -0.556 65 33 34
0.419673 -0.135525 -0.529 190 137 131
0.224941 -0.141436 -0.548 151 98 94
0.231207 -0.142727 -0.553 114 72 74
0.246435 -0.126725 -0.491 168 138 148
0.261399 -0.126725 -0.491 163 133 143
0.277671 -0.127757 -0.495 155 128 135
0.292513 -0.127241 -0.493 84 104 105
0.293452 -0.127241 -0.493 81 101 102
0.316023 -0.128015 -0.496 201 200 206
0.317607 -0.128273 -0.497 208 207 213
0.341429 -0.129048 -0.5 241 229 241
0.358093 -0.129564 -0.502 237 224 234
0.383297 -0.134726 -0.522 122 96 99
0.419733 -0.144533 -0.56 88 52 54
0.411381 -0.13679 -0.53 188 137 134
0.211419 -0.14612 -0.562 209 158 154
0.210214 -0.1417 -0.545 218 164 164
0.212937 -0.14144 -0.544 218 164 164
0.2422 -0.1274 -0.49 169 139 149
0.255788 -0.12766 -0.491 163 132 140
0.272014 -0.1287 -0.495 161 133 145
0.280674 -0.12792 -0.492 140 113 118
0.298148 -0.12818 -0.493 163 168 174
0.303457 -0.12844 -0.494 221 230 239
0.312557 -0.1287 -0.495 219 217 230
0.327073 -0.12922 -0.497 224 207 215
0.328967 -0.12922 -0.497 137 109 121
0.348095 -0.13 -0.5 230 229 245
0.360723 -0.13078 -0.503 123 102 109
0.41262 -0.13754 -0.529 195 144 140
0.235212 -0.128595 -0.491 171 144 151
0.248733 -0.128333 -0.49 164 137 146
0.286297 -0.128857 -0.492 141 114 121
0.305339 -0.129381 -0.494 193 197 208
0.312557 -0.129643 -0.495 241 238 249
0.315386 -0.129643 -0.495 228 231 238
0.316968 -0.129905 -0.496 230 233 240
0.322636 -0.129905 -0.496 225 210 217
0.324233 -0.130167 -0.497 229 218 226
0.360723 -0.131738 -0.503 126 109 117
0.367454 -0.132786 -0.507 102 77 80
0.369873 -0.13331 -0.509 118 93 96
0.214614 -0.143249 -0.543 208 155 151
0.218118 -0.143512 -0.544 186 133 127
0.231625 -0.14615 -0.554 94 49 54
0.233724 -0.133488 -0.506 173 143 153
0.231943 -0.129794 -0.492 170 140 150
0.23288 -0.129794 -0.492 167 140 147
0.2445 -0.129003 -0.489 164 137 146
0.248733 -0.129267 -0.49 163 136 145
0.2534 -0.129267 -0.49 162 135 142
0.279169 -0.12953 -0.491 139 114 118
0.317271 -0.130586 -0.495 229 222 230
0.35 -0.131905 -0.5 184 171 178
0.427563 -0.150108 -0.569 89 53 53
0.415863 -0.139291 -0.528 195 140 133
0.214614 -0.144283 -0.543 200 149 145
0.232043 -0.147471 -0.555 95 50 53
0.2646 -0.1302 -0.49 162 131 139
0.2674 -0.1302 -0.49 159 128 136
0.274867 -0.1302 -0.49 173 143 151
0.304721 -0.130997 -0.493 183 192 201
0.3201 -0.131529 -0.495 161 143 155
0.3337 -0.13206 -0.497 132 105 114
0.33532 -0.132326 -0.498 136 106 118
0.35025 -0.132591 -0.499 127 108 110
0.354762 -0.132857 -0.5 131 112 116
0.384766 -0.139234 -0.524 105 75 75
0.431241 -0.151723 -0.571 89 50 51
0.411186 -0.142157 -0.535 157 111 113
0.410664 -0.141626 -0.533 163 117 119
0.416869 -0.140297 -0.528 196 143 135
0.205776 -0.146388 -0.547 211 160 156
0.216683 -0.145317 -0.543 183 130 124
0.238911 -0.130866 -0.489 167 137 147
0.239352 -0.130598 -0.488 166 136 146
0.243569 -0.130866 -0.489 164 137 146
0.271511 -0.130866 -0.489 154 124 132
0.291667 -0.131133 -0.49 126 100 109
0.306599 -0.131936 -0.493 183 190 200
0.308477 -0.131936 -0.493 186 190 201
0.31663 -0.132204 -0.494 173 161 171
0.318512 -0.132204 -0.494 128 110 122
0.323871 -0.132471 -0.495 218 202 212
0.324814 -0.132471 -0.495 216 200 210
0.351201 -0.133542 -0.499 131 106 110
0.376195 -0.137824 -0.515 122 93 97
0.3855 -0.1405 -0.525 103 74 78
0.415266 -0.145317 -0.543 126 88 87
0.206067 -0.151472 -0.562 202 148 146
0.214219 -0.146082 -0.542 192 141 137
0.215649 -0.146351 -0.543 186 135 131
0.228686 -0.148777 -0.552 109 63 65
0.230067 -0.132067 -0.49 171 141 151
0.237049 -0.131797 -0.489 167 137 147
0.238423 -0.131528 -0.488 165 135 145
0.239352 -0.131528 -0.488 165 135 145
0.24493 -0.131528 -0.488 161 134 143
0.250089 -0.131797 -0.489 160 133 142
0.263129 -0.131797 -0.489 162 131 139
0.273374 -0.131797 -0.489 166 136 144
0.278963 -0.131797 -0.489 139 112 119
0.279894 -0.131797 -0.489 139 112 119
0.301291 -0.132606 -0.492 98 111 120
0.302229 -0.132606 -0.492 87 100 109
0.303166 -0.132606 -0.492 97 110 119
0.331139 -0.133684 -0.496 128 105 111
0.345754 -0.134223 -0.498 129 102 111
0.418046 -0.147699 -0.548 108 70 69
0.412846 -0.142309 -0.528 200 147 139
0.203083 -0.149557 -0.551 205 149 148
0.211122 -0.147114 -0.542 210 154 157
0.213187 -0.147114 -0.542 202 148 148
0.233775 -0.132457 -0.488 171 140 146
0.240282 -0.132457 -0.488 165 135 145
0.242141 -0.132457 -0.488 164 134 144
0.250507 -0.132457 -0.488 160 133 142
0.265379 -0.132457 -0.488 158 126 137
0.269649 -0.132729 -0.489 156 124 135
0.307851 -0.133543 -0.492 191 198 206
0.20596 -0.148147 -0.542 218 164 164
0.265379 -0.133387 -0.488 158 127 135
0.301614 -0.134207 -0.491 140 147 155
0.309726 -0.13448 -0.492 112 115 122
0.358571 -0.136667 -0.5 121 95 98
0.363597 -0.137487 -0.503 122 96 99
0.415266 -0.14842 -0.543 128 89 90
0.412846 -0.14432 -0.528 198 146 135
0.41909 -0.144047 -0.527 184 134 125
0.210732 -0.148904 -0.541 213 158 161
0.2291 -0.152207 -0.553 99 55 56
0.229128 -0.134316 -0.488 168 138 150
0.232369 -0.134041 -0.487 170 137 146
0.240223 -0.133766 -0.486 164 134 144
0.263908 -0.134041 -0.487 159 128 136
0.28211 -0.134316 -0.488 138 115 125
0.289547 -0.134316 -0.488 134 118 119
0.30442 -0.135142 -0.491 155 160 166
0.307226 -0.135142 -0.491 210 209 215
0.335186 -0.136243 -0.495 128 101 108
0.336129 -0.136243 -0.495 128 101 108
0.337071 -0.136243 -0.495 125 98 105
0.3472 -0.136518 -0.496 125 96 101
0.36673 -0.13927 -0.506 127 96 101
0.199209 -0.152151 -0.549 205 150 147
0.211763 -0.149934 -0.541 211 157 155
0.227222 -0.152706 -0.551 114 64 65
0.22632 -0.136354 -0.492 170 139 147
0.231441 -0.134969 -0.487 166 136 146
0.235594 -0.134691 -0.486 166 136 146
0.252776 -0.134969 -0.487 162 132 142
0.277822 -0.134969 -0.487 135 108 113
0.27875 -0.134969 -0.487 144 117 122
0.28246 -0.134969 -0.487 139 112 117
0.285829 -0.135246 -0.488 141 116 120
0.297267 -0.1358 -0.49 135 113 116
0.310031 -0.136077 -0.491 146 135 143
0.3333 -0.137186 -0.495 132 102 110
0.334243 -0.137186 -0.495 131 101 109
0.337071 -0.137186 -0.495 131 102 106
0.348145 -0.137463 -0.496 128 98 98
0.361918 -0.139126 -0.502 124 93 98
0.428416 -0.156031 -0.563 71 37 38
0.219557 -0.152081 -0.545 147 97 98
0.225762 -0.153476 -0.55 115 67 67
0.23004 -0.135617 -0.486 166 136 146
0.240223 -0.135617 -0.486 164 134 144
0.254109 -0.135617 -0.486 161 131 141
0.255034 -0.135617 -0.486 160 130 140
0.287098 -0.135896 -0.487 142 115 120
0.291406 -0.136175 -0.488 143 116 121
0.294797 -0.136454 -0.489 141 114 119
0.331686 -0.13785 -0.494 132 102 112
0.33639 -0.13785 -0.494 130 101 105
0.34909 -0.138408 -0.496 128 98 100
0.418325 -0.152639 -0.547 120 86 84
0.409597 -0.147616 -0.529 172 127 122
0.19708 -0.1534 -0.546 200 147 141
0.203519 -0.151995 -0.541 218 164 162
0.225383 -0.138229 -0.492 170 137 146
0.235594 -0.136543 -0.486 165 135 145
0.23652 -0.136543 -0.486 165 135 145
0.3066 -0.137667 -0.49 141 118 124
0.316286 -0.138229 -0.492 137 114 122
0.320034 -0.138229 -0.492 191 175 186
0.329136 -0.13851 -0.493 131 104 109
0.352633 -0.139633 -0.497 127 96 101
0.363597 -0.141319 -0.503 125 94 99
0.412284 -0.147781 -0.526 196 150 135
0.228643 -0.137186 -0.485 167 137 145
0.23049 -0.137186 -0.485 168 138 148
0.2619 -0.137186 -0.485 157 125 136
0.276681 -0.137186 -0.485 146 115 121
0.296053 -0.138034 -0.488 141 115 118
0.3122 -0.1386 -0.49 137 107 117
0.438834 -0.165189 -0.584 70 34 36
0.41529 -0.148783 -0.526 195 146 132
0.423909 -0.149349 -0.528 165 109 96
0.445044 -0.153874 -0.544 153 104 100
0.19396 -0.15548 -0.546 197 144 138
0.199687 -0.153487 -0.539 216 162 160
0.233067 -0.159467 -0.56 99 51 51
0.235388 -0.160321 -0.563 108 60 60
0.224467 -0.139533 -0.49 172 136 146
0.244348 -0.13811 -0.485 161 134 143
0.255433 -0.13811 -0.485 159 129 139
0.289881 -0.138679 -0.487 142 115 120
0.317513 -0.139818 -0.491 227 211 221
0.347443 -0.140957 -0.495 127 98 103
0.409362 -0.150924 -0.53 163 119 116
0.410834 -0.150354 -0.528 185 138 132
0.421098 -0.15007 -0.527 174 117 108
0.192894 -0.15566 -0.543 194 141 135
0.212793 -0.155087 -0.541 173 123 124
0.218118 -0.155947 -0.544 135 85 86
0.235388 -0.161393 -0.563 108 60 60
0.254907 -0.138747 -0.484 158 128 138
0.276681 -0.139033 -0.485 119 88 96
0.280376 -0.139033 -0.485 142 112 120
0.287434 -0.13932 -0.486 142 113 118
0.305974 -0.14018 -0.489 145 115 123
0.321254 -0.140753 -0.491 140 114 125
0.32219 -0.140753 -0.491 134 108 119
0.342977 -0.141613 -0.494 129 98 104
0.36842 -0.14534 -0.507 122 93 98
0.419854 -0.15738 -0.549 103 68 72
0.412723 -0.15394 -0.537 137 97 97
0.422102 -0.151073 -0.527 167 113 101
0.431173 -0.152507 -0.532 138 90 88
0.19186 -0.156694 -0.543 195 142 134
0.209314 -0.155829 -0.54 200 148 150
0.214219 -0.156406 -0.542 169 119 120
0.218118 -0.156983 -0.544 135 85 86
0.230757 -0.160734 -0.557 99 50 53
0.22725 -0.139669 -0.484 167 136 144
0.232781 -0.139669 -0.484 167 135 146
0.244766 -0.139669 -0.484 159 132 141
0.248453 -0.139669 -0.484 157 130 139
0.249375 -0.139669 -0.484 156 129 138
0.257672 -0.139669 -0.484 158 128 138
0.264671 -0.139957 -0.485 156 124 135
0.265595 -0.139957 -0.485 158 126 137
0.270214 -0.139957 -0.485 156 126 134
0.280376 -0.139957 -0.485 142 111 117
0.28836 -0.140246 -0.486 144 113 118
0.295447 -0.140534 -0.487 144 113 118
0.29823 -0.140534 -0.487 142 112 120
0.300701 -0.140823 -0.488 140 111 116
0.30256 -0.140823 -0.488 140 109 115
0.33571 -0.142266 -0.493 131 100 108
0.364555 -0.145151 -0.503 125 94 100
0.412723 -0.154963 -0.537 136 96 94
0.422102 -0.152077 -0.527 167 113 101
0.423909 -0.152366 -0.528 162 108 96
0.433811 -0.154097 -0.534 137 90 84
0.191467 -0.162667 -0.56 195 145 138
0.191529 -0.15831 -0.545 196 143 135
0.212793 -0.157148 -0.541 168 118 119
0.215649 -0.157729 -0.543 152 102 103
0.223667 -0.159762 -0.55 115 66 69
0.225531 -0.160343 -0.552 110 61 64
0.22355 -0.141752 -0.488 170 137 146
0.235547 -0.14059 -0.484 163 131 142
0.236469 -0.14059 -0.484 163 131 142
0.249375 -0.14059 -0.484 155 128 137
0.2507 -0.1403 -0.483 157 130 139
0.25254 -0.1403 -0.483 157 130 139
0.287767 -0.140881 -0.485 143 112 118
0.316867 -0.142333 -0.49 156 139 147
0.339466 -0.143205 -0.493 129 98 103
0.343222 -0.143205 -0.493 129 98 103
0.349564 -0.143495 -0.494 115 92 98
0.36383 -0.145819 -0.502 125 93 98
0.366967 -0.14669 -0.505 126 94 99
0.442591 -0.17109 -0.589 82 39 48
0.410056 -0.153081 -0.527 186 137 130
0.189095 -0.16081 -0.55 199 144 137
0.190474 -0.15847 -0.542 195 145 136
0.197923 -0.157009 -0.537 209 158 155
0.223092 -0.14239 -0.487 169 136 145
0.22678 -0.14122 -0.483 168 137 145
0.23966 -0.14122 -0.483 159 129 139
0.24242 -0.14122 -0.483 162 132 142
0.26174 -0.14122 -0.483 157 127 137
0.266891 -0.141512 -0.484 156 123 134
0.300085 -0.14239 -0.487 142 112 120
0.311855 -0.142682 -0.488 127 102 106
0.313426 -0.142974 -0.489 178 152 161
0.31622 -0.142974 -0.489 182 165 173
0.335283 -0.143559 -0.491 130 100 102
0.363106 -0.146483 -0.501 124 89 93
0.444043 -0.171043 -0.585 69 40 44
0.411434 -0.156131 -0.534 147 108 103
0.43911 -0.157301 -0.538 148 98 97
0.44259 -0.158178 -0.541 149 99 98
0.188069 -0.160091 -0.544 198 148 141
0.195877 -0.158031 -0.537 212 157 154
0.220766 -0.161269 -0.548 116 66 67
0.223077 -0.143906 -0.489 169 138 146
0.22494 -0.14214 -0.483 168 137 145
0.228147 -0.141846 -0.482 164 134 142
0.23782 -0.14214 -0.483 161 129 140
0.24242 -0.14214 -0.483 160 130 140
0.271501 -0.142434 -0.484 152 122 132
0.275189 -0.142434 -0.484 166 134 145
0.31622 -0.143906 -0.489 227 212 219
0.320877 -0.143906 -0.489 132 105 112
0.3318 -0.1442 -0.49 135 100 107
0.450122 -0.175394 -0.596 85 51 68
0.409597 -0.155677 -0.529 169 126 120
0.188393 -0.159647 -0.539 199 148 144
0.19245 -0.158758 -0.536 202 149 145
0.200991 -0.159054 -0.537 207 156 155
0.216046 -0.161128 -0.544 132 82 85
0.234486 -0.167644 -0.566 133 84 87
0.223054 -0.14543 -0.491 168 137 145
0.22631 -0.142764 -0.482 165 135 143
0.252017 -0.142764 -0.482 155 128 137
0.263034 -0.142764 -0.482 153 123 131
0.29331 -0.143652 -0.485 142 111 117
0.294233 -0.143652 -0.485 142 111 117
0.313714 -0.144541 -0.488 181 166 171
0.349795 -0.146022 -0.493 120 99 106
0.4186 -0.16172 -0.546 101 70 75
0.4185 -0.1555 -0.525 175 116 110
0.184629 -0.160971 -0.54 197 144 140
0.203037 -0.160077 -0.537 204 154 155
0.211763 -0.16127 -0.541 157 109 109
0.225286 -0.148451 -0.498 167 136 144
0.222638 -0.143682 -0.482 167 136 144
0.27922 -0.14398 -0.483 143 112 120
0.28198 -0.14398 -0.483 143 112 120
0.289939 -0.144278 -0.484 142 111 117
0.297005 -0.144576 -0.485 142 112 120
0.305023 -0.144874 -0.486 139 108 116
0.324603 -0.145769 -0.489 135 102 109
0.332733 -0.146067 -0.49 132 100 105
0.349086 -0.146663 -0.492 157 136 143
0.457314 -0.18005 -0.604 137 110 125
0.453151 -0.177963 -0.597 105 78 93
0.414709 -0.156202 -0.524 188 140 128
0.194129 -0.1605 -0.535 207 153 151
0.2079 -0.1617 -0.539 181 132 135
0.22692 -0.1674 -0.558 106 57 60
0.273526 -0.1902 -0.634 138 84 82
0.282394 -0.1938 -0.646 136 85 84
0.224925 -0.1443 -0.481 165 134 142
0.241918 -0.1446 -0.482 158 128 138
0.24559 -0.1446 -0.482 158 128 138
0.246509 -0.1446 -0.482 158 128 138
0.254771 -0.1446 -0.482 157 127 135
0.256608 -0.1446 -0.482 157 127 135
0.270379 -0.1446 -0.482 150 119 127
0.28014 -0.1449 -0.483 142 111 119
0.28658 -0.1449 -0.483 143 112 118
0.3007 -0.1455 -0.485 140 109 115
0.311216 -0.1461 -0.487 181 148 155
0.314927 -0.1461 -0.487 221 200 209
0.317432 -0.1464 -0.488 135 109 118
0.323939 -0.1464 -0.488 137 102 109
0.327397 -0.1467 -0.489 132 100 103
0.32926 -0.1467 -0.489 133 101 106
0.34183 -0.1473 -0.491 128 96 101
0.363333 -0.15 -0.5 118 86 89
0.412205 -0.1605 -0.535 154 110 111
0.18018 -0.162727 -0.539 203 150 144
0.202014 -0.162123 -0.537 197 143 141
0.20406 -0.162123 -0.537 193 139 137
0.225048 -0.167859 -0.556 105 56 59
0.227327 -0.168765 -0.559 108 59 62
0.224009 -0.145216 -0.481 165 134 142
0.231338 -0.145216 -0.481 159 129 139
0.237328 -0.145518 -0.482 159 129 139
0.239164 -0.145518 -0.482 159 127 138
0.248345 -0.145518 -0.482 156 126 136
0.252935 -0.145518 -0.482 159 128 136
0.258824 -0.145216 -0.481 155 124 132
0.261572 -0.145216 -0.481 153 122 130
0.275888 -0.145518 -0.482 142 111 117
0.277724 -0.145518 -0.482 144 113 119
0.32301 -0.14733 -0.488 136 104 109
0.326728 -0.14733 -0.488 130 100 102
0.330191 -0.147631 -0.489 131 100 106
0.335533 -0.147933 -0.49 128 97 102
0.34557 -0.148235 -0.491 129 97 102
0.348376 -0.148235 -0.491 179 162 168
0.35615 -0.149141 -0.494 125 94 102
0.414709 -0.158198 -0.524 188 138 127
0.415707 -0.158198 -0.524 180 130 121
0.176995 -0.165576 -0.545 204 151 143
0.191731 -0.162234 -0.534 186 136 129
0.212154 -0.164665 -0.542 125 75 76
0.273526 -0.192615 -0.634 117 61 64
0.222571 -0.149474 -0.492 165 134 142
0.223543 -0.145829 -0.48 163 133 141
0.282314 -0.146436 -0.482 144 113 118
0.283232 -0.146436 -0.482 143 112 117
0.28415 -0.146436 -0.482 142 111 116
0.29394 -0.14674 -0.483 142 111 116
0.29486 -0.14674 -0.483 141 110 115
0.30008 -0.147044 -0.484 141 110 115
0.308726 -0.147651 -0.486 141 109 114
0.313354 -0.147651 -0.486 199 172 181
0.322348 -0.147955 -0.487 135 103 108
0.323275 -0.147955 -0.487 134 102 107
0.339267 -0.148867 -0.49 129 98 103
0.342067 -0.148867 -0.49 130 99 104
0.353771 -0.149474 -0.492 127 101 112
0.35543 -0.149778 -0.493 125 92 99
0.410134 -0.161323 -0.531 166 116 117
0.177757 -0.165391 -0.541 203 148 141
0.188327 -0.162946 -0.533 198 145 137
0.196817 -0.163251 -0.534 208 157 153
0.212546 -0.166003 -0.543 115 67 67
0.220796 -0.147966 -0.484 165 133 144
0.224457 -0.146743 -0.48 163 133 141
0.249662 -0.147049 -0.481 156 125 133
0.25241 -0.147049 -0.481 155 124 132
0.261943 -0.146743 -0.48 153 122 130
0.262857 -0.146743 -0.48 152 121 129
0.275315 -0.147049 -0.481 146 115 123
0.276231 -0.147049 -0.481 145 112 121
0.29118 -0.14766 -0.483 140 109 114
0.29762 -0.14766 -0.483 143 111 116
0.310577 -0.148577 -0.486 136 104 109
0.316131 -0.148577 -0.486 135 102 111
0.328587 -0.149189 -0.488 130 98 103
0.33578 -0.149494 -0.489 128 97 102
0.343 -0.1498 -0.49 129 98 103
0.347667 -0.1498 -0.49 175 160 163
0.351182 -0.150106 -0.491 194 179 186
0.352117 -0.150106 -0.491 144 118 127
0.360427 -0.151634 -0.496 114 78 78
0.416705 -0.160194 -0.524 175 126 119
0.423305 -0.160806 -0.526 158 108 99
0.425113 -0.161111 -0.527 154 104 95
0.189342 -0.163961 -0.533 201 148 142
0.21659 -0.168575 -0.548 108 59 62
0.218429 -0.16919 -0.55 109 60 63
0.220274 -0.169806 -0.552 108 62 64
0.271459 -0.194415 -0.632 101 51 50
0.223543 -0.147657 -0.48 162 132 140
0.231771 -0.147657 -0.48 161 129 140
0.240914 -0.147657 -0.48 157 127 137
0.245486 -0.147657 -0.48 157 127 137
0.247314 -0.147657 -0.48 156 126 134
0.281729 -0.147965 -0.481 143 112 118
0.296086 -0.148272 -0.482 142 109 116
0.30038 -0.14858 -0.483 141 108 115
0.32076 -0.149503 -0.486 137 102 109
0.322611 -0.149503 -0.486 137 102 108
0.323537 -0.149503 -0.486 132 102 104
0.33578 -0.150426 -0.489 128 97 102
0.336711 -0.150426 -0.489 129 98 103
0.360427 -0.152579 -0.496 114 75 76
0.412712 -0.161192 -0.524 193 140 134
0.43503 -0.163961 -0.533 137 92 87
0.188987 -0.164667 -0.532 197 147 138
0.191372 -0.164976 -0.533 201 148 140
0.201262 -0.165595 -0.535 204 156 154
0.205465 -0.166524 -0.538 189 148 146
0.269828 -0.19531 -0.631 97 56 60
0.279334 -0.197786 -0.639 93 57 61
0.22126 -0.148881 -0.481 163 133 143
0.264686 -0.148571 -0.48 152 119 126
0.2656 -0.148571 -0.48 151 118 125
0.271086 -0.148571 -0.48 165 132 139
0.272914 -0.148571 -0.48 146 113 120
0.274743 -0.148571 -0.48 147 114 121
0.290577 -0.14919 -0.482 142 111 117
0.30406 -0.1495 -0.483 138 107 112
0.31271 -0.150119 -0.485 136 105 110
0.316131 -0.150429 -0.486 135 104 109
0.318252 -0.150119 -0.485 135 104 109
0.330696 -0.150738 -0.487 128 99 104
0.334164 -0.151048 -0.488 129 98 104
0.337643 -0.151357 -0.489 128 97 103
0.346733 -0.151667 -0.49 212 185 192
0.358032 -0.152905 -0.494 127 92 96
0.4095 -0.1625 -0.525 181 131 122
0.418701 -0.16219 -0.524 171 121 112
-0.143794 -0.201806 -0.648 193 192 187
0.186609 -0.165369 -0.531 203 150 144
0.18762 -0.165369 -0.531 202 149 143
0.188987 -0.16568 -0.532 199 150 143
0.194418 -0.165991 -0.533 211 158 152
0.268626 -0.196511 -0.631 94 55 60
0.279334 -0.199003 -0.639 106 69 76
0.233113 -0.149174 -0.479 159 129 139
0.234938 -0.149174 -0.479 157 127 137
0.24315 -0.149174 -0.479 157 127 135
0.256457 -0.149486 -0.48 153 122 130
0.267784 -0.149174 -0.479 151 118 127
0.268696 -0.149174 -0.479 151 118 127
0.29425 -0.150109 -0.482 142 109 116
0.315481 -0.151043 -0.485 135 104 110
0.329091 -0.151354 -0.486 130 99 104
0.330696 -0.151666 -0.487 129 98 103
0.345094 -0.152289 -0.489 135 108 115
0.409718 -0.163189 -0.524 186 136 129
0.444857 -0.168171 -0.54 144 101 95
-0.148731 -0.20304 -0.648 192 191 186
0.17014 -0.17014 -0.543 205 152 144
0.277333 -0.200533 -0.64 87 52 58
0.228985 -0.149773 -0.478 157 130 139
0.245887 -0.150087 -0.479 154 124 132
0.25866 -0.150087 -0.479 152 121 129
0.268696 -0.150087 -0.479 150 117 124
0.275083 -0.150087 -0.479 145 112 119
0.279314 -0.1504 -0.48 145 112 121
0.283886 -0.1504 -0.48 142 111 117
0.285714 -0.1504 -0.48 142 111 117
0.338574 -0.15322 -0.489 130 98 103
0.343231 -0.15322 -0.489 131 98 105
0.410134 -0.16638 -0.531 156 108 108
0.431765 -0.165753 -0.529 141 93 89
-0.144805 -0.203959 -0.647 193 194 186
0.173423 -0.168337 -0.534 204 151 145
0.194053 -0.167707 -0.532 209 158 154
0.206873 -0.169913 -0.539 149 109 107
0.219428 -0.150999 -0.479 164 132 143
0.226253 -0.150684 -0.478 159 129 139
0.235358 -0.150684 -0.478 157 127 137
0.25501 -0.150999 -0.479 155 124 132
0.25721 -0.150684 -0.478 153 122 130
0.259941 -0.150684 -0.478 152 121 129
0.285119 -0.150999 -0.479 141 110 115
0.288457 -0.151314 -0.48 141 110 115
0.301594 -0.151945 -0.482 136 105 110
0.310221 -0.152575 -0.484 136 107 112
0.318518 -0.152575 -0.484 134 103 108
0.332551 -0.153521 -0.487 128 97 102
0.34253 -0.153836 -0.488 125 94 100
0.350683 -0.154151 -0.489 115 88 93
0.355646 -0.155097 -0.492 123 91 96
0.411434 -0.168337 -0.534 145 96 99
0.4085 -0.1655 -0.525 177 129 125
0.416906 -0.16487 -0.523 182 129 125
0.422693 -0.165185 -0.524 158 110 98
0.427312 -0.165815 -0.526 140 95 90
-0.14727 -0.205191 -0.647 194 191 184
0.166791 -0.174111 -0.549 204 151 143
0.175813 -0.16872 -0.532 202 152 145
0.179529 -0.168403 -0.531 197 147 140
0.191666 -0.168403 -0.531 204 155 148
0.193689 -0.168403 -0.531 207 156 152
0.20368 -0.169989 -0.536 201 160 156
0.2795 -0.204557 -0.645 105 72 79
0.218971 -0.152229 -0.48 163 131 142
0.222611 -0.151594 -0.478 162 130 141
0.227164 -0.151594 -0.478 158 128 138
0.23214 -0.151277 -0.477 156 126 134
0.235358 -0.151594 -0.478 158 127 135
0.237179 -0.151594 -0.478 158 127 135
0.23809 -0.151594 -0.478 157 126 134
0.243552 -0.151594 -0.478 157 126 132
0.247194 -0.151594 -0.478 156 126 134
0.260851 -0.151594 -0.478 153 120 127
0.276908 -0.151911 -0.479 142 109 118
0.2912 -0.152229 -0.48 139 110 112
0.299136 -0.152546 -0.481 138 107 112
0.31944 -0.153497 -0.484 133 102 107
0.427312 -0.166817 -0.526 144 96 92
-0.151964 -0.206105 -0.646 192 189 184
-0.149503 -0.206105 -0.646 193 190 183
0.16786 -0.171967 -0.539 203 153 144
0.181875 -0.168776 -0.529 201 151 144
0.182883 -0.168776 -0.529 200 150 143
0.191666 -0.169414 -0.531 203 154 147
0.2808 -0.206743 -0.648 124 94 104
0.228506 -0.152186 -0.477 157 125 136
0.23214 -0.152186 -0.477 158 127 135
0.250311 -0.152186 -0.477 154 123 131
0.252129 -0.152186 -0.477 155 124 132
0.262123 -0.152186 -0.477 151 118 125
0.272688 -0.152505 -0.478 146 113 120
0.284524 -0.152505 -0.478 140 109 114
0.300969 -0.153462 -0.481 137 106 111
0.31418 -0.1541 -0.483 133 104 106
0.3151 -0.1541 -0.483 133 104 106
0.338117 -0.155376 -0.487 129 98 104
0.343683 -0.155376 -0.487 177 155 167
0.421887 -0.166862 -0.523 163 113 102
-0.140524 -0.208619 -0.65 196 195 190
0.165086 -0.173314 -0.54 206 156 149
0.173787 -0.170747 -0.532 203 155 145
0.18389 -0.169784 -0.529 201 151 144
0.205465 -0.172672 -0.538 163 125 122
0.223963 -0.153094 -0.477 161 129 140
0.228506 -0.153094 -0.477 158 126 137
0.25721 -0.153415 -0.478 152 121 129
0.25758 -0.153094 -0.477 153 122 130
0.258489 -0.153094 -0.477 154 123 131
0.259397 -0.153094 -0.477 153 122 130
0.26394 -0.153094 -0.477 151 118 127
0.268483 -0.153094 -0.477 157 124 131
0.2703 -0.153094 -0.477 147 114 123
0.292418 -0.153736 -0.479 140 109 114
0.298514 -0.154057 -0.48 136 105 110
0.3197 -0.15502 -0.483 129 100 102
0.342755 -0.156304 -0.487 136 105 110
0.356369 -0.15823 -0.493 116 83 92
0.43378 -0.169784 -0.529 151 100 97
0.16333 -0.174666 -0.541 205 155 148
0.168337 -0.172406 -0.534 205 156 149
0.181875 -0.170791 -0.529 201 151 144
0.190295 -0.171114 -0.53 202 155 147
0.207257 -0.174343 -0.54 114 79 75
0.214894 -0.177249 -0.549 120 85 92
0.267581 -0.206629 -0.64 95 59 63
0.21897 -0.154326 -0.478 161 129 140
0.233467 -0.15368 -0.476 157 127 135
0.259397 -0.154003 -0.477 151 120 128
0.268827 -0.15368 -0.476 145 112 121
0.289076 -0.154326 -0.478 140 109 115
0.312611 -0.155617 -0.482 134 104 106
0.315366 -0.155617 -0.482 133 102 107
0.332794 -0.156909 -0.486 126 96 98
0.345538 -0.157231 -0.487 121 98 106
0.409893 -0.17176 -0.532 142 92 101
0.417296 -0.168209 -0.521 178 125 111
0.440931 -0.172406 -0.534 152 107 101
0.208286 -0.175371 -0.54 111 71 69
0.27174 -0.210121 -0.647 105 63 77
0.217149 -0.155236 -0.478 166 136 144
0.22168 -0.154587 -0.476 164 132 143
0.233467 -0.154587 -0.476 156 125 133
0.250311 -0.154911 -0.477 152 123 128
0.269733 -0.154587 -0.476 144 111 118
0.289076 -0.155236 -0.478 138 107 112
0.289987 -0.155236 -0.478 138 107 112
0.32154 -0.15686 -0.483 130 99 104
0.350683 -0.158809 -0.489 120 89 94
0.4075 -0.1705 -0.525 173 123 124
0.415311 -0.169201 -0.521 181 130 126
0.160239 -0.176727 -0.541 208 158 149
0.169733 -0.173787 -0.532 201 151 142
0.174143 -0.173133 -0.53 204 154 147
0.225738 -0.155167 -0.475 158 126 137
0.227548 -0.155167 -0.475 160 128 139
0.231167 -0.155167 -0.475 157 126 134
0.244347 -0.155493 -0.476 156 126 134
0.25976 -0.155493 -0.476 149 118 124
0.281792 -0.156147 -0.478 141 108 115
0.292718 -0.156147 -0.478 139 108 113
0.32338 -0.15778 -0.483 128 97 102
0.325893 -0.158107 -0.484 129 97 98
0.326815 -0.158107 -0.484 129 97 98
0.349036 -0.159413 -0.488 118 88 96
0.413327 -0.170193 -0.521 189 136 132
0.414319 -0.170193 -0.521 187 134 130
0.445454 -0.17542 -0.537 149 102 96
-0.148502 -0.212586 -0.647 193 193 185
-0.147497 -0.212914 -0.648 193 193 185
0.167391 -0.174471 -0.531 203 153 144
0.170426 -0.174471 -0.531 201 151 142
0.172124 -0.174143 -0.53 202 152 145
0.190944 -0.173814 -0.529 202 157 151
0.222119 -0.156071 -0.475 161 130 138
0.2375 -0.156071 -0.475 158 127 135
0.264643 -0.156071 -0.475 148 115 122
0.272453 -0.1564 -0.476 144 111 118
0.280294 -0.156729 -0.477 141 108 115
0.284837 -0.156729 -0.477 140 109 115
0.303086 -0.157714 -0.48 136 106 108
0.331186 -0.159357 -0.485 128 96 99
0.337423 -0.159686 -0.486 126 95 100
0.346466 -0.160014 -0.487 215 194 203
0.412334 -0.171186 -0.521 185 135 128
0.423879 -0.171843 -0.523 148 98 89
0.161217 -0.176474 -0.534 206 156 147
0.162946 -0.176144 -0.533 207 157 148
0.176503 -0.174491 -0.528 201 151 144
0.191951 -0.174822 -0.529 208 158 159
0.268871 -0.214479 -0.649 115 82 91
0.214375 -0.15929 -0.482 162 130 141
0.215786 -0.157637 -0.477 162 132 140
0.223929 -0.156976 -0.475 159 128 136
0.23931 -0.156976 -0.475 159 128 136
0.24888 -0.157307 -0.476 154 123 131
0.267357 -0.156976 -0.475 142 109 116
0.272453 -0.157307 -0.476 142 109 116
0.27608 -0.157307 -0.476 143 110 119
0.282111 -0.157637 -0.477 141 108 115
0.308298 -0.158959 -0.481 133 102 107
0.312879 -0.158959 -0.481 130 99 104
0.328659 -0.15995 -0.484 127 95 98
0.349036 -0.161272 -0.488 116 86 94
0.406944 -0.172839 -0.523 180 130 129
0.419281 -0.172178 -0.521 165 115 104
0.424875 -0.172839 -0.523 149 99 90
0.437629 -0.175152 -0.53 139 92 86
-0.149966 -0.215383 -0.648 191 192 184
-0.148731 -0.215383 -0.648 193 193 183
0.1602 -0.177491 -0.534 205 157 147
0.171474 -0.175497 -0.528 199 151 141
0.174491 -0.175497 -0.528 198 150 140
0.192594 -0.175497 -0.528 207 155 157
0.196352 -0.176162 -0.53 211 161 164
0.2079 -0.179153 -0.539 120 79 85
0.214343 -0.160872 -0.484 162 130 141
0.220773 -0.158213 -0.476 161 130 138
0.222119 -0.157881 -0.475 158 127 135
0.238405 -0.157881 -0.475 157 126 132
0.23931 -0.157881 -0.475 158 127 133
0.259214 -0.157881 -0.475 150 119 125
0.27369 -0.157881 -0.475 142 109 116
0.29636 -0.158878 -0.478 136 105 110
0.30063 -0.15921 -0.479 136 105 110
0.331425 -0.160872 -0.484 129 94 100
0.342271 -0.161205 -0.485 148 131 141
0.347393 -0.16187 -0.487 126 96 104
0.409649 -0.177159 -0.533 124 75 79
0.40716 -0.173503 -0.522 188 139 134
0.411342 -0.17317 -0.521 185 135 128
0.436803 -0.17583 -0.529 141 94 88
-0.154932 -0.214946 -0.643 189 189 181
0.165753 -0.176837 -0.529 200 154 141
0.173157 -0.176169 -0.527 202 154 142
0.201903 -0.178509 -0.534 173 129 130
0.21009 -0.181183 -0.542 134 94 103
0.214303 -0.162463 -0.486 165 138 145
0.236595 -0.158786 -0.475 155 126 131
0.255595 -0.158786 -0.475 150 119 125
0.263183 -0.158451 -0.474 145 114 120
0.2755 -0.158786 -0.475 143 110 117
0.276405 -0.158786 -0.475 142 109 116
0.306743 -0.160457 -0.48 131 102 104
0.308571 -0.160457 -0.48 131 102 106
0.319956 -0.161126 -0.482 129 98 103
0.337652 -0.162129 -0.485 117 91 94
-0.152957 -0.216843 -0.645 189 191 180
0.15236 -0.18356 -0.546 201 155 140
0.152557 -0.182551 -0.543 203 157 141
0.16544 -0.177509 -0.528 202 156 143
0.180844 -0.176836 -0.526 193 146 136
0.186855 -0.176836 -0.526 203 156 150
0.194974 -0.177845 -0.529 208 157 156
0.218053 -0.160027 -0.476 144 115 120
0.221214 -0.15969 -0.475 150 121 126
0.231583 -0.159354 -0.474 153 123 131
0.247452 -0.15969 -0.475 152 123 128
0.251976 -0.15969 -0.475 149 118 124
0.25469 -0.15969 -0.475 150 119 125
0.255595 -0.15969 -0.475 151 120 126
0.265891 -0.159354 -0.474 141 110 116
0.281833 -0.15969 -0.475 138 107 112
0.29636 -0.160699 -0.478 137 106 112
0.314971 -0.161371 -0.48 130 101 105
0.343195 -0.163052 -0.485 209 193 203
0.409649 -0.17919 -0.533 124 75 79
0.412334 -0.175155 -0.521 186 136 129
0.423069 -0.175491 -0.522 154 104 95
0.150555 -0.184938 -0.547 203 157 144
0.1593 -0.179529 -0.531 202 156 141
0.162423 -0.178514 -0.528 200 154 141
0.180844 -0.177838 -0.526 193 146 136
0.181846 -0.177838 -0.526 193 146 136
0.186855 -0.177838 -0.526 203 156 150
0.217513 -0.186967 -0.553 114 76 87
0.214427 -0.160933 -0.476 76 51 54
0.217147 -0.160933 -0.476 86 61 64
0.230262 -0.160595 -0.475 154 124 132
0.24332 -0.160257 -0.474 151 122 127
0.255057 -0.160257 -0.474 150 119 125
0.256863 -0.160257 -0.474 150 119 125
0.271309 -0.160257 -0.474 142 109 116
0.27731 -0.160595 -0.475 142 109 116
0.285452 -0.160595 -0.475 139 108 113
0.294831 -0.161271 -0.477 138 107 113
0.303367 -0.161948 -0.479 133 104 108
0.310666 -0.161948 -0.479 132 101 106
0.322041 -0.162624 -0.481 126 95 100
0.323629 -0.162962 -0.482 125 94 99
0.325465 -0.162962 -0.482 123 97 98
0.327301 -0.162962 -0.482 126 96 98
0.3289 -0.1633 -0.483 128 96 99
0.33419 -0.163638 -0.484 127 96 102
0.339722 -0.163638 -0.484 183 161 164
0.340644 -0.163638 -0.484 179 157 160
0.348107 -0.16499 -0.488 125 94 100
0.3514 -0.165667 -0.49 117 88 92
0.419281 -0.176148 -0.521 171 121 110
0.149657 -0.1836 -0.54 203 155 143
0.169142 -0.17918 -0.527 199 153 140
0.186855 -0.17884 -0.526 203 155 151
0.225738 -0.1615 -0.475 112 85 90
0.226643 -0.1615 -0.475 125 98 105
0.227548 -0.1615 -0.475 137 110 117
0.235194 -0.16116 -0.474 151 122 127
0.257766 -0.16116 -0.474 150 119 127
0.273114 -0.16116 -0.474 142 109 116
0.27492 -0.16116 -0.474 141 108 115
0.297557 -0.16218 -0.477 137 106 111
0.299374 -0.16218 -0.477 135 106 110
0.303644 -0.16252 -0.478 132 103 107
0.306375 -0.16252 -0.478 134 103 108
0.3335 -0.16422 -0.483 123 92 98
0.407582 -0.17986 -0.529 148 99 103
0.405948 -0.17782 -0.523 172 124 122
0.421266 -0.17714 -0.521 160 110 99
-0.170854 -0.219845 -0.643 179 178 173
-0.16588 -0.218135 -0.638 183 183 175
-0.164665 -0.218135 -0.638 184 184 176
0.1795 -0.1795 -0.525 194 147 137
0.1805 -0.1795 -0.525 193 146 138
0.1815 -0.1795 -0.525 194 147 139
0.209314 -0.184629 -0.54 134 90 105
0.237903 -0.162063 -0.474 147 116 122
0.244223 -0.162063 -0.474 152 119 128
0.245126 -0.162063 -0.474 153 120 129
0.247834 -0.162063 -0.474 151 120 128
0.263529 -0.161721 -0.473 166 133 140
0.269835 -0.161721 -0.473 142 109 116
0.306375 -0.16343 -0.478 132 101 106
0.310017 -0.16343 -0.478 133 102 107
0.311578 -0.163772 -0.479 132 101 106
0.322957 -0.164456 -0.481 126 95 100
0.406272 -0.179842 -0.526 158 112 112
0.408365 -0.178132 -0.521 185 135 126
0.413524 -0.17779 -0.52 187 138 133
0.414514 -0.17779 -0.52 184 133 129
0.42968 -0.179158 -0.524 141 93 89
-0.16345 -0.21935 -0.638 185 184 179
-0.159334 -0.220382 -0.641 186 187 179
-0.152434 -0.222789 -0.648 190 192 181
0.145812 -0.186001 -0.541 202 154 142
0.159708 -0.181875 -0.529 201 154 144
0.162115 -0.181188 -0.527 203 156 146
0.164123 -0.181188 -0.527 202 156 143
0.1725 -0.1805 -0.525 197 150 140
0.213816 -0.167435 -0.487 82 67 74
0.215328 -0.164341 -0.478 114 95 99
0.217603 -0.163997 -0.477 125 106 110
0.225738 -0.16331 -0.475 77 55 58
0.226643 -0.16331 -0.475 77 55 57
0.241119 -0.16331 -0.475 142 111 116
0.251446 -0.162966 -0.474 149 118 126
0.252349 -0.162966 -0.474 150 119 127
0.25596 -0.162966 -0.474 153 120 129
0.262628 -0.162622 -0.473 163 130 137
0.268934 -0.162622 -0.473 140 107 114
0.283046 -0.162966 -0.474 137 106 111
0.313659 -0.164341 -0.478 129 98 103
0.318877 -0.164685 -0.479 127 96 101
0.322286 -0.165029 -0.48 127 96 101
0.45878 -0.20938 -0.609 62 31 36
0.408571 -0.178781 -0.52 186 136 127
-0.16562 -0.22022 -0.637 184 184 176
-0.162234 -0.220566 -0.638 185 185 177
0.214744 -0.168363 -0.487 76 66 74
0.22712 -0.16456 -0.476 84 62 65
0.228933 -0.16456 -0.476 78 56 59
0.240214 -0.164214 -0.475 90 64 67
0.245126 -0.163869 -0.474 134 104 112
0.24964 -0.163869 -0.474 143 112 120
0.26228 -0.163869 -0.474 150 117 126
0.26443 -0.163523 -0.473 139 108 116
0.290587 -0.16456 -0.476 136 105 110
0.291493 -0.16456 -0.476 136 105 110
0.296027 -0.16456 -0.476 135 104 109
0.421448 -0.179771 -0.52 162 113 99
0.431676 -0.181154 -0.524 137 92 87
-0.172495 -0.222476 -0.64 177 178 170
-0.157382 -0.223519 -0.643 189 191 180
0.155677 -0.18389 -0.529 202 156 143
0.1695 -0.1825 -0.525 203 156 146
0.181154 -0.182152 -0.524 196 147 140
0.199757 -0.184586 -0.531 175 127 125
0.23528 -0.165467 -0.476 78 56 59
0.250543 -0.164771 -0.474 129 100 105
0.251446 -0.164771 -0.474 137 108 113
0.257766 -0.164771 -0.474 159 128 136
0.260474 -0.164771 -0.474 148 117 125
0.270736 -0.164424 -0.473 140 108 113
0.317301 -0.166162 -0.478 127 96 101
0.328686 -0.166857 -0.48 126 94 99
0.334868 -0.167205 -0.481 139 117 120
0.345043 -0.168595 -0.485 115 90 96
0.455409 -0.209614 -0.603 60 29 35
0.413233 -0.187367 -0.539 119 88 93
0.407581 -0.180762 -0.52 187 137 128
0.427046 -0.181457 -0.522 144 95 90
0.435328 -0.182848 -0.526 145 98 90
-0.170741 -0.222996 -0.638 178 179 171
-0.16345 -0.222996 -0.638 184 185 177
-0.161271 -0.223346 -0.639 186 186 178
0.155383 -0.184549 -0.528 203 157 144
0.169177 -0.18315 -0.524 205 158 148
0.18315 -0.18315 -0.524 198 150 140
0.1865 -0.1835 -0.525 209 158 155
0.19699 -0.184898 -0.529 207 157 156
0.20254 -0.186296 -0.533 128 78 79
0.212546 -0.189791 -0.543 167 117 129
0.222629 -0.167771 -0.48 79 66 73
0.23528 -0.166373 -0.476 82 62 64
0.256863 -0.165674 -0.474 151 122 127
0.284851 -0.165674 -0.474 136 106 108
0.290881 -0.166024 -0.475 136 106 108
0.310277 -0.166723 -0.477 130 99 104
0.34178 -0.16882 -0.483 181 158 164
0.347393 -0.170218 -0.487 119 90 95
0.452649 -0.212161 -0.607 63 33 41
0.40638 -0.182102 -0.521 191 138 132
0.41588 -0.181053 -0.518 178 125 117
-0.153669 -0.227726 -0.648 190 187 178
0.156092 -0.185203 -0.527 205 159 146
0.164187 -0.184149 -0.524 203 157 144
0.166862 -0.183797 -0.523 203 155 143
0.170847 -0.183797 -0.523 203 156 146
0.179812 -0.183797 -0.523 193 145 135
0.219594 -0.175011 -0.498 48 39 44
0.229943 -0.168686 -0.48 103 92 96
0.230857 -0.168686 -0.48 115 99 100
0.232686 -0.168686 -0.48 119 103 104
0.259571 -0.166577 -0.474 133 104 109
0.28756 -0.166577 -0.474 136 106 108
0.291786 -0.166929 -0.475 136 105 110
0.311186 -0.167631 -0.477 129 98 103
0.315729 -0.167631 -0.477 127 98 102
0.320943 -0.167983 -0.478 124 95 99
0.44622 -0.211911 -0.603 72 47 53
0.405388 -0.183094 -0.521 185 131 129
0.407786 -0.182391 -0.519 189 139 132
0.430852 -0.183797 -0.523 140 92 88
0.44536 -0.18696 -0.532 143 98 93
-0.166833 -0.225073 -0.637 183 183 175
-0.163706 -0.22578 -0.639 183 186 175
-0.156643 -0.2279 -0.645 187 189 178
-0.154664 -0.228607 -0.647 188 190 177
0.144129 -0.18762 -0.531 198 151 141
0.147616 -0.186913 -0.529 203 157 144
0.149349 -0.18656 -0.528 207 160 150
0.160194 -0.185147 -0.524 203 155 143
0.22224 -0.17808 -0.504 44 38 42
0.221691 -0.172427 -0.488 39 34 41
0.222621 -0.172427 -0.488 40 35 42
0.23138 -0.17066 -0.483 61 52 57
0.23991 -0.168893 -0.478 91 72 76
0.245643 -0.167833 -0.475 74 52 55
0.27492 -0.16748 -0.474 138 106 111
0.275241 -0.167127 -0.473 137 105 110
0.293595 -0.167833 -0.475 134 103 108
0.29631 -0.167833 -0.475 133 103 105
0.299024 -0.167833 -0.475 133 103 105
0.322764 -0.168893 -0.478 126 96 98
0.330738 -0.169247 -0.479 120 89 94
0.338532 -0.169953 -0.481 165 145 147
0.456048 -0.215533 -0.61 64 41 49
0.408111 -0.18762 -0.531 142 100 101
-0.158607 -0.228418 -0.643 187 189 178
-0.155655 -0.229484 -0.646 189 189 179
0.143857 -0.188276 -0.53 202 155 145
0.181805 -0.18579 -0.523 195 146 139
0.191135 -0.186145 -0.524 213 162 159
0.1925 -0.1865 -0.525 207 156 153
0.200769 -0.188631 -0.531 130 82 82
0.211763 -0.192184 -0.541 172 122 131
0.223476 -0.175488 -0.494 50 43 51
0.231891 -0.172646 -0.486 43 33 41
0.289366 -0.168383 -0.474 136 105 110
0.291171 -0.168383 -0.474 135 104 109
0.292977 -0.168383 -0.474 134 103 108
0.305357 -0.168738 -0.475 131 100 105
0.307167 -0.168738 -0.475 131 100 105
0.339449 -0.17087 -0.481 131 109 112
0.421626 -0.184369 -0.519 154 104 95
0.432845 -0.18579 -0.523 134 90 81
0.441006 -0.187566 -0.528 141 90 87
0.141094 -0.189643 -0.531 206 158 144
0.149066 -0.188214 -0.527 202 159 140
0.158198 -0.187143 -0.524 206 158 146
0.163873 -0.186786 -0.523 205 157 145
0.169526 -0.186429 -0.522 200 150 139
0.181457 -0.186429 -0.522 195 145 136
0.190137 -0.187143 -0.524 217 167 160
0.225939 -0.181429 -0.508 50 40 49
0.227215 -0.177143 -0.496 67 61 71
0.2366 -0.175 -0.49 45 34 40
0.243657 -0.171429 -0.48 87 75 79
0.274017 -0.169286 -0.474 117 91 94
0.31169 -0.169643 -0.475 128 98 100
0.319363 -0.170357 -0.477 124 94 96
0.320271 -0.170357 -0.477 125 95 97
0.340365 -0.171786 -0.481 110 90 92
0.34362 -0.1725 -0.483 112 83 88
0.349751 -0.174643 -0.489 117 82 89
0.456164 -0.215714 -0.604 62 33 35
0.418031 -0.184643 -0.517 163 113 102
0.422614 -0.185357 -0.519 149 100 93
0.4365 -0.1875 -0.525 145 101 88
-0.315095 -0.233381 -0.65 251 252 244
-0.311381 -0.233381 -0.65 250 251 243
0.1525 -0.1885 -0.525 203 158 139
0.155204 -0.188141 -0.524 203 155 141
0.158892 -0.187782 -0.523 206 159 143
0.164554 -0.187423 -0.522 204 156 144
0.168209 -0.187064 -0.521 201 153 139
0.172178 -0.187064 -0.521 197 147 136
0.175155 -0.187064 -0.521 194 144 133
0.209564 -0.193168 -0.538 131 90 104
0.231905 -0.179524 -0.5 79 72 80
0.235247 -0.178447 -0.497 40 37 48
0.237129 -0.177729 -0.495 39 36 45
0.238988 -0.17701 -0.493 45 35 44
0.246799 -0.171984 -0.479 89 72 78
0.266452 -0.170548 -0.475 75 53 55
0.28365 -0.16947 -0.472 137 107 109
0.287854 -0.16983 -0.473 133 103 105
0.326406 -0.171625 -0.478 125 93 94
0.333475 -0.171984 -0.479 165 142 148
0.336212 -0.171984 -0.479 209 190 196
0.414092 -0.185628 -0.517 180 127 119
0.415077 -0.185628 -0.517 173 120 112
0.420813 -0.185987 -0.518 158 110 100
