ply
format ascii 1.0
comment Created by Open3D
element vertex 1293
property double x
property double y
property double z
property uchar red
property uchar green
property uchar blue
end_header
0.0666057 -0.298072 -0.496 174 130 117
0.0923238 -0.314899 -0.524 115 93 96
0.0936781 -0.316101 -0.526 112 90 93
0.09504 -0.317303 -0.528 110 88 91
0.115281 -0.338336 -0.563 101 82 86
0.135654 -0.361172 -0.601 230 229 243
0.158495 -0.377398 -0.628 234 237 255
0.169261 -0.377398 -0.628 202 208 232
0.182419 -0.377398 -0.628 133 149 200
0.186008 -0.377398 -0.628 169 187 233
0.194381 -0.377398 -0.628 115 124 165
0.24579 -0.379201 -0.631 94 125 179
0.248193 -0.379201 -0.631 99 132 186
0.269051 -0.379802 -0.632 188 194 220
0.336322 -0.381004 -0.634 121 127 159
0.371343 -0.381004 -0.634 127 136 167
0.386431 -0.380403 -0.633 167 170 185
0.411 -0.3786 -0.63 148 162 191
0.420066 -0.379201 -0.631 103 111 148
0.4398 -0.3786 -0.63 107 135 185
0.457073 -0.377999 -0.629 95 99 126
0.487448 -0.377398 -0.628 120 123 142
0.498614 -0.376797 -0.627 110 129 171
0.531548 -0.375595 -0.625 197 198 218
0.0471333 -0.2954 -0.49 198 161 143
0.0508667 -0.2954 -0.49 200 161 144
0.0536667 -0.2954 -0.49 198 159 144
0.0565819 -0.296003 -0.491 188 146 132
0.0604457 -0.296606 -0.492 187 145 131
0.0820857 -0.307457 -0.51 140 102 99
0.0833829 -0.308663 -0.512 137 102 100
0.107381 -0.331571 -0.55 102 85 91
0.157299 -0.378594 -0.628 231 232 252
0.175242 -0.378594 -0.628 170 183 215
0.17883 -0.378594 -0.628 139 154 193
0.2418 -0.3798 -0.63 163 179 215
0.2586 -0.3798 -0.63 189 197 216
0.277478 -0.381006 -0.632 142 146 157
0.313592 -0.381006 -0.632 111 137 194
0.381609 -0.381609 -0.633 84 107 157
0.392422 -0.380403 -0.631 168 169 187
0.463524 -0.378594 -0.628 170 172 193
0.46398 -0.377991 -0.627 166 174 195
0.477117 -0.377991 -0.627 164 171 187
0.485477 -0.377991 -0.627 83 84 104
0.51414 -0.377991 -0.627 141 146 168
0.53222 -0.37558 -0.623 195 197 212
0.471177 -0.318309 -0.528 154 112 100
0.47002 -0.29962 -0.497 162 114 92
0.491004 -0.302634 -0.502 152 110 94
0.0730029 -0.302986 -0.501 147 103 100
0.0752105 -0.304195 -0.503 147 103 102
0.0846876 -0.310848 -0.514 130 94 94
0.105947 -0.33141 -0.548 101 84 90
0.122544 -0.348948 -0.577 102 89 96
0.157049 -0.379186 -0.627 217 218 236
0.172574 -0.379186 -0.627 186 196 221
0.194071 -0.379186 -0.627 145 154 195
0.20482 -0.379186 -0.627 217 220 239
0.236174 -0.381605 -0.631 186 190 217
0.2406 -0.381 -0.63 164 171 197
0.2442 -0.381 -0.63 119 143 189
0.251001 -0.380395 -0.629 124 147 197
0.2574 -0.381 -0.63 193 200 216
0.268626 -0.381605 -0.631 182 192 219
0.287856 -0.381605 -0.631 167 172 202
0.303481 -0.381605 -0.631 163 167 192
0.305885 -0.381605 -0.631 95 102 130
0.319106 -0.381605 -0.631 124 139 178
0.323223 -0.38221 -0.632 179 180 208
0.336465 -0.38221 -0.632 63 77 116
0.340076 -0.38221 -0.632 126 142 176
0.344346 -0.381605 -0.631 36 63 118
0.363523 -0.382814 -0.633 172 178 200
0.36656 -0.38221 -0.632 169 173 198
0.385821 -0.38221 -0.632 167 170 189
0.42113 -0.380395 -0.629 106 115 146
0.42405 -0.37979 -0.628 166 171 200
0.444385 -0.37979 -0.628 125 136 168
0.445581 -0.37979 -0.628 148 159 191
0.453954 -0.37979 -0.628 85 93 116
0.473534 -0.379186 -0.627 166 171 193
0.479506 -0.379186 -0.627 163 168 187
0.487088 -0.378581 -0.626 82 83 104
0.491857 -0.378581 -0.626 172 177 207
0.497024 -0.377976 -0.625 93 115 165
0.498214 -0.377976 -0.625 84 106 156
0.506166 -0.378581 -0.626 156 174 222
0.51332 -0.378581 -0.626 103 113 140
0.51809 -0.378581 -0.626 180 191 213
0.474624 -0.322338 -0.533 156 114 100
0.462195 -0.305405 -0.505 169 126 107
0.4757 -0.300567 -0.497 169 118 97
0.490026 -0.302986 -0.501 154 113 95
0.0452667 -0.297267 -0.49 198 163 144
0.0535571 -0.29666 -0.489 196 158 139
0.10614 -0.33306 -0.549 99 82 88
0.172299 -0.379773 -0.626 201 206 228
0.194071 -0.38038 -0.627 145 154 195
0.198849 -0.38038 -0.627 203 207 232
0.21352 -0.380987 -0.628 196 195 213
0.2814 -0.3822 -0.63 150 160 196
0.2826 -0.3822 -0.63 166 176 212
0.2874 -0.3822 -0.63 149 153 190
0.2958 -0.3822 -0.63 170 181 203
0.316702 -0.382807 -0.631 80 105 161
0.33165 -0.383413 -0.632 163 163 187
0.335261 -0.383413 -0.632 64 79 120
0.37619 -0.383413 -0.632 110 131 174
0.377394 -0.383413 -0.632 111 135 181
0.378598 -0.383413 -0.632 98 122 168
0.379802 -0.383413 -0.632 92 114 163
0.425246 -0.380987 -0.628 164 170 192
0.489881 -0.379167 -0.625 148 152 187
0.520833 -0.379167 -0.625 196 199 214
0.486454 -0.334273 -0.551 144 111 102
0.46282 -0.310007 -0.511 163 125 106
0.461233 -0.306367 -0.505 164 126 105
0.463333 -0.303333 -0.5 174 129 106
0.48138 -0.301513 -0.497 156 113 94
0.484246 -0.30212 -0.498 155 114 94
0.0417029 -0.299417 -0.492 207 172 153
0.0479686 -0.297591 -0.489 200 163 145
0.0645857 -0.301243 -0.495 177 133 122
0.0886476 -0.316457 -0.52 115 93 96
0.119511 -0.348711 -0.573 100 88 90
0.150836 -0.380966 -0.626 239 238 255
0.155606 -0.380966 -0.626 225 227 239
0.167262 -0.380357 -0.625 158 165 193
0.170833 -0.380357 -0.625 224 229 251
0.172024 -0.380357 -0.625 221 222 242
0.19257 -0.380966 -0.626 208 206 230
0.204493 -0.380966 -0.626 220 222 245
0.208403 -0.381574 -0.627 210 218 239
0.210791 -0.381574 -0.627 213 213 237
0.227874 -0.382183 -0.628 103 112 141
0.256991 -0.382791 -0.629 186 193 219
0.288142 -0.382791 -0.629 80 98 144
0.298925 -0.382791 -0.629 177 182 204
0.3222 -0.3834 -0.63 175 180 202
0.3462 -0.3834 -0.63 121 140 183
0.360541 -0.384617 -0.632 166 173 199
0.365356 -0.384617 -0.632 173 175 196
0.3858 -0.3834 -0.63 168 169 187
0.393574 -0.382791 -0.629 115 125 152
0.423374 -0.381574 -0.627 115 127 153
0.426957 -0.381574 -0.627 106 104 125
0.477549 -0.380966 -0.626 171 173 196
0.494643 -0.380357 -0.625 104 123 166
0.526287 -0.37914 -0.623 185 188 205
0.532877 -0.377923 -0.621 159 167 188
0.0382629 -0.302796 -0.496 208 167 149
0.0583333 -0.299133 -0.49 186 144 130
0.118007 -0.348582 -0.571 99 82 88
0.157738 -0.381548 -0.625 231 230 248
0.227874 -0.383379 -0.628 148 155 184
0.24501 -0.38399 -0.629 130 151 196
0.246209 -0.38399 -0.629 136 157 202
0.260171 -0.383379 -0.628 191 196 216
0.261368 -0.383379 -0.628 188 195 214
0.297253 -0.383379 -0.628 174 176 201
0.30443 -0.383379 -0.628 110 119 160
0.3378 -0.3846 -0.63 144 157 191
0.356365 -0.38521 -0.631 150 160 195
0.358769 -0.38521 -0.631 129 140 170
0.3666 -0.3846 -0.63 168 173 195
0.388782 -0.38399 -0.629 146 152 168
0.391752 -0.383379 -0.628 64 72 93
0.411431 -0.382769 -0.627 170 172 193
0.451316 -0.382158 -0.626 59 67 103
0.482738 -0.381548 -0.625 105 105 115
0.49504 -0.380937 -0.624 102 122 172
0.497417 -0.380937 -0.624 62 81 139
0.505737 -0.380937 -0.624 107 130 180
0.522727 -0.380327 -0.623 195 197 212
0.483383 -0.332099 -0.544 148 116 105
0.467187 -0.316227 -0.518 158 122 106
0.463793 -0.311953 -0.511 162 124 105
0.462094 -0.309511 -0.507 163 125 106
0.0563514 -0.299454 -0.489 186 148 129
0.07 -0.30619 -0.5 154 115 108
0.0744 -0.30864 -0.504 148 107 103
0.165806 -0.382126 -0.624 202 207 237
0.172937 -0.382126 -0.624 196 197 215
0.184823 -0.382126 -0.624 163 178 209
0.199405 -0.382738 -0.625 127 132 161
0.219151 -0.383963 -0.627 196 202 226
0.225123 -0.383963 -0.627 141 146 175
0.227511 -0.383963 -0.627 195 202 231
0.232659 -0.384575 -0.628 203 201 222
0.24821 -0.384575 -0.628 123 147 195
0.257779 -0.384575 -0.628 188 194 216
0.26376 -0.384575 -0.628 189 195 219
0.269741 -0.384575 -0.628 68 80 118
0.276918 -0.384575 -0.628 80 93 135
0.285291 -0.384575 -0.628 106 119 154
0.352839 -0.385188 -0.629 161 164 195
0.393517 -0.383963 -0.627 163 168 197
0.400683 -0.383963 -0.627 172 174 189
0.401877 -0.383963 -0.627 166 172 198
0.41793 -0.38335 -0.626 167 173 195
0.427469 -0.38335 -0.626 167 168 196
0.432238 -0.38335 -0.626 139 153 192
0.442262 -0.382738 -0.625 117 134 177
0.460119 -0.382738 -0.625 163 169 183
0.467703 -0.382126 -0.624 107 108 136
0.468891 -0.382126 -0.624 127 128 156
0.492663 -0.382126 -0.624 51 72 125
0.504927 -0.381513 -0.623 88 114 171
0.51086 -0.381513 -0.623 103 123 173
0.511606 -0.356406 -0.582 126 105 102
0.496166 -0.344158 -0.562 134 107 98
0.474085 -0.32395 -0.529 156 123 108
0.472398 -0.322112 -0.526 155 122 107
0.470964 -0.303741 -0.496 173 128 107
0.481356 -0.303741 -0.496 157 114 95
0.48422 -0.304353 -0.497 153 112 92
0.0372429 -0.304071 -0.495 200 167 150
0.0441524 -0.299771 -0.488 201 164 146
0.0477724 -0.299157 -0.487 197 160 142
0.0505552 -0.299157 -0.487 196 159 143
0.0514829 -0.299157 -0.487 192 155 139
0.0553067 -0.299771 -0.488 189 151 130
0.0678229 -0.305914 -0.498 163 120 104
0.0755095 -0.310214 -0.505 146 105 101
0.149405 -0.383929 -0.625 214 213 227
0.166727 -0.3827 -0.623 223 225 246
0.181257 -0.383314 -0.624 180 194 223
0.1872 -0.383314 -0.624 198 208 235
0.18869 -0.383929 -0.625 215 220 242
0.239454 -0.385157 -0.627 111 121 156
0.264534 -0.385157 -0.627 190 197 215
0.275283 -0.385157 -0.627 130 145 186
0.276477 -0.385157 -0.627 77 92 133
0.28842 -0.385157 -0.627 60 78 124
0.289614 -0.385157 -0.627 60 78 124
0.290809 -0.385157 -0.627 133 147 182
0.356433 -0.386386 -0.629 169 174 206
0.372009 -0.386386 -0.629 95 104 135
0.374405 -0.386386 -0.629 105 118 160
0.388164 -0.385771 -0.628 96 102 124
0.391752 -0.385771 -0.628 92 99 127
0.392323 -0.385157 -0.627 147 152 181
0.410775 -0.384543 -0.626 164 166 189
0.414352 -0.384543 -0.626 165 170 192
0.415545 -0.384543 -0.626 168 173 195
0.41793 -0.384543 -0.626 168 173 195
0.43631 -0.383929 -0.625 52 87 155
0.43869 -0.383929 -0.625 43 78 146
0.457738 -0.383929 -0.625 172 172 180
0.464137 -0.383314 -0.624 148 152 177
0.51086 -0.3827 -0.623 100 123 173
0.468127 -0.3053 -0.497 180 135 116
0.471909 -0.304686 -0.496 174 129 108
0.486113 -0.3053 -0.497 146 108 89
0.495785 -0.308371 -0.502 146 105 87
0.0678229 -0.306863 -0.498 162 118 105
0.07 -0.308095 -0.5 153 114 109
0.0865 -0.319803 -0.519 116 91 95
0.115426 -0.350612 -0.569 100 81 85
0.175937 -0.38327 -0.622 171 178 207
0.180967 -0.383887 -0.623 179 194 223
0.210119 -0.385119 -0.625 173 175 196
0.266497 -0.385735 -0.626 98 105 131
0.272459 -0.385735 -0.626 161 177 213
0.296307 -0.385735 -0.626 175 177 202
0.309917 -0.386351 -0.627 122 140 188
0.322373 -0.386968 -0.628 178 178 202
0.352278 -0.386968 -0.628 167 171 198
0.368414 -0.387584 -0.629 156 158 183
0.377398 -0.386968 -0.628 114 132 178
0.3971 -0.386351 -0.627 170 173 190
0.433234 -0.384503 -0.624 51 81 143
0.480007 -0.383887 -0.623 149 142 149
0.495823 -0.38327 -0.622 35 61 122
0.504116 -0.38327 -0.622 51 80 138
0.531161 -0.381422 -0.619 185 184 200
0.53234 -0.381422 -0.619 183 182 198
0.463917 -0.313641 -0.509 169 126 109
0.46416 -0.31056 -0.504 170 127 108
0.46423 -0.309328 -0.502 173 130 113
0.463333 -0.308095 -0.5 172 129 112
0.466233 -0.306247 -0.497 173 130 111
0.475671 -0.305014 -0.495 168 123 104
0.479443 -0.305014 -0.495 158 115 96
0.0514829 -0.301012 -0.487 189 152 134
0.0563514 -0.302249 -0.489 184 146 125
0.0678229 -0.307811 -0.498 161 117 106
0.11904 -0.356023 -0.576 101 85 96
0.146553 -0.385073 -0.623 183 185 210
0.149166 -0.385691 -0.624 183 183 207
0.162905 -0.384455 -0.622 222 222 248
0.17978 -0.385073 -0.623 189 200 230
0.180967 -0.385073 -0.623 179 194 223
0.202651 -0.385691 -0.624 120 124 159
0.217262 -0.38631 -0.625 178 189 219
0.242262 -0.38631 -0.625 104 132 180
0.252976 -0.38631 -0.625 174 181 207
0.278421 -0.386928 -0.626 100 125 182
0.302269 -0.386928 -0.626 152 161 190
0.342163 -0.387546 -0.627 87 92 114
0.354106 -0.387546 -0.627 169 174 196
0.361848 -0.388164 -0.628 105 115 151
0.36424 -0.388164 -0.628 152 165 199
0.416071 -0.38631 -0.625 167 170 189
0.457006 -0.385691 -0.624 138 136 139
0.458194 -0.385691 -0.624 152 150 153
0.486345 -0.384455 -0.622 158 163 183
0.505301 -0.384455 -0.622 88 115 170
0.5175 -0.383837 -0.621 147 146 152
0.522154 -0.367149 -0.594 115 97 93
0.484563 -0.335626 -0.543 152 116 104
0.464197 -0.310902 -0.503 172 129 110
0.483214 -0.305957 -0.495 157 114 97
0.0431343 -0.30194 -0.487 200 162 141
0.103003 -0.34038 -0.549 103 84 88
0.104428 -0.34162 -0.551 102 83 87
0.14774 -0.38626 -0.623 159 164 193
0.149166 -0.38688 -0.624 186 191 220
0.153673 -0.38626 -0.623 218 223 242
0.19758 -0.38626 -0.623 213 214 234
0.206217 -0.38688 -0.624 139 143 172
0.231548 -0.3875 -0.625 193 200 216
0.268023 -0.38688 -0.624 155 162 188
0.280357 -0.3875 -0.625 169 178 209
0.28869 -0.3875 -0.625 171 176 206
0.297024 -0.3875 -0.625 168 173 203
0.306548 -0.3875 -0.625 99 117 157
0.315385 -0.38812 -0.626 109 130 177
0.31777 -0.38812 -0.626 135 147 185
0.327309 -0.38812 -0.626 90 97 126
0.340425 -0.38812 -0.626 174 176 201
0.34281 -0.38812 -0.626 149 152 171
0.364854 -0.38874 -0.627 171 175 200
0.380966 -0.38812 -0.626 164 171 197
0.473312 -0.38564 -0.622 131 130 146
0.511943 -0.3844 -0.62 146 151 171
0.522908 -0.38378 -0.619 194 192 205
0.53062 -0.38254 -0.617 196 190 202
0.464074 -0.31372 -0.506 173 130 113
0.46426 -0.31062 -0.501 169 126 109
0.481329 -0.3069 -0.495 158 115 96
0.0422067 -0.302868 -0.487 201 163 142
0.153427 -0.386825 -0.622 208 215 241
0.155796 -0.386825 -0.622 160 171 201
0.175654 -0.386203 -0.621 166 179 213
0.183046 -0.386825 -0.622 146 158 198
0.1866 -0.386825 -0.622 198 204 236
0.25376 -0.388069 -0.624 189 195 221
0.284663 -0.388069 -0.624 176 182 208
0.30368 -0.388069 -0.624 118 131 163
0.343452 -0.38869 -0.625 169 177 196
0.361271 -0.389934 -0.627 53 63 98
0.378581 -0.389312 -0.626 110 129 171
0.41474 -0.387447 -0.623 178 176 189
0.438954 -0.386825 -0.622 24 52 117
0.463834 -0.386825 -0.622 153 156 175
0.470943 -0.386825 -0.622 164 167 184
0.472128 -0.386825 -0.622 162 161 175
0.500133 -0.385581 -0.62 79 106 175
0.504857 -0.385581 -0.62 138 160 207
0.521729 -0.384959 -0.619 194 194 206
0.526771 -0.384337 -0.618 196 193 202
0.521524 -0.368168 -0.592 119 100 96
0.4976 -0.348267 -0.56 140 112 100
0.472843 -0.307843 -0.495 173 130 111
0.480356 -0.307221 -0.494 161 118 101
0.48797 -0.308465 -0.496 154 111 94
0.491834 -0.309709 -0.498 153 109 96
0.0495257 -0.303171 -0.486 192 154 133
0.0723362 -0.313776 -0.503 148 108 100
0.085841 -0.325005 -0.521 115 91 91
0.108267 -0.349333 -0.56 101 82 86
0.148688 -0.38801 -0.622 185 190 219
0.175654 -0.387386 -0.621 166 179 213
0.205887 -0.388633 -0.623 167 170 203
0.213349 -0.389257 -0.624 103 129 178
0.230807 -0.388633 -0.623 192 197 219
0.23674 -0.388633 -0.623 141 155 190
0.266407 -0.388633 -0.623 187 193 207
0.292513 -0.388633 -0.623 68 82 121
0.30082 -0.388633 -0.623 154 158 185
0.352976 -0.389881 -0.625 176 174 195
0.377976 -0.389881 -0.625 82 104 151
0.444163 -0.387386 -0.621 44 67 121
0.453171 -0.38801 -0.622 172 171 185
0.454356 -0.38801 -0.622 173 172 186
0.470186 -0.387386 -0.621 165 166 184
0.471369 -0.387386 -0.621 168 170 183
0.501314 -0.386762 -0.62 70 106 164
0.503676 -0.386762 -0.62 112 146 194
0.518191 -0.386138 -0.619 190 186 200
0.525048 -0.37179 -0.596 120 99 98
0.500266 -0.351205 -0.563 140 110 100
0.495995 -0.347462 -0.557 143 113 103
0.4788 -0.331867 -0.532 156 118 107
0.471877 -0.325005 -0.521 159 121 108
0.470147 -0.323133 -0.518 156 119 103
0.481297 -0.308162 -0.494 159 116 99
0.488914 -0.30941 -0.496 155 111 98
0.0346248 -0.372926 -0.596 199 164 144
0.0430457 -0.304097 -0.486 201 163 142
0.0624467 -0.308477 -0.493 165 123 109
0.0645857 -0.309729 -0.495 161 118 109
0.0712362 -0.314109 -0.502 151 111 101
0.0794819 -0.320366 -0.512 127 97 95
0.163562 -0.387943 -0.62 226 228 251
0.169467 -0.387943 -0.62 221 219 243
0.170648 -0.387943 -0.62 171 182 210
0.181569 -0.388569 -0.621 149 163 192
0.203187 -0.389194 -0.622 139 145 177
0.204371 -0.389194 -0.622 173 179 211
0.217753 -0.38982 -0.623 185 189 218
0.223328 -0.389194 -0.622 138 141 176
0.226882 -0.389194 -0.622 180 187 216
0.228433 -0.38982 -0.623 188 195 224
0.256913 -0.38982 -0.623 180 184 211
0.267164 -0.389194 -0.622 186 190 201
0.268349 -0.389194 -0.622 180 186 198
0.29726 -0.38982 -0.623 157 167 203
0.314881 -0.391071 -0.625 132 150 196
0.316071 -0.391071 -0.625 132 150 196
0.346469 -0.390446 -0.624 170 177 196
0.367262 -0.391071 -0.625 81 94 138
0.3827 -0.38982 -0.623 61 83 130
0.385073 -0.38982 -0.623 153 168 201
0.387447 -0.38982 -0.623 164 171 190
0.409335 -0.389194 -0.622 136 134 158
0.440614 -0.388569 -0.621 61 91 155
0.457174 -0.388569 -0.621 113 112 120
0.46782 -0.388569 -0.621 169 168 184
0.473734 -0.388569 -0.621 128 128 136
0.476514 -0.387943 -0.62 168 172 181
0.488715 -0.387317 -0.619 157 170 204
0.511117 -0.387317 -0.619 120 126 152
0.524744 -0.386066 -0.617 197 194 205
0.468474 -0.321617 -0.514 159 120 105
0.466209 -0.312231 -0.499 173 130 113
0.488914 -0.310354 -0.496 155 113 99
0.0339971 -0.306906 -0.489 204 166 145
0.0357133 -0.30565 -0.487 205 167 146
0.0485 -0.304395 -0.485 191 153 134
0.0645857 -0.310671 -0.495 161 118 109
0.0917067 -0.333893 -0.532 106 84 87
0.103753 -0.347073 -0.553 101 80 85
0.105375 -0.348956 -0.556 101 82 86
0.127286 -0.372806 -0.594 231 236 255
0.14939 -0.389124 -0.62 209 216 245
0.221313 -0.391007 -0.623 194 200 224
0.238346 -0.389751 -0.621 123 145 184
0.243077 -0.389751 -0.621 119 143 179
0.257686 -0.390379 -0.622 137 143 175
0.309127 -0.391007 -0.623 63 92 150
0.327451 -0.391634 -0.624 173 179 205
0.331017 -0.391634 -0.624 132 132 142
0.337607 -0.391007 -0.623 165 173 192
0.367863 -0.391634 -0.624 74 99 155
0.37914 -0.391007 -0.623 33 62 118
0.38626 -0.391007 -0.623 150 163 197
0.401042 -0.390379 -0.622 125 135 162
0.428095 -0.389124 -0.62 74 103 163
0.44581 -0.389124 -0.62 71 87 123
0.47061 -0.389124 -0.62 171 170 184
0.49579 -0.388496 -0.619 91 112 165
0.532718 -0.385358 -0.614 190 186 200
0.4824 -0.336404 -0.536 152 118 108
0.469386 -0.323224 -0.515 157 119 106
0.470957 -0.310671 -0.495 178 133 114
0.477506 -0.309416 -0.493 168 125 106
0.0321343 -0.307837 -0.489 205 167 146
0.0475762 -0.305319 -0.485 194 156 137
0.0563514 -0.307837 -0.489 178 140 119
0.0746952 -0.318539 -0.506 139 102 96
0.09774 -0.341831 -0.543 104 84 86
0.09932 -0.34372 -0.546 103 83 85
0.150329 -0.389675 -0.619 214 218 243
0.256089 -0.390934 -0.621 118 128 164
0.262762 -0.390305 -0.62 188 191 208
0.283294 -0.390934 -0.621 178 184 200
0.298671 -0.390934 -0.621 143 153 180
0.310313 -0.392193 -0.623 57 81 151
0.398031 -0.390934 -0.621 141 149 170
0.412226 -0.390934 -0.621 112 111 117
0.418648 -0.390305 -0.62 179 175 189
0.434479 -0.389675 -0.619 47 81 144
0.491457 -0.389046 -0.618 104 124 161
0.492634 -0.389046 -0.618 76 96 133
0.493811 -0.389046 -0.618 79 102 152
0.507115 -0.388416 -0.617 183 186 205
0.4755 -0.3305 -0.525 154 120 108
0.471888 -0.310985 -0.494 175 129 113
0.0384171 -0.306874 -0.486 205 167 146
0.0411943 -0.306874 -0.486 200 162 141
0.0761076 -0.321397 -0.509 132 97 93
0.0920514 -0.337183 -0.534 104 84 86
0.117657 -0.366229 -0.58 95 83 93
0.156224 -0.390854 -0.619 183 193 220
0.166566 -0.390223 -0.618 223 219 242
0.170097 -0.390223 -0.618 182 192 219
0.180984 -0.390854 -0.619 155 169 196
0.182163 -0.390854 -0.619 150 161 183
0.190724 -0.391486 -0.62 212 213 233
0.194267 -0.391486 -0.62 180 182 205
0.205226 -0.392117 -0.621 199 202 217
0.217054 -0.392117 -0.621 199 201 222
0.218237 -0.392117 -0.621 197 199 220
0.220248 -0.391486 -0.62 193 198 217
0.241894 -0.392117 -0.621 92 120 168
0.243077 -0.392117 -0.621 90 118 166
0.253314 -0.391486 -0.62 182 186 221
0.267054 -0.390854 -0.619 154 155 160
0.27339 -0.391486 -0.62 169 172 189
0.287562 -0.391486 -0.62 172 179 195
0.292286 -0.391486 -0.62 152 158 190
0.305769 -0.392117 -0.621 56 82 141
0.314554 -0.392749 -0.622 86 107 170
0.348912 -0.392749 -0.622 158 166 187
0.351282 -0.392749 -0.622 166 172 188
0.363713 -0.39338 -0.623 52 70 116
0.381471 -0.392117 -0.621 61 85 131
0.470269 -0.390223 -0.618 166 168 181
0.474977 -0.390223 -0.618 117 121 130
0.500064 -0.389591 -0.617 85 109 153
0.518868 -0.389591 -0.617 182 188 210
0.466002 -0.319503 -0.506 165 126 111
0.46718 -0.31382 -0.497 175 132 115
0.470014 -0.312557 -0.495 176 131 112
0.489814 -0.312557 -0.495 155 118 99
0.0328629 -0.3078 -0.486 204 166 143
0.0374143 -0.307167 -0.485 200 162 139
0.0392619 -0.307167 -0.485 199 161 138
0.0615076 -0.312233 -0.493 166 124 112
0.109233 -0.357833 -0.565 102 83 89
0.15244 -0.3914 -0.618 219 220 241
0.155971 -0.3914 -0.618 213 219 243
0.187181 -0.392667 -0.62 209 212 231
0.188362 -0.392667 -0.62 209 212 231
0.19749 -0.392033 -0.619 188 190 211
0.276487 -0.392033 -0.619 156 161 180
0.278845 -0.392033 -0.619 175 180 199
0.282382 -0.392033 -0.619 182 185 200
0.294648 -0.392667 -0.62 122 129 158
0.29819 -0.392667 -0.62 92 103 131
0.305276 -0.392667 -0.62 38 66 131
0.327587 -0.393933 -0.622 173 178 200
0.336523 -0.3933 -0.621 132 129 146
0.3519 -0.3933 -0.621 168 171 180
0.36313 -0.393933 -0.622 51 69 115
0.393848 -0.392667 -0.62 145 145 155
0.453344 -0.392033 -0.619 142 145 162
0.50359 -0.390767 -0.617 104 126 165
0.521871 -0.3895 -0.615 156 160 185
0.530683 -0.388233 -0.613 171 178 197
0.526433 -0.376833 -0.595 120 98 101
0.471888 -0.312867 -0.494 179 134 115
0.48314 -0.312233 -0.493 158 116 94
0.0261905 -0.317619 -0.5 201 164 145
0.0383381 -0.30809 -0.485 205 165 140
0.0401857 -0.30809 -0.485 197 156 134
0.0466524 -0.30809 -0.485 190 149 129
0.067959 -0.316984 -0.499 152 107 102
0.0749905 -0.322701 -0.508 134 99 95
0.0895114 -0.337311 -0.531 105 85 87
0.140441 -0.391942 -0.617 225 225 249
0.146317 -0.391942 -0.617 197 204 230
0.169822 -0.391942 -0.617 186 196 223
0.178337 -0.392577 -0.618 159 172 206
0.191595 -0.393212 -0.619 190 196 218
0.19749 -0.393212 -0.619 193 198 217
0.199849 -0.393212 -0.619 203 205 217
0.203386 -0.393212 -0.619 156 160 161
0.207257 -0.393848 -0.62 202 203 221
0.240324 -0.393848 -0.62 78 102 150
0.242294 -0.393212 -0.619 82 111 171
0.249369 -0.393212 -0.619 134 157 199
0.257206 -0.392577 -0.618 165 181 206
0.258383 -0.392577 -0.618 174 190 215
0.323511 -0.394483 -0.621 155 161 185
0.337162 -0.393848 -0.62 130 128 139
0.345429 -0.393848 -0.62 153 156 175
0.34779 -0.393848 -0.62 173 176 195
0.356057 -0.393848 -0.62 131 130 135
0.369048 -0.393848 -0.62 55 79 139
0.397929 -0.393212 -0.619 170 172 185
0.409719 -0.393212 -0.619 168 167 181
0.469508 -0.391942 -0.617 169 172 191
0.49808 -0.391307 -0.616 128 149 192
0.474771 -0.331594 -0.522 158 120 107
0.469577 -0.325242 -0.512 162 125 109
0.466143 -0.31889 -0.502 170 129 111
0.469074 -0.315078 -0.496 175 132 113
0.477474 -0.312537 -0.492 174 132 110
0.487835 -0.313172 -0.493 157 119 98
0.0401029 -0.308377 -0.484 196 155 133
0.0925686 -0.342146 -0.537 103 82 79
0.149843 -0.393117 -0.617 224 225 253
0.156894 -0.393117 -0.617 212 218 242
0.161333 -0.39248 -0.616 176 182 208
0.169822 -0.393117 -0.617 180 191 219
0.170997 -0.393117 -0.617 174 185 213
0.180691 -0.393754 -0.618 148 162 191
0.209281 -0.394391 -0.619 200 201 221
0.228146 -0.394391 -0.619 62 79 123
0.252497 -0.393754 -0.618 96 113 165
0.266623 -0.393754 -0.618 174 174 186
0.272509 -0.393754 -0.618 125 129 141
0.294172 -0.394391 -0.619 135 141 165
0.301247 -0.394391 -0.619 50 80 142
0.32299 -0.395029 -0.62 162 166 193
0.328895 -0.395029 -0.62 161 173 195
0.373169 -0.394391 -0.619 66 98 155
0.389046 -0.393754 -0.618 173 176 193
0.411411 -0.393754 -0.618 168 167 183
0.435893 -0.39248 -0.616 78 104 155
0.448353 -0.393117 -0.617 109 116 144
0.45658 -0.393117 -0.617 176 177 195
0.516014 -0.391843 -0.615 166 174 197
0.517514 -0.391206 -0.614 92 107 138
0.52687 -0.391206 -0.614 145 157 195
0.488832 -0.345331 -0.542 151 117 108
0.470019 -0.316023 -0.496 177 135 113
0.50736 -0.32112 -0.504 143 106 87
0.0265457 -0.312494 -0.489 204 166 143
0.0291 -0.309938 -0.485 205 168 142
0.0309476 -0.309938 -0.485 208 168 143
0.0318057 -0.309299 -0.484 204 164 139
0.0912048 -0.34189 -0.535 104 83 82
0.09724 -0.34892 -0.546 102 82 91
0.154293 -0.393653 -0.616 216 221 241
0.165121 -0.394292 -0.617 215 217 240
0.195994 -0.394931 -0.618 195 201 223
0.203057 -0.394931 -0.618 186 189 196
0.224246 -0.394931 -0.618 188 194 208
0.225423 -0.394931 -0.618 177 189 213
0.23484 -0.394931 -0.618 92 113 160
0.24308 -0.394931 -0.618 49 82 153
0.270892 -0.394292 -0.617 110 114 126
0.273243 -0.394292 -0.617 126 129 148
0.279119 -0.394292 -0.617 128 129 157
0.291343 -0.394931 -0.618 161 160 178
0.329544 -0.39557 -0.619 164 175 195
0.336074 -0.394931 -0.618 117 111 123
0.413096 -0.394292 -0.617 136 137 157
0.414271 -0.394292 -0.617 99 100 120
0.422987 -0.393653 -0.616 175 174 188
0.435893 -0.393653 -0.616 82 104 154
0.465227 -0.393653 -0.616 124 133 166
0.46992 -0.393653 -0.616 135 144 173
0.474613 -0.393653 -0.616 73 92 125
0.517514 -0.392375 -0.614 96 109 143
0.519853 -0.392375 -0.614 91 105 154
0.532443 -0.390458 -0.611 93 113 163
0.467099 -0.320802 -0.502 166 128 107
0.467143 -0.319524 -0.5 168 130 109
0.47375 -0.31505 -0.493 178 133 112
0.474689 -0.31505 -0.493 177 132 109
0.478411 -0.314411 -0.492 172 127 106
0.496472 -0.316968 -0.496 148 111 92
0.0264914 -0.312785 -0.488 203 165 142
0.0336495 -0.310221 -0.484 205 165 140
0.04278 -0.30958 -0.483 196 155 133
0.0512714 -0.310862 -0.485 182 139 120
0.161071 -0.394186 -0.615 142 148 174
0.225058 -0.395468 -0.617 186 194 217
0.231309 -0.396109 -0.618 64 81 127
0.266933 -0.394827 -0.616 134 138 149
0.270453 -0.394827 -0.616 106 109 124
0.315395 -0.39675 -0.619 69 95 152
0.324828 -0.39675 -0.619 173 174 195
0.34196 -0.396109 -0.618 170 171 192
0.365503 -0.396109 -0.618 119 138 180
0.383715 -0.395468 -0.617 68 88 125
0.387241 -0.395468 -0.617 131 144 178
0.4223 -0.394186 -0.615 171 176 195
0.500786 -0.394186 -0.615 96 118 157
0.473178 -0.331372 -0.517 157 122 103
0.469686 -0.326886 -0.51 160 124 108
0.478374 -0.314708 -0.491 171 126 103
0.49353 -0.31663 -0.494 155 117 98
0.60648 -0.37688 -0.588 198 198 196
0.03818 -0.3105 -0.483 198 158 133
0.0512714 -0.311786 -0.485 181 138 119
0.1204 -0.378 -0.588 180 184 213
0.161071 -0.395357 -0.615 117 123 149
0.166929 -0.395357 -0.615 211 218 244
0.176587 -0.396 -0.616 118 135 178
0.190976 -0.396643 -0.617 139 145 179
0.202729 -0.396643 -0.617 198 199 220
0.227409 -0.396643 -0.617 179 189 224
0.256373 -0.396 -0.616 184 186 201
0.259893 -0.396 -0.616 183 188 210
0.27984 -0.396 -0.616 156 158 181
0.318417 -0.397286 -0.618 75 89 138
0.339056 -0.396643 -0.617 173 172 188
0.375489 -0.396643 -0.617 138 150 188
0.379014 -0.396643 -0.617 163 172 203
0.38019 -0.396643 -0.617 163 172 203
0.396 -0.396 -0.616 172 174 189
0.398347 -0.396 -0.616 169 168 184
0.400693 -0.396 -0.616 154 152 173
0.40304 -0.396 -0.616 176 177 198
0.451586 -0.395357 -0.615 142 148 170
0.492954 -0.394714 -0.614 100 122 169
0.517839 -0.394071 -0.613 101 119 155
0.525381 -0.379286 -0.59 126 104 107
0.487274 -0.345857 -0.538 155 119 105
0.481138 -0.340071 -0.529 155 118 100
0.469031 -0.322071 -0.501 171 128 109
0.470967 -0.3195 -0.497 175 133 111
0.474689 -0.316929 -0.493 179 134 111
0.47931 -0.315643 -0.491 168 126 104
0.0263286 -0.31271 -0.485 199 161 138
0.0299 -0.31142 -0.483 206 165 143
0.0503476 -0.31271 -0.485 184 142 120
0.0533381 -0.313999 -0.487 174 131 115
0.0932581 -0.348816 -0.541 101 82 88
0.102566 -0.359777 -0.558 99 82 90
0.115249 -0.373317 -0.579 102 94 115
0.142329 -0.396529 -0.615 206 206 214
0.151453 -0.395884 -0.614 221 223 246
0.187147 -0.397173 -0.616 147 159 199
0.21213 -0.397818 -0.617 165 168 187
0.217653 -0.397173 -0.616 188 193 212
0.22352 -0.397173 -0.616 184 190 206
0.29392 -0.397173 -0.616 90 98 121
0.317902 -0.397818 -0.617 89 103 152
0.347283 -0.397818 -0.617 173 176 195
0.370187 -0.397173 -0.616 81 109 157
0.401867 -0.397173 -0.616 161 163 186
0.405387 -0.397173 -0.616 173 176 195
0.4298 -0.395884 -0.614 128 152 198
0.4469 -0.396529 -0.615 133 132 140
0.453929 -0.396529 -0.615 73 87 116
0.456271 -0.396529 -0.615 89 103 142
0.46992 -0.397173 -0.616 114 136 175
0.476581 -0.395884 -0.614 163 169 181
0.47775 -0.395884 -0.614 167 172 178
0.497632 -0.395884 -0.614 93 117 161
0.498802 -0.395884 -0.614 91 115 159
0.509666 -0.395239 -0.613 178 180 201
0.524296 -0.39395 -0.611 68 91 143
0.53041 -0.393305 -0.61 63 89 140
0.492576 -0.351395 -0.545 152 116 100
0.48818 -0.347527 -0.539 154 118 102
0.47676 -0.336566 -0.522 158 119 102
0.469779 -0.327539 -0.508 162 123 106
0.468988 -0.324315 -0.503 169 128 110
0.481133 -0.315933 -0.49 165 124 102
0.0344286 -0.311693 -0.482 199 157 132
0.0572829 -0.31622 -0.489 163 121 109
0.171614 -0.3977 -0.615 136 148 188
0.172786 -0.3977 -0.615 125 137 177
0.182157 -0.3977 -0.615 105 127 184
0.203243 -0.3977 -0.615 170 172 187
0.204414 -0.3977 -0.615 170 172 187
0.22 -0.398347 -0.616 187 192 214
0.231357 -0.3977 -0.615 65 92 137
0.262558 -0.397053 -0.614 186 189 208
0.3432 -0.398347 -0.616 173 174 192
0.35728 -0.398347 -0.616 117 118 138
0.358453 -0.398347 -0.616 166 168 183
0.409414 -0.3977 -0.615 116 123 151
0.413427 -0.397053 -0.614 168 172 197
0.418105 -0.397053 -0.614 138 141 150
0.426291 -0.397053 -0.614 85 112 157
0.440326 -0.397053 -0.614 155 168 203
0.456699 -0.397053 -0.614 76 97 150
0.473843 -0.3977 -0.615 61 82 139
0.515829 -0.39576 -0.612 172 178 194
0.489991 -0.349847 -0.541 152 116 102
0.483867 -0.344027 -0.532 153 116 100
0.483 -0.316867 -0.49 163 121 99
0.502269 -0.32204 -0.498 153 116 97
0.0261657 -0.312611 -0.482 203 161 137
0.0484 -0.313909 -0.484 181 140 118
0.0694619 -0.326231 -0.503 140 100 98
0.0936029 -0.352174 -0.543 97 81 91
0.216129 -0.398871 -0.615 195 198 215
0.275423 -0.398223 -0.614 183 183 195
0.3239 -0.398871 -0.615 131 140 173
0.328586 -0.398871 -0.615 172 174 187
0.342643 -0.398871 -0.615 171 172 190
0.350843 -0.398871 -0.615 75 84 113
0.396529 -0.398871 -0.615 161 166 195
0.413427 -0.398223 -0.614 170 172 195
0.427932 -0.397574 -0.613 126 150 194
0.434938 -0.397574 -0.613 88 117 159
0.437273 -0.397574 -0.613 93 117 165
0.45319 -0.398223 -0.614 115 126 144
0.462547 -0.398223 -0.614 88 110 159
0.487481 -0.397574 -0.613 101 119 159
0.472843 -0.321043 -0.495 173 131 106
0.472829 -0.320394 -0.494 172 130 105
0.474689 -0.319746 -0.493 173 131 109
0.4858 -0.3178 -0.49 162 117 94
0.490532 -0.318449 -0.491 154 112 90
0.0235086 -0.31483 -0.484 205 163 141
0.0279438 -0.312879 -0.481 208 165 146
0.0399371 -0.31353 -0.482 197 155 133
0.0417733 -0.31353 -0.482 195 153 129
0.0503476 -0.315481 -0.485 176 134 118
0.0583333 -0.318733 -0.49 159 119 107
0.0743143 -0.331743 -0.51 122 92 90
0.0849829 -0.343451 -0.528 98 82 85
0.0983086 -0.359063 -0.552 92 79 86
0.0999 -0.361014 -0.555 93 80 87
0.101503 -0.362966 -0.558 94 82 84
0.10727 -0.36817 -0.566 101 87 87
0.13486 -0.398742 -0.613 221 224 241
0.152374 -0.398742 -0.613 220 223 240
0.169889 -0.398742 -0.613 138 147 190
0.171056 -0.398742 -0.613 124 136 188
0.176013 -0.399392 -0.614 78 102 166
0.176894 -0.398742 -0.613 81 105 169
0.194726 -0.399392 -0.614 195 197 218
0.222794 -0.399392 -0.614 190 196 210
0.248119 -0.398742 -0.613 169 180 212
0.25746 -0.398742 -0.613 185 187 210
0.287818 -0.398742 -0.613 107 113 145
0.302322 -0.399392 -0.614 84 115 170
0.354357 -0.400043 -0.615 150 159 188
0.371324 -0.399392 -0.614 82 105 149
0.387697 -0.399392 -0.614 101 109 132
0.408083 -0.398742 -0.613 75 92 138
0.415089 -0.398742 -0.613 176 178 191
0.417909 -0.398091 -0.612 166 166 174
0.487851 -0.398091 -0.612 89 107 143
0.489017 -0.398091 -0.612 78 100 147
0.492514 -0.398091 -0.612 74 96 154
0.512658 -0.397441 -0.611 171 175 200
0.47 -0.325238 -0.5 168 130 109
0.471909 -0.322636 -0.496 173 132 112
0.472829 -0.321335 -0.494 171 129 105
0.491468 -0.319384 -0.491 161 116 93
0.505178 -0.324588 -0.499 152 110 86
0.0270276 -0.313795 -0.481 206 165 143
0.0661905 -0.32619 -0.5 139 102 96
0.0757286 -0.334671 -0.513 117 93 93
0.119889 -0.385557 -0.591 203 208 230
0.180397 -0.39991 -0.613 66 95 163
0.188878 -0.400562 -0.614 190 196 220
0.206085 -0.39991 -0.613 167 170 185
0.221625 -0.400562 -0.614 191 200 217
0.226303 -0.400562 -0.614 106 109 140
0.228642 -0.400562 -0.614 154 158 196
0.250454 -0.39991 -0.613 167 171 208
0.262869 -0.399257 -0.612 184 186 199
0.270304 -0.39991 -0.613 168 170 183
0.303491 -0.400562 -0.614 93 123 175
0.30817 -0.400562 -0.614 71 99 149
0.321034 -0.400562 -0.614 80 93 137
0.322204 -0.400562 -0.614 65 78 122
0.33156 -0.400562 -0.614 166 168 183
0.346764 -0.400562 -0.614 164 169 201
0.382395 -0.39991 -0.613 161 159 183
0.383563 -0.39991 -0.613 139 143 152
0.395239 -0.39991 -0.613 147 165 211
0.487851 -0.399257 -0.612 76 94 130
0.524038 -0.396648 -0.608 58 77 143
0.476067 -0.337933 -0.518 151 123 111
0.472553 -0.333367 -0.511 163 126 107
0.46989 -0.329452 -0.505 167 129 110
0.473786 -0.322929 -0.495 170 128 106
0.47377 -0.322276 -0.494 171 129 107
0.476504 -0.320319 -0.491 167 125 101
0.494343 -0.320971 -0.492 154 113 91
0.507143 -0.32619 -0.5 150 107 88
0.0200257 -0.319946 -0.489 199 161 140
0.0278857 -0.314057 -0.48 205 165 140
0.0361895 -0.314711 -0.481 197 155 131
0.0399371 -0.315366 -0.482 195 153 129
0.0454457 -0.315366 -0.482 186 146 121
0.0649771 -0.325834 -0.498 140 103 95
0.0661905 -0.327143 -0.5 137 102 96
0.07844 -0.33892 -0.518 105 87 87
0.110973 -0.37556 -0.574 103 86 96
0.15912 -0.400423 -0.612 196 202 224
0.177771 -0.400423 -0.612 71 96 153
0.204917 -0.401077 -0.613 194 197 214
0.209588 -0.401077 -0.613 144 147 156
0.21309 -0.401077 -0.613 198 200 212
0.23256 -0.400423 -0.612 164 172 208
0.236057 -0.400423 -0.612 80 116 166
0.278023 -0.400423 -0.612 175 180 199
0.315841 -0.401077 -0.613 167 169 190
0.343864 -0.401077 -0.613 125 137 163
0.35087 -0.401077 -0.613 161 170 203
0.361954 -0.400423 -0.612 94 107 142
0.394594 -0.400423 -0.612 122 145 199
0.407915 -0.399769 -0.611 113 132 172
0.43701 -0.399769 -0.611 86 109 161
0.46104 -0.400423 -0.612 33 61 124
0.47736 -0.400423 -0.612 170 172 187
0.487054 -0.399769 -0.611 74 93 135
0.492873 -0.399769 -0.611 45 83 148
0.498692 -0.399769 -0.611 58 89 153
0.51709 -0.397806 -0.608 69 93 139
0.525196 -0.397806 -0.608 57 81 143
0.531549 -0.396497 -0.606 65 91 140
0.476537 -0.321909 -0.492 172 130 106
0.49528 -0.321909 -0.492 154 114 89
0.0224933 -0.316284 -0.482 205 164 142
0.0407705 -0.315628 -0.481 194 152 128
0.04646 -0.31694 -0.483 184 142 118
0.0685038 -0.330064 -0.503 134 99 95
0.152126 -0.401589 -0.612 213 217 229
0.153291 -0.401589 -0.612 213 217 229
0.184766 -0.401589 -0.612 109 131 181
0.190906 -0.402245 -0.613 193 200 219
0.214258 -0.402245 -0.613 191 197 211
0.224767 -0.402245 -0.613 100 109 142
0.254709 -0.401589 -0.612 72 94 135
0.268697 -0.401589 -0.612 123 119 134
0.306 -0.401589 -0.612 83 105 154
0.309497 -0.401589 -0.612 82 105 159
0.321154 -0.401589 -0.612 145 151 175
0.365451 -0.401589 -0.612 117 135 183
0.375943 -0.401589 -0.612 169 168 184
0.386967 -0.400932 -0.611 89 109 160
0.398091 -0.401589 -0.612 71 96 152
0.41257 -0.400932 -0.611 184 180 194
0.45214 -0.400932 -0.611 160 172 194
0.464537 -0.401589 -0.612 30 57 126
0.476194 -0.401589 -0.612 157 162 184
0.481235 -0.400932 -0.611 176 172 187
0.495201 -0.400932 -0.611 31 68 136
0.501362 -0.400276 -0.61 64 89 146
0.51709 -0.398964 -0.608 68 90 140
0.519406 -0.398964 -0.608 52 77 131
0.496468 -0.358936 -0.547 144 111 102
0.474349 -0.337282 -0.514 159 121 102
0.47088 -0.33072 -0.504 169 128 108
0.47286 -0.326127 -0.497 172 130 108
0.4774 -0.321533 -0.49 169 127 105
0.481083 -0.320877 -0.489 174 129 106
0.482946 -0.320877 -0.489 168 123 102
0.486671 -0.320877 -0.489 164 119 98
0.493338 -0.32219 -0.491 158 116 91
0.0207 -0.31786 -0.483 203 165 144
0.0242286 -0.315886 -0.48 203 166 140
0.0250905 -0.315228 -0.479 204 167 141
0.0305648 -0.315228 -0.479 204 164 139
0.0445276 -0.317202 -0.482 186 144 120
0.04738 -0.31786 -0.483 178 137 117
0.04922 -0.31786 -0.483 175 133 117
0.0826571 -0.346158 -0.526 99 83 84
0.136748 -0.402096 -0.611 202 205 222
0.177481 -0.402096 -0.611 92 118 169
0.204583 -0.402754 -0.612 192 195 210
0.213909 -0.402754 -0.612 193 199 213
0.229063 -0.402754 -0.612 141 145 157
0.235671 -0.402096 -0.611 89 117 165
0.25704 -0.402754 -0.612 95 110 141
0.308991 -0.402096 -0.611 85 108 162
0.311319 -0.402096 -0.611 137 154 198
0.339806 -0.402754 -0.612 119 141 182
0.350297 -0.402754 -0.612 167 171 200
0.377656 -0.402096 -0.611 175 176 194
0.389294 -0.402096 -0.611 52 78 129
0.395113 -0.402096 -0.611 63 89 150
0.417705 -0.401438 -0.61 178 182 194
0.418867 -0.401438 -0.61 175 179 191
0.444429 -0.401438 -0.61 171 174 191
0.446752 -0.401438 -0.61 173 176 195
0.469597 -0.402096 -0.611 103 128 192
0.473089 -0.402096 -0.611 130 146 180
0.480071 -0.402096 -0.611 123 123 135
0.484727 -0.402096 -0.611 140 146 168
0.50054 -0.40078 -0.609 52 81 139
0.510141 -0.400122 -0.608 98 109 131
0.477053 -0.340893 -0.518 160 121 104
0.470924 -0.330364 -0.502 167 126 106
0.473786 -0.325757 -0.495 169 128 106
0.476504 -0.323125 -0.491 164 122 100
0.0232657 -0.31614 -0.479 204 164 139
0.0454457 -0.31812 -0.482 186 145 123
0.0521952 -0.3201 -0.485 167 125 113
0.0595086 -0.32472 -0.492 153 112 106
0.0722295 -0.33594 -0.509 123 92 90
0.108218 -0.37686 -0.571 99 79 88
0.142333 -0.4026 -0.61 207 206 220
0.169057 -0.4026 -0.61 103 119 153
0.179514 -0.4026 -0.61 151 179 226
0.190594 -0.40392 -0.612 153 166 200
0.193774 -0.40326 -0.611 195 197 220
0.215074 -0.40392 -0.612 192 198 214
0.227525 -0.40326 -0.611 174 178 189
0.233344 -0.40326 -0.611 108 126 172
0.238771 -0.4026 -0.61 118 148 198
0.255456 -0.40326 -0.611 77 93 129
0.268981 -0.4026 -0.61 170 167 186
0.281762 -0.4026 -0.61 116 120 147
0.29619 -0.40326 -0.611 82 91 122
0.297353 -0.40326 -0.611 78 97 139
0.308991 -0.40326 -0.611 80 105 161
0.342742 -0.40326 -0.611 67 90 134
0.382848 -0.4026 -0.61 175 176 181
0.38401 -0.4026 -0.61 171 173 185
0.399114 -0.4026 -0.61 45 67 125
0.454886 -0.4026 -0.61 124 143 183
0.456048 -0.4026 -0.61 88 118 168
0.472314 -0.4026 -0.61 77 108 155
0.478124 -0.4026 -0.61 88 102 129
0.479286 -0.4026 -0.61 118 120 132
0.480151 -0.32274 -0.489 173 128 105
0.493267 -0.3234 -0.49 160 118 96
0.0196981 -0.318376 -0.481 204 164 139
0.0379429 -0.317714 -0.48 195 150 131
0.06864 -0.3336 -0.504 128 92 92
0.0698762 -0.334924 -0.506 127 91 91
0.13166 -0.4031 -0.609 222 225 244
0.150467 -0.403762 -0.61 218 222 233
0.1653 -0.4031 -0.609 180 188 209
0.17719 -0.403762 -0.61 119 147 194
0.227152 -0.403762 -0.61 188 196 215
0.228314 -0.403762 -0.61 195 201 213
0.232962 -0.403762 -0.61 100 117 161
0.23761 -0.403762 -0.61 121 147 196
0.289895 -0.403762 -0.61 170 171 191
0.307324 -0.403762 -0.61 92 114 171
0.318943 -0.403762 -0.61 165 171 187
0.33521 -0.403762 -0.61 64 87 137
0.403762 -0.403762 -0.61 86 116 176
0.42398 -0.4031 -0.609 91 124 177
0.4437 -0.4031 -0.609 169 176 192
0.4495 -0.4031 -0.609 102 111 150
0.45414 -0.4031 -0.609 63 89 140
0.461857 -0.403762 -0.61 23 57 128
0.46922 -0.4031 -0.609 43 69 126
0.48778 -0.4031 -0.609 51 82 136
0.49474 -0.4031 -0.609 28 68 130
0.4959 -0.4031 -0.609 28 67 132
0.527214 -0.400452 -0.605 60 81 144
0.501913 -0.366033 -0.553 140 111 103
0.4966 -0.3614 -0.546 141 112 104
0.480662 -0.346176 -0.523 160 121 106
0.473571 -0.337571 -0.51 166 127 110
0.47286 -0.328967 -0.497 171 130 108
0.474689 -0.326319 -0.493 171 129 107
0.481029 -0.32301 -0.488 170 125 102
0.49226 -0.323671 -0.489 160 117 100
0.511974 -0.331614 -0.501 143 111 90
0.0154629 -0.326594 -0.492 195 155 130
0.01702 -0.32062 -0.483 199 162 135
0.0259486 -0.317301 -0.478 203 163 137
0.0542657 -0.323275 -0.487 162 119 110
0.103485 -0.373725 -0.563 101 82 88
0.13862 -0.40426 -0.609 219 221 236
0.187648 -0.404924 -0.61 123 138 171
0.203914 -0.404924 -0.61 161 163 175
0.22678 -0.40426 -0.609 184 191 210
0.24302 -0.40426 -0.609 97 122 163
0.27202 -0.40426 -0.609 158 169 199
0.2755 -0.40426 -0.609 137 152 185
0.28246 -0.40426 -0.609 156 165 196
0.29174 -0.40426 -0.609 167 169 194
0.30218 -0.40426 -0.609 93 115 156
0.3277 -0.40426 -0.609 48 74 133
0.33234 -0.40426 -0.609 80 101 164
0.35902 -0.40426 -0.609 84 102 150
0.361933 -0.404924 -0.61 81 109 157
0.37874 -0.40426 -0.609 178 171 189
0.39846 -0.40426 -0.609 36 65 133
0.41354 -0.40426 -0.609 169 175 201
0.42166 -0.40426 -0.609 72 100 150
0.436023 -0.403596 -0.608 65 101 163
0.464181 -0.404924 -0.61 25 58 129
0.47502 -0.40426 -0.609 81 103 144
0.48314 -0.40426 -0.609 131 136 156
0.48546 -0.40426 -0.609 112 124 162
0.500052 -0.402932 -0.607 60 93 147
0.51944 -0.400941 -0.604 58 84 141
0.525192 -0.400941 -0.604 59 80 143
0.47538 -0.340534 -0.513 163 125 106
0.47471 -0.327922 -0.494 169 128 106
0.0153371 -0.324869 -0.488 200 164 140
0.0359638 -0.318211 -0.478 197 155 130
0.0606914 -0.328863 -0.494 149 110 103
0.0776029 -0.345506 -0.519 105 84 83
0.0831286 -0.352163 -0.529 98 82 82
0.15486 -0.40542 -0.609 189 196 215
0.175451 -0.404754 -0.608 131 155 201
0.19546 -0.40542 -0.609 191 199 222
0.20242 -0.40542 -0.609 172 175 190
0.234514 -0.404754 -0.608 120 140 177
0.26622 -0.40542 -0.609 168 179 209
0.305158 -0.404754 -0.608 102 123 170
0.31494 -0.40542 -0.609 171 170 186
0.3393 -0.40542 -0.609 27 59 110
0.370011 -0.404754 -0.608 73 104 150
0.374644 -0.404754 -0.608 138 163 204
0.381592 -0.404754 -0.608 177 176 192
0.417493 -0.404754 -0.608 99 103 130
0.41981 -0.404754 -0.608 109 126 156
0.430681 -0.404089 -0.607 40 77 145
0.44413 -0.404754 -0.608 145 153 174
0.4553 -0.40542 -0.609 34 69 127
0.488137 -0.404754 -0.608 58 88 150
0.493928 -0.404754 -0.608 37 77 136
0.495086 -0.404754 -0.608 32 72 134
0.501537 -0.403423 -0.606 103 133 193
0.502691 -0.403423 -0.606 159 161 176
0.51569 -0.402757 -0.605 118 139 184
0.478102 -0.344174 -0.517 160 123 105
0.471914 -0.331526 -0.498 171 128 109
0.474689 -0.328197 -0.493 171 128 109
0.4774 -0.3262 -0.49 173 131 109
0.0160667 -0.321792 -0.482 200 163 137
0.0563514 -0.326466 -0.489 160 116 105
0.0842952 -0.353838 -0.53 101 81 82
0.10223 -0.375202 -0.562 106 85 90
0.198613 -0.405912 -0.608 189 194 214
0.23104 -0.405912 -0.608 133 143 170
0.232198 -0.405912 -0.608 108 121 153
0.24766 -0.40658 -0.609 187 192 221
0.25694 -0.40658 -0.609 175 176 197
0.266941 -0.405912 -0.608 153 175 214
0.268099 -0.405912 -0.608 146 170 208
0.288945 -0.405912 -0.608 168 175 194
0.305812 -0.405245 -0.607 89 109 162
0.335269 -0.405912 -0.608 26 58 119
0.34742 -0.40658 -0.609 177 172 195
0.386746 -0.405245 -0.607 119 143 191
0.452236 -0.405912 -0.608 106 128 175
0.454552 -0.405912 -0.608 65 91 148
0.45571 -0.405912 -0.608 46 72 129
0.50071 -0.40391 -0.605 83 111 174
0.506471 -0.40391 -0.605 154 156 155
0.517139 -0.403242 -0.604 59 84 138
0.530333 -0.401907 -0.602 84 103 145
0.494113 -0.361182 -0.541 143 113 102
0.476357 -0.342489 -0.513 161 122 105
0.481029 -0.325798 -0.488 172 127 104
0.0128057 -0.333423 -0.498 202 164 141
0.0177914 -0.320702 -0.479 205 165 140
0.0186648 -0.320032 -0.478 206 166 141
0.140477 -0.406401 -0.607 208 207 221
0.147657 -0.40707 -0.608 212 214 229
0.149973 -0.40707 -0.608 207 213 229
0.160396 -0.40707 -0.608 211 210 228
0.187032 -0.40707 -0.608 192 196 221
0.214827 -0.40707 -0.608 90 105 144
0.226408 -0.40707 -0.608 190 191 211
0.26115 -0.40707 -0.608 76 91 134
0.262309 -0.40707 -0.608 91 108 151
0.280376 -0.406401 -0.607 126 146 199
0.301188 -0.406401 -0.607 66 93 140
0.312107 -0.40707 -0.608 132 154 191
0.32253 -0.40707 -0.608 159 167 186
0.336427 -0.40707 -0.608 16 58 118
0.360747 -0.40707 -0.608 73 107 155
0.393683 -0.406401 -0.607 34 59 126
0.394839 -0.406401 -0.607 37 62 129
0.40062 -0.406401 -0.607 36 66 128
0.418429 -0.405731 -0.606 89 108 138
0.505319 -0.405062 -0.605 170 168 173
0.505634 -0.404392 -0.604 175 171 168
0.509086 -0.404392 -0.604 119 115 112
0.516257 -0.381629 -0.57 128 111 104
0.475514 -0.341457 -0.51 163 126 108
0.47282 -0.33677 -0.503 168 130 111
0.48097 -0.326058 -0.487 166 121 100
0.49303 -0.326058 -0.487 164 119 96
0.040601 -0.321614 -0.479 186 147 118
0.0453514 -0.322957 -0.481 176 136 111
0.06308 -0.334371 -0.498 138 103 97
0.0665876 -0.337729 -0.503 125 94 91
0.0678143 -0.339071 -0.505 126 95 92
0.0714 -0.342429 -0.51 114 90 90
0.0872914 -0.359886 -0.536 100 80 82
0.149727 -0.407557 -0.607 210 213 230
0.155508 -0.407557 -0.607 154 160 182
0.169382 -0.407557 -0.607 146 166 203
0.211005 -0.407557 -0.607 128 136 182
0.214473 -0.407557 -0.607 93 114 157
0.223723 -0.407557 -0.607 190 193 210
0.224879 -0.407557 -0.607 191 192 210
0.328394 -0.406886 -0.606 38 68 132
0.335873 -0.407557 -0.607 29 59 121
0.33703 -0.407557 -0.607 33 63 125
0.353216 -0.407557 -0.607 164 169 198
0.36709 -0.407557 -0.607 48 88 150
0.369403 -0.407557 -0.607 57 85 150
0.37572 -0.406886 -0.606 95 111 147
0.4242 -0.406886 -0.606 61 94 147
0.425354 -0.406886 -0.606 53 86 139
0.45652 -0.406886 -0.606 28 57 123
0.476929 -0.407557 -0.607 167 172 191
0.516283 -0.404871 -0.603 58 84 133
0.51858 -0.404871 -0.603 96 123 166
0.52116 -0.4042 -0.602 102 125 167
0.518069 -0.384057 -0.572 125 104 101
0.472857 -0.335714 -0.5 172 131 111
0.472863 -0.334371 -0.498 168 127 107
0.47286 -0.3337 -0.497 167 126 106
0.4774 -0.329 -0.49 175 133 111
0.482826 -0.326986 -0.487 172 127 106
0.49303 -0.326986 -0.487 164 119 96
0.0150543 -0.322527 -0.479 204 164 139
0.03498 -0.32118 -0.477 196 154 129
0.0367971 -0.32118 -0.477 192 150 125
0.0444352 -0.323873 -0.481 174 133 111
0.0502438 -0.325893 -0.484 163 122 102
0.0576343 -0.33128 -0.492 146 108 99
0.0788943 -0.350807 -0.521 104 83 80
0.0861095 -0.360233 -0.535 100 80 79
0.0874543 -0.36158 -0.537 100 80 79
0.0903333 -0.364947 -0.542 98 80 80
0.0948095 -0.370333 -0.55 97 78 80
0.128703 -0.40804 -0.606 215 219 244
0.129857 -0.40804 -0.606 212 215 232
0.143946 -0.408713 -0.607 214 213 227
0.192189 -0.40804 -0.606 144 154 181
0.199443 -0.408713 -0.607 150 164 201
0.23028 -0.40804 -0.606 99 118 161
0.233743 -0.40804 -0.606 127 144 190
0.266776 -0.407367 -0.605 72 102 156
0.279914 -0.40804 -0.606 159 175 211
0.31108 -0.40804 -0.606 140 163 213
0.334166 -0.40804 -0.606 25 56 120
0.347435 -0.408713 -0.607 76 95 138
0.386624 -0.407367 -0.605 61 83 141
0.440786 -0.407367 -0.605 169 175 189
0.458829 -0.40804 -0.606 33 62 132
0.479606 -0.40804 -0.606 166 170 182
0.494948 -0.407367 -0.605 63 99 151
0.505946 -0.40602 -0.603 168 169 174
0.473792 -0.338013 -0.502 168 130 111
0.473798 -0.333973 -0.496 167 126 106
0.4756 -0.33128 -0.492 174 132 110
0.0194933 -0.321413 -0.476 206 166 140
0.065499 -0.33897 -0.502 125 94 91
0.0790457 -0.352474 -0.522 103 82 79
0.125977 -0.407844 -0.604 143 148 177
0.13771 -0.408519 -0.605 176 175 193
0.143709 -0.409194 -0.606 208 210 225
0.150634 -0.409194 -0.606 159 165 189
0.158714 -0.409194 -0.606 208 207 223
0.177183 -0.409194 -0.606 123 141 179
0.1818 -0.409194 -0.606 191 196 218
0.182954 -0.409194 -0.606 193 198 220
0.210657 -0.409194 -0.606 76 99 153
0.227595 -0.408519 -0.605 144 157 176
0.228748 -0.408519 -0.605 105 126 173
0.253784 -0.40987 -0.607 183 188 207
0.263319 -0.408519 -0.605 47 80 134
0.287044 -0.407844 -0.604 164 172 195
0.289345 -0.407844 -0.604 158 165 184
0.295586 -0.408519 -0.605 89 111 158
0.296738 -0.408519 -0.605 79 107 157
0.311719 -0.408519 -0.605 159 164 196
0.330157 -0.408519 -0.605 26 56 118
0.344554 -0.409194 -0.606 58 87 147
0.37563 -0.407844 -0.604 156 164 183
0.401605 -0.408519 -0.605 97 122 176
0.430853 -0.407844 -0.604 61 99 161
0.433154 -0.407844 -0.604 63 97 158
0.462681 -0.408519 -0.605 25 60 114
0.485729 -0.408519 -0.605 72 96 142
0.50396 -0.406493 -0.602 166 169 178
0.50142 -0.370706 -0.549 134 110 108
0.476486 -0.344371 -0.51 164 127 109
0.474736 -0.339645 -0.503 164 127 108
0.491005 -0.32749 -0.485 164 122 98
0.492943 -0.328166 -0.486 163 121 97
0.0123686 -0.325706 -0.481 202 165 139
0.0294048 -0.321643 -0.475 200 159 131
0.03498 -0.322997 -0.477 193 152 124
0.0358886 -0.322997 -0.477 194 150 123
0.0524105 -0.329769 -0.487 154 112 98
0.0534476 -0.330446 -0.488 152 112 104
0.0588095 -0.334509 -0.494 142 105 97
0.06672 -0.34128 -0.504 122 94 91
0.072939 -0.348051 -0.514 110 89 86
0.0862705 -0.362949 -0.536 101 81 82
0.134252 -0.409671 -0.605 197 199 220
0.171129 -0.409671 -0.605 156 171 202
0.174586 -0.409671 -0.605 156 171 204
0.192705 -0.408994 -0.604 120 133 168
0.233357 -0.409671 -0.605 99 121 171
0.264471 -0.409671 -0.605 44 76 135
0.275995 -0.409671 -0.605 107 129 178
0.365881 -0.409671 -0.605 42 86 147
0.368728 -0.408994 -0.604 42 82 141
0.37333 -0.408994 -0.604 134 148 175
0.37563 -0.408994 -0.604 165 170 190
0.389436 -0.408994 -0.604 45 79 143
0.405062 -0.409671 -0.605 170 182 204
0.425101 -0.408994 -0.604 60 95 159
0.444659 -0.408994 -0.604 172 180 191
0.453863 -0.408994 -0.604 51 81 133
0.501667 -0.40764 -0.602 166 168 183
0.511987 -0.40764 -0.602 82 88 112
