ply
format ascii 1.0
comment Created by Open3D
element vertex 1300
property double x
property double y
property double z
property uchar red
property uchar green
property uchar blue
end_header
0.211795 -0.157104 -0.563 83 43 43
0.201133 -0.136733 -0.49 171 148 158
0.251886 -0.133943 -0.48 172 151 160
0.258824 -0.134222 -0.481 174 153 162
0.27165 -0.134222 -0.481 175 153 165
0.28842 -0.13478 -0.483 211 191 200
0.29026 -0.13478 -0.483 179 153 164
0.29486 -0.13478 -0.483 175 149 160
0.297314 -0.135059 -0.484 173 147 158
0.317057 -0.135617 -0.486 197 180 186
0.32076 -0.135617 -0.486 185 173 177
0.324463 -0.135617 -0.486 151 134 140
0.42484 -0.167987 -0.602 168 103 109
0.177796 -0.151152 -0.538 211 162 158
0.195943 -0.151714 -0.54 142 91 90
0.206299 -0.155648 -0.554 101 59 60
0.208851 -0.156771 -0.558 92 52 53
0.240972 -0.168852 -0.601 162 132 142
0.200514 -0.135981 -0.484 171 145 154
0.20789 -0.135981 -0.484 175 149 160
0.237751 -0.135138 -0.481 180 154 165
0.242332 -0.135138 -0.481 169 146 156
0.256457 -0.134857 -0.48 173 152 159
0.258286 -0.134857 -0.48 177 156 165
0.2656 -0.134857 -0.48 180 157 167
0.270734 -0.135138 -0.481 176 153 163
0.287823 -0.135419 -0.482 214 194 203
0.301002 -0.135981 -0.484 169 143 154
0.315206 -0.136543 -0.486 163 140 148
0.316131 -0.136543 -0.486 156 133 141
0.325389 -0.136543 -0.486 154 133 140
0.328587 -0.137105 -0.488 142 104 115
0.428991 -0.169414 -0.603 153 91 96
0.388758 -0.147219 -0.524 189 139 132
0.389756 -0.147219 -0.524 189 139 132
0.193168 -0.152177 -0.538 160 104 103
0.232117 -0.167734 -0.593 73 38 42
0.240227 -0.17028 -0.602 148 121 130
0.199902 -0.137751 -0.487 173 147 158
0.217595 -0.136054 -0.481 177 151 162
0.244571 -0.135771 -0.48 167 144 154
0.252273 -0.135489 -0.479 169 146 154
0.30406 -0.13662 -0.483 170 144 155
0.31271 -0.137186 -0.485 164 137 146
0.323795 -0.137186 -0.485 183 164 170
0.333154 -0.139166 -0.492 152 103 109
0.203762 -0.156619 -0.55 113 69 70
0.199791 -0.139249 -0.489 173 149 162
0.20378 -0.13754 -0.483 178 152 165
0.207949 -0.137255 -0.482 174 148 159
0.235429 -0.136686 -0.48 180 154 165
0.251361 -0.136401 -0.479 173 150 158
0.253186 -0.136401 -0.479 169 146 154
0.25866 -0.136401 -0.479 179 158 167
0.259572 -0.136401 -0.479 179 158 167
0.261397 -0.136401 -0.479 178 155 163
0.274743 -0.136686 -0.48 174 151 159
0.282645 -0.13697 -0.481 170 149 158
0.289659 -0.137255 -0.482 177 151 162
0.295168 -0.137255 -0.482 173 147 156
0.31271 -0.13811 -0.485 164 137 146
0.386143 -0.150924 -0.53 163 115 111
0.3865 -0.1495 -0.525 182 131 127
0.399737 -0.149215 -0.524 160 110 103
0.175311 -0.15566 -0.543 195 146 141
0.175047 -0.154513 -0.539 199 150 145
0.189033 -0.153367 -0.535 179 130 125
0.226029 -0.167987 -0.586 63 33 33
0.22126 -0.137887 -0.481 178 152 161
0.224009 -0.137887 -0.481 179 153 162
0.268696 -0.137313 -0.479 178 155 163
0.273829 -0.1376 -0.48 171 148 156
0.3059 -0.13846 -0.483 167 141 152
0.385691 -0.15136 -0.528 169 121 117
0.399737 -0.150213 -0.524 160 110 103
0.206299 -0.159869 -0.554 110 66 67
0.200604 -0.139091 -0.482 174 146 158
0.203358 -0.139091 -0.482 176 150 163
0.2144 -0.138514 -0.48 175 149 158
0.225371 -0.138514 -0.48 179 153 162
0.226727 -0.138226 -0.479 177 151 160
0.261762 -0.137937 -0.478 177 154 162
0.272346 -0.138226 -0.479 171 148 156
0.289974 -0.138803 -0.481 169 143 152
0.291807 -0.138803 -0.481 171 145 154
0.305267 -0.139091 -0.482 167 141 150
0.313909 -0.139669 -0.484 158 132 143
0.32405 -0.139669 -0.484 145 119 130
0.328841 -0.140534 -0.487 143 104 107
0.389922 -0.155251 -0.538 134 86 86
0.389263 -0.150634 -0.522 187 136 132
0.42301 -0.156117 -0.541 160 109 106
0.175786 -0.155405 -0.535 208 159 155
0.185281 -0.154824 -0.533 203 154 150
0.194553 -0.156567 -0.539 148 98 97
0.21698 -0.165862 -0.571 74 40 41
0.203358 -0.14001 -0.482 176 150 161
0.254478 -0.138848 -0.478 176 150 159
0.25721 -0.138848 -0.478 182 156 165
0.273258 -0.139138 -0.479 175 149 160
0.289058 -0.139719 -0.481 169 143 152
0.289974 -0.139719 -0.481 167 141 150
0.294555 -0.139719 -0.481 170 144 155
0.299136 -0.139719 -0.481 170 144 155
0.32154 -0.1403 -0.483 186 166 175
0.326567 -0.140881 -0.485 150 112 111
0.385965 -0.153081 -0.527 172 123 118
0.211043 -0.164026 -0.561 93 53 54
0.214002 -0.165488 -0.566 81 47 48
0.19867 -0.141512 -0.484 173 145 159
0.208 -0.140343 -0.48 173 147 158
0.213486 -0.140343 -0.48 176 150 159
0.256671 -0.139466 -0.477 182 156 165
0.259397 -0.139466 -0.477 180 155 161
0.272688 -0.139758 -0.478 173 147 158
0.288457 -0.140343 -0.48 168 142 151
0.289371 -0.140343 -0.48 168 142 151
0.386762 -0.153208 -0.524 184 129 126
0.393479 -0.15233 -0.521 184 131 127
0.227532 -0.172746 -0.587 70 39 45
0.206654 -0.140963 -0.479 172 149 159
0.217603 -0.140963 -0.479 174 151 161
0.230806 -0.140669 -0.478 178 152 161
0.243552 -0.140669 -0.478 173 150 158
0.244463 -0.140669 -0.478 173 150 158
0.245373 -0.140669 -0.478 175 147 159
0.254854 -0.140374 -0.477 177 154 164
0.266666 -0.140374 -0.477 173 150 160
0.274509 -0.140669 -0.478 171 145 154
0.279645 -0.140963 -0.479 168 142 153
0.280557 -0.140963 -0.479 168 142 153
0.283294 -0.140963 -0.479 169 143 154
0.301885 -0.141551 -0.481 165 137 149
0.386234 -0.154794 -0.526 167 124 117
0.400967 -0.153911 -0.523 158 105 99
0.410605 -0.155677 -0.529 145 98 90
0.176827 -0.157573 -0.532 218 168 167
0.178517 -0.157277 -0.531 219 171 169
0.21622 -0.168532 -0.569 77 42 48
0.199771 -0.142171 -0.48 172 148 161
0.245769 -0.141283 -0.477 176 150 161
0.249403 -0.141283 -0.477 179 153 164
0.253946 -0.141283 -0.477 180 154 165
0.268483 -0.141283 -0.477 177 151 162
0.286944 -0.141875 -0.479 174 148 159
0.29333 -0.141875 -0.479 169 143 152
0.294243 -0.141875 -0.479 169 143 154
0.304 -0.142171 -0.48 163 135 147
0.312879 -0.142468 -0.481 157 131 140
0.313795 -0.142468 -0.481 175 152 160
0.320209 -0.142468 -0.481 173 153 164
0.3876 -0.157573 -0.532 121 73 73
0.38951 -0.154315 -0.521 185 132 128
0.408049 -0.156092 -0.527 143 95 81
0.41239 -0.156981 -0.53 151 105 92
0.172843 -0.162462 -0.545 195 145 136
0.1748 -0.158587 -0.532 212 162 161
0.18392 -0.158587 -0.532 208 160 160
0.190052 -0.159481 -0.535 169 119 120
0.199467 -0.162164 -0.544 124 79 76
0.207729 -0.165443 -0.555 91 52 55
0.203917 -0.142788 -0.479 176 150 161
0.231231 -0.142191 -0.477 180 154 163
0.237591 -0.142191 -0.477 176 150 159
0.257947 -0.141893 -0.476 184 158 169
0.2652 -0.141893 -0.476 170 144 155
0.274843 -0.142191 -0.477 172 145 154
0.302171 -0.143086 -0.48 162 134 146
0.305829 -0.143086 -0.48 156 128 140
0.311963 -0.143384 -0.481 153 126 135
0.315628 -0.143384 -0.481 175 152 160
0.319292 -0.143384 -0.481 200 185 192
0.321125 -0.143384 -0.481 143 123 132
0.329769 -0.145172 -0.487 137 101 105
0.333412 -0.146365 -0.491 141 105 109
0.38951 -0.155308 -0.521 186 130 129
0.4002 -0.155606 -0.522 160 109 105
0.171648 -0.1614 -0.538 201 155 142
0.216238 -0.1434 -0.478 175 149 160
0.24616 -0.1428 -0.476 178 152 163
0.24888 -0.1428 -0.476 181 155 166
0.250167 -0.1425 -0.475 179 153 164
0.260119 -0.1425 -0.475 179 156 166
0.264643 -0.1425 -0.475 168 142 153
0.27064 -0.1428 -0.476 172 145 154
0.277569 -0.1431 -0.477 165 137 149
0.280294 -0.1431 -0.477 166 138 150
0.305191 -0.1437 -0.479 156 128 140
0.308571 -0.144 -0.48 155 128 137
0.311314 -0.144 -0.48 151 121 133
0.314971 -0.144 -0.48 191 168 178
0.317714 -0.144 -0.48 204 191 198
0.321125 -0.1443 -0.481 167 147 156
0.388269 -0.1566 -0.522 185 127 125
0.402959 -0.1569 -0.523 148 100 96
0.410834 -0.1584 -0.528 149 102 92
0.41441 -0.159 -0.53 156 108 106
0.171329 -0.162123 -0.537 206 158 148
0.175152 -0.16001 -0.53 218 168 167
0.205312 -0.14431 -0.478 177 151 162
0.230747 -0.143707 -0.476 180 154 165
0.241627 -0.143707 -0.476 173 150 160
0.252881 -0.143405 -0.475 177 154 164
0.278477 -0.144009 -0.477 163 136 145
0.279386 -0.144009 -0.477 164 137 146
0.285746 -0.144009 -0.477 170 144 153
0.305191 -0.144612 -0.479 156 128 140
0.307657 -0.144914 -0.48 156 130 141
0.390743 -0.15699 -0.52 189 134 131
0.392724 -0.15699 -0.52 190 135 132
0.1802 -0.161019 -0.53 219 169 170
0.184586 -0.161323 -0.531 198 150 150
0.187311 -0.16193 -0.533 182 134 134
0.194192 -0.16345 -0.538 144 89 92
0.21546 -0.17226 -0.567 96 56 65
0.21306 -0.144917 -0.477 175 149 158
0.229357 -0.14431 -0.475 177 154 164
0.242024 -0.14431 -0.475 171 148 158
0.256863 -0.144006 -0.474 179 156 166
0.26228 -0.144006 -0.474 174 151 161
0.266794 -0.144006 -0.474 163 137 148
0.28424 -0.144613 -0.476 170 144 153
0.403183 -0.158589 -0.522 147 100 94
0.409278 -0.159804 -0.526 156 108 104
0.178852 -0.161723 -0.529 221 171 172
0.184586 -0.162334 -0.531 195 147 147
0.19558 -0.16478 -0.539 128 78 79
0.196618 -0.146437 -0.479 171 145 158
0.210334 -0.145826 -0.477 175 149 158
0.253251 -0.144909 -0.474 180 157 167
0.255057 -0.144909 -0.474 179 156 166
0.270071 -0.145214 -0.475 162 135 144
0.298466 -0.145826 -0.477 168 140 152
0.302733 -0.146131 -0.478 162 135 144
0.303644 -0.146131 -0.478 160 133 142
0.310666 -0.146437 -0.479 152 125 134
0.326815 -0.147966 -0.484 134 101 112
0.388613 -0.16264 -0.532 136 83 89
0.391733 -0.158971 -0.52 193 138 135
0.169733 -0.163653 -0.532 208 152 151
0.175497 -0.162423 -0.528 218 168 167
0.180868 -0.16273 -0.529 214 166 166
0.21546 -0.17442 -0.567 119 78 86
0.225263 -0.145811 -0.474 178 152 163
0.227971 -0.145811 -0.474 179 153 164
0.2375 -0.146119 -0.475 175 152 162
0.248212 -0.145504 -0.473 178 155 165
0.251816 -0.145504 -0.473 178 155 165
0.259925 -0.145504 -0.473 178 152 163
0.2924 -0.146427 -0.476 172 146 155
0.296027 -0.146427 -0.476 171 144 153
0.311838 -0.147042 -0.478 183 162 171
0.31457 -0.147042 -0.478 200 183 193
0.317965 -0.14735 -0.479 161 144 152
0.3865 -0.1615 -0.525 173 114 116
0.388517 -0.16027 -0.521 198 140 139
0.398667 -0.159962 -0.52 170 115 112
0.400648 -0.159962 -0.52 153 102 98
0.413068 -0.162115 -0.527 157 109 107
0.415643 -0.16273 -0.529 148 100 98
0.417438 -0.163038 -0.53 151 106 103
0.176503 -0.163429 -0.528 218 166 168
0.203391 -0.169929 -0.549 90 48 52
0.196706 -0.147643 -0.477 174 147 156
0.206267 -0.147333 -0.476 173 147 158
0.250915 -0.146405 -0.473 177 154 162
0.258123 -0.146405 -0.473 177 151 162
0.268033 -0.146405 -0.473 161 135 146
0.269503 -0.146714 -0.474 163 135 147
0.280024 -0.147024 -0.475 165 139 150
0.29512 -0.147333 -0.476 168 145 153
0.309753 -0.148262 -0.479 158 128 140
0.322957 -0.148881 -0.481 140 117 125
-0.141762 -0.202429 -0.65 193 192 188
0.16732 -0.166303 -0.534 198 145 141
0.167707 -0.16568 -0.532 203 150 146
0.203391 -0.170974 -0.549 86 47 50
0.195095 -0.150109 -0.482 175 145 157
0.21804 -0.147617 -0.474 171 144 153
0.219382 -0.147306 -0.473 171 145 154
0.222986 -0.147306 -0.473 177 151 162
0.237903 -0.147617 -0.474 178 152 163
0.24551 -0.147306 -0.473 176 150 161
0.253082 -0.146994 -0.472 179 156 166
0.267132 -0.147306 -0.473 161 135 146
0.269835 -0.147306 -0.473 162 136 147
0.271637 -0.147306 -0.473 162 136 147
0.273439 -0.147306 -0.473 162 134 146
0.280337 -0.147617 -0.474 166 140 151
0.30328 -0.14824 -0.476 159 131 143
0.31482 -0.148551 -0.477 202 187 192
0.446547 -0.194954 -0.626 88 41 47
0.38743 -0.164746 -0.529 143 98 101
0.3865 -0.1635 -0.525 165 115 114
0.418666 -0.164746 -0.529 143 98 95
-0.14919 -0.203667 -0.65 189 188 183
0.167769 -0.165753 -0.529 210 157 153
0.175165 -0.165127 -0.527 215 165 164
0.196293 -0.149147 -0.476 174 146 158
0.1995 -0.148833 -0.475 176 148 160
0.212623 -0.14852 -0.474 171 145 156
0.223887 -0.148207 -0.473 176 153 163
0.229292 -0.148207 -0.473 174 151 161
0.235599 -0.148207 -0.473 178 154 167
0.266568 -0.147893 -0.472 162 136 147
0.276142 -0.148207 -0.473 164 136 148
0.277043 -0.148207 -0.473 166 138 150
0.278531 -0.14852 -0.474 167 139 151
0.280337 -0.14852 -0.474 167 141 152
0.28124 -0.14852 -0.474 167 141 152
0.290881 -0.148833 -0.475 169 146 154
0.30056 -0.149147 -0.476 158 132 143
0.32614 -0.15134 -0.483 132 103 108
0.390743 -0.162933 -0.52 196 138 137
0.399107 -0.162307 -0.518 171 123 113
0.414288 -0.164813 -0.526 149 106 100
-0.147497 -0.204274 -0.648 188 187 182
0.197701 -0.170859 -0.542 103 58 65
0.196786 -0.149738 -0.475 177 147 159
0.21712 -0.148792 -0.472 172 146 155
0.229707 -0.148792 -0.472 174 151 159
0.256134 -0.148477 -0.471 177 154 162
0.274659 -0.148792 -0.472 165 137 149
0.317546 -0.150369 -0.477 170 151 157
0.321614 -0.150999 -0.479 143 120 128
0.388517 -0.164239 -0.521 187 131 130
0.171827 -0.166817 -0.526 211 161 160
0.17918 -0.167134 -0.527 211 160 159
0.186609 -0.168403 -0.531 157 105 107
0.187973 -0.16872 -0.532 143 91 93
0.194793 -0.151911 -0.479 172 146 159
0.210372 -0.150009 -0.473 172 146 157
0.216221 -0.149691 -0.472 172 145 154
0.239596 -0.149691 -0.472 173 149 162
0.245369 -0.149374 -0.471 181 155 166
0.252546 -0.149374 -0.471 179 156 166
0.269591 -0.149374 -0.471 163 135 147
0.270489 -0.149374 -0.471 163 135 147
0.274659 -0.149691 -0.472 167 141 152
0.28425 -0.150009 -0.473 170 147 157
0.290557 -0.150009 -0.473 169 146 154
0.300833 -0.150643 -0.475 154 126 138
0.30872 -0.15096 -0.476 155 127 139
0.388269 -0.165549 -0.522 175 124 121
0.392428 -0.163963 -0.517 197 137 136
0.394397 -0.163963 -0.517 189 131 129
0.42931 -0.169989 -0.536 149 108 104
-0.145029 -0.206743 -0.648 191 190 185
0.164434 -0.168457 -0.528 202 151 147
0.165127 -0.168138 -0.527 202 151 147
0.186609 -0.169414 -0.531 152 100 102
0.204967 -0.15091 -0.473 171 145 154
0.205868 -0.15091 -0.473 171 145 154
0.226529 -0.150271 -0.471 176 153 161
0.232809 -0.150271 -0.471 176 153 161
0.234603 -0.150271 -0.471 175 152 160
0.250219 -0.149952 -0.47 177 154 164
0.294438 -0.15059 -0.472 162 136 145
0.302006 -0.151229 -0.474 153 125 137
0.31169 -0.151548 -0.475 182 159 169
0.314405 -0.151548 -0.475 217 202 207
0.439871 -0.196214 -0.615 75 34 38
0.3922 -0.165267 -0.518 199 141 139
0.400306 -0.164948 -0.517 162 110 99
0.40404 -0.165267 -0.518 160 110 103
-0.157614 -0.208298 -0.649 180 179 175
0.1755 -0.1685 -0.525 202 151 148
0.183543 -0.169463 -0.528 174 122 124
0.195665 -0.156625 -0.488 174 146 158
0.195469 -0.152131 -0.474 173 145 157
0.210827 -0.15149 -0.472 171 145 154
0.216221 -0.15149 -0.472 172 146 155
0.241267 -0.150848 -0.47 173 147 160
0.272283 -0.151169 -0.471 165 139 150
0.291741 -0.15149 -0.472 166 140 151
0.297135 -0.15149 -0.472 155 127 139
0.310786 -0.152452 -0.475 149 128 137
0.422571 -0.186152 -0.58 99 63 65
0.41035 -0.167216 -0.521 152 101 97
-0.14727 -0.208889 -0.647 189 189 181
0.1645 -0.1695 -0.525 198 149 144
0.1755 -0.1695 -0.525 201 150 147
0.186257 -0.171114 -0.53 139 88 87
0.197759 -0.152711 -0.473 172 144 156
0.19866 -0.152711 -0.473 171 143 155
0.200462 -0.152711 -0.473 171 143 155
0.218886 -0.151743 -0.47 174 151 159
0.243433 -0.15142 -0.469 180 154 165
0.254153 -0.15142 -0.469 174 151 161
0.281254 -0.152066 -0.471 168 145 155
0.283946 -0.152066 -0.471 171 148 158
0.293814 -0.152066 -0.471 155 129 138
0.298933 -0.152389 -0.472 153 123 135
0.30227 -0.152711 -0.473 148 120 132
0.436357 -0.198557 -0.615 74 38 42
0.419657 -0.185966 -0.576 100 64 66
0.3865 -0.1695 -0.525 158 107 104
0.392651 -0.166594 -0.516 191 136 131
0.408571 -0.167886 -0.52 142 92 85
0.416705 -0.169177 -0.524 150 97 93
0.423704 -0.170791 -0.529 159 106 100
-0.149503 -0.209796 -0.646 189 189 181
0.1593 -0.172449 -0.531 201 148 140
0.1775 -0.1705 -0.525 213 160 156
0.194155 -0.153612 -0.473 171 145 154
0.19866 -0.153612 -0.473 171 143 155
0.21038 -0.152963 -0.471 171 144 151
0.222467 -0.152638 -0.47 176 150 159
0.236397 -0.152963 -0.471 177 156 165
0.260067 -0.152638 -0.47 168 140 152
0.262752 -0.152638 -0.47 168 141 150
0.263087 -0.152313 -0.469 167 140 149
0.26398 -0.152313 -0.469 169 142 151
0.267553 -0.152313 -0.469 170 140 150
0.2726 -0.152638 -0.47 168 142 153
0.29202 -0.152963 -0.471 162 135 144
0.435426 -0.200378 -0.617 91 53 66
0.435893 -0.200053 -0.616 86 48 61
0.436817 -0.199404 -0.614 72 37 44
-0.149734 -0.211353 -0.647 189 189 179
0.172839 -0.170847 -0.523 203 150 142
0.180844 -0.171827 -0.526 202 153 149
0.197394 -0.177707 -0.544 91 59 64
0.240336 -0.201553 -0.617 118 76 90
0.21441 -0.153533 -0.47 170 144 153
0.220676 -0.153533 -0.47 177 151 160
0.230927 -0.153207 -0.469 176 153 163
0.233607 -0.153207 -0.469 174 153 162
0.238967 -0.153207 -0.469 172 151 160
0.257727 -0.153207 -0.469 179 153 164
0.27439 -0.153533 -0.47 170 144 155
0.287534 -0.15386 -0.471 166 138 150
0.298034 -0.154187 -0.472 153 126 135
0.30652 -0.15484 -0.474 150 129 136
0.308326 -0.15484 -0.474 153 130 138
0.387274 -0.17052 -0.522 164 114 113
0.387525 -0.170193 -0.521 173 123 122
0.388014 -0.16954 -0.519 190 135 132
0.406013 -0.169213 -0.518 151 98 92
0.408774 -0.16954 -0.519 147 96 92
-0.152957 -0.211929 -0.645 187 187 177
-0.149734 -0.212586 -0.647 189 189 177
0.157277 -0.174471 -0.531 201 151 142
0.197269 -0.161657 -0.492 174 144 154
0.205894 -0.154757 -0.471 171 144 153
0.209933 -0.154429 -0.47 170 143 150
0.219313 -0.1541 -0.469 174 151 159
0.221993 -0.1541 -0.469 177 154 164
0.264873 -0.1541 -0.469 168 141 150
0.26666 -0.1541 -0.469 169 142 151
0.272913 -0.1541 -0.469 170 144 155
0.280657 -0.154429 -0.47 171 145 154
0.297403 -0.154757 -0.471 150 122 134
-0.16329 -0.213818 -0.647 182 182 174
0.193745 -0.155985 -0.472 170 144 155
0.202771 -0.155324 -0.47 170 143 152
0.207248 -0.155324 -0.47 170 143 152
0.22646 -0.154993 -0.469 175 152 162
0.228247 -0.154993 -0.469 179 156 166
0.232713 -0.154993 -0.469 176 155 164
0.241647 -0.154993 -0.469 171 150 157
0.245589 -0.154663 -0.468 177 154 162
0.268766 -0.154663 -0.468 171 144 153
0.439413 -0.203573 -0.616 78 47 53
0.438174 -0.201921 -0.611 71 31 40
0.401762 -0.181762 -0.55 113 79 80
0.38924 -0.171187 -0.518 194 136 132
0.163247 -0.17317 -0.521 198 148 141
0.173835 -0.173835 -0.523 207 157 150
0.198846 -0.182145 -0.548 89 58 64
0.243818 -0.203085 -0.611 174 148 157
0.196026 -0.156551 -0.471 172 144 156
0.201876 -0.156219 -0.47 171 144 153
0.206352 -0.156219 -0.47 171 144 153
0.208143 -0.156219 -0.47 168 141 150
0.225086 -0.155554 -0.468 176 153 163
0.245953 -0.155222 -0.467 175 152 162
0.255394 -0.155554 -0.468 177 154 164
0.262526 -0.155554 -0.468 169 143 152
0.28274 -0.155887 -0.469 165 138 147
0.290505 -0.156219 -0.47 163 136 145
0.297667 -0.156219 -0.47 149 123 134
0.307924 -0.156884 -0.472 152 125 134
0.389473 -0.171841 -0.517 198 139 133
0.154533 -0.17784 -0.532 198 149 145
0.155383 -0.176503 -0.528 197 147 140
0.223303 -0.156446 -0.468 175 152 162
0.225086 -0.156446 -0.468 178 152 163
0.228651 -0.156446 -0.468 179 153 164
0.236674 -0.156446 -0.468 177 154 164
0.25218 -0.156111 -0.467 178 152 163
0.255394 -0.156446 -0.468 176 153 163
0.258069 -0.156446 -0.468 175 152 162
0.259851 -0.156446 -0.468 174 148 159
0.319833 -0.158786 -0.475 146 114 119
-0.157137 -0.215834 -0.642 184 185 179
-0.148961 -0.218188 -0.649 189 190 182
0.157896 -0.175828 -0.523 198 147 143
0.23067 -0.203059 -0.604 65 35 43
0.200981 -0.15801 -0.47 170 142 154
0.203233 -0.157673 -0.469 168 140 152
0.206807 -0.157673 -0.469 167 139 151
0.210823 -0.157337 -0.468 170 143 152
0.235783 -0.157337 -0.468 180 154 165
0.249511 -0.157001 -0.467 178 152 163
0.256628 -0.157001 -0.467 174 151 161
0.27175 -0.157001 -0.467 168 141 150
0.281246 -0.157337 -0.468 164 137 146
0.300352 -0.15801 -0.47 150 123 132
0.316685 -0.159018 -0.473 168 147 154
0.320738 -0.15969 -0.475 144 103 109
0.444162 -0.210455 -0.626 126 88 101
0.441043 -0.206757 -0.615 81 54 59
0.440057 -0.205749 -0.612 76 49 54
0.43906 -0.20474 -0.609 70 44 47
0.386781 -0.174819 -0.52 178 130 130
0.389929 -0.173138 -0.515 195 137 133
0.411933 -0.174147 -0.518 151 101 94
-0.16473 -0.217395 -0.643 181 180 175
0.1569 -0.176824 -0.523 197 148 143
0.159277 -0.176148 -0.521 200 151 144
0.16027 -0.176148 -0.521 199 150 143
0.205474 -0.158229 -0.468 167 139 151
0.231721 -0.15789 -0.467 176 150 161
0.23439 -0.15789 -0.467 178 152 163
0.248977 -0.157552 -0.466 177 154 164
0.256628 -0.15789 -0.467 174 151 161
0.259296 -0.15789 -0.467 173 150 160
0.273529 -0.15789 -0.467 168 141 150
0.309066 -0.159243 -0.471 192 165 174
0.442214 -0.207929 -0.615 84 59 63
0.44022 -0.2059 -0.609 78 53 57
0.430586 -0.199814 -0.591 83 52 57
0.406411 -0.174457 -0.516 154 105 98
0.4245 -0.1775 -0.525 150 101 94
-0.171212 -0.22066 -0.649 178 177 172
-0.160555 -0.21794 -0.641 184 183 178
-0.157137 -0.21828 -0.642 186 186 178
-0.152199 -0.21998 -0.647 189 189 181
-0.150197 -0.22066 -0.649 189 189 181
0.193819 -0.1598 -0.47 172 142 152
0.201017 -0.15912 -0.468 170 142 154
0.205925 -0.15878 -0.467 169 142 151
0.213041 -0.15878 -0.467 178 152 163
0.21482 -0.15878 -0.467 181 155 166
0.25164 -0.15844 -0.466 175 152 162
0.283313 -0.15878 -0.467 156 129 136
0.325264 -0.16286 -0.479 127 101 104
0.389171 -0.17476 -0.514 199 139 138
0.396231 -0.17442 -0.513 178 128 119
0.397209 -0.17442 -0.513 169 119 110
0.406411 -0.17544 -0.516 154 105 100
0.42108 -0.17748 -0.522 148 101 95
0.428937 -0.17952 -0.528 150 106 95
-0.155173 -0.220187 -0.644 189 189 179
-0.154186 -0.220529 -0.645 189 189 179
-0.152199 -0.221212 -0.647 189 189 179
0.1815 -0.1795 -0.525 201 158 151
0.197441 -0.187022 -0.547 83 57 58
0.240271 -0.206852 -0.605 174 147 156
0.206814 -0.15967 -0.467 172 145 152
0.212151 -0.15967 -0.467 179 153 164
0.21482 -0.15967 -0.467 185 159 170
0.218378 -0.15967 -0.467 185 159 168
0.23261 -0.15967 -0.467 178 152 163
0.23439 -0.15967 -0.467 175 149 160
0.259296 -0.15967 -0.467 179 153 164
0.275606 -0.159328 -0.466 169 143 152
0.286871 -0.15967 -0.467 161 135 144
0.305724 -0.160695 -0.47 148 122 131
0.306619 -0.160695 -0.47 148 122 131
0.309305 -0.160695 -0.47 157 131 140
0.44036 -0.207194 -0.606 77 50 55
0.386781 -0.17779 -0.52 171 125 127
0.394484 -0.175055 -0.512 185 132 126
-0.168667 -0.221413 -0.644 181 181 173
-0.164218 -0.220382 -0.641 182 182 174
-0.160555 -0.220382 -0.641 184 184 176
-0.159583 -0.220726 -0.642 184 184 176
0.1535 -0.1805 -0.525 198 151 141
0.1566 -0.179469 -0.522 199 151 139
0.17748 -0.179469 -0.522 205 162 153
0.240305 -0.209036 -0.608 174 147 156
0.197269 -0.169154 -0.492 173 146 155
0.195669 -0.160903 -0.468 170 142 154
0.204596 -0.160215 -0.466 170 143 152
0.212585 -0.160215 -0.466 180 154 165
0.21791 -0.160215 -0.466 184 158 167
0.238837 -0.160559 -0.467 165 139 150
0.246843 -0.160559 -0.467 167 144 152
0.275606 -0.160215 -0.466 167 141 150
0.281534 -0.160559 -0.467 162 135 144
0.283313 -0.160559 -0.467 160 133 142
0.285092 -0.160559 -0.467 159 133 142
0.38579 -0.178781 -0.52 174 128 130
0.386986 -0.177062 -0.515 193 138 135
0.403857 -0.176718 -0.514 154 105 98
0.414092 -0.17775 -0.517 153 106 98
0.194777 -0.161794 -0.468 167 141 152
0.19703 -0.161449 -0.467 170 144 155
0.19927 -0.161103 -0.466 169 143 154
0.202821 -0.161103 -0.466 168 142 151
0.225011 -0.161103 -0.466 177 151 162
0.25307 -0.161449 -0.467 158 135 143
0.293098 -0.161449 -0.467 156 131 137
0.293988 -0.161449 -0.467 156 131 137
0.299966 -0.161794 -0.468 149 122 129
0.300857 -0.161794 -0.468 148 121 128
0.386519 -0.178734 -0.517 182 128 128
0.388414 -0.177351 -0.513 194 139 134
-0.153431 -0.22491 -0.647 188 188 178
0.163609 -0.180414 -0.519 195 147 135
0.23761 -0.21309 -0.613 98 71 80
0.19927 -0.16199 -0.466 169 143 154
0.207259 -0.16199 -0.466 168 142 153
0.230831 -0.162338 -0.467 174 151 159
0.27028 -0.16199 -0.466 166 140 151
0.274718 -0.16199 -0.466 167 141 152
0.281534 -0.162338 -0.467 164 137 146
0.291319 -0.162338 -0.467 156 131 137
0.294877 -0.162338 -0.467 153 128 134
0.310663 -0.162686 -0.468 141 114 119
0.385771 -0.179371 -0.516 180 129 128
0.397607 -0.177633 -0.511 171 118 112
0.400335 -0.177981 -0.512 161 111 104
0.426686 -0.182152 -0.524 145 98 92
-0.154664 -0.226142 -0.647 187 187 179
-0.153669 -0.226491 -0.648 187 187 177
0.149349 -0.184549 -0.528 200 152 140
0.227971 -0.211811 -0.606 73 46 55
0.239557 -0.214957 -0.615 128 101 110
0.192994 -0.163577 -0.468 170 144 155
0.209034 -0.162878 -0.466 173 145 157
0.209922 -0.162878 -0.466 174 148 159
0.21436 -0.162878 -0.466 175 149 160
0.217023 -0.162878 -0.466 178 152 163
0.225494 -0.163228 -0.467 156 133 141
0.226384 -0.163228 -0.467 154 131 139
0.230831 -0.163228 -0.467 150 127 133
0.2335 -0.163228 -0.467 143 120 126
0.237058 -0.163228 -0.467 132 109 115
0.241131 -0.163577 -0.468 118 95 101
0.249511 -0.163228 -0.467 91 70 75
0.263744 -0.163228 -0.467 118 93 99
0.269081 -0.163228 -0.467 137 112 118
0.282424 -0.163228 -0.467 162 136 145
0.30264 -0.163577 -0.468 145 118 123
0.304423 -0.163577 -0.468 143 116 121
0.307989 -0.163577 -0.468 142 116 119
0.397607 -0.178607 -0.511 174 119 114
-0.157871 -0.226671 -0.645 186 186 178
-0.153906 -0.228077 -0.649 187 187 175
0.168551 -0.182391 -0.519 197 148 133
0.237194 -0.217183 -0.618 71 44 51
0.219686 -0.163766 -0.466 136 113 121
0.221936 -0.164117 -0.467 127 104 112
0.277976 -0.164117 -0.467 136 110 119
0.296656 -0.164117 -0.467 151 124 131
0.388847 -0.17958 -0.511 191 135 134
0.420637 -0.182391 -0.519 160 113 107
-0.312619 -0.229667 -0.65 254 255 250
-0.30519 -0.229667 -0.65 255 255 250
0.200158 -0.164653 -0.466 166 140 149
0.215248 -0.164653 -0.466 105 82 88
0.21791 -0.164653 -0.466 98 75 81
0.219686 -0.164653 -0.466 88 65 71
0.220573 -0.164653 -0.466 84 61 67
0.297546 -0.165007 -0.467 153 126 133
0.309771 -0.16536 -0.468 144 115 120
0.388847 -0.180553 -0.511 188 132 131
0.413471 -0.181967 -0.515 162 114 104
-0.311176 -0.229839 -0.647 253 255 249
-0.172347 -0.228773 -0.644 181 180 175
-0.167357 -0.226997 -0.639 180 181 173
-0.163962 -0.227352 -0.64 182 183 175
0.147781 -0.186855 -0.526 201 151 140
0.149215 -0.186145 -0.524 201 152 138
0.154019 -0.184724 -0.52 197 151 138
0.178132 -0.185079 -0.521 212 167 161
0.179125 -0.185079 -0.521 211 167 158
0.191655 -0.169804 -0.478 174 147 156
0.19927 -0.165541 -0.466 139 114 120
0.220573 -0.165541 -0.466 72 50 53
0.224605 -0.165896 -0.467 73 50 56
0.230831 -0.165896 -0.467 72 49 55
0.240616 -0.165896 -0.467 72 52 53
0.259296 -0.165896 -0.467 74 51 57
0.261965 -0.165896 -0.467 71 48 54
0.282424 -0.165896 -0.467 87 62 66
0.284203 -0.165896 -0.467 92 69 75
0.28865 -0.165896 -0.467 102 79 85
0.29043 -0.165896 -0.467 114 89 95
0.30264 -0.166251 -0.468 149 118 126
0.309771 -0.166251 -0.468 141 111 119
0.386682 -0.181882 -0.512 189 134 131
0.404236 -0.181882 -0.512 164 115 110
-0.3139 -0.230357 -0.645 250 253 246
-0.304543 -0.230714 -0.646 245 246 241
-0.295286 -0.232143 -0.65 248 250 245
-0.1591 -0.230357 -0.645 186 186 178
0.162307 -0.185 -0.518 190 142 130
0.1835 -0.1875 -0.525 177 132 129
0.190238 -0.167857 -0.47 161 138 146
0.193945 -0.166429 -0.466 126 103 111
0.205925 -0.166786 -0.467 78 57 62
0.222826 -0.166786 -0.467 82 57 61
0.277976 -0.166786 -0.467 74 54 56
0.297291 -0.167143 -0.468 113 91 94
0.307753 -0.1675 -0.469 136 111 115
0.391203 -0.181786 -0.509 187 133 131
0.400714 -0.182143 -0.51 165 116 109
0.405393 -0.1825 -0.511 164 116 104
0.41169 -0.183571 -0.514 159 111 101
0.427046 -0.186429 -0.522 138 100 91
-0.321286 -0.233381 -0.65 249 250 244
-0.298852 -0.232304 -0.647 218 218 216
-0.170057 -0.22979 -0.64 183 183 175
0.153723 -0.186346 -0.519 197 149 137
0.16132 -0.185987 -0.518 192 144 132
0.17316 -0.185987 -0.518 209 160 155
0.17646 -0.186346 -0.519 213 166 158
0.180117 -0.187064 -0.521 212 165 159
0.19217 -0.167316 -0.466 82 57 63
0.193057 -0.167316 -0.466 75 54 59
0.193945 -0.167316 -0.466 76 55 60
0.194832 -0.167316 -0.466 77 55 58
0.21081 -0.167316 -0.466 79 57 59
0.215248 -0.167316 -0.466 79 57 59
0.222826 -0.167675 -0.467 78 56 58
0.230434 -0.168034 -0.468 82 60 62
0.237566 -0.168034 -0.468 81 61 62
0.243806 -0.168034 -0.468 88 66 69
0.248793 -0.168393 -0.469 94 72 75
0.25272 -0.168034 -0.468 93 71 74
0.269081 -0.167675 -0.467 76 55 60
0.26997 -0.167675 -0.467 77 55 58
0.27175 -0.167675 -0.467 77 54 60
0.277976 -0.167675 -0.467 75 55 57
0.279463 -0.168034 -0.468 75 54 59
0.288377 -0.168034 -0.468 70 51 53
0.29043 -0.167675 -0.467 73 54 56
0.295509 -0.168034 -0.468 79 59 61
0.385483 -0.184191 -0.513 197 139 137
0.39605 -0.182755 -0.509 174 121 115
0.408137 -0.183832 -0.512 159 111 101
-0.169791 -0.230649 -0.639 184 184 176
-0.164923 -0.230649 -0.639 185 185 177
-0.157129 -0.233536 -0.647 184 186 175
-0.154143 -0.234619 -0.65 185 187 174
0.142423 -0.19347 -0.536 200 153 143
0.143586 -0.190944 -0.529 199 152 142
0.14432 -0.190583 -0.528 199 152 142
0.14505 -0.190222 -0.527 199 152 142
0.148646 -0.188417 -0.522 193 147 134
0.1554 -0.186973 -0.518 195 149 136
0.163963 -0.186612 -0.517 192 144 132
0.167902 -0.186612 -0.517 197 148 134
0.191692 -0.168565 -0.467 80 58 61
0.203256 -0.168565 -0.467 77 54 60
0.204146 -0.168565 -0.467 76 53 59
0.244327 -0.169287 -0.469 109 88 93
0.252905 -0.169648 -0.47 114 93 98
0.273807 -0.169287 -0.469 75 54 59
0.278273 -0.169287 -0.469 74 55 59
0.303287 -0.169287 -0.469 74 57 63
0.30686 -0.169287 -0.469 93 74 78
0.313781 -0.169648 -0.47 132 113 117
0.385927 -0.184447 -0.511 195 137 136
0.409112 -0.184808 -0.512 163 113 104
0.414627 -0.18553 -0.514 155 108 98
0.420986 -0.186612 -0.517 142 104 93
-0.314395 -0.232591 -0.641 215 216 210
-0.293595 -0.235494 -0.649 233 232 228
-0.169791 -0.231866 -0.639 184 184 176
-0.16588 -0.231503 -0.638 184 184 174
0.148361 -0.189049 -0.521 194 148 135
0.154413 -0.18796 -0.518 194 148 135
0.17316 -0.18796 -0.518 211 162 157
0.178781 -0.188686 -0.52 214 170 161
0.190149 -0.171269 -0.472 88 67 72
0.189833 -0.17018 -0.469 98 77 82
0.198809 -0.169454 -0.467 121 101 103
0.208149 -0.169817 -0.468 115 94 99
0.221993 -0.17018 -0.469 120 101 103
0.246266 -0.170906 -0.471 112 93 97
0.27439 -0.170543 -0.47 71 55 56
0.276181 -0.170543 -0.47 69 53 56
0.281552 -0.170543 -0.47 64 49 52
0.282448 -0.170543 -0.47 63 48 53
0.283633 -0.17018 -0.469 63 48 53
0.410088 -0.185783 -0.512 162 112 101
0.150057 -0.189676 -0.52 193 145 133
0.249557 -0.236001 -0.647 185 146 151
0.19656 -0.170709 -0.468 130 111 115
0.2162 -0.171438 -0.47 120 104 107
0.224734 -0.171803 -0.471 95 80 83
0.227426 -0.171803 -0.471 94 82 84
0.228808 -0.172168 -0.472 92 80 82
0.234202 -0.172168 -0.472 85 73 75
0.258476 -0.172168 -0.472 72 60 64
0.271386 -0.171803 -0.471 64 52 54
0.274077 -0.171803 -0.471 62 50 52
0.276769 -0.171803 -0.471 59 47 49
0.27946 -0.171803 -0.471 56 45 49
0.303683 -0.171803 -0.471 52 41 47
0.32119 -0.172532 -0.473 163 148 155
0.41026 -0.186393 -0.511 162 110 99
-0.323729 -0.2365 -0.645 253 254 248
-0.304353 -0.235767 -0.643 142 140 141
-0.156619 -0.238333 -0.65 185 187 176
0.13988 -0.197267 -0.538 200 152 138
0.15244 -0.189933 -0.518 195 149 136
0.177449 -0.1903 -0.519 215 170 164
0.192029 -0.172333 -0.47 96 77 81
0.213071 -0.1727 -0.471 91 79 83
0.239709 -0.1738 -0.474 50 40 41
0.264989 -0.1738 -0.474 43 34 39
0.268934 -0.173433 -0.473 45 36 41
0.273439 -0.173433 -0.473 42 36 38
0.276142 -0.173433 -0.473 41 35 37
0.294711 -0.1727 -0.471 44 38 42
0.300731 -0.173067 -0.472 44 38 42
0.30163 -0.173067 -0.472 43 37 41
0.313318 -0.173067 -0.472 49 40 45
0.316914 -0.173067 -0.472 78 69 74
0.328001 -0.175633 -0.479 153 159 191
0.394494 -0.1859 -0.507 169 119 112
-0.33119 -0.239571 -0.65 249 252 243
0.1425 -0.1935 -0.525 200 154 141
0.158731 -0.190183 -0.516 190 142 130
0.171841 -0.190551 -0.517 206 158 156
0.184149 -0.193131 -0.524 174 129 132
0.206769 -0.174334 -0.473 58 47 55
0.246677 -0.175809 -0.477 34 29 35
0.260851 -0.176177 -0.478 33 26 33
0.267225 -0.176177 -0.478 31 26 32
0.268483 -0.175809 -0.477 29 24 30
0.277893 -0.17544 -0.476 27 25 30
0.299297 -0.174703 -0.474 36 34 39
0.302909 -0.174703 -0.474 33 31 36
0.323452 -0.175071 -0.475 179 177 199
0.325723 -0.175809 -0.477 183 181 203
0.386143 -0.187971 -0.51 185 134 131
0.393337 -0.187234 -0.508 179 126 122
0.399143 -0.187234 -0.508 164 114 105
0.401078 -0.187234 -0.508 166 116 107
0.422137 -0.190183 -0.516 143 101 87
-0.321721 -0.237475 -0.641 244 247 240
-0.313414 -0.236734 -0.639 152 154 151
-0.169791 -0.236734 -0.639 183 183 173
-0.165439 -0.237475 -0.641 183 185 172
-0.157857 -0.24081 -0.65 185 187 176
-0.0487543 -0.240069 -0.648 74 71 80
0.1415 -0.1945 -0.525 199 153 140
0.192262 -0.175976 -0.475 56 43 50
0.229943 -0.177829 -0.48 37 32 39
0.2553 -0.17894 -0.483 30 27 34
0.258594 -0.17931 -0.484 31 29 34
0.2691 -0.17894 -0.483 27 24 31
0.289987 -0.177088 -0.478 22 23 28
0.31144 -0.176347 -0.476 26 25 31
0.324133 -0.176347 -0.476 143 144 165
0.399143 -0.188202 -0.508 163 110 102
0.403981 -0.188202 -0.508 163 113 102
0.417729 -0.190054 -0.513 151 108 91
-0.314139 -0.237579 -0.638 154 156 153
-0.0600476 -0.242048 -0.65 72 71 77
-0.0586286 -0.241303 -0.648 67 66 72
-0.0522143 -0.240186 -0.645 71 70 78
0.146095 -0.193638 -0.52 196 148 138
0.159405 -0.191776 -0.515 191 141 132
0.172491 -0.192149 -0.516 212 165 159
0.180414 -0.193266 -0.519 205 161 160
0.194071 -0.176881 -0.475 38 31 39
0.198595 -0.176881 -0.475 38 31 39
0.219428 -0.179115 -0.481 33 27 37
0.294539 -0.177998 -0.478 21 20 25
0.414153 -0.190287 -0.511 152 108 95
0.426733 -0.192893 -0.518 146 104 92
-0.32936 -0.24104 -0.644 250 251 245
-0.16376 -0.24104 -0.644 185 187 174
-0.0597705 -0.242163 -0.647 68 67 73
0.151851 -0.193131 -0.516 194 146 134
0.153817 -0.193131 -0.516 194 146 134
0.155481 -0.192757 -0.515 190 142 130
0.17544 -0.193131 -0.516 214 169 166
0.190295 -0.198371 -0.53 108 78 80
0.194793 -0.179283 -0.479 35 30 37
0.203852 -0.180031 -0.481 35 29 39
0.225871 -0.183026 -0.489 34 31 42
0.29026 -0.18078 -0.483 25 24 32
0.303086 -0.179657 -0.48 22 21 27
0.305191 -0.179283 -0.479 21 20 26
0.31639 -0.178909 -0.478 53 52 58
0.386762 -0.196126 -0.524 156 110 113
0.389666 -0.189763 -0.507 181 128 122
0.405916 -0.190137 -0.508 163 115 101
0.4114 -0.190886 -0.51 155 107 93
-0.177804 -0.243019 -0.646 181 183 172
-0.160087 -0.244148 -0.649 188 188 176
0.135007 -0.202767 -0.539 200 154 141
0.13528 -0.200133 -0.532 201 153 141
0.13702 -0.198252 -0.527 198 148 137
0.141686 -0.196371 -0.522 198 150 140
0.143399 -0.195995 -0.521 197 149 139
0.171176 -0.193738 -0.515 207 162 156
0.199686 -0.181324 -0.482 36 30 42
0.220697 -0.185086 -0.492 42 40 51
0.296938 -0.18471 -0.491 25 24 32
0.31602 -0.1817 -0.483 31 30 38
0.31786 -0.1817 -0.483 32 31 39
0.319543 -0.180571 -0.48 65 64 70
0.326176 -0.180195 -0.479 146 143 170
0.386355 -0.191481 -0.509 181 128 124
0.389666 -0.190729 -0.507 179 126 122
0.406884 -0.191105 -0.508 162 113 99
-0.317287 -0.240847 -0.637 146 148 145
0.134005 -0.202281 -0.535 198 154 141
0.138236 -0.198122 -0.524 196 148 138
0.141414 -0.196988 -0.521 197 149 139
0.150869 -0.195097 -0.516 198 150 138
0.152834 -0.195097 -0.516 197 149 137
0.153519 -0.194719 -0.515 196 148 136
0.169865 -0.194341 -0.514 203 158 152
0.182743 -0.19661 -0.52 189 145 142
0.188859 -0.198878 -0.526 108 81 88
0.20083 -0.184132 -0.487 63 61 72
0.213763 -0.184889 -0.489 41 38 49
0.216067 -0.185267 -0.49 45 43 54
0.217443 -0.185645 -0.491 45 43 54
0.219313 -0.185645 -0.491 44 42 53
0.383756 -0.193585 -0.512 183 130 126
0.385171 -0.192829 -0.51 183 128 125
0.394494 -0.191694 -0.507 169 118 114
0.39468 -0.191316 -0.506 170 120 113
0.397571 -0.191316 -0.506 160 110 101
-0.31486 -0.24206 -0.637 139 141 140
-0.0631733 -0.24472 -0.644 67 66 74
0.13351 -0.20102 -0.529 195 151 138
0.134263 -0.20064 -0.528 197 151 138
0.145533 -0.19684 -0.518 194 146 136
0.163011 -0.19532 -0.514 190 143 133
0.182391 -0.19722 -0.519 191 147 146
0.190583 -0.20064 -0.528 187 161 170
0.203829 -0.18696 -0.492 61 59 73
0.209026 -0.18658 -0.491 60 60 72
0.211755 -0.18734 -0.493 70 70 82
0.217329 -0.1881 -0.495 74 74 86
0.31382 -0.18886 -0.497 21 19 30
0.316329 -0.1881 -0.495 23 21 32
0.319746 -0.18734 -0.493 20 18 29
0.411563 -0.19342 -0.509 160 110 99
-0.321634 -0.242891 -0.636 216 218 213
-0.315577 -0.242891 -0.636 138 140 139
-0.165439 -0.244801 -0.641 186 186 174
-0.0671648 -0.247092 -0.647 69 66 77
-0.0543324 -0.244801 -0.641 70 68 79
0.138437 -0.198972 -0.521 198 150 140
0.156158 -0.196299 -0.514 193 147 134
0.176081 -0.196681 -0.515 213 168 165
0.178389 -0.197063 -0.516 210 166 165
0.202243 -0.189043 -0.495 49 46 55
0.205182 -0.188279 -0.493 61 59 73
0.324286 -0.190952 -0.5 20 20 32
0.382318 -0.196299 -0.514 179 128 125
0.385171 -0.194771 -0.51 183 128 123
0.397391 -0.193626 -0.507 159 109 100
-0.314366 -0.244103 -0.636 135 137 136
-0.162309 -0.248709 -0.648 187 187 177
-0.06006 -0.244487 -0.637 65 62 73
0.137445 -0.199965 -0.521 199 151 141
0.139883 -0.199197 -0.519 201 153 143
0.143283 -0.19843 -0.517 197 149 139
0.18204 -0.198813 -0.518 197 153 152
0.184724 -0.199581 -0.52 158 129 131
0.1895 -0.2015 -0.525 221 200 205
0.331686 -0.189602 -0.494 32 31 39
0.383297 -0.197278 -0.514 176 125 122
0.38398 -0.196127 -0.511 182 129 125
0.385171 -0.195743 -0.51 182 127 122
0.388499 -0.194975 -0.508 175 126 122
0.40222 -0.194591 -0.507 167 119 107
0.405117 -0.194591 -0.507 161 113 101
-0.173986 -0.247243 -0.641 183 185 174
0.139162 -0.200571 -0.52 200 152 142
0.16074 -0.197871 -0.513 190 142 130
0.193324 -0.204429 -0.53 255 247 255
0.214448 -0.195171 -0.506 42 39 48
0.252827 -0.2052 -0.532 80 78 92
0.25629 -0.206357 -0.535 72 70 84
0.292224 -0.210214 -0.545 35 35 47
0.29538 -0.210986 -0.547 35 35 47
0.303337 -0.212914 -0.552 33 31 44
0.316329 -0.211757 -0.549 31 29 42
0.322024 -0.208671 -0.541 27 27 37
0.325965 -0.204043 -0.529 25 23 34
0.327433 -0.199414 -0.517 24 22 33
0.398357 -0.195557 -0.507 153 103 96
0.429849 -0.199414 -0.517 147 105 91
-0.331298 -0.249239 -0.643 253 255 249
-0.171009 -0.247689 -0.639 187 187 177
-0.0662305 -0.247301 -0.638 66 64 75
-0.0649133 -0.246913 -0.637 66 64 75
0.134726 -0.202337 -0.522 201 155 142
0.139883 -0.201174 -0.519 200 154 141
0.141587 -0.200787 -0.518 199 153 140
0.144268 -0.200399 -0.517 200 154 141
0.144971 -0.200011 -0.516 199 153 140
0.170511 -0.198849 -0.513 206 161 158
0.173443 -0.198849 -0.513 210 165 162
0.187423 -0.202337 -0.522 184 159 165
0.213229 -0.197686 -0.51 80 78 89
0.215593 -0.198073 -0.511 58 57 65
0.218941 -0.198461 -0.512 85 83 94
0.249241 -0.206601 -0.533 77 75 89
0.258207 -0.208927 -0.539 53 51 65
0.263773 -0.21009 -0.542 86 86 98
0.266819 -0.210865 -0.544 72 74 86
0.328849 -0.208151 -0.537 27 25 38
0.331372 -0.200399 -0.517 23 23 33
0.40222 -0.196523 -0.507 163 115 105
0.406083 -0.196523 -0.507 158 110 100
-0.321129 -0.247348 -0.635 211 213 208
-0.284503 -0.252411 -0.648 251 253 248
-0.0648114 -0.247737 -0.636 66 66 76
-0.0635 -0.247348 -0.635 67 67 77
0.138894 -0.202163 -0.519 200 153 143
0.143283 -0.201384 -0.517 200 154 141
0.145954 -0.200994 -0.516 198 152 139
0.166278 -0.199436 -0.512 201 155 155
0.169204 -0.199436 -0.512 208 163 160
0.181337 -0.200994 -0.516 195 154 150
0.188778 -0.203721 -0.523 199 178 187
0.27966 -0.215407 -0.553 49 48 62
0.284927 -0.215407 -0.553 52 51 65
0.288094 -0.214628 -0.551 66 65 79
0.307733 -0.218133 -0.56 28 31 40
0.32292 -0.21268 -0.546 26 26 38
0.33113 -0.20489 -0.526 23 22 30
0.331867 -0.20411 -0.524 22 21 29
0.333987 -0.201773 -0.518 26 25 33
0.335646 -0.200994 -0.516 23 22 30
0.390631 -0.197489 -0.507 168 117 113
0.410754 -0.197878 -0.508 152 104 94
-0.280429 -0.254429 -0.65 252 252 250
-0.0566857 -0.250514 -0.64 69 69 79
0.128229 -0.206674 -0.528 197 153 144
0.130999 -0.204717 -0.523 198 154 143
0.150284 -0.201194 -0.514 198 151 141
0.157809 -0.200803 -0.513 195 148 138
0.162377 -0.200411 -0.512 199 152 142
0.17213 -0.200411 -0.512 211 167 166
0.2335 -0.2055 -0.525 38 36 49
0.290714 -0.215286 -0.55 39 38 54
0.291762 -0.215286 -0.55 40 39 53
0.297567 -0.21646 -0.553 33 32 46
0.302902 -0.218026 -0.557 34 33 47
0.313154 -0.220766 -0.564 31 33 45
0.321587 -0.212154 -0.542 24 23 37
0.3325 -0.2055 -0.525 24 23 31
0.341821 -0.200411 -0.512 28 28 38
0.381595 -0.202369 -0.517 174 124 125
0.384416 -0.199237 -0.509 176 125 122
0.391789 -0.198063 -0.506 167 114 108
-0.280429 -0.255667 -0.65 252 252 250
-0.16376 -0.253307 -0.644 190 190 180
-0.0567743 -0.252127 -0.641 68 68 76
-0.0489048 -0.255667 -0.65 71 70 78
0.133219 -0.204533 -0.52 202 158 147
0.139613 -0.203747 -0.518 201 155 142
0.152923 -0.20178 -0.513 195 149 136
0.165303 -0.201387 -0.512 202 155 145
0.183658 -0.203353 -0.517 179 143 145
0.21714 -0.203353 -0.517 38 35 46
0.291771 -0.21712 -0.552 70 69 85
0.314694 -0.22066 -0.561 30 29 45
0.314484 -0.213973 -0.544 30 29 43
0.316727 -0.212007 -0.539 31 30 44
0.319213 -0.211613 -0.538 30 29 43
0.3268 -0.209253 -0.532 26 26 38
0.383229 -0.2006 -0.51 177 127 128
0.390825 -0.199027 -0.506 163 110 104
0.392752 -0.199027 -0.506 165 112 106
0.39871 -0.198633 -0.505 157 107 100
0.42194 -0.200993 -0.511 156 108 98
0.426523 -0.20178 -0.513 147 108 101
-0.3175 -0.250976 -0.635 152 154 149
-0.315081 -0.250976 -0.635 128 130 125
-0.0706457 -0.250581 -0.634 61 64 73
-0.061081 -0.250976 -0.635 67 67 75
-0.058939 -0.252162 -0.638 68 68 76
0.138359 -0.204338 -0.517 203 155 143
0.14371 -0.203548 -0.515 200 154 139
0.149014 -0.202757 -0.513 196 153 137
0.157501 -0.202362 -0.512 194 147 137
0.158476 -0.202362 -0.512 194 147 137
0.166927 -0.201967 -0.511 200 155 150
0.168873 -0.201967 -0.511 206 163 157
0.181967 -0.203548 -0.515 203 163 161
0.22348 -0.204733 -0.518 87 85 96
0.232057 -0.207105 -0.524 89 87 101
0.24315 -0.210662 -0.533 76 74 87
0.28859 -0.219752 -0.556 52 51 67
0.292823 -0.218171 -0.552 48 47 61
0.31371 -0.22331 -0.565 33 35 48
0.325965 -0.209081 -0.529 29 28 42
0.331314 -0.205524 -0.52 30 28 39
0.333 -0.204733 -0.518 27 25 38
0.34056 -0.203943 -0.516 27 25 36
0.3478 -0.204733 -0.518 29 27 38
0.40721 -0.19999 -0.506 156 106 97
0.421114 -0.201571 -0.51 155 108 100
0.422913 -0.201967 -0.511 154 107 99
-0.32802 -0.253774 -0.639 250 253 246
-0.176573 -0.256554 -0.646 188 188 178
-0.0656076 -0.250994 -0.632 67 67 75
-0.0622905 -0.252186 -0.635 68 68 76
-0.0513019 -0.257746 -0.649 70 70 80
0.141748 -0.204529 -0.515 202 156 141
0.175687 -0.20294 -0.511 215 173 174
0.182592 -0.204131 -0.514 193 154 159
0.222493 -0.20572 -0.518 48 46 59
0.2461 -0.212471 -0.535 34 32 45
0.28965 -0.220811 -0.556 38 37 51
0.295994 -0.220017 -0.554 33 33 45
0.308857 -0.223989 -0.564 30 32 45
0.313789 -0.212074 -0.534 93 92 108
0.325256 -0.207706 -0.523 44 42 56
0.325997 -0.206911 -0.521 45 43 57
0.383447 -0.202146 -0.509 173 125 125
0.389861 -0.200954 -0.506 163 112 108
0.41269 -0.201749 -0.508 157 108 101
0.448733 -0.210486 -0.53 142 102 94
-0.3175 -0.253395 -0.635 209 214 207
-0.176847 -0.258184 -0.647 186 186 176
-0.084679 -0.258982 -0.649 66 65 70
-0.0569514 -0.256588 -0.643 69 69 79
-0.0536086 -0.258184 -0.647 69 69 79
0.122107 -0.212293 -0.532 197 155 143
0.1245 -0.2095 -0.525 201 157 146
0.138359 -0.206308 -0.517 202 156 141
0.150674 -0.204312 -0.512 198 152 137
0.152625 -0.204312 -0.512 200 154 139
0.170486 -0.203514 -0.51 209 165 162
0.172429 -0.203514 -0.51 212 168 167
0.187597 -0.206308 -0.517 194 175 181
0.295471 -0.221471 -0.555 35 35 47
0.297063 -0.22187 -0.556 35 35 47
0.3116 -0.212293 -0.532 116 115 133
0.313457 -0.211495 -0.53 120 119 137
0.317904 -0.211096 -0.529 108 105 124
0.319713 -0.210298 -0.527 104 101 120
0.3225 -0.2095 -0.525 93 92 110
0.348471 -0.207106 -0.519 31 28 39
0.38106 -0.203913 -0.511 173 125 125
0.382033 -0.203913 -0.511 173 125 125
0.386769 -0.202317 -0.507 170 120 119
0.396786 -0.201519 -0.505 160 111 106
0.432949 -0.205909 -0.516 145 100 94
-0.331298 -0.257812 -0.643 250 253 246
-0.324567 -0.255407 -0.637 251 254 247
-0.169102 -0.25701 -0.641 186 186 176
-0.161323 -0.260218 -0.649 194 192 180
-0.0777686 -0.253803 -0.633 69 67 78
-0.0612733 -0.255407 -0.637 67 67 77
0.13639 -0.207292 -0.517 199 155 142
0.138359 -0.207292 -0.517 198 154 141
0.174371 -0.204486 -0.51 215 173 174
0.18455 -0.20609 -0.514 191 159 164
0.2355 -0.2105 -0.525 65 61 75
0.238857 -0.211703 -0.528 65 63 77
0.248138 -0.21451 -0.535 56 54 68
0.288493 -0.225335 -0.562 41 40 54
0.300795 -0.224132 -0.559 34 34 46
0.3024 -0.224533 -0.56 35 35 47
0.307237 -0.225736 -0.563 33 32 46
0.334345 -0.20609 -0.514 27 23 37
0.382039 -0.209698 -0.523 158 110 122
0.378891 -0.206891 -0.516 168 124 125
0.401595 -0.202481 -0.505 160 111 104
-0.328533 -0.257829 -0.64 251 254 247
-0.287316 -0.260246 -0.646 197 197 195
-0.28247 -0.261454 -0.649 253 253 251
-0.281667 -0.261857 -0.65 253 253 251
-0.0816429 -0.255814 -0.635 69 68 76
-0.0668114 -0.254606 -0.632 67 67 77
-0.0580857 -0.258634 -0.642 67 67 77
-0.0569514 -0.259037 -0.643 67 67 77
0.119854 -0.213917 -0.531 197 155 143
0.162714 -0.205457 -0.51 198 152 139
0.220224 -0.207471 -0.515 52 49 60
0.239863 -0.212709 -0.528 52 48 62
0.246195 -0.214723 -0.533 53 51 65
0.285223 -0.227211 -0.564 68 67 83
0.31158 -0.22842 -0.567 67 66 84
0.30798 -0.213917 -0.531 126 125 143
0.311269 -0.212709 -0.528 125 124 142
0.318891 -0.211097 -0.524 121 118 137
0.323133 -0.20868 -0.518 113 110 127
0.3268 -0.207874 -0.516 104 101 118
0.381508 -0.205054 -0.509 177 127 128
0.400633 -0.203443 -0.505 158 109 104
0.406246 -0.203846 -0.506 155 106 99
0.419319 -0.205054 -0.509 148 101 95
-0.3175 -0.257024 -0.635 252 254 249
-0.291333 -0.260667 -0.644 142 142 140
-0.283269 -0.262286 -0.648 253 253 251
-0.281667 -0.263095 -0.65 255 255 253
-0.160333 -0.263095 -0.65 196 194 182
-0.0796733 -0.254595 -0.629 69 67 78
-0.0711733 -0.25419 -0.628 68 66 77
-0.0602486 -0.258643 -0.639 70 68 79
0.129997 -0.210071 -0.519 197 153 140
0.150761 -0.206024 -0.509 198 154 141
0.171121 -0.206024 -0.509 207 166 160
0.17403 -0.206024 -0.509 208 167 163
0.2375 -0.2125 -0.525 64 61 72
0.240869 -0.213714 -0.528 62 56 68
0.306094 -0.215738 -0.533 115 112 129
0.314899 -0.212095 -0.524 118 115 136
0.32178 -0.210071 -0.519 114 111 130
0.322147 -0.209667 -0.518 111 108 127
0.32847 -0.208048 -0.514 98 94 109
0.381043 -0.21169 -0.523 155 112 121
0.399671 -0.204405 -0.505 158 107 103
0.427642 -0.207238 -0.512 152 105 99
0.441257 -0.210476 -0.52 141 98 92
-0.319211 -0.25864 -0.636 254 255 251
-0.160826 -0.263113 -0.647 196 194 182
-0.0770314 -0.25498 -0.627 69 67 78
-0.0758371 -0.25498 -0.627 68 66 77
0.118726 -0.213907 -0.526 207 155 142
0.146487 -0.207807 -0.511 197 151 138
0.148143 -0.2074 -0.51 198 152 139
0.150086 -0.2074 -0.51 199 153 138
0.157548 -0.206993 -0.509 191 145 130
0.164334 -0.206993 -0.509 198 152 136
0.17403 -0.206993 -0.509 206 165 161
0.174999 -0.206993 -0.509 206 168 167
0.1802 -0.2074 -0.51 212 174 173
0.223167 -0.209433 -0.515 54 48 60
0.266693 -0.222853 -0.548 60 58 72
0.27737 -0.227327 -0.559 66 63 80
0.29214 -0.23058 -0.567 64 63 81
0.304024 -0.229767 -0.565 43 42 56
0.308671 -0.214313 -0.527 107 102 124
0.328809 -0.20862 -0.513 101 95 109
0.336945 -0.208213 -0.512 29 25 39
0.341198 -0.209027 -0.514 30 28 41
0.350133 -0.211467 -0.52 31 24 40
0.378387 -0.210653 -0.518 168 121 129
0.380758 -0.206587 -0.508 174 124 123
0.389861 -0.205773 -0.506 167 114 110
0.39792 -0.20496 -0.504 160 109 105
0.404481 -0.205367 -0.505 155 106 99
0.411877 -0.20618 -0.507 149 100 93
0.424029 -0.2074 -0.51 154 107 99
-0.30246 -0.261077 -0.639 252 252 250
-0.0903933 -0.26026 -0.637 67 67 75
-0.0889 -0.259443 -0.635 65 65 73
-0.0711733 -0.256583 -0.628 68 67 75
-0.065919 -0.259443 -0.635 69 69 77
-0.0500657 -0.265163 -0.649 69 69 81
-0.0489048 -0.265571 -0.65 70 69 75
0.139786 -0.210414 -0.515 198 152 137
0.155609 -0.207963 -0.509 194 148 135
0.169817 -0.207554 -0.508 206 163 157
0.177908 -0.207963 -0.509 211 173 172
0.224691 -0.210006 -0.514 80 74 84
0.236143 -0.213274 -0.522 58 52 64
0.244891 -0.215726 -0.528 55 52 63
0.25276 -0.218177 -0.534 58 52 66
0.283576 -0.230843 -0.565 59 56 73
0.29317 -0.232477 -0.569 60 59 75
0.298065 -0.232069 -0.568 59 58 74
0.303484 -0.231251 -0.566 64 63 77
0.30524 -0.22308 -0.546 130 126 149
0.308086 -0.214909 -0.526 101 96 116
0.317826 -0.212049 -0.519 102 95 113
0.335313 -0.20878 -0.511 27 23 37
0.375954 -0.209189 -0.512 178 128 127
0.39312 -0.20592 -0.504 160 107 101
0.396 -0.20592 -0.504 164 111 105
0.425 -0.208371 -0.51 156 109 101
-0.323151 -0.262294 -0.639 250 253 246
-0.31486 -0.261473 -0.637 252 253 248
-0.295013 -0.264347 -0.644 254 255 253
-0.16614 -0.262294 -0.639 193 193 183
-0.162743 -0.262705 -0.64 197 195 183
-0.0959943 -0.263526 -0.642 68 67 75
-0.0489048 -0.26681 -0.65 70 69 75
0.130733 -0.212627 -0.518 202 156 141
0.13172 -0.212627 -0.518 203 157 142
0.133435 -0.212216 -0.517 203 157 141
0.135143 -0.211806 -0.516 203 156 140
0.138805 -0.211395 -0.515 195 149 134
0.139786 -0.211395 -0.515 197 151 136
0.14454 -0.209753 -0.511 196 150 137
0.170785 -0.208522 -0.508 204 163 157
0.187367 -0.209753 -0.511 197 168 170
