ply
format ascii 1.0
comment Generated by Floating Hands
element vertex 1095
property double x
property double y
property double z
property uchar red
property uchar green
property uchar blue
end_header
0.1463599 -0.04215771 0.2860569 205 205 205
0.1546017 -0.04218495 0.2842507 205 205 205
0.1353131 -0.04744733 0.2978379 205 205 205
0.1363038 -0.04587667 0.2942857 205 205 205
0.1405222 -0.0433369 0.2879212 205 205 205
0.1457394 -0.04250934 0.2849516 205 205 205
0.1492094 -0.0424115 0.2839449 205 205 205
0.1234753 -0.04086433 0.2851991 205 205 205
0.1323758 -0.04808012 0.297873 205 205 205
0.1340486 -0.04885899 0.2990522 205 205 205
0.1356412 -0.04867607 0.2982512 205 205 205
0.1431511 -0.0441877 0.2870632 205 205 205
0.154921 -0.04416018 0.2842624 205 205 205
0.1343672 -0.05009444 0.2994625 205 205 205
0.1358637 -0.0489439 0.2966938 205 205 205
0.15427 -0.04451816 0.2831675 205 205 205
0.1364063 -0.04866499 0.2939584 205 205 205
0.1396299 -0.04673 0.2891942 205 205 205
0.1409311 -0.04552535 0.2864255 205 205 205
0.130268 -0.04867429 0.2936195 205 205 205
0.1359572 -0.04998879 0.2947616 205 205 205
0.1362858 -0.04944863 0.2935837 205 205 205
0.1373811 -0.04880574 0.2920001 205 205 205
0.1395125 -0.04750156 0.2888252 205 205 205
0.1457972 -0.04600088 0.2842548 205 205 205
0.1490588 -0.04647617 0.2844183 205 205 205
0.1498041 -0.04634127 0.283972 205 205 205
0.1518178 -0.04649599 0.2838044 205 205 205
0.135835 -0.05077453 0.2943822 205 205 205
0.1380346 -0.04947986 0.2912152 205 205 205
0.1391049 -0.04882326 0.2896278 205 205 205
0.1396752 -0.04771878 0.2872802 205 205 205
0.1434409 -0.04713729 0.2851767 205 205 205
0.1509568 -0.04740809 0.2838842 205 205 205
0.1517024 -0.04726825 0.2834312 205 205 205
0.1524464 -0.04712646 0.2829759 205 205 205
0.1531887 -0.04698265 0.2825181 205 205 205
0.1539293 -0.04683685 0.2820581 205 205 205
0.1371393 -0.05036008 0.2912458 205 205 205
0.1389848 -0.04959532 0.2892512 205 205 205
0.1413317 -0.04769577 0.2849023 205 205 205
0.1448198 -0.0476534 0.2839464 205 205 205
0.1463094 -0.04739853 0.2830789 205 205 205
0.1518001 -0.04746004 0.2818733 205 205 205
0.1525393 -0.04731654 0.2814177 205 205 205
0.1359185 -0.05178965 0.2924421 205 205 205
0.1366994 -0.05168882 0.2920362 205 205 205
0.137017 -0.05113479 0.2908643 205 205 205
0.1399165 -0.04969507 0.2872858 205 205 205
0.1409493 -0.04901849 0.2856977 205 205 205
0.1434552 -0.04809354 0.2832586 205 205 205
0.152956 -0.04852093 0.2817639 205 205 205
0.1318669 -0.05304189 0.294047 205 205 205
0.1330957 -0.05340815 0.2944264 205 205 205
0.1362487 -0.05302219 0.2928212 205 205 205
0.138742 -0.05113449 0.2884893 205 205 205
0.1395088 -0.05102426 0.2880749 205 205 205
0.1397956 -0.05045983 0.2869054 205 205 205
0.1408295 -0.04977923 0.2853193 205 205 205
0.1445836 -0.04917356 0.2831938 205 205 205
0.1453297 -0.04904649 0.2827615 205 205 205
0.1495588 -0.04882632 0.2812921 205 205 205
0.1528382 -0.04928758 0.2813824 205 205 205
0.1317406 -0.05381849 0.2936571 205 205 205
0.1364506 -0.05324062 0.2912607 205 205 205
0.1367698 -0.05267916 0.2900925 205 205 205
0.138148 -0.05144496 0.2873494 205 205 205
0.1389117 -0.05133493 0.286937 205 205 205
0.1396739 -0.05122293 0.2865222 205 205 205
0.1452105 -0.04980379 0.2823811 205 205 205
0.1454467 -0.04922374 0.281213 205 205 205
0.1466985 -0.04954309 0.2815097 205 205 205
0.14818 -0.04927447 0.280629 205 205 205
0.1286618 -0.05235818 0.2897916 205 205 205
0.1332807 -0.05543019 0.2944096 205 205 205
0.1356595 -0.05514099 0.2932049 205 205 205
0.140312 -0.05187006 0.2857189 205 205 205
0.1420944 -0.05105823 0.2837114 205 205 205
0.1435955 -0.05081281 0.2828594 205 205 205
0.1473206 -0.05016446 0.2806877 205 205 205
0.1485789 -0.05048115 0.2809723 205 205 205
0.1314851 -0.05536662 0.2928686 205 205 205
0.1355312 -0.05592004 0.2928061 205 205 205
0.1371352 -0.05307581 0.2869835 205 205 205
0.1419723 -0.05181341 0.2833247 205 205 205
0.1313561 -0.0561381 0.29247 205 205 205
0.13701 -0.0538347 0.2865913 205 205 205
0.1373064 -0.05325896 0.2854323 205 205 205
0.1448471 -0.05206567 0.2812228 205 205 205
0.150867 -0.05262763 0.2807387 205 205 205
0.1333284 -0.05823889 0.2939673 205 205 205
0.134127 -0.05814337 0.2935669 205 205 205
0.1358057 -0.05527585 0.287761 205 205 205
0.1424773 -0.05319606 0.2821185 205 205 205
0.1487303 -0.05320689 0.2805228 205 205 205
0.1339949 -0.05892112 0.2931573 205 205 205
0.1329821 -0.0587355 0.2912278 205 205 205
0.134115 -0.05805898 0.289672 205 205 205
0.1355487 -0.05679296 0.2869582 205 205 205
0.1393985 -0.05624215 0.284903 205 205 205
0.1454789 -0.05525564 0.2814892 205 205 205
0.1482449 -0.05532226 0.2808888 205 205 205
0.1530429 -0.05554001 0.2800504 205 205 205
0.1295342 -0.05775158 0.2885661 205 205 205
0.1358756 -0.05803086 0.2873003 205 205 205
0.1392697 -0.05699671 0.284498 205 205 205
0.1400355 -0.05688019 0.2840799 205 205 205
0.1425917 -0.05591705 0.2816541 205 205 205
0.1440992 -0.05566289 0.2807952 205 205 205
0.08326609 -0.06674952 0.3176512 205 205 205
0.08415673 -0.06678158 0.3174063 205 205 205
0.1369807 -0.05916616 0.2872263 205 205 205
0.1424637 -0.05666504 0.2812489 205 205 205
0.1477441 -0.05744461 0.2812372 205 205 205
0.148501 -0.05730631 0.2807913 205 205 205
0.1533157 -0.057531 0.2799374 205 205 205
0.08380244 -0.06511392 0.3125313 205 205 205
0.08549264 -0.06318694 0.3084484 205 205 205
0.13005 -0.05916278 0.2873613 205 205 205
0.1341623 -0.06083431 0.2891837 205 205 205
0.1349508 -0.06073215 0.2887799 205 205 205
0.1360676 -0.06003294 0.2872208 205 205 205
0.1373071 -0.0604133 0.2875536 205 205 205
0.1376271 -0.05981513 0.2863995 205 205 205
0.1391807 -0.05958911 0.2855684 205 205 205
0.1405402 -0.05826434 0.2828414 205 205 205
0.1430897 -0.05728457 0.2804129 205 205 205
0.1443399 -0.05763824 0.2807041 205 205 205
0.1476146 -0.05819936 0.2808244 205 205 205
0.0781133 -0.067157 0.3162675 205 205 205
0.07809662 -0.06271394 0.3082369 205 205 205
0.08022793 -0.06181114 0.3058769 205 205 205
0.08681569 -0.06349218 0.3066927 205 205 205
0.1303509 -0.06040638 0.2877011 205 205 205
0.1324459 -0.06179448 0.2895635 205 205 205
0.135264 -0.06198646 0.2891057 205 205 205
0.1363888 -0.0612824 0.2875451 205 205 205
0.1454649 -0.05873895 0.2805751 205 205 205
0.1559288 -0.06081318 0.2814389 205 205 205
0.0754751 -0.06831514 0.31734 205 205 205
0.07841718 -0.06050797 0.3023371 205 205 205
0.08299682 -0.06166069 0.302852 205 205 205
0.09181605 -0.06786353 0.3110059 205 205 205
0.1339822 -0.06345077 0.2902366 205 205 205
0.1355752 -0.06324568 0.2894249 205 205 205
0.1359186 -0.06264408 0.2882731 205 205 205
0.14811 -0.05956423 0.2795453 205 205 205
0.150136 -0.05976493 0.2793535 205 205 205
0.1508919 -0.05961885 0.278899 205 205 205
0.07578771 -0.06114104 0.30258 205 205 205
0.07786366 -0.06022809 0.3002518 205 205 205
0.0899124 -0.06507277 0.3048091 205 205 205
0.1354374 -0.06401004 0.2889954 205 205 205
0.1357816 -0.06340482 0.2878457 205 205 205
0.1373593 -0.06318759 0.2870229 205 205 205
0.1395544 -0.06173558 0.2838893 205 205 205
0.1409079 -0.06038305 0.2811714 205 205 205
0.1421548 -0.0607531 0.2814685 205 205 205
0.143947 -0.0598745 0.2794588 205 205 205
0.1452013 -0.06023407 0.2797386 205 205 205
0.1479778 -0.06031325 0.2791243 205 205 205
0.1556609 -0.06234897 0.2805797 205 205 205
0.07398269 -0.06179805 0.3025877 205 205 205
0.07462405 -0.06132703 0.3015391 205 205 205
0.07525726 -0.06085364 0.3004897 205 205 205
0.07607911 -0.06089098 0.3002752 205 205 205
0.07669973 -0.06041309 0.2992235 205 205 205
0.0801793 -0.06104765 0.2991629 205 205 205
0.08710323 -0.0637551 0.3016086 205 205 205
0.0901042 -0.06481285 0.3024757 205 205 205
0.09566755 -0.06429355 0.299756 205 205 205
0.1329059 -0.06507861 0.2897761 205 205 205
0.1355272 -0.06305163 0.2855323 205 205 205
0.1378667 -0.06271853 0.2842984 205 205 205
0.1404877 -0.06174694 0.2818957 205 205 205
0.146327 -0.06133825 0.2795881 205 205 205
0.1491122 -0.06141116 0.2789574 205 205 205
0.1511446 -0.06161115 0.2787519 205 205 205
0.07282517 -0.06197527 0.3015386 205 205 205
0.07328317 -0.06098702 0.299658 205 205 205
0.0790062 -0.06123301 0.2981447 205 205 205
0.08330563 -0.06186659 0.2978093 205 205 205
0.0841212 -0.06188387 0.2975685 205 205 205
0.08754507 -0.06399508 0.3001086 205 205 205
0.133565 -0.06573986 0.2889387 205 205 205
0.134268 -0.06452038 0.2866514 205 205 205
0.138507 -0.06335239 0.2834537 205 205 205
0.1408291 -0.06299365 0.2821912 205 205 205
0.1411198 -0.06236862 0.2810457 205 205 205
0.1477104 -0.06180587 0.278274 205 205 205
0.07036266 -0.06308264 0.3025627 205 205 205
0.0708504 -0.06209511 0.3006874 205 205 205
0.07763364 -0.06088793 0.2962944 205 205 205
0.08930738 -0.0652741 0.2999825 205 205 205
0.09315715 -0.06632571 0.3005383 205 205 205
0.1318238 -0.06669792 0.2893009 205 205 205
0.1326247 -0.06659963 0.288902 205 205 205
0.1334242 -0.06649918 0.2885004 205 205 205
0.1342222 -0.06639663 0.2880963 205 205 205
0.1352516 -0.06455 0.2846711 205 205 205
0.1414633 -0.06361593 0.2813347 205 205 205
0.146057 -0.06282843 0.2787314 205 205 205
0.146817 -0.06268995 0.2782892 205 205 205
0.1552515 -0.06463861 0.2792695 205 205 205
0.06622283 -0.06711619 0.3091752 205 205 205
0.06748952 -0.06567951 0.306272 205 205 205
0.07647987 -0.06104976 0.29527 205 205 205
0.08360255 -0.06281316 0.2959082 205 205 205
0.08652257 -0.06390164 0.2968049 205 205 205
0.0875871 -0.06443544 0.297367 205 205 205
0.1386964 -0.06535496 0.2833115 205 205 205
0.1433495 -0.06461209 0.2807555 205 205 205
0.1441195 -0.06448098 0.280321 205 205 205
0.1456547 -0.06421253 0.279445 205 205 205
0.1464199 -0.06407519 0.2790034 205 205 205
0.1479454 -0.06379429 0.278113 205 205 205
0.1517698 -0.06486116 0.278843 205 205 205
0.06787738 -0.06543422 0.3039682 205 205 205
0.0741425 -0.06011401 0.292799 205 205 205
0.0779478 -0.06182014 0.2944137 205 205 205
0.09150364 -0.06676651 0.2983215 205 205 205
0.0961958 -0.06938986 0.301239 205 205 205
0.09929901 -0.0704107 0.3019678 205 205 205
0.0995627 -0.06933928 0.3000749 205 205 205
0.1338477 -0.06677118 0.2853402 205 205 205
0.1362088 -0.06644586 0.2841174 205 205 205
0.1369929 -0.06633324 0.2837049 205 205 205
0.1382366 -0.06673245 0.2840133 205 205 205
0.1439809 -0.06522566 0.2798833 205 205 205
0.1447495 -0.06509219 0.2794466 205 205 205
0.1488188 -0.06555039 0.2790732 205 205 205
0.1542048 -0.06631323 0.2788523 205 205 205
0.1549735 -0.06615554 0.2783818 205 205 205
0.06868085 -0.08585736 0.3363585 205 205 205
0.06663529 -0.07125796 0.3124765 205 205 205
0.06793363 -0.06411473 0.3000018 205 205 205
0.0689195 -0.06210551 0.2962826 205 205 205
0.06955937 -0.06162522 0.295256 205 205 205
0.07001667 -0.06061362 0.2933981 205 205 205
0.0740014 -0.06081328 0.2923853 205 205 205
0.07860952 -0.06255604 0.2937706 205 205 205
0.07919691 -0.06205004 0.292725 205 205 205
0.09218495 -0.06750397 0.2976141 205 205 205
0.0966094 -0.06960391 0.2997054 205 205 205
0.1031396 -0.07215647 0.3018939 205 205 205
0.1339966 -0.07323816 0.2942782 205 205 205
0.1334942 -0.07043009 0.2897767 205 205 205
0.1342346 -0.0691826 0.2874968 205 205 205
0.1352818 -0.06730236 0.2840851 205 205 205
0.1399737 -0.06660617 0.2815892 205 205 205
0.1446102 -0.06583469 0.2790063 205 205 205
0.1499547 -0.0666618 0.278872 205 205 205
0.1520061 -0.06687105 0.2786468 205 205 205
0.0660128 -0.07354782 0.31472 205 205 205
0.06796394 -0.06276271 0.2960528 205 205 205
0.06860892 -0.06228128 0.2950299 205 205 205
0.07049501 -0.06082254 0.2919567 205 205 205
0.07208206 -0.06090395 0.291556 205 205 205
0.07306378 -0.06147477 0.2921766 205 205 205
0.09068787 -0.06717233 0.2958366 205 205 205
0.0978654 -0.07141079 0.3005617 205 205 205
0.09899768 -0.07193127 0.3010632 205 205 205
0.1035916 -0.07399024 0.3030157 205 205 205
0.1340056 -0.06878526 0.2851805 205 205 205
0.1510938 -0.06777383 0.2786581 205 205 205
0.1536694 -0.06848987 0.2791072 205 205 205
0.06589246 -0.07119036 0.3090567 205 205 205
0.06617839 -0.0691195 0.3055332 205 205 205
0.06893297 -0.0619612 0.2927577 205 205 205
0.07772562 -0.06447959 0.2939642 205 205 205
0.07934166 -0.06453107 0.2935125 205 205 205
0.08036747 -0.0650913 0.2940972 205 205 205
0.09998424 -0.07321011 0.3011007 205 205 205
0.1032015 -0.06984419 0.2945502 205 205 205
0.1709895 -0.1293744 0.3712232 205 205 205
0.1349668 -0.07753715 0.2974357 205 205 205
0.1362345 -0.0692021 0.2835035 205 205 205
0.1381315 -0.06833066 0.281539 205 205 205
0.1412426 -0.06783908 0.2798474 205 205 205
0.1427889 -0.06758072 0.2789871 205 205 205
0.1476272 -0.06793208 0.2781839 205 205 205
0.1530089 -0.06873186 0.2779664 205 205 205
0.06815498 -0.06314593 0.2933549 205 205 205
0.06941605 -0.0621621 0.2913166 205 205 205
0.07021058 -0.06220571 0.29112 205 205 205
0.07476105 -0.06401462 0.2925553 205 205 205
0.07576279 -0.06458718 0.2931581 205 205 205
0.0777873 -0.06572721 0.29435 205 205 205
0.08288039 -0.06639914 0.2937666 205 205 205
0.08450372 -0.06642684 0.2932796 205 205 205
0.085555 -0.06697889 0.2938379 205 205 205
0.08661308 -0.067529 0.2943913 205 205 205
0.09339563 -0.06969919 0.2957375 205 205 205
0.09560295 -0.07076441 0.2967661 205 205 205
0.1347927 -0.07949269 0.2988403 205 205 205
0.134815 -0.07716415 0.2950715 205 205 205
0.13523 -0.0765304 0.2939251 205 205 205
0.136423 -0.06930355 0.2819199 205 205 205
0.1407966 -0.06922834 0.2805323 205 205 205
0.1439034 -0.06870814 0.2788049 205 205 205
0.1528651 -0.06948231 0.2775094 205 205 205
0.06457005 -0.07208917 0.3074974 205 205 205
0.06515575 -0.07107519 0.3056495 205 205 205
0.07500567 -0.06580008 0.2937601 205 205 205
0.0943465 -0.07096688 0.295804 205 205 205
0.09545293 -0.07150163 0.2963138 205 205 205
0.09910019 -0.0736368 0.2985995 205 205 205
0.1005289 -0.07470673 0.2998734 205 205 205
0.1036839 -0.07572547 0.3005179 205 205 205
0.1054604 -0.07732935 0.3025459 205 205 205
0.1060149 -0.07230601 0.2942652 205 205 205
0.1641606 -0.1264661 0.3635586 205 205 205
0.1333208 -0.08101857 0.2999138 205 205 205
0.1345815 -0.07442973 0.2889826 205 205 205
0.139089 -0.07021598 0.2809269 205 205 205
0.1411239 -0.07049615 0.280784 205 205 205
0.1532361 -0.07075099 0.2777303 205 205 205
0.1558289 -0.07147048 0.278143 205 205 205
0.06568317 -0.06813208 0.2990285 205 205 205
0.07027367 -0.06467324 0.2919118 205 205 205
0.07728558 -0.06875471 0.2961389 205 205 205
0.07914305 -0.06935821 0.2964944 205 205 205
0.0816221 -0.06942772 0.2957891 205 205 205
0.09753364 -0.0733061 0.2968586 205 205 205
0.09894717 -0.07438497 0.2981363 205 205 205
0.1000829 -0.07491381 0.2986219 205 205 205
0.1023737 -0.07596451 0.2995772 205 205 205
0.10766 -0.0791308 0.3029753 205 205 205
0.1085301 -0.07909577 0.3026456 205 205 205
0.1326986 -0.08245056 0.3005669 205 205 205
0.1344987 -0.07990568 0.2959809 205 205 205
0.1381592 -0.07107538 0.28089 205 205 205
0.1412861 -0.07057817 0.279193 205 205 205
0.1489694 -0.07106038 0.2777438 205 205 205
0.06513011 -0.07042851 0.3012432 205 205 205
0.07529176 -0.06885524 0.2953247 205 205 205
0.07631079 -0.0694384 0.2959163 205 205 205
0.07753762 -0.07057005 0.2973137 205 205 205
0.07836984 -0.07059947 0.2970855 205 205 205
0.07920139 -0.07062683 0.2968546 205 205 205
0.08429878 -0.06910724 0.2927626 205 205 205
0.08755305 -0.06913773 0.2917534 205 205 205
0.09024682 -0.06969038 0.291762 205 205 205
0.09377307 -0.07187799 0.2941061 205 205 205
0.09992861 -0.07566317 0.2981539 205 205 205
0.1010702 -0.07619286 0.2986322 205 205 205
0.1033728 -0.07724515 0.2995728 205 205 205
0.1048396 -0.07831808 0.3008118 205 205 205
0.1092406 -0.07983307 0.3018293 205 205 205
0.104876 -0.06817208 0.2847096 205 205 205
0.1313255 -0.08161923 0.29786 205 205 205
0.1372266 -0.07193126 0.2808476 205 205 205
0.1392602 -0.07222633 0.2807149 205 205 205
0.145505 -0.07117412 0.2772495 205 205 205
0.147548 -0.07141972 0.2770457 205 205 205
0.0734961 -0.06949278 0.2953098 205 205 205
0.07571961 -0.07122464 0.2973092 205 205 205
0.07655316 -0.07125819 0.2970863 205 205 205
0.07778632 -0.07239667 0.2984776 205 205 205
0.07862624 -0.07242631 0.2982472 205 205 205
0.08659243 -0.06984232 0.2915629 205 205 205
0.096945 -0.07422934 0.295149 205 205 205
0.1009147 -0.0769434 0.2981593 205 205 205
0.1020623 -0.07747389 0.2986302 205 205 205
0.1029147 -0.07744818 0.2983198 205 205 205
0.1058522 -0.07960443 0.3007843 205 205 205
0.1111439 -0.08107649 0.3014362 205 205 205
0.1312124 -0.08122046 0.2954934 205 205 205
0.1337604 -0.07854601 0.2905463 205 205 205
0.13532 -0.07594491 0.2860191 205 205 205
0.1397433 -0.07163724 0.2779984 205 205 205
0.1409929 -0.07204705 0.2782709 205 205 205
0.1497167 -0.07171223 0.275222 205 205 205
0.1540866 -0.07336439 0.2765325 205 205 205
0.1553841 -0.07373099 0.2767303 205 205 205
0.06407337 -0.07561637 0.3064565 205 205 205
0.06606105 -0.07032903 0.2974931 205 205 205
0.06839395 -0.06993514 0.2960933 205 205 205
0.06922054 -0.0699845 0.2958943 205 205 205
0.07004661 -0.0700318 0.2956927 205 205 205
0.07614275 -0.07361186 0.2992787 205 205 205
0.07867607 -0.07370744 0.2985926 205 205 205
0.0891353 -0.07111445 0.291127 205 205 205
0.0942964 -0.07331583 0.2929097 205 205 205
0.0953997 -0.0738612 0.2934088 205 205 205
0.09903852 -0.07604115 0.2956531 205 205 205
0.1039141 -0.07872866 0.2983016 205 205 205
0.1331924 -0.07996095 0.2911921 205 205 205
0.1340283 -0.07985807 0.2907816 205 205 205
0.1358019 -0.07417673 0.2814552 205 205 205
0.1388178 -0.07249147 0.2779582 205 205 205
0.1508478 -0.0728277 0.2749719 205 205 205
0.1521315 -0.07320492 0.2751828 205 205 205
0.1557538 -0.07501213 0.2769223 205 205 205
0.06565716 -0.0732093 0.3004985 205 205 205
0.06689346 -0.07165177 0.2976627 205 205 205
0.07039995 -0.0724138 0.297677 205 205 205
0.07936467 -0.0744606 0.2978937 205 205 205
0.08653833 -0.07181595 0.2914524 205 205 205
0.08817059 -0.07182262 0.2909354 205 205 205
0.09087586 -0.07237818 0.2909255 205 205 205
0.09414438 -0.07403684 0.2924475 205 205 205
0.1003088 -0.07787792 0.2964303 205 205 205
0.1014515 -0.07841478 0.2968985 205 205 205
0.1060862 -0.08053803 0.2987179 205 205 205
0.1087603 -0.08214438 0.30036 205 205 205
0.1135608 -0.08420607 0.3020419 205 205 205
0.1119103 -0.07851933 0.2937727 205 205 205
0.1089627 -0.07232648 0.2851271 205 205 205
0.1270382 -0.08790316 0.3035734 205 205 205
0.129072 -0.08948972 0.3053949 205 205 205
0.1304863 -0.08876634 0.3038474 205 205 205
0.1304408 -0.08342215 0.2956321 205 205 205
0.131336 -0.08212784 0.2933689 205 205 205
0.1326133 -0.08137942 0.2918314 205 205 205
0.1330346 -0.08072681 0.2907009 205 205 205
0.1338517 -0.07941752 0.2884424 205 205 205
0.1409991 -0.07283407 0.2762162 205 205 205
0.1438004 -0.07297216 0.2756054 205 205 205
0.06489915 -0.07828477 0.3069482 205 205 205
0.06719649 -0.07404533 0.2996448 205 205 205
0.07856797 -0.07572 0.2984612 205 205 205
0.07920951 -0.07518415 0.2974261 205 205 205
0.08827101 -0.07309348 0.291265 205 205 205
0.08990777 -0.07309175 0.2907354 205 205 205
0.09124938 -0.07421634 0.2920324 205 205 205
0.09648339 -0.07642104 0.293744 205 205 205
0.1044518 -0.08020131 0.2970166 205 205 205
0.1067861 -0.08125956 0.2979034 205 205 205
0.112517 -0.08503249 0.3018868 205 205 205
0.1149482 -0.08605847 0.3026984 205 205 205
0.1100587 -0.07236952 0.2832595 205 205 205
0.1282705 -0.08798461 0.301523 205 205 205
0.1303266 -0.08299403 0.2932733 205 205 205
0.1307673 -0.08234307 0.292146 205 205 205
0.1320384 -0.08159173 0.2906143 205 205 205
0.132457 -0.0809361 0.2894878 205 205 205
0.1341209 -0.08072799 0.2886682 205 205 205
0.1362926 -0.0755275 0.2800957 205 205 205
0.1366299 -0.07485896 0.2789778 205 205 205
0.1374162 -0.07473855 0.2785605 205 205 205
0.07662471 -0.07861415 0.3018862 205 205 205
0.09521634 -0.07659514 0.2927835 205 205 205
0.1059985 -0.08088163 0.2958867 205 205 205
0.1129003 -0.0851958 0.3002766 205 205 205
0.1207334 -0.08466356 0.2970315 205 205 205
0.1281029 -0.08878092 0.3010034 205 205 205
0.1286027 -0.08813509 0.2998712 205 205 205
0.1287041 -0.08692675 0.2980092 205 205 205
0.1297153 -0.08441612 0.2938973 205 205 205
0.1301989 -0.08254974 0.2909244 205 205 205
0.131464 -0.08179553 0.2893986 205 205 205
0.1343632 -0.08082189 0.2870486 205 205 205
0.143208 -0.07510892 0.2757833 205 205 205
0.1455354 -0.07468735 0.2744616 205 205 205
0.1463079 -0.07454257 0.2740163 205 205 205
0.06656802 -0.0843702 0.3122778 205 205 205
0.0735219 -0.08089636 0.3047111 205 205 205
0.07779958 -0.07827755 0.2993416 205 205 205
0.09176686 -0.07563632 0.2908246 205 205 205
0.09506107 -0.07731661 0.2923089 205 205 205
0.101826 -0.08061556 0.2951371 205 205 205
0.1096857 -0.08378455 0.297437 205 205 205
0.1169214 -0.08688781 0.2998484 205 205 205
0.1209782 -0.08896919 0.3017198 205 205 205
0.1345978 -0.08090546 0.2854317 205 205 205
0.1352843 -0.07833386 0.28137 205 205 205
0.1351943 -0.0771035 0.2795537 205 205 205
0.1383575 -0.07662176 0.2778834 205 205 205
0.154623 -0.07745771 0.2743197 205 205 205
0.0729874 -0.08330949 0.3068464 205 205 205
0.0778363 -0.07957796 0.299655 205 205 205
0.08042578 -0.07739155 0.2955306 205 205 205
0.09270358 -0.07691184 0.2908513 205 205 205
0.09741542 -0.07972496 0.2935599 205 205 205
0.1030574 -0.08072132 0.2932613 205 205 205
0.1107127 -0.08506794 0.2973489 205 205 205
0.1225854 -0.08961775 0.3004395 205 205 205
0.1303075 -0.0834059 0.2888028 205 205 205
0.131561 -0.08264107 0.2872818 205 205 205
0.1332186 -0.08243229 0.2864668 205 205 205
0.1374153 -0.07747121 0.2778229 205 205 205
0.141816 -0.07738592 0.2763775 205 205 205
0.1426003 -0.07725062 0.2759426 205 205 205
0.1482654 -0.07749686 0.2746234 205 205 205
0.1534139 -0.07907286 0.275436 205 205 205
0.06851023 -0.08436834 0.3082227 205 205 205
0.07077476 -0.08620523 0.3102101 205 205 205
0.07388426 -0.08468263 0.3069204 205 205 205
0.07833637 -0.07976024 0.2981396 205 205 205
0.07983928 -0.07923713 0.2968722 205 205 205
0.08111012 -0.07812816 0.29481 205 205 205
0.08256964 -0.07758696 0.2935322 205 205 205
0.08484171 -0.07704739 0.2919955 205 205 205
0.08757316 -0.07764312 0.2920006 205 205 205
0.08815625 -0.07706781 0.2909583 205 205 205
0.0925482 -0.07762308 0.2903754 205 205 205
0.09364506 -0.07818942 0.290866 205 205 205
0.1012095 -0.08151322 0.2933935 205 205 205
0.1020542 -0.08148465 0.2930835 205 205 205
0.1045824 -0.08138583 0.2921381 205 205 205
0.1057383 -0.08192428 0.2925721 205 205 205
0.1083914 -0.08356901 0.2941754 205 205 205
0.1098959 -0.08467484 0.2953418 205 205 205
0.1134791 -0.08625014 0.2965527 205 205 205
0.1183425 -0.08831234 0.2980881 205 205 205
0.1208104 -0.08932654 0.2988214 205 205 205
0.1259526 -0.09009644 0.2983662 205 205 205
0.1264527 -0.08944299 0.2972451 205 205 205
0.1269443 -0.08878788 0.2961246 205 205 205
0.1330581 -0.08318073 0.2859659 205 205 205
0.1334579 -0.08250677 0.2848494 205 205 205
0.1349723 -0.07979831 0.2803939 205 205 205
0.1353297 -0.0791182 0.2792828 205 205 205
0.1447896 -0.07755604 0.2741388 205 205 205
0.1553438 -0.08003525 0.2746483 205 205 205
0.07076149 -0.08754486 0.3104973 205 205 205
0.07371709 -0.08543498 0.306413 205 205 205
0.07496634 -0.08378535 0.3035698 205 205 205
0.07566445 -0.08324593 0.3025457 205 205 205
0.0763543 -0.08270395 0.3015208 205 205 205
0.08073956 -0.08056041 0.2969322 205 205 205
0.0832485 -0.0783117 0.2928043 205 205 205
0.08491803 -0.07833453 0.2922991 205 205 205
0.08658454 -0.07834887 0.2917834 205 205 205
0.08800049 -0.07777427 0.2904816 205 205 205
0.09130256 -0.07776062 0.2894032 205 205 205
0.09239218 -0.0783323 0.2898968 205 205 205
0.09321847 -0.07832143 0.2896169 205 205 205
0.1018941 -0.08221529 0.2925904 205 205 205
0.1121137 -0.08648261 0.2956451 205 205 205
0.1133137 -0.08700804 0.296041 205 205 205
0.1153882 -0.08747341 0.2960755 205 205 205
0.120283 -0.08952623 0.2975631 205 205 205
0.1236477 -0.0904603 0.2978883 205 205 205
0.1255237 -0.08907208 0.29527 205 205 205
0.1269536 -0.08709384 0.2919269 205 205 205
0.1328967 -0.08392702 0.2854621 205 205 205
0.1336895 -0.08257096 0.2832348 205 205 205
0.1340115 -0.08064212 0.2803138 205 205 205
0.1372162 -0.08017025 0.2786508 205 205 205
0.1380136 -0.08004683 0.2782289 205 205 205
0.1391427 -0.07922942 0.2766928 205 205 205
0.1456047 -0.07939792 0.2749951 205 205 205
0.1510185 -0.08031688 0.2747176 205 205 205
0.07388204 -0.09364593 0.3167112 205 205 205
0.07551501 -0.08685414 0.3062392 205 205 205
0.08099689 -0.08244782 0.2980115 205 205 205
0.08499236 -0.07962604 0.2925956 205 205 205
0.08582983 -0.07963424 0.292338 205 205 205
0.08809089 -0.07906239 0.2907757 205 205 205
0.09032216 -0.07847139 0.2891974 205 205 205
0.09470627 -0.08076584 0.291148 205 205 205
0.1037265 -0.08346209 0.2922201 205 205 205
0.1255457 -0.08736359 0.2910823 205 205 205
0.1294121 -0.08508283 0.2865733 205 205 205
0.1319061 -0.08477744 0.2853638 205 205 205
0.1327345 -0.08467117 0.2849555 205 205 205
0.133136 -0.08399037 0.2838437 205 205 205
0.1426084 -0.07998469 0.2751539 205 205 205
0.1438724 -0.08040997 0.2753888 205 205 205
0.1513612 -0.0816108 0.2748779 205 205 205
0.07659075 -0.09170213 0.3112615 205 205 205
0.07715072 -0.09057271 0.3094407 205 205 205
0.07732399 -0.08826917 0.3060428 205 205 205
0.07803381 -0.08771931 0.3050145 205 205 205
0.07854235 -0.086581 0.3031983 205 205 205
0.08233938 -0.08262737 0.2962358 205 205 205
0.0829754 -0.08205775 0.2952047 205 205 205
0.09565885 -0.08205145 0.2911302 205 205 205
0.1015717 -0.08367031 0.2915958 205 205 205
0.1044101 -0.08415575 0.2914005 205 205 205
0.107902 -0.0857904 0.2926633 205 205 205
0.110589 -0.08745174 0.29422 205 205 205
0.1123102 -0.08734906 0.2935308 205 205 205
0.1164378 -0.08828291 0.2935872 205 205 205
0.1180058 -0.08938439 0.2946885 205 205 205
0.1270819 -0.08794041 0.2897821 205 205 205
0.1283787 -0.0871757 0.2882782 205 205 205
0.1288179 -0.08650151 0.2871703 205 205 205
0.1300814 -0.08572607 0.2856628 205 205 205
0.1329391 -0.08346844 0.2815312 205 205 205
0.1424505 -0.08070675 0.2746583 205 205 205
0.143714 -0.08113484 0.2748913 205 205 205
0.1517015 -0.08290883 0.275031 205 205 205
0.1553163 -0.08483107 0.2767049 205 205 205
0.07914851 -0.09840102 0.3183663 205 205 205
0.07880715 -0.09141292 0.3084256 205 205 205
0.07875921 -0.08850175 0.3042541 205 205 205
0.07926098 -0.08735453 0.3024417 205 205 205
0.08087852 -0.08448612 0.2977937 205 205 205
0.08366497 -0.08278923 0.2944555 205 205 205
0.08428895 -0.08221183 0.2934247 205 205 205
0.08513488 -0.08222214 0.2931674 205 205 205
0.08574605 -0.0816403 0.2921348 205 205 205
0.0905212 -0.08105374 0.2897618 205 205 205
0.09109285 -0.08045684 0.2887218 205 205 205
0.09971819 -0.08445067 0.2917109 205 205 205
0.1014094 -0.08439468 0.2910944 205 205 205
0.1030966 -0.08432987 0.2904674 205 205 205
0.1065677 -0.08598126 0.2917403 205 205 205
0.1121438 -0.0880941 0.293015 205 205 205
0.1248272 -0.08828607 0.2893291 205 205 205
0.1273685 -0.08801745 0.2881566 205 205 205
0.1286527 -0.08724576 0.2866551 205 205 205
0.1303272 -0.08704709 0.2858537 205 205 205
0.1319959 -0.08683937 0.285042 205 205 205
0.1332051 -0.08477648 0.2817208 205 205 205
0.1371888 -0.08291762 0.2778438 205 205 205
0.1399219 -0.08183231 0.2754601 205 205 205
0.1460962 -0.08270919 0.2748344 205 205 205
0.09533703 -0.08348048 0.2901368 205 205 205
0.0984222 -0.08460535 0.2907577 205 205 205
0.09926564 -0.08458062 0.2904548 205 205 205
0.1004013 -0.08514614 0.2908997 205 205 205
0.1012465 -0.08511692 0.2905902 205 205 205
0.105552 -0.08675306 0.2915567 205 205 205
0.1140346 -0.08931454 0.292529 205 205 205
0.1229589 -0.08920064 0.2895764 205 205 205
0.1268064 -0.08817796 0.2869279 205 205 205
0.1284867 -0.08798784 0.2861371 205 205 205
0.1301614 -0.08778869 0.285336 205 205 205
0.1330419 -0.08550738 0.2812106 205 205 205
0.1346146 -0.08400264 0.2785932 205 205 205
0.1374756 -0.08421882 0.2780211 205 205 205
0.1386288 -0.08338823 0.2764909 205 205 205
0.139427 -0.08325873 0.2760631 205 205 205
0.1405536 -0.08241771 0.2745277 205 205 205
0.1515729 -0.08567768 0.2757865 205 205 205
0.1523753 -0.08551713 0.2753162 205 205 205
0.08294933 -0.1072226 0.3261127 205 205 205
0.08204573 -0.101306 0.3180368 205 205 205
0.08227776 -0.08597336 0.2962804 205 205 205
0.08419064 -0.08422886 0.2931994 205 205 205
0.08650143 -0.08365662 0.2916494 205 205 205
0.08734516 -0.08366029 0.2913843 205 205 205
0.08903021 -0.08366112 0.2908463 205 205 205
0.09322821 -0.08362529 0.2894557 205 205 205
0.09741461 -0.08534535 0.290553 205 205 205
0.09854408 -0.0859185 0.2910036 205 205 205
0.1002376 -0.08586641 0.2903926 205 205 205
0.1022269 -0.08640081 0.2905167 205 205 205
0.1039198 -0.08633076 0.2898821 205 205 205
0.1070877 -0.08739803 0.2903876 205 205 205
0.1114759 -0.08898401 0.2912424 205 205 205
0.1135259 -0.08946487 0.291276 205 205 205
0.1143826 -0.08940507 0.2909225 205 205 205
0.1223109 -0.09061667 0.290148 205 205 205
0.1232619 -0.08927227 0.287957 205 205 205
0.1274803 -0.08882415 0.2860128 205 205 205
0.1316639 -0.08831935 0.2840046 205 205 205
0.1352582 -0.08460559 0.2776699 205 205 205
0.1408573 -0.08371254 0.2746941 205 205 205
0.1441829 -0.08445022 0.2747121 205 205 205
0.08275884 -0.08611104 0.294745 205 205 205
0.08572632 -0.08495738 0.2921759 205 205 205
0.08911487 -0.08496745 0.2911059 205 205 205
0.102909 -0.08708776 0.289689 205 205 205
0.1109757 -0.08912259 0.28999 205 205 205
0.1121635 -0.08966416 0.2903738 205 205 205
0.1130179 -0.0896067 0.2900246 205 205 205
0.1183449 -0.09107026 0.2903988 205 205 205
0.1226216 -0.09068768 0.2885252 205 205 205
0.1281522 -0.08946542 0.2850926 205 205 205
0.1289904 -0.08936647 0.2846937 205 205 205
0.1298272 -0.08926526 0.2842923 205 205 205
0.1347251 -0.08602986 0.2782575 205 205 205
0.1395596 -0.08527936 0.275719 205 205 205
0.1432221 -0.0853151 0.2746425 205 205 205
0.1483389 -0.08704426 0.2754827 205 205 205
0.1504371 -0.08731107 0.2752121 205 205 205
0.08164922 -0.09158632 0.3011564 205 205 205
0.08259339 -0.08682572 0.2942334 205 205 205
0.09148426 -0.08565968 0.2897694 205 205 205
0.09232685 -0.0856501 0.2894875 205 205 205
0.09400944 -0.0856244 0.288916 205 205 205
0.1010482 -0.08787265 0.2898035 205 205 205
0.1027433 -0.08780646 0.2891745 205 205 205
0.1055915 -0.0882915 0.2889469 205 205 205
0.1064381 -0.08824823 0.2886193 205 205 205
0.1131882 -0.09093894 0.2902252 205 205 205
0.1166085 -0.09068464 0.2887968 205 205 205
0.1215989 -0.09150918 0.2883751 205 205 205
0.1220767 -0.09083144 0.2872857 205 205 205
0.1250709 -0.08988979 0.285044 205 205 205
0.1313284 -0.08979051 0.282956 205 205 205
0.1382392 -0.08684477 0.2767337 205 205 205
0.1390462 -0.08671551 0.2763053 205 205 205
0.1406556 -0.0864503 0.2754412 205 205 205
0.1494636 -0.08820234 0.2751515 205 205 205
0.1507601 -0.08862501 0.2753375 205 205 205
0.1563033 -0.08953127 0.27489 205 205 205
0.08403023 -0.09718942 0.3065147 205 205 205
0.083048 -0.09176013 0.2993422 205 205 205
0.09183361 -0.08757663 0.2907664 205 205 205
0.09268375 -0.08756685 0.2904821 205 205 205
0.09889592 -0.08804189 0.2891617 205 205 205
0.1008818 -0.08858947 0.2892861 205 205 205
0.1017299 -0.08855738 0.288973 205 205 205
0.1028784 -0.08912762 0.2893946 205 205 205
0.1059552 -0.08836342 0.2873686 205 205 205
0.1126801 -0.09107009 0.2889728 205 205 205
0.1193549 -0.09180295 0.2878817 205 205 205
0.1227547 -0.09148282 0.2863747 205 205 205
0.1236014 -0.09139706 0.2859915 205 205 205
0.124902 -0.09062065 0.2845166 205 205 205
0.1299152 -0.09003343 0.282143 205 205 205
0.1364544 -0.08781741 0.277063 205 205 205
0.1451079 -0.08836938 0.2751403 205 205 205
0.1471981 -0.08865783 0.2748905 205 205 205
0.149453 -0.09025796 0.2763901 205 205 205
0.1584714 -0.09183589 0.2757772 205 205 205
0.08504971 -0.09616192 0.303132 205 205 205
0.08748216 -0.09073462 0.2949324 205 205 205
0.09132083 -0.08951165 0.2920357 205 205 205
0.09277736 -0.08888515 0.2907154 205 205 205
0.0936304 -0.08887302 0.2904273 205 205 205
0.09731775 -0.08756239 0.2874638 205 205 205
0.1018599 -0.08987975 0.2891894 205 205 205
0.1041014 -0.08916178 0.2874985 205 205 205
0.1049454 -0.08912061 0.2871751 205 205 205
0.1089637 -0.09014645 0.287306 205 205 205
0.1113218 -0.09125053 0.2880694 205 205 205
0.1150667 -0.09161082 0.2873807 205 205 205
0.1188211 -0.09193252 0.2866382 205 205 205
0.1222068 -0.09161291 0.2851383 205 205 205
0.1247322 -0.09134925 0.2839864 205 205 205
0.1305767 -0.09065458 0.2812097 205 205 205
0.1322337 -0.09043565 0.2803936 205 205 205
0.135913 -0.08925394 0.2776353 205 205 205
0.1423919 -0.08820189 0.2741873 205 205 205
0.1449396 -0.08909457 0.2746128 205 205 205
0.1462212 -0.08953569 0.2748162 205 205 205
0.1513992 -0.09126461 0.2755668 205 205 205
0.158996 -0.09450856 0.2776344 205 205 205
0.0887083 -0.09512729 0.2989386 205 205 205
0.08936478 -0.09451871 0.2979038 205 205 205
0.09165552 -0.09144942 0.2930115 205 205 205
0.09312785 -0.09081946 0.2916886 205 205 205
0.1137011 -0.09179318 0.2864894 205 205 205
0.1148961 -0.09233641 0.2868482 205 205 205
0.1220361 -0.09233995 0.2846048 205 205 205
0.1262387 -0.09188804 0.2826731 205 205 205
0.1304067 -0.09137926 0.280678 205 205 205
0.1478157 -0.09129262 0.2751289 205 205 205
0.1588192 -0.09526484 0.2770799 205 205 205
0.09534747 -0.1087873 0.3136043 205 205 205
0.09387825 -0.09584974 0.2966715 205 205 205
0.09553742 -0.09148985 0.2902806 205 205 205
0.09669837 -0.09021987 0.288204 205 205 205
0.09867883 -0.09078518 0.2883353 205 205 205
0.111496 -0.09202474 0.2859421 205 205 205
0.1138737 -0.09312495 0.2866694 205 205 205
0.1155747 -0.0929923 0.2859542 205 205 205
0.1227078 -0.0929787 0.2836876 205 205 205
0.1239327 -0.09349812 0.2839997 205 205 205
0.1409012 -0.09050986 0.2746668 205 205 205
0.1604864 -0.09701509 0.277284 205 205 205
0.1126166 -0.1516276 0.3635353 205 205 205
0.09624043 -0.1027657 0.3035633 205 205 205
0.09708218 -0.0921609 0.2891502 205 205 205
0.1005003 -0.09205224 0.2879203 205 205 205
0.1047503 -0.09186578 0.2863241 205 205 205
0.1064428 -0.09177545 0.2856675 205 205 205
0.108131 -0.09167615 0.2850005 205 205 205
0.1101463 -0.09218304 0.2850386 205 205 205
0.1133591 -0.0932318 0.2854206 205 205 205
0.1162514 -0.09364325 0.2850551 205 205 205
0.1179451 -0.09349652 0.2843246 205 205 205
0.1233776 -0.09361249 0.2827654 205 205 205
0.1354508 -0.09273777 0.2778015 205 205 205
0.1366586 -0.09188553 0.2762873 205 205 205
0.1423483 -0.09094701 0.2732535 205 205 205
0.1471286 -0.09349891 0.2751531 205 205 205
0.1608133 -0.09836315 0.2773472 205 205 205
0.09618736 -0.09727636 0.294676 205 205 205
0.09804668 -0.09346719 0.2890457 205 205 205
0.09890547 -0.09344091 0.2887383 205 205 205
0.1000499 -0.09403288 0.2891582 205 205 205
0.1079609 -0.09238373 0.2844683 205 205 205
0.1108193 -0.0928354 0.2841605 205 205 205
0.1174126 -0.09359857 0.2830839 205 205 205
0.1206744 -0.09459174 0.2833663 205 205 205
0.1223625 -0.09442106 0.2826073 205 205 205
0.1232046 -0.0943323 0.2822241 205 205 205
0.135278 -0.09345718 0.2772606 205 205 205
0.1356676 -0.09272661 0.2761726 205 205 205
0.1552899 -0.09744848 0.2762441 205 205 205
0.1597917 -0.09930316 0.2772814 205 205 205
0.1107567 -0.1411256 0.3460306 205 205 205
0.1015972 -0.09468143 0.287987 205 205 205
0.1033132 -0.0946079 0.287346 205 205 205
0.113014 -0.09466141 0.284341 205 205 205
0.1147081 -0.09452819 0.2836297 205 205 205
0.1192879 -0.09477368 0.2825019 205 205 205
0.124711 -0.09486497 0.2809063 205 205 205
0.1267808 -0.09528628 0.2808045 205 205 205
0.1288592 -0.0956967 0.2806859 205 205 205
0.1342786 -0.0942958 0.2771371 205 205 205
0.1351043 -0.0941743 0.2767171 205 205 205
0.1371316 -0.09318701 0.2747828 205 205 205
0.1383919 -0.09366536 0.2750124 205 205 205
0.1392099 -0.09353241 0.27458 205 205 205
0.1412959 -0.09386642 0.2743601 205 205 205
0.1508068 -0.09765474 0.2763288 205 205 205
0.1034398 -0.09594411 0.2875229 205 205 205
0.1096316 -0.09430727 0.2834278 205 205 205
0.1119915 -0.09543618 0.2841488 205 205 205
0.1162238 -0.09509649 0.2823649 205 205 205
0.1211705 -0.09594123 0.2818967 205 205 205
0.1269999 -0.09662201 0.2809361 205 205 205
0.1282402 -0.09713839 0.2812153 205 205 205
0.1290848 -0.09703412 0.2808122 205 205 205
0.131198 -0.09609121 0.2789162 205 205 205
0.1357541 -0.09476504 0.2757486 205 205 205
0.1399296 -0.09546765 0.2753419 205 205 205
0.1415749 -0.09519203 0.274463 205 205 205
0.1493181 -0.09794612 0.275598 205 205 205
0.1020007 -0.117123 0.3138083 205 205 205
0.100667 -0.09868383 0.2904196 205 205 205
0.1060715 -0.095222 0.2842334 205 205 205
0.1077673 -0.09512094 0.2835645 205 205 205
0.1126661 -0.09608192 0.2832506 205 205 205
0.1177339 -0.0956526 0.2810878 205 205 205
0.1339449 -0.09707878 0.277786 205 205 205
0.1376622 -0.09583675 0.2750033 205 205 205
0.1505588 -0.100506 0.2769422 205 205 205
0.1527195 -0.1007888 0.2766222 205 205 205
0.1583981 -0.1017442 0.2760554 205 205 205
0.09840164 -0.1007504 0.2922513 205 205 205
0.1001725 -0.1006976 0.2916214 205 205 205
0.103388 -0.09799581 0.2871392 205 205 205
0.1090881 -0.09702991 0.2840913 205 205 205
0.1146809 -0.09595497 0.2809374 205 205 205
0.1175591 -0.09635825 0.2805395 205 205 205
0.1216624 -0.09727835 0.2804144 205 205 205
0.126253 -0.09743145 0.2791515 205 205 205
0.1350064 -0.09693149 0.2757282 205 205 205
0.1400212 -0.09751651 0.2748832 205 205 205
0.1425783 -0.09847006 0.2752918 205 205 205
0.1477556 -0.1003347 0.2760345 205 205 205
0.1495323 -0.1014045 0.2768402 205 205 205
0.1516926 -0.1016951 0.2765254 205 205 205
0.1573683 -0.1026718 0.2759716 205 205 205
0.1609009 -0.1033399 0.2757038 205 205 205
0.09723954 -0.1034255 0.2944784 205 205 205
0.1011593 -0.1020255 0.2914548 205 205 205
0.1035088 -0.09934034 0.2872961 205 205 205
0.1057997 -0.09857487 0.2855954 205 205 205
0.1145059 -0.09665588 0.2803883 205 205 205
0.1153464 -0.09658314 0.2800285 205 205 205
0.1243932 -0.09833855 0.2793809 205 205 205
0.1306663 -0.09823478 0.2772511 205 205 205
0.138621 -0.09912227 0.2758445 205 205 205
0.1415656 -0.09933253 0.275173 205 205 205
0.1480378 -0.1016826 0.2760971 205 205 205
0.1498166 -0.1027574 0.2768966 205 205 205
0.1607126 -0.1040915 0.2751156 205 205 205
0.1146784 -0.09798934 0.2805264 205 205 205
0.1175661 -0.09839649 0.2801201 205 205 205
0.1213076 -0.09869307 0.2793018 205 205 205
0.1250567 -0.09894967 0.27843 205 205 205
0.1296505 -0.09905639 0.2770989 205 205 205
0.1317354 -0.09945817 0.2769402 205 205 205
0.1405502 -0.1001908 0.2750485 205 205 205
0.1474712 -0.103189 0.2766189 205 205 205
0.1509482 -0.1039526 0.2764701 205 205 205
0.1601748 -0.1056389 0.2756441 205 205 205
0.1057512 -0.1006263 0.2851801 205 205 205
0.1074788 -0.1005269 0.2845061 205 205 205
0.1088801 -0.09977836 0.2831237 205 205 205
0.1139995 -0.09939797 0.2810171 205 205 205
0.1148485 -0.09932651 0.280657 205 205 205
0.1231924 -0.09984864 0.278648 205 205 205
0.1357478 -0.1009429 0.2760027 205 205 205
0.1365863 -0.1008153 0.2755745 205 205 205
0.1386949 -0.1011802 0.2753559 205 205 205
0.1477451 -0.1045448 0.2766682 205 205 205
0.156446 -0.1056996 0.2753212 205 205 205
0.09821647 -0.1049162 0.2914003 205 205 205
0.1014547 -0.1061209 0.2918667 205 205 205
0.1050358 -0.1039978 0.288094 205 205 205
0.1124547 -0.1008763 0.2818568 205 205 205
0.1158679 -0.100593 0.2804162 205 205 205
0.1255381 -0.100259 0.27691 205 205 205
0.1263773 -0.1001564 0.276514 205 205 205
0.127215 -0.1000516 0.2761154 205 205 205
0.1330404 -0.102025 0.2767 205 205 205
0.1334655 -0.1012716 0.2756276 205 205 205
0.1355652 -0.1016556 0.275431 205 205 205
0.1402269 -0.1030184 0.2756276 205 205 205
0.1445475 -0.1051051 0.2768326 205 205 205
0.09554854 -0.1017691 0.2868484 205 205 205
0.1021668 -0.1068118 0.2909538 205 205 205
0.1030635 -0.1067759 0.2906246 205 205 205
0.1071836 -0.1039241 0.2858026 205 205 205
0.1105606 -0.1017055 0.2819941 205 205 205
0.1182345 -0.1010559 0.2787426 205 205 205
0.1211408 -0.101439 0.2782844 205 205 205
0.1257464 -0.1015993 0.2770063 205 205 205
0.1307593 -0.1023341 0.2763031 205 205 205
0.1336999 -0.1026151 0.2757047 205 205 205
0.1400414 -0.1037364 0.275047 205 205 205
0.1499976 -0.1069486 0.2757992 205 205 205
0.150851 -0.1067858 0.2753228 205 205 205
0.1535043 -0.1077039 0.2755987 205 205 205
0.1055608 -0.107375 0.2890321 205 205 205
0.1084318 -0.1038777 0.2838451 205 205 205
0.1101674 -0.1037623 0.2831504 205 205 205
0.1144855 -0.1034326 0.2813683 205 205 205
0.1221792 -0.1026913 0.2779982 205 205 205
0.1334983 -0.1047229 0.2768449 205 205 205
0.1339321 -0.103962 0.2757743 205 205 205
0.136463 -0.1035824 0.2744938 205 205 205
0.1390105 -0.1045892 0.2749042 205 205 205
0.1428719 -0.106073 0.2754736 205 205 205
0.1454725 -0.1070444 0.2758223 205 205 205
0.1506595 -0.1075192 0.2747251 205 205 205
0.1591638 -0.110869 0.2760714 205 205 205
0.1600283 -0.1106838 0.2755638 205 205 205
0.1062639 -0.1100528 0.2905313 205 205 205
0.1071573 -0.1079997 0.2877586 205 205 205
0.1083135 -0.1065917 0.2856834 205 205 205
0.1198055 -0.1043083 0.2792383 205 205 205
0.1266148 -0.1035412 0.2761191 205 205 205
0.1426823 -0.1067944 0.2748809 205 205 205
0.1554061 -0.1108985 0.2757394 205 205 205
0.1594543 -0.1122468 0.2760616 205 205 205
0.1012628 -0.1103175 0.290907 205 205 205
0.1069772 -0.1107315 0.2895861 205 205 205
0.1087486 -0.1086117 0.2864723 205 205 205
0.1130599 -0.1062809 0.2822908 205 205 205
0.1147981 -0.1061401 0.2815648 205 205 205
0.117396 -0.105911 0.2804563 205 205 205
0.1199823 -0.1056605 0.2793246 205 205 205
0.1264302 -0.1042406 0.2755395 205 205 205
0.1339467 -0.1074346 0.2769598 205 205 205
0.1382178 -0.1067912 0.2748016 205 205 205
0.1416403 -0.1076575 0.2747359 205 205 205
0.1570333 -0.1127292 0.275844 205 205 205
0.1592551 -0.1129964 0.275441 205 205 205
0.1019028 -0.1130171 0.2924009 205 205 205
0.1057996 -0.1155423 0.2941731 205 205 205
0.107683 -0.1134301 0.2910537 205 205 205
0.108896 -0.1120115 0.2889743 205 205 205
0.1121043 -0.1090872 0.2844595 205 205 205
0.1161645 -0.1080801 0.2819563 205 205 205
0.1170378 -0.1080029 0.2815839 205 205 205
0.1179097 -0.1079233 0.2812089 205 205 205
0.1236013 -0.1066466 0.2778526 205 205 205
0.1248377 -0.1072003 0.2781154 205 205 205
0.1303756 -0.1072069 0.2763344 205 205 205
0.1405956 -0.1085162 0.2745852 205 205 205
0.1514778 -0.1116197 0.2747529 205 205 205
0.1563541 -0.1128381 0.2746177 205 205 205
0.1590549 -0.1137433 0.2748176 205 205 205
0.1037446 -0.1163589 0.2942355 205 205 205
0.1067515 -0.1189292 0.2963199 205 205 205
0.1071635 -0.1155301 0.2921661 205 205 205
0.1170019 -0.110762 0.2833725 205 205 205
0.1205304 -0.1104339 0.2818492 205 205 205
0.1210492 -0.109689 0.2807993 205 205 205
0.1271376 -0.1090073 0.2780261 205 205 205
0.13525 -0.1100342 0.2766149 205 205 205
0.141272 -0.1105246 0.2752373 205 205 205
0.1473186 -0.1109132 0.2737245 205 205 205
0.1512804 -0.1123516 0.2741371 205 205 205
0.1548121 -0.1131163 0.2738882 205 205 205
0.112165 -0.1152734 0.2887219 205 205 205
0.1130169 -0.1131566 0.2859621 205 205 205
0.1144807 -0.1123579 0.2845542 205 205 205
0.1212175 -0.1110572 0.2808579 205 205 205
0.1299299 -0.1100406 0.2768432 205 205 205
0.1320571 -0.1104629 0.2766495 205 205 205
0.1333265 -0.1109968 0.2768654 205 205 205
0.1372005 -0.1111412 0.2757744 205 205 205
0.1415108 -0.1118922 0.2752527 205 205 205
0.1432366 -0.1116008 0.274345 205 205 205
0.1454031 -0.1119471 0.2740441 205 205 205
0.1554757 -0.1136723 0.2727711 205 205 205
0.1586516 -0.1152292 0.2735625 205 205 205
0.1600078 -0.1156809 0.2736485 205 205 205
0.1070042 -0.1197092 0.29401 205 205 205
0.111679 -0.1173929 0.2898178 205 205 205
0.1125986 -0.1173319 0.2894523 205 205 205
0.1149465 -0.1144019 0.2852833 205 205 205
0.1229887 -0.1136621 0.2818295 205 205 205
0.12351 -0.1129056 0.2807781 205 205 205
0.1326663 -0.1124869 0.2773184 205 205 205
0.144787 -0.1134705 0.2745067 205 205 205
0.1465458 -0.1146179 0.275272 205 205 205
0.1487392 -0.1149504 0.2749405 205 205 205
0.1508826 -0.1138076 0.2728971 205 205 205
0.1539375 -0.1139367 0.2720409 205 205 205
0.1589326 -0.1166112 0.2735242 205 205 205
0.1044967 -0.1150819 0.2879057 205 205 205
0.1096129 -0.1203008 0.2923051 205 205 205
0.11148 -0.1201899 0.2915798 205 205 205
0.1244097 -0.1156118 0.2821197 205 205 205
0.1292416 -0.1157596 0.2807236 205 205 205
0.1310182 -0.1155354 0.279886 205 205 205
0.1327889 -0.1153012 0.2790378 205 205 205
0.1419811 -0.1146368 0.2752604 205 205 205
0.1437208 -0.1143419 0.2743466 205 205 205
0.1503211 -0.116818 0.2750493 205 205 205
0.153814 -0.1161355 0.2731022 205 205 205
0.1560261 -0.1164264 0.2727082 205 205 205
0.1109501 -0.122328 0.2926542 205 205 205
0.1174428 -0.1197847 0.2876515 205 205 205
0.1186973 -0.1203781 0.2879289 205 205 205
0.121458 -0.1201309 0.2867544 205 205 205
0.1271092 -0.1181312 0.2826263 205 205 205
0.1338726 -0.1165618 0.2786182 205 205 205
0.1373436 -0.1175057 0.2785692 205 205 205
0.1395803 -0.1164401 0.2766089 205 205 205
0.1408835 -0.1169602 0.2767799 205 205 205
0.1426437 -0.1166723 0.2758697 205 205 205
0.1448354 -0.1170318 0.2755623 205 205 205
0.1470341 -0.1173788 0.2752373 205 205 205
0.1492398 -0.1177133 0.2748945 205 205 205
0.1514521 -0.118035 0.2745339 205 205 205
0.153671 -0.118344 0.2741553 205 205 205
0.1131583 -0.1284727 0.2973876 205 205 205
0.1163946 -0.1247768 0.2921416 205 205 205
0.117629 -0.1232838 0.2900439 205 205 205
0.1204303 -0.1230485 0.2888727 205 205 205
0.1271066 -0.1209672 0.2843378 205 205 205
0.1325607 -0.1203086 0.2818097 205 205 205
0.1402187 -0.1184859 0.2772179 205 205 205
0.1433023 -0.1187166 0.2764663 205 205 205
0.1450545 -0.1198891 0.277229 205 205 205
0.1481558 -0.118604 0.2747338 205 205 205
0.1556894 -0.1193749 0.2731155 205 205 205
0.162399 -0.1201912 0.271812 205 205 205
0.133906 -0.1237184 0.2836977 205 205 205
0.1349513 -0.1221351 0.2815618 205 205 205
0.1372648 -0.1210844 0.2796119 205 205 205
0.140374 -0.1213466 0.2788865 205 205 205
0.1425913 -0.1217286 0.278589 205 205 205
0.1532997 -0.121298 0.2745506 205 205 205
0.1617987 -0.1217802 0.2722593 205 205 205
0.1621888 -0.1209297 0.2711603 205 205 205
0.12101 -0.1392606 0.3037793 205 205 205
0.1234183 -0.1355504 0.2988429 205 205 205
0.1242842 -0.1290959 0.2913212 205 205 205
0.1248905 -0.1283265 0.2902612 205 205 205
0.1277319 -0.1280368 0.2890132 205 205 205
0.1290378 -0.1286113 0.2892334 205 205 205
0.1318724 -0.1282887 0.287947 205 205 205
0.1346153 -0.1243339 0.2826049 205 205 205
0.1405011 -0.1242229 0.2805447 205 205 205
0.14232 -0.1239409 0.2796269 205 205 205
0.143227 -0.123796 0.279164 205 205 205
0.1441322 -0.1236484 0.2786985 205 205 205
0.1472736 -0.1238562 0.2778918 205 205 205
0.1486331 -0.1228721 0.2763312 205 205 205
0.1616705 -0.124028 0.2732786 205 205 205
0.1275096 -0.1430634 0.3042479 205 205 205
0.1257854 -0.1332517 0.2938825 205 205 205
0.132976 -0.1296021 0.2874732 205 205 205
0.1396757 -0.1272511 0.2826492 205 205 205
0.1410068 -0.1277878 0.2828095 205 205 205
0.1474529 -0.1267557 0.2795218 205 205 205
0.1492792 -0.1264372 0.2785582 205 205 205
0.152454 -0.1266058 0.2776886 205 205 205
0.1542693 -0.1262597 0.2766946 205 205 205
0.1565395 -0.1265665 0.2762783 205 205 205
0.1610983 -0.1271404 0.2753909 205 205 205
0.1248108 -0.1305029 0.2895583 205 205 205
0.1268107 -0.1324575 0.2910683 205 205 205
0.1291835 -0.1350899 0.2932057 205 205 205
0.1335096 -0.1317116 0.2880559 205 205 205
0.1363578 -0.1313516 0.2867228 205 205 205
0.1382486 -0.1310982 0.2858201 205 205 205
0.138796 -0.1302901 0.2847446 205 205 205
0.1406701 -0.1300216 0.2838287 205 205 205
0.1425376 -0.1297425 0.2829019 205 205 205
0.144815 -0.1301271 0.2825738 205 205 205
0.1503771 -0.1291906 0.2796846 205 205 205
0.1522169 -0.1288572 0.2786999 205 205 205
0.1554178 -0.1290047 0.2777922 205 205 205
0.1623055 -0.1298792 0.2764484 205 205 205
0.1359068 -0.137245 0.2917633 205 205 205
0.1579432 -0.1322518 0.2789451 205 205 205
0.1649085 -0.1330974 0.2775279 205 205 205
0.1663148 -0.1335587 0.2775612 205 205 205
0.1672415 -0.1333517 0.2770183 205 205 205
0.1380126 -0.1384539 0.2907705 205 205 205
0.1411192 -0.1365635 0.2876835 205 205 205
0.1661132 -0.135864 0.2785413 205 205 205
0.1428607 -0.1407541 0.2900402 205 205 205
0.1438407 -0.1406143 0.2895639 205 205 205
0.147333 -0.1393441 0.2870266 205 205 205
0.1489678 -0.1368314 0.2837568 205 205 205
0.1573052 -0.1398995 0.2842888 205 205 205
