ply
format ascii 1.0
comment Generated by Floating Hands
element vertex 1088
property double x
property double y
property double z
property uchar red
property uchar green
property uchar blue
end_header
0.1243369 0.01308696 0.284498 0 0 0
-0.003010296 0.02054098 0.3157586 0 0 0
0.01401292 0.01722702 0.3147013 0 0 0
0.01546269 0.01657037 0.3166819 0 0 0
0.01920108 0.01474584 0.3225673 0 0 0
0.02754522 0.008995932 0.3449058 205 205 205
0.04017637 0.01091712 0.3242868 205 205 205
0.04413456 0.01213292 0.3149569 0 0 0
0.04764765 0.01230561 0.3115179 0 0 0
0.04980186 0.01226888 0.3102058 0 0 0
0.05221227 0.01183459 0.3108095 0 0 0
0.06149124 0.01084574 0.3100618 205 205 205
0.08324489 0.0001684617 0.3521061 205 205 205
0.08460461 0.0005153324 0.3497247 205 205 205
0.0864368 0.0004423372 0.3492254 205 205 205
0.097497 -0.001945326 0.3561583 205 205 205
0.1024014 -0.003499525 0.361777 205 205 205
0.1056046 -0.003744273 0.3617552 205 205 205
0.1101091 -0.004186114 0.3622817 205 205 205
0.1117177 -0.003963606 0.3606785 205 205 205
0.1165238 -0.00391063 0.3589161 205 205 205
0.1154546 -0.001487621 0.347824 205 205 205
0.1117463 0.003363813 0.3261733 205 205 205
0.1097947 0.01025372 0.2950674 205 205 205
0.1175213 0.01159511 0.2880087 0 0 0
0.1182042 0.01166003 0.2876523 0 0 0
0.1188858 0.01172652 0.2872936 0 0 0
0.1209227 0.01193522 0.2862031 0 0 0
0.1242907 0.01231382 0.2843385 0 0 0
0.1249602 0.01239416 0.2839586 0 0 0
0.1279867 0.012237 0.2844721 0 0 0
-0.0007074462 0.01938862 0.3148381 0 0 0
0.0002886009 0.01954827 0.3129424 0 0 0
0.00104478 0.01937403 0.3130007 0 0 0
0.004073495 0.01869157 0.3132067 0 0 0
0.004831622 0.0185246 0.3132513 0 0 0
0.005680279 0.01853348 0.3123126 0 0 0
0.02473927 0.01007492 0.3369939 205 205 205
0.02657827 0.007659706 0.347715 205 205 205
0.03105194 0.0006108876 0.3798767 205 205 205
0.03951273 -0.009691985 0.4254466 205 205 205
0.04064573 0.01059809 0.3211106 205 205 205
0.08684734 -0.0009559895 0.3509155 205 205 205
0.09280599 -0.002200682 0.3542874 205 205 205
0.09825995 -0.003603446 0.3587531 205 205 205
0.1045437 -0.004768113 0.3618647 205 205 205
0.10776 -0.00500451 0.3618152 205 205 205
0.1087287 -0.005006119 0.3614829 205 205 205
0.1158209 -0.00517927 0.3599753 205 205 205
0.1162879 -0.002457265 0.3472619 205 205 205
0.1117464 0.002923852 0.3238461 205 205 205
0.1074561 0.008136651 0.3012815 205 205 205
0.1084227 0.008903951 0.2976491 205 205 205
0.1279408 0.01145791 0.2843081 0 0 0
-0.002977928 0.01932673 0.3135119 0 0 0
0.001045337 0.01878142 0.3118753 0 0 0
0.001689004 0.01843512 0.3129091 0 0 0
0.009278557 0.01678404 0.3133115 0 0 0
0.01003934 0.01662695 0.3133366 0 0 0
0.01156177 0.01631719 0.3133784 0 0 0
0.01303222 0.01582724 0.3143904 0 0 0
0.01896001 0.01293884 0.3232344 0 0 0
0.02556934 0.006701465 0.3485536 205 205 205
0.03110257 -0.00182651 0.3865266 205 205 205
0.04161925 -0.0004117638 0.3709792 205 205 205
0.04005045 0.009060005 0.3249343 205 205 205
0.04248698 0.01052883 0.3158055 205 205 205
0.04326577 0.01043386 0.315711 205 205 205
0.04615981 0.01049186 0.3133628 205 205 205
0.04681667 0.01061713 0.3122848 205 205 205
0.05189522 0.01048669 0.3095284 205 205 205
0.06613377 0.007913809 0.3136832 205 205 205
0.07316584 0.003758835 0.3300645 205 205 205
0.07556154 0.002167691 0.3365068 205 205 205
0.08189042 -0.001504947 0.3510029 205 205 205
0.1012444 -0.005540265 0.3616622 205 205 205
0.1044496 -0.005798576 0.3616494 205 205 205
0.1079812 -0.006262022 0.3625216 205 205 205
0.1089541 -0.006263578 0.3621879 205 205 205
0.1115374 -0.006032504 0.3602488 205 205 205
0.1163431 -0.001811948 0.3396527 205 205 205
-0.0008154386 0.01801928 0.3135619 0 0 0
0.005459448 0.01700654 0.3120144 0 0 0
0.009169004 0.0160157 0.3131591 0 0 0
0.01658376 0.01334718 0.3191669 0 0 0
0.01807499 0.01247023 0.3221 0 0 0
0.02901202 -0.004178692 0.3942599 205 205 205
0.04060433 0.008549702 0.3227291 205 205 205
0.04394874 0.009546544 0.3154503 205 205 205
0.04801596 0.01009932 0.3099637 205 205 205
0.09795436 -0.006285843 0.3614206 205 205 205
0.1098327 -0.00729983 0.3616295 205 205 205
0.1143377 -0.007038826 0.3589799 205 205 205
0.1186466 -0.006023772 0.353174 205 205 205
0.1171496 -0.002744573 0.3390858 205 205 205
0.1153854 -0.001130446 0.3324396 205 205 205
0.108799 0.00659941 0.3002883 205 205 205
0.1090221 0.007355817 0.296983 205 205 205
0.1318542 0.01045427 0.2815774 205 205 205
0.1321008 0.01107378 0.27913 0 0 0
-0.006388334 0.018363 0.313879 0 0 0
-0.002449684 0.01761154 0.3132786 0 0 0
-0.001690136 0.01743105 0.313345 0 0 0
0.002327801 0.01691564 0.3116803 0 0 0
0.005348381 0.01624436 0.3118607 0 0 0
0.00610443 0.01608018 0.311899 0 0 0
0.007537033 0.01556794 0.3129461 0 0 0
0.008297853 0.01540736 0.3129763 0 0 0
0.0149441 0.01304877 0.3180225 0 0 0
0.02016383 0.008822021 0.3336546 205 205 205
0.02263745 0.005945147 0.3453412 205 205 205
0.02671837 -0.005124699 0.3951177 205 205 205
0.03234186 -0.007447231 0.4016694 205 205 205
0.04058127 0.007515338 0.3235312 205 205 205
0.04168583 0.008606942 0.3175134 205 205 205
0.06807672 0.006391387 0.311849 205 205 205
0.07308988 0.003520505 0.322649 205 205 205
0.0802549 -0.001182695 0.3409106 205 205 205
0.08470712 -0.003785101 0.3508065 205 205 205
0.08781317 -0.005007849 0.3550037 205 205 205
0.10008 -0.00757463 0.3615287 205 205 205
0.118794 -0.00846719 0.3591234 205 205 205
0.10843 0.007290075 0.2938404 205 205 205
0.1284691 0.00921431 0.2834055 205 205 205
-0.00345844 0.016848 0.3140283 0 0 0
-0.00256541 0.01684586 0.3131226 0 0 0
0.009640479 0.01412926 0.3138481 0 0 0
0.01047231 0.01416717 0.3128914 0 0 0
0.0119388 0.01366192 0.3139053 0 0 0
0.01487689 0.01246057 0.3168796 0 0 0
0.01561629 0.01211111 0.3178611 0 0 0
0.01779651 0.01045584 0.323725 205 205 205
0.02080054 0.006384607 0.3403083 205 205 205
0.02336413 -0.0002855553 0.3695812 205 205 205
0.03282481 -0.01323648 0.4229223 205 205 205
0.04063454 0.006255032 0.3253011 205 205 205
0.04653656 0.008271102 0.3117911 205 205 205
0.04718814 0.008409877 0.3107135 205 205 205
0.04783192 0.008551021 0.3096343 205 205 205
0.06953437 0.005505768 0.3113 205 205 205
0.07097898 0.004767413 0.3139475 205 205 205
0.0773295 0.0006909428 0.3293872 205 205 205
0.09591884 -0.009191947 0.3655879 205 205 205
0.107382 -0.009134402 0.3609261 205 205 205
0.1084846 0.006001926 0.29575 205 205 205
0.1086575 0.006785441 0.2924619 205 205 205
0.1289349 0.008216589 0.2840575 205 205 205
0.1309536 0.008492983 0.2828582 205 205 205
0.1329589 0.008783572 0.2816378 205 205 205
0.1336244 0.008883582 0.2812265 205 205 205
-0.005100886 0.0164512 0.3137223 0 0 0
-0.0002805213 0.01572953 0.3121779 0 0 0
0.0004772199 0.01555366 0.3122352 0 0 0
0.003612647 0.01505656 0.3114606 0 0 0
0.008689391 0.01332104 0.3146388 0 0 0
0.009459021 0.01316124 0.3146633 0 0 0
0.01248515 0.01233563 0.3157116 0 0 0
0.01836549 0.008461705 0.3284332 205 205 205
0.02659053 -0.01114354 0.4122395 205 205 205
0.03025528 -0.01385137 0.4218287 205 205 205
0.04280489 -0.006790187 0.3797567 205 205 205
0.06954737 0.005375626 0.3080946 205 205 205
0.08395531 -0.004328515 0.3444912 205 205 205
0.0953568 -0.01067365 0.3675146 205 205 205
0.09988091 -0.009620155 0.3610734 205 205 205
0.1015284 -0.009410689 0.3595311 205 205 205
0.1075975 -0.01040275 0.3616134 205 205 205
0.1085725 -0.01040404 0.3612792 205 205 205
0.1170215 -0.01081661 0.3603003 205 205 205
0.1213928 -0.008477363 0.3492008 205 205 205
0.1103489 0.001703202 0.3095917 205 205 205
0.1323757 0.008230333 0.2806436 205 205 205
0.001233179 0.01481044 0.3111526 0 0 0
0.005012548 0.01396304 0.3113818 0 0 0
0.00934684 0.01238852 0.314497 0 0 0
0.01309685 0.01119882 0.3165313 205 205 205
0.01387601 0.01104619 0.316539 205 205 205
0.01679654 0.009194321 0.3224056 205 205 205
0.02197741 -0.006382937 0.3887204 205 205 205
0.0729152 0.003274358 0.3120426 205 205 205
0.0960445 -0.01243964 0.370078 205 205 205
0.09751405 -0.01201081 0.3676215 205 205 205
0.09768499 -0.01130866 0.3645309 205 205 205
0.1113943 -0.01142736 0.3600195 205 205 205
0.1325803 0.006578324 0.2837281 205 205 205
0.1321934 0.007132143 0.2816854 205 205 205
-0.001268941 0.01438618 0.3117914 0 0 0
0.002630048 0.01370937 0.3110875 0 0 0
0.01077559 0.01130042 0.3143676 205 205 205
0.01371546 0.01005476 0.3173433 205 205 205
0.01445399 0.009691585 0.3183245 205 205 205
0.01595448 0.008965468 0.3202784 205 205 205
0.01664923 0.008176127 0.323204 205 205 205
0.04255294 -0.005787697 0.3655978 205 205 205
0.04286364 0.005219873 0.3166223 205 205 205
0.04355662 0.005357597 0.3155554 205 205 205
0.07510826 0.001667031 0.3142617 205 205 205
0.09006543 -0.009744242 0.3563927 205 205 205
0.09362485 -0.01223149 0.3654574 205 205 205
0.1193899 -0.01258824 0.3578036 205 205 205
0.1205479 -0.008171231 0.339568 205 205 205
0.1252301 0.006325909 0.2821966 205 205 205
0.1338794 0.005994142 0.2827173 205 205 205
0.1353502 0.006533864 0.2806571 205 205 205
0.01125269 0.00973714 0.3171366 205 205 205
0.01643208 0.006717298 0.3259487 205 205 205
0.04492362 0.004617753 0.3142011 205 205 205
0.04897749 0.005303426 0.3087076 205 205 205
0.07185437 0.003372042 0.3048907 205 205 205
0.09529915 -0.01404073 0.3677229 205 205 205
0.09944727 -0.01341213 0.3634436 205 205 205
0.1183279 -0.01364284 0.3579297 205 205 205
0.1185849 -0.01312113 0.3557553 205 205 205
0.1191849 -0.01284743 0.3544825 205 205 205
0.1326215 0.005347543 0.2821263 205 205 205
0.004577633 0.0114813 0.3118493 205 205 205
0.01488881 0.007306497 0.3208928 205 205 205
0.04354521 0.003292607 0.3171192 205 205 205
0.04824288 0.004370364 0.309606 205 205 205
0.07400613 0.001775275 0.3071097 205 205 205
0.09334565 -0.01330746 0.3609573 205 205 205
0.0967252 -0.01561683 0.369039 205 205 205
0.09990512 -0.01494883 0.3650463 205 205 205
0.1006125 -0.01471278 0.3638127 205 205 205
0.102002 -0.01423406 0.361342 205 205 205
0.1042588 -0.01450895 0.3616255 205 205 205
0.1088033 -0.01503391 0.362137 205 205 205
0.1068604 0.0009032355 0.2996333 205 205 205
0.1070306 0.002281064 0.294268 205 205 205
0.1080481 0.002618378 0.2927454 205 205 205
0.1257914 0.004883132 0.2814383 205 205 205
0.004462988 0.01072161 0.3116738 205 205 205
0.005810844 0.009961027 0.3136908 205 205 205
0.007270921 0.009415436 0.3147248 205 205 205
0.04554906 -0.01661901 0.3957559 205 205 205
0.04221898 -0.0006150928 0.3307511 205 205 205
0.04246108 0.0009837488 0.3238881 205 205 205
0.04283022 0.002102749 0.3189598 205 205 205
0.044826 0.002797641 0.3147921 205 205 205
0.0461777 0.003110573 0.3126485 205 205 205
0.07468184 0.0009595547 0.3067093 205 205 205
0.1009233 -0.01701502 0.36849 205 205 205
0.1013611 -0.01651765 0.3663295 205 205 205
0.1188349 -0.01621979 0.3592257 205 205 205
0.1075666 0.002097926 0.2916792 205 205 205
0.1330445 0.003551588 0.2825519 205 205 205
0.001414086 0.01086009 0.31035 205 205 205
0.04413388 0.001602696 0.3166321 205 205 205
0.04618701 0.002078088 0.3134201 205 205 205
0.1193036 -0.01206632 0.3389942 205 205 205
0.1163756 -0.009425541 0.3297551 205 205 205
0.1064865 0.0009822421 0.2930021 205 205 205
0.1263488 0.00344663 0.2806664 205 205 205
0.1299108 0.002974975 0.2819436 205 205 205
0.1317845 0.002920303 0.2819506 205 205 205
-0.006250476 0.01191672 0.3095469 0 0 0
0.001947056 0.009717227 0.3111877 205 205 205
0.002604027 0.00932695 0.3122028 205 205 205
0.01035282 0.005025561 0.3232068 205 205 205
0.04297829 -0.0005119371 0.3224209 205 205 205
0.04807188 0.001801169 0.3100012 205 205 205
0.07577645 -0.0003996409 0.3049609 205 205 205
0.0852222 -0.007623858 0.329331 205 205 205
0.08985039 -0.01135775 0.3420385 205 205 205
0.1007015 -0.01911274 0.3679635 205 205 205
0.1022792 -0.01966163 0.3694915 205 205 205
0.1032946 -0.01967762 0.3691713 205 205 205
0.1053223 -0.01970313 0.3685203 205 205 205
0.1163764 -0.01887781 0.3616136 205 205 205
0.1102074 -0.005558495 0.3132441 205 205 205
0.1053848 -0.0001351442 0.2943168 205 205 205
0.1067211 0.0005137592 0.2916091 205 205 205
0.1269604 0.002775727 0.2800804 205 205 205
0.009556326 0.004846137 0.3210524 205 205 205
0.04488507 -0.01257837 0.3657786 205 205 205
0.04462119 0.0001744498 0.3151681 205 205 205
0.04665592 0.0006792117 0.3119559 205 205 205
0.04731853 0.000852334 0.3108818 205 205 205
0.07593074 -0.0006665623 0.302689 205 205 205
0.10347 -0.02100142 0.369819 205 205 205
0.1044885 -0.02101526 0.3694939 205 205 205
0.1206121 -0.01787865 0.3524506 205 205 205
0.1149619 -0.01103873 0.3287524 205 205 205
0.1056309 -0.0006053768 0.2929211 205 205 205
0.1327226 0.0008631452 0.2831692 205 205 205
-0.004227903 0.009860298 0.3093972 205 205 205
0.0009515435 0.008380686 0.3107699 205 205 205
0.005770286 0.005813387 0.3168585 205 205 205
0.006474187 0.005414139 0.3178568 205 205 205
0.04401471 -0.001303489 0.3179539 205 205 205
0.04916175 0.0006210469 0.3074542 205 205 205
0.09403948 -0.01492663 0.3462512 205 205 205
0.1071241 -0.0218273 0.3673075 205 205 205
0.1158847 -0.01335055 0.3332977 205 205 205
0.1061712 -0.0007525568 0.2903341 205 205 205
-0.005101566 0.009298302 0.3091416 205 205 205
7.226792E-05 0.007803167 0.3105306 205 205 205
0.002039246 0.006591374 0.313574 205 205 205
0.003488895 0.006013494 0.3146233 205 205 205
0.00486414 0.005205711 0.3166304 205 205 205
0.005563637 0.004801647 0.3176302 205 205 205
0.008296493 0.002711556 0.3235416 205 205 205
0.01104593 0.003406225 0.3187408 205 205 205
0.04419474 -0.002896258 0.3206253 205 205 205
0.1019372 -0.02091208 0.3616093 205 205 205
0.104106 -0.01762253 0.3487394 205 205 205
0.1152834 -0.01459465 0.3342934 205 205 205
0.1247688 0.0002348675 0.2806335 205 205 205
-0.005975638 0.008739446 0.3088807 205 205 205
0.001813016 0.005593868 0.3143447 205 205 205
0.04599711 -0.002645736 0.3152895 205 205 205
0.09596826 -0.01213908 0.327893 205 205 205
0.1031861 -0.002438861 0.2911793 205 205 205
0.1260519 -0.0003458702 0.2796541 205 205 205
0.1267224 -0.0002553521 0.279265 205 205 205
0.1313352 -0.00130673 0.2821352 205 205 205
0.1361918 -0.001957847 0.2836976 205 205 205
-0.004586454 0.007620341 0.3088269 205 205 205
0.004968728 0.002276937 0.3210917 205 205 205
0.08420506 -0.007283938 0.3112907 205 205 205
0.09070631 -0.01214457 0.3263262 205 205 205
0.1020709 -0.003554647 0.2924606 205 205 205
0.1023982 -0.003236924 0.2912771 205 205 205
0.1266604 -0.001010616 0.279054 205 205 205
0.1278449 -0.001189481 0.2794758 205 205 205
0.1352038 -0.001833707 0.2806545 205 205 205
-0.008478117 0.007823765 0.3082645 205 205 205
-0.00484855 0.00664322 0.3095931 205 205 205
1.581107E-05 0.004417074 0.3138504 205 205 205
0.003232427 0.001835994 0.3208149 205 205 205
0.004845154 0.001483061 0.3208808 205 205 205
0.08823711 -0.009858495 0.3157801 205 205 205
0.1108342 -0.01931098 0.3413218 205 205 205
0.1096638 -0.01756274 0.33562 205 205 205
0.1073195 -0.01346392 0.3221491 205 205 205
0.1016585 -0.004639699 0.2934289 205 205 205
0.1317308 -0.00312632 0.2825083 205 205 205
0.1355319 -0.003259306 0.2824543 205 205 205
-0.007092453 0.006697426 0.3082209 205 205 205
-0.006487868 0.006273209 0.3092545 205 205 205
-0.005729068 0.006083774 0.3093252 205 205 205
-0.004348686 0.00547238 0.3104198 205 205 205
-0.0008835724 0.003833487 0.3135951 205 205 205
-0.0002220646 0.003410104 0.3146081 205 205 205
0.001705563 0.001893777 0.3185967 205 205 205
0.04748481 -0.00387294 0.3095263 205 205 205
0.08984054 -0.009249751 0.3099428 205 205 205
0.1005062 -0.005760956 0.2946962 205 205 205
-0.006760519 0.005289582 0.3100115 205 205 205
-0.005377455 0.004669866 0.3111106 205 205 205
0.04713555 -0.01006935 0.3287171 205 205 205
0.04701655 -0.007603729 0.3200206 205 205 205
0.08592992 -0.007100954 0.3009174 205 205 205
0.1242697 -0.003911325 0.2807661 205 205 205
0.1264686 -0.003270316 0.2784044 205 205 205
0.1340255 -0.00503288 0.2828412 205 205 205
-0.003964578 0.00354072 0.3110307 205 205 205
-0.002555195 0.002923177 0.3121081 205 205 205
-0.001370985 0.001810277 0.3150974 205 205 205
-0.000139687 0.0006929493 0.3180783 205 205 205
0.0873463 -0.007877817 0.3001811 205 205 205
0.09888261 -0.007357968 0.2948474 205 205 205
0.09924313 -0.007031661 0.29367 205 205 205
0.1345482 -0.00425236 0.2777506 205 205 205
-0.002807545 0.00191561 0.3128546 205 205 205
0.0002017826 -0.0010363 0.3207847 205 205 205
0.08844297 -0.008343253 0.2985328 205 205 205
0.09843098 -0.00845544 0.2957958 205 205 205
0.09880042 -0.008126627 0.2946191 205 205 205
-0.009254531 0.003878121 0.3082011 205 205 205
-0.008496326 0.003682794 0.308279 205 205 205
-0.003061457 0.0009017008 0.3135961 205 205 205
-0.001307942 -0.0009385193 0.3185472 205 205 205
0.05014846 -0.01723448 0.341964 205 205 205
0.09241183 -0.009378429 0.2978519 205 205 205
0.09718721 -0.01021645 0.2990926 205 205 205
0.09798352 -0.00892049 0.2946838 205 205 205
0.09870855 -0.008254023 0.2923359 205 205 205
0.1242447 -0.005792408 0.2788893 205 205 205
0.1345128 -0.007262887 0.2817214 205 205 205
-0.005245525 0.001219821 0.3112821 205 205 205
0.04887891 -0.008781869 0.3110048 205 205 205
0.04891723 -0.007052784 0.3052054 205 205 205
0.0966964 -0.0113292 0.3000299 205 205 205
0.1265378 -0.006957599 0.2795063 205 205 205
0.1321741 -0.007259085 0.279508 205 205 205
-0.007985435 0.002007717 0.3079232 205 205 205
-0.003312082 -0.0006211088 0.3131512 205 205 205
-0.001922097 -0.003293944 0.3209609 205 205 205
0.1252828 -0.007501699 0.2788509 205 205 205
0.126467 -0.007712163 0.2792706 205 205 205
0.1350626 -0.008705924 0.2808188 205 205 205
0.1337429 -0.006999478 0.276029 205 205 205
0.1397203 -0.008316489 0.2790254 205 205 205
-0.008869265 0.001463527 0.3076287 205 205 205
0.04945199 -0.01041488 0.3104026 205 205 205
-0.004346224 -0.00195037 0.3126375 205 205 205
0.05853124 -0.0400549 0.3981107 205 205 205
0.1263223 -0.009217981 0.2787907 205 205 205
0.129391 -0.009546727 0.2792058 205 205 205
0.1305927 -0.009754234 0.2796004 205 205 205
0.1353566 -0.009004182 0.2766981 205 205 205
0.1338518 -0.007677133 0.2731471 205 205 205
-0.006036005 -0.002323895 0.3122836 205 205 205
0.05181457 -0.01861267 0.3296682 205 205 205
0.09463996 -0.01216208 0.2926019 205 205 205
-0.007572781 -0.002416756 0.3109662 205 205 205
-0.004351642 -0.004759714 0.316032 205 205 205
-0.00281081 -0.00728546 0.3228537 205 205 205
0.05536364 -0.02907545 0.3575761 205 205 205
0.1256693 -0.01040252 0.2774964 205 205 205
0.1285575 -0.01116022 0.2791112 205 205 205
0.1292429 -0.01106133 0.2787102 205 205 205
0.1321724 -0.01180182 0.2802819 205 205 205
0.1359954 -0.01199487 0.2801834 205 205 205
0.1358882 -0.01040748 0.2757773 205 205 205
-0.002831579 -0.009978396 0.3283575 205 205 205
0.05457729 -0.02591739 0.3449123 205 205 205
0.05111577 -0.01309029 0.307143 205 205 205
0.1244133 -0.01091958 0.2768321 205 205 205
0.130369 -0.01203473 0.2788492 205 205 205
-0.00554813 -0.006387013 0.316434 205 205 205
-0.003324738 -0.009450312 0.324246 205 205 205
0.06307656 -0.04947761 0.4092154 205 205 205
0.1255175 -0.01189194 0.2769966 205 205 205
0.1308093 -0.01311485 0.2793862 205 205 205
-0.00486412 -0.00927754 0.3219849 205 205 205
0.1254402 -0.01263492 0.2767426 205 205 205
0.1357661 -0.01430843 0.2794013 205 205 205
-0.009802043 -0.005296277 0.3108059 205 205 205
-0.007912857 -0.006755589 0.3138511 205 205 205
-0.007266979 -0.007242684 0.3148618 205 205 205
-0.004343314 -0.01281477 0.3294071 205 205 205
-0.004210665 -0.014785 0.3351429 205 205 205
0.0535606 -0.01660674 0.3087468 205 205 205
0.1253618 -0.01337673 0.2764858 205 205 205
0.1362203 -0.01540421 0.2799153 205 205 205
0.1369163 -0.01528935 0.2794864 205 205 205
-0.01009526 -0.006332597 0.3115003 205 205 205
-0.00650476 -0.009871163 0.3194551 205 205 205
-0.004132042 -0.0155633 0.3317388 205 205 205
0.05704549 -0.02512247 0.3266086 205 205 205
0.1268931 -0.01543798 0.2771612 205 205 205
0.1334381 -0.01694544 0.2798599 205 205 205
0.1346615 -0.0171711 0.280222 205 205 205
0.138362 -0.0178312 0.2812702 205 205 205
0.1381444 -0.0165939 0.2780778 205 205 205
-0.009415083 -0.009425465 0.3148982 205 205 205
-0.004830519 -0.02027443 0.3428319 205 205 205
0.05913255 -0.02918415 0.3344714 205 205 205
0.1370407 -0.01839004 0.2806483 205 205 205
0.1395226 -0.0188283 0.2813254 205 205 205
0.1386049 -0.01769801 0.2785722 205 205 205
0.1382107 -0.01690513 0.2765975 205 205 205
-0.01188536 -0.007873154 0.3096406 205 205 205
-0.01018841 -0.009683621 0.3136231 205 205 205
0.07445055 -0.06676545 0.4302329 205 205 205
0.1224969 -0.01626293 0.2757892 205 205 205
0.1231785 -0.01617228 0.2754077 205 205 205
-0.01157579 -0.009424462 0.3113329 205 205 205
-0.009841436 -0.01125537 0.3153048 205 205 205
-0.006784841 -0.01442848 0.3221976 205 205 205
-0.006086056 -0.01494191 0.3231933 205 205 205
0.06814951 -0.04823336 0.3776941 205 205 205
0.1237757 -0.01681244 0.2747547 205 205 205
0.1321456 -0.01854584 0.2774658 205 205 205
0.1338862 -0.01912892 0.2786061 205 205 205
-0.008148823 -0.01387472 0.3189807 205 205 205
-0.0053868 -0.01594016 0.3229611 205 205 205
0.1235045 -0.01799083 0.2756605 205 205 205
0.1291296 -0.01846068 0.2756611 205 205 205
0.1315403 -0.01895026 0.2764061 205 205 205
0.1424797 -0.02148833 0.2806572 205 205 205
-0.01155462 -0.01205696 0.3136793 205 205 205
-0.00910799 -0.01444705 0.3186374 205 205 205
-0.008286491 -0.01465331 0.3186995 205 205 205
-0.007608553 -0.01517337 0.3196967 205 205 205
-0.006364923 -0.01653131 0.3226224 205 205 205
0.07291839 -0.05460744 0.3863277 205 205 205
0.0638604 -0.03274272 0.3311828 205 205 205
0.1252863 -0.01889314 0.2754002 205 205 205
0.1264746 -0.0191524 0.2757953 205 205 205
0.1276682 -0.01940901 0.2761844 205 205 205
0.1349392 -0.0208915 0.2783875 205 205 205
0.1461855 -0.0229227 0.2812614 205 205 205
0.1468998 -0.02278633 0.2807954 205 205 205
-0.01249039 -0.01260451 0.3133281 205 205 205
-0.008424503 -0.01543065 0.3184153 205 205 205
-0.005733433 -0.01998859 0.3289948 205 205 205
0.06618557 -0.03700164 0.33888 205 205 205
0.1268908 -0.02025177 0.2762996 205 205 205
0.1348517 -0.02165415 0.2780969 205 205 205
0.137849 -0.0224881 0.279546 205 205 205
0.1414189 -0.02366265 0.281725 205 205 205
0.1430144 -0.02292524 0.2796111 205 205 205
0.1426176 -0.02208994 0.2776454 205 205 205
-0.01233061 -0.0145213 0.3159237 205 205 205
0.07033103 -0.04506504 0.3556371 205 205 205
0.1206988 -0.02009399 0.2751707 205 205 205
0.1261104 -0.02109208 0.2764097 205 205 205
0.1279995 -0.02125616 0.2763985 205 205 205
0.1377598 -0.02325968 0.2792485 205 205 205
-0.01246893 -0.01528702 0.3156373 205 205 205
-0.009370058 -0.01644969 0.3168428 205 205 205
-0.006619777 -0.02075461 0.3264668 205 205 205
0.1279104 -0.02199976 0.2761088 205 205 205
0.1453965 -0.02677813 0.2839991 205 205 205
-0.0132463 -0.01551438 0.3143423 205 205 205
-0.0111439 -0.01680059 0.3164206 205 205 205
-0.006956521 -0.02443671 0.3336773 205 205 205
0.1285136 -0.02263886 0.2754143 205 205 205
0.1314409 -0.02353436 0.2769243 205 205 205
0.1326581 -0.02379292 0.2772811 205 205 205
0.135108 -0.02430156 0.2779758 205 205 205
0.1460332 -0.02744408 0.283219 205 205 205
0.1441612 -0.02499751 0.2777877 205 205 205
0.1455712 -0.02472407 0.276867 205 205 205
-0.01112074 -0.0172385 0.315196 205 205 205
-0.009131142 -0.01885899 0.3181788 205 205 205
0.1301373 -0.02402067 0.2762633 205 205 205
0.1450147 -0.02700705 0.2801843 205 205 205
0.1440697 -0.02577362 0.2774781 205 205 205
0.1377234 -0.01990229 0.264974 205 205 205
-0.00957499 -0.02030499 0.3197371 205 205 205
-0.007326268 -0.02385037 0.3273987 205 205 205
0.1471226 -0.02927255 0.2828609 205 205 205
-0.01221249 -0.01855019 0.3145324 205 205 205
-0.01090481 -0.01964732 0.3165218 205 205 205
-0.009328093 -0.02231607 0.3222741 205 205 205
0.06461195 -0.02669845 0.2982663 205 205 205
0.1225911 -0.02430389 0.2745428 205 205 205
0.1232824 -0.02420996 0.2741582 205 205 205
0.1246606 -0.02401693 0.273382 205 205 205
0.1258478 -0.0242997 0.2737677 205 205 205
0.1336018 -0.02631748 0.2767173 205 205 205
0.1372981 -0.02709726 0.2777186 205 205 205
0.1403244 -0.02797844 0.2791094 205 205 205
0.1439272 -0.02922004 0.2812172 205 205 205
0.1453753 -0.02895066 0.2802945 205 205 205
0.1419358 -0.02481669 0.2714869 205 205 205
-0.009621466 -0.02344952 0.3228869 205 205 205
-0.008308736 -0.02720224 0.3313966 205 205 205
0.1286508 -0.02597827 0.2749891 205 205 205
0.1310684 -0.02653028 0.2757105 205 205 205
-0.01365073 -0.02053654 0.3157025 205 205 205
0.1285556 -0.02671726 0.2746815 205 205 205
0.1304601 -0.02688894 0.2746337 205 205 205
0.1399462 -0.03003412 0.2796679 205 205 205
0.1448165 -0.03155652 0.2820618 205 205 205
0.1468281 -0.03166403 0.2818752 205 205 205
-0.01331059 -0.02220878 0.3173088 205 205 205
-0.01181374 -0.02298904 0.3183674 205 205 205
-0.01097974 -0.02320353 0.3184309 205 205 205
-0.008924489 -0.02722031 0.326978 205 205 205
0.1345403 -0.02884666 0.2761137 205 205 205
0.1416393 -0.03145439 0.280397 205 205 205
0.1476349 -0.03179286 0.2798583 205 205 205
0.1478017 -0.03126716 0.2786486 205 205 205
0.1479602 -0.03074093 0.2774408 205 205 205
-0.01345391 -0.02297808 0.3169922 205 205 205
-0.01075344 -0.02525127 0.3209399 205 205 205
-0.009599822 -0.03181558 0.3359303 205 205 205
0.1295678 -0.02847843 0.2744177 205 205 205
0.1374384 -0.03053372 0.2771969 205 205 205
0.1397469 -0.03158171 0.279013 205 205 205
-0.01525453 -0.02330546 0.3165266 205 205 205
0.1193276 -0.02829147 0.2745335 205 205 205
0.1232919 -0.02823411 0.27341 205 205 205
0.128264 -0.02892602 0.2737423 205 205 205
0.1294694 -0.02921659 0.2741004 205 205 205
0.1366235 -0.0314176 0.2773051 205 205 205
0.1401771 -0.03274755 0.279431 205 205 205
0.1419713 -0.03340628 0.2804782 205 205 205
0.1500047 -0.03385569 0.2796971 205 205 205
0.1653093 -0.04229526 0.2949071 205 205 205
0.1213188 -0.02874259 0.273088 205 205 205
-0.01637114 -0.02461183 0.3158022 205 205 205
-0.01268089 -0.02883238 0.3235617 205 205 205
0.06766533 -0.03203886 0.2951124 205 205 205
0.1212188 -0.02946226 0.2727724 205 205 205
0.1304798 -0.03098301 0.2738068 205 205 205
0.1322089 -0.0316786 0.2749064 205 205 205
0.1364196 -0.03293645 0.2766418 205 205 205
0.1450364 -0.03536107 0.2799031 205 205 205
0.1490662 -0.03558599 0.2794853 205 205 205
0.1536892 -0.03616372 0.2797168 205 205 205
-0.0167002 -0.02573484 0.3163885 205 205 205
0.1197245 -0.03036358 0.273211 205 205 205
0.1258603 -0.03143669 0.273981 205 205 205
0.1357928 -0.03328767 0.2755567 205 205 205
0.1493334 -0.03732259 0.2810735 205 205 205
0.1513706 -0.03742447 0.2808346 205 205 205
0.06820111 -0.03353092 0.2942625 205 205 205
0.143011 -0.03625136 0.2781933 205 205 205
-0.01519079 -0.02941659 0.3195901 205 205 205
-0.01361832 -0.03232627 0.3252673 205 205 205
0.1211269 -0.03109901 0.2706584 205 205 205
-0.01377074 -0.03312467 0.3249116 205 205 205
0.121024 -0.03180934 0.2703338 205 205 205
0.1305759 -0.03434187 0.2732352 205 205 205
0.137241 -0.03624794 0.2755891 205 205 205
0.1495578 -0.04011389 0.2807212 205 205 205
0.1497468 -0.03955416 0.2795144 205 205 205
0.150264 -0.03787145 0.2759051 205 205 205
0.1521232 -0.03853233 0.2768514 205 205 205
0.1280506 -0.03445393 0.2722104 205 205 205
0.1316873 -0.03538386 0.2732292 205 205 205
0.1341377 -0.03598933 0.2738771 205 205 205
0.1358919 -0.03670765 0.2749344 205 205 205
0.140887 -0.03786845 0.2761205 205 205 205
0.1450381 -0.03967958 0.2788664 205 205 205
0.1501901 -0.04075791 0.2798714 205 205 205
0.1503748 -0.04019309 0.2786661 205 205 205
0.1512833 -0.0394735 0.2769768 205 205 205
-0.0146507 -0.03840741 0.332431 205 205 205
0.1375484 -0.03817822 0.2756284 205 205 205
0.1413115 -0.03905202 0.2764977 205 205 205
0.1504401 -0.04041183 0.2770965 205 205 205
-0.01513311 -0.04000929 0.3338659 205 205 205
-0.01547878 -0.04335969 0.3411859 205 205 205
0.1211895 -0.03436501 0.2701072 205 205 205
0.1237591 -0.03449967 0.269707 205 205 205
0.1309614 -0.03642696 0.2717936 205 205 205
0.1356736 -0.03820556 0.274232 205 205 205
0.1412002 -0.0398164 0.2761374 205 205 205
0.1468323 -0.04137256 0.2779228 205 205 205
-0.01630367 -0.03623188 0.3242326 205 205 205
0.1234427 -0.03574785 0.2705162 205 205 205
0.1507737 -0.04239819 0.2770686 205 205 205
0.1522442 -0.04208441 0.2760912 205 205 205
-0.01610692 -0.04324932 0.3367064 205 205 205
0.1240331 -0.03635864 0.269782 205 205 205
0.125223 -0.03669286 0.2701401 205 205 205
0.1307428 -0.03788571 0.2710959 205 205 205
0.1384625 -0.04074199 0.2748443 205 205 205
0.1491805 -0.04348764 0.2776598 205 205 205
0.1500999 -0.04275463 0.2759809 205 205 205
-0.01992498 -0.03647665 0.3222891 205 205 205
-0.01836572 -0.03734606 0.323343 205 205 205
-0.01748859 -0.03979498 0.3279923 205 205 205
0.1396019 -0.04179923 0.2747623 205 205 205
-0.01871158 -0.04789501 0.343045 205 205 205
0.1200586 -0.03728497 0.2691252 205 205 205
0.144548 -0.043751 0.2754562 205 205 205
-0.02081008 -0.03924001 0.3242248 205 205 205
-0.01978272 -0.04357618 0.3325328 205 205 205
0.1180826 -0.03772347 0.2687727 205 205 205
0.118779 -0.03763074 0.2683982 205 205 205
0.1277823 -0.03995881 0.2705233 205 205 205
0.150307 -0.0455193 0.2755457 205 205 205
-0.02135219 -0.04083542 0.3256282 205 205 205
0.1154172 -0.03823283 0.26877 205 205 205
0.1189032 -0.03933239 0.269941 205 205 205
0.1320212 -0.04156398 0.2707184 205 205 205
0.1443121 -0.04528087 0.2746953 205 205 205
0.1468706 -0.04587254 0.2751819 205 205 205
0.1520449 -0.04701643 0.2760759 205 205 205
0.1533501 -0.04729401 0.2762828 205 205 205
-0.02319513 -0.052163 0.346932 205 205 205
-0.02345588 -0.05529277 0.3532728 205 205 205
0.1157597 -0.03938674 0.2691827 205 205 205
0.119493 -0.03994156 0.2692085 205 205 205
0.1206679 -0.04030369 0.2695812 205 205 205
0.1268445 -0.04150797 0.2702072 205 205 205
0.1336439 -0.04307303 0.271388 205 205 205
0.1467504 -0.04664114 0.2747941 205 205 205
0.1519234 -0.04779732 0.2756819 205 205 205
-0.02472507 -0.05359507 0.3481993 205 205 205
0.1172629 -0.04092078 0.2699785 205 205 205
0.1198471 -0.04110504 0.2696046 205 205 205
0.131789 -0.04301738 0.2699819 205 205 205
0.147175 -0.04785698 0.2751109 205 205 205
0.1518009 -0.0485765 0.275285 205 205 205
0.1190236 -0.0419035 0.2696228 205 205 205
0.1220916 -0.04254181 0.2699722 205 205 205
0.129027 -0.04363701 0.2701297 205 205 205
0.1302425 -0.04398096 0.2704481 205 205 205
0.1353598 -0.044741 0.2705014 205 205 205
0.1371217 -0.04552473 0.2715061 205 205 205
0.1396227 -0.04616814 0.2720522 205 205 205
0.1509327 -0.04951406 0.2753757 205 205 205
0.1529815 -0.04964068 0.2750873 205 205 205
-0.03442105 -0.08232276 0.4035186 205 205 205
0.115612 -0.04249762 0.2699956 205 205 205
0.1200816 -0.04297911 0.2696287 205 205 205
0.1243554 -0.04397859 0.2703064 205 205 205
0.1255542 -0.04433861 0.2706481 205 205 205
0.1412906 -0.04769128 0.2726397 205 205 205
0.1515524 -0.05012965 0.2744825 205 205 205
-0.03384605 -0.07844097 0.3930972 205 205 205
0.1154939 -0.04319562 0.2696303 205 205 205
0.1169122 -0.04301814 0.2688909 205 205 205
0.1314334 -0.04518545 0.2688569 205 205 205
-0.03317218 -0.07450199 0.382713 205 205 205
0.08335357 -0.04793235 0.2867201 205 205 205
0.08418609 -0.04546724 0.2818089 205 205 205
0.1113736 -0.0438254 0.2703065 205 205 205
0.1120867 -0.04374675 0.2699512 205 205 205
0.1214933 -0.04523719 0.269994 205 205 205
0.1472204 -0.05138364 0.2742134 205 205 205
0.1485114 -0.05169159 0.2744331 205 205 205
0.149257 -0.05153509 0.27395 205 205 205
-0.03281104 -0.07423108 0.3795301 205 205 205
0.08481315 -0.04615289 0.28117 205 205 205
0.1142719 -0.04524014 0.2703786 205 205 205
0.1157033 -0.04506816 0.2696451 205 205 205
0.1297608 -0.04686416 0.268931 205 205 205
0.1434524 -0.0505825 0.2719437 205 205 205
0.08386803 -0.04935397 0.2856901 205 205 205
0.0857425 -0.04732972 0.2813405 205 205 205
0.1081455 -0.04445945 0.2690863 205 205 205
0.1092787 -0.044874 0.2695052 205 205 205
0.1243511 -0.04730124 0.2695321 205 205 205
0.1269911 -0.04745104 0.2690546 205 205 205
0.1313594 -0.04841413 0.2695701 205 205 205
0.1479017 -0.05213326 0.2717425 205 205 205
0.08841779 -0.04643723 0.2771513 205 205 205
0.1204095 -0.04745327 0.2692415 205 205 205
0.1223144 -0.04773688 0.2692023 205 205 205
0.1317367 -0.04961567 0.2698974 205 205 205
0.1485104 -0.05273264 0.2708501 205 205 205
-0.0345003 -0.07397824 0.3724712 205 205 205
0.115064 -0.04773268 0.2696296 205 205 205
0.1188458 -0.04835001 0.269623 205 205 205
0.1195662 -0.04825379 0.2692409 205 205 205
0.1241028 -0.04871931 0.268758 205 205 205
0.1272305 -0.04935994 0.2690031 205 205 205
0.1316103 -0.05033886 0.2695008 205 205 205
0.137293 -0.05162033 0.2701812 205 205 205
0.138545 -0.05196391 0.2704418 205 205 205
0.08997156 -0.04825924 0.2766316 205 205 205
0.09770738 -0.0473435 0.2725502 205 205 205
0.09843417 -0.04729525 0.2722377 205 205 205
0.1161042 -0.04883471 0.2696216 205 205 205
0.1213449 -0.04924837 0.2688169 205 205 205
0.1258975 -0.04969631 0.2682912 205 205 205
0.1371641 -0.05235376 0.2697753 205 205 205
0.1469638 -0.05392259 0.2698117 205 205 205
-0.03458102 -0.07800293 0.3750001 205 205 205
0.08720165 -0.05212766 0.2827601 205 205 205
0.08842779 -0.05158127 0.2813914 205 205 205
0.09721711 -0.04857646 0.273263 205 205 205
0.09794872 -0.04852963 0.2729514 205 205 205
0.0983086 -0.0479757 0.2718582 205 205 205
0.103366 -0.04758634 0.2696067 205 205 205
0.1145311 -0.04970739 0.2699721 205 205 205
0.1152553 -0.04962042 0.2696035 205 205 205
0.122408 -0.0503428 0.2687654 205 205 205
0.1243271 -0.05062463 0.2687009 205 205 205
0.1363018 -0.05322035 0.2698089 205 205 205
0.1501453 -0.05514822 0.2693102 205 205 205
-0.03671624 -0.08044848 0.3778495 205 205 205
0.09597866 -0.04985699 0.2742785 205 205 205
0.1003876 -0.04956838 0.272393 205 205 205
0.1066091 -0.04958693 0.2705096 205 205 205
0.1119171 -0.05123727 0.2717842 205 205 205
0.1126502 -0.05115711 0.2714231 205 205 205
0.1129513 -0.05057187 0.2703105 205 205 205
0.1162958 -0.05072835 0.269583 205 205 205
0.1179172 -0.05163921 0.2706887 205 205 205
0.1246749 -0.05182841 0.2690282 205 205 205
0.1273349 -0.05198802 0.268532 205 205 205
0.1297692 -0.0527426 0.2691378 205 205 205
0.1317249 -0.05299159 0.2690068 205 205 205
0.132957 -0.05335877 0.2692899 205 205 205
0.1477917 -0.0563874 0.2703391 205 205 205
0.09131584 -0.05182419 0.2775656 205 205 205
0.09173498 -0.051279 0.2764806 205 205 205
0.09842529 -0.0509173 0.2737348 205 205 205
0.1024494 -0.05008252 0.2710305 205 205 205
0.1039036 -0.04996038 0.2703695 205 205 205
0.1057549 -0.05034042 0.2704603 205 205 205
0.1068867 -0.05078175 0.2708793 205 205 205
0.1139834 -0.05168874 0.2702976 205 205 205
0.1166113 -0.05193014 0.2699271 205 205 205
0.1214278 -0.05185216 0.2683621 205 205 205
0.1230883 -0.05275168 0.2694246 205 205 205
0.1296386 -0.05345944 0.2687302 205 205 205
0.1325921 -0.05470476 0.2700177 205 205 205
0.1340624 -0.05444859 0.269154 205 205 205
0.1360387 -0.05467904 0.2689831 205 205 205
0.1397998 -0.05574428 0.2697383 205 205 205
0.1405377 -0.05560102 0.2692833 205 205 205
0.1418029 -0.055947 0.2695178 205 205 205
0.1425406 -0.05579915 0.2690561 205 205 205
0.145628 -0.05696511 0.2701825 205 205 205
0.1463704 -0.05680927 0.2697075 205 205 205
0.09128315 -0.05516085 0.2817161 205 205 205
0.09268751 -0.05245028 0.2765786 205 205 205
0.09377744 -0.05293243 0.2770649 205 205 205
0.0956824 -0.05229936 0.2753668 205 205 205
0.09681568 -0.05169662 0.2739685 205 205 205
0.1101869 -0.0527874 0.2717028 205 205 205
0.1214943 -0.05366664 0.2698085 205 205 205
0.1273105 -0.05452848 0.2695662 205 205 205
0.1424062 -0.05653725 0.2686326 205 205 205
0.09224413 -0.0563594 0.281801 205 205 205
0.1007554 -0.0537415 0.2746204 205 205 205
0.1026101 -0.05305564 0.2728694 205 205 205
0.1052196 -0.05338833 0.2726277 205 205 205
0.1104701 -0.05399732 0.272051 205 205 205
0.1116279 -0.05443435 0.2724418 205 205 205
0.1123697 -0.05435472 0.27208 205 205 205
0.1131103 -0.05427316 0.2717157 205 205 205
0.1213622 -0.05437232 0.2694001 205 205 205
0.1232927 -0.05467208 0.2693344 205 205 205
0.1271774 -0.05524264 0.2691529 205 205 205
0.131587 -0.05627777 0.2696118 205 205 205
0.1415326 -0.057422 0.2686677 205 205 205
0.1440761 -0.05811598 0.2691105 205 205 205
0.09398785 -0.05752796 0.2815695 205 205 205
0.1017439 -0.05490094 0.2746569 205 205 205
0.1134018 -0.05548966 0.2720507 205 205 205
0.1148862 -0.05531967 0.2713119 205 205 205
0.116804 -0.0556574 0.2713 205 205 205
0.132687 -0.05737971 0.269467 205 205 205
0.1421341 -0.05800794 0.2677774 205 205 205
0.146701 -0.05888592 0.2679366 205 205 205
0.09562874 -0.05978403 0.2831892 205 205 205
0.0978442 -0.05584938 0.2758629 205 205 205
0.1004735 -0.05622763 0.2756692 205 205 205
0.1031143 -0.05658725 0.2754445 205 205 205
0.1068808 -0.05627272 0.2737427 205 205 205
0.1095325 -0.05658329 0.2734429 205 205 205
0.1110302 -0.05643201 0.2727279 205 205 205
0.1159268 -0.05645135 0.2712625 205 205 205
0.1203611 -0.05588029 0.2689663 205 205 205
0.1340286 -0.05784249 0.268175 205 205 205
0.1347654 -0.05770974 0.2677383 205 205 205
0.1362339 -0.05743833 0.2668581 205 205 205
0.1056408 -0.05874745 0.2766296 205 205 205
0.107168 -0.05861758 0.2759369 205 205 205
0.1086903 -0.05847993 0.2752346 205 205 205
0.1124739 -0.05810198 0.2734368 205 205 205
0.1177158 -0.05749173 0.2708201 205 205 205
0.1192012 -0.05730003 0.2700513 205 205 205
0.1233551 -0.05730532 0.2688062 205 205 205
0.1331527 -0.05869365 0.2681813 205 205 205
0.1413285 -0.05896427 0.2662313 205 205 205
0.1001184 -0.05984835 0.2785538 205 205 205
0.1028017 -0.06022272 0.2783245 205 205 205
0.1070404 -0.06045041 0.2773697 205 205 205
0.1078107 -0.0603837 0.277019 205 205 205
0.1192098 -0.05914847 0.271469 205 205 205
0.1220188 -0.05759523 0.2680651 205 205 205
0.1232184 -0.05801004 0.2683837 205 205 205
0.1273703 -0.05796407 0.2670608 205 205 205
0.1285883 -0.05836306 0.2673504 205 205 205
0.1332508 -0.05876537 0.266622 205 205 205
0.1359591 -0.05887484 0.2660005 205 205 205
0.1450012 -0.06075532 0.2664227 205 205 205
0.1457395 -0.06059614 0.2659486 205 205 205
0.1013279 -0.06381939 0.2830508 205 205 205
0.1018341 -0.06211017 0.2800892 205 205 205
0.1029813 -0.0625922 0.2805159 205 205 205
0.11832 -0.05995235 0.2714276 205 205 205
0.1195138 -0.0603838 0.2717658 205 205 205
0.1216021 -0.0589259 0.2687539 205 205 205
0.1238178 -0.05860364 0.2675576 205 205 205
0.1343507 -0.05986351 0.266447 205 205 205
0.1410493 -0.06041363 0.2653585 205 205 205
0.1435847 -0.06113315 0.265779 205 205 205
0.1481654 -0.06202198 0.2658784 205 205 205
0.1063137 -0.06474929 0.2813194 205 205 205
0.1118326 -0.06426898 0.2788087 205 205 205
0.1149578 -0.06395028 0.2773196 205 205 205
0.1165124 -0.0637789 0.2765603 205 205 205
0.1164378 -0.06262401 0.2747138 205 205 205
0.1234054 -0.05994217 0.2682426 205 205 205
0.1314996 -0.06045049 0.2666178 205 205 205
0.1322368 -0.06032111 0.2661884 205 205 205
0.1364127 -0.06016415 0.2646895 205 205 205
0.1434426 -0.06186089 0.2653351 205 205 205
0.1467365 -0.06241012 0.265248 205 205 205
0.148022 -0.0627581 0.2654293 205 205 205
0.1078836 -0.0704687 0.2883736 205 205 205
0.11004 -0.06858974 0.2846677 205 205 205
0.1104662 -0.06798081 0.2835538 205 205 205
0.1116855 -0.06729831 0.2820729 205 205 205
0.1144722 -0.0664511 0.2798391 205 205 205
0.1168424 -0.06619906 0.2786961 205 205 205
0.1190258 -0.06359782 0.2738447 205 205 205
0.1201151 -0.06286862 0.2723394 205 205 205
0.1219384 -0.06202979 0.2704348 205 205 205
0.1225229 -0.06075316 0.2682106 205 205 205
0.1232652 -0.06064475 0.2678103 205 205 205
0.124006 -0.06053439 0.2674077 205 205 205
0.1274343 -0.06060209 0.2664742 205 205 205
0.128171 -0.06048146 0.2660581 205 205 205
0.1293928 -0.06088635 0.2663361 205 205 205
0.1306198 -0.06128817 0.2666078 205 205 205
0.1486174 -0.06332461 0.2644929 205 205 205
0.1133171 -0.07422655 0.2909369 205 205 205
0.1151296 -0.0705936 0.2845721 205 205 205
0.1163535 -0.06988951 0.2830665 205 205 205
0.1179441 -0.06855025 0.2804363 205 205 205
0.118322 -0.06792071 0.279316 205 205 205
0.121176 -0.06401733 0.2722205 205 205 205
0.1225479 -0.06263204 0.2695962 205 205 205
0.1250733 -0.06165586 0.267272 205 205 205
0.1272931 -0.0613048 0.266038 205 205 205
0.1304778 -0.06199656 0.2661681 205 205 205
0.1431553 -0.06331062 0.2644391 205 205 205
0.1449649 -0.0641952 0.2652983 205 205 205
0.1192885 -0.07851722 0.2940929 205 205 205
0.123313 -0.0644156 0.270573 205 205 205
0.127151 -0.06200565 0.2655993 205 205 205
0.13452 -0.06257248 0.2642505 205 205 205
0.1402649 -0.0639676 0.2647088 205 205 205
0.1483256 -0.06478649 0.2635817 205 205 205
0.1786644 -0.17099 0.4186142 205 205 205
0.1233871 -0.08005669 0.2934302 205 205 205
0.1217897 -0.07430641 0.2849208 205 205 205
0.1212553 -0.07019692 0.278652 205 205 205
0.1238808 -0.06805375 0.274482 205 205 205
0.1257226 -0.06413731 0.2677906 205 205 205
0.1267437 -0.06336307 0.2662672 205 205 205
0.1282263 -0.06312101 0.2654345 205 205 205
0.1294499 -0.06353427 0.2657049 205 205 205
0.1368667 -0.06406358 0.2642713 205 205 205
0.1401188 -0.06468541 0.2642556 205 205 205
0.1454135 -0.06548761 0.2639091 205 205 205
0.1466956 -0.06584989 0.2640876 205 205 205
0.1474377 -0.06568321 0.263606 205 205 205
0.1801359 -0.1639257 0.4041578 205 205 205
0.1246226 -0.06987157 0.2754379 205 205 205
0.1257536 -0.06604414 0.2691513 205 205 205
0.1327567 -0.06425618 0.2642282 205 205 205
0.1359809 -0.06491657 0.2642649 205 205 205
0.1399718 -0.06540126 0.2637997 205 205 205
0.1445226 -0.06637367 0.2639228 205 205 205
0.1458027 -0.06674159 0.264104 205 205 205
0.1895276 -0.1743492 0.4143893 205 205 205
0.1301648 -0.08864648 0.3009787 205 205 205
0.1252441 -0.07839101 0.2867221 205 205 205
0.1238446 -0.07311969 0.2790416 205 205 205
0.1263627 -0.06663705 0.2682823 205 205 205
0.1273994 -0.06585316 0.2667561 205 205 205
0.1326104 -0.06495938 0.2637765 205 205 205
0.1333486 -0.06482372 0.2633416 205 205 205
0.1398238 -0.06611522 0.2633412 205 205 205
0.1458567 -0.0667688 0.2625077 205 205 205
0.1478798 -0.06696461 0.2621947 205 205 205
0.1342308 -0.09382369 0.3057489 205 205 205
0.1259984 -0.07232431 0.2754911 205 205 205
0.125886 -0.07110841 0.2736703 205 205 205
0.1266793 -0.06789371 0.2685179 205 205 205
0.1292275 -0.06685795 0.2661472 205 205 205
0.1314714 -0.06647231 0.2648649 205 205 205
0.1317234 -0.06579461 0.2637546 205 205 205
0.1477291 -0.0676867 0.2617271 205 205 205
0.127886 -0.08139702 0.2870061 205 205 205
0.1265143 -0.07171995 0.2727793 205 205 205
0.128802 -0.06823794 0.2667958 205 205 205
0.1335523 -0.06677086 0.2631031 205 205 205
0.1380395 -0.06783696 0.2633266 205 205 205
0.1475773 -0.06840678 0.2612568 205 205 205
0.1328323 -0.09013974 0.2968561 205 205 205
0.1289997 -0.08262495 0.2867699 205 205 205
0.1271403 -0.07232692 0.2718834 205 205 205
0.1326608 -0.06760832 0.263078 205 205 205
0.1446614 -0.06908713 0.2615778 205 205 205
0.1280153 -0.07540738 0.2745956 205 205 205
0.128224 -0.07348911 0.2716721 205 205 205
0.1285422 -0.07280882 0.2705587 205 205 205
0.1324834 -0.07024166 0.2655008 205 205 205
0.1342468 -0.06927641 0.2635137 205 205 205
0.135235 -0.06844077 0.2619627 205 205 205
0.1419646 -0.06903184 0.2607491 205 205 205
0.1288482 -0.07408945 0.2707627 205 205 205
0.1291622 -0.0734042 0.2696512 205 205 205
0.1323294 -0.07094837 0.2650274 205 205 205
0.140329 -0.07005335 0.261203 205 205 205
0.1450947 -0.07034666 0.2601511 205 205 205
0.1336837 -0.07137945 0.263675 205 205 205
0.1351865 -0.07109763 0.2627894 205 205 205
0.1379378 -0.07121672 0.2620994 205 205 205
0.1409163 -0.07060129 0.2602648 205 205 205
0.1447797 -0.1062285 0.3092948 205 205 205
0.1365747 -0.09407732 0.2942232 205 205 205
0.1311699 -0.0776751 0.2720763 205 205 205
0.131026 -0.07641152 0.2702842 205 205 205
0.1321174 -0.07558447 0.2687354 205 205 205
0.1350309 -0.07179914 0.2623115 205 205 205
0.1427686 -0.07153929 0.2594969 205 205 205
0.1473444 -0.07252997 0.2594984 205 205 205
0.1310414 -0.08417914 0.2799037 205 205 205
0.133212 -0.07673771 0.2684728 205 205 205
0.1335101 -0.07603338 0.267362 205 205 205
0.1353724 -0.07306407 0.2624885 205 205 205
0.14038 -0.07272325 0.2604122 205 205 205
0.1418694 -0.07240465 0.2594824 205 205 205
0.1445729 -0.1054091 0.3043237 205 205 205
0.1322687 -0.07758964 0.2684164 205 205 205
0.135448 -0.07504649 0.2637631 205 205 205
0.1357115 -0.07433321 0.2626586 205 205 205
0.1364674 -0.07418703 0.262209 205 205 205
0.1417112 -0.07310586 0.2589968 205 205 205
0.1346726 -0.08962272 0.283173 205 205 205
0.1320657 -0.08158416 0.2725865 205 205 205
0.1357805 -0.07632386 0.2639259 205 205 205
0.1425321 -0.1021907 0.2966752 205 205 205
0.1324132 -0.0795989 0.2680781 205 205 205
0.1374038 -0.07601225 0.2614223 205 205 205
0.1543255 -0.1188607 0.3143732 205 205 205
0.1419221 -0.1011277 0.2935666 205 205 205
0.1422742 -0.07634193 0.2587896 205 205 205
0.1334924 -0.08278262 0.2690406 205 205 205
0.1378135 -0.07930113 0.2628124 205 205 205
0.1441347 -0.07728195 0.2579706 205 205 205
0.1749835 -0.1471859 0.3427195 205 205 205
0.1500902 -0.1126868 0.3032781 205 205 205
0.1415504 -0.1001211 0.2887412 205 205 205
0.1349697 -0.08789832 0.2740409 205 205 205
0.1360087 -0.08235265 0.2660659 205 205 205
0.1401981 -0.07880336 0.2598199 205 205 205
0.1432187 -0.07814993 0.2579414 205 205 205
0.1444965 -0.07855839 0.2580899 205 205 205
0.1457791 -0.07896324 0.2582319 205 205 205
0.1472846 -0.07861244 0.2572614 205 205 205
0.1354976 -0.08717767 0.2712771 205 205 205
0.1475211 -0.1087432 0.2950169 205 205 205
0.1387713 -0.0947371 0.2788765 205 205 205
0.1408819 -0.08137245 0.26006 205 205 205
0.1452126 -0.08112313 0.2583075 205 205 205
0.195953 -0.1757741 0.3675733 205 205 205
0.1378422 -0.09088366 0.2723424 205 205 205
0.1385284 -0.08597282 0.2655074 205 205 205
0.1409552 -0.08341454 0.2612682 205 205 205
0.14122 -0.08266288 0.2601695 205 205 205
0.1448027 -0.08258393 0.2588886 205 205 205
0.1851971 -0.1610559 0.348922 205 205 205
0.1391709 -0.09476941 0.2755004 205 205 205
0.1386025 -0.09282207 0.2730859 205 205 205
0.1388406 -0.08728518 0.2656112 205 205 205
0.1451511 -0.08387711 0.2589814 205 205 205
0.1811379 -0.1552816 0.3402641 205 205 205
0.1402981 -0.09597644 0.2751068 205 205 205
0.1396031 -0.0926639 0.2709446 205 205 205
0.140439 -0.08904583 0.265872 205 205 205
0.1426227 -0.0872083 0.2627147 205 205 205
0.1460171 -0.08576709 0.2596819 205 205 205
0.1485693 -0.08446205 0.2571069 205 205 205
0.1404832 -0.09597199 0.2734191 205 205 205
0.1407231 -0.09385196 0.2705505 205 205 205
0.1412382 -0.0909702 0.266588 205 205 205
0.1447992 -0.08741739 0.2607321 205 205 205
0.1481574 -0.08594081 0.2576737 205 205 205
0.1530202 -0.1159188 0.2936992 205 205 205
0.1421822 -0.09915221 0.2754018 205 205 205
0.2057502 -0.1886835 0.3686474 205 205 205
0.1442667 -0.1015852 0.2762361 205 205 205
0.1450936 -0.09297241 0.264796 205 205 205
0.1464857 -0.09124736 0.2620942 205 205 205
0.1501627 -0.08896127 0.2578989 205 205 205
0.1440984 -0.09741288 0.2692886 205 205 205
0.1462187 -0.094133 0.2643583 205 205 205
0.1494689 -0.09124598 0.2595513 205 205 205
0.1450069 -0.1007731 0.2716925 205 205 205
0.1462208 -0.09625174 0.2655107 205 205 205
0.1473461 -0.09529284 0.2639074 205 205 205
0.1760825 -0.1480791 0.3195893 205 205 205
0.1578374 -0.1224605 0.2932597 205 205 205
0.1484758 -0.09645182 0.2634431 205 205 205
0.1517283 -0.0935111 0.258612 205 205 205
0.2015565 -0.1833371 0.3532762 205 205 205
0.1465059 -0.09973069 0.2666852 205 205 205
0.1473345 -0.09955704 0.2661865 205 205 205
0.150713 -0.09662672 0.2613525 205 205 205
0.1499257 -0.09895173 0.2629832 205 205 205
0.1516066 -0.09635453 0.2591636 205 205 205
0.1505474 -0.09949128 0.2618893 205 205 205
0.1555187 -0.119598 0.2833953 205 205 205
0.1486283 -0.107917 0.271374 205 205 205
0.1478897 -0.1044271 0.2673318 205 205 205
0.1494055 -0.1026378 0.2646114 205 205 205
0.150554 -0.1016457 0.2629966 205 205 205
0.1521973 -0.1012692 0.2619695 205 205 205
0.149164 -0.1070532 0.2685312 205 205 205
0.1493715 -0.1048053 0.2657138 205 205 205
0.1516902 -0.1028096 0.2624781 205 205 205
0.1531135 -0.1009842 0.2597554 205 205 205
0.1579299 -0.1235605 0.2839497 205 205 205
0.1532541 -0.1157147 0.2743907 205 205 205
0.1513057 -0.1079862 0.2657593 205 205 205
0.1517992 -0.1048899 0.2618589 205 205 205
0.2103 -0.1978467 0.351152 205 205 205
0.1771243 -0.1514493 0.3071904 205 205 205
