ply
format ascii 1.0
comment Generated by Floating Hands
element vertex 1076
property double x
property double y
property double z
property uchar red
property uchar green
property uchar blue
end_header
-0.03022334 0.006891485 0.4660139 205 205 205
-0.02062636 0.007741785 0.4472844 205 205 205
-0.01363967 0.003803334 0.4610065 205 205 205
-0.01309842 0.002672657 0.4670257 205 205 205
-0.0137185 0.0001627386 0.4828759 205 205 205
0.161543 -0.0101861 0.4092444 205 205 205
0.1605208 -0.00855855 0.4011034 205 205 205
0.1607926 -0.008119202 0.3988275 205 205 205
0.1621302 -0.00761072 0.3960584 205 205 205
0.1638607 -0.007281295 0.3941715 205 205 205
0.1655702 -0.006943128 0.392276 205 205 205
0.1680303 -0.005869818 0.3867109 205 205 205
0.1686236 -0.005596907 0.3853188 205 205 205
0.1697844 -0.005045603 0.3825339 205 205 205
0.1703517 -0.004767325 0.3811412 205 205 205
0.17153 -0.00373888 0.3761002 205 205 205
0.1720593 -0.003454149 0.374709 205 205 205
0.1730922 -0.002879793 0.3719269 205 205 205
0.1726251 -0.002226431 0.3688256 205 205 205
0.1725318 -0.0003344177 0.3598878 205 205 205
0.1729723 -3.966663E-05 0.3585095 205 205 205
0.1739096 7.687211E-05 0.3579758 205 205 205
0.1746491 0.001152961 0.3530013 205 205 205
0.1755653 0.00127664 0.3524621 205 205 205
0.1764797 0.001402517 0.3519197 205 205 205
0.177917 0.001353662 0.3522066 205 205 205
0.1792108 0.00179323 0.3502732 205 205 205
0.1801172 0.001927844 0.3497179 205 205 205
0.1813826 0.002378151 0.3477751 205 205 205
-0.0343065 0.005368613 0.4722514 205 205 205
-0.01974812 0.006010795 0.44821 205 205 205
-0.01836254 0.005827636 0.4473749 205 205 205
-0.01712687 0.005513362 0.4475147 205 205 205
-0.0161698 0.004928723 0.4496116 205 205 205
-0.01346208 0.002888863 0.4578476 205 205 205
-0.01280995 0.001877397 0.4628794 205 205 205
0.1625793 -0.01138638 0.40852 205 205 205
0.1620692 -0.01055552 0.4044502 205 205 205
0.1626275 -0.009657537 0.399891 205 205 205
0.1628831 -0.009206157 0.397615 205 205 205
0.1646291 -0.008871421 0.3957223 205 205 205
0.1678651 -0.008638012 0.3941853 205 205 205
0.1684992 -0.008365411 0.3927883 205 205 205
0.1691245 -0.008090881 0.3913908 205 205 205
0.1708004 -0.007725301 0.3894669 205 205 205
0.1714031 -0.007444897 0.3880667 205 205 205
0.1730438 -0.007066886 0.3861326 205 205 205
0.1732586 -0.006117825 0.3816002 205 205 205
0.1747576 -0.006203302 0.3819244 205 205 205
0.1748366 -0.005725154 0.3796615 205 205 205
0.1753785 -0.005432475 0.3782604 205 205 205
0.17543 -0.004952062 0.376003 205 205 205
0.1725121 -0.001913941 0.3619169 205 205 205
0.1748564 -0.001382817 0.3594654 205 205 205
0.1760238 1.886891E-05 0.3531036 205 205 205
0.1774635 -3.570143E-05 0.353393 205 205 205
0.1809656 0.0009906681 0.3489654 205 205 205
0.1840143 0.001738091 0.345884 205 205 205
-0.02398998 0.005429281 0.4494951 205 205 205
-0.01747444 0.004095393 0.4482854 205 205 205
-0.01366922 0.001569873 0.4576308 205 205 205
-0.0128939 0.0006825898 0.4616775 205 205 205
0.166249 -0.01086539 0.3990318 205 205 205
0.167344 -0.0107888 0.3985167 205 205 205
0.168654 -0.0102401 0.3957188 205 205 205
0.1710011 -0.009595674 0.3923916 205 205 205
0.174348 -0.008835519 0.388512 205 205 205
0.1765665 -0.008147518 0.3851512 205 205 205
0.1771349 -0.007850639 0.3837419 205 205 205
0.1772164 -0.007361711 0.3814751 205 205 205
0.1763637 -0.006001619 0.3752447 205 205 205
0.1739482 -0.004074377 0.3664933 205 205 205
0.1734346 -0.003395227 0.3634098 205 205 205
0.175801 -0.002856841 0.3609479 205 205 205
0.1769985 -0.001431015 0.3545745 205 205 205
0.1779239 -0.001303099 0.3540264 205 205 205
0.181271 0.0002397631 0.3473845 205 205 205
0.1827134 0.0001994707 0.347641 205 205 205
0.1836129 0.0003436098 0.347073 205 205 205
0.1839598 0.0006705874 0.3456868 205 205 205
0.1848519 0.000818595 0.3451145 205 205 205
-0.03330894 0.004970197 0.4569959 205 205 205
-0.02844784 0.004735365 0.4517032 205 205 205
-0.02577556 0.00419891 0.4510703 205 205 205
-0.02436189 0.004004956 0.4502577 205 205 205
-0.02295463 0.003815409 0.4494396 205 205 205
-0.02015931 0.003449285 0.4477869 205 205 205
-0.01671959 0.002212334 0.4501646 205 205 205
-0.01560716 0.001754088 0.4512757 205 205 205
-0.01322953 -0.0007985678 0.4624335 205 205 205
0.1755854 -0.02249914 0.447189 205 205 205
0.164822 -0.01510285 0.4134053 205 205 205
0.1667539 -0.01296441 0.4028486 205 205 205
0.1690035 -0.01165843 0.3963673 205 205 205
0.1707313 -0.01129044 0.3944397 205 205 205
0.1718109 -0.0112017 0.3939089 205 205 205
0.1728885 -0.01111051 0.3933743 205 205 205
0.1739644 -0.01101683 0.392836 205 205 205
0.1750382 -0.0109206 0.392294 205 205 205
0.1762515 -0.0103297 0.389471 205 205 205
0.1768451 -0.01003154 0.3880592 205 205 205
0.1790511 -0.009320533 0.3846795 205 205 205
0.1786507 -0.008627224 0.3815556 205 205 205
0.1772955 -0.007046902 0.3744784 205 205 205
0.1777525 -0.00472732 0.3641073 205 205 205
0.1784888 -0.003084513 0.3568728 205 205 205
0.1816895 -0.002364972 0.3538108 205 205 205
0.1820799 -0.002039828 0.3524213 205 205 205
0.1850045 -0.0007646605 0.3471143 205 205 205
-0.03278441 0.004199364 0.4528805 205 205 205
-0.03134536 0.00398851 0.4520954 205 205 205
-0.02991255 0.003782096 0.4513047 205 205 205
-0.02866076 0.003440983 0.451483 205 205 205
-0.0272369 0.003242481 0.4506814 205 205 205
-0.02473556 0.002574411 0.4510138 205 205 205
-0.02332342 0.00238714 0.4501964 205 205 205
-0.02067095 0.001880579 0.4495228 205 205 205
-0.01927439 0.001705384 0.4486894 205 205 205
-0.01369369 -0.002437413 0.4641632 205 205 205
-0.01386467 -0.004582841 0.476048 205 205 205
0.1723129 -0.02228397 0.4397525 205 205 205
0.1647224 -0.01638245 0.4131609 205 205 205
0.1650569 -0.01591042 0.4108695 205 205 205
0.1675063 -0.01461341 0.404377 205 205 205
0.1681989 -0.01433478 0.4029745 205 205 205
0.1688829 -0.01405415 0.4015712 205 205 205
0.169558 -0.01377148 0.4001674 205 205 205
0.1706611 -0.01368861 0.3996397 205 205 205
0.1708821 -0.01320013 0.3973581 205 205 205
0.1724181 -0.01331404 0.3976994 205 205 205
0.1730652 -0.01302286 0.3962903 205 205 205
0.1741538 -0.01293048 0.3957506 205 205 205
0.1747868 -0.01263526 0.3943389 205 205 205
0.1755657 -0.01183927 0.3906497 205 205 205
0.1799272 -0.01091279 0.3861616 205 205 205
0.1796049 -0.009698039 0.3807707 205 205 205
0.1796594 -0.009188285 0.3785086 205 205 205
0.1792073 -0.008481079 0.3754017 205 205 205
0.1787333 -0.00777382 0.3723023 205 205 205
0.178735 -0.007262375 0.3700556 205 205 205
0.1797009 -0.006627321 0.3672565 205 205 205
0.1796633 -0.006112999 0.3650182 205 205 205
0.1798812 -0.004242972 0.3569394 205 205 205
0.1829385 -0.00298576 0.3516457 205 205 205
0.1860471 -0.002214086 0.3485347 205 205 205
0.1858467 -0.001687638 0.3463313 205 205 205
-0.02887417 0.002148048 0.4512575 205 205 205
-0.02511096 0.001137674 0.4517635 205 205 205
-0.02228326 0.0007719722 0.4501247 205 205 205
-0.01755826 -0.000817069 0.4526506 205 205 205
-0.01570729 -0.002216401 0.457804 205 205 205
-0.01454291 -0.004555992 0.4688237 205 205 205
0.1752446 -0.02602338 0.4498811 205 205 205
0.1698332 -0.02242183 0.4341126 205 205 205
0.1658763 -0.0189705 0.4187711 205 205 205
0.1650265 -0.01786837 0.4138018 205 205 205
0.1653659 -0.01738816 0.4115104 205 205 205
0.1693828 -0.01619978 0.4053735 205 205 205
0.1747632 -0.01507074 0.3995334 205 205 205
0.1764015 -0.01345836 0.3921403 205 205 205
0.1771476 -0.01264278 0.3884523 205 205 205
0.180417 -0.01180061 0.3845095 205 205 205
0.1810948 -0.01044548 0.3785652 205 205 205
0.1811491 -0.009403302 0.3740521 205 205 205
0.1811419 -0.008358061 0.369555 205 205 205
0.1815842 -0.007508118 0.3659109 205 205 205
0.1818977 -0.006127315 0.360047 205 205 205
0.1823254 -0.005796296 0.3586512 205 205 205
0.1852546 -0.003975596 0.3511072 205 205 205
0.1865376 -0.003485455 0.3491352 205 205 205
0.1863415 -0.002950427 0.3469313 205 205 205
-0.03265662 0.002034351 0.4495085 205 205 205
-0.03159286 0.001543554 0.4506671 205 205 205
-0.02908808 0.0008565839 0.4510268 205 205 205
-0.02532311 -0.0001555762 0.4515316 205 205 205
-0.02390487 -0.0003373886 0.4507153 205 205 205
-0.01706072 -0.003056813 0.4564594 205 205 205
-0.01608341 -0.005590726 0.4684542 205 205 205
0.1735638 -0.02660296 0.4460144 205 205 205
0.1653287 -0.01936067 0.4144364 205 205 205
0.1660013 -0.01838208 0.4098557 205 205 205
0.1667293 -0.01810108 0.4084536 205 205 205
0.1681589 -0.01753275 0.4056472 205 205 205
0.1715355 -0.01729386 0.4040627 205 205 205
0.1726573 -0.01720911 0.4035268 205 205 205
0.1737771 -0.01712181 0.4029869 205 205 205
0.1766754 -0.016636 0.4004755 205 205 205
0.1795353 -0.01436188 0.3902315 205 205 205
0.1801311 -0.01404583 0.3888128 205 205 205
0.1807182 -0.01372802 0.387394 205 205 205
0.1819397 -0.0125594 0.3822879 205 205 205
0.1830622 -0.01137786 0.3771932 205 205 205
0.1835549 -0.009447612 0.3690273 205 205 205
0.1833907 -0.007840715 0.3623141 205 205 205
0.18415 -0.006627578 0.3572891 205 205 205
0.1854966 -0.006143869 0.3553159 205 205 205
0.1866569 -0.005110206 0.3511253 205 205 205
0.1870265 -0.004763246 0.3497301 205 205 205
0.1868346 -0.004219648 0.3475258 205 205 205
-0.03305966 0.0006023636 0.4502456 205 205 205
-0.03180832 0.0002546422 0.450432 205 205 205
-0.02787493 -0.0006224532 0.4499902 205 205 205
-0.02317788 -0.002266465 0.4525825 205 205 205
-0.01869318 -0.00420497 0.4570614 205 205 205
-0.01831828 -0.01150972 0.4937593 205 205 205
0.166871 -0.02292596 0.4241131 205 205 205
0.1660335 -0.02107473 0.4159533 205 205 205
0.1663113 -0.01986431 0.4104837 205 205 205
0.1670438 -0.01957899 0.4090809 205 205 205
0.167349 -0.01907691 0.4067947 205 205 205
0.1745608 -0.0188014 0.4044769 205 205 205
0.1768099 -0.01861731 0.4033788 205 205 205
0.177482 -0.01830915 0.4019562 205 205 205
0.1786925 -0.01642372 0.3936793 205 205 205
0.1799192 -0.01578806 0.3908405 205 205 205
0.1809928 -0.01567747 0.3902762 205 205 205
0.1811109 -0.01514516 0.3880009 205 205 205
0.1833887 -0.01383818 0.3823209 205 205 205
0.1839363 -0.01350717 0.3809009 205 205 205
0.1850051 -0.0128402 0.3780613 205 205 205
0.1850227 -0.01229781 0.3758028 205 205 205
0.1866257 -0.008198408 0.3589521 205 205 205
0.1870403 -0.007850695 0.3575486 205 205 205
0.1873006 -0.006950529 0.3539283 205 205 205
-0.03365267 -0.0009869669 0.4519465 205 205 205
-0.0295172 -0.001722188 0.4505498 205 205 205
-0.02826212 -0.002063153 0.450722 205 205 205
-0.02354933 -0.003720975 0.4533133 205 205 205
-0.02131633 -0.004701993 0.455559 205 205 205
-0.02018731 -0.005191633 0.4566762 205 205 205
-0.01888649 -0.007316781 0.4657339 205 205 205
-0.01997351 -0.01261543 0.4933521 205 205 205
0.1687073 -0.02606572 0.4314987 205 205 205
0.1667608 -0.0242468 0.4238395 205 205 205
0.1663589 -0.02330609 0.4197587 205 205 205
0.1695146 -0.02018132 0.405486 205 205 205
0.1710735 -0.02031866 0.405833 205 205 205
0.1722056 -0.02023539 0.4052977 205 205 205
0.1749028 -0.02027807 0.4050871 205 205 205
0.1787072 -0.01893339 0.3988503 205 205 205
0.1801542 -0.01775837 0.3937218 205 205 205
0.1836333 -0.01633495 0.3874583 205 205 205
0.1853883 -0.01478168 0.3809176 205 205 205
0.1859259 -0.01444235 0.379495 205 205 205
0.1874755 -0.01285999 0.372974 205 205 205
0.187806 -0.0108425 0.3648247 205 205 205
0.1877221 -0.01028466 0.3625903 205 205 205
0.1875087 -0.009167796 0.3581351 205 205 205
0.1873793 -0.008608872 0.3559145 205 205 205
0.1874496 -0.007134377 0.3500923 205 205 205
0.1867106 -0.006371131 0.3470807 205 205 205
-0.02629615 -0.004348787 0.4527507 205 205 205
-0.02519324 -0.004846976 0.4538827 205 205 205
-0.02296228 -0.005841657 0.4561356 205 205 205
-0.02121805 -0.01320951 0.4900064 205 205 205
0.1697723 -0.02808734 0.4338889 205 205 205
0.1665144 -0.02262489 0.4108365 205 205 205
0.1682808 -0.02151502 0.4057462 205 205 205
0.1698386 -0.02165874 0.4060979 205 205 205
0.1716741 -0.0212729 0.4041567 205 205 205
0.1750505 -0.02100744 0.4025321 205 205 205
0.1766176 -0.02113402 0.4028504 205 205 205
0.1790692 -0.02039791 0.3994488 205 205 205
0.1806387 -0.02051319 0.3997466 205 205 205
0.1808251 -0.01996918 0.3974596 205 205 205
0.182236 -0.01876513 0.3923257 205 205 205
0.1851822 -0.01708645 0.3851978 205 205 205
0.1862991 -0.01640283 0.3823465 205 205 205
0.1868443 -0.01605843 0.3809209 205 205 205
0.1873808 -0.01571244 0.3794956 205 205 205
0.1879085 -0.01536481 0.3780704 205 205 205
0.1884273 -0.0150156 0.3766453 205 205 205
0.1894388 -0.01431248 0.3737962 205 205 205
0.189838 -0.01282442 0.3678776 205 205 205
0.1885113 -0.01070073 0.3595336 205 205 205
0.1878502 -0.009923818 0.3564949 205 205 205
0.1864632 -0.008372284 0.350444 205 205 205
0.1873843 -0.008220087 0.3498611 205 205 205
0.1860944 -0.007238148 0.3460445 205 205 205
-0.03156771 -0.004272117 0.4518163 205 205 205
-0.02886687 -0.004800066 0.4511947 205 205 205
-0.02461752 -0.006981845 0.4567006 205 205 205
-0.02380327 -0.007820661 0.4597716 205 205 205
-0.02281316 -0.008494055 0.4618668 205 205 205
-0.0218024 -0.01103875 0.4728696 205 205 205
-0.02215444 -0.01343776 0.4847074 205 205 205
0.1685188 -0.02802103 0.4277245 205 205 205
0.1673386 -0.02659359 0.4218668 205 205 205
0.1668188 -0.0241221 0.411446 205 205 205
0.168599 -0.02299534 0.4063542 205 205 205
0.1697362 -0.02291672 0.4058266 205 205 205
0.1720049 -0.02275163 0.4047598 205 205 205
0.1749519 -0.02226009 0.4022616 205 205 205
0.1783129 -0.02197039 0.4006019 205 205 205
0.181656 -0.02165731 0.3989074 205 205 205
0.1834054 -0.02121374 0.3969037 205 205 205
0.185496 -0.01907573 0.388053 205 205 205
0.1860753 -0.01873149 0.3866245 205 205 205
0.186153 -0.01816628 0.3843539 205 205 205
0.1898838 -0.01627453 0.3766271 205 205 205
0.1903734 -0.01534234 0.3729457 205 205 205
0.1912821 -0.01404341 0.3678517 205 205 205
0.1873177 -0.009304452 0.3496259 205 205 205
-0.02833701 -0.006932727 0.4540162 205 205 205
-0.02449274 -0.00965689 0.4624238 205 205 205
-0.02379878 -0.01068623 0.4664643 205 205 205
-0.02352296 -0.01224093 0.4734236 205 205 205
0.1699876 -0.03028163 0.430986 205 205 205
0.1680247 -0.02836795 0.4233531 205 205 205
0.1671212 -0.02562555 0.4120489 205 205 205
0.1674546 -0.02509288 0.4097638 205 205 205
0.1681893 -0.02478851 0.4083601 205 205 205
0.1689153 -0.0244819 0.4069557 205 205 205
0.1730347 -0.02392081 0.4039443 205 205 205
0.177096 -0.02332013 0.4008837 205 205 205
0.178215 -0.02322065 0.4003266 205 205 205
0.1809059 -0.02324056 0.4000601 205 205 205
0.1836022 -0.02324874 0.3997711 205 205 205
0.1842491 -0.02290988 0.3983372 205 205 205
0.1844148 -0.02234373 0.396051 205 205 205
0.1851784 -0.02143265 0.392337 205 205 205
0.1869659 -0.0203904 0.3880433 205 205 205
0.1886739 -0.01933231 0.3837494 205 205 205
0.1897684 -0.0186185 0.3808872 205 205 205
0.1903024 -0.01825911 0.3794563 205 205 205
0.1908276 -0.01789812 0.3780257 205 205 205
0.1911332 -0.0146116 0.3653581 205 205 205
0.1887867 -0.01257251 0.357638 205 205 205
0.1881132 -0.01177167 0.3546093 205 205 205
0.1870665 -0.009803328 0.3471885 205 205 205
-0.03490969 -0.006482519 0.4528642 205 205 205
-0.03237109 -0.00718969 0.4532327 205 205 205
-0.02778714 -0.009091116 0.4568255 205 205 205
-0.02602032 -0.01064576 0.4619978 205 205 205
-0.02509897 -0.01326714 0.4729933 205 205 205
-0.02445005 -0.01645457 0.4869065 205 205 205
-0.02052987 -0.01572317 0.4793976 205 205 205
-0.01847759 -0.01516129 0.4746572 205 205 205
-0.01725134 -0.01567871 0.4757552 205 205 205
-0.01627254 -0.01656093 0.4787985 205 205 205
-0.01613981 -0.01873174 0.4886646 205 205 205
0.1807936 -0.03898717 0.4587829 205 205 205
0.1703057 -0.0310958 0.4283757 205 205 205
0.169518 -0.02985443 0.4234147 205 205 205
0.1682868 -0.02837776 0.4175819 205 205 205
0.1684991 -0.02628562 0.4089559 205 205 205
0.1692296 -0.02597469 0.4075507 205 205 205
0.1715188 -0.02581271 0.4064852 205 205 205
0.1722296 -0.02549495 0.4050747 205 205 205
0.173625 -0.02485299 0.4022516 205 205 205
0.1769961 -0.02456924 0.4006036 205 205 205
0.1823866 -0.02461475 0.4000654 205 205 205
0.185264 -0.02404498 0.3974745 205 205 205
0.1883429 -0.02229036 0.3902962 205 205 205
0.1884398 -0.02170718 0.3880199 205 205 205
0.1890167 -0.02134948 0.3865857 205 205 205
0.1912363 -0.0199016 0.3808499 205 205 205
0.1912568 -0.01931126 0.3785873 205 205 205
0.1917481 -0.01775906 0.3726476 205 205 205
0.1917103 -0.01716571 0.3703999 205 205 205
0.1915888 -0.01597761 0.3659178 205 205 205
0.1915052 -0.0153829 0.3636835 205 205 205
0.189125 -0.01331301 0.3559838 205 205 205
0.1864468 -0.01065889 0.3461417 205 205 205
-0.03386162 -0.008132404 0.4527816 205 205 205
-0.02721398 -0.01304357 0.4675432 205 205 205
-0.02683396 -0.01446689 0.4735245 205 205 205
-0.02687205 -0.01643925 0.4824202 205 205 205
-0.02336128 -0.01624312 0.4778568 205 205 205
-0.02084357 -0.01512808 0.4702153 205 205 205
-0.01908275 -0.01491443 0.4674278 205 205 205
-0.01734336 -0.01469252 0.4646335 205 205 205
-0.01457149 -0.01515724 0.4638943 205 205 205
-0.0131926 -0.02027572 0.4856574 205 205 205
0.1788456 -0.03847442 0.4507754 205 205 205
0.1736953 -0.02690056 0.4051164 205 205 205
0.1762166 -0.02614998 0.4017364 205 205 205
0.1800429 -0.02608335 0.4009193 205 205 205
0.1849921 -0.02587692 0.3994753 205 205 205
0.1851672 -0.02529407 0.397189 205 205 205
0.1862768 -0.02517533 0.3966032 205 205 205
0.1887395 -0.02374967 0.3908566 205 205 205
0.1888411 -0.02315805 0.3885802 205 205 205
0.1899177 -0.02302599 0.3879827 205 205 205
0.1905583 -0.02206595 0.384275 205 205 205
0.1921676 -0.02155793 0.3822355 205 205 205
0.192196 -0.02095864 0.3799708 205 205 205
0.1922089 -0.02035865 0.3777103 205 205 205
0.1916878 -0.01953085 0.3746296 205 205 205
0.1921066 -0.01795262 0.3687105 205 205 205
0.1920426 -0.01734985 0.3664714 205 205 205
0.190676 -0.01509181 0.3581611 205 205 205
0.1887539 -0.01321759 0.3513142 205 205 205
-0.03535255 -0.009069901 0.4523213 205 205 205
-0.02924728 -0.01278748 0.4620866 205 205 205
-0.02893551 -0.0142225 0.4680648 205 205 205
-0.02841564 -0.01548493 0.4730737 205 205 205
-0.02695139 -0.0176634 0.4811484 205 205 205
-0.02481018 -0.01709746 0.4764438 205 205 205
-0.01991601 -0.01499568 0.4621489 205 205 205
-0.01504557 -0.0146544 0.4557095 205 205 205
-0.01082759 -0.01745003 0.4639212 205 205 205
0.1816289 -0.04080896 0.4534092 205 205 205
0.1737382 -0.02896917 0.4079772 205 205 205
0.1744562 -0.02863994 0.4065612 205 205 205
0.1756024 -0.02854855 0.4060113 205 205 205
0.1763062 -0.02821486 0.4045923 205 205 205
0.177687 -0.02754124 0.4017528 205 205 205
0.1792658 -0.02767898 0.4020524 205 205 205
0.1831092 -0.02759684 0.4011973 205 205 205
0.184236 -0.02748456 0.4006179 205 205 205
0.1855404 -0.02677847 0.3977482 205 205 205
0.1882437 -0.02677287 0.3974153 205 205 205
0.1899823 -0.02628466 0.3953752 205 205 205
0.1907153 -0.02531849 0.3916499 205 205 205
0.1925396 -0.0236026 0.3850525 205 205 205
0.192621 -0.02238788 0.3805191 205 205 205
0.1916037 -0.02070842 0.3743551 205 205 205
0.192627 -0.02056059 0.3737496 205 205 205
0.192554 -0.01933949 0.3692581 205 205 205
0.1930259 -0.01895718 0.3678344 205 205 205
0.1916829 -0.01666452 0.3595194 205 205 205
0.1897768 -0.01476084 0.3526708 205 205 205
0.1885109 -0.01369829 0.3488613 205 205 205
-0.0348715 -0.01125363 0.4551243 205 205 205
-0.03377443 -0.01179045 0.4562728 205 205 205
-0.03226678 -0.01358909 0.4624272 205 205 205
-0.03130382 -0.01431098 0.4645341 205 205 205
-0.03049558 -0.01521796 0.4676062 205 205 205
-0.03033174 -0.01686669 0.4745503 205 205 205
-0.02946217 -0.01778415 0.4776199 205 205 205
-0.02367216 -0.01678515 0.4674096 205 205 205
-0.02144841 -0.01599072 0.4617256 205 205 205
-0.0179775 -0.01550798 0.4561581 205 205 205
-0.01472582 -0.01518589 0.4515355 205 205 205
-0.01319154 -0.01511115 0.4497008 205 205 205
-0.009977451 -0.01701521 0.454868 205 205 205
-0.009147516 -0.01811211 0.4588546 205 205 205
0.1844359 -0.04316728 0.4560134 205 205 205
0.1736124 -0.03408272 0.4226376 205 205 205
0.1725872 -0.03114343 0.4113781 205 205 205
0.172901 -0.03056949 0.4090919 205 205 205
0.1736289 -0.03023827 0.4076774 205 205 205
0.1761995 -0.02947541 0.4042945 205 205 205
0.1768954 -0.02913547 0.4028758 205 205 205
0.1780294 -0.02903641 0.4023176 205 205 205
0.1807457 -0.02907269 0.4020468 205 205 205
0.1830067 -0.0288554 0.4008996 205 205 205
0.1841341 -0.02874281 0.4003201 205 205 205
0.1881449 -0.02802584 0.3971186 205 205 205
0.1920945 -0.02726957 0.3938701 205 205 205
0.1927012 -0.02689602 0.3924238 205 205 205
0.1934582 -0.02529146 0.3864246 205 205 205
0.1935146 -0.02467561 0.384154 205 205 205
0.1925512 -0.02297115 0.3779758 205 205 205
0.1920364 -0.02211929 0.3748987 205 205 205
0.1907973 -0.01631785 0.3540195 205 205 205
-0.0361839 -0.01201363 0.4536861 205 205 205
-0.03437049 -0.01346309 0.4579149 205 205 205
-0.03302953 -0.01547486 0.4650319 205 205 205
-0.0324061 -0.01658062 0.4690717 205 205 205
-0.02854948 -0.01784702 0.4705347 205 205 205
-0.02624272 -0.01705967 0.4648788 205 205 205
-0.01635035 -0.01635299 0.4521041 205 205 205
-0.01480392 -0.01627655 0.4502764 205 205 205
-0.01327158 -0.01619389 0.4484429 205 205 205
-0.0098318 -0.01771447 0.4516592 205 205 205
-0.008390898 -0.02034342 0.4615666 205 205 205
0.1748067 -0.03225031 0.4099778 205 205 205
0.1762586 -0.03157161 0.4071388 205 205 205
0.1769713 -0.03122903 0.4057184 205 205 205
0.1822296 -0.0304685 0.4020273 205 205 205
0.1844947 -0.03024454 0.4008688 205 205 205
0.1851568 -0.02988379 0.3994343 205 205 205
0.1880446 -0.02927727 0.3968171 205 205 205
0.1944386 -0.02636923 0.385516 205 205 205
0.1939761 -0.02550421 0.3824219 205 205 205
0.1929848 -0.02377478 0.3762575 205 205 205
0.1929154 -0.02189457 0.3695191 205 205 205
0.1933924 -0.02150339 0.3680955 205 205 205
0.1943949 -0.02134682 0.367484 205 205 205
0.1937827 -0.02048115 0.3644401 205 205 205
-0.0367962 -0.01367933 0.4553217 205 205 205
-0.03421759 -0.01964654 0.4774593 205 205 205
-0.0331884 -0.02040009 0.4795657 205 205 205
-0.03163877 -0.0205785 0.4787683 205 205 205
-0.02404395 -0.01737964 0.4579466 205 205 205
-0.01941088 -0.01739453 0.4535067 205 205 205
-0.01642575 -0.01744252 0.4508407 205 205 205
-0.0148813 -0.01735812 0.4490141 205 205 205
-0.01348188 -0.01746924 0.4481522 205 205 205
-0.01221639 -0.01777852 0.4482562 205 205 205
-0.01107364 -0.01828875 0.4493268 205 205 205
-0.008995409 -0.01971758 0.4533997 205 205 205
-0.008269599 -0.02105186 0.4583469 205 205 205
-0.008156933 -0.02363442 0.4691257 205 205 205
0.179983 -0.0399352 0.4328078 205 205 205
0.177889 -0.03782762 0.425255 205 205 205
0.1765815 -0.03622608 0.4194649 205 205 205
0.1765073 -0.03538146 0.4162972 205 205 205
0.1768394 -0.03478766 0.4140024 205 205 205
0.176723 -0.03394046 0.4108446 205 205 205
0.1774559 -0.0335951 0.4094207 205 205 205
0.1777404 -0.03299641 0.4071338 205 205 205
0.1784521 -0.03264706 0.4057103 205 205 205
0.1816665 -0.0314785 0.4008651 205 205 205
0.1857069 -0.03077167 0.397693 205 205 205
0.1879429 -0.03052713 0.3965108 205 205 205
0.1890578 -0.03040083 0.395914 205 205 205
0.19288 -0.03025199 0.3949364 205 205 205
0.1939896 -0.03011469 0.3943224 205 205 205
0.1945993 -0.02972965 0.3928724 205 205 205
0.195701 -0.02958746 0.3922527 205 205 205
0.195792 -0.02895425 0.3899725 205 205 205
0.1958675 -0.02832016 0.3876961 205 205 205
0.1934132 -0.02520164 0.3767875 205 205 205
0.1933913 -0.02393179 0.3722908 205 205 205
0.1938385 -0.02290014 0.3686244 205 205 205
0.1948449 -0.02274263 0.3680111 205 205 205
0.194689 -0.02146501 0.363547 205 205 205
0.193925 -0.01994842 0.3582989 205 205 205
0.1926899 -0.01883487 0.3544843 205 205 205
-0.03554604 -0.01855489 0.4681019 205 205 205
-0.03546754 -0.02027302 0.4750328 205 205 205
-0.03445504 -0.02103336 0.4771402 205 205 205
-0.03221894 -0.02043095 0.4724858 205 205 205
-0.03001877 -0.01981585 0.4678217 205 205 205
-0.02768955 -0.01899135 0.462182 205 205 205
-0.02379229 -0.01809445 0.4547419 205 205 205
-0.02250268 -0.01842952 0.4548806 205 205 205
-0.02076137 -0.01815987 0.4521105 205 205 205
-0.01948103 -0.01848699 0.4522387 205 205 205
-0.01791417 -0.01840634 0.4504248 205 205 205
-0.01140815 -0.01977453 0.4499999 205 205 205
-0.009557164 -0.02163927 0.456011 205 205 205
-0.00882264 -0.02299551 0.4609543 205 205 205
-0.008486605 -0.02520112 0.469781 205 205 205
0.1881545 -0.04643976 0.449926 205 205 205
0.1798371 -0.03959112 0.4260958 205 205 205
0.178214 -0.03538458 0.4108289 205 205 205
0.1797396 -0.03320073 0.4025486 205 205 205
0.1804256 -0.03284104 0.4011246 205 205 205
0.1826906 -0.0326217 0.3999775 205 205 205
0.1844806 -0.03213932 0.3979673 205 205 205
0.1862487 -0.03164775 0.3959488 205 205 205
0.188475 -0.03139787 0.3947626 205 205 205
0.1900686 -0.03151949 0.3950024 205 205 205
0.196103 -0.03108142 0.3927714 205 205 205
0.1967026 -0.03068775 0.3913186 205 205 205
0.196786 -0.0300448 0.3890404 205 205 205
0.1953644 -0.02801669 0.3820307 205 205 205
0.1943614 -0.02623708 0.3758785 205 205 205
0.1942826 -0.02430295 0.369147 205 205 205
0.1949377 -0.02155401 0.3596222 205 205 205
-0.03552414 -0.02145342 0.4737467 205 205 205
-0.0254635 -0.01925614 0.4552595 205 205 205
-0.012766 -0.02053558 0.4486282 205 205 205
-0.00915291 -0.02453279 0.4616106 205 205 205
0.1826457 -0.04188336 0.4286513 205 205 205
0.1808904 -0.03997176 0.4220086 205 205 205
0.1799483 -0.03857975 0.4171124 205 205 205
0.1798402 -0.03770578 0.4139529 205 205 205
0.1798249 -0.03533592 0.4053675 205 205 205
0.1825824 -0.03387398 0.3996606 205 205 205
0.186782 -0.03251198 0.3942015 205 205 205
0.1905905 -0.0323792 0.3932466 205 205 205
0.197195 -0.03153167 0.3895517 205 205 205
0.196297 -0.02972575 0.3833658 205 205 205
0.1937083 -0.02586868 0.370277 205 205 205
-0.03716214 -0.02068329 0.46632 205 205 205
-0.03656761 -0.02185146 0.4703517 205 205 205
-0.03485509 -0.02182334 0.4686055 205 205 205
-0.0271439 -0.02041801 0.4557653 205 205 205
-0.02391482 -0.02027695 0.4521949 205 205 205
-0.02247637 -0.02040396 0.4513662 205 205 205
-0.02104442 -0.02052651 0.4505321 205 205 205
-0.0115287 -0.02436703 0.4572337 205 205 205
-0.01069341 -0.02554536 0.4612021 205 205 205
0.1827675 -0.04084422 0.4196475 205 205 205
0.1813469 -0.03916779 0.4139067 205 205 205
0.180864 -0.0364982 0.4044712 205 205 205
0.1817959 -0.03549732 0.4007654 205 205 205
0.1824729 -0.03512466 0.399339 205 205 205
0.1842662 -0.03463328 0.3973309 205 205 205
0.1860375 -0.03413265 0.3953145 205 205 205
0.1877868 -0.03362287 0.3932899 205 205 205
0.1911039 -0.03322707 0.3914879 205 205 205
0.1931917 -0.03360352 0.392542 205 205 205
0.1965886 -0.03251433 0.3884092 205 205 205
0.1966589 -0.03185464 0.3861389 205 205 205
0.1972269 -0.03144828 0.3846923 205 205 205
0.1967528 -0.03053295 0.3816103 205 205 205
0.1957365 -0.0293647 0.3777204 205 205 205
0.194671 -0.02753668 0.3716009 205 205 205
0.194635 -0.02687503 0.3693635 205 205 205
0.1951168 -0.02646409 0.3679385 205 205 205
0.1968439 -0.02413951 0.3600247 205 205 205
-0.03777463 -0.02242965 0.4679165 205 205 205
-0.03643252 -0.02280341 0.4680994 205 205 205
-0.03418005 -0.02215433 0.4634679 205 205 205
-0.03030619 -0.02143598 0.4570646 205 205 205
-0.02883343 -0.02157997 0.4562593 205 205 205
-0.02720006 -0.02151133 0.4544847 205 205 205
-0.02413445 -0.02156455 0.451881 205 205 205
-0.02126179 -0.02180777 0.4502192 205 205 205
-0.01855989 -0.02224698 0.4495022 205 205 205
-0.01486214 -0.02342126 0.4508073 205 205 205
-0.01357961 -0.02373632 0.4509111 205 205 205
-0.0126743 -0.02470423 0.4539133 205 205 205
-0.01199024 -0.02611379 0.4588485 205 205 205
0.1865579 -0.04456734 0.4270438 205 205 205
0.181647 -0.03829424 0.4058476 205 205 205
0.1825949 -0.03728003 0.4021379 205 205 205
0.1832798 -0.03690252 0.400709 205 205 205
0.1846227 -0.03614153 0.3978502 205 205 205
0.1848116 -0.03549471 0.3955774 205 205 205
0.1854573 -0.03510969 0.3941491 205 205 205
0.1865701 -0.03498536 0.3935598 205 205 205
0.189272 -0.03499056 0.3932057 205 205 205
0.1903818 -0.03485789 0.3926032 205 205 205
0.1909998 -0.03446149 0.391165 205 205 205
0.1925947 -0.03458443 0.3913869 205 205 205
0.1976882 -0.03225628 0.3829274 205 205 205
0.1965047 -0.0270408 0.3655921 205 205 205
0.1969642 -0.02662082 0.3641679 205 205 205
0.1974148 -0.02619945 0.3627443 205 205 205
-0.04069192 -0.02302104 0.4672042 205 205 205
-0.02708773 -0.02238381 0.4522379 205 205 205
-0.02580174 -0.0227253 0.4523841 205 205 205
-0.02163238 -0.02330303 0.4508657 205 205 205
-0.0189214 -0.02374152 0.4501496 205 205 205
-0.01314375 -0.02644322 0.4555236 205 205 205
-0.01172757 -0.02931076 0.465383 205 205 205
0.1951188 -0.05133157 0.4438679 205 205 205
0.1858266 -0.04382255 0.4194917 205 205 205
0.1843728 -0.04209734 0.4137715 205 205 205
0.1833236 -0.04064225 0.4089201 205 205 205
0.1826895 -0.03945646 0.4049325 205 205 205
0.1829361 -0.03880768 0.4026527 205 205 205
0.1851707 -0.03700066 0.3960904 205 205 205
0.1858208 -0.03661112 0.3946613 205 205 205
0.1875733 -0.03609229 0.392639 205 205 205
0.1891648 -0.0362279 0.3928769 205 205 205
0.1902753 -0.03609477 0.3922745 205 205 205
0.1924895 -0.03582056 0.3910584 205 205 205
0.1942863 -0.03460005 0.3867354 205 205 205
0.198566 -0.03467212 0.3865019 205 205 205
0.1976389 -0.03211251 0.3780927 205 205 205
0.1971147 -0.03117281 0.3750334 205 205 205
0.1964813 -0.02887301 0.3675133 205 205 205
0.1969537 -0.02844972 0.3660876 205 205 205
0.1974173 -0.02802504 0.3646625 205 205 205
-0.04191875 -0.02540269 0.4716572 205 205 205
-0.04017106 -0.02537156 0.4699346 205 205 205
-0.03748418 -0.02428657 0.4634095 205 205 205
-0.03578221 -0.02423659 0.4616705 205 205 205
-0.02329038 -0.02447072 0.4513737 205 205 205
-0.02056844 -0.02491459 0.4506682 205 205 205
-0.01466475 -0.02742554 0.4550935 205 205 205
0.2002344 -0.0551158 0.4505591 205 205 205
0.1854439 -0.04329173 0.4128309 205 205 205
0.1843778 -0.04181622 0.4079892 205 205 205
0.1841847 -0.04088587 0.4048566 205 205 205
0.1846536 -0.03956632 0.4002998 205 205 205
0.1853294 -0.03917586 0.3988688 205 205 205
0.1859962 -0.0387834 0.3974375 205 205 205
0.1873031 -0.03799257 0.394574 205 205 205
0.1879431 -0.03759435 0.393142 205 205 205
0.1907873 -0.03692533 0.390505 205 205 205
0.1925936 -0.03570032 0.3861965 205 205 205
0.1953376 -0.03499125 0.383526 205 205 205
0.1975437 -0.03262146 0.375522 205 205 205
0.1959064 -0.03045674 0.3686256 205 205 205
0.1973265 -0.02917438 0.3643519 205 205 205
0.1977821 -0.02874406 0.3629285 205 205 205
0.1976805 -0.02805271 0.360711 205 205 205
-0.02899111 -0.02482878 0.4523943 205 205 205
-0.026576 -0.02573886 0.453652 205 205 205
-0.02511909 -0.02585969 0.4528318 205 205 205
-0.02382648 -0.02619816 0.4529684 205 205 205
-0.01979626 -0.02697298 0.4523868 205 205 205
-0.01864649 -0.02752612 0.453468 205 205 205
-0.01748831 -0.02807859 0.4545452 205 205 205
-0.01632182 -0.02863027 0.4556184 205 205 205
-0.01498687 -0.03156881 0.4654712 205 205 205
-0.01475851 -0.03397013 0.4742551 205 205 205
-0.01506368 -0.03754247 0.4878655 205 205 205
0.1860619 -0.04420444 0.4110328 205 205 205
0.1854298 -0.042985 0.4070495 205 205 205
0.1849994 -0.04109678 0.4007996 205 205 205
0.1863509 -0.04030486 0.3979359 205 205 205
0.1870132 -0.03990591 0.3965036 205 205 205
0.1876665 -0.03950503 0.3950711 205 205 205
0.1917828 -0.03801597 0.3895601 205 205 205
0.1923893 -0.03760302 0.3881232 205 205 205
0.1924881 -0.03691727 0.3858629 205 205 205
0.1930733 -0.03650125 0.3844279 205 205 205
0.1941549 -0.03635358 0.3838126 205 205 205
0.1952343 -0.03620327 0.3831936 205 205 205
0.198417 -0.03643202 0.383572 205 205 205
0.1990212 -0.03461039 0.3776199 205 205 205
0.1974071 -0.03241547 0.370719 205 205 205
0.1976908 -0.02988767 0.3626146 205 205 205
-0.04100597 -0.02662154 0.4642641 205 205 205
-0.03363279 -0.02571611 0.4544553 205 205 205
-0.03233464 -0.02607372 0.4546208 205 205 205
-0.02566613 -0.0275978 0.454417 205 205 205
-0.02290933 -0.02805032 0.4537247 205 205 205
-0.01901025 -0.02904695 0.4540924 205 205 205
-0.01784852 -0.02960456 0.4551687 205 205 205
-0.01681443 -0.03039302 0.4572041 205 205 205
-0.01629351 -0.03211256 0.4630904 205 205 205
-0.01572681 -0.03384043 0.4689753 205 205 205
-0.01648667 -0.03815408 0.485464 205 205 205
0.1950357 -0.05206503 0.4307987 205 205 205
0.1880336 -0.04594459 0.4117689 205 205 205
0.186265 -0.04319139 0.4029773 205 205 205
0.1864921 -0.04251242 0.4007008 205 205 205
0.1891546 -0.04089324 0.3949612 205 205 205
0.1897978 -0.0404836 0.3935257 205 205 205
0.190432 -0.04007206 0.3920901 205 205 205
0.1916737 -0.03924336 0.3892186 205 205 205
0.192776 -0.03910146 0.3886069 205 205 205
0.1929673 -0.03771243 0.3840908 205 205 205
0.1935445 -0.03729048 0.382657 205 205 205
0.198356 -0.03694545 0.3809778 205 205 205
0.198373 -0.03412521 0.3719988 205 205 205
0.1982886 -0.03271205 0.3675358 205 205 205
0.1981426 -0.03129743 0.3630913 205 205 205
-0.04104307 -0.02773552 0.4629575 205 205 205
-0.03703215 -0.02694759 0.4566374 205 205 205
-0.03423094 -0.02745542 0.4560274 205 205 205
-0.02359817 -0.0300334 0.4562632 205 205 205
-0.0208285 -0.03047479 0.4555531 205 205 205
-0.0198082 -0.03127366 0.4575947 205 205 205
-0.01785658 -0.03311009 0.4626297 205 205 205
-0.01905521 -0.04088274 0.4917232 205 205 205
0.1948203 -0.05247359 0.4272386 205 205 205
0.190178 -0.04866395 0.415626 205 205 205
0.1870665 -0.04502391 0.4043026 205 205 205
0.1877249 -0.04295731 0.3974786 205 205 205
0.1888613 -0.04282881 0.3968788 205 205 205
0.1901655 -0.04200235 0.3940067 205 205 205
0.190804 -0.04158628 0.3925703 205 205 205
0.1927708 -0.03962478 0.386003 205 205 205
0.1928599 -0.03892191 0.383749 205 205 205
0.1945676 -0.03763849 0.3794517 205 205 205
0.1988018 -0.03771593 0.3791953 205 205 205
0.1998677 -0.03755202 0.3785601 205 205 205
0.1998753 -0.03683718 0.3763138 205 205 205
0.1998674 -0.0361218 0.3740718 205 205 205
0.199844 -0.03540595 0.3718342 205 205 205
0.1998052 -0.03468963 0.3696012 205 205 205
0.1992098 -0.03370091 0.3665769 205 205 205
-0.04047757 -0.02817398 0.4587851 205 205 205
-0.03576595 -0.02839179 0.4555077 205 205 205
-0.03427484 -0.02852899 0.4547218 205 205 205
-0.03297206 -0.02888881 0.454887 205 205 205
-0.02905736 -0.02995257 0.4553543 205 205 205
-0.0195613 -0.03434012 0.4631208 205 205 205
0.1766053 -0.05112679 0.4217054 205 205 205
0.1790935 -0.05190834 0.4237207 205 205 205
0.1940009 -0.051583 0.4196889 205 205 205
0.189036 -0.04674614 0.4050165 205 205 205
0.1890187 -0.0450628 0.3996256 205 205 205
0.1892181 -0.0443624 0.3973543 205 205 205
0.1900502 -0.0432425 0.3936513 205 205 205
0.1931584 -0.04112273 0.3864747 205 205 205
0.1932521 -0.04041151 0.384221 205 205 205
0.1939003 -0.03926751 0.38054 205 205 205
0.1955283 -0.03867843 0.3784886 205 205 205
0.1986969 -0.03891745 0.3788506 205 205 205
0.2003 -0.03830825 0.3767742 205 205 205
0.2013185 -0.03668793 0.3716557 205 205 205
0.2006725 -0.03495986 0.3664031 205 205 205
-0.03710739 -0.02909463 0.4540246 205 205 205
-0.02945648 -0.03148328 0.4559562 205 205 205
-0.02797751 -0.03159918 0.4551453 205 205 205
-0.02436238 -0.03310907 0.4574723 205 205 205
-0.02202198 -0.03426884 0.4596422 205 205 205
-0.02127537 -0.03557006 0.4635998 205 205 205
-0.02148232 -0.04134236 0.4839918 205 205 205
0.1711415 -0.05151881 0.419533 205 205 205
0.1727372 -0.04979727 0.4135734 205 205 205
0.1768252 -0.05079475 0.4158971 205 205 205
0.1810131 -0.05275565 0.4213239 205 205 205
0.2048248 -0.05990034 0.4394817 205 205 205
0.1916926 -0.04976432 0.4096695 205 205 205
0.1893686 -0.04661039 0.4000938 205 205 205
0.189761 -0.04519192 0.3955554 205 205 205
0.1928094 -0.0437759 0.3906346 205 205 205
0.1942994 -0.04074991 0.3810049 205 205 205
0.2023156 -0.03989604 0.3773854 205 205 205
0.2033656 -0.03898682 0.374495 205 205 205
-0.04074509 -0.03056335 0.4571136 205 205 205
-0.0373381 -0.03038596 0.4536666 205 205 205
-0.03492112 -0.0313495 0.4549636 205 205 205
-0.03099572 -0.03242777 0.4554441 205 205 205
-0.02968511 -0.03278193 0.4555949 205 205 205
-0.02820504 -0.03289471 0.4547846 205 205 205
-0.02706082 -0.03348228 0.4558824 205 205 205
-0.02590818 -0.03406916 0.4569762 205 205 205
-0.02373106 -0.03548345 0.4601099 205 205 205
-0.02267356 -0.03885483 0.4708974 205 205 205
-0.02314886 -0.04239319 0.4834811 205 205 205
0.1685643 -0.0500545 0.4108342 205 205 205
0.1697562 -0.04997322 0.410297 205 205 205
0.1733206 -0.04971257 0.4086614 205 205 205
0.1932225 -0.05122685 0.4095046 205 205 205
0.1903984 -0.04773949 0.3991155 205 205 205
0.1914238 -0.04587196 0.3931446 205 205 205
0.1936739 -0.04558882 0.3919146 205 205 205
0.1941176 -0.04267928 0.3828957 205 205 205
0.1941893 -0.04194974 0.3806507 205 205 205
0.1953132 -0.04106319 0.3777896 205 205 205
0.203798 -0.04046272 0.3749374 205 205 205
-0.03756918 -0.03167548 0.4533034 205 205 205
-0.02525598 -0.04418269 0.4858332 205 205 205
0.1676382 -0.05170421 0.4118527 205 205 205
0.1680225 -0.0510204 0.409594 205 205 205
0.1688012 -0.05063685 0.408198 205 205 205
0.1703986 -0.0508549 0.4085189 205 205 205
0.1719254 -0.05007545 0.4057166 205 205 205
0.1747974 -0.05118794 0.4085841 205 205 205
0.1788939 -0.05219553 0.4108649 205 205 205
0.1818298 -0.05329378 0.4136872 205 205 205
0.18523 -0.05468671 0.4173394 205 205 205
0.2045832 -0.06378011 0.4418208 205 205 205
0.2094775 -0.06396358 0.4414705 205 205 205
0.1982204 -0.05579564 0.4182831 205 205 205
0.1934042 -0.04755911 0.3938061 205 205 205
0.1951714 -0.04697401 0.3917426 205 205 205
0.1953016 -0.04623785 0.3894826 205 205 205
0.1945844 -0.04343995 0.3811032 205 205 205
0.1946451 -0.0427013 0.3788626 205 205 205
0.1957169 -0.04254412 0.3782407 205 205 205
0.1978537 -0.04222178 0.3769861 205 205 205
0.2031662 -0.04212116 0.3760244 205 205 205
0.2036918 -0.04165686 0.3745798 205 205 205
0.2042085 -0.04119107 0.3731357 205 205 205
-0.03389034 -0.0340578 0.4534401 205 205 205
-0.03014371 -0.03537369 0.4548568 205 205 205
-0.02883116 -0.03572635 0.4550021 205 205 205
-0.0255836 -0.04036044 0.4679618 205 205 205
0.1809565 -0.06770388 0.4543926 205 205 205
0.1686604 -0.05588633 0.4203158 205 205 205
0.167098 -0.05266833 0.4106061 205 205 205
0.1770359 -0.05226142 0.4070784 205 205 205
0.1815899 -0.05357333 0.4101716 205 205 205
0.1832278 -0.05376766 0.4104328 205 205 205
0.1862054 -0.05486756 0.4132149 205 205 205
0.2097275 -0.06465726 0.4386835 205 205 205
0.1944036 -0.05295495 0.4058161 205 205 205
0.191013 -0.04908356 0.3946582 205 205 205
0.1937696 -0.0491011 0.3942502 205 205 205
0.1950522 -0.04821299 0.3913666 205 205 205
0.1947998 -0.04642732 0.3860412 205 205 205
0.1961185 -0.04403071 0.378685 205 205 205
0.1961593 -0.04328137 0.3764492 205 205 205
0.1988196 -0.04249343 0.3737589 205 205 205
0.2041018 -0.0423793 0.3727748 205 205 205
0.2051532 -0.04219776 0.3721206 205 205 205
-0.04083846 -0.03374544 0.4531513 205 205 205
-0.03953432 -0.03411983 0.4533338 205 205 205
-0.03842545 -0.03473417 0.4544616 205 205 205
-0.03692251 -0.03486077 0.4536847 205 205 205
-0.03186344 -0.03655864 0.4552827 205 205 205
-0.03054774 -0.03691555 0.4554327 205 205 205
-0.02858004 -0.03862435 0.4595332 205 205 205
0.172374 -0.06130241 0.4317103 205 205 205
0.1685169 -0.05718926 0.4199165 205 205 205
0.1669374 -0.05292422 0.407106 205 205 205
0.167711 -0.05253312 0.4057156 205 205 205
0.1700647 -0.05236236 0.4046421 205 205 205
0.173258 -0.05279771 0.4052563 205 205 205
0.1764715 -0.05321962 0.4058414 205 205 205
0.1801426 -0.05393532 0.4072422 205 205 205
0.1834029 -0.05432913 0.4077652 205 205 205
0.187134 -0.05501503 0.4090967 205 205 205
0.1910591 -0.05672788 0.4135124 205 205 205
0.2091176 -0.06578289 0.4374126 205 205 205
0.1959323 -0.05440756 0.4056191 205 205 205
0.1939559 -0.05139702 0.3969516 205 205 205
0.1949315 -0.04945014 0.3909859 205 205 205
0.1945684 -0.04839739 0.3879161 205 205 205
0.1947801 -0.04689185 0.3834207 205 205 205
0.194929 -0.04538302 0.3789411 205 205 205
0.1960473 -0.04446733 0.3760841 205 205 205
0.1965931 -0.04400697 0.3746561 205 205 205
0.1981838 -0.04337787 0.3725981 205 205 205
0.2013497 -0.04362645 0.3729135 205 205 205
0.2024032 -0.04345031 0.3722686 205 205 205
0.2034544 -0.04327153 0.3716202 205 205 205
-0.0410722 -0.03503187 0.4527724 205 205 205
-0.03734841 -0.03639634 0.4542541 205 205 205
-0.03603667 -0.03676448 0.4544226 205 205 205
-0.02997481 -0.03932557 0.458051 205 205 205
-0.02960534 -0.04360882 0.4716698 205 205 205
-0.0309391 -0.04833081 0.4880125 205 205 205
0.1668203 -0.05519633 0.4098256 205 205 205
0.1726996 -0.05373918 0.4040156 205 205 205
0.1786963 -0.05427307 0.404315 205 205 205
0.181492 -0.05436511 0.4040055 205 205 205
0.1868323 -0.05525314 0.4055869 205 205 205
0.1996742 -0.06104047 0.4203697 205 205 205
0.2065396 -0.06459597 0.4296585 205 205 205
0.2038796 -0.06091866 0.4192344 205 205 205
0.1940084 -0.05189593 0.3942983 205 205 205
0.193457 -0.04901201 0.3859074 205 205 205
0.1935652 -0.04825274 0.383664 205 205 205
0.19416 -0.04779632 0.3822341 205 205 205
0.1948138 -0.04657547 0.378569 205 205 205
0.1953784 -0.04611432 0.3771417 205 205 205
0.195934 -0.04565149 0.3757145 205 205 205
0.1964807 -0.04518699 0.3742877 205 205 205
0.2012223 -0.04403483 0.3703198 205 205 205
-0.04000131 -0.03669207 0.4525701 205 205 205
-0.03626975 -0.03805514 0.4540358 205 205 205
-0.03514314 -0.03867426 0.4551486 205 205 205
-0.03382504 -0.03903871 0.4553078 205 205 205
-0.03286423 -0.03991063 0.4573627 205 205 205
-0.0318874 -0.04078391 0.4594144 205 205 205
-0.03106632 -0.04191563 0.4624142 205 205 205
0.1686153 -0.05494181 0.4044003 205 205 205
0.1697923 -0.05485445 0.4038616 205 205 205
0.1713868 -0.05508064 0.4041701 205 205 205
0.1792985 -0.05510851 0.4025041 205 205 205
0.1816401 -0.05488442 0.4013498 205 205 205
0.1878826 -0.05640401 0.4045829 205 205 205
0.1909089 -0.05752686 0.4072998 205 205 205
0.1984412 -0.06068978 0.4151599 205 205 205
0.1999637 -0.05793593 0.4068204 205 205 205
0.1957747 -0.04760672 0.377569 205 205 205
0.1958192 -0.04683387 0.3753405 205 205 205
0.1958482 -0.0460604 0.3731161 205 205 205
0.1984846 -0.04525312 0.3704335 205 205 205
0.1995317 -0.04508034 0.3697985 205 205 205
-0.04063969 -0.03848031 0.454073 205 205 205
-0.03688529 -0.03985516 0.4555395 205 205 205
-0.03317912 -0.04365173 0.4647124 205 205 205
0.1689447 -0.05964486 0.4141726 205 205 205
0.168522 -0.0572328 0.4071013 205 205 205
0.1700695 -0.05641809 0.4043158 205 205 205
0.1716677 -0.05664739 0.4046214 205 205 205
0.1771159 -0.05583171 0.4009917 205 205 205
0.1782835 -0.05572418 0.4004239 205 205 205
0.1806123 -0.05550074 0.3992766 205 205 205
0.1838405 -0.05589984 0.3997796 205 205 205
0.185919 -0.05641061 0.400851 205 205 205
0.1880092 -0.0569171 0.4019116 205 205 205
0.1940946 -0.05917848 0.4073027 205 205 205
0.1988577 -0.06047191 0.4101538 205 205 205
0.2003114 -0.05954916 0.4072226 205 205 205
0.1930867 -0.05221323 0.387377 205 205 205
0.1927185 -0.05112728 0.3843236 205 205 205
0.1955184 -0.05035435 0.3816525 205 205 205
0.1955957 -0.04957513 0.3794182 205 205 205
0.1962696 -0.04675941 0.3713182 205 205 205
0.1988999 -0.0467279 0.3708507 205 205 205
-0.03750382 -0.04166785 0.4570334 205 205 205
0.1805275 -0.07279751 0.4457797 205 205 205
0.1712035 -0.06287488 0.4188978 205 205 205
0.1704223 -0.06116751 0.4140709 205 205 205
0.1703446 -0.05798725 0.4047627 205 205 205
0.1719465 -0.05821971 0.4050655 205 205 205
0.1750664 -0.05760516 0.402556 205 205 205
0.1762419 -0.05750258 0.4019944 205 205 205
0.1765435 -0.05675267 0.3997484 205 205 205
0.1800312 -0.05642163 0.3980387 205 205 205
0.184414 -0.05670587 0.3979538 205 205 205
0.197694 -0.05737842 0.3973612 205 205 205
0.1954165 -0.05501251 0.3910401 205 205 205
0.1955383 -0.0499818 0.3768026 205 205 205
0.1966146 -0.04981882 0.3761757 205 205 205
0.1966528 -0.04902871 0.3739525 205 205 205
0.1966754 -0.04823798 0.3717335 205 205 205
0.1977315 -0.04806909 0.3711038 205 205 205
0.1998368 -0.04772333 0.3698339 205 205 205
0.2014204 -0.04785603 0.36998 205 205 205
0.2040593 -0.04780163 0.3694672 205 205 205
-0.04304677 -0.04145199 0.4559228 205 205 205
-0.041722 -0.04183488 0.4561059 205 205 205
-0.03774072 -0.04296738 0.4566267 205 205 205
-0.03637499 -0.04556365 0.4635747 205 205 205
0.1793342 -0.07215136 0.4395851 205 205 205
0.1746569 -0.06713382 0.4261696 205 205 205
0.1714831 -0.06129107 0.4099987 205 205 205
0.1729905 -0.05937535 0.4041038 205 205 205
0.1741741 -0.05927781 0.4035486 205 205 205
0.1749271 -0.05885081 0.402147 205 205 205
0.1761032 -0.05874795 0.4015855 205 205 205
0.1764062 -0.05799025 0.3993419 205 205 205
0.1775713 -0.05788236 0.398776 205 205 205
0.1787345 -0.05777167 0.3982062 205 205 205
0.185439 -0.05782329 0.3969526 205 205 205
0.1875232 -0.05834138 0.3980063 205 205 205
0.1891523 -0.05853229 0.3982256 205 205 205
0.1963995 -0.05879054 0.3975809 205 205 205
0.1980494 -0.05896018 0.3977586 205 205 205
0.1955646 -0.05466312 0.3861441 205 205 205
0.1964397 -0.05180047 0.3780108 205 205 205
0.1981391 -0.04955229 0.3715105 205 205 205
0.2018392 -0.04933987 0.3703799 205 205 205
0.2039446 -0.04897498 0.3690809 205 205 205
-0.04103506 -0.04404024 0.4577598 205 205 205
-0.03989683 -0.04468596 0.4588778 205 205 205
-0.03797312 -0.04651065 0.4629919 205 205 205
-0.03958492 -0.05118575 0.4782773 205 205 205
0.1725687 -0.06355384 0.4121254 205 205 205
0.1744571 -0.06085625 0.4039764 205 205 205
0.1752146 -0.06042494 0.4025744 205 205 205
0.1759631 -0.05999139 0.4011718 205 205 205
0.1783105 -0.05977646 0.4000372 205 205 205
0.1802041 -0.05922157 0.3980542 205 205 205
0.1809182 -0.05877622 0.3966439 205 205 205
0.1929791 -0.05969345 0.3967851 205 205 205
0.19414 -0.05954904 0.3961619 205 205 205
0.1974287 -0.05989944 0.3965265 205 205 205
0.198761 -0.05894267 0.3936307 205 205 205
0.196554 -0.05572358 0.385109 205 205 205
0.1971648 -0.0552419 0.3836744 205 205 205
0.1972594 -0.05443734 0.38144 205 205 205
0.1984831 -0.05265836 0.3763494 205 205 205
0.1985216 -0.05184996 0.3741277 205 205 205
0.2006603 -0.05150342 0.3728495 205 205 205
0.2017261 -0.05132612 0.3722049 205 205 205
0.2033136 -0.05064709 0.3701232 205 205 205
-0.04092643 -0.04706822 0.4622283 205 205 205
0.1768917 -0.06961894 0.4241435 205 205 205
0.1754999 -0.0620045 0.4029947 205 205 205
0.1781702 -0.0610173 0.3996189 205 205 205
0.1788997 -0.06057255 0.3982126 205 205 205
0.1830945 -0.05976619 0.3950618 205 205 205
0.1842484 -0.05964078 0.3944727 205 205 205
0.194681 -0.06032427 0.394301 205 205 205
0.1990509 -0.05775434 0.3864674 205 205 205
0.1989202 -0.05335245 0.37452 205 205 205
0.2021363 -0.0528256 0.3725916 205 205 205
0.2032036 -0.05264457 0.3719417 205 205 205
0.2037318 -0.05214086 0.3705074 205 205 205
-0.04191849 -0.04718473 0.4587993 205 205 205
-0.02045655 -0.05650587 0.4715337 205 205 205
-0.01778197 -0.05748704 0.4726682 205 205 205
-0.01789596 -0.06132652 0.484132 205 205 205
0.184452 -0.0773938 0.4398116 205 205 205
0.1796446 -0.07220939 0.426504 205 205 205
0.1758641 -0.06470542 0.406491 205 205 205
0.1762103 -0.06392719 0.4042464 205 205 205
0.1777233 -0.06303993 0.4014358 205 205 205
0.18037 -0.06202859 0.3980459 205 205 205
0.1806412 -0.06123907 0.3958081 205 205 205
0.1817998 -0.06111894 0.3952268 205 205 205
0.1829564 -0.06099594 0.3946417 205 205 205
0.1880305 -0.06080921 0.3930807 205 205 205
0.1896523 -0.06100473 0.3932906 205 205 205
0.190327 -0.0605314 0.3918646 205 205 205
0.1940627 -0.06123753 0.3930649 205 205 205
0.1968513 -0.06126531 0.3926139 205 205 205
0.1991481 -0.06094992 0.3913371 205 205 205
0.2004296 -0.05996523 0.3884465 205 205 205
0.1997185 -0.05683716 0.3801438 205 205 205
0.2003562 -0.05551318 0.3764844 205 205 205
0.2036154 -0.05414846 0.3723196 205 205 205
0.2030753 -0.05299283 0.3693257 205 205 205
0.2030526 -0.05216094 0.3671179 205 205 205
-0.04350266 -0.04810251 0.4581892 205 205 205
-0.0439964 -0.05329533 0.4735865 205 205 205
-0.0256512 -0.05824892 0.4754933 205 205 205
-0.0148745 -0.05178586 0.4494945 205 205 205
-0.01432168 -0.05387693 0.4552563 205 205 205
-0.01397015 -0.0565683 0.4629104 205 205 205
-0.01487616 -0.06253749 0.4809837 205 205 205
0.186852 -0.07971895 0.4412619 205 205 205
0.178117 -0.06575657 0.404917 205 205 205
0.1791976 -0.06451443 0.4012654 205 205 205
0.1803804 -0.06440067 0.4006873 205 205 205
