ply
format ascii 1.0
comment Generated by Floating Hands
element vertex 1077
property double x
property double y
property double z
property uchar red
property uchar green
property uchar blue
end_header
0.1491448 -0.03671896 0.4144498 205 205 205
0.1499728 -0.03638023 0.4130764 205 205 205
0.1622885 -0.03586669 0.4088524 205 205 205
0.1873009 -0.03522794 0.4030567 205 205 205
0.1944057 -0.03361892 0.3969817 205 205 205
0.1970605 -0.03424007 0.3988059 205 205 205
0.1998685 -0.03416049 0.3983131 205 205 205
0.20268 -0.034068 0.3977967 205 205 205
0.2065435 -0.03448026 0.3988791 205 205 205
-0.04540442 -0.02167478 0.4560131 205 205 205
-0.03861083 -0.02315165 0.4559522 205 205 205
-0.03135326 -0.02387322 0.4528847 205 205 205
-0.02741234 -0.0248094 0.4532884 205 205 205
-0.02373512 -0.02618723 0.455576 205 205 205
0.135529 -0.04169795 0.4304508 205 205 205
0.1379963 -0.04048545 0.4255031 205 205 205
0.1398112 -0.03985137 0.4227993 205 205 205
0.1518711 -0.03723523 0.4108615 205 205 205
0.1530631 -0.03716327 0.4103638 205 205 205
0.1550485 -0.03673402 0.4084796 205 205 205
0.1585924 -0.03648691 0.4069422 205 205 205
0.16733 -0.03702074 0.4072084 205 205 205
0.1680816 -0.03664136 0.4057964 205 205 205
0.1750996 -0.03595827 0.4024147 205 205 205
0.1778787 -0.03598096 0.4021029 205 205 205
0.1920183 -0.03521685 0.3979069 205 205 205
0.2081302 -0.03585624 0.3986411 205 205 205
-0.04014103 -0.02413131 0.4554368 205 205 205
-0.03139759 -0.02494444 0.4515807 205 205 205
-0.02498152 -0.02672542 0.4531884 205 205 205
-0.02393675 -0.02749998 0.455228 205 205 205
-0.008155975 -0.03143653 0.4581812 205 205 205
-0.001118019 -0.03678209 0.4729242 205 205 205
0.001953489 -0.04262401 0.4923094 205 205 205
0.14006 -0.05622368 0.4750288 205 205 205
0.1369476 -0.04210335 0.4264908 205 205 205
0.148539 -0.03898183 0.412863 205 205 205
0.1624243 -0.03775261 0.4058844 205 205 205
0.1907703 -0.03664923 0.3981829 205 205 205
0.2008278 -0.03656152 0.3969343 205 205 205
-0.04957762 -0.02302604 0.4537709 205 205 205
-0.03307306 -0.02615725 0.4520481 205 205 205
-0.02504213 -0.02778951 0.4518768 205 205 205
0.135072 -0.04902644 0.4459676 205 205 205
0.1368184 -0.04340637 0.4261241 205 205 205
0.140456 -0.04210637 0.4207247 205 205 205
0.1448042 -0.04042616 0.4139415 205 205 205
0.1500659 -0.03954456 0.4097669 205 205 205
0.159954 -0.03919687 0.4065845 205 205 205
0.1693441 -0.03839265 0.4022631 205 205 205
0.1873955 -0.03767856 0.3974124 205 205 205
0.192616 -0.03661966 0.3934484 205 205 205
0.1975406 -0.03693428 0.3939693 205 205 205
0.1997042 -0.03730343 0.3949415 205 205 205
0.2075044 -0.03746232 0.3948013 205 205 205
0.2103818 -0.03660523 0.3919184 205 205 205
-0.04937262 -0.02388005 0.4515142 205 205 205
-0.04826979 -0.02445851 0.4526668 205 205 205
-0.04432817 -0.02550103 0.4532419 205 205 205
-0.0386994 -0.02638763 0.4520307 205 205 205
-0.03294987 -0.0269806 0.4497791 205 205 205
-0.02626717 -0.02829836 0.4494838 205 205 205
-0.01878351 -0.03082061 0.4530082 205 205 205
-0.01481336 -0.03168381 0.4532678 205 205 205
-0.01359589 -0.03221658 0.4543071 205 205 205
-0.009893877 -0.03380864 0.4573991 205 205 205
-0.003000091 -0.03953424 0.4730988 205 205 205
0.1354067 -0.04831792 0.4383512 205 205 205
0.1354458 -0.047127 0.4342941 205 205 205
0.1370152 -0.0449992 0.4266511 205 205 205
0.1419088 -0.04363866 0.4207888 205 205 205
0.1424464 -0.04300979 0.4185411 205 205 205
0.1511398 -0.04073123 0.4089147 205 205 205
0.1562859 -0.04071342 0.4077774 205 205 205
0.1610214 -0.04036349 0.4056974 205 205 205
0.1645532 -0.04007298 0.404095 205 205 205
0.1668982 -0.0398659 0.4030066 205 205 205
0.1759463 -0.03962392 0.4007636 205 205 205
0.1930172 -0.03815635 0.3939063 205 205 205
0.2107636 -0.03890263 0.3946425 205 205 205
-0.0445386 -0.02680371 0.4528825 205 205 205
-0.03298927 -0.02802844 0.4484655 205 205 205
-0.02267933 -0.03073827 0.4504258 205 205 205
-0.01886044 -0.03187211 0.4516852 205 205 205
-0.01501189 -0.03298753 0.452904 205 205 205
-0.01009275 -0.03512916 0.45703 205 205 205
-0.002147142 -0.0424968 0.4775557 205 205 205
0.1362572 -0.04934421 0.4366133 205 205 205
0.1510211 -0.04198585 0.4085499 205 205 205
0.1522119 -0.04191304 0.4080537 205 205 205
0.1534009 -0.04183755 0.4075534 205 205 205
0.1644406 -0.04132813 0.4037293 205 205 205
0.1667867 -0.04112045 0.4026411 205 205 205
0.1816306 -0.04021964 0.3974498 205 205 205
0.2050181 -0.04041907 0.3954237 205 205 205
-0.04005985 -0.02816724 0.4492353 205 205 205
-0.03875454 -0.02849921 0.4494006 205 205 205
-0.03562308 -0.02842676 0.4468535 205 205 205
-0.03302789 -0.02906711 0.4471488 205 205 205
-0.0265234 -0.03062318 0.4478058 205 205 205
-0.01906034 -0.03316879 0.4513184 205 205 205
0.1367494 -0.05128283 0.4380204 205 205 205
0.1485132 -0.04337692 0.4091604 205 205 205
0.1650778 -0.04218503 0.4019598 205 205 205
0.1748263 -0.04155936 0.3983367 205 205 205
0.1934514 -0.04022623 0.3917082 205 205 205
0.1995177 -0.04038229 0.3915437 205 205 205
0.2016899 -0.04076483 0.3924941 205 205 205
0.2083563 -0.04112723 0.3929823 205 205 205
-0.04138381 -0.02887552 0.4477473 205 205 205
-0.03989847 -0.02896595 0.4469643 205 205 205
-0.03860022 -0.02929659 0.4471284 205 205 205
-0.03712405 -0.02937899 0.4463347 205 205 205
-0.03548115 -0.0292104 0.4445819 205 205 205
-0.01039445 -0.03750105 0.4553165 205 205 205
-0.00277626 -0.04610285 0.4796343 205 205 205
-0.001942084 -0.04880657 0.4883058 205 205 205
0.137934 -0.05135948 0.4331227 205 205 205
0.1422113 -0.04809958 0.4214311 205 205 205
0.1446688 -0.04577899 0.4133471 205 205 205
0.1512038 -0.04381581 0.4055636 205 205 205
0.1630342 -0.04393374 0.4035217 205 205 205
0.1715079 -0.04246377 0.3974138 205 205 205
0.1758732 -0.04268056 0.3973842 205 205 205
0.177028 -0.04255051 0.3968026 205 205 205
0.1814163 -0.04272959 0.3967013 205 205 205
0.1850518 -0.04156493 0.392621 205 205 205
0.1999324 -0.04193121 0.3919716 205 205 205
0.201589 -0.04203466 0.3921123 205 205 205
-0.0484965 -0.02892657 0.4483587 205 205 205
-0.0469896 -0.02903356 0.4476034 205 205 205
-0.03439428 -0.03079885 0.4443628 205 205 205
-0.03181046 -0.03143262 0.4446459 205 205 205
-0.03067584 -0.03199967 0.4457345 205 205 205
-0.02459655 -0.03430612 0.4492075 205 205 205
-0.008184049 -0.04016946 0.4579198 205 205 205
-0.007004294 -0.04098234 0.4598863 205 205 205
-0.004124566 -0.0461436 0.4753529 205 205 205
-0.003273328 -0.04860184 0.4830589 205 205 205
0.1438665 -0.06259295 0.4628446 205 205 205
0.1405583 -0.05796241 0.448889 205 205 205
0.1387287 -0.05108688 0.4273389 205 205 205
0.1424233 -0.04969509 0.4219283 205 205 205
0.1593726 -0.04547022 0.4047316 205 205 205
0.1605559 -0.04537749 0.4042056 205 205 205
0.1613254 -0.04498001 0.4028161 205 205 205
0.1702392 -0.04382276 0.397599 205 205 205
0.1824608 -0.04383991 0.3957191 205 205 205
0.1831375 -0.04339959 0.3942854 205 205 205
0.1865685 -0.04295041 0.392453 205 205 205
0.2004491 -0.04272413 0.3901166 205 205 205
-0.04829178 -0.02971875 0.4460891 205 205 205
-0.03771297 -0.03217922 0.4465419 205 205 205
-0.03623745 -0.03225194 0.4457445 205 205 205
-0.02611235 -0.03528743 0.4487152 205 205 205
-0.01213543 -0.03984261 0.454482 205 205 205
-0.007293587 -0.0425854 0.460449 205 205 205
-0.00377544 -0.05112857 0.4864691 205 205 205
0.1386191 -0.0549457 0.4349975 205 205 205
0.1481423 -0.0471267 0.4080229 205 205 205
0.1537172 -0.04644988 0.4046746 205 205 205
0.1694023 -0.04548164 0.3986224 205 205 205
0.1818797 -0.04479028 0.3945034 205 205 205
0.2092588 -0.0439884 0.3888357 205 205 205
-0.04829359 -0.03074342 0.4447645 205 205 205
-0.03350955 -0.0336493 0.4437551 205 205 205
-0.03221632 -0.03396603 0.4438936 205 205 205
-0.006551024 -0.04558057 0.4648753 205 205 205
0.143206 -0.06228517 0.4520347 205 205 205
0.1391099 -0.05432758 0.428313 205 205 205
0.1397237 -0.05366135 0.4260731 205 205 205
0.1403215 -0.05299276 0.4238341 205 205 205
0.1412426 -0.0526356 0.4224829 205 205 205
0.1441302 -0.05055549 0.4153004 205 205 205
0.1451375 -0.04918885 0.4108306 205 205 205
0.1496501 -0.0476092 0.404912 205 205 205
0.1520213 -0.04745909 0.4039217 205 205 205
0.1665244 -0.04664114 0.3984935 205 205 205
0.1806171 -0.04617731 0.3947127 205 205 205
0.1829178 -0.04588975 0.3935111 205 205 205
0.1840647 -0.04574192 0.3929044 205 205 205
0.1904016 -0.04449822 0.3883689 205 205 205
0.1985903 -0.0451256 0.3891922 205 205 205
-0.04958291 -0.03140895 0.4432425 205 205 205
-0.04145447 -0.03295527 0.4424459 205 205 205
-0.03354544 -0.03464955 0.4424217 205 205 205
-0.009951183 -0.04329267 0.4547629 205 205 205
-0.006756895 -0.04692902 0.4644625 205 205 205
0.1395844 -0.05496461 0.4256619 205 205 205
0.1418839 -0.05224567 0.4167222 205 205 205
0.1441535 -0.05081696 0.4117879 205 205 205
0.1463214 -0.0493678 0.4068504 205 205 205
0.1601933 -0.04911945 0.4030369 205 205 205
0.1625578 -0.04892404 0.4019732 205 205 205
0.1784229 -0.04694468 0.3932515 205 205 205
0.182332 -0.04682542 0.3922913 205 205 205
0.1864077 -0.04591303 0.3890307 205 205 205
0.1875395 -0.04575485 0.3884123 205 205 205
0.2079767 -0.04593001 0.3864574 205 205 205
-0.03521091 -0.03585392 0.4428409 205 205 205
-0.0278877 -0.03855172 0.4464789 205 205 205
-0.01034677 -0.04516705 0.4562656 205 205 205
-0.006065331 -0.05026827 0.4698113 205 205 205
0.1426343 -0.05314409 0.4149663 205 205 205
0.1501551 -0.05071928 0.4058627 205 205 205
0.1529554 -0.04984982 0.402634 205 205 205
0.1553181 -0.04968247 0.4016197 205 205 205
0.1568967 -0.04991264 0.4019662 205 205 205
0.1739468 -0.04795602 0.3929352 205 205 205
0.1833636 -0.04791403 0.3912889 205 205 205
0.1940714 -0.04676362 0.3864789 205 205 205
-0.04850411 -0.03402228 0.4417162 205 205 205
-0.04039187 -0.03553788 0.4408879 205 205 205
-0.03781948 -0.03619584 0.4412034 205 205 205
-0.03185609 -0.03861292 0.4447575 205 205 205
-0.02547062 -0.04043882 0.4463068 205 205 205
-0.02429763 -0.04101937 0.4473636 205 205 205
-0.01661823 -0.04335201 0.4498091 205 205 205
-0.01190503 -0.04619971 0.4557958 205 205 205
-0.008377781 -0.04876452 0.4616711 205 205 205
-0.006193186 -0.05134563 0.468427 205 205 205
0.147962 -0.07036863 0.4608861 205 205 205
0.1401513 -0.0558548 0.4194791 205 205 205
0.1520298 -0.05148451 0.4035992 205 205 205
0.1528291 -0.051082 0.4022336 205 205 205
0.1634922 -0.05130595 0.4006328 205 205 205
0.1731292 -0.04962772 0.3939435 205 205 205
0.1834329 -0.04837082 0.3886392 205 205 205
0.1900739 -0.04819973 0.387178 205 205 205
-0.04593538 -0.03570583 0.4407502 205 205 205
-0.02054817 -0.04319318 0.4472486 205 205 205
-0.01427106 -0.04549946 0.4504941 205 205 205
-0.007123852 -0.06093103 0.493742 205 205 205
0.1397624 -0.05816364 0.4221694 205 205 205
0.1530901 -0.05263842 0.4026904 205 205 205
0.1546691 -0.0528811 0.4030441 205 205 205
0.1594127 -0.0525203 0.4009716 205 205 205
0.1641263 -0.05211601 0.3988352 205 205 205
0.1652998 -0.05200816 0.3982911 205 205 205
0.1695362 -0.05122762 0.3952361 205 205 205
0.1718543 -0.05098274 0.3941081 205 205 205
0.1764657 -0.05046042 0.3918052 205 205 205
0.1771509 -0.05000398 0.3903925 205 205 205
0.1894652 -0.04911532 0.3859627 205 205 205
0.1917159 -0.04877739 0.3846999 205 205 205
0.2005723 -0.04812887 0.3817437 205 205 205
-0.04425705 -0.03648904 0.437703 205 205 205
-0.03080376 -0.04117919 0.4431316 205 205 205
-0.01690717 -0.04563443 0.4480346 205 205 205
-0.01592221 -0.04679431 0.450958 205 205 205
-0.01458415 -0.04708115 0.4510275 205 205 205
-0.008882823 -0.05172781 0.4617647 205 205 205
-0.007934005 -0.05348928 0.4665625 205 205 205
0.143263 -0.05549411 0.4092785 205 205 205
0.1505807 -0.05402932 0.4032805 205 205 205
0.1620605 -0.05388526 0.4003491 205 205 205
0.1655992 -0.05356785 0.3987242 205 205 205
0.1701338 -0.05200876 0.3934276 205 205 205
0.181399 -0.05144015 0.3898517 205 205 205
0.1861121 -0.05002949 0.3851773 205 205 205
0.1888558 -0.05002172 0.3847452 205 205 205
0.1993487 -0.0495474 0.3819964 205 205 205
0.2048652 -0.04939072 0.3808881 205 205 205
-0.0355092 -0.04003801 0.4384074 205 205 205
-0.02986282 -0.04303687 0.4437898 205 205 205
-0.02608418 -0.04425109 0.4450791 205 205 205
-0.02477092 -0.04455553 0.4451844 205 205 205
-0.009365527 -0.05396042 0.464176 205 205 205
0.1460321 -0.05588086 0.4056867 205 205 205
0.148061 -0.0554086 0.4038497 205 205 205
0.149256 -0.05533575 0.4033593 205 205 205
0.1532182 -0.05543448 0.4027232 205 205 205
0.1544097 -0.0553505 0.4022151 205 205 205
0.1563888 -0.05484169 0.4003323 205 205 205
0.1587519 -0.05465519 0.3992914 205 205 205
0.1599307 -0.05455786 0.3987649 205 205 205
0.1626987 -0.05468628 0.398547 205 205 205
0.1638753 -0.05458046 0.398007 205 205 205
0.1657958 -0.05403038 0.3960733 205 205 205
0.1739235 -0.05317762 0.3921401 205 205 205
0.1750763 -0.05304495 0.3915626 205 205 205
0.1808087 -0.0523407 0.3886171 205 205 205
0.1832573 -0.05123797 0.3851757 205 205 205
0.1893664 -0.05075136 0.3829001 205 205 205
-0.04763916 -0.03883093 0.4384143 205 205 205
-0.04045791 -0.03941106 0.4355127 205 205 205
-0.0382784 -0.04063038 0.4377053 205 205 205
-0.03364921 -0.04277494 0.4411027 205 205 205
-0.02991218 -0.04400981 0.4424282 205 205 205
-0.02745337 -0.04491983 0.4436051 205 205 205
-0.02614435 -0.04522654 0.4437143 205 205 205
-0.02221224 -0.04613085 0.4440143 205 205 205
-0.01376074 -0.05024762 0.4511883 205 205 205
-0.01058865 -0.05380961 0.4598886 205 205 205
0.1488487 -0.07469103 0.4544239 205 205 205
0.1416618 -0.06440154 0.4270254 205 205 205
0.1462627 -0.05745316 0.4061319 205 205 205
0.1494993 -0.05690295 0.4038014 205 205 205
0.1703284 -0.054783 0.3934298 205 205 205
0.1958548 -0.05172883 0.380888 205 205 205
0.1986026 -0.05167678 0.3803705 205 205 205
0.2019324 -0.05109472 0.3783754 205 205 205
-0.03385544 -0.04402581 0.4406841 205 205 205
-0.03239346 -0.04405373 0.4398727 205 205 205
-0.02881408 -0.0455775 0.4421251 205 205 205
-0.0237282 -0.04709442 0.4434952 205 205 205
-0.02110358 -0.0476904 0.4436808 205 205 205
-0.009972628 -0.05725874 0.4651719 205 205 205
0.1441678 -0.06987841 0.4375971 205 205 205
0.1435594 -0.05990541 0.4097453 205 205 205
0.1444238 -0.05950224 0.4083995 205 205 205
0.1545478 -0.05704436 0.399148 205 205 205
0.1667106 -0.05636415 0.3946793 205 205 205
0.1674437 -0.05591013 0.3932894 205 205 205
0.175983 -0.05535103 0.3901387 205 205 205
0.1771327 -0.05521212 0.3895537 205 205 205
0.1794256 -0.05492609 0.388372 205 205 205
0.1823704 -0.05414502 0.3857575 205 205 205
0.1886368 -0.05284679 0.3812608 205 205 205
-0.04721712 -0.04018053 0.4338386 205 205 205
-0.03758841 -0.04372102 0.4379607 205 205 205
-0.03630121 -0.04404601 0.4381046 205 205 205
-0.03518587 -0.0446607 0.4391844 205 205 205
-0.01428036 -0.05313665 0.4512591 205 205 205
0.1415659 -0.06449033 0.4190444 205 205 205
0.1480283 -0.05943703 0.4034359 205 205 205
0.1615425 -0.0588163 0.3986498 205 205 205
0.1786212 -0.05662458 0.389356 205 205 205
0.1797705 -0.05647938 0.3887616 205 205 205
0.1806394 -0.05517358 0.3851198 205 205 205
0.1945945 -0.05349969 0.3784556 205 205 205
-0.02516373 -0.04870383 0.4406496 205 205 205
-0.01448728 -0.05442818 0.4508129 205 205 205
-0.01039903 -0.05995 0.4642469 205 205 205
0.1429231 -0.06204415 0.4080004 205 205 205
0.1482623 -0.06101369 0.4038602 205 205 205
0.149911 -0.06016484 0.4011553 205 205 205
0.1519101 -0.05965512 0.3993005 205 205 205
0.1586319 -0.05989847 0.3984296 205 205 205
0.1633578 -0.05948643 0.3962947 205 205 205
0.1645344 -0.05937658 0.395751 205 205 205
0.170667 -0.05797313 0.3907501 205 205 205
0.1745807 -0.0579218 0.3898587 205 205 205
0.1796462 -0.05769779 0.3883278 205 205 205
0.1839094 -0.05591462 0.3828776 205 205 205
0.1888988 -0.05559182 0.3812074 205 205 205
0.1955867 -0.05451903 0.3773789 205 205 205
0.1983217 -0.05447123 0.3768568 205 205 205
-0.04911504 -0.04256634 0.4337471 205 205 205
-0.03947454 -0.04616321 0.4378948 205 205 205
-0.0200167 -0.05083324 0.4396371 205 205 205
-0.0145851 -0.05540318 0.4494186 205 205 205
0.1415055 -0.06592909 0.41505 205 205 205
0.1420644 -0.06516682 0.4128392 205 205 205
0.1427803 -0.06328201 0.4075559 205 205 205
0.144859 -0.06280357 0.4057371 205 205 205
0.1457083 -0.06238378 0.4043928 205 205 205
0.1477515 -0.06189005 0.4025597 205 205 205
0.1600893 -0.0613725 0.3983054 205 205 205
0.1774436 -0.05837149 0.3868505 205 205 205
0.1865294 -0.05713383 0.3820187 205 205 205
0.19436 -0.05590757 0.3775925 205 205 205
-0.0491083 -0.04349571 0.4323863 205 205 205
-0.04256352 -0.04490715 0.4323175 205 205 205
-0.03692161 -0.04775595 0.4368135 205 205 205
-0.03580704 -0.04838321 0.4378886 205 205 205
-0.03175901 -0.04903648 0.4373392 205 205 205
0.141699 -0.06754943 0.4154602 205 205 205
0.145203 -0.06325457 0.4030859 205 205 205
0.1476113 -0.0631136 0.4021146 205 205 205
0.1551931 -0.06182352 0.3968946 205 205 205
0.1599535 -0.0625968 0.3978595 205 205 205
0.1654446 -0.06170384 0.3943198 205 205 205
0.1698298 -0.06204975 0.3943121 205 205 205
0.173169 -0.06048355 0.389556 205 205 205
0.1807421 -0.05913418 0.384627 205 205 205
0.1876621 -0.05731388 0.3787399 205 205 205
-0.04953368 -0.04500783 0.4328838 205 205 205
-0.03601481 -0.04962005 0.4374467 205 205 205
-0.02055335 -0.05363902 0.43969 205 205 205
-0.01165388 -0.06108798 0.4552481 205 205 205
0.144681 -0.07805898 0.4386736 205 205 205
0.1420403 -0.07217167 0.4237637 205 205 205
0.1421141 -0.06803581 0.4127886 205 205 205
0.1423144 -0.06689462 0.4097185 205 205 205
0.1424913 -0.0657517 0.4066526 205 205 205
0.1486719 -0.06426027 0.4011732 205 205 205
0.1506895 -0.06374267 0.3993261 205 205 205
0.1534795 -0.06276806 0.3961135 205 205 205
0.1629561 -0.06314541 0.3949617 205 205 205
0.1669122 -0.06315999 0.3941508 205 205 205
0.1781138 -0.06148796 0.3875928 205 205 205
0.1902713 -0.05850641 0.377838 205 205 205
0.1913853 -0.05832811 0.3772041 205 205 205
0.195747 -0.05846407 0.3768482 205 205 205
-0.04081858 -0.04861514 0.4336233 205 205 205
-0.030878 -0.05181885 0.4365707 205 205 205
-0.02844108 -0.05275623 0.4377321 205 205 205
-0.02220027 -0.05490878 0.4400923 205 205 205
-0.01609384 -0.05766091 0.4442205 205 205 205
-0.01272147 -0.06047286 0.450027 205 205 205
0.1422177 -0.07383268 0.4241506 205 205 205
0.1417386 -0.07044058 0.4153918 205 205 205
0.144917 -0.06569675 0.4021816 205 205 205
0.1572812 -0.06405524 0.3949598 205 205 205
0.1604566 -0.06457526 0.3955829 205 205 205
0.1667767 -0.06437829 0.3936961 205 205 205
0.180015 -0.06118693 0.382926 205 205 205
0.1858047 -0.05951902 0.377678 205 205 205
0.1885314 -0.0595272 0.3772291 205 205 205
0.190148 -0.05970116 0.3773914 205 205 205
0.1995585 -0.05764976 0.3707821 205 205 205
-0.04951787 -0.04683515 0.4301457 205 205 205
-0.04825345 -0.04718281 0.4303261 205 205 205
-0.04012239 -0.05078881 0.4351903 205 205 205
-0.02357915 -0.05553214 0.4386103 205 205 205
-0.01618479 -0.05859536 0.4428182 205 205 205
-0.01177538 -0.06270456 0.4514777 205 205 205
0.1417507 -0.07628558 0.426744 205 205 205
0.1432519 -0.0693189 0.4083124 205 205 205
0.1492107 -0.0662516 0.3989138 205 205 205
0.1532012 -0.06517985 0.3952089 205 205 205
0.1559609 -0.06535998 0.3950244 205 205 205
0.1762393 -0.06369314 0.3864607 205 205 205
0.179217 -0.0628935 0.3838772 205 205 205
0.1798859 -0.06238366 0.3824737 205 205 205
0.1828029 -0.06155558 0.3798628 205 205 205
0.1988758 -0.05938349 0.3717684 205 205 205
-0.04486463 -0.04972997 0.4313216 205 205 205
-0.04231763 -0.05040528 0.4316424 205 205 205
-0.03793442 -0.05299129 0.4359546 205 205 205
-0.03664014 -0.05331847 0.4360919 205 205 205
-0.03404868 -0.05396495 0.4363528 205 205 205
-0.02755364 -0.05553492 0.4369254 205 205 205
-0.01303531 -0.06270806 0.4481381 205 205 205
0.151458 -0.06729805 0.3974516 205 205 205
0.1601779 -0.06700183 0.3946615 205 205 205
0.1649 -0.06655969 0.3924969 205 205 205
0.1660756 -0.06644221 0.3919459 205 205 205
0.1676791 -0.06668811 0.3922163 205 205 205
0.1711983 -0.06630948 0.3905232 205 205 205
0.1730867 -0.06567885 0.3885582 205 205 205
0.1788718 -0.06496633 0.3856286 205 205 205
0.1815464 -0.06290536 0.380013 205 205 205
0.1883898 -0.06101463 0.3741219 205 205 205
0.1927236 -0.06118231 0.3737917 205 205 205
-0.04144315 -0.05226851 0.4322699 205 205 205
-0.03572759 -0.05519443 0.4366935 205 205 205
-0.03425715 -0.05519476 0.4358907 205 205 205
-0.02776057 -0.05676731 0.4364617 205 205 205
-0.02268356 -0.05830872 0.4377702 205 205 205
-0.01527015 -0.06139382 0.441937 205 205 205
0.1432057 -0.08581106 0.4428151 205 205 205
0.1413577 -0.07578322 0.4178747 205 205 205
0.1536987 -0.06833024 0.3959692 205 205 205
0.1619872 -0.06762467 0.3922892 205 205 205
0.1647606 -0.06776858 0.3920297 205 205 205
0.1659366 -0.06765071 0.3914788 205 205 205
0.1694528 -0.06728049 0.3898028 205 205 205
0.1717867 -0.06701972 0.3886659 205 205 205
0.1823724 -0.06482121 0.381152 205 205 205
0.1846407 -0.06449571 0.3799305 205 205 205
0.1937032 -0.06217817 0.3726911 205 205 205
-0.04718976 -0.05051339 0.4272979 205 205 205
-0.0446685 -0.05119523 0.4276322 205 205 205
-0.03593735 -0.05642518 0.4362255 205 205 205
-0.02144802 -0.05950626 0.4364487 205 205 205
-0.01668809 -0.06202098 0.4404649 205 205 205
-0.01436788 -0.06361266 0.4433815 205 205 205
0.139922 -0.08180773 0.4296508 205 205 205
0.1386541 -0.07872012 0.4222476 205 205 205
0.1408633 -0.07667495 0.4165168 205 205 205
0.1441989 -0.07454663 0.4103071 205 205 205
0.1491515 -0.07025741 0.3983598 205 205 205
0.1511687 -0.06971345 0.3965138 205 205 205
0.1535544 -0.06953631 0.395498 205 205 205
0.155138 -0.06982026 0.3958229 205 205 205
0.1598942 -0.06942016 0.3937219 205 205 205
0.1610785 -0.06931318 0.3931868 205 205 205
0.1804326 -0.06669834 0.3826926 205 205 205
0.1815762 -0.06654158 0.3820896 205 205 205
0.1827176 -0.06638205 0.3814829 205 205 205
0.1875254 -0.06390899 0.374616 205 205 205
-0.03224184 -0.05861929 0.4361215 205 205 205
-0.02412418 -0.05980311 0.4348749 205 205 205
-0.01916571 -0.06166362 0.4370551 205 205 205
-0.01160082 -0.07467559 0.4663922 205 205 205
-0.01135234 -0.07949455 0.4785552 205 205 205
0.1400078 -0.08508441 0.4339395 205 205 205
0.138473 -0.08158471 0.4256694 205 205 205
0.1387648 -0.07722378 0.414765 205 205 205
0.146482 -0.07284263 0.4019041 205 205 205
0.1493788 -0.07184781 0.3987272 205 205 205
0.15816 -0.07035133 0.3929438 205 205 205
0.1644779 -0.07018004 0.3910816 205 205 205
0.1703426 -0.06955937 0.3882892 205 205 205
0.1842037 -0.06778475 0.3811942 205 205 205
0.1872698 -0.06599835 0.3763458 205 205 205
0.1873954 -0.06508682 0.3741497 205 205 205
0.1880064 -0.06454208 0.3727409 205 205 205
0.1967527 -0.06395556 0.3698137 205 205 205
-0.04528965 -0.05390953 0.4276322 205 205 205
-0.03969437 -0.05689948 0.4320901 205 205 205
-0.03505665 -0.05920542 0.4354021 205 205 205
-0.03375448 -0.05952774 0.4355247 205 205 205
-0.02592227 -0.06140569 0.4361649 205 205 205
0.1470163 -0.09891194 0.4621352 205 205 205
0.1398738 -0.07843 0.413795 205 205 205
0.1475482 -0.07398634 0.4009259 205 205 205
0.1647558 -0.071764 0.3914236 205 205 205
0.1655121 -0.07126375 0.3900501 205 205 205
0.1753109 -0.07058959 0.3863133 205 205 205
0.1790141 -0.06924246 0.3823406 205 205 205
0.1824476 -0.06876965 0.3805324 205 205 205
0.1869943 -0.06810023 0.3780688 205 205 205
0.1922899 -0.06497775 0.3697419 205 205 205
0.1993739 -0.06415688 0.3666003 205 205 205
-0.03898475 -0.05911115 0.4336005 205 205 205
-0.02874557 -0.06201803 0.4354851 205 205 205
-0.02482199 -0.06293839 0.4357701 205 205 205
-0.02351245 -0.06323981 0.4358559 205 205 205
-0.02233669 -0.06388488 0.4368657 205 205 205
-0.01875901 -0.06581412 0.43987 205 205 205
0.136545 -0.08061091 0.416405 205 205 205
0.1368449 -0.07939176 0.4133615 205 205 205
0.1465408 -0.07566673 0.4017727 205 205 205
0.1506623 -0.07457194 0.3980954 205 205 205
0.1680198 -0.0713223 0.3862604 205 205 205
0.1707851 -0.07144281 0.3859427 205 205 205
0.183931 -0.07017442 0.3802322 205 205 205
0.1862121 -0.06983783 0.3789969 205 205 205
0.1965376 -0.06536377 0.3666817 205 205 205
-0.04676233 -0.05562359 0.4256036 205 205 205
-0.04159266 -0.05932376 0.4319091 205 205 205
-0.04030248 -0.05965858 0.432053 205 205 205
-0.03547792 -0.06165315 0.4344313 205 205 205
-0.0340058 -0.06163473 0.4336288 205 205 205
-0.0210986 -0.06506293 0.4355227 205 205 205
-0.01168745 -0.07656419 0.4592209 205 205 205
-0.01083213 -0.07900692 0.4648263 205 205 205
0.1398636 -0.09309733 0.441928 205 205 205
0.1363743 -0.08349419 0.4197952 205 205 205
0.141063 -0.07964278 0.4092684 205 205 205
0.1455215 -0.07735033 0.4026108 205 205 205
0.1505104 -0.07578126 0.3976013 205 205 205
0.1525402 -0.07521414 0.3957492 205 205 205
0.168311 -0.07289907 0.3865871 205 205 205
0.1893172 -0.06730944 0.3692881 205 205 205
0.1926097 -0.06674397 0.3673812 205 205 205
-0.05075192 -0.05576738 0.4246098 205 205 205
-0.03421604 -0.06285237 0.4331372 205 205 205
-0.03291585 -0.06317271 0.4332539 205 205 205
-0.02143858 -0.06664353 0.4359522 205 205 205
-0.01675242 -0.0695963 0.4408446 205 205 205
-0.01068067 -0.07889834 0.4605732 205 205 205
0.1355693 -0.08396903 0.4175506 205 205 205
0.1402208 -0.08008555 0.4070536 205 205 205
0.1474533 -0.07802428 0.4002807 205 205 205
0.153202 -0.07593014 0.3939068 205 205 205
0.1669969 -0.07421824 0.3866547 205 205 205
0.1709393 -0.07421566 0.3857709 205 205 205
0.1772091 -0.07389098 0.3836647 205 205 205
0.1820323 -0.07233512 0.3790731 205 205 205
0.1930508 -0.06733073 0.3654926 205 205 205
0.1963059 -0.06673283 0.3635489 205 205 205
-0.04654257 -0.05935552 0.4275582 205 205 205
-0.04310804 -0.06106245 0.4298616 205 205 205
-0.03590049 -0.06409225 0.433441 205 205 205
-0.009388676 -0.08014481 0.4591317 205 205 205
0.1425535 -0.08119304 0.4055884 205 205 205
0.1610171 -0.07730913 0.3919024 205 205 205
0.1661051 -0.07592821 0.3875274 205 205 205
0.171234 -0.07580093 0.3860794 205 205 205
0.1872203 -0.07133023 0.3725295 205 205 205
0.1895549 -0.07001325 0.3690948 205 205 205
-0.04930095 -0.05985314 0.4267341 205 205 205
-0.04460458 -0.06192403 0.4292144 205 205 205
-0.04222727 -0.0629497 0.4304304 205 205 205
-0.01729244 -0.07245358 0.4407412 205 205 205
-0.00818686 -0.08835575 0.4743404 205 205 205
0.1381086 -0.1033849 0.455097 205 205 205
0.1357232 -0.09807426 0.4433762 205 205 205
0.1325755 -0.08823015 0.4212931 205 205 205
0.1345953 -0.08401405 0.410898 205 205 205
0.1411452 -0.08248207 0.4055492 205 205 205
0.1459155 -0.08052432 0.3997561 205 205 205
0.1548739 -0.0790305 0.3940441 205 205 205
0.1572761 -0.07883052 0.3929965 205 205 205
0.1632484 -0.07828061 0.3903083 205 205 205
0.1722572 -0.07685608 0.3850001 205 205 205
0.1833691 -0.07492799 0.3782541 205 205 205
0.1870816 -0.07249887 0.3720352 205 205 205
0.192209 -0.07021596 0.3659281 205 205 205
0.1933498 -0.06905287 0.363118 205 205 205
-0.03337968 -0.06645709 0.4308304 205 205 205
-0.0244158 -0.06899184 0.4324328 205 205 205
-0.01860234 -0.07267143 0.4383167 205 205 205
0.1327322 -0.1015498 0.4485124 205 205 205
0.1319984 -0.09451238 0.4324405 205 205 205
0.131178 -0.08786374 0.4173135 205 205 205
0.1353714 -0.0847956 0.409061 205 205 205
0.1491397 -0.07978365 0.3939137 205 205 205
0.1519256 -0.08001304 0.3937339 205 205 205
0.1571218 -0.08002929 0.3924847 205 205 205
0.1809308 -0.07644061 0.3789669 205 205 205
0.1856735 -0.07480705 0.3743349 205 205 205
0.1869415 -0.07366534 0.3715364 205 205 205
0.1886748 -0.07290868 0.3695095 205 205 205
0.1964567 -0.06958915 0.3606818 205 205 205
-0.05285148 -0.0601309 0.4224764 205 205 205
-0.04523151 -0.06467279 0.4291228 205 205 205
-0.04174306 -0.066403 0.431393 205 205 205
-0.03765978 -0.06704797 0.4308783 205 205 205
-0.03229197 -0.06798176 0.4304312 205 205 205
-0.02723923 -0.06959505 0.4317473 205 205 205
-0.01783653 -0.07531596 0.4406121 205 205 205
-0.01547593 -0.07701761 0.4434769 205 205 205
-0.006597483 -0.09626069 0.4842562 205 205 205
0.1297561 -0.09293061 0.4258442 205 205 205
0.1310647 -0.08743194 0.4128986 205 205 205
0.154173 -0.08101801 0.3921904 205 205 205
0.163714 -0.08014689 0.3879195 205 205 205
0.164898 -0.08002519 0.3873682 205 205 205
0.1716656 -0.08018219 0.3861574 205 205 205
0.1807847 -0.07762217 0.3784564 205 205 205
0.1819335 -0.07745826 0.3778492 205 205 205
0.1902461 -0.07329855 0.3669763 205 205 205
0.1919349 -0.07251983 0.3649376 205 205 205
-0.04286443 -0.06655584 0.4289084 205 205 205
-0.04046821 -0.06758863 0.4301015 205 205 205
-0.02875556 -0.07049529 0.4311372 205 205 205
-0.02512041 -0.07215604 0.4332368 205 205 205
-0.02156332 -0.07417565 0.4362169 205 205 205
-0.01670284 -0.07685355 0.4401315 205 205 205
-0.01557885 -0.07789733 0.4420187 205 205 205
-0.006499305 -0.08855939 0.4624805 205 205 205
0.1194255 -0.1043185 0.4512669 205 205 205
0.1193508 -0.1018239 0.445611 205 205 205
0.12766 -0.09340639 0.4240038 205 205 205
0.1394024 -0.08620907 0.4044426 205 205 205
0.1415542 -0.08566989 0.4026494 205 205 205
0.1519928 -0.08281241 0.3935257 205 205 205
0.1783323 -0.07912163 0.3791442 205 205 205
0.1813128 -0.07823399 0.3765513 205 205 205
0.1831171 -0.07749572 0.3745502 205 205 205
0.1867816 -0.07501083 0.36836 205 205 205
0.1906981 -0.0738626 0.3650739 205 205 205
0.1940252 -0.07228016 0.3609913 205 205 205
-0.05058712 -0.06531038 0.4265397 205 205 205
-0.04694674 -0.06672122 0.4279404 205 205 205
-0.04565804 -0.06706796 0.4280953 205 205 205
-0.03956861 -0.0694888 0.4306282 205 205 205
-0.03384273 -0.06970035 0.4283724 205 205 205
-0.02912119 -0.07207335 0.4315306 205 205 205
-0.02310519 -0.07510258 0.4356147 205 205 205
-0.02070161 -0.07645559 0.4375857 205 205 205
-0.006151372 -0.08718293 0.4554731 205 205 205
0.1144204 -0.1047963 0.450142 205 205 205
0.1150047 -0.0985311 0.4358349 205 205 205
0.1153738 -0.0968568 0.4319495 205 205 205
0.1189272 -0.09602669 0.4289981 205 205 205
0.1232055 -0.09431514 0.4238706 205 205 205
0.137061 -0.08795918 0.4056872 205 205 205
0.1456307 -0.08576452 0.3984998 205 205 205
0.1558418 -0.08413076 0.3922679 205 205 205
0.1570472 -0.08402777 0.391741 205 205 205
0.1634049 -0.08252209 0.3868777 205 205 205
0.1795492 -0.07916416 0.3758553 205 205 205
0.1818322 -0.07883383 0.3746451 205 205 205
0.1922334 -0.07421813 0.3625315 205 205 205
0.1960477 -0.0730066 0.3591889 205 205 205
-0.05290681 -0.06507025 0.4238604 205 205 205
-0.05080104 -0.0664988 0.4260218 205 205 205
-0.04329055 -0.06894874 0.4278699 205 205 205
-0.04219164 -0.06965318 0.4289216 205 205 205
-0.04089468 -0.06999073 0.4290586 205 205 205
-0.03829768 -0.07065771 0.4293189 205 205 205
-0.03569669 -0.0713139 0.4295613 205 205 205
-0.03309188 -0.07195923 0.4297856 205 205 205
-0.01859985 -0.07942746 0.4399121 205 205 205
-0.01736522 -0.08010489 0.440881 205 205 205
-0.01015824 -0.08569641 0.4502677 205 205 205
0.1106726 -0.09979013 0.4364282 205 205 205
0.1130791 -0.09686685 0.4291588 205 205 205
0.1139276 -0.09602749 0.4270267 205 205 205
0.1152706 -0.0960345 0.4266315 205 205 205
0.1166123 -0.09603844 0.4262319 205 205 205
0.1190252 -0.09561234 0.4245541 205 205 205
0.1203593 -0.09560706 0.4241423 205 205 205
0.1224676 -0.09473791 0.4215823 205 205 205
0.1327922 -0.09064159 0.4095179 205 205 205
0.1350172 -0.0901275 0.4077589 205 205 205
0.1405322 -0.08724986 0.3998994 205 205 205
0.1445906 -0.08746479 0.399288 205 205 205
0.1496252 -0.08579761 0.3943111 205 205 205
0.1759577 -0.08080752 0.3771212 205 205 205
0.1775696 -0.08106348 0.3773148 205 205 205
0.177789 -0.08008208 0.3751503 205 205 205
0.1846062 -0.07907454 0.3715095 205 205 205
0.1948289 -0.07434898 0.3593343 205 205 205
-0.04439251 -0.06906583 0.4253818 205 205 205
-0.03085494 -0.0741728 0.4303727 205 205 205
-0.0263337 -0.07731903 0.4352971 205 205 205
-0.0238055 -0.07831485 0.4363649 205 205 205
-0.01746341 -0.08096376 0.4394145 205 205 205
-0.01018924 -0.08619665 0.4478681 205 205 205
0.1081675 -0.09936155 0.432731 205 205 205
0.1121493 -0.0968634 0.4259767 205 205 205
0.1348447 -0.09135228 0.4072084 205 205 205
0.1357871 -0.09087545 0.4059037 205 205 205
0.1431873 -0.08874209 0.3992334 205 205 205
0.1456589 -0.08859431 0.3982549 205 205 205
0.1534864 -0.08713789 0.3930622 205 205 205
0.159535 -0.08661816 0.3904206 205 205 205
0.1654597 -0.08463901 0.3847122 205 205 205
0.1685641 -0.08382508 0.3822267 205 205 205
0.1781037 -0.08165918 0.3754086 205 205 205
0.1820096 -0.08157854 0.3743765 205 205 205
0.1924662 -0.07690284 0.3622636 205 205 205
-0.05414045 -0.06633897 0.4208331 205 205 205
-0.04779866 -0.07066344 0.4272703 205 205 205
-0.04650553 -0.07101288 0.4274245 205 205 205
-0.04500928 -0.07098947 0.4266675 205 205 205
-0.03872438 -0.07305282 0.4282555 205 205 205
-0.03334885 -0.0739796 0.4278094 205 205 205
-0.02268282 -0.07984561 0.435886 205 205 205
-0.02025694 -0.08122212 0.4378378 205 205 205
-0.01915356 -0.08229826 0.43972 205 205 205
-0.01779744 -0.08259408 0.4397723 205 205 205
-0.01031356 -0.08707566 0.4463833 205 205 205
-0.0008743738 -0.09967563 0.4701668 205 205 205
0.105922 -0.09933114 0.4299017 205 205 205
0.1101334 -0.0972551 0.4240498 205 205 205
0.1292146 -0.094074 0.4114457 205 205 205
0.133401 -0.09262171 0.4071103 205 205 205
0.1356143 -0.09209411 0.4053502 205 205 205
0.14054 -0.09008142 0.3996489 205 205 205
0.1679741 -0.08457702 0.3808962 205 205 205
0.1754092 -0.08413168 0.3782248 205 205 205
0.1911445 -0.07925934 0.3645349 205 205 205
0.1923219 -0.07804212 0.3617449 205 205 205
-0.05016161 -0.07040641 0.424606 205 205 205
-0.03144181 -0.07696076 0.4302016 205 205 205
-0.02911988 -0.07836316 0.4322083 205 205 205
-0.02794613 -0.07906294 0.4332056 205 205 205
-0.01937053 -0.08353877 0.4391586 205 205 205
-0.01043714 -0.08794513 0.4448967 205 205 205
-0.006536376 -0.08998215 0.4476781 205 205 205
-0.002998297 -0.09442612 0.4558899 205 205 205
0.0006912464 -0.09928788 0.4649688 205 205 205
0.00431822 -0.1066096 0.47947 205 205 205
0.09817068 -0.1076764 0.4470613 205 205 205
0.09878252 -0.1029981 0.4367082 205 205 205
0.1016472 -0.1005134 0.4304017 205 205 205
0.1027895 -0.100113 0.4291716 205 205 205
0.113694 -0.09810751 0.4214472 205 205 205
0.1166097 -0.09854706 0.4215139 205 205 205
0.1203201 -0.09809472 0.4194275 205 205 205
0.127047 -0.09623806 0.4134575 205 205 205
0.1280461 -0.09577327 0.41217 205 205 205
0.1316403 -0.09345154 0.4061589 205 205 205
0.14037 -0.09128232 0.3990976 205 205 205
0.1440872 -0.09107234 0.3976487 205 205 205
0.1469181 -0.09134988 0.3974887 205 205 205
0.1543718 -0.08942308 0.3914525 205 205 205
0.1567946 -0.08921683 0.3904003 205 205 205
0.1659866 -0.0878484 0.3852341 205 205 205
0.16675 -0.08729143 0.3838745 205 205 205
0.1810309 -0.08449748 0.3746938 205 205 205
0.1838045 -0.08457566 0.3742417 205 205 205
0.1892795 -0.08120713 0.3660375 205 205 205
0.1926917 -0.07959255 0.3619723 205 205 205
-0.05307217 -0.06865911 0.419056 205 205 205
-0.04693583 -0.07339211 0.4263463 205 205 205
-0.04414601 -0.07370702 0.4257359 205 205 205
-0.03541976 -0.07681012 0.4284323 205 205 205
-0.03411219 -0.07713445 0.4285412 205 205 205
-0.02297878 -0.08189937 0.4338637 205 205 205
-0.02056205 -0.08329009 0.4358075 205 205 205
-0.01946449 -0.08438031 0.4376826 205 205 205
-0.0169897 -0.08576575 0.4396009 205 205 205
-0.01065645 -0.08920741 0.4443187 205 205 205
-0.002929619 -0.09410567 0.4516487 205 205 205
-0.0005523527 -0.09749967 0.457999 205 205 205
0.003409064 -0.1011686 0.4642988 205 205 205
0.004732901 -0.1026659 0.4669948 205 205 205
0.007366126 -0.1064882 0.4741899 205 205 205
0.009950302 -0.1123879 0.4859089 205 205 205
0.09556919 -0.1067673 0.4423985 205 205 205
0.09679437 -0.1033704 0.4347009 205 205 205
0.09756389 -0.1021037 0.4317318 205 205 205
0.1190802 -0.09979437 0.420118 205 205 205
0.1229625 -0.09754632 0.4141729 205 205 205
0.1265714 -0.09703609 0.4120355 205 205 205
0.1285552 -0.09609646 0.4094647 205 205 205
0.1358736 -0.09359587 0.402091 205 205 205
0.1558083 -0.09094283 0.3911895 205 205 205
0.1594459 -0.09061841 0.389589 205 205 205
0.1626549 -0.08983604 0.38715 205 205 205
0.1776276 -0.08759162 0.378896 205 205 205
0.1864282 -0.08581065 0.3732235 205 205 205
0.1958665 -0.07907233 0.3573564 205 205 205
-0.05187381 -0.07240656 0.4233612 205 205 205
-0.04585654 -0.07492666 0.4259488 205 205 205
-0.03055595 -0.07967949 0.4291947 205 205 205
-0.02305864 -0.08271866 0.432394 205 205 205
-0.01709126 -0.08660408 0.4381191 205 205 205
-0.01470009 -0.08839427 0.4409243 205 205 205
-0.0120582 -0.08937257 0.4418944 205 205 205
-0.006892021 -0.09211969 0.4455968 205 205 205
0.00345253 -0.1004404 0.4591338 205 205 205
0.01320654 -0.1088987 0.4733135 205 205 205
0.09327161 -0.1097262 0.445966 205 205 205
0.09655326 -0.1016128 0.4276408 205 205 205
0.111989 -0.1006036 0.4206737 205 205 205
0.1146473 -0.1006133 0.4198878 205 205 205
0.1194054 -0.09971088 0.4165541 205 205 205
0.1204445 -0.09925643 0.415286 205 205 205
0.1258019 -0.09738242 0.4097646 205 205 205
0.1293548 -0.09684197 0.4076058 205 205 205
0.1356988 -0.09480001 0.401527 205 205 205
0.1564194 -0.093006 0.3922537 205 205 205
0.1673471 -0.09194449 0.3873179 205 205 205
0.1821303 -0.0881086 0.3759224 205 205 205
0.1877297 -0.08472569 0.3677441 205 205 205
0.1878608 -0.08368973 0.3655986 205 205 205
-0.05291644 -0.07246507 0.4208501 205 205 205
-0.04050262 -0.07670365 0.4241419 205 205 205
-0.03697775 -0.07847757 0.42631 205 205 205
-0.02961024 -0.08158882 0.4296313 205 205 205
-0.0272644 -0.08300939 0.4316096 205 205 205
-0.02327376 -0.08392959 0.4318286 205 205 205
-0.0160636 -0.08853617 0.4384911 205 205 205
-0.008326306 -0.0922858 0.4431808 205 205 205
-0.00188666 -0.09653949 0.4495315 205 205 205
0.01029198 -0.1055617 0.4637311 205 205 205
0.01177285 -0.1058112 0.4636708 205 205 205
0.01759909 -0.1093214 0.4688129 205 205 205
0.09122497 -0.1066081 0.4365733 205 205 205
0.09729924 -0.1020247 0.4249637 205 205 205
0.1186769 -0.1000586 0.4142623 205 205 205
0.1259136 -0.09904933 0.410033 205 205 205
0.126908 -0.0985736 0.4087532 205 205 205
0.1433811 -0.09606273 0.3989319 205 205 205
0.1487318 -0.0961899 0.3977629 205 205 205
0.1508515 -0.09557179 0.3959243 205 205 205
0.1517161 -0.09503774 0.3945935 205 205 205
0.1541811 -0.0948449 0.3935535 205 205 205
0.1703569 -0.09229066 0.3842484 205 205 205
0.1763096 -0.09155393 0.3813196 205 205 205
0.1770411 -0.09096414 0.379943 205 205 205
0.182441 -0.08971068 0.3761376 205 205 205
0.1879174 -0.08734681 0.3701038 205 205 205
0.1880692 -0.08630346 0.3679559 205 205 205
0.193399 -0.08174366 0.3575948 205 205 205
0.1934381 -0.08069118 0.355467 205 205 205
-0.05520547 -0.0721458 0.4181629 205 205 205
-0.05230442 -0.07475332 0.422264 205 205 205
-0.03960983 -0.07860725 0.4246133 205 205 205
-0.03849468 -0.07933284 0.425635 205 205 205
-0.02629523 -0.08492918 0.4320215 205 205 205
-0.01121874 -0.09256647 0.4416493 205 205 205
-0.0007616431 -0.09850731 0.4498159 205 205 205
0.007410542 -0.1034329 0.4568665 205 205 205
0.01892562 -0.1092107 0.4644651 205 205 205
0.02039693 -0.1103 0.4661809 205 205 205
0.08855311 -0.1121705 0.4456871 205 205 205
0.1024844 -0.1034161 0.4229684 205 205 205
0.1036015 -0.1029946 0.4217428 205 205 205
0.1089444 -0.1030747 0.4202588 205 205 205
0.115078 -0.1022063 0.4165954 205 205 205
0.1197982 -0.1012766 0.4132628 205 205 205
0.1224096 -0.1012431 0.4124255 205 205 205
0.1263161 -0.1011701 0.4111374 205 205 205
0.1273188 -0.1006904 0.4098567 205 205 205
0.130889 -0.1001322 0.4076824 205 205 205
0.131552 -0.09919239 0.4055549 205 205 205
0.1347333 -0.09815126 0.4025135 205 205 205
0.1375915 -0.09848844 0.4024131 205 205 205
0.1413829 -0.09829923 0.4009808 205 205 205
0.1609384 -0.09639096 0.3919179 205 205 205
0.180151 -0.09269312 0.3797249 205 205 205
0.1804074 -0.09165583 0.3775701 205 205 205
0.1884064 -0.08788577 0.36816 205 205 205
0.1931927 -0.08392664 0.3591856 205 205 205
0.1948954 -0.08202136 0.3550206 205 205 205
-0.05357371 -0.07517687 0.4206451 205 205 205
-0.04500549 -0.07842785 0.4235264 205 205 205
-0.04001127 -0.08018192 0.4249515 205 205 205
-0.03758635 -0.08124438 0.4260881 205 205 205
-0.02263981 -0.08746369 0.4325522 205 205 205
-0.02142885 -0.08817428 0.4335143 205 205 205
-0.003445725 -0.09714749 0.4447079 205 205 205
0.001734576 -0.1011651 0.4509656 205 205 205
0.02022611 -0.1090619 0.4601218 205 205 205
0.08767625 -0.1081496 0.4342293 205 205 205
0.09960142 -0.1045981 0.4230767 205 205 205
0.1022899 -0.1046628 0.4223679 205 205 205
0.1098417 -0.1038766 0.4184204 205 205 205
0.1138226 -0.1038947 0.4172514 205 205 205
0.1261307 -0.1023968 0.4105456 205 205 205
0.1406155 -0.1004742 0.4025327 205 205 205
0.1465926 -0.09966037 0.3992508 205 205 205
0.1549775 -0.09857773 0.3948322 205 205 205
0.1558346 -0.0980274 0.3934944 205 205 205
0.1578458 -0.09881759 0.3945732 205 205 205
0.1673025 -0.09741889 0.3893477 205 205 205
0.168524 -0.09728653 0.3887772 205 205 205
0.1713151 -0.0959849 0.3854698 205 205 205
0.1783472 -0.09359752 0.3789861 205 205 205
0.1828096 -0.09144086 0.3736295 205 205 205
-0.04909611 -0.07855313 0.4225219 205 205 205
-0.04651379 -0.07925513 0.42282 205 205 205
-0.0439271 -0.07994623 0.4231001 205 205 205
-0.01920015 -0.0908147 0.4348361 205 205 205
-0.006382712 -0.09744263 0.4432026 205 205 205
0.004261462 -0.103829 0.4520824 205 205 205
0.01422802 -0.1072876 0.4553054 205 205 205
0.01713915 -0.1077575 0.4551513 205 205 205
0.0185658 -0.108858 0.4568674 205 205 205
0.02589118 -0.1104055 0.4572681 205 205 205
0.03184578 -0.1129986 0.4603702 205 205 205
0.0350376 -0.1169299 0.4672689 205 205 205
0.08636738 -0.1218359 0.4593734 205 205 205
0.08694822 -0.1080617 0.4309889 205 205 205
0.09475987 -0.104355 0.4209003 205 205 205
0.1207299 -0.1037137 0.4116576 205 205 205
0.1298397 -0.1035194 0.408623 205 205 205
0.1314419 -0.1039352 0.409008 205 205 205
0.135659 -0.1023782 0.4046676 205 205 205
0.1366142 -0.101868 0.4033697 205 205 205
0.1483881 -0.1016915 0.3997914 205 205 205
0.1496516 -0.1016062 0.3992811 205 205 205
0.1526856 -0.1004272 0.3961049 205 205 205
0.1539345 -0.1003302 0.3955812 205 205 205
0.1667306 -0.09964348 0.3909152 205 205 205
0.172005 -0.09806734 0.3864584 205 205 205
0.1735557 -0.09688306 0.3837201 205 205 205
0.1769981 -0.09493355 0.3790126 205 205 205
0.1796173 -0.09355844 0.3756616 205 205 205
0.1849624 -0.09224825 0.3718217 205 205 205
-0.0493123 -0.07972328 0.4219542 205 205 205
-0.04781069 -0.07967944 0.4212117 205 205 205
-0.04523338 -0.08037505 0.4214993 205 205 205
-0.04284755 -0.08146059 0.422664 205 205 205
-0.03706378 -0.08475208 0.4268492 205 205 205
-0.02199539 -0.09101813 0.4332384 205 205 205
-0.01535261 -0.09291351 0.4343633 205 205 205
-0.01148061 -0.09461235 0.4362441 205 205 205
-0.00893219 -0.09601871 0.4380755 205 205 205
-0.003813176 -0.09924225 0.4425834 205 205 205
-0.002489682 -0.09993823 0.4434734 205 205 205
0.01552528 -0.1075224 0.4518938 205 205 205
0.09361954 -0.1064587 0.4223596 205 205 205
0.1054623 -0.1063019 0.4183415 205 205 205
0.1107847 -0.1063561 0.4168265 205 205 205
0.1197788 -0.1058719 0.4131628 205 205 205
0.1226872 -0.1062972 0.4131634 205 205 205
0.1335361 -0.1046107 0.4066579 205 205 205
0.1428805 -0.1046585 0.4041495 205 205 205
0.1577817 -0.1031484 0.3971453 205 205 205
0.1669548 -0.1027838 0.3940592 205 205 205
0.1715106 -0.1017971 0.390961 205 205 205
0.1859537 -0.09322535 0.3706243 205 205 205
0.1938794 -0.08601222 0.35477 205 205 205
0.1944402 -0.08536382 0.3533879 205 205 205
-0.04844927 -0.08164461 0.4224241 205 205 205
-0.04176686 -0.08297079 0.4222181 205 205 205
-0.03249614 -0.08848 0.4293569 205 205 205
-0.02880011 -0.09026684 0.4314067 205 205 205
-0.02086472 -0.09253256 0.4326956 205 205 205
-0.01432273 -0.09484508 0.4346931 205 205 205
-0.005431918 -0.1002253 0.4419718 205 205 205
0.001181496 -0.1041544 0.447286 205 205 205
0.002545057 -0.1048492 0.4481543 205 205 205
0.009562806 -0.1074212 0.4506244 205 205 205
0.01244236 -0.1079063 0.4505001 205 205 205
0.0225073 -0.1117244 0.4543928 205 205 205
0.0268755 -0.1114798 0.4522735 205 205 205
0.02978237 -0.1118926 0.452031 205 205 205
0.04356266 -0.1199086 0.4631729 205 205 205
0.08149409 -0.1116726 0.4335701 205 205 205
0.08311841 -0.1085987 0.4268698 205 205 205
0.1201316 -0.1080259 0.4142397 205 205 205
0.1217301 -0.1084735 0.4146607 205 205 205
0.1365717 -0.1066509 0.4067757 205 205 205
0.1407857 -0.1069352 0.4061632 205 205 205
0.1725994 -0.1043696 0.3927126 205 205 205
0.1745211 -0.1006104 0.3848795 205 205 205
0.1748554 -0.09955361 0.3827322 205 205 205
0.1759219 -0.09788802 0.3792195 205 205 205
0.1787519 -0.09801824 0.3787882 205 205 205
0.1820895 -0.0959944 0.3740494 205 205 205
0.1859725 -0.09330441 0.3679143 205 205 205
0.1930885 -0.08886625 0.3577123 205 205 205
0.1931532 -0.08777642 0.355596 205 205 205
-0.05466717 -0.08021443 0.4192721 205 205 205
-0.04087455 -0.08488649 0.4226547 205 205 205
-0.0342124 -0.08976725 0.4295633 205 205 205
-0.03287774 -0.09009286 0.4296576 205 205 205
-0.03051598 -0.0915719 0.4316226 205 205 205
-0.01328576 -0.09678049 0.4350095 205 205 205
-0.01212243 -0.09792439 0.4368252 205 205 205
-0.007051039 -0.1012019 0.4413511 205 205 205
0.00101874 -0.1049903 0.445755 205 205 205
0.01939543 -0.1112483 0.4512502 205 205 205
0.02519325 -0.1121237 0.4508435 205 205 205
0.03839264 -0.1157198 0.4532064 205 205 205
0.04150494 -0.1179016 0.4564421 205 205 205
0.04489196 -0.1218985 0.4632061 205 205 205
0.08209439 -0.1239059 0.4544712 205 205 205
0.09361298 -0.1098598 0.4228545 205 205 205
0.107105 -0.1101818 0.4193 205 205 205
0.1093074 -0.1092745 0.4168349 205 205 205
0.111131 -0.1102175 0.4181476 205 205 205
0.1140616 -0.1106929 0.4182046 205 205 205
0.1320983 -0.1094661 0.4105073 205 205 205
0.1373431 -0.1092701 0.4086373 205 205 205
0.1804959 -0.09840635 0.376215 205 205 205
0.1839902 -0.09526982 0.3693379 205 205 205
0.1869518 -0.09426312 0.3667089 205 205 205
-0.0569677 -0.07983533 0.4165761 205 205 205
-0.02117441 -0.09452469 0.4305926 205 205 205
-0.01847984 -0.09511849 0.4306851 205 205 205
-0.01736639 -0.09627157 0.4325144 205 205 205
-0.01382377 -0.09930028 0.4370818 205 205 205
-0.0111655 -0.1003047 0.4380154 205 205 205
-0.009876855 -0.1010212 0.438923 205 205 205
-0.004639452 -0.1038724 0.4425063 205 205 205
0.00351914 -0.1076597 0.4468416 205 205 205
0.01345851 -0.1102755 0.4482453 205 205 205
0.01916849 -0.1125444 0.4505976 205 205 205
0.02641099 -0.1131796 0.4491842 205 205 205
0.03074957 -0.1137924 0.4488139 205 205 205
0.04114192 -0.1178564 0.4531086 205 205 205
0.08329207 -0.1345027 0.4715346 205 205 205
0.08097513 -0.1224507 0.4485612 205 205 205
0.08934332 -0.1109399 0.4232082 205 205 205
0.09496455 -0.1116132 0.422753 205 205 205
0.1028691 -0.1113551 0.4197868 205 205 205
0.1138638 -0.1119327 0.4175767 205 205 205
0.1168044 -0.1123987 0.41761 205 205 205
0.1407456 -0.1117894 0.4095154 205 205 205
0.1582661 -0.1131468 0.4073638 205 205 205
0.1890677 -0.0950209 0.3648603 205 205 205
0.1950213 -0.08957556 0.3531691 205 205 205
-0.04410801 -0.08695643 0.422116 205 205 205
-0.03515609 -0.09342528 0.4310312 205 205 205
-0.0217824 -0.09702085 0.4326618 205 205 205
-0.02042379 -0.09732222 0.4327104 205 205 205
-0.005023513 -0.1060084 0.4436577 205 205 205
-0.002268887 -0.1069924 0.444523 205 205 205
0.001865452 -0.1086734 0.4462312 205 205 205
0.006049963 -0.1103349 0.4478951 205 205 205
0.0146692 -0.1117923 0.447519 205 205 205
0.01892719 -0.1142909 0.4508312 205 205 205
0.02038078 -0.1145157 0.4507361 205 205 205
0.02328624 -0.1154106 0.4514219 205 205 205
0.0348927 -0.1161285 0.4486299 205 205 205
0.03634292 -0.1163175 0.4484817 205 205 205
0.03786633 -0.1174237 0.4501028 205 205 205
0.03932413 -0.1176072 0.4499441 205 205 205
0.04087055 -0.1187099 0.4515529 205 205 205
0.08146215 -0.1307417 0.4612381 205 205 205
0.08081846 -0.1113042 0.4235494 205 205 205
0.08168463 -0.1099631 0.420656 205 205 205
0.09632127 -0.113368 0.4226369 205 205 205
0.1150064 -0.113169 0.4165413 205 205 205
0.1190228 -0.1131475 0.4153067 205 205 205
0.1230645 -0.1154872 0.4186457 205 205 205
0.1274573 -0.118287 0.4227774 205 205 205
0.1355017 -0.1200138 0.4237893 205 205 205
0.1373347 -0.1185039 0.4203511 205 205 205
0.1511328 -0.1143955 0.4085946 205 205 205
-0.0581208 -0.08334522 0.4180585 205 205 205
-0.05659973 -0.08330996 0.4173521 205 205 205
-0.0458319 -0.08819384 0.4222738 205 205 205
