ply
format ascii 1.0
comment Generated by Floating Hands
element vertex 1074
property double x
property double y
property double z
property uchar red
property uchar green
property uchar blue
end_header
0.1251317 -0.03285022 0.4450701 205 205 205
0.1356974 -0.02963708 0.4294199 205 205 205
0.1446341 -0.02668851 0.4158374 205 205 205
0.1463153 -0.02607079 0.4131026 205 205 205
0.1503316 -0.02532225 0.4093949 205 205 205
0.1587527 -0.02252541 0.3973247 205 205 205
0.1675142 -0.01941451 0.3845714 205 205 205
0.1753645 -0.01670119 0.3739086 205 205 205
0.1780311 -0.01541619 0.3691042 205 205 205
0.1860433 -0.009956219 0.3495995 205 205 205
-0.04190201 -0.0121928 0.4544432 205 205 205
-0.01630573 -0.02319182 0.4776905 205 205 205
-0.01531049 -0.02437187 0.4816577 205 205 205
-0.01244488 -0.02495188 0.4818244 205 205 205
-0.007623161 -0.02444525 0.4762142 205 205 205
0.008216836 -0.02590204 0.4707591 205 205 205
0.01365543 -0.02802688 0.475599 205 205 205
0.1245491 -0.03630242 0.4529244 205 205 205
0.1490404 -0.02664557 0.4095592 205 205 205
0.162156 -0.02200344 0.3900608 205 205 205
0.1654799 -0.02169902 0.3884613 205 205 205
0.1698939 -0.01913023 0.3786666 205 205 205
0.1752826 -0.0178686 0.3736089 205 205 205
0.1847302 -0.01228017 0.3535365 205 205 205
0.1855693 -0.01146481 0.3507227 205 205 205
-0.03964388 -0.01436959 0.4554505 205 205 205
-0.03231472 -0.01713266 0.4602928 205 205 205
-0.03096897 -0.01744488 0.4604422 205 205 205
-0.02692616 -0.01836639 0.4608609 205 205 205
-0.02557676 -0.01866845 0.4609908 205 205 205
-0.01083416 -0.02574687 0.4776723 205 205 205
-0.008870156 -0.02465315 0.4719267 205 205 205
0.01585863 -0.03472025 0.4946136 205 205 205
0.1262727 -0.03691198 0.4489829 205 205 205
0.1276556 -0.03451405 0.4394663 205 205 205
0.1505356 -0.0272489 0.4064864 205 205 205
0.1566833 -0.02541135 0.3985906 205 205 205
0.1574164 -0.0250653 0.3972061 205 205 205
0.1631717 -0.02310973 0.3892179 205 205 205
0.1666942 -0.02217002 0.385353 205 205 205
0.169202 -0.0206821 0.3797593 205 205 205
0.1704025 -0.01992821 0.3769611 205 205 205
0.179419 -0.01718436 0.3665153 205 205 205
0.1828008 -0.01436912 0.356659 205 205 205
-0.04434729 -0.01352845 0.4505386 205 205 205
-0.04211259 -0.01460912 0.4528384 205 205 205
-0.03337019 -0.01750155 0.4569187 205 205 205
-0.03085674 -0.01834356 0.4581823 205 205 205
-0.02333718 -0.02105346 0.4628314 205 205 205
-0.01871699 -0.02381634 0.4700306 205 205 205
-0.0108437 -0.02668821 0.4753826 205 205 205
-0.0002572272 -0.02621799 0.4660668 205 205 205
0.009070352 -0.02987527 0.4739453 205 205 205
0.01303625 -0.03278381 0.4826478 205 205 205
0.1301986 -0.04637938 0.477557 205 205 205
0.1272597 -0.03937482 0.4523053 205 205 205
0.1277608 -0.03856675 0.4491291 205 205 205
0.1281085 -0.0364011 0.4409488 205 205 205
0.1353321 -0.03358493 0.4284006 205 205 205
0.1483791 -0.02976044 0.4111604 205 205 205
0.1623974 -0.02467756 0.3902912 205 205 205
0.1745488 -0.02059036 0.374402 205 205 205
0.1751146 -0.02019903 0.3729964 205 205 205
0.182726 -0.01548688 0.3563625 205 205 205
-0.02611207 -0.02157122 0.4612799 205 205 205
-0.02366818 -0.02262736 0.4634533 205 205 205
-0.007335937 -0.026269 0.4654828 205 205 205
-0.001826251 -0.02732316 0.4656801 205 205 205
0.006104842 -0.0305361 0.4726072 205 205 205
0.1300869 -0.03608464 0.4338442 205 205 205
0.1355287 -0.03517162 0.4289573 205 205 205
0.1395748 -0.03423047 0.4244554 205 205 205
0.1490876 -0.03069153 0.4094514 205 205 205
0.1498992 -0.03035621 0.4080794 205 205 205
0.1553306 -0.02794965 0.398445 205 205 205
0.1575248 -0.02688779 0.3943024 205 205 205
0.1627317 -0.02615207 0.3908285 205 205 205
0.1699485 -0.02356745 0.3808225 205 205 205
0.1755158 -0.02162417 0.3735166 205 205 205
0.1755865 -0.020965 0.3712792 205 205 205
0.1797682 -0.01907036 0.3644958 205 205 205
0.1816643 -0.01676121 0.3566562 205 205 205
0.1825652 -0.01593227 0.3538519 205 205 205
0.1830025 -0.01551601 0.3524506 205 205 205
0.1838506 -0.01468001 0.3496501 205 205 205
-0.04251298 -0.01722234 0.4521736 205 205 205
-0.04138304 -0.01777041 0.4533153 205 205 205
-0.01911641 -0.02656337 0.4693241 205 205 205
-0.01396444 -0.02867135 0.4735456 205 205 205
-0.002017609 -0.02868309 0.4653254 205 205 205
0.007228599 -0.03266891 0.474186 205 205 205
0.1071002 -0.04421615 0.4660065 205 205 205
0.1108281 -0.04542151 0.4690362 205 205 205
0.1328338 -0.03766109 0.4335413 205 205 205
0.1334927 -0.03708674 0.4312903 205 205 205
0.1428481 -0.03513836 0.4218238 205 205 205
0.1498272 -0.03071828 0.4046021 205 205 205
0.1748573 -0.02318951 0.3746036 205 205 205
0.1832328 -0.01551703 0.3485518 205 205 205
-0.04494762 -0.01741987 0.4495414 205 205 205
-0.04139679 -0.01885583 0.4520171 205 205 205
-0.0251536 -0.02455101 0.4607061 205 205 205
-0.02257002 -0.02538463 0.4619023 205 205 205
-0.02021446 -0.02668684 0.4650071 205 205 205
-0.01557365 -0.02977073 0.4730962 205 205 205
-0.003511229 -0.02953376 0.463958 205 205 205
0.008149985 -0.03608211 0.4805821 205 205 205
0.04668362 -0.03935488 0.4700491 205 205 205
0.05113669 -0.04065648 0.4725017 205 205 205
0.1028493 -0.04385101 0.4606856 205 205 205
0.1065663 -0.04344439 0.4578013 205 205 205
0.1349954 -0.05032253 0.4727601 205 205 205
0.1349571 -0.03866844 0.4313966 205 205 205
0.1355959 -0.0380813 0.4291452 205 205 205
0.167213 -0.02748851 0.3857629 205 205 205
0.1729988 -0.02556065 0.3784921 205 205 205
0.1824109 -0.01814477 0.3532422 205 205 205
0.1821996 -0.01677097 0.348845 205 205 205
-0.04140978 -0.01993213 0.4507156 205 205 205
-0.03666299 -0.02191452 0.4542722 205 205 205
-0.01534121 -0.0301774 0.4688704 205 205 205
-0.009108433 -0.0295707 0.4624166 205 205 205
-0.006282459 -0.02985889 0.4615679 205 205 205
0.004062308 -0.03470292 0.4724543 205 205 205
0.00526984 -0.0359761 0.4763277 205 205 205
0.04470164 -0.03867917 0.4630753 205 205 205
0.09862691 -0.049188 0.475988 205 205 205
0.09970799 -0.04485055 0.4600154 205 205 205
0.1389444 -0.03902345 0.4265325 205 205 205
0.1422585 -0.03744531 0.4202107 205 205 205
0.148373 -0.034179 0.4075285 205 205 205
0.1523372 -0.0324214 0.4006801 205 205 205
0.1576272 -0.03080585 0.3941631 205 205 205
0.1739805 -0.02661045 0.3775929 205 205 205
0.1767919 -0.0252514 0.3728017 205 205 205
0.1784024 -0.0246974 0.370813 205 205 205
0.1799653 -0.02068303 0.3577175 205 205 205
-0.04142204 -0.02099936 0.4494109 205 205 205
-0.01899664 -0.02919417 0.4624533 205 205 205
-0.001356661 -0.03352322 0.4661929 205 205 205
0.007267965 -0.04178882 0.4904168 205 205 205
0.04419402 -0.03839397 0.4569377 205 205 205
0.1014817 -0.04521116 0.4552346 205 205 205
0.1094608 -0.04520305 0.4522545 205 205 205
0.1215637 -0.05143376 0.4698082 205 205 205
0.1260754 -0.0549298 0.4804717 205 205 205
0.1382054 -0.04094286 0.428413 205 205 205
0.1590745 -0.03221317 0.3941649 205 205 205
0.1705856 -0.03049215 0.3865208 205 205 205
0.1815045 -0.01867681 0.3474297 205 205 205
-0.04049585 -0.02285344 0.4501878 205 205 205
-0.0378616 -0.02350137 0.4505282 205 205 205
-0.03671684 -0.02405939 0.451647 205 205 205
-0.01381814 -0.03193562 0.4633912 205 205 205
-0.01086816 -0.0319849 0.461612 205 205 205
-0.004169888 -0.03384348 0.4638123 205 205 205
0.04396552 -0.03945759 0.4556008 205 205 205
0.09759266 -0.0489669 0.4645419 205 205 205
0.09820367 -0.04786815 0.4604809 205 205 205
0.09898701 -0.0470567 0.4573568 205 205 205
0.1038515 -0.04640245 0.4532452 205 205 205
0.1059046 -0.04561856 0.4497754 205 205 205
0.1117916 -0.04635572 0.4502164 205 205 205
0.1197688 -0.04939433 0.4579352 205 205 205
0.126761 -0.05412367 0.4718435 205 205 205
0.1405388 -0.04098248 0.4230793 205 205 205
0.1416652 -0.03973041 0.4185821 205 205 205
0.1472215 -0.03796385 0.4113079 205 205 205
0.1493757 -0.03567388 0.4032038 205 205 205
0.1575008 -0.03418415 0.3965767 205 205 205
0.1742658 -0.02924458 0.3777497 205 205 205
0.1753435 -0.02911204 0.3771769 205 205 205
0.1760356 -0.02799686 0.3735366 205 205 205
0.1781557 -0.02771725 0.3723761 205 205 205
0.1798313 -0.02361936 0.3592824 205 205 205
0.1797972 -0.02291238 0.3570754 205 205 205
-0.04665248 -0.02177935 0.4460429 205 205 205
-0.03674271 -0.02511816 0.4503296 205 205 205
-0.03426857 -0.02599549 0.4515963 205 205 205
-0.01653983 -0.03220262 0.4609279 205 205 205
-0.01380344 -0.03276943 0.4610909 205 205 205
-0.01096548 -0.03306746 0.4602733 205 205 205
0.00404196 -0.04338066 0.4867038 205 205 205
0.03574502 -0.04087202 0.4597277 205 205 205
0.04937627 -0.04200566 0.4565876 205 205 205
0.05089182 -0.04273043 0.4583503 205 205 205
0.05445512 -0.04589297 0.467585 205 205 205
0.09882925 -0.04844098 0.4569563 205 205 205
0.1068768 -0.0467259 0.4481082 205 205 205
0.1194492 -0.04903952 0.4516173 205 205 205
0.1388975 -0.04689313 0.4384498 205 205 205
0.1453974 -0.03992958 0.4136643 205 205 205
0.1488356 -0.03756452 0.4050845 205 205 205
0.1527686 -0.03573583 0.3982473 205 205 205
0.155083 -0.03557571 0.397241 205 205 205
0.164795 -0.03346251 0.3885665 205 205 205
0.1699276 -0.03260949 0.3849765 205 205 205
0.1792181 -0.02731328 0.3669968 205 205 205
-0.02736682 -0.03065871 0.457788 205 205 205
-0.01126097 -0.0346647 0.4608514 205 205 205
-0.008518296 -0.03521141 0.4609748 205 205 205
-0.002087011 -0.03813473 0.4669631 205 205 205
0.02908214 -0.05110408 0.4933571 205 205 205
0.03541112 -0.04080207 0.454545 205 205 205
0.03670061 -0.04041386 0.4525289 205 205 205
0.05247834 -0.04568179 0.4625737 205 205 205
0.1132115 -0.04794893 0.4449955 205 205 205
0.117745 -0.04861713 0.4457027 205 205 205
0.1365286 -0.05860472 0.4729248 205 205 205
0.1419418 -0.05125204 0.4470405 205 205 205
0.1499352 -0.03777435 0.4011125 205 205 205
0.1584294 -0.03653583 0.3953392 205 205 205
0.1591633 -0.03614838 0.3939581 205 205 205
0.168263 -0.03363168 0.384332 205 205 205
0.1779665 -0.03004398 0.3716871 205 205 205
0.1785291 -0.02961273 0.3702815 205 205 205
0.1790828 -0.02917997 0.3688762 205 205 205
0.1791526 -0.02773893 0.3644374 205 205 205
0.1810897 -0.02453704 0.3544329 205 205 205
0.1803025 -0.02208109 0.3470657 205 205 205
-0.0446509 -0.02524966 0.446648 205 205 205
-0.03810467 -0.02688812 0.4475245 205 205 205
-0.03696792 -0.02745713 0.4486381 205 205 205
-0.03350668 -0.02915988 0.4519558 205 205 205
-0.01398411 -0.03491533 0.458404 205 205 205
-0.009894548 -0.03574415 0.4586089 205 205 205
-0.004917983 -0.03842892 0.4645719 205 205 205
-0.002430731 -0.04003936 0.468486 205 205 205
0.0008014825 -0.04518592 0.4839225 205 205 205
0.02993059 -0.04394962 0.4631318 205 205 205
0.03382081 -0.04137308 0.4523348 205 205 205
0.05237773 -0.04734386 0.4631229 205 205 205
0.1184154 -0.04938223 0.443078 205 205 205
0.1216243 -0.0500162 0.4441202 205 205 205
0.1281693 -0.05277431 0.4510926 205 205 205
0.1306774 -0.05399268 0.4543026 205 205 205
0.1482972 -0.06027703 0.4695727 205 205 205
0.1476958 -0.04138194 0.4088238 205 205 205
0.1513783 -0.0382525 0.3980145 205 205 205
0.1590514 -0.03736199 0.393592 205 205 205
0.1710137 -0.03416698 0.3814631 205 205 205
0.1795808 -0.02843568 0.3626938 205 205 205
0.1800929 -0.02799405 0.3612945 205 205 205
0.180081 -0.02726328 0.3590882 205 205 205
-0.03980042 -0.02809885 0.4479347 205 205 205
-0.02762391 -0.0330441 0.4560636 205 205 205
-0.02627255 -0.03334885 0.4561846 205 205 205
-0.01028409 -0.03761288 0.4601333 205 205 205
0.03224617 -0.0419261 0.4501184 205 205 205
0.04898889 -0.04662413 0.4573058 205 205 205
0.0525029 -0.04990217 0.4665201 205 205 205
0.09996345 -0.05503578 0.4631644 205 205 205
0.1052908 -0.05105393 0.4481657 205 205 205
0.107768 -0.05082737 0.4465468 205 205 205
0.1145734 -0.0494616 0.439769 205 205 205
0.1158969 -0.04948068 0.4393924 205 205 205
0.1203985 -0.05013806 0.4400597 205 205 205
0.1404644 -0.05027244 0.4345204 205 205 205
0.1463663 -0.0426957 0.4089236 205 205 205
0.1480323 -0.04195942 0.4062026 205 205 205
0.1554918 -0.03884264 0.3947676 205 205 205
0.1754253 -0.03410675 0.3765934 205 205 205
0.1761321 -0.03294279 0.3729636 205 205 205
0.1767108 -0.03250681 0.3715622 205 205 205
0.1794874 -0.0295669 0.3623468 205 205 205
0.1791945 -0.02172732 0.3391136 205 205 205
-0.04465706 -0.02730726 0.4440023 205 205 205
-0.03981776 -0.02912906 0.4466048 205 205 205
-0.0329004 -0.03259319 0.4532371 205 205 205
-0.01312118 -0.03811959 0.4586464 205 205 205
-0.004313935 -0.04278598 0.4685948 205 205 205
-0.00188043 -0.05113059 0.4945438 205 205 205
0.02091013 -0.05439993 0.4923865 205 205 205
0.04303503 -0.04582779 0.452684 205 205 205
0.04593448 -0.04705157 0.4552784 205 205 205
0.05076225 -0.05052795 0.4643568 205 205 205
0.05307556 -0.05429239 0.4756075 205 205 205
0.1012124 -0.05650383 0.4624034 205 205 205
0.1202504 -0.05147655 0.4396479 205 205 205
0.1218495 -0.05179664 0.4401608 205 205 205
0.1399998 -0.05130087 0.4332137 205 205 205
0.1462409 -0.04394718 0.4085365 205 205 205
0.1538224 -0.03983055 0.3940367 205 205 205
0.1553758 -0.04005375 0.3943923 205 205 205
0.1632359 -0.03836766 0.3876456 205 205 205
0.1690525 -0.03708281 0.3826854 205 205 205
0.1725322 -0.03597981 0.3787716 205 205 205
0.1743681 -0.03468003 0.374577 205 205 205
0.1760314 -0.03410494 0.3726024 205 205 205
0.1776725 -0.03352182 0.3706206 205 205 205
0.1787936 -0.03263308 0.3678171 205 205 205
0.1788397 -0.03188928 0.3656028 205 205 205
0.1803892 -0.02904814 0.3570031 205 205 205
0.1808729 -0.02859478 0.3556096 205 205 205
0.1801459 -0.02605703 0.3482514 205 205 205
-0.04505872 -0.02883091 0.4445676 205 205 205
-0.04020411 -0.03066621 0.4471685 205 205 205
-0.03774797 -0.03157428 0.4484436 205 205 205
-0.03544252 -0.03273758 0.4506515 205 205 205
-0.03310304 -0.03389783 0.4528438 205 205 205
-0.01479673 -0.03944108 0.4591266 205 205 205
-0.009494869 -0.04110962 0.4612997 205 205 205
-0.004593767 -0.04443516 0.4691353 205 205 205
0.02653623 -0.04525416 0.4544117 205 205 205
0.03052581 -0.04405781 0.4484525 205 205 205
0.03184615 -0.04394699 0.4474129 205 205 205
0.03585906 -0.04449012 0.44713 205 205 205
0.03723313 -0.04496559 0.4479797 205 205 205
0.1028124 -0.05644925 0.456666 205 205 205
0.1079195 -0.05415677 0.4475535 205 205 205
0.1105354 -0.05236425 0.440966 205 205 205
0.121156 -0.05250508 0.4379248 205 205 205
0.1230299 -0.05314191 0.4393397 205 205 205
0.1289154 -0.05376565 0.4394886 205 205 205
0.1416833 -0.04933145 0.4220429 205 205 205
0.1424762 -0.04766655 0.4166804 205 205 205
0.143543 -0.04630812 0.4122095 205 205 205
0.1462182 -0.04419448 0.4050363 205 205 205
0.1478555 -0.04343851 0.4023234 205 205 205
0.1502445 -0.04228816 0.398246 205 205 205
0.151023 -0.04190047 0.3968849 205 205 205
0.1529497 -0.04143072 0.3950233 205 205 205
0.1582938 -0.04068201 0.3916109 205 205 205
0.1608661 -0.03976996 0.3883333 205 205 205
0.1658125 -0.03965507 0.3870345 205 205 205
0.168944 -0.03826902 0.3823121 205 205 205
0.1742647 -0.03584504 0.37421 205 205 205
0.1765097 -0.03482124 0.3708379 205 205 205
0.1770811 -0.03437548 0.3694391 205 205 205
0.1802958 -0.03016006 0.3566525 205 205 205
0.1799583 -0.02365187 0.3378732 205 205 205
-0.02927911 -0.03613815 0.4528464 205 205 205
-0.02566452 -0.03786945 0.4560602 205 205 205
-0.02158771 -0.0387677 0.4563777 205 205 205
-0.02035215 -0.03933754 0.4574268 205 205 205
-0.0162546 -0.04020648 0.4576869 205 205 205
-0.007190264 -0.04384225 0.4638541 205 205 205
0.03168774 -0.04554632 0.4479625 205 205 205
0.03434334 -0.04561024 0.4468248 205 205 205
0.1039574 -0.06191574 0.4685892 205 205 205
0.103919 -0.0597437 0.4617739 205 205 205
0.1077617 -0.05551087 0.4471263 205 205 205
0.1106237 -0.05401498 0.4414619 205 205 205
0.1151902 -0.05314919 0.4372371 205 205 205
0.1207348 -0.05351623 0.4365962 205 205 205
0.1239295 -0.05416257 0.4376034 205 205 205
0.1460919 -0.04543094 0.4046432 205 205 205
0.1509021 -0.04311299 0.396499 205 205 205
0.1547368 -0.04215566 0.3927688 205 205 205
0.1607516 -0.04096462 0.3879526 205 205 205
0.1659416 -0.04011574 0.3844237 205 205 205
0.1670586 -0.04000105 0.3838763 205 205 205
0.1688342 -0.03945348 0.3819343 205 205 205
0.1729418 -0.03789287 0.3766302 205 205 205
0.1742758 -0.03625623 0.3716212 205 205 205
0.1791428 -0.03447207 0.3656904 205 205 205
0.1796451 -0.03020575 0.3533092 205 205 205
-0.0428531 -0.03203855 0.4441484 205 205 205
-0.01245261 -0.04265993 0.4584433 205 205 205
-0.00658109 -0.04747682 0.4701539 205 205 205
-0.006115468 -0.05121422 0.4816423 205 205 205
0.01486001 -0.05068244 0.4683067 205 205 205
0.01931379 -0.047463 0.4557843 205 205 205
0.02344266 -0.04688837 0.4518091 205 205 205
0.02615262 -0.04698898 0.4507258 205 205 205
0.02884763 -0.04707659 0.4496242 205 205 205
0.03698338 -0.04849093 0.4500161 205 205 205
0.03837653 -0.04897423 0.4508568 205 205 205
0.03986362 -0.05007224 0.4535929 205 205 205
0.1053833 -0.06152315 0.4619011 205 205 205
0.1109514 -0.05599438 0.4428654 205 205 205
0.1120503 -0.05569879 0.441584 205 205 205
0.1375875 -0.05600568 0.4346467 205 205 205
0.1398107 -0.05163774 0.4207957 205 205 205
0.1427528 -0.04952163 0.4136344 205 205 205
0.1492105 -0.04511304 0.3988251 205 205 205
0.1507799 -0.04432376 0.3961087 205 205 205
0.1621943 -0.04237165 0.3878842 205 205 205
0.1633266 -0.04226614 0.3873489 205 205 205
0.1704779 -0.04007562 0.379603 205 205 205
0.1745303 -0.03848142 0.3742852 205 205 205
0.1800859 -0.03545976 0.3647313 205 205 205
0.1781777 -0.02761384 0.342679 205 205 205
-0.03421577 -0.0361137 0.4467548 205 205 205
-0.02592945 -0.04021835 0.4542872 205 205 205
-0.02308479 -0.04053886 0.4535516 205 205 205
-0.01790532 -0.04227717 0.4558243 205 205 205
-0.01000002 -0.0448288 0.459095 205 205 205
0.0164258 -0.04774666 0.4535403 205 205 205
0.03406669 -0.04913139 0.4488526 205 205 205
0.04678379 -0.06085764 0.4791915 205 205 205
0.1207044 -0.05649189 0.4366468 205 205 205
0.1254186 -0.05583941 0.433215 205 205 205
0.1277452 -0.05549638 0.431479 205 205 205
0.1290493 -0.05548422 0.4310547 205 205 205
0.1384086 -0.05296417 0.4208356 205 205 205
0.1402586 -0.05223041 0.4181465 205 205 205
0.1540941 -0.04423566 0.3911317 205 205 205
0.1582505 -0.04354702 0.3882257 205 205 205
0.1605188 -0.04334867 0.3871777 205 205 205
0.164341 -0.04335191 0.3864189 205 205 205
0.1714676 -0.0411249 0.378655 205 205 205
0.1744226 -0.03964501 0.3739038 205 205 205
0.1756151 -0.03873675 0.3711137 205 205 205
0.1783227 -0.03798848 0.3685526 205 205 205
0.179984 -0.03659792 0.364358 205 205 205
0.1800134 -0.0358205 0.3621561 205 205 205
0.1789986 -0.03364465 0.3561642 205 205 205
0.1791516 -0.0264742 0.3360802 205 205 205
-0.04785114 -0.03242446 0.4397893 205 205 205
-0.04064179 -0.03523353 0.4436873 205 205 205
-0.03556717 -0.03679812 0.4452565 205 205 205
-0.03177133 -0.03801922 0.4466228 205 205 205
-0.0306038 -0.03860895 0.4477007 205 205 205
-0.02083255 -0.04300831 0.4552271 205 205 205
-0.0179878 -0.04330338 0.4544528 205 205 205
-0.01662761 -0.04359035 0.4545333 205 205 205
-0.01254281 -0.04443522 0.4547457 205 205 205
-0.008913613 -0.04672529 0.4596718 205 205 205
-0.006822483 -0.04962938 0.4673747 205 205 205
0.01043174 -0.05089336 0.4617945 205 205 205
0.02174427 -0.04806719 0.4472211 205 205 205
0.02983201 -0.04987606 0.4487035 205 205 205
0.03532755 -0.05155895 0.4511757 205 205 205
0.1099802 -0.06546433 0.4626644 205 205 205
0.1135732 -0.05905273 0.4421628 205 205 205
0.1152427 -0.05777042 0.4377688 205 205 205
0.1163124 -0.05745555 0.4364788 205 205 205
0.1249832 -0.0568257 0.4318816 205 205 205
0.1273038 -0.05647871 0.4301492 205 205 205
0.1302045 -0.05678217 0.430193 205 205 205
0.1334219 -0.05740491 0.4311064 205 205 205
0.1347281 -0.05738126 0.4306617 205 205 205
0.1435277 -0.05062339 0.4083565 205 205 205
0.1489589 -0.04754521 0.3980255 205 205 205
0.152069 -0.04592628 0.392599 205 205 205
0.161959 -0.04475897 0.3870979 205 205 205
0.1655988 -0.04367305 0.3832591 205 205 205
0.1792766 -0.03898725 0.3675827 205 205 205
0.1803836 -0.03804951 0.3647853 205 205 205
0.1771344 -0.03067413 0.3447193 205 205 205
0.1778748 -0.02894112 0.3398283 205 205 205
0.1782795 -0.02846504 0.3384634 205 205 205
-0.04805419 -0.03367611 0.4393862 205 205 205
-0.03822253 -0.03715008 0.443599 205 205 205
-0.03708648 -0.03775051 0.4446962 205 205 205
-0.03064795 -0.03960706 0.4463397 205 205 205
-0.02200437 -0.04315496 0.4518618 205 205 205
-0.0207809 -0.04373914 0.4529043 205 205 205
-0.01671288 -0.04460704 0.4531585 205 205 205
0.01484701 -0.04829664 0.4470175 205 205 205
0.1126668 -0.06695679 0.4614501 205 205 205
0.1126755 -0.06498696 0.4555963 205 205 205
0.1201274 -0.05880554 0.4348666 205 205 205
0.1336473 -0.05769623 0.4275522 205 205 205
0.1419985 -0.05297443 0.411507 205 205 205
0.155733 -0.04611463 0.3884647 205 205 205
0.1568727 -0.04602122 0.3879505 205 205 205
0.1638334 -0.04649864 0.3878455 205 205 205
0.1645387 -0.04606161 0.3864635 205 205 205
0.1734397 -0.0432084 0.3767348 205 205 205
0.1768452 -0.0420074 0.372788 205 205 205
0.1782862 -0.03553728 0.3546274 205 205 205
0.1766618 -0.03300358 0.3478937 205 205 205
0.1777822 -0.02998725 0.3394762 205 205 205
-0.0458737 -0.03587818 0.4402902 205 205 205
-0.03084954 -0.04088322 0.4459208 205 205 205
-0.02730875 -0.04266993 0.4491203 205 205 205
-0.01544348 -0.04589806 0.4518555 205 205 205
-0.01408874 -0.04617912 0.4519253 205 205 205
-0.007932389 -0.04965797 0.4588463 205 205 205
0.01871993 -0.04960176 0.4445734 205 205 205
0.02271626 -0.05085391 0.4463106 205 205 205
0.02811185 -0.05228414 0.4479259 205 205 205
0.03367307 -0.05496402 0.453249 205 205 205
0.1151039 -0.06242581 0.442702 205 205 205
0.118916 -0.06045407 0.4357196 205 205 205
0.1344797 -0.05863648 0.425778 205 205 205
0.1379834 -0.05681461 0.4195478 205 205 205
0.1494951 -0.04956061 0.3958548 205 205 205
0.1552779 -0.04805971 0.3902743 205 205 205
0.1644185 -0.04725378 0.386058 205 205 205
0.1687158 -0.04567876 0.3808079 205 205 205
0.1750412 -0.04377768 0.3743682 205 205 205
0.1772734 -0.03151493 0.340483 205 205 205
-0.03353545 -0.04124286 0.4442897 205 205 205
-0.01553093 -0.0468959 0.4504747 205 205 205
0.0003225562 -0.05194878 0.4566819 205 205 205
0.00176718 -0.05189098 0.4557458 205 205 205
0.01319294 -0.05001782 0.4442915 205 205 205
0.01719798 -0.05066974 0.4441869 205 205 205
0.01985588 -0.05141016 0.4450414 205 205 205
0.02657996 -0.0537077 0.448513 205 205 205
0.0307177 -0.05558245 0.452049 205 205 205
0.116551 -0.06412841 0.4427633 205 205 205
0.1203552 -0.06212251 0.4357721 205 205 205
0.1252607 -0.06006315 0.4283489 205 205 205
0.1378392 -0.05809425 0.4191088 205 205 205
0.1411751 -0.05621326 0.412869 205 205 205
0.1477698 -0.05159111 0.398142 205 205 205
0.1485722 -0.05117984 0.3967915 205 205 205
0.1489828 -0.05042763 0.3945808 205 205 205
0.1501504 -0.05035069 0.3940878 205 205 205
0.1647297 -0.04877876 0.386485 205 205 205
0.1712806 -0.04693684 0.3801067 205 205 205
0.1714723 -0.04614361 0.3778926 205 205 205
0.1792698 -0.04436227 0.3716283 205 205 205
-0.0401437 -0.04061504 0.4421836 205 205 205
-0.03883114 -0.04094068 0.4423404 205 205 205
-0.02875108 -0.04434219 0.4462556 205 205 205
-0.02382596 -0.04644592 0.4495226 205 205 205
-0.01696488 -0.04760134 0.4490176 205 205 205
-0.006690548 -0.05165176 0.4551536 205 205 205
-0.00401877 -0.05249307 0.4561681 205 205 205
0.01021241 -0.05180104 0.4467448 205 205 205
0.02777657 -0.05618136 0.4508272 205 205 205
0.1274128 -0.06099278 0.4261682 205 205 205
0.1388821 -0.05790949 0.4142349 205 205 205
0.1500207 -0.05155063 0.39367 205 205 205
0.1507972 -0.05112892 0.392318 205 205 205
0.158056 -0.0498191 0.3870529 205 205 205
0.1695926 -0.04790721 0.3794335 205 205 205
0.176379 -0.04629534 0.373795 205 205 205
0.1779747 -0.04045875 0.3578448 205 205 205
0.1774757 -0.03931494 0.35487 205 205 205
-0.04607539 -0.03905674 0.4371588 205 205 205
-0.04258243 -0.04063426 0.4395528 205 205 205
-0.01985845 -0.04831323 0.4484155 205 205 205
0.003172772 -0.05254323 0.4482306 205 205 205
0.01946631 -0.05429882 0.445107 205 205 205
0.02349436 -0.05557283 0.4468192 205 205 205
0.03563169 -0.07274301 0.4904415 205 205 205
0.1224215 -0.064418 0.4331472 205 205 205
0.1311395 -0.06222931 0.4244252 205 205 205
0.1463196 -0.05408309 0.397779 205 205 205
0.1498898 -0.05274868 0.3932475 205 205 205
0.1602108 -0.05080094 0.3855843 205 205 205
0.1762607 -0.03728258 0.3464074 205 205 205
-0.03414417 -0.04503951 0.4429931 205 205 205
-0.02885122 -0.04628322 0.4434976 205 205 205
-0.02767483 -0.04689206 0.4445527 205 205 205
-0.01724828 -0.04986228 0.4471869 205 205 205
0.007135807 -0.05390403 0.445883 205 205 205
0.01125138 -0.05394437 0.4439428 205 205 205
0.02195249 -0.05665835 0.4464317 205 205 205
0.0303887 -0.06453983 0.4648191 205 205 205
0.124627 -0.06537124 0.430964 205 205 205
0.1256583 -0.06501061 0.4296553 205 205 205
0.1312922 -0.06387175 0.4248508 205 205 205
0.1367449 -0.06121652 0.4160089 205 205 205
0.1428534 -0.05695176 0.4027122 205 205 205
0.145365 -0.05570985 0.3986907 205 205 205
0.1461844 -0.05529137 0.397348 205 205 205
0.1520655 -0.05264961 0.3887704 205 205 205
0.1547692 -0.05282035 0.388605 205 205 205
0.1582166 -0.0525338 0.3870537 205 205 205
0.1589445 -0.05208609 0.385689 205 205 205
0.1600844 -0.05198307 0.3851619 205 205 205
0.1650601 -0.05189038 0.3838466 205 205 205
0.178732 -0.04417928 0.3608281 205 205 205
0.1766746 -0.03868254 0.3468133 205 205 205
0.176617 -0.03785219 0.3446615 205 205 205
-0.0464827 -0.04153418 0.4362988 205 205 205
-0.03022128 -0.04693322 0.4419963 205 205 205
-0.0225506 -0.04935712 0.4445181 205 205 205
-0.009469248 -0.05312377 0.4480431 205 205 205
-0.003976258 -0.05385931 0.4472483 205 205 205
-0.001128089 -0.0537229 0.4454074 205 205 205
0.0002852024 -0.05364853 0.4444797 205 205 205
0.009720468 -0.05499092 0.4435139 205 205 205
0.1263589 -0.06738412 0.4318542 205 205 205
0.1343866 -0.06436814 0.4212944 205 205 205
0.1353353 -0.06251878 0.4160055 205 205 205
0.1390203 -0.0609277 0.4106843 205 205 205
0.1443987 -0.05734032 0.399594 205 205 205
0.146048 -0.05649769 0.3969123 205 205 205
0.1599567 -0.05316329 0.3847349 205 205 205
0.1633663 -0.05283771 0.3831308 205 205 205
0.1685609 -0.05189554 0.3795574 205 205 205
0.1754048 -0.05026783 0.3739391 205 205 205
0.1782075 -0.04948637 0.3713757 205 205 205
0.1766456 -0.04226294 0.3529005 205 205 205
0.1770335 -0.03924946 0.3450616 205 205 205
0.178403 -0.03471251 0.3332179 205 205 205
-0.0405854 -0.04503435 0.4385677 205 205 205
-0.03421351 -0.04694636 0.4402306 205 205 205
-0.0277801 -0.0488027 0.4417809 205 205 205
-0.02527551 -0.04971748 0.4429325 205 205 205
-0.01887147 -0.05181449 0.4452644 205 205 205
-0.01102129 -0.05413593 0.4475361 205 205 205
-0.009572593 -0.05408454 0.4466434 205 205 205
-0.008223937 -0.05435277 0.4466872 205 205 205
-0.001324481 -0.05499851 0.4449512 205 205 205
0.001562879 -0.05451024 0.4421511 205 205 205
0.1281023 -0.06940641 0.4327248 205 205 205
0.1315914 -0.06717267 0.4256794 205 205 205
0.1417158 -0.05981111 0.4031608 205 205 205
0.1425726 -0.05939389 0.4018254 205 205 205
0.1491052 -0.05597457 0.3911017 205 205 205
0.1518027 -0.05501248 0.3879111 205 205 205
0.1643717 -0.05390093 0.3821573 205 205 205
0.1668693 -0.05284004 0.3788601 205 205 205
0.1792821 -0.04964681 0.3681644 205 205 205
0.1760289 -0.04300834 0.3517103 205 205 205
0.1765028 -0.04166121 0.3481862 205 205 205
0.1762501 -0.03827826 0.3396105 205 205 205
0.1769717 -0.03641729 0.3347744 205 205 205
-0.04969032 -0.04362032 0.4359822 205 205 205
-0.04060088 -0.04597215 0.4371881 205 205 205
-0.03817553 -0.04692907 0.4384249 205 205 205
-0.03293558 -0.04819971 0.4389768 205 205 205
-0.01894917 -0.05276449 0.4438668 205 205 205
-0.01516237 -0.05426113 0.44596 205 205 205
-0.0112223 -0.05541729 0.447073 205 205 205
-0.002865504 -0.05601836 0.4444704 205 205 205
0.00670697 -0.05673218 0.4416879 205 205 205
0.01059578 -0.05843497 0.4444564 205 205 205
0.02130913 -0.06325438 0.452563 205 205 205
0.1331036 -0.08276697 0.4628421 205 205 205
0.1294597 -0.07437634 0.4415321 205 205 205
0.1313298 -0.06994534 0.4291665 205 205 205
0.1337706 -0.06507726 0.4155275 205 205 205
0.1365687 -0.06387245 0.4115559 205 205 205
0.1374836 -0.06346577 0.4102289 205 205 205
0.1392866 -0.062645 0.4075705 205 205 205
0.1429202 -0.0598266 0.3991795 205 205 205
0.1493539 -0.05752185 0.3915124 205 205 205
0.1555267 -0.05627719 0.3867927 205 205 205
0.1608368 -0.05541148 0.383337 205 205 205
0.177967 -0.0517986 0.3705228 205 205 205
0.1786734 -0.0504444 0.3669398 205 205 205
0.1757078 -0.03982853 0.3405786 205 205 205
-0.04470768 -0.04621612 0.4362498 205 205 205
-0.04340782 -0.0465501 0.436417 205 205 205
-0.04080484 -0.04721044 0.4367377 205 205 205
-0.03445011 -0.04913066 0.4383925 205 205 205
-0.03051215 -0.05006586 0.4387706 205 205 205
-0.00862398 -0.05690798 0.4457574 205 205 205
0.0117136 -0.06027899 0.4448996 205 205 205
0.1319189 -0.07384645 0.435288 205 205 205
0.1391392 -0.06388035 0.4071085 205 205 205
0.1448088 -0.0605393 0.396915 205 205 205
0.1472502 -0.05923002 0.3929002 205 205 205
0.1752973 -0.04568166 0.3522684 205 205 205
0.1752868 -0.04396322 0.3479638 205 205 205
0.17604 -0.04035837 0.3388336 205 205 205
0.1759403 -0.03949719 0.3367072 205 205 205
-0.01533902 -0.05614577 0.4431495 205 205 205
0.01671679 -0.06591982 0.4536394 205 205 205
0.01932232 -0.07089577 0.4657102 205 205 205
0.1371841 -0.06595001 0.4092946 205 205 205
0.140932 -0.06310144 0.400931 205 205 205
0.1443015 -0.06137279 0.395605 205 205 205
0.1467346 -0.06005241 0.3915989 205 205 205
0.151025 -0.05936332 0.3887767 205 205 205
0.1658048 -0.05681945 0.3789206 205 205 205
0.1709512 -0.05581956 0.3753117 205 205 205
0.1720623 -0.05568438 0.3747429 205 205 205
0.1775863 -0.05496937 0.3718434 205 205 205
0.1751636 -0.04763176 0.3540124 205 205 205
0.1751473 -0.04416442 0.345415 205 205 205
0.1763635 -0.04087725 0.3370886 205 205 205
-0.04641762 -0.04834533 0.4351654 205 205 205
-0.04511826 -0.04868308 0.4353365 205 205 205
-0.03091774 -0.05255248 0.4378471 205 205 205
-0.02063317 -0.05560245 0.4405154 205 205 205
-0.01917807 -0.05555875 0.43966 205 205 205
-0.01531191 -0.05673971 0.4408053 205 205 205
-0.01162248 -0.05857516 0.4437815 205 205 205
-0.009026055 -0.05945484 0.4448074 205 205 205
-0.003620312 -0.0605081 0.4449308 205 205 205
0.007264276 -0.06213712 0.4440144 205 205 205
0.1331779 -0.07343684 0.4259219 205 205 205
0.1332964 -0.07037894 0.4180362 205 205 205
0.1370326 -0.06718903 0.4088205 205 205 205
0.1441586 -0.06256956 0.3951465 205 205 205
0.1719341 -0.05684338 0.3742977 205 205 205
0.1768337 -0.05663722 0.3727882 205 205 205
0.1750352 -0.04522341 0.3450079 205 205 205
0.1749932 -0.04434839 0.3428725 205 205 205
0.17635 -0.04278594 0.3388146 205 205 205
-0.0505158 -0.04854461 0.4341616 205 205 205
-0.03750416 -0.05188948 0.4358006 205 205 205
-0.02687379 -0.0540483 0.4358477 205 205 205
-0.02083539 -0.05685401 0.440041 205 205 205
-0.01793035 -0.05675607 0.4383273 205 205 205
-0.009132024 -0.06038316 0.4433901 205 205 205
-0.007876945 -0.06099297 0.4443626 205 205 205
-0.006525499 -0.06125805 0.4443955 205 205 205
0.136617 -0.06960393 0.4113946 205 205 205
0.1377893 -0.06800132 0.4070186 205 205 205
0.139239 -0.06676725 0.4035082 205 205 205
0.1448362 -0.06331865 0.3933519 205 205 205
0.1487984 -0.06226386 0.389705 205 205 205
0.1581091 -0.06153075 0.3856246 205 205 205
0.1740221 -0.05772068 0.3726999 205 205 205
0.1763176 -0.04470811 0.3405356 205 205 205
-0.0507229 -0.04977055 0.4336942 205 205 205
-0.03116351 -0.05469941 0.4359745 205 205 205
-0.02838528 -0.05497916 0.4352699 205 205 205
-0.02591111 -0.05591487 0.4364072 205 205 205
-0.02209776 -0.05713646 0.4376149 205 205 205
-0.01680764 -0.05828165 0.4379192 205 205 205
-0.01559884 -0.05890298 0.4389165 205 205 205
-0.01427003 -0.05918082 0.4389766 205 205 205
-0.005289903 -0.06244215 0.4430016 205 205 205
0.002626552 -0.06501402 0.4458717 205 205 205
0.009150206 -0.06870064 0.4523348 205 205 205
0.134987 -0.07870332 0.4310193 205 205 205
0.1438692 -0.06495708 0.3942157 205 205 205
0.1450593 -0.06488717 0.3937348 205 205 205
0.1458765 -0.06443511 0.3924022 205 205 205
0.1494414 -0.0629833 0.3879042 205 205 205
0.1594448 -0.0617467 0.3824489 205 205 205
0.1628739 -0.06141302 0.3808415 205 205 205
0.1768613 -0.05717692 0.3675187 205 205 205
0.1747708 -0.05178361 0.3548949 205 205 205
0.176266 -0.04664362 0.3422514 205 205 205
-0.04984843 -0.05166338 0.4343279 205 205 205
-0.04875794 -0.05233179 0.4354304 205 205 205
-0.04293702 -0.05271277 0.4333317 205 205 205
-0.03660615 -0.05467236 0.4349917 205 205 205
-0.03547112 -0.05532343 0.436052 205 205 205
-0.02479807 -0.05744725 0.4360247 205 205 205
-0.0131413 -0.06070262 0.4385473 205 205 205
-0.01078219 -0.06229101 0.4414394 205 205 205
-0.004305097 -0.06467003 0.4443973 205 205 205
0.0009957843 -0.06639788 0.446307 205 205 205
0.009476075 -0.07815678 0.4723048 205 205 205
0.1443123 -0.09394005 0.4623465 205 205 205
0.1399907 -0.06755431 0.3981915 205 205 205
0.1428903 -0.06659894 0.3950709 205 205 205
0.1465404 -0.06516348 0.3905997 205 205 205
0.1496842 -0.06453996 0.3882782 205 205 205
0.1527905 -0.06389396 0.3859306 205 205 205
0.1670778 -0.06083985 0.3751865 205 205 205
0.1764446 -0.06010849 0.3714237 205 205 205
0.1763693 -0.05704826 0.3640996 205 205 205
0.1764702 -0.05615127 0.3619318 205 205 205
0.1757143 -0.05181997 0.3517346 205 205 205
0.175202 -0.04875697 0.3445399 205 205 205
0.1761512 -0.04769268 0.3418341 205 205 205
0.1765406 -0.04625824 0.3383617 205 205 205
-0.04184283 -0.05426592 0.4330092 205 205 205
-0.03532853 -0.055884 0.4337177 205 205 205
-0.02485718 -0.05833723 0.4346124 205 205 205
-0.01201182 -0.06222051 0.4381079 205 205 205
0.1507098 -0.06563028 0.3873061 205 205 205
0.1526481 -0.06506564 0.3854603 205 205 205
0.1603127 -0.06397182 0.3809848 205 205 205
0.1614565 -0.06385992 0.3804493 205 205 205
0.1667045 -0.06288011 0.3769017 205 205 205
0.168062 -0.06186318 0.3741665 205 205 205
0.1755128 -0.05471212 0.3555934 205 205 205
0.1778301 -0.04658058 0.3360159 205 205 205
-0.04745086 -0.05447348 0.4327984 205 205 205
-0.04374305 -0.0558216 0.4342146 205 205 205
-0.03944532 -0.0561423 0.4328226 205 205 205
-0.03535849 -0.0567676 0.4323085 205 205 205
-0.02520368 -0.05991101 0.4350518 205 205 205
0.0003205717 -0.07040086 0.4490127 205 205 205
0.001640304 -0.07101642 0.4499412 205 205 205
0.1359871 -0.07457505 0.4094144 205 205 205
0.1544224 -0.0656569 0.3831321 205 205 205
0.1590261 -0.0652452 0.3810439 205 205 205
0.1759854 -0.05161481 0.3452356 205 205 205
-0.05133366 -0.05432187 0.4308583 205 205 205
-0.03983736 -0.05770162 0.4332555 205 205 205
-0.02394913 -0.06108541 0.4337231 205 205 205
-0.01484896 -0.06343905 0.4351552 205 205 205
-0.003953661 -0.07054926 0.4475404 205 205 205
0.1352094 -0.07664763 0.4110825 205 205 205
0.146027 -0.06995674 0.3921761 205 205 205
0.1531228 -0.06691682 0.383167 205 205 205
0.1550276 -0.06632975 0.3813121 205 205 205
0.1742885 -0.0642414 0.3719825 205 205 205
0.1763033 -0.05674021 0.3541172 205 205 205
-0.03855311 -0.05890384 0.431981 205 205 205
-0.01361665 -0.06458422 0.4337819 205 205 205
-0.004320639 -0.0725646 0.4488712 205 205 205
-0.001692435 -0.07382442 0.4507452 205 205 205
0.0008519875 -0.08460324 0.4757613 205 205 205
0.1356891 -0.07868981 0.4122847 205 205 205
0.1404222 -0.07353985 0.3987858 205 205 205
0.1425074 -0.07301589 0.3969892 205 205 205
0.1450473 -0.07161409 0.3930123 205 205 205
0.1533753 -0.06847379 0.3835128 205 205 205
0.1614551 -0.06773721 0.379835 205 205 205
0.1644557 -0.06698932 0.3773898 205 205 205
0.1665294 -0.06543786 0.3733079 205 205 205
0.1762022 -0.06602127 0.3725095 205 205 205
0.1757183 -0.05280032 0.342241 205 205 205
0.1761949 -0.05225097 0.3408929 205 205 205
0.1771213 -0.05114859 0.3381988 205 205 205
0.1784446 -0.04948598 0.3341633 205 205 205
0.1798218 -0.04874824 0.3322304 205 205 205
-0.04567351 -0.05915051 0.4325688 205 205 205
-0.04155719 -0.05981117 0.4321153 205 205 205
-0.02040941 -0.06440478 0.4329654 205 205 205
-0.009109279 -0.06909166 0.4389936 205 205 205
-0.001974453 -0.07549049 0.4511364 205 205 205
0.1414864 -0.07468098 0.3978086 205 205 205
0.1631734 -0.06826675 0.377451 205 205 205
0.1643129 -0.06814547 0.3769044 205 205 205
0.1663891 -0.06658222 0.3728274 205 205 205
0.1681784 -0.06592444 0.3709094 205 205 205
0.1708602 -0.06604336 0.3705792 205 205 205
0.1724337 -0.06629439 0.370804 205 205 205
0.1771828 -0.06702606 0.3714343 205 205 205
0.1773513 -0.06609132 0.3692633 205 205 205
0.1773775 -0.06195688 0.3598353 205 205 205
0.1775794 -0.05350676 0.3406366 205 205 205
0.1787508 -0.04994879 0.3323913 205 205 205
0.179705 -0.04976709 0.3318022 205 205 205
-0.04326616 -0.06104299 0.4323779 205 205 205
-0.02996811 -0.06390185 0.4327504 205 205 205
-0.01302369 -0.06841268 0.4355852 205 205 205
-0.004900619 -0.07588255 0.4496524 205 205 205
0.1372541 -0.08027847 0.4086047 205 205 205
0.1404536 -0.0763492 0.398619 205 205 205
0.1634579 -0.06982073 0.3777713 205 205 205
0.169605 -0.06732316 0.3706624 205 205 205
0.1716339 -0.06797677 0.3716876 205 205 205
0.1727538 -0.06783418 0.3711128 205 205 205
0.1777317 -0.0634611 0.3601429 205 205 205
0.1754892 -0.05772668 0.3477111 205 205 205
0.1783815 -0.05342805 0.337499 205 205 205
-0.02213243 -0.06655375 0.4318688 205 205 205
-0.01686166 -0.06769722 0.4321434 205 205 205
-0.01076298 -0.07093701 0.4369927 205 205 205
-0.007272608 -0.07399624 0.4426157 205 205 205
0.1426637 -0.07442395 0.3903122 205 205 205
0.1529309 -0.07195655 0.3820359 205 205 205
0.1564083 -0.07165416 0.3804836 205 205 205
0.1647262 -0.06992439 0.3745652 205 205 205
0.1658589 -0.06979743 0.374013 205 205 205
0.1778414 -0.07012685 0.3720257 205 205 205
0.177973 -0.0659233 0.3625945 205 205 205
0.1771965 -0.06322662 0.3567428 205 205 205
0.1776525 -0.05311751 0.3342007 205 205 205
0.1785126 -0.05198175 0.3315229 205 205 205
-0.05215231 -0.06001004 0.4274482 205 205 205
-0.04459059 -0.06242642 0.4293725 205 205 205
-0.04068337 -0.06342481 0.4298178 205 205 205
-0.0393789 -0.06375232 0.429957 205 205 205
-0.02789886 -0.06731505 0.4328403 205 205 205
-0.02115204 -0.06843095 0.4323457 205 205 205
-0.01850852 -0.0690053 0.4324828 205 205 205
-0.008752756 -0.07460806 0.441132 205 205 205
0.1427611 -0.09190349 0.4267258 205 205 205
0.141878 -0.07779758 0.3949525 205 205 205
0.1465227 -0.07446959 0.3861964 205 205 205
0.1668445 -0.07081291 0.3729606 205 205 205
0.1679734 -0.07068023 0.372401 205 205 205
0.1752431 -0.058897 0.3446758 205 205 205
0.1762147 -0.05680706 0.339877 205 205 205
0.1776749 -0.05606527 0.3379499 205 205 205
-0.03304819 -0.06655969 0.4300652 205 205 205
-0.01630121 -0.07154431 0.4339128 205 205 205
-0.007189544 -0.08062393 0.4507474 205 205 205
0.1493567 -0.1019838 0.4439908 205 205 205
0.1439318 -0.09316311 0.4256618 205 205 205
0.1402871 -0.08512653 0.4086041 205 205 205
0.1422219 -0.07808726 0.3922786 205 205 205
0.1435443 -0.07669676 0.3888111 205 205 205
0.1514648 -0.07436366 0.3815388 205 205 205
0.1781777 -0.06856956 0.3623933 205 205 205
0.1779049 -0.06622986 0.3573304 205 205 205
0.176561 -0.06308811 0.3507521 205 205 205
0.1782693 -0.05400705 0.3306394 205 205 205
-0.04370519 -0.06516934 0.4284867 205 205 205
-0.03569764 -0.06676473 0.4283917 205 205 205
-0.0201106 -0.07077377 0.4304468 205 205 205
-0.0117903 -0.07618179 0.4390643 205 205 205
-0.008809802 -0.08164053 0.4501633 205 205 205
0.1413823 -0.08150083 0.3968969 205 205 205
0.1473918 -0.07671086 0.3846807 205 205 205
0.1528703 -0.07583681 0.3813381 205 205 205
0.1612954 -0.07413762 0.3755003 205 205 205
0.1676801 -0.07296325 0.3713953 205 205 205
0.1728352 -0.07184613 0.3677565 205 205 205
0.178036 -0.06969143 0.3618963 205 205 205
0.1792127 -0.05581304 0.3316844 205 205 205
-0.05255351 -0.06323585 0.4249896 205 205 205
-0.04391366 -0.06636968 0.4279602 205 205 205
-0.03231552 -0.06965947 0.4300345 205 205 205
-0.02984069 -0.07065637 0.4311562 205 205 205
-0.01779941 -0.072938 0.4309551 205 205 205
-0.01659394 -0.07360495 0.4319264 205 205 205
-0.01335653 -0.07714925 0.4384771 205 205 205
-0.01220576 -0.07820313 0.4403473 205 205 205
0.1476114 -0.07829131 0.3849876 205 205 205
0.1772171 -0.06704186 0.3534499 205 205 205
0.177368 -0.06113389 0.3407685 205 205 205
-0.04760383 -0.06581303 0.4251483 205 205 205
-0.04522119 -0.0668612 0.4263703 205 205 205
-0.04392284 -0.06719794 0.4265214 205 205 205
-0.03235789 -0.07048766 0.4285879 205 205 205
-0.03104599 -0.07079876 0.4286938 205 205 205
-0.01252004 -0.07984434 0.4407049 205 205 205
0.1506082 -0.07875811 0.3821384 205 205 205
0.1586982 -0.07665724 0.375545 205 205 205
0.1631182 -0.07479167 0.3704432 205 205 205
0.1676154 -0.07426368 0.3682286 205 205 205
0.1766942 -0.06573588 0.3479571 205 205 205
0.1782386 -0.06200092 0.3397081 205 205 205
0.1800252 -0.05865088 0.332258 205 205 205
0.180459 -0.05805898 0.330921 205 205 205
-0.04542977 -0.06805292 0.4258361 205 205 205
-0.03798554 -0.07079313 0.4284884 205 205 205
-0.01940691 -0.07468355 0.4288997 205 205 205
-0.01304513 -0.08228083 0.4428796 205 205 205
0.1488549 -0.08095057 0.3842573 205 205 205
0.1645308 -0.07621445 0.3701743 205 205 205
0.1697025 -0.07510921 0.3665849 205 205 205
0.1774985 -0.06863239 0.3511071 205 205 205
0.1801054 -0.06268069 0.338046 205 205 205
-0.0518922 -0.06714268 0.4235755 205 205 205
-0.04231883 -0.07138404 0.4284503 205 205 205
-0.03014756 -0.07350828 0.4277109 205 205 205
-0.01635018 -0.07911277 0.4339817 205 205 205
0.1447582 -0.08649632 0.3941088 205 205 205
0.1482569 -0.08306178 0.3858627 205 205 205
0.150261 -0.08245077 0.3840365 205 205 205
0.151854 -0.08139841 0.3813869 205 205 205
0.157238 -0.0790489 0.3750298 205 205 205
0.1774559 -0.0741571 0.3598661 205 205 205
0.1771977 -0.0717253 0.3548447 205 205 205
-0.02480511 -0.07513002 0.4257022 205 205 205
-0.0149639 -0.08491336 0.4426003 205 205 205
0.1502519 -0.10336 0.4251108 205 205 205
0.1463153 -0.09308095 0.4044727 205 205 205
0.1484677 -0.08466148 0.3861391 205 205 205
0.1664819 -0.07820273 0.3680184 205 205 205
0.1777687 -0.07019711 0.3487555 205 205 205
0.1778554 -0.06715 0.3424503 205 205 205
-0.05124218 -0.07023162 0.423561 205 205 205
-0.04475811 -0.0719531 0.4243549 205 205 205
-0.03563654 -0.07425146 0.4252759 205 205 205
-0.02384222 -0.07701339 0.4261334 205 205 205
-0.01712399 -0.1054417 0.4838475 205 205 205
0.1542567 -0.08251981 0.3771456 205 205 205
0.1651992 -0.07946153 0.368046 205 205 205
0.1770167 -0.07739664 0.3609527 205 205 205
0.178223 -0.06862283 0.3427065 205 205 205
0.1816924 -0.06541457 0.3353983 205 205 205
-0.05358043 -0.06994335 0.4208685 205 205 205
-0.02768265 -0.07650823 0.4235227 205 205 205
-0.02637791 -0.07680849 0.423608 205 205 205
-0.01844683 -0.08289554 0.4331352 205 205 205
0.148644 -0.09724336 0.4061045 205 205 205
0.157582 -0.08332995 0.3750273 205 205 205
0.1587404 -0.08321466 0.3744941 205 205 205
0.1594803 -0.08265742 0.3731612 205 205 205
0.1613567 -0.08197536 0.3712866 205 205 205
0.1627802 -0.08084626 0.3686144 205 205 205
0.1654809 -0.08102001 0.3682984 205 205 205
0.1717826 -0.07972874 0.3641183 205 205 205
0.1770069 -0.07748304 0.3582993 205 205 205
0.1779108 -0.07379717 0.3506018 205 205 205
0.1784738 -0.0731953 0.3492513 205 205 205
0.182609 -0.06729161 0.3363819 205 205 205
-0.0540195 -0.07149646 0.4212108 205 205 205
-0.03717965 -0.07590486 0.4231421 205 205 205
0.150364 -0.08796723 0.3834702 205 205 205
0.1543448 -0.08667993 0.3797919 205 205 205
0.1563025 -0.08602133 0.3779389 205 205 205
0.1578292 -0.08490947 0.3752793 205 205 205
0.1593197 -0.08378937 0.3726176 205 205 205
0.1611971 -0.08310314 0.3707449 205 205 205
0.1671411 -0.08142778 0.3658585 205 205 205
0.1762352 -0.07918672 0.3591243 205 205 205
0.1771902 -0.07547957 0.3514326 205 205 205
0.1804875 -0.06974759 0.33917 205 205 205
-0.0514282 -0.07298672 0.4201042 205 205 205
-0.04585659 -0.07358202 0.4189487 205 205 205
-0.02778764 -0.07805446 0.4205981 205 205 205
-0.01859789 -0.08934353 0.4401462 205 205 205
0.149778 -0.0948846 0.3946917 205 205 205
0.1553596 -0.08772279 0.3787107 205 205 205
0.1573109 -0.0870548 0.3768536 205 205 205
0.1617541 -0.08365731 0.3688668 205 205 205
0.1786743 -0.07577693 0.3489662 205 205 205
-0.025545 -0.08023185 0.4210958 205 205 205
0.1706469 -0.08366834 0.363842 205 205 205
0.1748238 -0.08155886 0.3586358 205 205 205
0.1777607 -0.07956908 0.3539923 205 205 205
0.1802083 -0.0728856 0.3402329 205 205 205
-0.04606397 -0.07550274 0.4169305 205 205 205
-0.04261349 -0.0773109 0.4191419 205 205 205
-0.03762405 -0.07902485 0.420543 205 205 205
-0.03614653 -0.07893834 0.419763 205 205 205
-0.03355309 -0.07957058 0.4199801 205 205 205
-0.03242194 -0.08029304 0.4209784 205 205 205
-0.02169369 -0.1010893 0.4587145 205 205 205
0.168912 -0.08448179 0.3630911 205 205 205
0.1729207 -0.08342612 0.3600222 205 205 205
0.1730955 -0.08237444 0.3579128 205 205 205
0.1748197 -0.08160578 0.3559833 205 205 205
0.1861701 -0.07277212 0.3360557 205 205 205
-0.04023813 -0.07913269 0.4188306 205 205 205
-0.03783289 -0.08019215 0.4199674 205 205 205
-0.02537845 -0.08496317 0.4245031 205 205 205
-0.02300344 -0.09090949 0.4354657 205 205 205
-0.02176428 -0.09658685 0.4463466 205 205 205
0.1580191 -0.09184727 0.3775395 205 205 205
0.1583885 -0.09081633 0.3754195 205 205 205
0.1646788 -0.08661084 0.3655593 205 205 205
0.1721091 -0.08513676 0.3608153 205 205 205
0.1803813 -0.07755918 0.3440905 205 205 205
-0.03023194 -0.08324916 0.4200093 205 205 205
0.1562461 -0.09563617 0.3825306 205 205 205
0.1586535 -0.09391492 0.3785431 205 205 205
0.1609017 -0.09067041 0.3716494 205 205 205
0.1626689 -0.08844874 0.3668812 205 205 205
0.1638102 -0.08831556 0.3663296 205 205 205
0.1793495 -0.08355772 0.3532624 205 205 205
0.1811834 -0.08059226 0.3471204 205 205 205
0.1823182 -0.07824399 0.3423445 205 205 205
0.186469 -0.07746587 0.3398796 205 205 205
-0.03417752 -0.08305942 0.4182415 205 205 205
-0.02727172 -0.08745118 0.4241354 205 205 205
-0.02638264 -0.08903176 0.4268893 205 205 205
0.1564617 -0.09726293 0.3827332 205 205 205
0.1604504 -0.09436265 0.3760854 205 205 205
0.1706663 -0.08749896 0.3602735 205 205 205
0.1852797 -0.07981102 0.3420402 205 205 205
-0.05268962 -0.07994647 0.4166603 205 205 205
-0.05140148 -0.08029924 0.4168239 205 205 205
-0.04860688 -0.08058427 0.4162523 205 205 205
-0.03957127 -0.08293397 0.4172061 205 205 205
-0.03342646 -0.08537963 0.4195326 205 205 205
-0.03228495 -0.08611783 0.4205191 205 205 205
0.1591087 -0.09714809 0.378942 205 205 205
0.1617236 -0.09279626 0.36995 205 205 205
0.1680232 -0.08997478 0.3629506 205 205 205
0.1700469 -0.08813768 0.3589461 205 205 205
0.1748004 -0.08533363 0.3524381 205 205 205
0.1758884 -0.0851647 0.3518486 205 205 205
-0.05523892 -0.0799725 0.4148493 205 205 205
-0.04217099 -0.08300763 0.4154791 205 205 205
-0.03978072 -0.08408742 0.4166141 205 205 205
-0.03494295 -0.08622599 0.4188347 205 205 205
-0.03397666 -0.08739735 0.4207113 205 205 205
-0.02948555 -0.09079843 0.4255163 205 205 205
0.1676022 -0.09216049 0.3644757 205 205 205
0.1768128 -0.0860708 0.3506961 205 205 205
0.1859728 -0.08394501 0.3444757 205 205 205
-0.04624185 -0.08314684 0.4144795 205 205 205
-0.04238023 -0.08415412 0.4148849 205 205 205
-0.03888128 -0.08599141 0.4170202 205 205 205
-0.03320698 -0.089744 0.4219754 205 205 205
-0.02776223 -0.09478175 0.4294936 205 205 205
0.1611576 -0.1022983 0.3824434 205 205 205
0.1639961 -0.09369462 0.3655786 205 205 205
0.1694981 -0.09141561 0.359896 205 205 205
0.1730541 -0.0898501 0.3560698 205 205 205
0.1797928 -0.08771987 0.3504157 205 205 205
0.1803874 -0.0870753 0.3490713 205 205 205
-0.03684879 -0.08865517 0.4184065 205 205 205
-0.02777672 -0.09981579 0.4360235 205 205 205
0.1629437 -0.09962232 0.3741615 205 205 205
0.1690947 -0.09360991 0.361406 205 205 205
0.1704535 -0.0923586 0.358741 205 205 205
0.1801162 -0.0892655 0.3505826 205 205 205
0.1817994 -0.08843161 0.3486281 205 205 205
0.1877828 -0.08455086 0.3400302 205 205 205
-0.04079246 -0.08839838 0.4165727 205 205 205
-0.03226836 -0.0962372 0.4279895 205 205 205
-0.03091232 -0.09655494 0.4280742 205 205 205
-0.02940268 -0.09642768 0.4272704 205 205 205
0.1626997 -0.0991906 0.3706807 205 205 205
0.1645065 -0.09686849 0.3659337 205 205 205
0.166379 -0.09610819 0.3640448 205 205 205
