ply
format ascii 1.0
comment Generated by Floating Hands
element vertex 1063
property double x
property double y
property double z
property uchar red
property uchar green
property uchar blue
end_header
-0.01291402 0.01695021 0.4025685 0 0 0
-0.01179668 0.01670703 0.4026791 0 0 0
-0.007206516 0.01591581 0.4021001 0 0 0
-0.002934616 0.01466755 0.4043966 205 205 205
0.01134767 0.01048801 0.4128984 205 205 205
0.01358849 0.009727562 0.4149019 205 205 205
0.02418497 0.009064242 0.4089547 205 205 205
0.03506261 0.01127723 0.3878858 205 205 205
0.03606601 0.01150336 0.3858593 205 205 205
0.03705414 0.01173352 0.3838299 205 205 205
0.0418788 0.0125621 0.3756017 205 205 205
0.04722875 0.01135456 0.3780674 205 205 205
0.05068316 0.01021888 0.3816461 205 205 205
0.07322752 0.01285974 0.3532876 205 205 205
0.117042 0.005759655 0.3705379 205 205 205
0.1190941 0.006402357 0.366696 205 205 205
0.1280871 0.006571603 0.3632886 205 205 205
0.130444 0.006424591 0.3633968 205 205 205
0.1330353 0.006734945 0.3612716 205 205 205
-0.0373945 0.006587021 0.475975 205 205 205
-0.0289621 0.01271844 0.4352667 205 205 205
-0.004112921 0.01392907 0.4031299 205 205 205
0.008985192 0.01008862 0.4106626 205 205 205
0.0251991 0.008094938 0.4067459 205 205 205
0.03876928 0.01153907 0.377603 205 205 205
0.04175616 0.01152447 0.375405 205 205 205
0.04284146 0.01119989 0.3762974 205 205 205
0.05655132 0.007182018 0.3876272 205 205 205
0.05858942 0.007162903 0.3863669 205 205 205
0.06314901 0.007865495 0.3797623 205 205 205
0.06413314 0.01064248 0.3647306 205 205 205
0.07123601 0.01201501 0.3534839 205 205 205
0.07994269 0.01128548 0.3526016 205 205 205
0.0806719 0.01144487 0.3514256 205 205 205
0.08348992 0.01130846 0.3507424 205 205 205
0.09557617 0.005622491 0.373868 205 205 205
0.1079664 0.002239416 0.3855731 205 205 205
0.120332 0.005775719 0.3639196 205 205 205
0.1213271 0.005790571 0.3635507 205 205 205
0.1364871 0.004905545 0.3638126 205 205 205
-0.02796813 0.01256843 0.428223 205 205 205
-0.02412322 0.01481851 0.4128067 205 205 205
-0.0188125 0.01594733 0.4015405 0 0 0
-0.01282934 0.01519322 0.3992216 0 0 0
-0.01061489 0.01471181 0.3994354 205 205 205
-0.003245934 0.0123985 0.4039745 205 205 205
0.001011499 0.01097551 0.4071846 205 205 205
0.01319408 0.007003088 0.4164223 205 205 205
0.02505897 0.007133138 0.4055434 205 205 205
0.0335003 0.01101215 0.3787069 205 205 205
0.03653962 0.01096987 0.3765625 205 205 205
0.06143336 0.006170356 0.3837539 205 205 205
0.06290006 0.007004739 0.3785835 205 205 205
0.06845739 0.01103961 0.3548076 205 205 205
0.07302773 0.01091484 0.3529073 205 205 205
0.08410311 0.01050731 0.3493651 205 205 205
0.1030136 0.001636482 0.3847357 205 205 205
0.1059745 0.0009393424 0.3869281 205 205 205
0.1103035 0.0008563756 0.3856229 205 205 205
0.1121684 0.001042417 0.3840155 205 205 205
0.1185812 0.004472981 0.3653505 205 205 205
0.1212389 0.004727053 0.3633363 205 205 205
0.1238633 0.004998575 0.3612983 205 205 205
0.1315023 0.004771821 0.3603532 205 205 205
0.1346305 0.004206686 0.3622225 205 205 205
0.1356225 0.004247958 0.361802 205 205 205
0.1379997 0.004123395 0.3618427 205 205 205
-0.03436029 0.006976193 0.45601 205 205 205
-0.02008863 0.01508144 0.4011928 0 0 0
-0.01298751 0.01407978 0.3990091 205 205 205
-0.002468607 0.01068402 0.4057884 205 205 205
0.02606947 0.007360829 0.3974403 205 205 205
0.03535018 0.01027255 0.3754432 205 205 205
0.04253498 0.009322129 0.3749124 205 205 205
0.06024874 0.00519126 0.3836935 205 205 205
0.06265116 0.006152783 0.3774022 205 205 205
0.06446329 0.009175046 0.3612648 205 205 205
0.07537158 0.01019508 0.3501952 205 205 205
0.08470891 0.009716977 0.3479839 205 205 205
0.1112797 -0.0002927041 0.3850554 205 205 205
0.1137669 0.0009800078 0.378109 205 205 205
0.1181573 0.003625173 0.3642142 205 205 205
0.1341593 0.003348283 0.3611041 205 205 205
-0.008591128 0.01218493 0.3982244 205 205 205
0.001840133 0.008462577 0.4067947 205 205 205
0.01288181 0.004634648 0.4159569 205 205 205
0.03212151 0.009876756 0.3744284 205 205 205
0.03821699 0.009229082 0.3730738 205 205 205
0.04658984 0.007576241 0.3752932 205 205 205
0.04777496 0.007037312 0.377137 205 205 205
0.04881214 0.006916844 0.3770265 205 205 205
0.05479914 0.004652823 0.3841958 205 205 205
0.06336669 0.006842991 0.3681542 205 205 205
0.06584857 0.008666154 0.3578283 205 205 205
0.07433407 0.009290253 0.3501998 205 205 205
0.07620899 0.009176809 0.3497908 205 205 205
0.07714549 0.009122744 0.3495812 205 205 205
0.07880629 0.009239979 0.3481995 205 205 205
0.08044939 0.009365099 0.346808 205 205 205
0.08322437 0.009235975 0.3461249 205 205 205
0.09273531 0.006333603 0.3557087 205 205 205
0.1036014 0.0004511937 0.3789667 205 205 205
0.1060253 -0.0006838215 0.3833335 205 205 205
0.1090132 -0.001392227 0.3854878 205 205 205
0.1122549 -0.001438346 0.3844795 205 205 205
0.1200292 0.003270975 0.360158 205 205 205
0.1268934 0.00343168 0.3575052 205 205 205
-0.02748829 0.009908438 0.4216869 205 205 205
-0.01427314 0.01227732 0.3974843 205 205 205
0.002746669 0.006909618 0.4075955 205 205 205
0.003742939 0.006312056 0.4096018 205 205 205
0.004754856 0.005713697 0.4116046 205 205 205
0.005917858 0.005495661 0.4116449 205 205 205
0.006953457 0.004897167 0.4136399 205 205 205
0.02791781 0.008644331 0.3783126 205 205 205
0.02994573 0.009148773 0.3743142 205 205 205
0.04876949 0.005657418 0.3777837 205 205 205
0.05360718 0.003689103 0.3841053 205 205 205
0.06278386 0.005036844 0.3719696 205 205 205
0.06325282 0.005821111 0.3679412 205 205 205
0.0702225 0.007757631 0.3548017 205 205 205
0.07423308 0.008328875 0.349998 205 205 205
0.07704582 0.008161222 0.349379 205 205 205
0.08798823 0.007876482 0.345661 205 205 205
0.1221822 0.002732257 0.3570026 205 205 205
0.1268064 0.002384091 0.3572808 205 205 205
-0.02201848 0.01163409 0.4023317 205 205 205
-0.02057829 0.01172314 0.4005272 205 205 205
0.05348094 0.002612245 0.3838777 205 205 205
0.05964333 0.00239605 0.3810844 205 205 205
0.0640031 0.004935459 0.3665938 205 205 205
0.06836646 0.006698094 0.3559222 205 205 205
0.07767632 0.007375887 0.3480083 205 205 205
0.08881763 0.006888851 0.3452029 205 205 205
0.09516225 0.004484301 0.353525 205 205 205
0.09773517 0.003081469 0.358857 205 205 205
0.122353 0.00217585 0.3545892 205 205 205
0.1233188 0.002200708 0.3542123 205 205 205
0.1360741 0.0007278976 0.3573691 205 205 205
0.001703329 0.005815281 0.4021816 205 205 205
0.008807916 0.001524525 0.4161452 205 205 205
0.01004601 0.001511493 0.4151903 205 205 205
0.01122711 0.00130033 0.4152093 205 205 205
0.01488737 0.001290433 0.4123053 205 205 205
0.05940171 0.001551761 0.3798861 205 205 205
0.06113267 0.002026571 0.3766745 205 205 205
0.06178593 0.002607236 0.3736176 205 205 205
0.06514998 0.004887242 0.3612201 205 205 205
0.07079237 0.005969484 0.3532346 205 205 205
0.0854675 0.006496627 0.343854 205 205 205
0.08847199 0.006166401 0.3440534 205 205 205
0.0969792 0.003446538 0.3527445 205 205 205
0.108735 -0.002251487 0.3735422 205 205 205
0.1114442 -0.0004087698 0.3644773 205 205 205
0.1128179 6.134061E-05 0.3619565 205 205 205
0.113492 0.000299332 0.3606946 205 205 205
0.1144817 0.0003049387 0.3603482 205 205 205
0.1193568 0.001082076 0.3554707 205 205 205
0.1258939 0.0007593049 0.3550197 205 205 205
0.1272346 0.0005569927 0.3555283 205 205 205
-0.002165804 0.007154207 0.3938927 205 205 205
-0.001261186 0.006539727 0.3959095 205 205 205
-0.0002488157 0.006121788 0.3969474 205 205 205
0.000771662 0.005704264 0.3979816 205 205 205
0.01377272 0.001359603 0.4071606 205 205 205
0.01507998 0.001989447 0.4032563 205 205 205
0.01639198 0.002834709 0.3983703 205 205 205
0.01898432 0.005178877 0.385654 205 205 205
0.03256033 0.006277461 0.3705802 205 205 205
0.046235 0.002982275 0.3763549 205 205 205
0.05449202 -0.0001062801 0.3852142 205 205 205
0.05664301 -0.0003318343 0.3849335 205 205 205
0.06434299 0.003511708 0.3630937 205 205 205
0.07486486 0.005393002 0.349167 205 205 205
0.0862901 0.005515454 0.3433988 205 205 205
0.08904315 0.005423924 0.3426486 205 205 205
0.09350786 0.004613674 0.3444032 205 205 205
0.1160319 -0.0004816297 0.3584968 205 205 205
0.1231401 0.0001412855 0.3537506 205 205 205
0.130439 -0.0006140484 0.354991 205 205 205
-0.02837126 0.004934754 0.4216574 205 205 205
-0.01964162 0.00849131 0.3980151 205 205 205
-0.01822547 0.008612298 0.3962027 205 205 205
-0.01203142 0.008334736 0.3919164 205 205 205
-0.01094372 0.008096623 0.3920173 205 205 205
-0.009855358 0.007860524 0.3921141 205 205 205
-0.008643443 0.007821384 0.391234 205 205 205
0.005559877 0.001672313 0.406754 205 205 205
0.0243056 0.006055322 0.3726369 205 205 205
0.02533128 0.006111782 0.3716322 205 205 205
0.02937947 0.005929397 0.3695309 205 205 205
0.03038928 0.005779961 0.3694846 205 205 205
0.04610756 0.001940719 0.3761226 205 205 205
0.05543911 -0.001301448 0.3848336 205 205 205
0.05640899 -0.001182117 0.383724 205 205 205
0.06365719 0.001890787 0.3659213 205 205 205
0.07363179 0.004731758 0.3482011 205 205 205
0.07930798 0.005324559 0.3429271 205 205 205
0.08000494 0.005520062 0.3417593 205 205 205
0.08778048 0.00474766 0.3417486 205 205 205
0.108714 -0.001303287 0.3597297 205 205 205
0.1194456 -0.0004735172 0.3528239 205 205 205
0.1217257 -0.0006705967 0.3529883 205 205 205
0.127279 -0.00100679 0.3528672 205 205 205
0.1286207 -0.001212366 0.3533658 205 205 205
0.1339976 -0.0007187895 0.3500274 205 205 205
-0.008676169 0.006939663 0.3900231 205 205 205
0.00165973 0.003476578 0.3965731 205 205 205
0.03537613 0.00360015 0.3709175 205 205 205
0.04709432 0.0005449785 0.3767483 205 205 205
0.04821667 0.0001906552 0.3776059 205 205 205
0.05902825 -0.001636836 0.3791706 205 205 205
0.06922709 0.002239089 0.356778 205 205 205
0.07219698 0.003175459 0.3512368 205 205 205
0.08081831 0.004544136 0.341319 205 205 205
0.08676902 0.003836877 0.3417796 205 205 205
0.09107067 0.003948244 0.3395683 205 205 205
0.129878 -0.002452976 0.3536144 205 205 205
-0.0228511 0.006026455 0.4011267 205 205 205
-0.003412563 0.004725882 0.3901803 205 205 205
-0.001435793 0.003867996 0.3922588 205 205 205
0.02304235 0.004633843 0.3702518 205 205 205
0.03318463 0.00310061 0.3698379 205 205 205
0.0362645 0.002446185 0.3706149 205 205 205
0.05185819 -0.002874363 0.3837744 205 205 205
0.05722396 -0.003443928 0.3830824 205 205 205
0.07675858 0.003101432 0.3450328 205 205 205
0.07840046 0.003250091 0.3436552 205 205 205
0.0936945 0.002953461 0.3385443 205 205 205
0.09550291 0.002923306 0.3379932 205 205 205
0.09759723 0.002650667 0.3383533 205 205 205
0.09908845 0.00214249 0.339911 205 205 205
0.1008905 0.001386303 0.3423825 205 205 205
0.1105316 -0.002617804 0.3554969 205 205 205
0.1118251 -0.002863502 0.3560744 205 205 205
0.1185628 -0.002013046 0.3505352 205 205 205
-0.03436853 -0.0030276 0.4438517 205 205 205
-0.02516173 0.003999036 0.4065258 205 205 205
-0.01981782 0.005573657 0.3953393 205 205 205
0.0004180275 0.001918562 0.394071 205 205 205
0.003571123 0.0008410673 0.3961633 205 205 205
0.009675995 0.001769634 0.3875628 205 205 205
0.01230698 0.003363796 0.3788333 205 205 205
0.01991742 0.004575379 0.368123 205 205 205
0.0330537 0.002091982 0.3696017 205 205 205
0.04025991 0.0006547434 0.3710343 205 205 205
0.04133707 0.0002865127 0.3719164 205 205 205
0.049251 -0.002744498 0.3799022 205 205 205
0.05172651 -0.003947773 0.383521 205 205 205
0.05289376 -0.004307425 0.3843561 205 205 205
0.05720282 -0.004761371 0.3837923 205 205 205
0.05912341 -0.0044884 0.3815616 205 205 205
0.06168948 -0.003568382 0.3762732 205 205 205
0.06851751 -0.0003939227 0.3593659 205 205 205
0.07311571 0.0009395311 0.3515341 205 205 205
0.07538575 0.001513917 0.348071 205 205 205
0.07612611 0.001709855 0.3469133 205 205 205
0.07900566 0.002515907 0.3422666 205 205 205
0.08583845 0.002715043 0.3385239 205 205 205
0.08764645 0.002656908 0.3380281 205 205 205
0.0882934 0.002883288 0.3368422 205 205 205
0.09484493 0.002495124 0.3359172 205 205 205
0.1054029 -0.001103063 0.3467433 205 205 205
0.1120592 -0.003372583 0.3536617 205 205 205
0.125885 -0.00333607 0.3494521 205 205 205
0.1333814 -0.004901271 0.3536598 205 205 205
-0.02141084 0.004333504 0.3968868 205 205 205
-0.01455405 0.004908064 0.3887888 205 205 205
0.0002620596 0.0008265466 0.3938146 205 205 205
0.008639779 0.001566611 0.3843685 205 205 205
0.02884439 0.002146553 0.3676282 205 205 205
0.03808443 -9.342326E-05 0.370956 205 205 205
0.04023112 -0.0008426573 0.3727299 205 205 205
0.06461708 -0.002990045 0.367673 205 205 205
0.06689588 -0.001985217 0.3623577 205 205 205
0.0739602 -8.544224E-05 0.3510972 205 205 205
0.08073891 0.001494669 0.341591 205 205 205
0.0816557 0.00145377 0.341362 205 205 205
0.08664486 0.00175864 0.3380514 205 205 205
0.09088997 0.001892425 0.3358425 205 205 205
0.1132397 -0.00385314 0.3509073 205 205 205
0.115158 -0.003827411 0.3502107 205 205 205
0.1176787 -0.00351732 0.3482386 205 205 205
0.1246089 -0.004929268 0.3517634 205 205 205
0.1305711 -0.005517532 0.3524549 205 205 205
0.1336792 -0.006197524 0.3542869 205 205 205
-0.01321029 0.004227521 0.3857399 205 205 205
-0.01200328 0.004200741 0.3848738 205 205 205
-0.003558276 0.002153639 0.3865145 205 205 205
0.007491424 0.000935214 0.3831163 205 205 205
0.03072754 0.0008503427 0.3672889 205 205 205
0.03278997 7.8261E-05 0.3691175 205 205 205
0.03380568 -6.560222E-05 0.3690554 205 205 205
0.03485226 -0.0004491613 0.3699597 205 205 205
0.04221879 -0.002374348 0.3732674 205 205 205
0.04815767 -0.00547591 0.3824065 205 205 205
0.04939087 -0.006095737 0.3842181 205 205 205
0.06112505 -0.007084451 0.3816833 205 205 205
0.06877022 -0.003140779 0.3617423 205 205 205
0.06943613 -0.00270368 0.3596472 205 205 205
0.07221943 -0.00265757 0.3581106 205 205 205
0.07344767 -0.001759451 0.3539087 205 205 205
0.07971869 0.0006043282 0.3415858 205 205 205
0.0862985 0.00109349 0.3368883 205 205 205
0.08873925 0.001275225 0.3352027 205 205 205
0.0898962 0.0009919583 0.3358747 205 205 205
0.09258562 0.0009344326 0.3350812 205 205 205
0.09348035 0.0009187994 0.3348104 205 205 205
0.09912362 -0.0001773682 0.3370845 205 205 205
0.1015368 -0.000708068 0.3383252 205 205 205
0.11153 -0.004345146 0.3491818 205 205 205
0.115339 -0.004293566 0.3477989 205 205 205
0.1166317 -0.004536698 0.348347 205 205 205
0.1326064 -0.007285744 0.3544416 205 205 205
0.1349558 -0.007453026 0.3544864 205 205 205
0.13514 -0.00688599 0.3523006 205 205 205
-0.04556912 -0.01698649 0.4918139 205 205 205
-0.01443768 0.003410592 0.3853792 205 205 205
-0.01308528 0.00359857 0.3835516 205 205 205
-0.006699371 0.002205787 0.3840977 205 205 205
-0.005747802 0.001760383 0.3851439 205 205 205
0.01548372 0.002277374 0.3674256 205 205 205
0.01648982 0.002102837 0.3674255 205 205 205
0.02756675 0.0005462415 0.3662144 205 205 205
0.03265717 -0.0009268171 0.3688694 205 205 205
0.03471971 -0.001458542 0.3697104 205 205 205
0.03679757 -0.001984817 0.3705358 205 205 205
0.04214416 -0.003649455 0.37398 205 205 205
0.05386917 -0.01132677 0.3980145 205 205 205
0.05953649 -0.009480849 0.3874964 205 205 205
0.06231952 -0.008768957 0.383167 205 205 205
0.08439487 0.0002343649 0.3371438 205 205 205
0.08864161 0.0003586602 0.3349711 205 205 205
0.09427847 -1.521321E-05 0.3343035 205 205 205
0.09664027 -0.0005673321 0.3355865 205 205 205
0.1060502 -0.003239379 0.342637 205 205 205
0.1184377 -0.005493657 0.3473719 205 205 205
0.1214084 -0.006237187 0.3493247 205 205 205
0.1317377 -0.007801541 0.3524075 205 205 205
0.1352156 -0.007347695 0.3498542 205 205 205
-0.02125216 0.001886591 0.392241 205 205 205
-0.01098121 0.002296663 0.3825247 205 205 205
-0.007797636 0.001604274 0.3827902 205 205 205
-0.002896005 -0.0004157881 0.3870297 205 205 205
0.0001614286 -0.001528022 0.3891432 205 205 205
0.001339704 -0.001514864 0.3882248 205 205 205
0.02341535 0.0001817157 0.3661046 205 205 205
0.02743001 -0.0001997254 0.3649967 205 205 205
0.02843772 -0.0005970031 0.3659225 205 205 205
0.03148895 -0.001536972 0.3677075 205 205 205
0.04567346 -0.00709609 0.3811363 205 205 205
0.05103519 -0.01092323 0.3931875 205 205 205
0.06528057 -0.01186967 0.3892407 205 205 205
0.07592532 -0.003618904 0.3518449 205 205 205
0.07724062 -0.002930751 0.3485835 205 205 205
0.08134732 -0.001342068 0.3406577 205 205 205
0.08203655 -0.00111404 0.3394888 205 205 205
0.08519704 -0.0007165829 0.3366657 205 205 205
0.08609925 -0.000746361 0.3364201 205 205 205
0.105012 -0.003397042 0.339656 205 205 205
0.114466 -0.005745179 0.3454856 205 205 205
0.1213111 -0.007245436 0.3490637 205 205 205
0.1264643 -0.007352767 0.3480355 205 205 205
-0.0172014 0.001350901 0.3865621 205 205 205
-0.01339989 0.001502379 0.3830321 205 205 205
0.0002849813 -0.001903255 0.3859688 205 205 205
0.009105313 0.00114821 0.367824 205 205 205
0.01529322 0.0007787254 0.364989 205 205 205
0.01629235 0.0006048713 0.3649885 205 205 205
0.03135507 -0.002535631 0.3674527 205 205 205
0.04453112 -0.008281765 0.3819369 205 205 205
0.07362027 -0.008300754 0.3668298 205 205 205
0.07410561 -0.007564704 0.3637801 205 205 205
0.07456762 -0.006825208 0.3607315 205 205 205
0.07787409 -0.00366847 0.3471751 205 205 205
0.08933942 -0.001493738 0.3342401 205 205 205
0.09705479 -0.002155138 0.3339028 205 205 205
0.09944044 -0.002711708 0.3351533 205 205 205
0.1108755 -0.006227525 0.3444523 205 205 205
0.1175435 -0.006942495 0.3450591 205 205 205
0.1231289 -0.008193951 0.3480426 205 205 205
0.1303871 -0.009054548 0.3492215 205 205 205
-0.03409864 -0.008967315 0.4343194 205 205 205
-0.0212514 0.0001647331 0.3897752 205 205 205
-0.01983785 0.000349992 0.3879785 205 205 205
-0.004692345 -0.0006999911 0.3805587 205 205 205
-0.001924468 -0.002293088 0.3846193 205 205 205
-0.0006555242 -0.002040496 0.3827427 205 205 205
0.0005049942 -0.002018826 0.3818287 205 205 205
0.007883698 0.0001062624 0.3685129 205 205 205
0.008963253 0.0001574939 0.3675696 205 205 205
0.01210257 8.75685E-05 0.3656852 205 205 205
0.02315673 -0.001544502 0.3646299 205 205 205
0.02516472 -0.001609881 0.3635996 205 205 205
0.03229744 -0.004446141 0.3700349 205 205 205
0.03440489 -0.005249593 0.371837 205 205 205
0.04337851 -0.009470413 0.3827286 205 205 205
0.05342643 -0.01801623 0.4097726 205 205 205
0.07550961 -0.03272602 0.4542755 205 205 205
0.0722708 -0.01390203 0.3844535 205 205 205
0.07418127 -0.01196898 0.3762388 205 205 205
0.07625404 -0.007678008 0.3590966 205 205 205
0.07705592 -0.006155259 0.3530069 205 205 205
0.08499376 -0.002552015 0.3361835 205 205 205
0.1057347 -0.005294446 0.3388366 205 205 205
0.1335686 -0.01020743 0.3485872 205 205 205
-0.04480973 -0.02086831 0.4817256 205 205 205
-0.01721421 -0.0003139255 0.3840968 205 205 205
-0.0150744 -0.0008045498 0.3843171 205 205 205
-0.01117933 -0.0003716747 0.3798012 205 205 205
-0.0099931 -0.0003723849 0.3789284 205 205 205
-0.006718012 -0.0008213974 0.3782127 205 205 205
0.0005404325 -0.002582499 0.3796248 205 205 205
0.001867912 -0.002071639 0.376774 205 205 205
0.005557675 -0.000985976 0.3701274 205 205 205
0.01804895 -0.001449944 0.3634987 205 205 205
0.07558364 -0.01550734 0.3844711 205 205 205
0.07670629 -0.01400177 0.3783576 205 205 205
0.07705117 -0.01296741 0.3743582 205 205 205
0.07933053 -0.005388945 0.3452851 205 205 205
0.08709262 -0.00299285 0.3333377 205 205 205
0.08887866 -0.003039342 0.3328281 205 205 205
0.08977042 -0.003059956 0.3325687 205 205 205
0.09804837 -0.004281445 0.3340359 205 205 205
0.1037798 -0.005407394 0.3361737 205 205 205
0.1065538 -0.006237053 0.3382598 205 205 205
0.1112851 -0.007886925 0.3426878 205 205 205
0.1205338 -0.009116589 0.3443203 205 205 205
0.1244727 -0.009857493 0.3458457 205 205 205
0.1290364 -0.01025699 0.3460321 205 205 205
0.1299885 -0.0102124 0.3456274 205 205 205
0.1317234 -0.01072198 0.3469731 205 205 205
0.1334711 -0.01122885 0.3483094 205 205 205
0.1348323 -0.0114552 0.3487623 205 205 205
0.1371652 -0.01162342 0.348778 205 205 205
-0.01373084 -0.001399282 0.3812599 205 205 205
-0.006872125 -0.001848978 0.3779418 205 205 205
-0.001723602 -0.003189251 0.3792429 205 205 205
0.009880064 -0.001260347 0.3641708 205 205 205
0.02188195 -0.003346849 0.364136 205 205 205
0.02689235 -0.004397743 0.3649345 205 205 205
0.02993581 -0.005375599 0.3667207 205 205 205
0.05035688 -0.01873963 0.404626 205 205 205
0.0565437 -0.0272939 0.4329533 205 205 205
0.07758597 -0.01835281 0.3896198 205 205 205
0.07837197 -0.01626202 0.3816141 205 205 205
0.09884781 -0.005207856 0.3334908 205 205 205
0.1105238 -0.008289393 0.3406206 205 205 205
0.1226878 -0.01032495 0.3441828 205 205 205
0.1253243 -0.01081971 0.3451819 205 205 205
0.1352957 -0.01214381 0.3471827 205 205 205
0.1354432 -0.01152602 0.3450159 205 205 205
-0.02141222 -0.00258361 0.3870172 205 205 205
-0.008075511 -0.002649425 0.3775884 205 205 205
-0.004698556 -0.002834824 0.3758858 205 205 205
-0.003766236 -0.003297342 0.3769158 205 205 205
0.009673706 -0.002489506 0.3648728 205 205 205
0.01487313 -0.002370298 0.3610584 205 205 205
0.01876978 -0.00357007 0.3629627 205 205 205
0.0375603 -0.01195456 0.3823418 205 205 205
0.04242055 -0.01523571 0.3915826 205 205 205
0.04365436 -0.01592089 0.3933984 205 205 205
0.07958306 -0.02882954 0.4221289 205 205 205
0.07836108 -0.02278487 0.4008677 205 205 205
0.08024786 -0.01883516 0.3857886 205 205 205
0.07905582 -0.009747333 0.3536425 205 205 205
0.07920351 -0.008657216 0.3496701 205 205 205
0.08377797 -0.005265102 0.3356767 205 205 205
0.09251517 -0.005211448 0.3321888 205 205 205
0.1085143 -0.008400175 0.3379859 205 205 205
0.118322 -0.01025846 0.3414744 205 205 205
0.1239031 -0.0115672 0.3444074 205 205 205
0.1326997 -0.01360309 0.3490345 205 205 205
0.1365622 -0.01339118 0.3473381 205 205 205
-0.03359212 -0.01231273 0.4263223 205 205 205
-0.01137456 -0.002983605 0.3770524 205 205 205
-0.008230799 -0.003673965 0.3773096 205 205 205
-0.007059143 -0.003654922 0.3764261 205 205 205
0.001967566 -0.003628263 0.3701688 205 205 205
0.003167356 -0.003326361 0.3682843 205 205 205
0.007453029 -0.003347083 0.3655249 205 205 205
0.01866187 -0.004281231 0.3617305 205 205 205
0.02260818 -0.005467893 0.3635743 205 205 205
0.03900301 -0.01644366 0.3934925 205 205 205
0.05283691 -0.02674968 0.4229959 205 205 205
0.08280952 -0.03608102 0.4416173 205 205 205
0.08066015 -0.00802055 0.3431106 205 205 205
0.08742415 -0.005444124 0.3314079 205 205 205
0.1031687 -0.007921958 0.334487 205 205 205
0.104389 -0.008208742 0.3350783 205 205 205
0.1217551 -0.01172292 0.3418567 205 205 205
-0.01362449 -0.003534772 0.3765803 205 205 205
-0.007090881 -0.00442584 0.3751834 205 205 205
-0.002486439 -0.004298063 0.3716086 205 205 205
0.03059816 -0.009597021 0.3696892 205 205 205
0.036634 -0.01751814 0.3943196 205 205 205
0.04509311 -0.02106947 0.4022516 205 205 205
0.08986649 -0.05044925 0.4836994 205 205 205
0.08061548 -0.02750694 0.4075093 205 205 205
0.08138762 -0.02504456 0.3985572 205 205 205
0.08046694 -0.01008779 0.3468009 205 205 205
0.08732079 -0.006344054 0.3311505 205 205 205
0.1042876 -0.009141624 0.3348104 205 205 205
0.1114039 -0.01054842 0.3373361 205 205 205
0.1233309 -0.01325662 0.3429583 205 205 205
0.1259719 -0.0137687 0.3439414 205 205 205
0.1284407 -0.01490236 0.3470551 205 205 205
0.1328859 -0.01593782 0.3493224 205 205 205
-0.0231642 -0.005741313 0.3869704 205 205 205
-0.01363567 -0.004306734 0.3753369 205 205 205
-0.008415243 -0.005467117 0.3757806 205 205 205
0.01037321 -0.005077705 0.3621484 205 205 205
0.01935051 -0.006656358 0.3621314 205 205 205
0.02231408 -0.00769493 0.3639854 205 205 205
0.02532024 -0.008998708 0.3667671 205 205 205
0.0368837 -0.0219862 0.4055164 205 205 205
0.09052631 -0.05087042 0.4792117 205 205 205
0.08395848 -0.02522827 0.3937278 205 205 205
0.08065367 -0.01019218 0.3435018 205 205 205
0.08324809 -0.008859335 0.3379136 205 205 205
0.08436459 -0.008030639 0.3346528 205 205 205
0.08925904 -0.007583894 0.3312931 205 205 205
0.09399445 -0.007957957 0.3308595 205 205 205
0.09814768 -0.008583918 0.331537 205 205 205
0.1176626 -0.01287894 0.3397477 205 205 205
0.1245458 -0.01450345 0.3431636 205 205 205
0.1327816 -0.01696032 0.3490231 205 205 205
-0.03250243 -0.01376065 0.4167387 205 205 205
-0.01513722 -0.005584076 0.3768611 205 205 205
-0.01066189 -0.00602465 0.3753251 205 205 205
0.009167229 -0.006128306 0.3628159 205 205 205
0.01724942 -0.007015039 0.3609199 205 205 205
0.02518495 -0.009711184 0.3655207 205 205 205
0.02619858 -0.01014779 0.366439 205 205 205
0.04141333 -0.03103526 0.4297899 205 205 205
0.08402102 -0.02175254 0.3776977 205 205 205
0.08179158 -0.01555089 0.3576444 205 205 205
0.08313838 -0.009779606 0.3376431 205 205 205
0.09389099 -0.008862708 0.3305927 205 205 205
0.09567471 -0.008880054 0.3300303 205 205 205
0.1019541 -0.01070906 0.3339849 205 205 205
0.1031716 -0.01100875 0.3345773 205 205 205
0.110863 -0.01214413 0.3358861 205 205 205
0.1359917 -0.01812243 0.3483137 205 205 205
0.1384922 -0.01764469 0.3461459 205 205 205
-0.03938006 -0.02174285 0.4438163 205 205 205
-0.02839569 -0.01103309 0.4003753 205 205 205
-0.02241094 -0.008120218 0.3864935 205 205 205
-0.002722563 -0.006772405 0.3688343 205 205 205
-0.0003711314 -0.006399671 0.366067 205 205 205
0.01219352 -0.006829266 0.3596891 205 205 205
0.01412523 -0.007459373 0.3606555 205 205 205
0.02102591 -0.009487142 0.3634445 205 205 205
0.08276065 -0.03355817 0.4137208 205 205 205
0.08576465 -0.02732373 0.3916102 205 205 205
0.08292045 -0.01837138 0.3629252 205 205 205
0.08208266 -0.01184599 0.3415481 205 205 205
0.08394647 -0.01073233 0.3371261 205 205 205
0.08462567 -0.01045855 0.3359582 205 205 205
0.09020697 -0.009710014 0.33141 205 205 205
0.09289311 -0.009754917 0.330599 205 205 205
0.1018497 -0.01163462 0.3337076 205 205 205
0.1120156 -0.01337526 0.3361517 205 205 205
0.1142005 -0.01363822 0.3363445 205 205 205
0.1154714 -0.01391969 0.3368769 205 205 205
0.1213437 -0.01563511 0.3407051 205 205 205
0.1283248 -0.01726863 0.3440099 205 205 205
0.1323643 -0.01803725 0.3453891 205 205 205
0.1354859 -0.01884142 0.347141 205 205 205
-0.008497041 -0.007724421 0.3720305 205 205 205
-0.0005203948 -0.007379605 0.3657783 205 205 205
0.0067269 -0.008235878 0.3641231 205 205 205
0.01990273 -0.01001386 0.36222 205 205 205
0.04258323 -0.03515694 0.4337149 205 205 205
0.0842509 -0.02154381 0.3691169 205 205 205
0.08212922 -0.01428227 0.346131 205 205 205
0.0843043 -0.01226862 0.3386917 205 205 205
0.09216468 -0.0109544 0.3315097 205 205 205
0.1017444 -0.01255893 0.3334267 205 205 205
-0.03788607 -0.02177172 0.4335786 205 205 205
-0.02400949 -0.01022546 0.3866944 205 205 205
-0.01697909 -0.008918336 0.3777672 205 205 205
-0.006458641 -0.008906869 0.3709236 205 205 205
-0.004163132 -0.00880685 0.3691436 205 205 205
0.009734756 -0.009220261 0.3619724 205 205 205
0.01185196 -0.009025699 0.3600761 205 205 205
0.01284625 -0.009205458 0.3600806 205 205 205
0.01775368 -0.01064666 0.3619653 205 205 205
0.03459754 -0.03506436 0.4329932 205 205 205
0.03721685 -0.03572112 0.433762 205 205 205
0.04385695 -0.03747769 0.4360746 205 205 205
0.08732864 -0.04704118 0.4469216 205 205 205
0.08442556 -0.01350567 0.3393286 205 205 205
0.08555992 -0.0126284 0.3360715 205 205 205
0.09142551 -0.01215833 0.332414 205 205 205
0.0977308 -0.01222454 0.3304392 205 205 205
0.114336 -0.01584906 0.3366473 205 205 205
0.1159594 -0.01645111 0.338059 205 205 205
0.1207684 -0.01727019 0.3392296 205 205 205
0.1277305 -0.01894749 0.342528 205 205 205
0.1347711 -0.01889221 0.340496 205 205 205
0.1329378 -0.01597502 0.3319342 205 205 205
-0.04929155 -0.03569946 0.4813357 205 205 205
-0.01352831 -0.009870946 0.3749012 205 205 205
-0.004316347 -0.009797649 0.3688433 205 205 205
0.009589591 -0.01018634 0.3616783 205 205 205
0.02356736 -0.01436435 0.3672498 205 205 205
0.0344887 -0.03721053 0.4354721 205 205 205
0.03703881 -0.0369777 0.4333765 205 205 205
0.04089078 -0.03720311 0.4321086 205 205 205
0.08471728 -0.04157615 0.425684 205 205 205
0.08330598 -0.03483178 0.4046379 205 205 205
0.08667804 -0.03108108 0.3912403 205 205 205
0.08794506 -0.01330494 0.3341048 205 205 205
0.08976629 -0.0133479 0.3335792 205 205 205
0.09284889 -0.01277606 0.330675 205 205 205
0.1107764 -0.01622786 0.3356193 205 205 205
0.1177148 -0.0173524 0.3370347 205 205 205
-0.01730327 -0.01096247 0.3771459 205 205 205
-0.01235453 -0.01057724 0.3727787 205 205 205
0.001056008 -0.01072418 0.3649808 205 205 205
0.004184688 -0.01104578 0.3641361 205 205 205
0.01844012 -0.01304637 0.3623084 205 205 205
0.02442599 -0.01640962 0.3697672 205 205 205
0.02545721 -0.01716756 0.3716327 205 205 205
0.03682972 -0.03792975 0.4320335 205 205 205
0.03805606 -0.03750069 0.4300286 205 205 205
0.04071366 -0.03845508 0.4317187 205 205 205
0.08539722 -0.03399343 0.3969803 205 205 205
0.08460794 -0.02128807 0.3572329 205 205 205
0.0848959 -0.0163189 0.3415032 205 205 205
0.08581641 -0.01509908 0.3373306 205 205 205
0.08874513 -0.01423742 0.3335562 205 205 205
0.09274047 -0.01367838 0.3303898 205 205 205
0.09481853 -0.01402042 0.3307348 205 205 205
0.099912 -0.01468263 0.3310729 205 205 205
0.1056917 -0.01594119 0.3330912 205 205 205
0.1233636 -0.01909238 0.3374757 205 205 205
0.1250517 -0.01969058 0.3388265 205 205 205
0.1301941 -0.02146904 0.3428231 205 205 205
0.1346553 -0.02258475 0.3450145 205 205 205
-0.02651357 -0.01445546 0.3903301 205 205 205
-0.02487179 -0.01392616 0.3876215 205 205 205
-0.001226569 -0.01156919 0.3655381 205 205 205
0.008296031 -0.01192665 0.3610641 205 205 205
0.009297844 -0.01211442 0.3610787 205 205 205
0.02635446 -0.01924462 0.3741271 205 205 205
0.02743101 -0.02122196 0.3797934 205 205 205
0.02978617 -0.02701384 0.3968236 205 205 205
0.0846172 -0.04007635 0.4122616 205 205 205
0.08501148 -0.01757825 0.3421212 205 205 205
0.08779958 -0.01639856 0.3374362 205 205 205
0.0882244 -0.01577352 0.3353502 205 205 205
0.09499075 -0.01525042 0.3313477 205 205 205
0.1043547 -0.01655159 0.3322231 205 205 205
-0.03637411 -0.02350691 0.4207304 205 205 205
-0.007857636 -0.01209897 0.3677199 205 205 205
-0.004661718 -0.01247701 0.3669677 205 205 205
-0.002504734 -0.01262136 0.3661297 205 205 205
0.003885997 -0.01298971 0.363524 205 205 205
0.01416647 -0.01398853 0.3607917 205 205 205
0.01808637 -0.01558627 0.3636017 205 205 205
0.02107358 -0.01700168 0.3663849 205 205 205
0.02620172 -0.02087501 0.3757061 205 205 205
0.08567156 -0.03726621 0.3990217 205 205 205
0.0874332 -0.03641727 0.3957084 205 205 205
0.08839661 -0.03615164 0.3945113 205 205 205
0.0884651 -0.03108486 0.378939 205 205 205
0.0853574 -0.01917171 0.3436491 205 205 205
0.0939746 -0.0161483 0.3313366 205 205 205
0.1076243 -0.01809612 0.3327277 205 205 205
0.1117095 -0.01935888 0.3352527 205 205 205
0.1349998 -0.02421512 0.3430758 205 205 205
-0.03230256 -0.02065891 0.4054165 205 205 205
-0.01150872 -0.01325167 0.3700193 205 205 205
-0.003678591 -0.01338605 0.365761 205 205 205
-0.002548266 -0.01331007 0.364865 205 205 205
0.001618143 -0.01385044 0.3640952 205 205 205
0.003649178 -0.01425414 0.364164 205 205 205
0.01195716 -0.01489126 0.3614374 205 205 205
0.02395418 -0.02033388 0.3716642 205 205 205
0.02604833 -0.02220932 0.3763255 205 205 205
0.09093067 -0.05720529 0.4535044 205 205 205
0.08728006 -0.03947866 0.4011465 205 205 205
0.08885238 -0.03828406 0.3969038 205 205 205
0.08806194 -0.01890654 0.3386553 205 205 205
0.08849676 -0.0182667 0.336572 205 205 205
0.0923172 -0.01736288 0.3324999 205 205 205
0.09595843 -0.01740346 0.3313676 205 205 205
0.1041353 -0.01839271 0.3316202 205 205 205
0.1087576 -0.01934013 0.3329741 205 205 205
0.1224688 -0.02235469 0.3377854 205 205 205
0.1234088 -0.02231433 0.3373996 205 205 205
0.1269867 -0.02284269 0.3379478 205 205 205
0.1317763 -0.0243411 0.3410222 205 205 205
0.1327316 -0.02428523 0.3406028 205 205 205
0.1403911 -0.02627641 0.3443949 205 205 205
-0.02666955 -0.01710707 0.3874218 205 205 205
-0.02181443 -0.01539729 0.3793024 205 205 205
-0.01166722 -0.01424381 0.3696975 205 205 205
0.01180984 -0.01585513 0.3611225 205 205 205
0.01382559 -0.01621698 0.3611184 205 205 205
0.02697517 -0.02528299 0.3816324 205 205 205
0.03372119 -0.04571663 0.4400999 205 205 205
0.0349587 -0.04463751 0.4362128 205 205 205
0.09632255 -0.0692172 0.4827096 205 205 205
0.09028381 -0.04016254 0.3980819 205 205 205
0.08862281 -0.03066205 0.3703438 205 205 205
0.08819046 -0.02016968 0.3392559 205 205 205
0.08930799 -0.01920906 0.3360001 205 205 205
0.0908995 -0.01891228 0.3345541 205 205 205
0.09612986 -0.01864809 0.3319627 205 205 205
0.09704185 -0.0186535 0.3316706 205 205 205
0.1077276 -0.02028507 0.3329968 205 205 205
0.1158852 -0.02181298 0.3349702 205 205 205
0.1266899 -0.02453011 0.3397466 205 205 205
0.1375155 -0.02675837 0.3432451 205 205 205
-0.02358014 -0.0170122 0.3816752 205 205 205
-0.01917909 -0.0157968 0.3754157 205 205 205
-0.006149761 -0.01519778 0.3659502 205 205 205
-0.002965756 -0.01555286 0.3651762 205 205 205
0.006397855 -0.0167903 0.3636012 205 205 205
0.02364228 -0.02266408 0.3719484 205 205 205
0.02681983 -0.02664833 0.3822324 205 205 205
0.02921079 -0.03430622 0.4039119 205 205 205
0.03074075 -0.04341707 0.4303738 205 205 205
0.03625857 -0.04801421 0.4413729 205 205 205
0.0905399 -0.0419951 0.3995303 205 205 205
0.1029998 -0.02023644 0.33132 205 205 205
0.110115 -0.02185921 0.3337735 205 205 205
0.1382103 -0.02588035 0.3373517 205 205 205
-0.04335698 -0.03494225 0.442502 205 205 205
-0.01828489 -0.01705943 0.375185 205 205 205
-0.007709339 -0.01684563 0.3683976 205 205 205
-0.005281474 -0.01639427 0.3656857 205 205 205
-0.00414158 -0.01631204 0.3647966 205 205 205
-0.0008685149 -0.01634665 0.3630528 205 205 205
0.0001466104 -0.01655439 0.3630956 205 205 205
0.01942533 -0.02108539 0.3660649 205 205 205
0.02246423 -0.02286684 0.3697552 205 205 205
0.02780578 -0.03140363 0.3922351 205 205 205
0.03066142 -0.04756129 0.4384738 205 205 205
0.0322722 -0.05357638 0.4554189 205 205 205
0.04067013 -0.06760167 0.4926832 205 205 205
0.0976253 -0.07262743 0.4823032 205 205 205
0.09120042 -0.04452424 0.4028041 205 205 205
0.09370148 -0.02112828 0.3339998 205 205 205
0.1087487 -0.0224673 0.3329122 205 205 205
0.1125257 -0.02343782 0.3345179 205 205 205
0.1366129 -0.02734084 0.3387335 205 205 205
0.1387142 -0.02570357 0.3336069 205 205 205
-0.02374289 -0.01879255 0.380042 205 205 205
-0.01347385 -0.0175702 0.370511 205 205 205
-0.01124718 -0.01774335 0.3697333 205 205 205
-6.446198E-06 -0.01752104 0.362768 205 205 205
0.004059508 -0.01833431 0.362902 205 205 205
0.01425103 -0.02023217 0.3629837 205 205 205
0.01821052 -0.02221595 0.3667031 205 205 205
0.0322523 -0.05883785 0.466301 205 205 205
0.09224676 -0.04575783 0.4021071 205 205 205
0.09301345 -0.04141831 0.389346 205 205 205
0.08865365 -0.02976751 0.3575255 205 205 205
0.08881014 -0.02434245 0.3419265 205 205 205
0.09158865 -0.02304137 0.337222 205 205 205
0.09412644 -0.02273878 0.3354781 205 205 205
0.1030808 -0.02241448 0.3315746 205 205 205
-0.01244825 -0.01849907 0.3693134 205 205 205
-0.00571409 -0.01865059 0.3659657 205 205 205
-0.001280517 -0.01858744 0.3633393 205 205 205
0.006021013 -0.01938164 0.3616687 205 205 205
0.00805079 -0.01976818 0.361699 205 205 205
0.01610366 -0.02188115 0.3635679 205 205 205
0.01809097 -0.0228784 0.3654173 205 205 205
0.02209465 -0.02616847 0.3728507 205 205 205
0.08879886 -0.04947165 0.4101786 205 205 205
0.09178327 -0.03738239 0.3747196 205 205 205
0.08989634 -0.03286861 0.3626248 205 205 205
0.08795585 -0.02697918 0.3466583 205 205 205
0.08939475 -0.0249568 0.340424 205 205 205
0.09034616 -0.02497981 0.3401516 205 205 205
0.09334247 -0.02399839 0.3363368 205 205 205
0.09427813 -0.02401137 0.3360515 205 205 205
0.1023512 -0.02368912 0.332453 205 205 205
0.1163603 -0.02555587 0.3333049 205 205 205
0.1385753 -0.0302877 0.3401308 205 205 205
-0.02123999 -0.02017888 0.375814 205 205 205
-0.0198403 -0.01983525 0.374045 205 205 205
-0.01603843 -0.01937571 0.3705875 205 205 205
-0.01260926 -0.01948735 0.3689708 205 205 205
-0.004842333 -0.0198467 0.365684 205 205 205
0.006809138 -0.0208579 0.3622949 205 205 205
0.01088783 -0.02161976 0.3623259 205 205 205
0.09276483 -0.04021974 0.3788806 205 205 205
0.09067483 -0.03530461 0.3658908 205 205 205
0.08830111 -0.0286449 0.3481288 205 205 205
0.09228511 -0.02490716 0.3362912 205 205 205
0.09882343 -0.02497028 0.3342483 205 205 205
0.09916866 -0.02426126 0.3321678 205 205 205
0.1081229 -0.02597532 0.3340245 205 205 205
0.1125154 -0.02660621 0.3344007 205 205 205
0.1249817 -0.02834312 0.3354827 205 205 205
0.1295216 -0.02884445 0.3355762 205 205 205
-0.01756688 -0.02073372 0.3720208 205 205 205
-0.005117485 -0.02113645 0.3662827 205 205 205
-0.001696467 -0.02083683 0.3636054 205 205 205
0.01775461 -0.02516904 0.3656712 205 205 205
0.09197621 -0.04962955 0.4017743 205 205 205
0.09060072 -0.02756487 0.3412834 205 205 205
0.09934231 -0.02553437 0.3327256 205 205 205
0.1123974 -0.0275449 0.3340625 205 205 205
0.115197 -0.02746435 0.3329944 205 205 205
0.1190599 -0.02843841 0.3344851 205 205 205
0.1297954 -0.03016576 0.3360766 205 205 205
0.1398438 -0.03177769 0.337687 205 205 205
0.137978 -0.02766168 0.3271863 205 205 205
0.1384568 -0.02723078 0.3259159 205 205 205
-0.02732946 -0.02357334 0.3821027 205 205 205
-0.01773182 -0.02173154 0.3716662 205 205 205
-0.01278743 -0.02114694 0.3673348 205 205 205
-0.01057451 -0.02130078 0.3665512 205 205 205
0.006503118 -0.02278571 0.36161 205 205 205
0.09202006 -0.05116165 0.4022593 205 205 205
0.09445323 -0.02750248 0.336842 205 205 205
0.1013725 -0.02680956 0.3326581 205 205 205
0.1023001 -0.0268047 0.3323438 205 205 205
0.1270119 -0.03052099 0.3348407 205 205 205
-0.01757554 -0.02210299 0.3694351 205 205 205
-0.01280339 -0.02181099 0.3660441 205 205 205
-0.002009149 -0.02277031 0.3629112 205 205 205
0.013396 -0.02573779 0.3631558 205 205 205
0.01433424 -0.02659191 0.3650245 205 205 205
0.02040575 -0.03002997 0.3714517 205 205 205
0.02350518 -0.03362158 0.3797793 205 205 205
0.02458499 -0.03482196 0.3825455 205 205 205
0.0956739 -0.04894272 0.3912586 205 205 205
0.1074446 -0.02840061 0.3321334 205 205 205
0.1149599 -0.02933635 0.3323073 205 205 205
-0.02992162 -0.02721943 0.386813 205 205 205
-0.02280239 -0.0236468 0.3733242 205 205 205
0.00304884 -0.02444319 0.3617905 205 205 205
0.00619535 -0.02470745 0.3609101 205 205 205
0.01118315 -0.02633678 0.3628149 205 205 205
0.01923642 -0.03017241 0.3692404 205 205 205
0.08995546 -0.03436321 0.3509452 205 205 205
0.09048836 -0.03220185 0.3450046 205 205 205
0.09283609 -0.03006578 0.3385124 205 205 205
0.09326037 -0.02934138 0.336444 205 205 205
0.09927122 -0.02864943 0.3325965 205 205 205
0.1035968 -0.02937261 0.3331006 205 205 205
0.1117028 -0.02998274 0.3321595 205 205 205
0.1239334 -0.03258374 0.3353228 205 205 205
0.1433024 -0.03441962 0.3347729 205 205 205
-0.0383326 -0.03483638 0.4082935 205 205 205
-0.02156121 -0.02427442 0.3712018 205 205 205
-0.01002174 -0.02445915 0.3655541 205 205 205
-0.003459797 -0.02481397 0.363094 205 205 205
0.004001445 -0.0252699 0.3605193 205 205 205
0.005102521 -0.02513203 0.3596007 205 205 205
0.01194885 -0.02817472 0.3643259 205 205 205
0.01298647 -0.02836075 0.3643163 205 205 205
0.09516445 -0.05483784 0.4000465 205 205 205
0.0923221 -0.04089744 0.3643253 205 205 205
0.09053334 -0.03645667 0.3532691 205 205 205
0.09083912 -0.03243238 0.3425777 205 205 205
0.09201127 -0.03135314 0.3393367 205 205 205
0.09407956 -0.03027772 0.335808 205 205 205
0.09569135 -0.02992375 0.3343367 205 205 205
0.0966296 -0.02993046 0.3340404 205 205 205
0.09821689 -0.02956446 0.3325557 205 205 205
0.1185798 -0.03221825 0.3330805 205 205 205
0.1316061 -0.03427903 0.3346489 205 205 205
-0.0245653 -0.02602416 0.3743269 205 205 205
-0.001351235 -0.02553574 0.3609465 205 205 205
0.008881416 -0.02754673 0.3611569 205 205 205
0.02183365 -0.03831571 0.3833495 205 205 205
0.02285308 -0.04131687 0.3907846 205 205 205
0.09484124 -0.05783147 0.4044216 205 205 205
0.09334474 -0.04380741 0.3684169 205 205 205
0.09046991 -0.03448328 0.3451763 205 205 205
0.09142774 -0.03302102 0.341045 205 205 205
0.09327152 -0.03156408 0.3366322 205 205 205
0.0948975 -0.03121043 0.3351652 205 205 205
0.1024155 -0.03122379 0.3327205 205 205 205
0.1127289 -0.03219014 0.3319651 205 205 205
0.1171646 -0.03281949 0.3322363 205 205 205
0.1193966 -0.03312117 0.3323441 205 205 205
0.1295811 -0.03536171 0.3351143 205 205 205
0.1386944 -0.03714597 0.3371211 205 205 205
-0.03389546 -0.0317068 0.3909184 205 205 205
-0.01928192 -0.02579333 0.3678738 205 205 205
-0.001508608 -0.02649219 0.3605835 205 205 205
0.02163283 -0.0400781 0.3848175 205 205 205
0.02262905 -0.04382256 0.3941095 205 205 205
0.09792158 -0.07467267 0.443176 205 205 205
0.09836127 -0.05916419 0.4030188 205 205 205
0.1161028 -0.03378965 0.3322424 205 205 205
0.1344642 -0.0372097 0.3355618 205 205 205
-0.01961551 -0.02710318 0.3684278 205 205 205
-0.002797888 -0.02757662 0.3611093 205 205 205
0.006519643 -0.02907734 0.3604105 205 205 205
0.007544731 -0.0292722 0.3604184 205 205 205
0.1001803 -0.06379497 0.4106301 205 205 205
0.0906896 -0.03715688 0.3462186 205 205 205
0.0928404 -0.034549 0.33886 205 205 205
0.1009326 -0.03268283 0.3314486 205 205 205
0.1062158 -0.0334038 0.3315749 205 205 205
0.12045 -0.03534048 0.3320839 205 205 205
0.1243875 -0.03635273 0.3334584 205 205 205
0.1320248 -0.0379293 0.3352018 205 205 205
0.1388562 -0.03949067 0.3371829 205 205 205
0.1420471 -0.04047562 0.3387542 205 205 205
0.1434444 -0.04077407 0.3391159 205 205 205
-0.01526974 -0.02840638 0.3665581 205 205 205
-0.01407483 -0.02831065 0.365711 205 205 205
-0.01066979 -0.02834094 0.3640744 205 205 205
0.00628672 -0.0303862 0.3609707 205 205 205
0.01028354 -0.03186927 0.3628455 205 205 205
0.02120433 -0.04400405 0.388656 205 205 205
0.1041818 -0.07008401 0.4214465 205 205 205
0.0963764 -0.05274586 0.3805824 205 205 205
0.09128366 -0.03622097 0.3408347 205 205 205
0.09200058 -0.03585212 0.3396639 205 205 205
0.09627775 -0.03513959 0.3364353 205 205 205
0.102338 -0.03436638 0.3325156 205 205 205
0.1029747 -0.03397072 0.3313238 205 205 205
0.1095422 -0.03504562 0.3319245 205 205 205
0.1114192 -0.03499965 0.3312286 205 205 205
0.1162 -0.03604432 0.3323613 205 205 205
0.1229434 -0.03696417 0.3326314 205 205 205
0.1242616 -0.0373026 0.333082 205 205 205
-0.02834637 -0.03115175 0.3771625 205 205 205
-0.01290485 -0.02883832 0.3635508 205 205 205
0.09138671 -0.04063543 0.3490103 205 205 205
0.09938421 -0.03529625 0.333093 205 205 205
0.1068985 -0.03522596 0.3305098 205 205 205
0.1286916 -0.03881587 0.3327633 205 205 205
0.1304215 -0.0395341 0.3340189 205 205 205
0.1427641 -0.04238062 0.3375007 205 205 205
0.1455673 -0.04298311 0.338202 205 205 205
-0.03209367 -0.03393779 0.3829516 205 205 205
-0.02686823 -0.03143582 0.3741159 205 205 205
-0.0168043 -0.03045361 0.3666294 205 205 205
-0.01425409 -0.02990884 0.3640174 205 205 205
-0.009688735 -0.02980781 0.3615224 205 205 205
-0.007628019 -0.03026221 0.361643 205 205 205
0.0198268 -0.04410876 0.3832093 205 205 205
0.02074245 -0.04836497 0.3933783 205 205 205
0.09532394 -0.05180997 0.3722844 205 205 205
0.1111653 -0.03684762 0.3304848 205 205 205
0.1137161 -0.03758191 0.3314846 205 205 205
0.1384703 -0.04243617 0.3360015 205 205 205
-0.008952614 -0.03134511 0.3621263 205 205 205
0.007731279 -0.03437721 0.3616945 205 205 205
0.008702894 -0.0349373 0.3626228 205 205 205
0.01764992 -0.04180722 0.3754464 205 205 205
0.09231353 -0.04456382 0.3526486 205 205 205
0.09211402 -0.04259541 0.3479363 205 205 205
0.09311572 -0.04104175 0.3438239 205 205 205
0.1019519 -0.03711762 0.3314032 205 205 205
0.1041366 -0.03749843 0.3316221 205 205 205
0.1197127 -0.03992533 0.3326456 205 205 205
0.1309418 -0.0422437 0.3349006 205 205 205
0.1319048 -0.04218142 0.3344773 205 205 205
0.1425025 -0.04435913 0.3366936 205 205 205
0.1434761 -0.04427538 0.3362294 205 205 205
0.1487615 -0.04421498 0.3346656 205 205 205
-0.0359293 -0.03745476 0.3873422 205 205 205
-0.01851323 -0.03285156 0.3675989 205 205 205
-0.01729752 -0.03275185 0.3667655 205 205 205
-0.005888701 -0.03262267 0.3609743 205 205 205
-0.0007206831 -0.03370742 0.3611733 205 205 205
0.000314355 -0.03391834 0.3612022 205 205 205
0.001349854 -0.03412723 0.3612274 205 205 205
0.007429632 -0.03607519 0.3631562 205 205 205
0.0104498 -0.03739887 0.3649982 205 205 205
0.01841163 -0.04526548 0.3805486 205 205 205
0.09371124 -0.04160734 0.3422584 205 205 205
0.0976596 -0.03884657 0.3343278 205 205 205
0.09833065 -0.03844609 0.3331493 205 205 205
0.1018214 -0.03803148 0.3310254 205 205 205
0.1147416 -0.0398078 0.3312089 205 205 205
0.1169792 -0.04014072 0.3313198 205 205 205
0.1258194 -0.04223543 0.3336524 205 205 205
0.1350572 -0.04334281 0.3336124 205 205 205
0.1377974 -0.04399345 0.3343746 205 205 205
0.1391759 -0.04431465 0.334746 205 205 205
0.1475605 -0.04618332 0.3368347 205 205 205
0.1485383 -0.04608945 0.3363522 205 205 205
-0.03292571 -0.03538552 0.3778864 205 205 205
-0.02954321 -0.03389088 0.3726486 205 205 205
-0.01505362 -0.03350988 0.3646871 205 205 205
-0.0008822808 -0.03466379 0.3607791 205 205 205
0.003174262 -0.03586591 0.3617972 205 205 205
0.004215014 -0.03606981 0.3618114 205 205 205
0.1002237 -0.06231954 0.3865568 205 205 205
0.09329566 -0.04695918 0.3524203 205 205 205
0.09455819 -0.04256767 0.3415676 205 205 205
0.1010411 -0.03935602 0.3318278 205 205 205
0.1130499 -0.04120232 0.3323945 205 205 205
0.1400101 -0.04521025 0.3338849 205 205 205
0.1493808 -0.04698716 0.3354496 205 205 205
0.1495868 -0.04429993 0.3291814 205 205 205
-0.02951946 -0.03454027 0.3713186 205 205 205
-0.02307121 -0.0337817 0.3663969 205 205 205
-0.01402427 -0.03435974 0.3634409 205 205 205
-0.0009413779 -0.03524884 0.3594577 205 205 205
9.012516E-05 -0.03545967 0.3594861 205 205 205
0.0100645 -0.03972377 0.3651135 205 205 205
0.09739485 -0.05692223 0.3716672 205 205 205
0.09436756 -0.04998956 0.3564015 205 205 205
0.09929807 -0.0406865 0.3329372 205 205 205
0.1219442 -0.04347042 0.3323727 205 205 205
0.123266 -0.04383122 0.3328163 205 205 205
0.1347921 -0.04527031 0.3328002 205 205 205
0.1371222 -0.04552929 0.3327391 205 205 205
0.1389093 -0.04626212 0.3339252 205 205 205
0.1430761 -0.04722899 0.3349911 205 205 205
0.145881 -0.04785945 0.3356684 205 205 205
0.1513144 -0.04596746 0.3298729 205 205 205
-0.03287004 -0.03671946 0.3752108 205 205 205
0.00389094 -0.03798803 0.3610066 205 205 205
0.01078812 -0.04203757 0.3674571 205 205 205
0.01759624 -0.05224115 0.3884659 205 205 205
0.1025004 -0.06706591 0.3905483 205 205 205
0.09877159 -0.04242987 0.3345892 205 205 205
0.1108756 -0.04311523 0.3323166 205 205 205
0.1185829 -0.0441291 0.3322878 205 205 205
0.1300219 -0.04567812 0.3324555 205 205 205
0.1323358 -0.04595959 0.3324318 205 205 205
0.1373967 -0.04690199 0.3331424 205 205 205
-0.0235923 -0.03608506 0.3664913 205 205 205
-0.01555546 -0.03640625 0.363469 205 205 205
-0.0109451 -0.03625849 0.3609965 205 205 205
-0.003663035 -0.03784186 0.3613476 205 205 205
0.0007022687 -0.03794522 0.3596264 205 205 205
0.009613266 -0.04244077 0.3661284 205 205 205
0.09585575 -0.0532595 0.3578664 205 205 205
0.09850205 -0.04460092 0.3370991 205 205 205
0.1008425 -0.04376604 0.3344236 205 205 205
0.1159091 -0.04559189 0.3338519 205 205 205
0.1325944 -0.047329 0.3328392 205 205 205
0.1335592 -0.04726095 0.332408 205 205 205
0.1362936 -0.04794306 0.3331684 205 205 205
0.1465848 -0.0497401 0.3343415 205 205 205
0.1543373 -0.04891968 0.3304075 205 205 205
-0.02270551 -0.03731941 0.3661772 205 205 205
-0.02041731 -0.03747062 0.3654583 205 205 205
-0.00627165 -0.03948557 0.3636094 205 205 205
-0.001742131 -0.03923238 0.3610027 205 205 205
0.09748644 -0.04720427 0.3407773 205 205 205
0.1064634 -0.04463045 0.3320453 205 205 205
0.1112524 -0.04580889 0.3332068 205 205 205
0.1180458 -0.04687931 0.3335308 205 205 205
0.1219001 -0.04671 0.3319863 205 205 205
0.1228603 -0.04666232 0.3315921 205 205 205
0.1408539 -0.04942222 0.3325671 205 205 205
0.1574824 -0.05183812 0.3333978 205 205 205
0.1584591 -0.05172088 0.3328792 205 205 205
-0.02661774 -0.038592 0.3681689 205 205 205
-0.01484382 -0.03857213 0.3627139 205 205 205
-0.01364775 -0.03843946 0.3618709 205 205 205
0.012022 -0.04852194 0.3734896 205 205 205
0.01392312 -0.0516786 0.3798586 205 205 205
