ply
format ascii 1.0
comment Generated by Floating Hands
element vertex 1078
property double x
property double y
property double z
property uchar red
property uchar green
property uchar blue
end_header
-0.04900276 -0.0340936 0.4635499 205 205 205
0.173583 -0.05632166 0.4278182 205 205 205
0.1694928 -0.05228387 0.4160769 205 205 205
0.1678059 -0.05006635 0.4095175 205 205 205
0.1713147 -0.04600385 0.3962775 205 205 205
0.1747411 -0.04390562 0.3892542 205 205 205
0.1774437 -0.04394627 0.3889441 205 205 205
0.1810951 -0.04456848 0.390272 205 205 205
0.1876769 -0.04443293 0.3889143 205 205 205
0.1887979 -0.04427891 0.3882992 205 205 205
0.2129233 -0.04565112 0.3896829 205 205 205
-0.04882059 -0.0349456 0.4612646 205 205 205
-0.04908947 -0.03726948 0.469047 205 205 205
0.1672029 -0.05001744 0.4051567 205 205 205
0.1773314 -0.04516102 0.3885699 205 205 205
0.1816339 -0.04535339 0.3884749 205 205 205
0.1957883 -0.04558262 0.3872145 205 205 205
0.2133603 -0.0472162 0.3900783 205 205 205
-0.04911993 -0.03838015 0.467698 205 205 205
0.1674967 -0.0515857 0.4056179 205 205 205
0.1692076 -0.04899943 0.3974687 205 205 205
0.1708959 -0.0474275 0.3924292 205 205 205
0.1740562 -0.04602132 0.3876683 205 205 205
0.1756345 -0.04619939 0.3879333 205 205 205
0.1772177 -0.04637396 0.388191 205 205 205
0.1788055 -0.04654505 0.3884414 205 205 205
0.1799272 -0.04640824 0.3878566 205 205 205
0.1842418 -0.04658772 0.3877243 205 205 205
0.1901924 -0.04688108 0.3877324 205 205 205
0.1924322 -0.04655673 0.3864801 205 205 205
0.1973989 -0.04617342 0.3847337 205 205 205
0.1990276 -0.04629336 0.3848866 205 205 205
0.2011823 -0.04670662 0.3858314 205 205 205
0.2039393 -0.04663016 0.385299 205 205 205
0.2132973 -0.04769947 0.3874024 205 205 205
-0.04865689 -0.03684996 0.4576369 205 205 205
0.1768468 -0.06319858 0.4342714 205 205 205
0.1798129 -0.04762236 0.3874722 205 205 205
0.1967753 -0.0471024 0.3835411 205 205 205
0.2087812 -0.04818527 0.3852443 205 205 205
0.2109804 -0.04857851 0.3861284 205 205 205
-0.0484689 -0.03765603 0.4553477 205 205 205
0.169782 -0.05706298 0.4130365 205 205 205
0.1680094 -0.05368459 0.403418 205 205 205
0.1686606 -0.05220538 0.3989262 205 205 205
0.1696837 -0.05103603 0.3952881 205 205 205
0.1824135 -0.04886237 0.3867244 205 205 205
0.1878609 -0.04887965 0.3859397 205 205 205
0.190094 -0.04856098 0.3847028 205 205 205
0.1912071 -0.04839754 0.3840787 205 205 205
0.1923179 -0.04823137 0.3834509 205 205 205
0.1971796 -0.0486334 0.3839489 205 205 205
0.2009634 -0.04918688 0.38504 205 205 205
0.2119536 -0.05043904 0.3872949 205 205 205
0.1737102 -0.06370094 0.4274004 205 205 205
0.1688198 -0.05771083 0.4109147 205 205 205
0.1702733 -0.05182761 0.3934948 205 205 205
0.1705354 -0.05107328 0.3912605 205 205 205
0.1707815 -0.05031762 0.3890292 205 205 205
0.1732494 -0.04931229 0.3856798 205 205 205
0.1748248 -0.04950076 0.3859431 205 205 205
0.1845355 -0.04977993 0.3851306 205 205 205
0.1981799 -0.04968145 0.382901 205 205 205
0.1998103 -0.04980777 0.383045 205 205 205
0.2009209 -0.04962261 0.3823871 205 205 205
0.20584 -0.04996829 0.3827557 205 205 205
0.2107616 -0.0510933 0.3853151 205 205 205
-0.05231171 -0.0466588 0.4764156 205 205 205
0.1813846 -0.07372389 0.4503708 205 205 205
0.1738938 -0.06645219 0.43095 205 205 205
0.1758236 -0.05056774 0.3849767 205 205 205
0.1823405 -0.05050461 0.3836976 205 205 205
0.2008089 -0.05085018 0.3819822 205 205 205
0.20684 -0.05100698 0.3816689 205 205 205
0.2095694 -0.05173095 0.3833354 205 205 205
-0.05378845 -0.04963643 0.4816267 205 205 205
0.1668487 -0.05786884 0.4035789 205 205 205
0.1695856 -0.05393808 0.3918501 205 205 205
0.1725543 -0.05137667 0.384059 205 205 205
0.1741266 -0.05157226 0.3843219 205 205 205
0.1757038 -0.05176431 0.3845775 205 205 205
0.17682 -0.05162952 0.3840021 205 205 205
0.1795188 -0.0516743 0.3836603 205 205 205
0.191976 -0.05187825 0.3822486 205 205 205
0.1990637 -0.05194646 0.3814366 205 205 205
0.2001722 -0.05176086 0.380781 205 205 205
0.2072644 -0.05255439 0.3820401 205 205 205
0.2094568 -0.05297617 0.3829193 205 205 205
0.2111166 -0.05308126 0.3830069 205 205 205
0.171498 -0.06860435 0.428904 205 205 205
0.1677215 -0.0568113 0.3964503 205 205 205
0.1680249 -0.05603888 0.3942201 205 205 205
0.1912457 -0.05358041 0.3832701 205 205 205
0.1945881 -0.0530669 0.3813712 205 205 205
0.1956975 -0.05289021 0.3807307 205 205 205
0.1978373 -0.05335033 0.3816755 205 205 205
0.2005806 -0.05329967 0.3811586 205 205 205
0.2022168 -0.05342836 0.381286 205 205 205
0.2060778 -0.05315816 0.3800566 205 205 205
0.2093741 -0.05338225 0.3802496 205 205 205
0.1671637 -0.05770229 0.3951912 205 205 205
0.1681841 -0.05647539 0.3915789 205 205 205
0.1734245 -0.05362154 0.3826875 205 205 205
0.1858058 -0.05397431 0.3814854 205 205 205
0.1966881 -0.05392261 0.3796713 205 205 205
0.2021006 -0.05465341 0.3808662 205 205 205
0.2026826 -0.05413899 0.3794141 205 205 205
0.2043207 -0.05426418 0.379529 205 205 205
0.20707 -0.05418319 0.3789561 205 205 205
0.1818893 -0.08309877 0.4581663 205 205 205
0.166422 -0.06721207 0.4177569 205 205 205
0.167621 -0.05734603 0.3903249 205 205 205
0.1726403 -0.05527083 0.3836666 205 205 205
0.1748751 -0.0550079 0.3825311 205 205 205
0.179155 -0.05526032 0.3824327 205 205 205
0.1856851 -0.05517304 0.3810697 205 205 205
0.187288 -0.05534474 0.3812647 205 205 205
0.1927332 -0.05533651 0.3803743 205 205 205
0.1938426 -0.05516222 0.3797398 205 205 205
0.1954621 -0.0553128 0.3798954 205 205 205
0.1970859 -0.05545956 0.3800434 205 205 205
0.198714 -0.05560244 0.3801839 205 205 205
0.2053109 -0.05528698 0.3784308 205 205 205
0.2064153 -0.05508491 0.3777531 205 205 205
0.1630515 -0.06124591 0.3981868 205 205 205
0.1677625 -0.05775094 0.3876881 205 205 205
0.1691454 -0.05683208 0.3849254 205 205 205
0.1720606 -0.05611761 0.3824265 205 205 205
0.1742895 -0.0558548 0.3812948 205 205 205
0.1758652 -0.0560574 0.381542 205 205 205
0.1822158 -0.0568319 0.3824576 205 205 205
0.1887735 -0.05671598 0.3810296 205 205 205
0.1915002 -0.05671418 0.3805815 205 205 205
0.1953422 -0.05652123 0.3794709 205 205 205
0.199705 -0.05662974 0.3791021 205 205 205
0.2057598 -0.05597733 0.376548 205 205 205
0.2079425 -0.05642471 0.3774181 205 205 205
-0.04895684 -0.04840905 0.4521678 205 205 205
-0.05624631 -0.06073912 0.4916775 205 205 205
0.1710205 -0.0766232 0.4341224 205 205 205
0.1605519 -0.06266508 0.3988137 205 205 205
0.1643327 -0.06042758 0.3919416 205 205 205
0.1646363 -0.05962772 0.389729 205 205 205
0.1789057 -0.05764151 0.3815917 205 205 205
0.1836903 -0.05821586 0.3822419 205 205 205
0.2012712 -0.05712567 0.3765684 205 205 205
0.2067412 -0.05698559 0.3754372 205 205 205
0.004504222 -0.06508182 0.4628512 205 205 205
0.1627527 -0.06944328 0.4126759 205 205 205
0.1618812 -0.06183973 0.3925777 205 205 205
0.1626222 -0.06138667 0.3912072 205 205 205
0.165649 -0.06071332 0.3887588 205 205 205
0.1733789 -0.05869217 0.3818392 205 205 205
0.1756128 -0.05842165 0.3806969 205 205 205
0.1803693 -0.05902755 0.3813874 205 205 205
0.1848271 -0.05841564 0.3789921 205 205 205
0.1864269 -0.05859747 0.3791854 205 205 205
0.1886448 -0.05826859 0.3779545 205 205 205
0.197833 -0.05890334 0.3781037 205 205 205
-0.04732405 -0.04597029 0.4361621 205 205 205
-0.05364054 -0.06169012 0.4833999 205 205 205
-0.002347503 -0.06984587 0.4755684 205 205 205
0.01699908 -0.05087367 0.4122095 205 205 205
0.01807566 -0.05274806 0.4168824 205 205 205
0.1636954 -0.07294666 0.4178447 205 205 205
0.1606394 -0.06894138 0.4079722 205 205 205
0.1598816 -0.06707271 0.4032079 205 205 205
0.1620681 -0.06223122 0.3899347 205 205 205
0.1646579 -0.06120134 0.3866609 205 205 205
0.1687556 -0.06038213 0.3836493 205 205 205
0.1710067 -0.06013262 0.382537 205 205 205
0.1727935 -0.0595223 0.3805915 205 205 205
0.1739084 -0.05938846 0.380024 205 205 205
0.1754845 -0.05960089 0.3802676 205 205 205
0.1770653 -0.05980973 0.3805039 205 205 205
0.178651 -0.06001495 0.3807328 205 205 205
0.1840733 -0.06010678 0.3799677 205 205 205
0.1928463 -0.05962856 0.3772286 205 205 205
0.2065014 -0.05940558 0.3745605 205 205 205
0.0007946003 -0.05650254 0.4326844 205 205 205
0.007406142 -0.0492569 0.4091471 205 205 205
0.008759268 -0.04849166 0.4063139 205 205 205
0.01139781 -0.04694073 0.400636 205 205 205
0.01263883 -0.04648833 0.3987332 205 205 205
0.01736578 -0.0456348 0.3939109 205 205 205
0.1596536 -0.07064629 0.4088863 205 205 205
0.1581368 -0.06804116 0.4024304 205 205 205
0.1607777 -0.06352681 0.3900248 205 205 205
0.1649508 -0.06274237 0.3870554 205 205 205
0.1656614 -0.06227265 0.385684 205 205 205
0.1693047 -0.06108312 0.3818387 205 205 205
0.1753549 -0.06077814 0.3798338 205 205 205
0.1785216 -0.06119874 0.3802966 205 205 205
0.183945 -0.06129623 0.3795293 205 205 205
0.2003781 -0.06039392 0.374475 205 205 205
0.2020073 -0.06053974 0.3745889 205 205 205
0.2031068 -0.06033975 0.3739218 205 205 205
0.2052781 -0.06081934 0.3747938 205 205 205
-0.04604303 -0.05033842 0.4393636 205 205 205
-0.001799764 -0.05653911 0.430329 205 205 205
0.003449377 -0.05068098 0.4115573 205 205 205
0.007762254 -0.04738008 0.4002711 205 205 205
0.01629905 -0.04413541 0.3869731 205 205 205
0.1256445 -0.08966333 0.46495 205 205 205
0.1205216 -0.07319855 0.4227782 205 205 205
0.1225144 -0.07246523 0.4202016 205 205 205
0.1240702 -0.07282875 0.4206805 205 205 205
0.1283747 -0.07501561 0.4251486 205 205 205
0.1359016 -0.07937323 0.4343998 205 205 205
0.144944 -0.08516651 0.4470209 205 205 205
0.1548226 -0.09316392 0.4652308 205 205 205
0.1667514 -0.08271495 0.4346706 205 205 205
0.1621031 -0.06378714 0.3868547 205 205 205
0.1648142 -0.06392854 0.3866136 205 205 205
0.1684891 -0.0627391 0.3827763 205 205 205
0.1756863 -0.06230977 0.3802077 205 205 205
0.1898734 -0.06201298 0.3768119 205 205 205
0.1909815 -0.06183987 0.3761858 205 205 205
0.193701 -0.06183463 0.3757084 205 205 205
0.1986284 -0.06143714 0.3739082 205 205 205
0.2002535 -0.06159001 0.3740285 205 205 205
0.2062274 -0.06271437 0.3758842 205 205 205
-0.04628332 -0.04940284 0.4331626 205 205 205
-0.04534252 -0.05723841 0.4533803 205 205 205
-0.0117369 -0.07217264 0.4738959 205 205 205
0.002596789 -0.0492349 0.4045558 205 205 205
0.007824584 -0.04712379 0.3961114 205 205 205
0.01502843 -0.04498301 0.3866179 205 205 205
0.01954385 -0.04403703 0.3817829 205 205 205
0.1161786 -0.07957862 0.4371287 205 205 205
0.1144471 -0.07514974 0.426026 205 205 205
0.1150098 -0.06889341 0.4093762 205 205 205
0.1232237 -0.06999199 0.4096878 205 205 205
0.1287475 -0.07066748 0.4097892 205 205 205
0.1401092 -0.07644432 0.4215365 205 205 205
0.1575034 -0.08957756 0.4507575 205 205 205
0.1554903 -0.06711615 0.3934046 205 205 205
0.1570594 -0.06739228 0.3937325 205 205 205
0.1646762 -0.06511274 0.3861673 205 205 205
0.1658192 -0.06499853 0.3856249 205 205 205
0.1710561 -0.06402459 0.3820389 205 205 205
0.172854 -0.06340037 0.3800946 205 205 205
0.1739739 -0.06326494 0.3795257 205 205 205
0.1793771 -0.06341311 0.3788235 205 205 205
0.1875203 -0.06353886 0.3776049 205 205 205
0.1892449 -0.06284525 0.3755735 205 205 205
0.1903502 -0.06267215 0.3749494 205 205 205
0.2072097 -0.0637159 0.3747447 205 205 205
-0.04544158 -0.05128115 0.4338155 205 205 205
0.003872309 -0.04922378 0.4003996 205 205 205
0.006443604 -0.04832014 0.3966519 205 205 205
0.01481889 -0.04637176 0.3871664 205 205 205
0.0159926 -0.0458781 0.3852611 205 205 205
0.02047874 -0.04489981 0.3804183 205 205 205
0.1094218 -0.06930464 0.4086091 205 205 205
0.1201366 -0.06746328 0.400428 205 205 205
0.1243177 -0.06816784 0.4009852 205 205 205
0.1337535 -0.07062156 0.4045513 205 205 205
0.1435896 -0.07451029 0.4117784 205 205 205
0.1458785 -0.07557596 0.4138815 205 205 205
0.1536085 -0.07280902 0.4047883 205 205 205
0.1749581 -0.06429813 0.378506 205 205 205
0.1956527 -0.06384232 0.3735247 205 205 205
0.200526 -0.06432986 0.3738957 205 205 205
0.2021589 -0.06448445 0.3740042 205 205 205
0.2043285 -0.06498756 0.3748743 205 205 205
-0.04608062 -0.05090226 0.4294841 205 205 205
-0.0429062 -0.06024076 0.4518129 205 205 205
-0.001371595 -0.05106692 0.4046149 205 205 205
0.0001407958 -0.04995042 0.400889 205 205 205
0.002843313 -0.0487165 0.3962338 205 205 205
0.003982812 -0.0489465 0.3962415 205 205 205
0.008719688 -0.04880576 0.3934234 205 205 205
0.01468573 -0.04706778 0.3858356 205 205 205
0.01925709 -0.04538412 0.3791412 205 205 205
0.02035204 -0.04521598 0.3781612 205 205 205
0.02250731 -0.04522279 0.3771265 205 205 205
0.02568583 -0.05997163 0.4143348 205 205 205
0.1053128 -0.07192304 0.4131259 205 205 205
0.1161667 -0.06676607 0.3963485 205 205 205
0.1362241 -0.07057726 0.4001598 205 205 205
0.1508759 -0.07021586 0.3953463 205 205 205
0.1578315 -0.0672624 0.3862492 205 205 205
0.1707829 -0.06637549 0.3811368 205 205 205
0.1725836 -0.06574254 0.3791957 205 205 205
0.1811769 -0.06634586 0.3789307 205 205 205
0.1861399 -0.06607447 0.3773095 205 205 205
0.1872564 -0.06590834 0.3766948 205 205 205
0.1895879 -0.06467047 0.3732573 205 205 205
0.1971433 -0.06519609 0.3731972 205 205 205
0.199871 -0.06516598 0.3726625 205 205 205
0.2069535 -0.06612981 0.3738172 205 205 205
-0.04690231 -0.05080876 0.426084 205 205 205
-0.04398539 -0.05312566 0.4302909 205 205 205
-0.04103253 -0.0606111 0.447764 205 205 205
-0.0426421 -0.06609627 0.4627756 205 205 205
0.003875356 -0.04967689 0.3948959 205 205 205
0.007411194 -0.04965436 0.3930244 205 205 205
0.0085412 -0.04987286 0.3930162 205 205 205
0.01568657 -0.04759926 0.3835382 205 205 205
0.01798714 -0.04656753 0.3797282 205 205 205
0.02016587 -0.04658432 0.3787082 205 205 205
0.1021908 -0.07230818 0.4115502 205 205 205
0.1013137 -0.06702965 0.3983715 205 205 205
0.1029384 -0.06593345 0.3950335 205 205 205
0.1099425 -0.06601406 0.3929611 205 205 205
0.111106 -0.06601817 0.3926021 205 205 205
0.1239755 -0.06898823 0.3961736 205 205 205
0.1293325 -0.06964188 0.396253 205 205 205
0.13084 -0.06998875 0.3966926 205 205 205
0.1320247 -0.06995159 0.3962614 205 205 205
0.1365888 -0.07096553 0.3975244 205 205 205
0.1476115 -0.07080612 0.394171 205 205 205
0.1519274 -0.06889697 0.3883348 205 205 205
0.1549884 -0.06825104 0.3859855 205 205 205
0.1622641 -0.06801549 0.3836894 205 205 205
0.1668093 -0.06755199 0.3815268 205 205 205
0.1701976 -0.06717543 0.3798656 205 205 205
0.1778544 -0.06708772 0.3780488 205 205 205
0.1828021 -0.06684531 0.3764746 205 205 205
0.1866308 -0.06672345 0.3754431 205 205 205
0.1877421 -0.06655461 0.3748268 205 205 205
0.1905572 -0.06566695 0.3721734 205 205 205
0.1916559 -0.06548751 0.3715444 205 205 205
0.1948768 -0.06584587 0.3718286 205 205 205
0.2018989 -0.06687561 0.3730747 205 205 205
0.2051775 -0.06718501 0.3732637 205 205 205
-0.0389969 -0.05800295 0.43615 205 205 205
-0.008478875 -0.05475782 0.4110734 205 205 205
-0.00696219 -0.05399188 0.4083144 205 205 205
-0.003995676 -0.05243755 0.402782 205 205 205
-0.002545917 -0.05164933 0.4000089 205 205 205
0.002636205 -0.05016908 0.3935415 205 205 205
0.003768666 -0.05039823 0.3935488 205 205 205
0.004972499 -0.05027446 0.3926182 205 205 205
0.006169107 -0.05014682 0.3916838 205 205 205
0.008362239 -0.05093815 0.3926048 205 205 205
0.01067574 -0.05101443 0.3916427 205 205 205
0.01434109 -0.04914552 0.385037 205 205 205
0.01667487 -0.04811 0.3812387 205 205 205
0.02323692 -0.04777774 0.377227 205 205 205
0.09971905 -0.06586861 0.3925724 205 205 205
0.101794 -0.06553094 0.3910298 205 205 205
0.1031996 -0.06593602 0.3915866 205 205 205
0.1046117 -0.06633861 0.3921374 205 205 205
0.1069323 -0.06636517 0.3914509 205 205 205
0.1217303 -0.0690188 0.3935034 205 205 205
0.1246912 -0.06974575 0.3944382 205 205 205
0.1297117 -0.07001037 0.3936376 205 205 205
0.1369389 -0.07133453 0.3948919 205 205 205
0.1381202 -0.07128319 0.3944397 205 205 205
0.1415393 -0.0723231 0.3960829 205 205 205
0.145097 -0.07213398 0.3946666 205 205 205
0.1455432 -0.07129961 0.3924922 205 205 205
0.1483014 -0.07031386 0.3893525 205 205 205
0.1490803 -0.06985302 0.3880217 205 205 205
0.1498502 -0.06938992 0.3866903 205 205 205
0.1678004 -0.06859668 0.3805159 205 205 205
0.1707343 -0.06783508 0.3780335 205 205 205
0.1831471 -0.06839061 0.3768049 205 205 205
0.1858695 -0.06843659 0.3763813 205 205 205
0.1893229 -0.06701469 0.3723359 205 205 205
0.1915237 -0.06665771 0.3710819 205 205 205
0.1952595 -0.06738862 0.3721386 205 205 205
0.2028726 -0.06786445 0.3719352 205 205 205
-0.04667716 -0.05222327 0.4224074 205 205 205
-0.04441536 -0.05324849 0.4236644 205 205 205
-0.0433812 -0.05391956 0.424749 205 205 205
-0.04213421 -0.0542676 0.424906 205 205 205
-0.03786929 -0.06786826 0.4566129 205 205 205
-0.02498737 -0.06995785 0.4548108 205 205 205
-0.0190492 -0.06242963 0.4326391 205 205 205
-0.00254406 -0.05203951 0.3977198 205 205 205
0.004935202 -0.05062864 0.3903385 205 205 205
0.006125043 -0.05049618 0.3894051 205 205 205
0.007179934 -0.05107115 0.3903329 205 205 205
0.008242857 -0.05164525 0.3912568 205 205 205
0.01293235 -0.05105796 0.3874553 205 205 205
0.01416807 -0.05018171 0.3846316 205 205 205
0.01650487 -0.04913237 0.3808385 205 205 205
0.09652375 -0.06768031 0.394863 205 205 205
0.1067754 -0.06749419 0.3910027 205 205 205
0.1186381 -0.06942669 0.3920874 205 205 205
0.1212727 -0.06978305 0.3921745 205 205 205
0.1227463 -0.07015149 0.3926449 205 205 205
0.1242261 -0.0705171 0.3931089 205 205 205
0.1295571 -0.0711735 0.3931748 205 205 205
0.1322362 -0.07148459 0.3931764 205 205 205
0.1352627 -0.0721721 0.3940144 205 205 205
0.1466136 -0.07117483 0.3885284 205 205 205
0.1531513 -0.07029204 0.3847334 205 205 205
0.1565838 -0.07000647 0.3832062 205 205 205
0.1710439 -0.0693751 0.3783788 205 205 205
0.1814111 -0.06934863 0.3761421 205 205 205
0.1862195 -0.06998878 0.3766995 205 205 205
0.1918977 -0.06819686 0.3713924 205 205 205
0.1999998 -0.0690914 0.3720239 205 205 205
0.2038433 -0.06884739 0.3707879 205 205 205
-0.04565538 -0.05374847 0.4221182 205 205 205
-0.04317909 -0.05444925 0.4224426 205 205 205
-0.03261621 -0.06148444 0.4339945 205 205 205
-0.0294724 -0.06719962 0.446492 205 205 205
-0.01959116 -0.06093219 0.425584 205 205 205
-0.01590331 -0.05841704 0.4173603 205 205 205
-0.01259299 -0.05655392 0.4109721 205 205 205
-0.01103577 -0.05578337 0.4082349 205 205 205
-0.001306293 -0.05230151 0.3945238 205 205 205
0.004827776 -0.0513243 0.3889911 205 205 205
0.008124224 -0.05234326 0.3899075 205 205 205
0.01037185 -0.05277216 0.3898785 205 205 205
0.01856159 -0.0498022 0.3784939 205 205 205
0.09911241 -0.06578838 0.3860255 205 205 205
0.1040424 -0.06820233 0.3903526 205 205 205
0.1063571 -0.06822847 0.3896682 205 205 205
0.1075129 -0.06823757 0.3893203 205 205 205
0.1234522 -0.07088672 0.3909117 205 205 205
0.1332567 -0.07260592 0.3922715 205 205 205
0.1434027 -0.07170432 0.3873265 205 205 205
0.1457142 -0.07156075 0.3863759 205 205 205
0.1533999 -0.07184011 0.3850977 205 205 205
0.1583993 -0.07183838 0.3838738 205 205 205
0.1595456 -0.07173397 0.3833503 205 205 205
0.162973 -0.07140411 0.3817572 205 205 205
0.1720271 -0.07040247 0.3773449 205 205 205
0.193374 -0.06955635 0.3710597 205 205 205
0.2014979 -0.07044648 0.3716469 205 205 205
-0.04153642 -0.05497815 0.4193698 205 205 205
-0.03887749 -0.05532667 0.4187422 205 205 205
-0.03661054 -0.05632826 0.4199421 205 205 205
-0.03307241 -0.06033883 0.4278434 205 205 205
-0.03180433 -0.06066741 0.4279613 205 205 205
-0.02992196 -0.06267911 0.4318868 205 205 205
-0.0283152 -0.06232036 0.4301405 205 205 205
-0.02372949 -0.06154988 0.4257949 205 205 205
-0.01399399 -0.05740637 0.4104654 205 205 205
-0.00829052 -0.05567051 0.4032364 205 205 205
-0.005423155 -0.05441232 0.3986648 205 205 205
-0.0002631811 -0.05325 0.3931862 205 205 205
0.002331435 -0.05228015 0.3894928 205 205 205
0.003529906 -0.05214752 0.3885696 205 205 205
0.007883867 -0.05375938 0.3904159 205 205 205
0.01003261 -0.05492051 0.3922453 205 205 205
0.01945005 -0.05137133 0.3789712 205 205 205
0.02166472 -0.05062287 0.3760843 205 205 205
0.02384138 -0.04948433 0.3722574 205 205 205
0.09589572 -0.07575587 0.4082699 205 205 205
0.09369115 -0.0675313 0.3889162 205 205 205
0.09574011 -0.06525312 0.3826603 205 205 205
0.1005838 -0.06770264 0.3870267 205 205 205
0.1073549 -0.06935889 0.3888649 205 205 205
0.1108167 -0.06936993 0.3877979 205 205 205
0.1174434 -0.0705241 0.3885532 205 205 205
0.118303 -0.07011269 0.3872985 205 205 205
0.1197557 -0.07049119 0.3877773 205 205 205
0.1215189 -0.07126307 0.3891161 205 205 205
0.1229874 -0.07163583 0.3895809 205 205 205
0.125627 -0.07197682 0.3896292 205 205 205
0.1324327 -0.07297733 0.390087 205 205 205
0.1362755 -0.07322688 0.3896148 205 205 205
0.1394145 -0.07266192 0.3874049 205 205 205
0.1409323 -0.07299384 0.3877903 205 205 205
0.1417294 -0.07253475 0.3864803 205 205 205
0.1428844 -0.07246705 0.3860123 205 205 205
0.1589849 -0.07250742 0.3820527 205 205 205
0.1601261 -0.0724002 0.3815271 205 205 205
0.162827 -0.07256672 0.3812827 205 205 205
0.1703109 -0.07131108 0.3766297 205 205 205
0.1752479 -0.07113982 0.3751558 205 205 205
0.1770103 -0.07046046 0.3731987 205 205 205
0.1838494 -0.07174765 0.374778 205 205 205
0.1888032 -0.0714507 0.3731028 205 205 205
0.1899152 -0.07127398 0.3724779 205 205 205
0.1915282 -0.07147315 0.3726259 205 205 205
0.1980988 -0.07128231 0.3709525 205 205 205
0.1997279 -0.07145938 0.3710611 205 205 205
-0.04420583 -0.05544508 0.4185942 205 205 205
-0.03727517 -0.05580977 0.4156545 205 205 205
-0.03558739 -0.05782056 0.4196083 205 205 205
-0.03453576 -0.05848889 0.4206585 205 205 205
-0.02675941 -0.0597243 0.4194866 205 205 205
-0.01821292 -0.05873926 0.4125955 205 205 205
-0.01262044 -0.05774681 0.4072868 205 205 205
-0.009657791 -0.05650771 0.4027497 205 205 205
-0.003007778 -0.05491343 0.3955007 205 205 205
0.002150442 -0.05332914 0.3890687 205 205 205
0.008715694 -0.05576654 0.3918323 205 205 205
0.009851811 -0.05598264 0.3918152 205 205 205
0.01093791 -0.05656567 0.3927222 205 205 205
0.01463249 -0.05459397 0.3861423 205 205 205
0.0203649 -0.0525706 0.3785104 205 205 205
0.1035864 -0.09677793 0.4530846 205 205 205
0.09379478 -0.0733467 0.3997613 205 205 205
0.09281359 -0.06939739 0.3905457 205 205 205
0.09310271 -0.06587641 0.3819372 205 205 205
0.1065582 -0.07126934 0.3905113 205 205 205
0.110659 -0.07048896 0.3873382 205 205 205
0.1118111 -0.07048722 0.3869749 205 205 205
0.1132438 -0.07088285 0.3874799 205 205 205
0.1286319 -0.07261682 0.3870482 205 205 205
0.1301178 -0.07297603 0.3874794 205 205 205
0.1389056 -0.07341544 0.3860848 205 205 205
0.1572839 -0.07337593 0.3812738 205 205 205
0.1622563 -0.07333449 0.3799874 205 205 205
0.1647904 -0.07219544 0.3767437 205 205 205
0.1724095 -0.07219232 0.3750242 205 205 205
0.1757574 -0.07176173 0.3733035 205 205 205
0.1918917 -0.07302839 0.3729163 205 205 205
0.1941185 -0.07265773 0.3716408 205 205 205
0.1952284 -0.07246815 0.3709976 205 205 205
0.1968523 -0.0726558 0.3711181 205 205 205
0.2034363 -0.07240237 0.3693345 205 205 205
-0.04564602 -0.05625014 0.4179641 205 205 205
-0.04297996 -0.05661238 0.4173651 205 205 205
-0.03314596 -0.05929245 0.4184663 205 205 205
-0.02910352 -0.05956138 0.4169632 205 205 205
-0.009735035 -0.05724532 0.4013761 205 205 205
-0.000720972 -0.0557386 0.39325 205 205 205
0.008534136 -0.05682641 0.3913983 205 205 205
0.01433775 -0.05675911 0.3884946 205 205 205
0.0154642 -0.05696131 0.3884582 205 205 205
0.01898941 -0.0552868 0.3827726 205 205 205
0.02013415 -0.05471855 0.3808711 205 205 205
0.09294479 -0.06695459 0.3814901 205 205 205
0.09655207 -0.06744511 0.3814564 205 205 205
0.09839788 -0.06867918 0.3837909 205 205 205
0.1054865 -0.07278602 0.3912694 205 205 205
0.1133666 -0.07240691 0.3878849 205 205 205
0.1156805 -0.07238972 0.3871344 205 205 205
0.1264768 -0.07422844 0.3882703 205 205 205
0.1279618 -0.07459664 0.388709 205 205 205
0.1296323 -0.07371338 0.3861509 205 205 205
0.1311204 -0.07407316 0.3865755 205 205 205
0.1322777 -0.07402746 0.3861423 205 205 205
0.1483331 -0.07438418 0.3826631 205 205 205
0.1578626 -0.07402634 0.3794533 205 205 205
0.1635191 -0.07346301 0.3768058 205 205 205
0.1646446 -0.07334208 0.3762652 205 205 205
0.1743 -0.07398749 0.3755689 205 205 205
0.1778369 -0.07261048 0.3716581 205 205 205
0.1805294 -0.07268727 0.3712654 205 205 205
0.186289 -0.07413586 0.3733695 205 205 205
0.1901337 -0.07399783 0.3722821 205 205 205
0.1945755 -0.07325692 0.3697397 205 205 205
0.1961962 -0.07344818 0.3698609 205 205 205
-0.03281274 -0.05940496 0.4152315 205 205 205
-0.03159006 -0.05972592 0.4153484 205 205 205
-0.03036644 -0.0600443 0.415461 205 205 205
-0.02758435 -0.05997081 0.4138307 205 205 205
-0.01954267 -0.06000023 0.4097476 205 205 205
-0.01805898 -0.05957337 0.4079738 205 205 205
-0.009811401 -0.05797384 0.400001 205 205 205
-0.008530927 -0.05787139 0.3991186 205 205 205
-0.003479535 -0.05742003 0.3955467 205 205 205
0.0002344538 -0.05703862 0.3928244 205 205 205
0.001458138 -0.05690339 0.3919089 205 205 205
0.003809259 -0.05699309 0.3909914 205 205 205
0.005015139 -0.05684673 0.3900643 205 205 205
0.007278914 -0.0572909 0.3900487 205 205 205
0.0128131 -0.05949269 0.3927164 205 205 205
0.01403887 -0.05894384 0.3908338 205 205 205
0.01641276 -0.05821054 0.3879828 205 205 205
0.01994088 -0.05612217 0.3813711 205 205 205
0.02109274 -0.05516003 0.3785455 205 205 205
0.0242378 -0.06454245 0.3995927 205 205 205
0.09175041 -0.07238895 0.3916974 205 205 205
0.1041526 -0.07389813 0.3911404 205 205 205
0.1146491 -0.07392877 0.3879081 205 205 205
0.1178311 -0.0734832 0.3858973 205 205 205
0.1189841 -0.07346503 0.3855087 205 205 205
0.1248394 -0.0749924 0.3873477 205 205 205
0.1274818 -0.07533211 0.3873735 205 205 205
0.1283186 -0.07488804 0.3860978 205 205 205
0.1302985 -0.07439863 0.3843944 205 205 205
0.1329377 -0.07471062 0.3843781 205 205 205
0.136737 -0.07495419 0.3838927 205 205 205
0.1375328 -0.07448948 0.3825977 205 205 205
0.1386777 -0.07442737 0.3821432 205 205 205
0.1436141 -0.07455569 0.3811232 205 205 205
0.1477972 -0.07512611 0.3813496 205 205 205
0.1683073 -0.07450371 0.374942 205 205 205
0.1770511 -0.07430522 0.3725486 205 205 205
0.1824575 -0.07446127 0.3717497 205 205 205
0.1835696 -0.07429601 0.3711454 205 205 205
0.1888742 -0.07534549 0.3724148 205 205 205
0.1944345 -0.0744241 0.3692467 205 205 205
0.2004171 -0.07479204 0.3689224 205 205 205
-0.04585395 -0.05821275 0.4161002 205 205 205
-0.04197073 -0.05891213 0.4156531 205 205 205
-0.03247596 -0.05949423 0.4120008 205 205 205
-0.02849737 -0.05973439 0.4104954 205 205 205
-0.01916847 -0.05968054 0.4055935 205 205 205
-0.01783858 -0.05960475 0.4047432 205 205 205
-0.009886882 -0.05869329 0.3986247 205 205 205
-0.005969516 -0.05799221 0.3950446 205 205 205
-0.004818961 -0.0582425 0.395074 205 205 205
0.001190506 -0.05833502 0.3923903 205 205 205
0.004761066 -0.05827459 0.3905478 205 205 205
0.008229506 -0.0585618 0.3895943 205 205 205
0.01495957 -0.06058928 0.3912763 205 205 205
0.01616818 -0.06002523 0.3893893 205 205 205
0.02092128 -0.05617289 0.3781204 205 205 205
0.02205231 -0.05519407 0.3752966 205 205 205
0.100546 -0.09874596 0.4472812 205 205 205
0.09334242 -0.08160412 0.4095965 205 205 205
0.09167137 -0.07149395 0.3864932 205 205 205
0.09194045 -0.06989112 0.3826522 205 205 205
0.09599944 -0.06919207 0.3796655 205 205 205
0.09807809 -0.07085815 0.3828718 205 205 205
0.1136063 -0.07547055 0.3886731 205 205 205
0.1170999 -0.07543975 0.3875343 205 205 205
0.118262 -0.07542405 0.387147 205 205 205
0.1191239 -0.07499498 0.3858945 205 205 205
0.1205822 -0.0753845 0.386361 205 205 205
0.1289894 -0.07557016 0.384341 205 205 205
0.132781 -0.07584232 0.3838966 205 205 205
0.1350825 -0.07573675 0.383014 205 205 205
0.1388807 -0.0759665 0.3825018 205 205 205
0.1419496 -0.07535451 0.3802761 205 205 205
0.14612 -0.07594077 0.3805184 205 205 205
0.1544762 -0.07571411 0.3778747 205 205 205
0.1625201 -0.0762726 0.3771823 205 205 205
0.1697284 -0.07591625 0.3746967 205 205 205
0.1773732 -0.07585266 0.3728474 205 205 205
0.1925791 -0.07635944 0.3707958 205 205 205
0.1953975 -0.07539584 0.368105 205 205 205
0.1991668 -0.07616928 0.3690823 205 205 205
0.2008003 -0.07635457 0.3691781 205 205 205
-0.04706659 -0.05866131 0.4145432 205 205 205
-0.04584727 -0.05901363 0.4147071 205 205 205
-0.04197393 -0.05970801 0.414259 205 205 205
-0.0391304 -0.05968886 0.4127173 205 205 205
-0.03791593 -0.06002264 0.4128544 205 205 205
-0.02973363 -0.06018979 0.4089985 205 205 205
-0.02579678 -0.0603965 0.4074657 205 205 205
-0.01382731 -0.05970981 0.399862 205 205 205
-0.007419293 -0.05917855 0.3954823 205 205 205
-0.003856553 -0.05955866 0.3946477 205 205 205
-0.00260966 -0.05942922 0.3937469 205 205 205
0.009067312 -0.06059488 0.3909755 205 205 205
0.01833674 -0.06030923 0.3860859 205 205 205
0.09078 -0.07337465 0.3880925 205 205 205
0.09246575 -0.07017737 0.380124 205 205 205
0.1043222 -0.07697339 0.3919324 205 205 205
0.1151764 -0.07741682 0.389544 205 205 205
0.11956 -0.07694423 0.3871328 205 205 205
0.1417951 -0.07648228 0.3797907 205 205 205
0.1429344 -0.07640873 0.3793213 205 205 205
0.1490191 -0.07772803 0.3807118 205 205 205
0.1581319 -0.07694362 0.3766545 205 205 205
0.1673258 -0.07732723 0.3753157 205 205 205
0.1765692 -0.07755714 0.3737245 205 205 205
0.177693 -0.07740507 0.3731388 205 205 205
0.1785123 -0.07589045 0.3696042 205 205 205
0.1880889 -0.07728025 0.3706409 205 205 205
0.190315 -0.07691947 0.3693891 205 205 205
0.1925318 -0.07654737 0.3681228 205 205 205
0.203936 -0.07789384 0.3688372 205 205 205
0.2050472 -0.07767931 0.3681594 205 205 205
-0.03493042 -0.06039213 0.4089745 205 205 205
-0.01795314 -0.06107138 0.4019712 205 205 205
-0.005197309 -0.0603764 0.3941672 205 205 205
-0.002893515 -0.06087114 0.3942129 205 205 205
0.005391925 -0.06137238 0.391487 205 205 205
0.09111517 -0.07776581 0.3949911 205 205 205
0.09155681 -0.07409695 0.3864347 205 205 205
0.09205382 -0.07288268 0.383487 205 205 205
0.09275009 -0.07208244 0.3814224 205 205 205
0.09661638 -0.07300505 0.3822538 205 205 205
0.1053341 -0.0781148 0.3910978 205 205 205
0.1103087 -0.07856175 0.3905429 205 205 205
0.111758 -0.07898021 0.3910432 205 205 205
0.1188204 -0.07892468 0.3887555 205 205 205
0.1344219 -0.07757671 0.3811973 205 205 205
0.1359167 -0.07793567 0.3815914 205 205 205
0.1370644 -0.07787561 0.3811409 205 205 205
0.1393551 -0.07774726 0.3802284 205 205 205
0.1420069 -0.07802296 0.3801333 205 205 205
0.1431502 -0.07794892 0.3796625 205 205 205
0.1473341 -0.07853844 0.3798803 205 205 205
0.1541711 -0.07798339 0.3768919 205 205 205
0.1579795 -0.07807982 0.3761597 205 205 205
0.1591108 -0.07796896 0.3756359 205 205 205
0.165344 -0.07913581 0.3767188 205 205 205
0.1676136 -0.07888046 0.3756173 205 205 205
0.171003 -0.07847632 0.3739374 205 205 205
0.174621 -0.07941266 0.3751737 205 205 205
0.188436 -0.07884068 0.3709067 205 205 205
0.1923865 -0.07770485 0.3676181 205 205 205
0.196213 -0.0775212 0.36645 205 205 205
0.2016211 -0.07849421 0.3674933 205 205 205
-0.03793777 -0.06156989 0.4100627 205 205 205
-0.03653424 -0.06154178 0.409281 205 205 205
-0.03494595 -0.0611497 0.4075809 205 205 205
-0.02468297 -0.06218625 0.4047742 205 205 205
-0.02065814 -0.06196222 0.4022733 205 205 205
-0.01933015 -0.06187879 0.4014305 205 205 205
-0.01800901 -0.06179103 0.4005832 205 205 205
-0.01304704 -0.06214794 0.3989856 205 205 205
-0.006646124 -0.06156873 0.3945976 205 205 205
-0.003082759 -0.0619359 0.3937527 205 205 205
-0.0006877469 -0.06203765 0.3928631 205 205 205
0.006351021 -0.06265347 0.3910189 205 205 205
0.009841395 -0.06292132 0.3900444 205 205 205
0.01226537 -0.06217009 0.3872319 205 205 205
0.01445117 -0.06336848 0.3889976 205 205 205
0.01784386 -0.0643667 0.3897791 205 205 205
0.09853829 -0.09980282 0.4393541 205 205 205
0.09160475 -0.07561111 0.3868375 205 205 205
0.09394674 -0.07361063 0.3815255 205 205 205
0.1118619 -0.08053367 0.3914122 205 205 205
0.115411 -0.08051789 0.3902821 205 205 205
0.1201258 -0.08045807 0.3887211 205 205 205
0.1216022 -0.08085756 0.3891767 205 205 205
0.1291647 -0.07978486 0.3845677 205 205 205
0.1326424 -0.07964486 0.3832685 205 205 205
0.135758 -0.07906034 0.3810972 205 205 205
0.1384087 -0.07935631 0.3810275 205 205 205
0.1429933 -0.07907574 0.3791671 205 205 205
0.1528813 -0.07921454 0.3769013 205 205 205
0.1697233 -0.07975897 0.3739968 205 205 205
0.1719776 -0.07948044 0.3728661 205 205 205
0.1780466 -0.0791431 0.3707582 205 205 205
0.1802783 -0.07882428 0.3695728 205 205 205
0.1905217 -0.07963762 0.3691404 205 205 205
0.1916355 -0.07945153 0.3685076 205 205 205
0.2014747 -0.07966416 0.3669776 205 205 205
-0.04056092 -0.06202149 0.4093012 205 205 205
-0.03515239 -0.06226103 0.4070978 205 205 205
-0.03357669 -0.06185585 0.4053948 205 205 205
-0.02726522 -0.06268314 0.4041082 205 205 205
-0.02085755 -0.06305438 0.4017974 205 205 205
-0.01952867 -0.06296787 0.4009558 205 205 205
-0.01716932 -0.06353456 0.4010912 205 205 205
-0.01207103 -0.06349802 0.398563 205 205 205
-0.009726291 -0.06402927 0.3986488 205 205 205
-0.007053894 -0.06340051 0.3959669 205 205 205
0.003728084 -0.06403749 0.3924105 205 205 205
0.008339311 -0.06493778 0.3923584 205 205 205
0.009547724 -0.06476232 0.3914183 205 205 205
0.01768467 -0.0844103 0.4323282 205 205 205
0.09308783 -0.07550493 0.38311 205 205 205
0.1036134 -0.08203253 0.3942815 205 205 205
0.1119638 -0.08209211 0.3917736 205 205 205
0.1164243 -0.08163981 0.3893955 205 205 205
0.1235266 -0.08324292 0.3908258 205 205 205
0.1244067 -0.08279021 0.3895617 205 205 205
0.1264559 -0.08230157 0.3878784 205 205 205
0.1296546 -0.08176059 0.3857568 205 205 205
0.132481 -0.0807716 0.3827682 205 205 205
0.1344482 -0.08024062 0.3810454 205 205 205
0.1382491 -0.08048194 0.3805275 205 205 205
0.1409082 -0.0807691 0.3804355 205 205 205
0.1428353 -0.08020037 0.3786673 205 205 205
0.1477797 -0.08029551 0.3775691 205 205 205
0.151983 -0.08086138 0.3777194 205 205 205
0.1607738 -0.08095536 0.3757176 205 205 205
0.1668691 -0.08075412 0.3738067 205 205 205
0.1718253 -0.08062257 0.3723577 205 205 205
0.173405 -0.08089235 0.3725754 205 205 205
0.1745309 -0.08074519 0.3719993 205 205 205
0.1866575 -0.07993513 0.3675748 205 205 205
0.1914865 -0.08060849 0.3679923 205 205 205
0.2019051 -0.08021823 0.3650414 205 205 205
-0.03121376 -0.06322376 0.4042268 205 205 205
-0.02120825 -0.0645215 0.4022309 205 205 205
-0.01869137 -0.06471881 0.4014604 205 205 205
-0.01487306 -0.06479824 0.3998153 205 205 205
-0.01239087 -0.06496047 0.3990021 205 205 205
-0.01121474 -0.06522862 0.3990469 205 205 205
-0.007355592 -0.06485746 0.3964101 205 205 205
0.002309763 -0.0652585 0.3928615 205 205 205
0.003465627 -0.06549092 0.392858 205 205 205
0.00809325 -0.06639554 0.3928049 205 205 205
0.009306394 -0.06621764 0.391866 205 205 205
0.01277048 -0.06686019 0.3917733 205 205 205
0.1028971 -0.1126608 0.4593666 205 205 205
0.09199628 -0.0816084 0.3940764 205 205 205
0.0968135 -0.07964634 0.3881266 205 205 205
0.09868168 -0.08095878 0.3904236 205 205 205
0.1010442 -0.08312592 0.3944547 205 205 205
0.1051324 -0.08404194 0.3951648 205 205 205
0.1060841 -0.08362731 0.3939444 205 205 205
0.1156374 -0.08363893 0.3909904 205 205 205
0.1227682 -0.08526925 0.3924265 205 205 205
0.1248537 -0.0847872 0.39075 205 205 205
0.1263555 -0.08518442 0.3911805 205 205 205
0.1301415 -0.08374839 0.3869352 205 205 205
0.1306587 -0.08284831 0.384817 205 205 205
0.1369375 -0.08166909 0.3804788 205 205 205
0.1407478 -0.08189563 0.3799298 205 205 205
0.145337 -0.08158995 0.378034 205 205 205
0.1529667 -0.0818947 0.3767063 205 205 205
0.1610372 -0.08251268 0.3760108 205 205 205
0.1644493 -0.08214873 0.3743925 205 205 205
0.1660167 -0.08244153 0.3746429 205 205 205
0.1709926 -0.08232202 0.3732023 205 205 205
0.172123 -0.08218012 0.3726336 205 205 205
0.1748359 -0.08230463 0.3722704 205 205 205
0.1759635 -0.08215379 0.371689 205 205 205
0.1849067 -0.08084526 0.3669067 205 205 205
0.1891046 -0.08213443 0.3687341 205 205 205
0.194153 -0.08077671 0.3647985 205 205 205
0.2028597 -0.08116496 0.3638479 205 205 205
-0.04035529 -0.06315737 0.4055938 205 205 205
-0.0387504 -0.06275769 0.4039161 205 205 205
-0.0353729 -0.06410745 0.4052096 205 205 205
-0.028686 -0.06419566 0.4021278 205 205 205
-0.02156056 -0.06599352 0.402657 205 205 205
-0.01903496 -0.06619012 0.401888 205 205 205
-0.01165327 -0.0670851 0.4003922 205 205 205
-0.004045516 -0.06668939 0.3960043 205 205 205
-0.001706962 -0.06718373 0.3960327 205 205 205
-0.0004502468 -0.06703189 0.3951264 205 205 205
0.004219304 -0.06797712 0.3951195 205 205 205
0.005455223 -0.067808 0.3941934 205 205 205
0.006683888 -0.06763485 0.3932634 205 205 205
0.007905239 -0.0674577 0.3923297 205 205 205
0.01126704 -0.1084214 0.4816662 205 205 205
0.09608597 -0.09686404 0.4231969 205 205 205
0.09524648 -0.08028953 0.3870721 205 205 205
0.09732743 -0.08204683 0.3902449 205 205 205
0.112431 -0.08565622 0.3933344 205 205 205
0.1139047 -0.08608571 0.3938161 205 205 205
0.1172248 -0.08562782 0.3918008 205 205 205
0.1189966 -0.08647812 0.3931165 205 205 205
0.123196 -0.08728247 0.3936074 205 205 205
0.124704 -0.08768866 0.3940429 205 205 205
0.1280073 -0.08716228 0.3919281 205 205 205
0.1323262 -0.08479267 0.3855467 205 205 205
0.1374771 -0.08365083 0.3816337 205 205 205
0.1397927 -0.08351938 0.3807131 205 205 205
0.1478457 -0.08297122 0.3773726 205 205 205
0.1532057 -0.0834502 0.377006 205 205 205
0.1563015 -0.08409722 0.3775998 205 205 205
0.1620189 -0.08353124 0.3749587 205 205 205
0.1640093 -0.08425765 0.3760174 205 205 205
0.1697039 -0.08360302 0.3732485 205 205 205
0.1773994 -0.08356262 0.3713643 205 205 205
0.17918 -0.08282666 0.3694036 205 205 205
0.1826738 -0.08132683 0.365461 205 205 205
0.1917913 -0.08231237 0.3655555 205 205 205
-0.04458552 -0.06397393 0.4064714 205 205 205
-0.03916221 -0.06422429 0.4043299 205 205 205
-0.03837188 -0.06529754 0.4062752 205 205 205
-0.03299977 -0.06547722 0.4040428 205 205 205
-0.02923902 -0.0660423 0.4034556 205 205 205
-0.02430099 -0.06687845 0.4029157 205 205 205
-0.003354493 -0.06920038 0.3982753 205 205 205
-0.002173211 -0.06944908 0.3982874 205 205 205
-0.0009914042 -0.06969526 0.3982954 205 205 205
0.0001908834 -0.06993889 0.3982995 205 205 205
0.002556899 -0.07041845 0.3982954 205 205 205
0.09413823 -0.09163297 0.4091464 205 205 205
0.1042837 -0.08976912 0.4017649 205 205 205
0.114549 -0.08853773 0.3958659 205 205 205
0.1224065 -0.08933079 0.3951899 205 205 205
0.1320799 -0.08906455 0.3917794 205 205 205
0.1430338 -0.08580057 0.3817345 205 205 205
0.1438286 -0.08529154 0.3804338 205 205 205
0.1457673 -0.0846985 0.37865 205 205 205
0.1604084 -0.08575889 0.3771101 205 205 205
0.1622824 -0.08509396 0.375237 205 205 205
0.1672738 -0.08501381 0.3738437 205 205 205
0.1699897 -0.08516826 0.3735142 205 205 205
0.1715734 -0.08545313 0.3737349 205 205 205
0.1743015 -0.08558745 0.3733711 205 205 205
0.175439 -0.08543777 0.3727901 205 205 205
0.1790252 -0.08396673 0.3688802 205 205 205
0.1830063 -0.08287798 0.3657086 205 205 205
0.1992984 -0.08308265 0.3626392 205 205 205
0.2020272 -0.08306825 0.3620501 205 205 205
-0.04457483 -0.06471051 0.4050673 205 205 205
-0.03182781 -0.06651171 0.4027489 205 205 205
-0.02926788 -0.06675531 0.4020506 205 205 205
-0.01600241 -0.06960988 0.4019941 205 205 205
-0.009908173 -0.07058225 0.4013067 205 205 205
-0.008603259 -0.07045007 0.4004281 205 205 205
-0.007412482 -0.07071187 0.4004562 205 205 205
-0.00483033 -0.07042803 0.3986781 205 205 205
-0.002551904 -0.07133188 0.399617 205 205 205
0.09583957 -0.09417724 0.4109026 205 205 205
0.09541855 -0.09071292 0.4035873 205 205 205
0.1030994 -0.09134963 0.402444 205 205 205
0.1093065 -0.09362076 0.4053324 205 205 205
0.1107876 -0.09188304 0.4011413 205 205 205
0.1120259 -0.09188857 0.4007654 205 205 205
0.1191465 -0.09142125 0.3975724 205 205 205
0.1273988 -0.09260583 0.3976293 205 205 205
0.1301681 -0.09297665 0.3976059 205 205 205
0.1365369 -0.08821056 0.3856594 205 205 205
0.1393672 -0.08714759 0.3826202 205 205 205
0.1463545 -0.08669561 0.3797648 205 205 205
0.1509788 -0.08633772 0.3777859 205 205 205
0.1521305 -0.08624117 0.3772818 205 205 205
0.1648329 -0.08641241 0.3744193 205 205 205
0.1675501 -0.08658186 0.3741067 205 205 205
0.1686913 -0.08644696 0.3735477 205 205 205
0.1798104 -0.08595521 0.3698984 205 205 205
0.1811073 -0.08477487 0.3671578 205 205 205
0.188148 -0.08516594 0.3663881 205 205 205
0.1914853 -0.0846024 0.3644982 205 205 205
0.1936985 -0.0842124 0.3632204 205 205 205
0.1975219 -0.08402283 0.3620211 205 205 205
0.1991461 -0.08423056 0.3621065 205 205 205
-0.03479688 -0.06772935 0.4038314 205 205 205
-0.02606476 -0.06915019 0.4027379 205 205 205
-0.02486854 -0.06945188 0.4028236 205 205 205
-0.01540088 -0.07216954 0.4042706 205 205 205
-0.01153971 -0.07220171 0.4025868 205 205 205
-0.001913009 -0.07428826 0.402763 205 205 205
0.001449483 -0.08344746 0.4209454 205 205 205
0.09974996 -0.09113318 0.3999861 205 205 205
0.1109563 -0.1027429 0.4210544 205 205 205
0.1131728 -0.09748138 0.4091859 205 205 205
0.1159258 -0.09571711 0.4045893 205 205 205
0.117455 -0.09615673 0.4050485 205 205 205
0.1309209 -0.09728622 0.4033856 205 205 205
0.1334084 -0.09539951 0.3986857 205 205 205
0.1365378 -0.09117325 0.3889047 205 205 205
0.1402584 -0.08960146 0.3845669 205 205 205
0.1410818 -0.08909199 0.3832722 205 205 205
0.1477263 -0.08817966 0.3795618 205 205 205
0.1613261 -0.0893442 0.3784462 205 205 205
0.1760331 -0.08858981 0.3732795 205 205 205
0.1819047 -0.08676513 0.3681614 205 205 205
0.1836647 -0.0859944 0.3661814 205 205 205
0.1847798 -0.08581866 0.3655698 205 205 205
0.1929462 -0.08597271 0.3640769 205 205 205
0.1973684 -0.08516547 0.3614856 205 205 205
0.2000929 -0.08516365 0.3609072 205 205 205
0.2022532 -0.08578514 0.3617148 205 205 205
-0.04784497 -0.06696024 0.4055412 205 205 205
-0.03086571 -0.06862006 0.4009438 205 205 205
-0.02523463 -0.0709369 0.4032214 205 205 205
-0.009337488 -0.07383342 0.4021457 205 205 205
-0.00813478 -0.07409855 0.4021736 205 205 205
-0.003450366 -0.08152448 0.4158722 205 205 205
0.1049353 -0.100345 0.4146732 205 205 205
0.1204039 -0.1218418 0.4549384 205 205 205
0.1212979 -0.1156411 0.4416238 205 205 205
0.1288831 -0.1075704 0.4223619 205 205 205
0.1345145 -0.1001922 0.4052754 205 205 205
0.1347899 -0.0969846 0.3985092 205 205 205
0.13505 -0.09560034 0.3955509 205 205 205
0.1428066 -0.09104393 0.3839038 205 205 205
0.1440653 -0.08956093 0.3804868 205 205 205
0.1514267 -0.08947761 0.3783417 205 205 205
0.1650613 -0.09056227 0.3770662 205 205 205
0.1676612 -0.08929516 0.3738224 205 205 205
0.1726797 -0.08916889 0.3723393 205 205 205
0.1763266 -0.0901728 0.3735128 205 205 205
0.1774736 -0.09001764 0.3729232 205 205 205
0.1822223 -0.08833575 0.3683882 205 205 205
0.1833492 -0.08816426 0.3677803 205 205 205
0.186226 -0.08720329 0.3651763 205 205 205
0.193297 -0.0875412 0.3642851 205 205 205
0.1988374 -0.08651943 0.3610283 205 205 205
-0.04828719 -0.06843948 0.4059226 205 205 205
-0.04139807 -0.06864962 0.4030751 205 205 205
-0.03900359 -0.0693199 0.4033422 205 205 205
-0.03660504 -0.06997996 0.4035927 205 205 205
-0.03540428 -0.0703061 0.4037117 205 205 205
-0.03023651 -0.07080065 0.4023415 205 205 205
-0.01999918 -0.07511277 0.4066927 205 205 205
-0.01485675 -0.07545513 0.4051025 205 205 205
-0.01364108 -0.07573453 0.405147 205 205 205
0.1380697 -0.09431258 0.3890055 205 205 205
0.1413241 -0.09367043 0.3867733 205 205 205
0.1454331 -0.09105689 0.3802792 205 205 205
0.1466017 -0.09097313 0.3797911 205 205 205
0.1563293 -0.09208324 0.3794783 205 205 205
0.159071 -0.0923079 0.3792246 205 205 205
0.1606493 -0.09263688 0.3794883 205 205 205
0.1648949 -0.09170853 0.3765185 205 205 205
0.1667798 -0.09100769 0.3746224 205 205 205
0.1766179 -0.0917604 0.3737384 205 205 205
0.179598 -0.09084728 0.371184 205 205 205
0.1836683 -0.08973847 0.3679978 205 205 205
0.1859229 -0.08938488 0.3667678 205 205 205
0.1886617 -0.0894518 0.3662783 205 205 205
0.1914048 -0.08950487 0.3657666 205 205 205
0.1952721 -0.08934369 0.364585 205 205 205
0.1980975 -0.08829819 0.3618804 205 205 205
-0.04541522 -0.06909846 0.4030239 205 205 205
-0.03921247 -0.07041276 0.4028246 205 205 205
-0.03681357 -0.07107383 0.4030744 205 205 205
-0.03561262 -0.0714005 0.4031932 205 205 205
-0.03163997 -0.07157577 0.4017233 205 205 205
-0.027013 -0.07321639 0.4030066 205 205 205
-0.02597165 -0.07392091 0.4039941 205 205 205
-0.01912597 -0.07691756 0.4071313 205 205 205
-0.01790076 -0.07720798 0.4071885 205 205 205
-0.01020829 -0.09335842 0.4373682 205 205 205
-0.01149968 -0.1048446 0.4618115 205 205 205
0.1423449 -0.09474955 0.3857427 205 205 205
0.1549886 -0.09333132 0.3794477 205 205 205
0.1593071 -0.09390037 0.3794692 205 205 205
0.1624755 -0.09456034 0.3799833 205 205 205
0.1666134 -0.09214739 0.3740724 205 205 205
0.1677651 -0.09201306 0.3735143 205 205 205
0.1720969 -0.09247795 0.3733757 205 205 205
0.1769068 -0.09335257 0.3739563 205 205 205
0.1780615 -0.09319563 0.3733635 205 205 205
0.1787521 -0.09259556 0.3719971 205 205 205
0.1798989 -0.09243327 0.3713987 205 205 205
0.1922429 -0.09151892 0.3667125 205 205 205
0.1961312 -0.09135627 0.3655182 205 205 205
0.1984585 -0.08987133 0.3620663 205 205 205
0.2023129 -0.08965423 0.3608013 205 205 205
-0.04848117 -0.07025849 0.4039815 205 205 205
-0.04562583 -0.07018986 0.4025021 205 205 205
-0.04322947 -0.07087978 0.4027935 205 205 205
-0.03722017 -0.07255952 0.4034494 205 205 205
-0.03601529 -0.07288773 0.4035682 205 205 205
-0.02755476 -0.07511251 0.4042834 205 205 205
-0.0146792 -0.0799986 0.4086064 205 205 205
0.1425237 -0.09635114 0.3860013 205 205 205
0.1437216 -0.09627701 0.3855199 205 205 205
0.1599459 -0.09594783 0.3805019 205 205 205
0.1646543 -0.09546711 0.3783259 205 205 205
0.1684645 -0.09404469 0.3745248 205 205 205
0.1760329 -0.09510411 0.3747572 205 205 205
0.1778941 -0.09434725 0.372802 205 205 205
0.1820206 -0.09324645 0.3696319 205 205 205
0.1842994 -0.09290061 0.3684098 205 205 205
0.1865693 -0.09254309 0.367173 205 205 205
0.1877008 -0.09235996 0.3665493 205 205 205
0.1920794 -0.09266873 0.3661518 205 205 205
0.2010435 -0.09101897 0.3609135 205 205 205
0.2026822 -0.09123182 0.3609727 205 205 205
-0.04892596 -0.07174118 0.4043447 205 205 205
-0.03983701 -0.07298713 0.4026716 205 205 205
-0.03843167 -0.07292458 0.4019027 205 205 205
-0.03742987 -0.0736523 0.4029208 205 205 205
-0.03482784 -0.07390763 0.4022569 205 205 205
-0.03121542 -0.07486742 0.4025738 205 205 205
-0.02809945 -0.07702019 0.4055492 205 205 205
-0.02597979 -0.07845197 0.4075147 205 205 205
0.1455713 -0.09681035 0.3831697 205 205 205
0.1522676 -0.09727805 0.3822809 205 205 205
0.1566135 -0.09788455 0.3823258 205 205 205
0.1582005 -0.09823153 0.3825947 205 205 205
0.1593918 -0.09812064 0.3820609 205 205 205
0.1605813 -0.0980068 0.3815234 205 205 205
0.1649683 -0.09855307 0.3814658 205 205 205
0.1707614 -0.09639857 0.3757348 205 205 205
0.1746998 -0.09640983 0.374776 205 205 205
0.1800296 -0.09517218 0.3710403 205 205 205
0.1811784 -0.09500563 0.3704368 205 205 205
0.1919146 -0.09381611 0.3655866 205 205 205
0.1935459 -0.09406037 0.3656889 205 205 205
0.1985681 -0.09368105 0.3638137 205 205 205
0.2008136 -0.09325334 0.3624822 205 205 205
0.2025202 -0.09237821 0.360408 205 205 205
-0.03299714 -0.07644908 0.403731 205 205 205
-0.03074705 -0.077493 0.4048267 205 205 205
-0.0265131 -0.08038271 0.4087664 205 205 205
-0.02511858 -0.08027975 0.4079469 205 205 205
-0.01975084 -0.08023802 0.4055211 205 205 205
-0.01783673 -0.08248805 0.4092246 205 205 205
0.1636309 -0.1013303 0.3843609 205 205 205
0.1648346 -0.1012084 0.3838076 205 205 205
0.1824112 -0.09750006 0.372151 205 205 205
0.1865458 -0.096349 0.368925 205 205 205
0.1922465 -0.09540572 0.3657616 205 205 205
0.1933796 -0.09520823 0.365118 205 205 205
0.1967643 -0.09459802 0.3631654 205 205 205
0.1984027 -0.09483042 0.363242 205 205 205
0.2000454 -0.0950586 0.363311 205 205 205
-0.03217525 -0.07827238 0.4041864 205 205 205
-0.02991224 -0.07931844 0.4052724 205 205 205
-0.02796196 -0.08118435 0.4081336 205 205 205
-0.02548827 -0.08180562 0.4082934 205 205 205
0.1686771 -0.1024524 0.3823202 205 205 205
0.1710742 -0.1021799 0.381176 205 205 205
0.173463 -0.1018954 0.3800164 205 205 205
0.175401 -0.1011424 0.3780695 205 205 205
0.1777658 -0.1008346 0.3768829 205 205 205
