ply
format ascii 1.0
comment Generated by Floating Hands
element vertex 1193
property double x
property double y
property double z
property uchar red
property uchar green
property uchar blue
end_header
0.02462531 0.04293117 0.3418737 0 0 0
0.03531805 0.04058775 0.3545246 0 0 0
0.06936521 0.03794358 0.3299243 0 0 0
0.07016996 0.03788899 0.3297507 0 0 0
0.09104052 0.03752413 0.316819 0 0 0
0.09148335 0.03759467 0.315621 0 0 0
0.09674332 0.03757953 0.3137861 0 0 0
0.09863263 0.03767416 0.3120258 0 0 0
0.09975623 0.03777079 0.310533 0 0 0
0.103438 0.03766776 0.311231 0 0 0
0.1060008 0.03782387 0.3091061 0 0 0
0.1104517 0.03779998 0.3093698 0 0 0
0.1161 0.03777909 0.3100997 0 0 0
0.1221173 0.03794535 0.30942 0 0 0
0.1240369 0.03797602 0.3095737 0 0 0
0.124771 0.03803112 0.3092009 0 0 0
0.002218676 0.04609257 0.345935 0 0 0
0.00506638 0.04508911 0.3531846 0 0 0
0.007993525 0.0447015 0.3493778 0 0 0
0.01858302 0.04297423 0.3438005 0 0 0
0.01940955 0.04276989 0.3448118 0 0 0
0.02620696 0.04180677 0.340807 0 0 0
0.02963033 0.0410891 0.3437209 0 0 0
0.08522399 0.0268441 0.4730151 0 0 0
0.07344589 0.03255574 0.3971262 0 0 0
0.06554719 0.03696598 0.3367327 0 0 0
0.06688223 0.03723854 0.3303729 0 0 0
0.067493 0.037257 0.3292304 0 0 0
0.06909788 0.03714354 0.3288932 0 0 0
0.08545927 0.03662809 0.3205926 0 0 0
0.08623204 0.03660779 0.3203602 0 0 0
0.08748115 0.03665403 0.3189346 0 0 0
0.09143859 0.03674775 0.3155637 0 0 0
0.09369991 0.03673244 0.3147934 0 0 0
0.0944519 0.03673031 0.3145311 0 0 0
0.09859358 0.03683177 0.3119676 0 0 0
0.09971847 0.03693252 0.3104749 0 0 0
0.1004549 0.03694377 0.3101909 0 0 0
0.1130294 0.03696778 0.3092395 0 0 0
0.1152244 0.0370796 0.3082337 0 0 0
0.1159537 0.03711991 0.3078932 0 0 0
0.1197397 0.03713773 0.3082927 0 0 0
0.1252849 0.03743105 0.3066196 0 0 0
0.1298233 0.03723004 0.3098649 0 0 0
-0.007261762 0.04733624 0.3448611 0 0 0
0.006642198 0.04373935 0.3542562 0 0 0
0.02273041 0.04131475 0.343783 0 0 0
0.03490684 0.03901087 0.3494322 0 0 0
0.07279664 0.03126519 0.4001886 0 0 0
0.06723167 0.03646518 0.3281951 0 0 0
0.06962886 0.03629785 0.3276866 0 0 0
0.07782637 0.03575462 0.3267693 0 0 0
0.08743179 0.03579955 0.3188742 0 0 0
0.08819915 0.03578388 0.3186343 0 0 0
0.09139295 0.03590139 0.3155031 0 0 0
0.0963205 0.0359737 0.3127303 0 0 0
0.09781021 0.035983 0.3121836 0 0 0
0.09967976 0.0360948 0.3104136 0 0 0
0.1051995 0.03611942 0.3092888 0 0 0
0.1162236 0.03639435 0.3065869 0 0 0
0.1204437 0.03632743 0.3078703 0 0 0
0.1240758 0.03659321 0.3060447 0 0 0
-0.003007597 0.0454682 0.3443385 0 0 0
0.003074645 0.04359314 0.3529507 0 0 0
0.00450838 0.0430316 0.3570682 0 0 0
0.006303183 0.04265535 0.3571925 0 0 0
0.01575508 0.04153438 0.3456379 0 0 0
0.01918301 0.04090011 0.3457073 0 0 0
0.02004053 0.04074544 0.3457167 0 0 0
0.03288319 0.03868169 0.3444767 0 0 0
0.06432191 0.03567183 0.3307312 0 0 0
0.07015286 0.03546258 0.3264757 0 0 0
0.07152356 0.03544918 0.3251456 0 0 0
0.08490831 0.03459747 0.3247538 0 0 0
0.08612977 0.03489142 0.3202359 0 0 0
0.08690289 0.03487263 0.3200004 0 0 0
0.08891656 0.03491584 0.3183276 0 0 0
0.09014035 0.03498266 0.3168866 0 0 0
0.09166154 0.034965 0.316384 0 0 0
0.09511632 0.03503805 0.3141406 0 0 0
0.1092209 0.0353144 0.3085878 0 0 0
0.1110895 0.03528601 0.3088564 0 0 0
0.1300517 0.03600653 0.3050512 0 0 0
-0.001537475 0.04413469 0.3454627 0 0 0
6.51612E-05 0.0437045 0.346626 0 0 0
0.005051471 0.04173857 0.3600627 0 0 0
0.008189247 0.04149325 0.3542576 0 0 0
0.01020893 0.04135295 0.3503664 0 0 0
0.01206395 0.04111845 0.3484533 0 0 0
0.01389051 0.0408961 0.3465258 0 0 0
0.01475087 0.04073104 0.3465542 0 0 0
0.02339237 0.03949267 0.3416725 0 0 0
0.02423774 0.03941388 0.3406679 0 0 0
0.02507581 0.03933791 0.3396603 0 0 0
0.02758653 0.03892189 0.3396123 0 0 0
0.03804818 0.03580149 0.3620996 0 0 0
0.06849711 0.0347047 0.3267575 0 0 0
0.06929307 0.03465055 0.3265856 0 0 0
0.07008851 0.0345979 0.3264108 0 0 0
0.07225069 0.03454056 0.3248981 0 0 0
0.08191928 0.03349357 0.3296472 0 0 0
0.09039935 0.03403885 0.3177662 0 0 0
0.09582345 0.03419412 0.3138049 0 0 0
0.09772646 0.03430097 0.3120513 0 0 0
0.1128365 0.03463493 0.3068962 0 0 0
0.1135629 0.03467226 0.3065638 0 0 0
0.1142882 0.0347111 0.3062288 0 0 0
0.124538 0.03517567 0.3033956 0 0 0
0.1257227 0.03514734 0.3038985 0 0 0
0.1300303 0.03514328 0.304978 0 0 0
-0.003360208 0.04362216 0.3452258 0 0 0
-0.001017887 0.04293995 0.3474799 0 0 0
-0.000261503 0.04269701 0.3485568 0 0 0
0.002660587 0.04161985 0.3548272 0 0 0
0.005690753 0.04047475 0.3620538 0 0 0
0.00675295 0.04039739 0.3601199 0 0 0
0.02497839 0.03845135 0.3395998 0 0 0
0.03086933 0.0374258 0.3404397 0 0 0
0.03517027 0.03663521 0.3422256 0 0 0
0.08507244 0.03275373 0.3255709 0 0 0
0.08631001 0.03307932 0.3210516 0 0 0
0.08911599 0.03311148 0.3191386 0 0 0
0.09156545 0.03326728 0.3162459 0 0 0
0.0961903 0.03345113 0.3125277 0 0 0
0.104707 0.03369768 0.3081636 0 0 0
0.1138335 0.0339655 0.3052547 0 0 0
0.1271303 0.03442276 0.3030621 0 0 0
0.1297547 0.03453333 0.3027693 0 0 0
-0.00274119 0.04247158 0.3462522 0 0 0
-0.0004846394 0.0417278 0.34949 0 0 0
0.01168232 0.03909179 0.3513201 0 0 0
0.02233852 0.03777983 0.342549 0 0 0
0.02487885 0.03763973 0.3385385 0 0 0
0.02571293 0.0374996 0.3385252 0 0 0
0.03074686 0.03661272 0.3393773 0 0 0
0.03704416 0.03507649 0.3470286 0 0 0
0.0739316 0.03262962 0.3253523 0 0 0
0.07575203 0.03244388 0.3259315 0 0 0
0.08553201 0.03195577 0.3243081 0 0 0
0.089064 0.03225549 0.3190644 0 0 0
0.09488311 0.03229998 0.3160711 0 0 0
0.0979855 0.03251867 0.3128386 0 0 0
0.1098483 0.0328161 0.3080504 0 0 0
0.1101747 0.03294872 0.3068201 0 0 0
0.1145229 0.03316866 0.3048424 0 0 0
0.1192743 0.03334446 0.3036599 0 0 0
0.1214198 0.03350297 0.3025841 0 0 0
-0.007997832 0.04277823 0.3455861 0 0 0
-0.004699202 0.04191037 0.3469925 0 0 0
-0.002976843 0.04151059 0.3471817 0 0 0
0.001533355 0.0399325 0.3546265 0 0 0
0.007149652 0.03802604 0.3640211 0 0 0
0.01140635 0.03795987 0.354241 0 0 0
0.01866711 0.03697402 0.3494457 0 0 0
0.02133261 0.03673019 0.3464705 0 0 0
0.02811956 0.03620616 0.3383988 0 0 0
0.06448399 0.03230881 0.3283398 0 0 0
0.06689366 0.03212652 0.3278553 0 0 0
0.06829607 0.0321148 0.3265437 0 0 0
0.07227847 0.03185835 0.3256531 0 0 0
0.07986571 0.0310038 0.3288922 0 0 0
0.08654795 0.03095618 0.3249488 0 0 0
0.09363046 0.03134743 0.3174621 0 0 0
0.1016786 0.03172736 0.3113378 0 0 0
0.1053613 0.03205113 0.3077077 0 0 0
0.1108668 0.03214439 0.306418 0 0 0
0.1115938 0.0321789 0.3060922 0 0 0
0.1178068 0.03240653 0.3042841 0 0 0
0.1225648 0.0326183 0.3030219 0 0 0
0.1232799 0.03267616 0.3026538 0 0 0
0.1314025 0.03269949 0.3039457 0 0 0
-0.006540366 0.04140839 0.3467255 0 0 0
-0.005680029 0.04120415 0.3468279 0 0 0
-0.0002637015 0.03944816 0.3534102 0 0 0
0.006888958 0.03691154 0.3659372 0 0 0
0.007823624 0.03672062 0.365988 0 0 0
0.01502188 0.03662866 0.3503036 0 0 0
0.01848332 0.0358195 0.352363 0 0 0
0.02210312 0.03574738 0.3454 0 0 0
0.02552114 0.03565438 0.3393833 0 0 0
0.02967067 0.03514294 0.337276 0 0 0
0.03133436 0.03488286 0.3372089 0 0 0
0.03470733 0.03429208 0.3380328 0 0 0
0.06801562 0.02403266 0.4084151 0 0 0
0.06262717 0.03167676 0.3275918 0 0 0
0.06441244 0.0314432 0.3282622 0 0 0
0.06682371 0.03126068 0.3277773 0 0 0
0.07024039 0.03093227 0.3280622 0 0 0
0.08005147 0.03001243 0.3297731 0 0 0
0.08430449 0.02914634 0.3358334 0 0 0
0.08705331 0.02986151 0.3267733 0 0 0
0.08728485 0.03006073 0.3246281 0 0 0
0.08877597 0.03033884 0.3210483 0 0 0
0.09003309 0.03042229 0.3196054 0 0 0
0.09080843 0.03041119 0.3193541 0 0 0
0.09664389 0.03048871 0.3163082 0 0 0
0.1000995 0.03062872 0.3139766 0 0 0
0.1020132 0.03101069 0.3100399 0 0 0
0.1038544 0.0311745 0.3082303 0 0 0
0.1096963 0.03138375 0.3057514 0 0 0
0.116181 0.03173496 0.3027625 0 0 0
0.1183207 0.03187928 0.3017196 0 0 0
0.1201942 0.03187694 0.3018965 0 0 0
0.1265775 0.03197749 0.3019439 0 0 0
0.1282499 0.03183576 0.3033031 0 0 0
-0.004444839 0.03970753 0.3499254 0 0 0
-0.002156881 0.03891303 0.3531714 0 0 0
-0.0006961096 0.03831746 0.3563148 0 0 0
0.00957351 0.03535915 0.3659996 0 0 0
0.01067692 0.03540042 0.363053 0 0 0
0.01478896 0.03546871 0.3532161 0 0 0
0.01832213 0.03472361 0.3542784 0 0 0
0.02018449 0.03473152 0.3503062 0 0 0
0.02458255 0.03482565 0.3403188 0 0 0
0.036286 0.03316613 0.3378514 0 0 0
0.05966285 0.03087867 0.3300542 0 0 0
0.06415762 0.03068697 0.3272041 0 0 0
0.06514489 0.03051577 0.3280224 0 0 0
0.07730731 0.02935448 0.3293526 0 0 0
0.08501843 0.02789289 0.3386222 0 0 0
0.0877966 0.02895857 0.3264461 0 0 0
0.0882305 0.02937832 0.3221572 0 0 0
0.08901604 0.02936244 0.321912 0 0 0
0.09384932 0.02952432 0.3182362 0 0 0
0.09462079 0.02952101 0.3179708 0 0 0
0.0964925 0.02940442 0.3183683 0 0 0
0.1012038 0.02991635 0.3123878 0 0 0
0.1019695 0.03017349 0.3099555 0 0 0
0.1052805 0.03038496 0.307542 0 0 0
0.1089316 0.03052009 0.3059857 0 0 0
0.1139955 0.03077296 0.3036968 0 0 0
0.1147142 0.03081515 0.3033595 0 0 0
0.1246507 0.03111384 0.3017382 0 0 0
0.1258361 0.03106823 0.3022364 0 0 0
0.1270269 0.03102479 0.3027285 0 0 0
0.1306306 0.03090755 0.3041676 0 0 0
-0.007919569 0.0396772 0.3484567 0 0 0
-0.004689811 0.03872276 0.3508417 0 0 0
0.002475792 0.03536056 0.3705079 0 0 0
0.009092892 0.03390127 0.3718866 0 0 0
0.01347166 0.03413087 0.3600807 0 0 0
0.02188282 0.03384673 0.3462407 0 0 0
0.02448127 0.0338485 0.3412364 0 0 0
0.02945576 0.03348215 0.3361269 0 0 0
0.05877443 0.03008473 0.3301096 0 0 0
0.06328285 0.02989046 0.3272755 0 0 0
0.06408489 0.02982662 0.3271202 0 0 0
0.07149659 0.0292066 0.3265611 0 0 0
0.07771555 0.02824086 0.3311935 0 0 0
0.08410381 0.02700155 0.3387607 0 0 0
0.08744583 0.0265532 0.3409263 0 0 0
0.08751612 0.0272031 0.3347077 0 0 0
0.08805826 0.02762648 0.3304073 0 0 0
0.0883064 0.02784122 0.3282591 0 0 0
0.08853928 0.02805793 0.3261124 0 0 0
0.08955014 0.02826052 0.3237196 0 0 0
0.1037697 0.0295092 0.3080586 0 0 0
0.1070947 0.02948507 0.3077523 0 0 0
0.1189686 0.0302707 0.3011921 0 0 0
0.1196791 0.03032369 0.3008366 0 0 0
0.1208446 0.03026443 0.3013611 0 0 0
0.1250913 0.03016082 0.3025232 0 0 0
-0.005944569 0.03786913 0.352646 0 0 0
-0.002383744 0.03626766 0.3610318 0 0 0
-0.001676544 0.0359149 0.3630989 0 0 0
0.001395216 0.03456499 0.370352 0 0 0
0.01892547 0.03241121 0.3571063 0 0 0
0.03433662 0.0318475 0.3358046 0 0 0
0.03930034 0.0299066 0.3484245 0 0 0
0.06599355 0.02860936 0.328663 0 0 0
0.06861793 0.02831654 0.3291296 0 0 0
0.07083704 0.02827379 0.3276248 0 0 0
0.07347387 0.02800772 0.328034 0 0 0
0.08909859 0.02658667 0.331018 0 0 0
0.09870627 0.027692 0.3173532 0 0 0
0.1022516 0.02863978 0.3085618 0 0 0
0.1029893 0.02865791 0.3082662 0 0 0
0.1037259 0.02867756 0.307968 0 0 0
0.1066618 0.02877131 0.3067486 0 0 0
0.1069986 0.02891987 0.3055263 0 0 0
0.1077253 0.02894852 0.3052138 0 0 0
0.1084508 0.02897868 0.3048986 0 0 0
0.1106208 0.02907821 0.3039375 0 0 0
0.127686 0.02939674 0.3021575 0 0 0
0.1320191 0.02933698 0.3031799 0 0 0
-0.0005407976 0.03406017 0.3691214 0 0 0
0.002045693 0.03319828 0.3723154 0 0 0
0.005676501 0.03213625 0.3755371 0 0 0
0.01553592 0.03049273 0.3729055 0 0 0
0.02165821 0.03193327 0.3470656 0 0 0
0.03178399 0.03124616 0.336847 0 0 0
0.03511949 0.03074714 0.3366606 0 0 0
0.05780484 0.02842714 0.3300689 0 0 0
0.06591962 0.02774226 0.3285713 0 0 0
0.06812606 0.02725888 0.3311555 0 0 0
0.0705818 0.02709096 0.3306245 0 0 0
0.075937 0.02655045 0.3314134 0 0 0
0.08651735 0.0239039 0.3481522 0 0 0
0.08978633 0.02389938 0.3462104 0 0 0
0.09043268 0.02541509 0.3325684 0 0 0
0.09923463 0.02632184 0.3212685 0 0 0
0.0998472 0.02697289 0.3157587 0 0 0
0.1014221 0.02725809 0.313038 0 0 0
0.1025757 0.02768255 0.3093887 0 0 0
0.1141773 0.02844921 0.3021894 0 0 0
0.1144606 0.02861656 0.3009576 0 0 0
0.1165898 0.02875686 0.2999315 0 0 0
0.1207795 0.02860011 0.3011726 0 0 0
0.1259859 0.02872328 0.3007022 0 0 0
0.1349285 0.02828053 0.3048462 0 0 0
0.001828226 0.03210672 0.373212 0 0 0
0.01855439 0.02992398 0.3628911 0 0 0
0.02920469 0.03065652 0.33786 0 0 0
0.03085249 0.03049953 0.3367966 0 0 0
0.03252118 0.03024332 0.3367152 0 0 0
0.03916639 0.02794535 0.349228 0 0 0
0.05720644 0.02739564 0.3320721 0 0 0
0.05903447 0.02765739 0.3277398 0 0 0
0.06225455 0.02737932 0.3271572 0 0 0
0.06907064 0.02619687 0.3318564 0 0 0
0.07869149 0.02493715 0.3357224 0 0 0
0.0915267 0.02361869 0.3393677 0 0 0
0.0928513 0.02445832 0.3316911 0 0 0
0.09902916 0.0261103 0.3159448 0 0 0
0.101373 0.02641147 0.3129396 0 0 0
0.1144235 0.02779609 0.3008604 0 0 0
0.1191263 0.02796545 0.2996679 0 0 0
0.120999 0.02795117 0.2998317 0 0 0
0.1240582 0.02788106 0.3004827 0 0 0
0.1254786 0.02800925 0.2997313 0 0 0
-0.006488457 0.03336147 0.3684066 0 0 0
-0.003867652 0.03254139 0.3706647 0 0 0
0.006776978 0.02885416 0.3843763 0 0 0
0.008795844 0.02844821 0.3844633 0 0 0
0.01192074 0.02804831 0.3825776 0 0 0
0.01722423 0.02811145 0.3727282 0 0 0
0.01833911 0.02854467 0.3667688 0 0 0
0.02994351 0.02964567 0.3377337 0 0 0
0.03075421 0.02962496 0.3367038 0 0 0
0.03158903 0.02949585 0.3366644 0 0 0
0.03238856 0.02947998 0.3356289 0 0 0
0.03497493 0.02888163 0.337469 0 0 0
0.06137286 0.02658914 0.3272105 0 0 0
0.06217778 0.02652187 0.3270603 0 0 0
0.07414833 0.02486961 0.331609 0 0 0
0.09313894 0.02303065 0.3356303 0 0 0
0.1021032 0.02586327 0.3104066 0 0 0
0.1072639 0.02630916 0.3061451 0 0 0
0.1075982 0.02647128 0.3049228 0 0 0
0.1108076 0.02677133 0.3024196 0 0 0
0.1115256 0.02680928 0.3020928 0 0 0
0.1129579 0.02688979 0.3014316 0 0 0
0.117226 0.0271677 0.2993864 0 0 0
0.1186387 0.02727248 0.2986844 0 0 0
0.1230866 0.0273043 0.2986325 0 0 0
-0.008902367 0.03256454 0.3710685 0 0 0
-0.007353235 0.0318587 0.3742396 0 0 0
0.001123257 0.02962377 0.3779661 0 0 0
0.01713001 0.02720601 0.3716259 0 0 0
0.0193144 0.02812992 0.3597079 0 0 0
0.0230964 0.02922296 0.3437842 0 0 0
0.02650555 0.02908692 0.3397407 0 0 0
0.02733939 0.02905999 0.3387225 0 0 0
0.05679246 0.02521442 0.3359306 0 0 0
0.07579818 0.02339541 0.3351665 0 0 0
0.08338643 0.0212715 0.3475643 0 0 0
0.08525976 0.02068501 0.3511701 0 0 0
0.08716159 0.02009899 0.3547648 0 0 0
0.09368303 0.02143624 0.3405153 0 0 0
0.09510647 0.02154172 0.3390307 0 0 0
0.09681673 0.02151604 0.3384808 0 0 0
0.09883542 0.02135899 0.3388585 0 0 0
0.100226 0.02148545 0.3373441 0 0 0
0.100753 0.02162047 0.3361161 0 0 0
0.09951729 0.02384296 0.3197393 0 0 0
0.1004582 0.02442023 0.3151639 0 0 0
0.1068253 0.0256178 0.3051324 0 0 0
0.1090081 0.02570968 0.304186 0 0 0
0.1110666 0.0261256 0.3010914 0 0 0
0.1153316 0.02638491 0.2990862 0 0 0
0.1160382 0.02643344 0.2987432 0 0 0
0.1204703 0.0264324 0.2987468 0 0 0
0.1211761 0.02649061 0.2983852 0 0 0
0.1298487 0.02697312 0.295955 0 0 0
-0.001765015 0.02943001 0.3756553 0 0 0
0.002552288 0.02768393 0.3829426 0 0 0
0.01048171 0.02790465 0.3673926 0 0 0
0.01345915 0.02766825 0.3644965 0 0 0
0.01439685 0.02748909 0.3645172 0 0 0
0.01533479 0.0273117 0.3645346 0 0 0
0.01627303 0.02713606 0.3645484 0 0 0
0.0212103 0.02817979 0.3476736 0 0 0
0.023003 0.02855045 0.3416961 0 0 0
0.02886494 0.02825904 0.3355854 0 0 0
0.03995293 0.02616576 0.3388727 0 0 0
0.0584161 0.02118611 0.3606327 0 0 0
0.06184927 0.02494481 0.325881 0 0 0
0.0670009 0.02380876 0.3309204 0 0 0
0.07299136 0.02228087 0.3387435 0 0 0
0.07532542 0.02226443 0.3371869 0 0 0
0.09740093 0.0198811 0.3433541 0 0 0
0.1004049 0.02356766 0.315055 0 0 0
0.1015786 0.02373371 0.3135479 0 0 0
0.1027341 0.02390582 0.3120353 0 0 0
0.1075089 0.02482321 0.3047132 0 0 0
0.1124522 0.02539124 0.3003273 0 0 0
0.1135923 0.02529448 0.3008873 0 0 0
0.1150194 0.02538469 0.3002104 0 0 0
0.1159999 0.02561944 0.298637 0 0 0
0.1178589 0.02558343 0.2988262 0 0 0
0.1185657 0.02563694 0.2984738 0 0 0
0.1199753 0.02574853 0.2977614 0 0 0
0.1211404 0.02566976 0.2982776 0 0 0
0.1237235 0.02571813 0.2980483 0 0 0
0.1286982 0.02565456 0.2987412 0 0 0
0.1300123 0.02635713 0.2945962 0 0 0
0.003498942 0.02652905 0.3818931 0 0 0
0.00751288 0.02748912 0.3671657 0 0 0
0.01327021 0.0288384 0.3464898 0 0 0
0.01501175 0.02850357 0.3465311 0 0 0
0.01584572 0.02822725 0.34754 0 0 0
0.02543544 0.02793606 0.3355874 0 0 0
0.03363471 0.02699403 0.3322614 0 0 0
0.04084674 0.02490752 0.3406699 0 0 0
0.06016485 0.02422949 0.3260716 0 0 0
0.06472637 0.02347899 0.3282264 0 0 0
0.06692255 0.02293322 0.3308104 0 0 0
0.07120526 0.02148172 0.3390074 0 0 0
0.07374989 0.02079964 0.3424979 0 0 0
0.07613014 0.0207843 0.3409312 0 0 0
0.08145532 0.01944621 0.3477787 0 0 0
0.08282164 0.01911414 0.3494736 0 0 0
0.08559622 0.01845316 0.3528423 0 0 0
0.08700436 0.01812439 0.3545159 0 0 0
0.09011938 0.01732557 0.3587972 0 0 0
0.09528492 0.01868112 0.3459508 0 0 0
0.1015256 0.02288591 0.3134361 0 0 0
0.1022871 0.02290032 0.3131411 0 0 0
0.1038209 0.02324435 0.3104064 0 0 0
0.1095491 0.02442137 0.301525 0 0 0
0.114979 0.02456715 0.3001007 0 0 0
0.117372 0.02490843 0.2978338 0 0 0
0.12747 0.02488671 0.2981541 0 0 0
-0.01119444 0.03090937 0.3635125 0 0 0
0.01220343 0.02983757 0.332439 0 0 0
0.0156022 0.02954433 0.3295501 0 0 0
0.01708271 0.02877573 0.3335468 0 0 0
0.01859754 0.02788479 0.3385249 0 0 0
0.02026393 0.02746103 0.3395199 0 0 0
0.02697548 0.02704127 0.3334516 0 0 0
0.0486833 0.01928805 0.3696321 0 0 0
0.05378226 0.01944004 0.3630201 0 0 0
0.06122339 0.01297637 0.4069765 205 205 205
0.06545984 0.02255424 0.327951 0 0 0
0.07280016 0.01992958 0.3425717 0 0 0
0.07803234 0.019076 0.3454216 0 0 0
0.08298035 0.01800378 0.3503068 0 0 0
0.09003892 0.01631976 0.3586642 0 0 0
0.09149219 0.01598665 0.3603139 0 0 0
0.1015282 0.01837592 0.3385551 0 0 0
0.1018296 0.02188896 0.3142428 0 0 0
0.102595 0.0219035 0.3139463 0 0 0
0.1056079 0.02294497 0.3063327 0 0 0
0.1070193 0.02332671 0.3035851 0 0 0
0.1300456 0.02413643 0.297726 0 0 0
0.1302525 0.02435473 0.2964741 0 0 0
-0.01118858 0.03003751 0.3624147 0 0 0
-0.009979994 0.02817583 0.374571 0 0 0
-0.007130128 0.02633965 0.3838578 0 0 0
-0.004205732 0.02554684 0.3851143 0 0 0
-0.0008774468 0.02519681 0.3823798 0 0 0
0.007960869 0.02830117 0.3440921 0 0 0
0.0128336 0.03048931 0.3194437 0 0 0
0.01376305 0.03068578 0.3164932 0 0 0
0.01816767 0.02921337 0.3215432 0 0 0
0.03091461 0.02591688 0.3302021 0 0 0
0.04143256 0.02314394 0.3393777 0 0 0
0.04535685 0.02059614 0.3549109 0 0 0
0.05418666 0.02163918 0.3378354 0 0 0
0.06097525 0.02231289 0.326677 0 0 0
0.06538051 0.02169208 0.3278359 0 0 0
0.06797438 0.02082602 0.3323472 0 0 0
0.06939714 0.02031863 0.335077 0 0 0
0.07104288 0.01966151 0.338767 0 0 0
0.08086614 0.01728079 0.3496693 0 0 0
0.0840413 0.01684348 0.3509022 0 0 0
0.08851809 0.01565711 0.3568714 0 0 0
0.09341295 0.01533873 0.3565239 0 0 0
0.100801 0.01561957 0.3511499 0 0 0
0.09951051 0.01990538 0.3223496 0 0 0
0.1024895 0.02073095 0.3159662 0 0 0
0.1032626 0.02074574 0.3156669 0 0 0
0.10367 0.02091583 0.3144465 0 0 0
0.1059054 0.02229873 0.3049988 0 0 0
0.1062444 0.02247965 0.3037815 0 0 0
0.1264292 0.02352079 0.2961955 0 0 0
0.1271295 0.02359242 0.2958118 0 0 0
-0.01081492 0.02854418 0.3653636 0 0 0
-0.009275641 0.02682973 0.3755388 0 0 0
0.01021495 0.02980583 0.3222243 0 0 0
0.01898294 0.02888707 0.3164864 0 0 0
0.01967292 0.02837093 0.3194638 0 0 0
0.02191615 0.02719027 0.3254035 0 0 0
0.02350218 0.02678458 0.3263731 0 0 0
0.03641106 0.02450087 0.327755 0 0 0
0.04360891 0.02103896 0.3459994 0 0 0
0.04457391 0.02329019 0.3279834 0 0 0
0.04579297 0.02367173 0.3238584 0 0 0
0.05589323 0.02204932 0.3264275 0 0 0
0.05992151 0.0216802 0.3257337 0 0 0
0.0608935 0.0214598 0.3265604 0 0 0
0.06448694 0.02089283 0.3278816 0 0 0
0.06931566 0.01942553 0.3349539 0 0 0
0.08191602 0.01611834 0.3502704 0 0 0
0.08559874 0.01536503 0.353401 0 0 0
0.09200473 0.01408527 0.3588182 0 0 0
0.09978551 0.01886983 0.3231527 0 0 0
0.1040149 0.02023816 0.3131038 0 0 0
0.1044068 0.02041517 0.311884 0 0 0
0.1047878 0.02093066 0.3085327 0 0 0
0.1079719 0.02191223 0.3018186 0 0 0
0.1086927 0.02194623 0.3015006 0 0 0
0.1144177 0.0222734 0.2988655 0 0 0
0.1189052 0.02279301 0.2955512 0 0 0
0.1233323 0.02279683 0.295477 0 0 0
0.1299756 0.02247255 0.297484 0 0 0
0.02340611 0.02608911 0.3252721 0 0 0
0.02662004 0.02514634 0.3281648 0 0 0
0.03071634 0.02422369 0.3299778 0 0 0
0.0419344 0.0215464 0.3370843 0 0 0
0.04294585 0.02250051 0.3290286 0 0 0
0.04639573 0.02289609 0.3226641 0 0 0
0.04797781 0.02271349 0.3224638 0 0 0
0.05471917 0.02158576 0.3244829 0 0 0
0.0564667 0.02127799 0.3251989 0 0 0
0.09695497 0.01324019 0.3551357 205 205 205
0.09972221 0.01318553 0.354274 205 205 205
0.1015622 0.01315845 0.3536831 205 205 205
0.1001858 0.01815657 0.321806 0 0 0
0.1014325 0.0183342 0.3202946 0 0 0
0.1038708 0.01870857 0.3172544 0 0 0
0.1068019 0.02122803 0.3011103 0 0 0
0.1079236 0.0211002 0.3016976 0 0 0
0.1225937 0.02191912 0.2957246 0 0 0
0.1232937 0.0219843 0.2953544 0 0 0
0.1239924 0.022051 0.2949817 0 0 0
0.1251712 0.02196468 0.2954694 0 0 0
0.1306461 0.02171959 0.2969615 0 0 0
0.131853 0.02164652 0.2974139 0 0 0
-0.01174368 0.02704109 0.3630384 0 0 0
0.002558516 0.02557604 0.3514065 0 0 0
0.02256599 0.02622051 0.3192283 0 0 0
0.02570524 0.02458255 0.3270841 0 0 0
0.02732696 0.02417745 0.328022 0 0 0
0.0329858 0.02329331 0.3277459 0 0 0
0.03464948 0.02290928 0.3286289 0 0 0
0.03802154 0.02215321 0.3303564 0 0 0
0.03890656 0.02189286 0.3312736 0 0 0
0.04856692 0.02195209 0.3212602 0 0 0
0.04923597 0.02201921 0.3201723 0 0 0
0.05158473 0.02176787 0.319836 0 0 0
0.06670815 0.018406 0.3311783 0 0 0
0.07701055 0.01460444 0.3501256 0 0 0
0.07971514 0.01444965 0.3494791 0 0 0
0.08407367 0.01316444 0.3555067 205 205 205
0.0897074 0.01230523 0.3580936 205 205 205
0.09779946 0.01222172 0.3547028 205 205 205
0.1008648 0.01200701 0.3547704 205 205 205
0.1027656 0.01428161 0.3395762 0 0 0
0.1008477 0.01610987 0.3287505 0 0 0
0.105059 0.01910132 0.3091936 0 0 0
0.1082768 0.02012474 0.3024741 0 0 0
0.1097262 0.02019514 0.3018324 0 0 0
0.1104491 0.02023264 0.3015077 0 0 0
0.1174213 0.02106981 0.2960117 0 0 0
0.1239533 0.02123943 0.294856 0 0 0
0.1265305 0.02129168 0.2945816 0 0 0
-0.01028285 0.0243664 0.3720874 0 0 0
-0.0002494298 0.02394575 0.3600431 0 0 0
0.005633955 0.027706 0.3256454 0 0 0
0.007109803 0.0285399 0.3177863 0 0 0
0.008200874 0.02888263 0.3138754 0 0 0
0.03126956 0.02270118 0.32772 0 0 0
0.04434773 0.02190136 0.3196664 0 0 0
0.04669062 0.0216237 0.3193818 0 0 0
0.05059111 0.02119104 0.3188514 0 0 0
0.053847 0.02071146 0.3193536 0 0 0
0.06945856 0.01642033 0.3364969 0 0 0
0.07713766 0.01348016 0.3509438 0 0 0
0.1049813 0.01754561 0.3133258 0 0 0
0.1135696 0.0197967 0.2988302 0 0 0
0.1194801 0.02043707 0.2948216 0 0 0
0.1201783 0.0204974 0.2944624 0 0 0
0.1213428 0.0203956 0.2949693 0 0 0
0.1347165 0.01966715 0.2988816 0 0 0
-0.01098036 0.02395228 0.3688935 0 0 0
0.03282666 0.02146711 0.3284906 0 0 0
0.0344987 0.02107329 0.3293712 0 0 0
0.03694903 0.02072213 0.3291886 0 0 0
0.03858231 0.02049579 0.3290522 0 0 0
0.04199599 0.02122253 0.3207884 0 0 0
0.04649642 0.02097178 0.3182785 0 0 0
0.04727365 0.02088253 0.3181783 0 0 0
0.04972506 0.02046118 0.3188404 0 0 0
0.05334301 0.02038708 0.3163004 0 0 0
0.08815689 0.01003513 0.3602001 205 205 205
0.1025555 0.009982177 0.3538585 205 205 205
0.1052795 0.01047991 0.3498245 205 205 205
0.1027013 0.01326261 0.3340324 0 0 0
0.1023647 0.01431518 0.3278733 0 0 0
0.1043349 0.0154108 0.3208268 0 0 0
0.1052964 0.01800097 0.3055889 0 0 0
0.114511 0.01925339 0.2971367 0 0 0
0.1175821 0.01968618 0.2945274 0 0 0
0.1213004 0.01958885 0.2948382 0 0 0
0.1224706 0.01948548 0.2953385 0 0 0
0.130034 0.01939704 0.2957138 0 0 0
0.1312385 0.0193126 0.2961661 0 0 0
0.131944 0.01939428 0.2957642 0 0 0
-0.01324349 0.02426137 0.3635114 0 0 0
-0.01274367 0.02367128 0.3665704 0 0 0
-0.01139892 0.02272285 0.3707196 0 0 0
-0.01038483 0.0213978 0.3778121 0 0 0
-0.008277022 0.02105462 0.3770251 0 0 0
-0.006928558 0.02120151 0.3741634 0 0 0
-0.005137986 0.02186187 0.3673556 0 0 0
0.02618058 0.02240917 0.3237307 0 0 0
0.02698648 0.02212686 0.3246913 0 0 0
0.03106919 0.02102926 0.3274711 0 0 0
0.03191304 0.02075015 0.3284126 0 0 0
0.03766774 0.01976314 0.3289932 0 0 0
0.03930173 0.01953955 0.3288505 0 0 0
0.04119705 0.02034689 0.3217286 0 0 0
0.04397952 0.02060437 0.3174559 0 0 0
0.04640802 0.02016366 0.3181539 0 0 0
0.05029406 0.01973166 0.3176245 0 0 0
0.05298016 0.01991848 0.3142234 0 0 0
0.05360111 0.02001252 0.3131247 0 0 0
0.06461412 0.01608166 0.3301459 0 0 0
0.08080482 0.01052851 0.3547854 205 205 205
0.09305154 0.008673512 0.3596814 205 205 205
0.1056254 0.017003 0.3063602 0 0 0
0.1073949 0.01765043 0.3023987 0 0 0
0.1315946 0.01898534 0.2935308 0 0 0
-0.01040006 0.02050373 0.3766796 0 0 0
0.02449134 0.02277951 0.3177233 0 0 0
0.02688477 0.02130489 0.3245648 0 0 0
0.03756915 0.01891894 0.3288613 0 0 0
0.03973611 0.01924318 0.3247071 0 0 0
0.05020714 0.01892359 0.317496 0 0 0
0.05149776 0.01910422 0.3153117 0 0 0
0.05398552 0.01949252 0.3109242 0 0 0
0.06281814 0.01615675 0.3253275 0 0 0
0.06517156 0.01532599 0.3288716 0 0 0
0.07353371 0.01130537 0.3482199 205 205 205
0.09444697 0.007271629 0.3611351 205 205 205
0.09662572 0.007036165 0.3615199 205 205 205
0.09729949 0.007192818 0.3602914 205 205 205
0.1005447 0.008007448 0.3541324 205 205 205
0.1052053 0.01597188 0.3074372 0 0 0
0.1080695 0.01687155 0.3019445 0 0 0
0.11157 0.01746205 0.2982101 0 0 0
0.1132733 0.01777637 0.296323 0 0 0
0.1258818 0.01821332 0.2931894 0 0 0
0.1270678 0.01811427 0.2936608 0 0 0
-0.01361597 0.02120903 0.3702061 0 0 0
-0.004316469 0.02239033 0.3502552 0 0 0
0.02517265 0.02138132 0.3205388 0 0 0
0.03005589 0.01948642 0.3272525 0 0 0
0.03171021 0.01907319 0.3281491 0 0 0
0.03822453 0.01812983 0.327672 0 0 0
0.04302367 0.01909438 0.3172885 0 0 0
0.04767385 0.01854523 0.3167128 0 0 0
0.05204633 0.01840194 0.314087 0 0 0
0.05739608 0.01789814 0.3131821 0 0 0
0.06318301 0.01560478 0.3230926 0 0 0
0.06730504 0.01379841 0.3312814 0 0 0
0.07303783 0.01072209 0.3461379 205 205 205
0.07691546 0.008788143 0.3553421 205 205 205
0.08386188 0.007375614 0.3597355 205 205 205
0.08669699 0.007240899 0.3590046 205 205 205
0.09749198 0.005990598 0.3610619 205 205 205
0.09816206 0.006153231 0.3598316 205 205 205
0.1061582 0.01128577 0.3280329 205 205 205
0.1060187 0.01224285 0.3228232 0 0 0
0.1080153 0.01606019 0.3018045 0 0 0
0.1118072 0.01688576 0.2968527 0 0 0
0.1125162 0.01693111 0.2965198 0 0 0
0.1251418 0.01733368 0.2934285 0 0 0
0.1308158 0.01726663 0.2936481 0 0 0
-0.002991515 0.02312382 0.3383164 0 0 0
-0.0008518992 0.02444679 0.3275743 0 0 0
0.02353811 0.02196854 0.3135414 0 0 0
0.02992811 0.01881921 0.326131 0 0 0
0.03737011 0.01723285 0.3285876 0 0 0
0.04215609 0.01839002 0.3172421 0 0 0
0.04293214 0.01829309 0.3171557 0 0 0
0.04835951 0.01765661 0.3164734 0 0 0
0.04925334 0.01739353 0.3173415 0 0 0
0.05119471 0.01768482 0.3140723 0 0 0
0.05791224 0.01721863 0.3119383 0 0 0
0.0740436 0.009540801 0.3467392 205 205 205
0.07796182 0.00756843 0.3559199 205 205 205
0.09037624 0.006087254 0.357811 205 205 205
0.107822 0.007497285 0.3429436 205 205 205
0.1058246 0.01313719 0.3132131 0 0 0
0.1124655 0.01613337 0.2963783 0 0 0
0.1157339 0.01614576 0.2958992 0 0 0
0.1281738 0.01638955 0.293838 0 0 0
0.1288741 0.01646783 0.2934467 0 0 0
-0.01197662 0.01875512 0.3701162 0 0 0
-0.001897578 0.0236677 0.3283536 0 0 0
0.02655712 0.01917802 0.3221938 0 0 0
0.02736277 0.01888078 0.3231484 0 0 0
0.03150499 0.01739951 0.3278725 0 0 0
0.03568303 0.01644903 0.3295616 0 0 0
0.04066513 0.01743416 0.3192333 0 0 0
0.05097774 0.01707374 0.3129618 0 0 0
0.05222722 0.01728763 0.3107765 0 0 0
0.06010716 0.01623871 0.3113661 0 0 0
0.06602664 0.01387809 0.3211761 0 0 0
0.07858209 0.006723626 0.3545719 205 205 205
0.08696499 0.00558301 0.3565065 205 205 205
0.1027251 0.004039251 0.3579844 205 205 205
0.1085239 0.005560377 0.3477067 205 205 205
0.1063328 0.01068257 0.3212817 205 205 205
0.1064644 0.0114944 0.3170083 205 205 205
0.1092638 0.01493257 0.2987649 0 0 0
0.111704 0.01529076 0.2965668 0 0 0
0.1138301 0.0154324 0.2955605 0 0 0
0.1161262 0.0151566 0.2966306 0 0 0
0.1175464 0.01526601 0.2959305 0 0 0
0.1185053 0.01556958 0.2943507 0 0 0
0.1192075 0.01562947 0.2939937 0 0 0
0.1293269 0.0154714 0.2941464 0 0 0
0.02409235 0.01994891 0.3152334 0 0 0
0.0322171 0.01643985 0.3276795 0 0 0
0.03307198 0.01614165 0.3286103 0 0 0
0.03716855 0.01555013 0.3283007 0 0 0
0.06575414 0.01395338 0.3160487 0 0 0
0.07611347 0.007883915 0.3438712 205 205 205
0.1070274 0.002013171 0.361513 205 205 205
0.1091076 0.006798184 0.3357858 205 205 205
0.1069888 0.009408684 0.3229429 205 205 205
0.1075143 0.01340142 0.30258 0 0 0
0.1275913 0.01495304 0.2926883 0 0 0
0.1301836 0.01500582 0.2923563 0 0 0
0.1283488 0.01602232 0.287748 0 0 0
-0.01547206 0.01721048 0.3714157 0 0 0
-0.0005388653 0.02394621 0.3153239 0 0 0
0.02798522 0.01677012 0.3248011 0 0 0
0.02878978 0.0166414 0.3247633 0 0 0
0.03296823 0.01530257 0.3284628 0 0 0
0.03911125 0.01547676 0.3220477 0 0 0
0.03983511 0.01555516 0.3209899 0 0 0
0.06334794 0.01476596 0.3083793 0 0 0
0.07581366 0.007892922 0.338712 205 205 205
0.08632296 0.003244565 0.358295 205 205 205
0.1075615 0.0005785387 0.363179 205 205 205
0.1109459 0.004238558 0.3432649 205 205 205
0.1074557 0.01258929 0.302427 0 0 0
0.1118797 0.01394269 0.295054 0 0 0
0.1169959 0.01385725 0.2947573 0 0 0
-0.01300226 0.01758215 0.3606046 0 0 0
-0.008576564 0.01978659 0.343197 0 0 0
0.02705184 0.01643785 0.3227218 0 0 0
0.02949037 0.01569234 0.3245753 0 0 0
0.03197461 0.01495362 0.3264004 0 0 0
0.03690732 0.01405692 0.3270199 0 0 0
0.04132388 0.01453548 0.3206795 0 0 0
0.04918645 0.01486804 0.3127657 0 0 0
0.06730181 0.01277794 0.3123532 0 0 0
0.07548007 0.007945548 0.3335621 205 205 205
0.1035866 -0.0004214763 0.3642566 205 205 205
0.1094015 0.01277529 0.2970995 0 0 0
0.1104089 0.01306177 0.2955616 0 0 0
0.1111178 0.01310613 0.2952326 0 0 0
0.02614187 0.01593882 0.3216222 0 0 0
0.03105719 0.01424834 0.3262981 0 0 0
0.03824511 0.01357005 0.3237825 0 0 0
0.03891406 0.01384435 0.3217486 0 0 0
0.04635298 0.01383241 0.3159681 0 0 0
0.08097061 0.004235592 0.3451067 205 205 205
0.08376175 0.002537312 0.3524696 205 205 205
0.09547599 -0.001877877 0.3695513 205 205 205
0.09773161 -0.002146616 0.369916 205 205 205
0.1028114 -0.001653641 0.3652995 205 205 205
0.1037896 -0.001668472 0.364988 205 205 205
0.1101926 0.000383678 0.3524863 205 205 205
0.1106073 0.004020452 0.3345874 205 205 205
0.1065999 0.01093467 0.3024282 205 205 205
0.1068719 0.01162314 0.2991135 0 0 0
0.1117705 0.01236226 0.2947454 0 0 0
0.1120465 0.01261508 0.2935328 0 0 0
0.1305481 0.01237864 0.2927244 0 0 0
0.1312497 0.01246324 0.2923238 0 0 0
0.02445091 0.01632269 0.3166134 0 0 0
0.03343323 0.01285996 0.3269634 0 0 0
0.03745875 0.01246936 0.3256581 0 0 0
0.04332888 0.01300874 0.3181558 0 0 0
0.04615434 0.01323535 0.3148419 0 0 0
0.06922046 0.01125012 0.3105502 205 205 205
0.08819909 -0.000839283 0.3622042 205 205 205
0.09835485 -0.003014633 0.3684767 205 205 205
0.1039907 -0.002922187 0.3657139 205 205 205
0.1049721 -0.002934994 0.3653977 205 205 205
0.1104877 -0.001474444 0.3563018 205 205 205
0.1131303 -0.0001516517 0.3490958 205 205 205
0.1072911 0.00699188 0.3167688 205 205 205
0.1058503 0.008738026 0.3089139 205 205 205
0.105849 0.009188763 0.3067994 205 205 205
0.1092864 0.01118757 0.2967838 205 205 205
0.1122598 0.01208809 0.2921636 0 0 0
0.1166409 0.01194039 0.2921969 0 0 0
0.1180373 0.01205929 0.291492 0 0 0
0.1267 0.01165165 0.2924413 0 0 0
0.1315042 0.01116217 0.2942413 0 0 0
0.04174214 0.01220046 0.3191551 0 0 0
0.0447071 0.012218 0.3168349 0 0 0
0.04672617 0.01255879 0.3136111 0 0 0
0.09531316 -0.004803969 0.3731848 205 205 205
0.09658512 -0.005053516 0.3738386 205 205 205
0.09852865 -0.00427859 0.3692037 205 205 205
0.09995747 -0.003894477 0.3667343 205 205 205
0.1058579 -0.003989527 0.3648676 205 205 205
0.1091072 -0.004226094 0.3648124 205 205 205
0.1100873 -0.004228628 0.3644777 205 205 205
0.1110148 -0.002268434 0.3548397 205 205 205
0.1057841 0.007905453 0.3087441 205 205 205
0.1053834 0.009039173 0.3036239 205 205 205
0.1060836 0.009531158 0.3012064 205 205 205
0.109527 0.01065072 0.2954121 205 205 205
0.1112306 0.01099834 0.2935461 205 205 205
0.111935 0.01104606 0.2932138 205 205 205
0.1186808 0.01133468 0.290974 0 0 0
0.1249763 0.01118769 0.2909612 0 0 0
0.1278429 0.01071811 0.2927337 205 205 205
0.1354138 0.009489882 0.2974414 205 205 205
0.02424253 0.01474916 0.3163103 0 0 0
0.02822725 0.01293354 0.3220348 0 0 0
0.03073938 0.01176596 0.325822 205 205 205
0.03725254 0.01081197 0.3253347 205 205 205
0.04596685 0.01165107 0.31453 205 205 205
0.0472913 0.0118929 0.3123768 0 0 0
0.06990832 0.01023105 0.3070081 205 205 205
0.09870069 -0.005549175 0.3699252 205 205 205
0.1037986 -0.005008747 0.3652893 205 205 205
0.1099936 -0.005274899 0.364262 205 205 205
0.1139982 -0.002796532 0.3514258 205 205 205
0.1078918 0.004825644 0.3182186 205 205 205
0.107088 0.009013472 0.2995152 205 205 205
0.1158311 0.01030991 0.2922189 205 205 205
0.1165321 0.01036738 0.2918701 205 205 205
0.1207107 0.01074503 0.289726 205 205 205
0.1237454 0.01053023 0.2903219 205 205 205
0.1261097 0.01025618 0.2912594 205 205 205
0.1272999 0.01012262 0.291719 205 205 205
0.1284954 0.009991465 0.2921723 205 205 205
0.1316082 0.009821976 0.2926579 205 205 205
0.0355081 0.006856357 0.341995 205 205 205
0.04451498 0.01062057 0.3165143 205 205 205
0.08196307 0.002327745 0.3349167 205 205 205
0.1030076 -0.006259838 0.3663144 205 205 205
0.1049819 -0.006287378 0.3656825 205 205 205
0.1154201 -0.003541252 0.349601 205 205 205
0.1123841 0.0001045732 0.3340515 205 205 205
0.1062955 0.008179683 0.2996617 205 205 205
0.1108311 0.009164849 0.2944241 205 205 205
0.1218242 0.009812661 0.2900454 205 205 205
0.1236928 0.009739098 0.2901523 205 205 205
0.1313519 0.008709528 0.2937241 205 205 205
-0.007276076 0.02018585 0.3127274 0 0 0
0.02481239 0.01244425 0.3189073 0 0 0
0.02560547 0.01211064 0.3198571 205 205 205
0.02804711 0.01090789 0.3236663 205 205 205
0.04223696 0.009684413 0.3185775 205 205 205
0.07322497 0.008068613 0.3078012 205 205 205
0.1013334 -0.008386847 0.3716777 205 205 205
0.1041901 -0.007547113 0.3667054 205 205 205
0.1058695 -0.007342272 0.3651381 205 205 205
0.1111031 -0.007592639 0.3643999 205 205 205
0.1117632 -0.007362557 0.3631384 205 205 205
0.1169701 -0.004974206 0.3508435 205 205 205
0.1098734 0.001242423 0.3253868 205 205 205
0.1051554 0.007089644 0.3010075 205 205 205
0.1086332 0.008248046 0.2952337 205 205 205
0.1173619 0.009140552 0.2899652 205 205 205
0.1187496 0.009266569 0.289254 205 205 205
0.120603 0.009177757 0.2893871 205 205 205
0.131505 0.008197773 0.2923055 205 205 205
0.03063465 0.007617785 0.3331367 205 205 205
0.03402221 0.002591304 0.3544563 205 205 205
0.04500457 0.009152657 0.3151111 205 205 205
0.0463496 0.009411934 0.3129653 205 205 205
0.04701046 0.009545168 0.3118899 205 205 205
0.1047538 0.005536099 0.3041357 205 205 205
0.1054344 0.006550486 0.2996269 205 205 205
0.1068229 0.007115358 0.2969047 205 205 205
0.1084544 0.007963607 0.2929754 205 205 205
0.1149561 0.007899942 0.2920529 205 205 205
0.1166091 0.008300439 0.2901443 205 205 205
0.1283366 0.007577387 0.2916443 205 205 205
0.134395 0.006903788 0.2938051 205 205 205
0.02459787 0.01043671 0.3205304 205 205 205
0.02622968 0.009120886 0.3253554 205 205 205
0.03554036 -0.007583117 0.3962208 205 205 205
0.03807511 -0.0048157 0.3813419 205 205 205
0.03994959 0.007505283 0.3223875 205 205 205
0.1027948 -0.01192451 0.3767989 205 205 205
0.1131724 -0.00848466 0.3579808 205 205 205
0.1144132 -0.007990649 0.3554562 205 205 205
0.1163155 -0.007960336 0.354744 205 205 205
0.1145009 -0.004837941 0.3419071 205 205 205
0.1110564 -0.001989787 0.3307306 205 205 205
0.1109337 0.007090042 0.2926972 205 205 205
0.1144538 0.007348192 0.2910099 205 205 205
0.1326113 0.006440975 0.292368 205 205 205
0.02530625 0.008222285 0.3261893 205 205 205
0.02698974 0.007093869 0.3300245 205 205 205
0.02980915 0.003664693 0.3435579 205 205 205
0.03904837 -0.002391288 0.3643854 205 205 205
0.09655632 -0.009368985 0.3631905 205 205 205
0.1026863 -0.01300791 0.3765548 205 205 205
0.1064694 -0.01118745 0.3672144 205 205 205
0.1094589 -0.01120659 0.3662182 205 205 205
0.1130774 -0.009509367 0.3577483 205 205 205
0.1152722 -0.008993177 0.3548708 205 205 205
0.1162233 -0.008976937 0.354513 205 205 205
0.1159951 -0.007501584 0.3483641 205 205 205
0.103488 0.004123178 0.3031827 205 205 205
0.1038326 0.004895578 0.2998866 205 205 205
0.1037939 0.00540279 0.2977959 205 205 205
0.1076213 0.006369292 0.2929442 205 205 205
0.1090361 0.006455189 0.2922994 205 205 205
0.1111497 0.006595687 0.2913139 205 205 205
0.1125528 0.006697233 0.2906447 205 205 205
0.1153445 0.006919026 0.2892773 205 205 205
0.1192725 0.006998606 0.2883669 205 205 205
0.1216017 0.006670767 0.2893405 205 205 205
0.1234725 0.006583554 0.289444 205 205 205
0.1346777 0.005905383 0.2909448 205 205 205
0.02277662 0.008892776 0.3212112 205 205 205
0.02604739 0.006174193 0.3308538 205 205 205
0.0278834 0.003492306 0.3415065 205 205 205
0.04503969 -0.0279159 0.4701921 205 205 205
0.04262725 0.006375713 0.3177895 205 205 205
0.04392985 0.006872528 0.3146901 205 205 205
0.08587196 -0.001618077 0.3296696 205 205 205
0.106255 -0.01295886 0.3700687 205 205 205
0.1069655 -0.01272586 0.3688175 205 205 205
0.1153279 -0.008757063 0.349395 205 205 205
0.1033807 0.004342834 0.2988104 205 205 205
0.1127526 0.006215815 0.2892596 205 205 205
0.113448 0.00627041 0.2889205 205 205 205
0.132293 0.004495278 0.2932287 205 205 205
0.02036466 0.009598108 0.3162105 205 205 205
0.02593821 0.005110911 0.3316403 205 205 205
0.02792918 -6.440839E-05 0.3530054 205 205 205
0.04110615 -0.002673859 0.3549314 205 205 205
0.04662737 0.006427104 0.3111984 205 205 205
0.0852796 -0.001291062 0.3245595 205 205 205
0.08993976 -0.0047707 0.3373255 205 205 205
0.09900502 -0.01123712 0.3609001 205 205 205
0.1115614 -0.01355672 0.3659636 205 205 205
0.1125521 -0.01130769 0.3563615 205 205 205
0.1137909 -0.0107901 0.3538444 205 205 205
0.1146494 -0.01001746 0.3504199 205 205 205
0.1057559 -0.001288874 0.3175016 205 205 205
0.1040104 0.0004618999 0.3108973 205 205 205
0.1033111 0.003552474 0.2986236 205 205 205
0.105042 0.004420754 0.2947249 205 205 205
0.1084906 0.005151306 0.2910601 205 205 205
0.1091936 0.005196673 0.2907356 205 205 205
0.1173067 0.005557695 0.2878616 205 205 205
0.1283688 0.007101388 0.2806786 205 205 205
0.04430957 -0.01533687 0.403207 205 205 205
0.04153759 0.002853647 0.3263236 205 205 205
0.04187495 0.00416647 0.3204203 205 205 205
0.04509152 0.005587453 0.3121941 205 205 205
0.04586504 0.005498112 0.3120898 205 205 205
0.1098787 -0.01660769 0.3744228 205 205 205
0.1117753 -0.01486032 0.366627 205 205 205
0.1121495 -0.01283609 0.3582856 205 205 205
0.1133559 -0.01154828 0.3526963 205 205 205
0.1124784 -0.009508417 0.3447574 205 205 205
0.1064072 0.003717851 0.2939094 205 205 205
0.1190949 0.00467348 0.2878128 205 205 205
0.1297499 0.003174036 0.2919782 205 205 205
0.1288313 0.006099698 0.2813154 205 205 205
0.01938649 0.008400094 0.3148915 205 205 205
0.04514976 -0.01614335 0.4008876 205 205 205
0.04273648 -0.00480861 0.3542959 205 205 205
0.04204889 0.0001036165 0.3338698 205 205 205
0.0456623 0.004961009 0.3109412 205 205 205
0.08399384 -0.0005107287 0.3143805 205 205 205
0.1126867 -0.01359622 0.3567796 205 205 205
0.1043315 -0.003309366 0.3186147 205 205 205
0.1013095 0.0005724651 0.3042207 205 205 205
0.1009631 0.001358925 0.3012349 205 205 205
0.1024355 0.001945441 0.298546 205 205 205
0.1311111 0.002542714 0.2909767 205 205 205
0.1320172 0.002966632 0.2893389 205 205 205
0.04355166 -0.005872117 0.3539672 205 205 205
0.1082977 -0.009140836 0.3364935 205 205 205
0.1037836 -0.004450944 0.3196132 205 205 205
0.1016277 0.001130158 0.2986528 205 205 205
0.1034448 0.001475402 0.2968515 205 205 205
0.1068813 0.002760371 0.2911367 205 205 205
0.1182766 0.003061161 0.2877882 205 205 205
0.120358 0.003266715 0.2867031 205 205 205
0.1229096 0.003236359 0.2864361 205 205 205
0.125756 0.002643325 0.2881905 205 205 205
0.01774191 0.008055589 0.3106524 205 205 205
0.04337297 -0.001340503 0.3313251 205 205 205
0.04489166 0.003000455 0.312596 205 205 205
0.04623453 0.003323569 0.3104587 205 205 205
0.1124603 -0.01801824 0.3654979 205 205 205
0.1128267 -0.01669245 0.3602507 205 205 205
0.09928463 -0.000820581 0.3035164 205 205 205
0.09896115 -1.374227E-05 0.3005344 205 205 205
0.1152169 0.002611905 0.2869461 205 205 205
0.1209873 0.002567753 0.2861402 205 205 205
0.1245096 0.002032165 0.2875369 205 205 205
0.1261831 0.001605141 0.2888253 205 205 205
0.01759693 0.007063202 0.3114393 205 205 205
0.04624114 0.002295222 0.3112275 205 205 205
0.04679536 0.002718874 0.3091961 205 205 205
0.08533958 -0.0009126433 0.305178 205 205 205
0.1133544 -0.01906432 0.3648773 205 205 205
0.09969191 -0.003804151 0.3113828 205 205 205
0.09813989 -0.00082367 0.3006232 205 205 205
0.1029149 0.0001762898 0.2955686 205 205 205
0.1046154 0.001109017 0.2916902 205 205 205
0.1232674 0.001431509 0.2868763 205 205 205
0.1299449 0.0032276 0.2797479 205 205 205
0.1426888 -0.002478429 0.2980432 205 205 205
0.01436635 0.006652963 0.3122292 205 205 205
0.01745036 0.006064232 0.3122213 205 205 205
0.01880198 0.004106622 0.3189955 205 205 205
0.01936476 0.001565476 0.3286865 205 205 205
0.04485339 -0.001041172 0.3219248 205 205 205
0.0456714 0.0008327821 0.3140209 205 205 205
0.04734943 0.00212489 0.3079304 205 205 205
0.08647445 -0.001446312 0.3035623 205 205 205
0.08814225 -0.002262314 0.3060513 205 205 205
0.1106595 -0.01713142 0.3542853 205 205 205
0.101401 -0.007365759 0.3207741 205 205 205
0.09916069 -0.004920046 0.3123631 205 205 205
0.09766756 -0.001901301 0.301603 205 205 205
0.1232038 0.0006556656 0.2866722 205 205 205
0.1319725 0.00143999 0.2828023 205 205 205
0.04681405 0.0006563218 0.3107212 205 205 205
0.09145471 -0.004709278 0.3107834 205 205 205
0.09837008 -0.00210734 0.2990257 205 205 205
0.1016592 -0.001134582 0.2945811 205 205 205
0.1168626 0.0001827679 0.2864943 205 205 205
0.1175571 0.0002485794 0.2861392 205 205 205
0.1219649 7.003317E-05 0.2860026 205 205 205
0.1278903 -0.0008522326 0.2882547 205 205 205
0.1290915 -0.001029373 0.2886868 205 205 205
0.1310049 -0.001113692 0.2887096 205 205 205
0.1457057 -0.005732228 0.3024576 205 205 205
0.09089576 -0.004414698 0.3066637 205 205 205
0.09956598 -0.009122998 0.3209174 205 205 205
0.09675635 -0.003501499 0.301469 205 205 205
0.1015417 -0.001321594 0.2923076 205 205 205
0.118876 -0.0003784275 0.2852148 205 205 205
0.119567 -0.000307645 0.2848525 205 205 205
0.1237694 -0.0008147421 0.2858781 205 205 205
0.1325394 -0.001361802 0.2864547 205 205 205
0.009549079 0.005782104 0.309642 205 205 205
0.01164725 0.004582483 0.312591 205 205 205
0.08693407 -0.002397991 0.2976329 205 205 205
0.09331464 -0.006056562 0.3086191 205 205 205
0.09859892 -0.002784475 0.2953514 205 205 205
0.1011281 -0.002395496 0.2932814 205 205 205
0.1014664 -0.002084122 0.2920993 205 205 205
0.1174225 -0.001277984 0.2857226 205 205 205
0.1327962 -0.00278479 0.2882784 205 205 205
0.1335029 -0.00268849 0.2878663 205 205 205
0.009283004 0.004540978 0.3113775 205 205 205
0.09995379 -0.002905946 0.2924862 205 205 205
0.1180481 -0.001971765 0.2851525 205 205 205
0.1217652 -0.002237827 0.2853674 205 205 205
0.1253048 -0.002830319 0.2867277 205 205 205
0.1264954 -0.003022981 0.287169 205 205 205
0.1318147 -0.004042657 0.2896918 205 205 205
0.1310408 -0.001754022 0.282359 205 205 205
0.008316019 0.00369687 0.3121198 205 205 205
0.04837601 -0.00185166 0.3066854 205 205 205
0.09534001 -0.006187811 0.3022774 205 205 205
0.0965089 -0.00586899 0.3008144 205 205 205
0.1179789 -0.002732299 0.284937 205 205 205
0.1198336 -0.002872618 0.2850518 205 205 205
0.13246 -0.004747907 0.2890558 205 205 205
0.1323433 -0.003726425 0.2857926 205 205 205
0.009420849 -0.001610658 0.3274019 205 205 205
0.04862849 -0.003460351 0.3093293 205 205 205
0.119068 -0.003707462 0.2851965 205 205 205
0.1202329 -0.003920768 0.2856683 205 205 205
0.1268472 -0.004867639 0.2875475 205 205 205
0.1292514 -0.005258814 0.2884036 205 205 205
0.1311737 -0.005358598 0.2884177 205 205 205
0.1314266 -0.003576239 0.2827269 205 205 205
0.009189025 0.0003119003 0.3175231 205 205 205
0.09573058 -0.005626244 0.294459 205 205 205
0.096104 -0.005309639 0.2932883 205 205 205
0.1310094 -0.003685932 0.2804809 205 205 205
0.007471287 -0.0001347261 0.3172657 205 205 205
0.05627472 -0.02974882 0.3908989 205 205 205
0.1173042 -0.004714279 0.2834365 205 205 205
0.11846 -0.004937331 0.2839138 205 205 205
0.1212601 -0.005668907 0.2856825 205 205 205
0.124322 -0.006017425 0.2862109 205 205 205
0.1271936 -0.006723019 0.2879099 205 205 205
0.1279044 -0.006636382 0.2875163 205 205 205
0.132138 -0.006081406 0.285104 205 205 205
0.1293854 -0.003591259 0.277838 205 205 205
0.1183874 -0.005693526 0.283687 205 205 205
0.1242493 -0.006791234 0.2859786 205 205 205
0.1328912 -0.00783599 0.2877069 205 205 205
0.1325795 -0.007155369 0.2856768 205 205 205
0.132253 -0.006474921 0.2836521 205 205 205
0.1313885 -0.008821164 0.2882855 205 205 205
0.1326091 -0.009021766 0.2886874 205 205 205
0.133531 -0.008530508 0.2870514 205 205 205
0.1328784 -0.007152544 0.2830042 205 205 205
0.003058662 0.0004336659 0.3097032 205 205 205
0.004801727 -0.001685371 0.3155552 205 205 205
0.1248056 -0.008252764 0.2851221 205 205 205
0.1320299 -0.009518227 0.2876318 205 205 205
0.1329461 -0.009023637 0.2860008 205 205 205
0.05252082 -0.008224855 0.3062602 205 205 205
0.1204921 -0.008422982 0.2839175 205 205 205
0.1319546 -0.01030933 0.2873841 205 205 205
0.001934013 -0.001158991 0.3101739 205 205 205
0.05378845 -0.01210166 0.3154275 205 205 205
0.0533292 -0.009369493 0.3068264 205 205 205
0.1166942 -0.008848717 0.2834688 205 205 205
0.1183108 -0.009403225 0.2847743 205 205 205
0.1227658 -0.00964663 0.2845787 205 205 205
0.06748991 -0.04747192 0.4186908 205 205 205
0.05901074 -0.02519802 0.3518013 205 205 205
0.1332306 -0.01169048 0.286055 205 205 205
0.00079732 -0.002757465 0.310626 205 205 205
0.1202601 -0.01069626 0.2831878 205 205 205
0.1244989 -0.01132704 0.2841411 205 205 205
0.1322258 -0.01298997 0.2874283 205 205 205
0.1330276 -0.01133523 0.2825725 205 205 205
-0.0005094556 -0.002305634 0.307445 205 205 205
0.06574385 -0.03641196 0.3768418 205 205 205
0.1176146 -0.01135174 0.283208 205 205 205
0.118315 -0.01127932 0.2828465 205 205 205
0.1197121 -0.01112957 0.2821164 205 205 205
0.1249023 -0.01241335 0.2847038 205 205 205
0.1297103 -0.01333483 0.2863711 205 205 205
0.1326489 -0.01409808 0.2879713 205 205 205
0.1201007 -0.01220612 0.2826872 205 205 205
0.1236334 -0.01294143 0.2840163 205 205 205
-0.002155206 -0.003130445 0.305925 205 205 205
-0.0008424392 -0.005978113 0.3136659 205 205 205
0.0006562898 -0.008854031 0.3213919 205 205 205
0.1200195 -0.01295933 0.2824326 205 205 205
0.1361884 -0.01634897 0.2885732 205 205 205
-0.0009712495 -0.00673954 0.3134167 205 205 205
0.0006339391 -0.009351037 0.3201832 205 205 205
0.06782872 -0.03425959 0.3589963 205 205 205
0.1150622 -0.01307313 0.2815084 205 205 205
0.1162131 -0.01333883 0.2819811 205 205 205
0.1319009 -0.01614309 0.2863677 205 205 205
-0.003165647 -0.004407872 0.3053915 205 205 205
0.1172861 -0.01435001 0.2821889 205 205 205
0.1179878 -0.01427677 0.2818275 205 205 205
0.1250557 -0.01581457 0.2844706 205 205 205
0.1330427 -0.01716063 0.2864793 205 205 205
0.1352574 -0.01520403 0.2807999 205 205 205
-0.003429529 -0.00543219 0.306092 205 205 205
-0.003203367 -0.006803547 0.3099265 205 205 205
-0.002277233 -0.008668495 0.3147551 205 205 205
0.1153443 -0.0148961 0.2818177 205 205 205
0.1195311 -0.0156301 0.2828379 205 205 205
0.1327108 -0.01386973 0.2754148 205 205 205
-0.003694993 -0.006462622 0.3067873 205 205 205
0.1171164 -0.01584211 0.2816625 205 205 205
0.1213272 -0.0165692 0.2826422 205 205 205
0.1304263 -0.01825327 0.2851537 205 205 205
-0.004101821 -0.007801922 0.3084199 205 205 205
0.1170301 -0.01658637 0.2813951 205 205 205
0.1177328 -0.0165125 0.2810338 205 205 205
0.1279153 -0.01853303 0.2840819 205 205 205
0.1286315 -0.01843888 0.2836822 205 205 205
0.1310597 -0.0189328 0.2844654 205 205 205
0.1332885 -0.0198622 0.2864335 205 205 205
