ply
format ascii 1.0
comment Generated by Floating Hands
element vertex 1085
property double x
property double y
property double z
property uchar red
property uchar green
property uchar blue
end_header
-0.01114716 0.02784954 0.3407654 0 0 0
0.003900044 0.02623275 0.3333364 0 0 0
0.01220274 0.02390259 0.3377066 0 0 0
0.02158012 0.02028817 0.3486501 0 0 0
0.03189974 0.0167204 0.359182 0 0 0
0.03606171 0.01451444 0.3678095 0 0 0
0.07511649 0.01205894 0.3545741 205 205 205
0.08658852 0.01360147 0.3407437 0 0 0
0.09090732 0.01784648 0.3170562 0 0 0
0.09354687 0.01924797 0.3089863 0 0 0
0.09490179 0.01986729 0.3054139 0 0 0
0.09651849 0.02029518 0.3027595 0 0 0
0.09842956 0.02053157 0.3010122 0 0 0
0.1066177 0.02032693 0.2998834 0 0 0
0.1096313 0.02001137 0.3007373 0 0 0
0.1160914 0.01967193 0.3010882 0 0 0
0.1187647 0.01960936 0.3009264 0 0 0
-0.01320145 0.02722223 0.3413467 0 0 0
0.006166202 0.02452264 0.3353069 0 0 0
0.009545146 0.02368329 0.3364645 0 0 0
0.01454979 0.02202167 0.3405655 0 0 0
0.02146301 0.01936296 0.3484796 0 0 0
0.02238037 0.01921316 0.3484707 0 0 0
0.07168563 0.002167876 0.402866 205 205 205
0.07269906 0.01065342 0.3578643 205 205 205
0.07766823 0.01111124 0.3528078 205 205 205
0.09114471 0.01373236 0.3331561 0 0 0
0.09636106 0.01906435 0.3047146 0 0 0
0.0998589 0.01975843 0.3002905 0 0 0
0.1080718 0.01913294 0.3012126 0 0 0
0.1183805 0.01852654 0.301997 0 0 0
-0.01282121 0.02679492 0.3382645 0 0 0
-0.008005124 0.02625779 0.3358923 0 0 0
0.0009907798 0.02487126 0.3338096 0 0 0
0.003563087 0.02434161 0.3340013 0 0 0
0.007692342 0.02314242 0.3362204 0 0 0
0.00856016 0.02297504 0.3362626 0 0 0
0.01775141 0.01941876 0.3463433 0 0 0
0.02405549 0.01724899 0.3521981 0 0 0
0.02498187 0.01691473 0.3531611 0 0 0
0.02972978 0.01525113 0.3579213 0 0 0
0.03071827 0.01472993 0.3598438 0 0 0
0.03467 0.01360232 0.362587 0 0 0
0.03815035 0.01068227 0.3751399 205 205 205
0.0421433 0.006957564 0.3915556 205 205 205
0.04691817 0.005230329 0.3970399 205 205 205
0.09979452 0.01895749 0.3001309 0 0 0
-0.01504589 0.02601964 0.3397996 0 0 0
-0.007978054 0.02555078 0.3347545 0 0 0
-0.006970506 0.02551924 0.3338784 0 0 0
-0.00426274 0.02511137 0.3331793 0 0 0
0.004204353 0.02313026 0.334875 0 0 0
0.02580059 0.01582433 0.3529558 0 0 0
0.02865303 0.01442979 0.357772 0 0 0
0.0316015 0.01322816 0.361572 205 205 205
0.03960167 0.007131328 0.3866136 205 205 205
0.04316026 0.005517117 0.3922289 205 205 205
0.04678642 0.004104627 0.3968197 205 205 205
0.07155164 -0.003515524 0.419245 205 205 205
0.08385728 0.009036417 0.3499086 205 205 205
0.1034497 0.01825657 0.2985083 0 0 0
0.1056862 0.01787638 0.2997071 0 0 0
0.1112872 0.01788679 0.2983849 0 0 0
-0.004384683 0.02425223 0.3330142 0 0 0
1.219561E-05 0.02350206 0.332433 0 0 0
0.006499943 0.02138751 0.3368198 0 0 0
0.008163788 0.02086671 0.3378871 0 0 0
0.02288288 0.01552069 0.3518484 0 0 0
0.02474315 0.01502841 0.3527931 0 0 0
0.07547716 0.00829616 0.3526404 205 205 205
0.07622832 0.008455744 0.3514777 205 205 205
0.08752833 0.0102291 0.3376235 205 205 205
0.103756 0.01723861 0.2992451 0 0 0
0.1155129 0.01611092 0.3016463 0 0 0
0.1190476 0.01559748 0.3032451 0 0 0
-0.0001079832 0.02264577 0.3322642 0 0 0
0.02555205 0.01354181 0.3545401 0 0 0
0.04399147 0.003170992 0.3916896 205 205 205
0.06890076 -0.002292559 0.4023189 205 205 205
0.08343838 0.007317123 0.3485599 205 205 205
0.08414302 0.007498804 0.3473774 205 205 205
0.101546 0.005079883 0.3515546 205 205 205
0.0992822 0.008196406 0.3379561 205 205 205
0.09662203 0.01266214 0.3183084 0 0 0
0.09649438 0.01333487 0.3152637 0 0 0
0.1025779 0.01663694 0.2984708 0 0 0
0.1074341 0.0160995 0.2996458 0 0 0
0.1127169 0.01586514 0.2994901 0 0 0
0.1249911 0.0139264 0.3056075 0 0 0
-0.003639983 0.02252641 0.3317843 0 0 0
0.006962338 0.01909187 0.3384711 0 0 0
0.01330406 0.01524305 0.3514491 0 0 0
0.01423668 0.01507588 0.3514663 0 0 0
0.01896763 0.01466183 0.3495419 0 0 0
0.02447506 0.01253995 0.3553483 205 205 205
0.03809479 0.004244878 0.3850564 205 205 205
0.06840561 0.0003286114 0.3843369 205 205 205
0.07411476 0.005574671 0.3564639 205 205 205
0.08521206 0.006272353 0.347881 205 205 205
0.1029368 0.001378554 0.3631162 205 205 205
0.1014051 0.01604526 0.2976897 0 0 0
0.1126534 0.01505037 0.2993137 0 0 0
0.1236073 0.01374088 0.3028129 0 0 0
0.002547222 0.0192799 0.3370556 0 0 0
0.009802615 0.01597379 0.3462625 0 0 0
0.01295762 0.01351838 0.3551698 0 0 0
0.02913604 0.01023138 0.3579278 205 205 205
0.03549784 0.00558407 0.3752058 205 205 205
0.04378456 0.0007514982 0.3922021 205 205 205
0.07536445 0.005149967 0.3529778 205 205 205
0.08301768 0.005617286 0.3471996 205 205 205
0.102709 0.004222637 0.3455858 205 205 205
0.09714942 0.01163313 0.3146168 205 205 205
0.100208 0.01498257 0.2990003 0 0 0
0.1009546 0.01500136 0.2987108 0 0 0
0.1017002 0.01502167 0.2984187 0 0 0
0.1080517 0.01451565 0.2989785 0 0 0
0.1235445 0.0128982 0.3026265 0 0 0
-0.01085236 0.02219287 0.3316388 0 0 0
-0.005731662 0.02101563 0.3322321 0 0 0
-0.003032106 0.02063428 0.3315127 0 0 0
0.007853018 0.01540957 0.3460004 0 0 0
0.01012046 0.0134933 0.3529422 0 0 0
0.01658527 0.01169542 0.3559945 205 205 205
0.01852539 0.01157434 0.3550195 205 205 205
0.03102302 0.00791557 0.3625178 205 205 205
0.06740157 -0.003946512 0.3938646 205 205 205
0.07187474 2.719617E-05 0.3733037 205 205 205
0.07206252 0.001103238 0.3683137 205 205 205
0.07302979 0.002345629 0.3621723 205 205 205
0.08033126 0.004556986 0.3486203 205 205 205
0.1061312 -0.0002781491 0.359555 205 205 205
0.1019939 0.01399127 0.2991428 0 0 0
0.1057342 0.01361977 0.2997349 0 0 0
0.1079852 0.01370951 0.2987978 0 0 0
0.1214349 0.01401769 0.2947704 0 0 0
-0.01492442 0.02162012 0.3339018 0 0 0
-0.008419646 0.02074439 0.3317685 0 0 0
0.007489834 0.01389592 0.3487334 0 0 0
0.0101012 0.009725993 0.3654655 205 205 205
0.01191295 0.008746781 0.3684425 205 205 205
0.01302029 0.00897905 0.3665061 205 205 205
0.03431704 0.002785783 0.3787222 205 205 205
0.06713536 -0.004840682 0.3926514 205 205 205
0.07136887 -0.001879444 0.3771001 205 205 205
0.07244613 0.0007034264 0.365015 205 205 205
0.07950102 0.003405905 0.3495752 205 205 205
0.09196813 0.002683846 0.34735 205 205 205
0.09926582 0.01288019 0.3010264 0 0 0
0.1019246 0.01319275 0.298961 0 0 0
0.1121074 0.01233458 0.2999822 0 0 0
0.1151902 0.01198565 0.3007359 0 0 0
0.1178823 0.01188919 0.3005711 0 0 0
0.119491 0.01146775 0.3019648 0 0 0
0.1229764 0.01145029 0.3013771 0 0 0
0.003239261 0.01489385 0.3434263 0 0 0
0.004237617 0.01491452 0.3425037 0 0 0
0.007043324 0.01215541 0.3524332 205 205 205
0.01373334 0.00717862 0.3692303 205 205 205
0.02187175 0.006671075 0.365306 205 205 205
0.02784431 0.005294416 0.367092 205 205 205
0.02885447 0.004923137 0.368027 205 205 205
0.03871716 -0.0006353348 0.3859938 205 205 205
0.04343626 -0.00278409 0.3924464 205 205 205
0.04584273 -0.003742496 0.3951564 205 205 205
0.07141066 -0.00318091 0.3778165 205 205 205
0.07267784 -0.0007913923 0.3666952 205 205 205
0.07831801 0.001581699 0.3535889 205 205 205
0.08034264 0.002392893 0.3491317 205 205 205
0.09067764 0.001983867 0.3464558 205 205 205
0.1063234 -0.001858965 0.3569194 205 205 205
0.1015348 0.00348571 0.3360294 205 205 205
0.09869538 0.01132121 0.3041329 205 205 205
0.104843 0.0119822 0.2996715 0 0 0
0.1234547 0.009840847 0.304155 205 205 205
-0.01518288 0.01990011 0.3335274 0 0 0
-0.008514796 0.01923419 0.3304271 0 0 0
0.002208763 0.01417936 0.3431707 0 0 0
0.00520986 0.01200241 0.3501918 205 205 205
0.02162536 0.004363745 0.3709348 205 205 205
0.06985078 -0.01643413 0.4309918 205 205 205
0.0738683 -0.0009845055 0.3622374 205 205 205
0.07589785 4.123487E-05 0.3568543 205 205 205
0.08801217 0.0008636427 0.347939 205 205 205
0.09524671 0.0009071732 0.3448812 205 205 205
0.1041785 -0.0004134105 0.3471537 205 205 205
0.0988561 0.009755746 0.306952 205 205 205
0.09895995 0.01026162 0.3048493 205 205 205
0.1009883 0.01106501 0.3009775 205 205 205
0.1047724 0.01117822 0.2994817 205 205 205
0.1230305 0.01062396 0.2976514 205 205 205
-0.009490877 0.01858548 0.3301374 0 0 0
-0.007789169 0.0181917 0.3303325 0 0 0
-0.006937436 0.01799707 0.3304254 0 0 0
-0.002194669 0.01625128 0.3338297 0 0 0
0.003312823 0.0116579 0.3489119 205 205 205
0.008121718 0.001597291 0.3881854 205 205 205
0.02450191 0.001736771 0.3755043 205 205 205
0.02553445 0.00134818 0.3764475 205 205 205
0.03295709 -0.001120506 0.3819626 205 205 205
0.04184263 -0.003913674 0.3881516 205 205 205
0.06889235 -0.006527809 0.3836432 205 205 205
0.08885336 -0.0001348677 0.3474551 205 205 205
0.1019664 0.001112277 0.3374231 205 205 205
0.09865882 0.008420125 0.3088582 205 205 205
0.1008541 0.009742226 0.3028814 205 205 205
0.111541 0.009604276 0.3006181 205 205 205
0.1181013 0.009167932 0.3008572 205 205 205
0.1232158 0.008698919 0.3016467 205 205 205
-0.01507593 0.01857239 0.3312121 0 0 0
-0.01046728 0.01794006 0.3298417 0 0 0
-0.007062762 0.01715095 0.3302311 0 0 0
-0.006210183 0.0169575 0.3303206 0 0 0
-0.003186467 0.01557988 0.3335566 0 0 0
0.009304455 0.001204752 0.3840679 205 205 205
0.01066479 0.00211338 0.379222 205 205 205
0.01516685 0.002929224 0.3724539 205 205 205
0.01817634 0.001950233 0.3743976 205 205 205
0.03284179 -0.002411937 0.3826854 205 205 205
0.03719066 -0.003479638 0.3843533 205 205 205
0.07355087 -0.02661481 0.4601673 205 205 205
0.07500264 -0.003567105 0.3634536 205 205 205
0.07563332 -0.003129824 0.3613425 205 205 205
0.07762817 -0.002052383 0.355955 205 205 205
0.0896937 -0.00113043 0.3469641 205 205 205
0.1015688 0.0004252021 0.3362769 205 205 205
0.09903643 0.00785533 0.3074618 205 205 205
0.1030796 0.008991643 0.3017938 205 205 205
0.1192188 0.008141299 0.3011693 205 205 205
0.1220412 0.007497025 0.3030475 205 205 205
-0.01435028 0.01751389 0.3311331 0 0 0
-0.01229325 0.01750092 0.3294319 0 0 0
0.02002927 -0.0001091626 0.377051 205 205 205
0.04759403 -0.008714436 0.3948533 205 205 205
0.06893644 -0.01494946 0.4085901 205 205 205
0.06843749 -0.0120366 0.3969001 205 205 205
0.06956855 -0.008535753 0.3819716 205 205 205
0.07323857 -0.006405173 0.371436 205 205 205
0.07459638 -0.005531196 0.3672165 205 205 205
0.08602865 -0.003211727 0.3526758 205 205 205
0.09241263 -0.002173649 0.3459333 205 205 205
0.09848617 0.004147138 0.3186994 205 205 205
0.0986786 0.004669006 0.3165877 205 205 205
0.1033645 0.007924576 0.3024897 205 205 205
0.1167801 0.007721525 0.2999291 205 205 205
0.1231326 0.00847489 0.2958166 205 205 205
-0.01533472 0.01687528 0.3308138 0 0 0
0.007269402 -0.002979065 0.3932531 205 205 205
0.02400187 -0.003477306 0.3835116 205 205 205
0.02830406 -0.004619143 0.3853 205 205 205
0.03580507 -0.005225326 0.3829414 205 205 205
0.0463314 -0.009694733 0.3946941 205 205 205
0.0858635 -0.005196958 0.3564307 205 205 205
0.08881234 -0.004302788 0.3516719 205 205 205
0.09257168 -0.003398699 0.3466218 205 205 205
0.1052261 -0.006426977 0.3538473 205 205 205
0.1025873 -0.003282303 0.342527 205 205 205
0.09850349 0.002489939 0.3215066 205 205 205
0.1013234 0.006789593 0.3040792 205 205 205
0.1246568 0.005736647 0.3023666 205 205 205
0.1211014 0.00926129 0.2901088 205 205 205
-0.009145833 0.01501227 0.3294407 0 0 0
-0.003211893 0.01194506 0.3368858 205 205 205
0.001357218 0.002162695 0.3723285 205 205 205
0.0006316809 -0.00550989 0.4034652 205 205 205
0.01470263 -0.000341821 0.3726902 205 205 205
0.01765729 -0.001822162 0.3765686 205 205 205
0.02492512 -0.004946752 0.3841874 205 205 205
0.03354307 -0.00623287 0.3837851 205 205 205
0.04512961 -0.01092209 0.395493 205 205 205
0.07245815 -0.009198306 0.373971 205 205 205
0.07538022 -0.007653106 0.3664913 205 205 205
0.07722913 -0.007519708 0.3651121 205 205 205
0.09324879 -0.005161535 0.3491614 205 205 205
0.1056256 -0.01060388 0.365573 205 205 205
0.1075158 -0.01141267 0.3680088 205 205 205
0.104383 0.00661539 0.3005752 205 205 205
0.1066707 0.006700048 0.2996446 205 205 205
0.1254666 0.004373288 0.3038674 205 205 205
-0.01559476 0.01518226 0.330402 0 0 0
0.00966019 -0.003683755 0.3850013 205 205 205
0.01744733 -0.003332907 0.3782504 205 205 205
0.02155013 -0.005492609 0.3840079 205 205 205
0.02368244 -0.006327454 0.3858925 205 205 205
0.04380089 -0.01164375 0.3943519 205 205 205
0.04888204 -0.01423835 0.4016112 205 205 205
0.06971684 -0.01458304 0.3918376 205 205 205
0.09126824 -0.007134522 0.3534385 205 205 205
0.1005849 -0.002775712 0.3335026 205 205 205
0.1073558 0.005925917 0.299119 205 205 205
0.1084993 0.005690705 0.2996843 205 205 205
0.1153877 0.005480163 0.2987733 205 205 205
0.123055 0.006952248 0.2918849 205 205 205
-0.005694998 0.0114603 0.3333229 205 205 205
-0.005098683 0.01081777 0.335333 205 205 205
0.0006981279 -0.01011034 0.4116599 205 205 205
0.001960839 -0.01010362 0.4107358 205 205 205
0.004899891 -0.008654195 0.4030622 205 205 205
0.01625011 -0.004188355 0.3779924 205 205 205
0.01726896 -0.004613065 0.3789554 205 205 205
0.01930376 -0.005706257 0.3818387 205 205 205
0.02032735 -0.006375954 0.3837588 205 205 205
0.02245135 -0.007221738 0.3856491 205 205 205
0.02894787 -0.007730637 0.3834771 205 205 205
0.03222114 -0.00871133 0.3852423 205 205 205
0.0473048 -0.01420535 0.3975857 205 205 205
0.07132205 -0.01149147 0.3745798 205 205 205
0.09782421 0.0009599596 0.3168993 205 205 205
0.09975884 0.003477989 0.307021 205 205 205
0.1025651 0.003819386 0.3049378 205 205 205
0.1130263 0.004530958 0.2995814 205 205 205
0.1149608 0.004348436 0.2997728 205 205 205
0.1157256 0.004395203 0.2994271 205 205 205
0.1254049 0.004212806 0.2980038 205 205 205
-0.008280514 0.01142161 0.3318817 205 205 205
-0.007564108 0.01099788 0.3329339 205 205 205
0.0008368114 0.004026136 0.3530921 205 205 205
0.000990625 0.001943751 0.3608778 205 205 205
0.006026154 -0.009515408 0.4008658 205 205 205
0.02013403 -0.00793418 0.38542 205 205 205
0.03901458 -0.01328204 0.3941641 205 205 205
0.04013912 -0.01343062 0.3940729 205 205 205
0.04238798 -0.01372142 0.3938785 205 205 205
0.0446975 -0.01426602 0.3946311 205 205 205
0.07208523 -0.01234988 0.3731505 205 205 205
0.078727 -0.009112106 0.3579935 205 205 205
0.08488039 -0.009684987 0.3575152 205 205 205
0.09975705 -0.01121723 0.357401 205 205 205
0.1070016 -0.01542149 0.3702491 205 205 205
0.09883401 -0.002402947 0.325429 205 205 205
0.09761216 0.0009391144 0.3136619 205 205 205
0.1041078 0.003621248 0.3020214 205 205 205
0.1133512 0.003442053 0.3002359 205 205 205
0.1145234 0.003210968 0.3007677 205 205 205
-0.009978707 0.01120011 0.3305126 205 205 205
-0.003991448 0.008002828 0.3379302 205 205 205
0.01998567 -0.008998408 0.3851392 205 205 205
0.02323016 -0.009782759 0.3860275 205 205 205
0.02868036 -0.0106264 0.3858183 205 205 205
0.03197001 -0.01136856 0.3866113 205 205 205
0.04714981 -0.01698812 0.398914 205 205 205
0.07619438 -0.01076591 0.3612123 205 205 205
0.09843385 -0.003013593 0.3242772 205 205 205
0.1023103 0.001599385 0.3065839 205 205 205
0.1117346 0.002542483 0.3006851 205 205 205
0.1136746 0.002346642 0.3008852 205 205 205
-0.01165963 0.01099135 0.329132 205 205 205
0.001205084 -0.001402528 0.3652449 205 205 205
0.00137571 -0.01381928 0.4107923 205 205 205
0.01549588 -0.009327029 0.3849052 205 205 205
0.04553438 -0.01662736 0.393923 205 205 205
0.07321562 -0.02684796 0.4172353 205 205 205
0.08202948 -0.0107416 0.3546534 205 205 205
0.0900979 -0.01134193 0.3535711 205 205 205
0.09107622 -0.01137283 0.3533033 205 205 205
0.1032022 -0.01498416 0.36174 205 205 205
0.09796304 -0.002757798 0.3201123 205 205 205
0.0976129 -0.000175047 0.3111051 205 205 205
0.098099 0.0001186425 0.3099162 205 205 205
0.1006383 0.0007390673 0.3069522 205 205 205
0.1070344 0.002114292 0.3003285 205 205 205
0.1081825 0.001863085 0.3008908 205 205 205
0.1206727 0.00074754 0.3016494 205 205 205
0.1262069 0.0005540555 0.3011057 205 205 205
0.1201022 0.006394554 0.2826764 205 205 205
-0.01539334 0.01075546 0.3294302 205 205 205
-0.01367759 0.01033472 0.329654 205 205 205
-0.008105103 0.008201959 0.3332179 205 205 205
0.00126771 -0.007774536 0.3843554 205 205 205
0.0218596 -0.01147862 0.3845159 205 205 205
0.02950673 -0.01372693 0.3880762 205 205 205
0.04194835 -0.01704018 0.3929818 205 205 205
0.0708234 -0.01949408 0.3870962 205 205 205
0.07329328 -0.01478636 0.3690474 205 205 205
0.09291878 -0.01241791 0.3524816 205 205 205
0.09881752 -0.0007036281 0.3093941 205 205 205
0.1057789 0.0009580154 0.3016144 205 205 205
0.1142887 0.0007533914 0.300085 205 205 205
0.1262366 -0.000916796 0.3029549 205 205 205
0.1261297 -0.0002842238 0.3008688 205 205 205
-0.009110496 0.007548927 0.3328956 205 205 205
-0.007509344 0.006906255 0.3340302 205 205 205
-0.001950232 0.004310574 0.3393536 205 205 205
-0.001400196 0.003375264 0.342301 205 205 205
0.001446497 -0.004825737 0.3695738 205 205 205
0.0009533624 -0.01638637 0.4111249 205 205 205
0.04657016 -0.01981674 0.3960674 205 205 205
0.07222636 -0.01768409 0.3757754 205 205 205
0.0898717 -0.01331904 0.3530156 205 205 205
0.1041415 -0.01619464 0.3577858 205 205 205
0.09839512 -0.002724978 0.313336 205 205 205
0.1013647 -0.0002890424 0.3041057 205 205 205
0.1056963 0.0001468751 0.3013828 205 205 205
0.1142087 -6.368E-05 0.2998511 205 205 205
0.00116411 -0.01267219 0.3934378 205 205 205
0.003085062 -0.01826281 0.4118374 205 205 205
0.02157838 -0.0133288 0.3829617 205 205 205
0.02811906 -0.01653706 0.3904137 205 205 205
0.04047824 -0.01882038 0.3915036 205 205 205
0.07671751 -0.01484063 0.3598702 205 205 205
0.07853079 -0.01466335 0.3584852 205 205 205
0.08012243 -0.01418334 0.3561558 205 205 205
0.08484755 -0.01412196 0.3540202 205 205 205
0.08704406 -0.01449651 0.3544426 205 205 205
0.08802977 -0.01453338 0.354184 205 205 205
0.09196437 -0.01466122 0.3531151 205 205 205
0.09790455 -0.004769653 0.3172753 205 205 205
0.09842791 -0.004467429 0.3160837 205 205 205
0.1028501 -0.001061861 0.3032677 205 205 205
0.1079378 -0.0005690358 0.300196 205 205 205
0.1087105 -0.0005343941 0.2998732 205 205 205
0.109482 -0.0004981308 0.2995478 205 205 205
0.1172656 -0.001321357 0.3002966 205 205 205
0.1184574 -0.001562269 0.3008013 205 205 205
0.1252186 0.001289058 0.2900417 205 205 205
-0.01634898 0.007520368 0.3315946 205 205 205
-0.01008855 0.006293666 0.3313717 205 205 205
0.0002189193 -0.001040027 0.3496529 205 205 205
0.008119873 -0.01845343 0.4048691 205 205 205
0.02574009 -0.01700552 0.3892414 205 205 205
0.0268517 -0.01745353 0.3901548 205 205 205
0.03018539 -0.01767751 0.3890275 205 205 205
0.0323888 -0.01772119 0.387937 205 205 205
0.03349654 -0.01787921 0.387866 205 205 205
0.04032896 -0.01991692 0.3911888 205 205 205
0.04392967 -0.021486 0.3947043 205 205 205
0.0451295 -0.02191216 0.3955474 205 205 205
0.06996053 -0.02190814 0.383324 205 205 205
0.07960956 -0.01601245 0.3589001 205 205 205
0.08219592 -0.01556988 0.356327 205 205 205
0.08738673 -0.01608356 0.3560069 205 205 205
0.09012409 -0.01588969 0.3542913 205 205 205
0.09577145 -0.01574636 0.3517025 205 205 205
0.09674968 -0.01576547 0.351413 205 205 205
0.09871179 -0.004105719 0.3116558 205 205 205
0.09920348 -0.003794834 0.310467 205 205 205
0.1299099 -0.003095571 0.3002535 205 205 205
-0.01387213 0.006030835 0.331686 205 205 205
-0.01022078 0.005446909 0.33113 205 205 205
-0.003125943 0.002129961 0.3375872 205 205 205
0.007891434 -0.01985843 0.4055025 205 205 205
0.01034594 -0.01974207 0.4036013 205 205 205
0.02012424 -0.01608942 0.3852648 205 205 205
0.02669845 -0.01853788 0.3898401 205 205 205
0.03901346 -0.02057769 0.3900087 205 205 205
0.04017899 -0.02101204 0.3908696 205 205 205
0.0425866 -0.02216544 0.3935337 205 205 205
0.07231371 -0.02174978 0.3776789 205 205 205
0.07396419 -0.02100552 0.3744342 205 205 205
0.07638518 -0.01828074 0.3641846 205 205 205
0.09493691 -0.01701661 0.3526131 205 205 205
0.09802622 -0.006792072 0.3176688 205 205 205
0.1006578 -0.003052081 0.3045763 205 205 205
0.1026774 -0.002687378 0.302787 205 205 205
0.1031068 -0.002360489 0.3015975 205 205 205
0.1073692 -0.002520991 0.3009145 205 205 205
0.1143653 -0.002809535 0.299996 205 205 205
0.1155466 -0.003063449 0.3005129 205 205 205
0.1214762 -0.003643459 0.3009297 205 205 205
0.1254734 -0.003991258 0.3011202 205 205 205
4.858511E-05 -0.002610888 0.3481635 205 205 205
0.0009305964 -0.005664012 0.3578469 205 205 205
0.006550323 -0.02077822 0.4051532 205 205 205
0.01393791 -0.01982889 0.39751 205 205 205
0.01650902 -0.01799408 0.3898109 205 205 205
0.02319783 -0.01909742 0.3896534 205 205 205
0.04779745 -0.02735518 0.4041862 205 205 205
0.06983154 -0.03392852 0.4155675 205 205 205
0.06858494 -0.02861886 0.3983704 205 205 205
0.07032499 -0.02325599 0.3796556 205 205 205
0.07792742 -0.01881052 0.3615635 205 205 205
0.0921121 -0.01823865 0.3540762 205 205 205
0.1038002 -0.00314242 0.301047 205 205 205
0.1107775 -0.003492579 0.3002368 205 205 205
0.112331 -0.003410135 0.2995664 205 205 205
0.1142813 -0.003625978 0.2997487 205 205 205
0.1233876 -0.004654653 0.300781 205 205 205
-0.0176226 0.005198956 0.3307443 205 205 205
-0.006411809 0.002229202 0.3329691 205 205 205
-0.000695915 -0.002522836 0.3449693 205 205 205
0.0007862647 -0.006614052 0.3575655 205 205 205
0.01112869 -0.02249046 0.4038965 205 205 205
0.01488057 -0.02141725 0.39813 205 205 205
0.02525902 -0.02139205 0.3921196 205 205 205
0.03197174 -0.02153362 0.388897 205 205 205
0.05227571 -0.04294894 0.4493987 205 205 205
0.06858899 -0.02537501 0.383497 205 205 205
0.08670668 -0.01995677 0.3581419 205 205 205
0.09640496 -0.01872411 0.3505241 205 205 205
0.1041329 -0.02190466 0.3580903 205 205 205
0.0984327 -0.006620732 0.3108976 205 205 205
0.09988943 -0.005648492 0.3073405 205 205 205
0.1003583 -0.005321302 0.3061546 205 205 205
0.1036411 -0.004595343 0.3028706 205 205 205
0.1114694 -0.004264255 0.2996537 205 205 205
0.1220904 -0.005242234 0.3000516 205 205 205
0.1236494 -0.005116894 0.2993005 205 205 205
0.1285532 -0.006065512 0.3011221 205 205 205
0.1251856 -0.001512272 0.2878688 205 205 205
-0.00275423 -0.0009439751 0.3378356 205 205 205
0.003716162 -0.02316257 0.4063445 205 205 205
0.006279001 -0.02276592 0.4035168 205 205 205
0.0273558 -0.02253775 0.3907306 205 205 205
0.0693826 -0.03603689 0.4138906 205 205 205
0.06859223 -0.02676799 0.3841048 205 205 205
0.07020096 -0.02570548 0.3799426 205 205 205
0.07691523 -0.02288411 0.3679243 205 205 205
0.07758818 -0.02232388 0.3658329 205 205 205
0.08112874 -0.02161773 0.362106 205 205 205
0.09681924 -0.02033778 0.3520426 205 205 205
0.1030016 -0.02291617 0.3580932 205 205 205
0.1045766 -0.02136083 0.3526117 205 205 205
0.09815244 -0.008096743 0.3127168 205 205 205
0.1145115 -0.005567815 0.3001063 205 205 205
0.1284688 -0.006906515 0.3008597 205 205 205
-0.01004081 0.001601344 0.3311711 205 205 205
-0.009165134 0.001397066 0.3312588 205 205 205
0.00354438 -0.024301 0.4059966 205 205 205
0.01304759 -0.02574396 0.4051154 205 205 205
0.01675372 -0.02490185 0.4002927 205 205 205
0.07635006 -0.05737422 0.4749231 205 205 205
0.07145021 -0.02537233 0.3745118 205 205 205
0.0929854 -0.02280421 0.3577357 205 205 205
0.100636 -0.006624911 0.3044587 205 205 205
0.1026719 -0.006243449 0.3026697 205 205 205
0.1081758 -0.006038663 0.3004653 205 205 205
0.1097382 -0.005965166 0.299811 205 205 205
0.1132458 -0.00611455 0.2993319 205 205 205
0.123133 -0.007147642 0.3000038 205 205 205
0.1275955 -0.007818361 0.3009888 205 205 205
0.1291699 -0.007672581 0.3001969 205 205 205
-0.01753982 0.001929305 0.3319898 205 205 205
-0.007545597 0.0001472748 0.3311644 205 205 205
-0.004697718 -0.002016166 0.3362187 205 205 205
-0.002486801 -0.003712681 0.3402216 205 205 205
0.008220637 -0.02574395 0.4038041 205 205 205
0.0105186 -0.02646129 0.4047692 205 205 205
0.01523943 -0.02729026 0.4047385 205 205 205
0.02020698 -0.02482555 0.394137 205 205 205
0.02591735 -0.02453593 0.3901114 205 205 205
0.0270422 -0.02470854 0.3900582 205 205 205
0.0304426 -0.02581658 0.3917814 205 205 205
0.03500227 -0.02676785 0.3924313 205 205 205
0.04411376 -0.03427489 0.4116959 205 205 205
0.06912152 -0.0283946 0.3813493 205 205 205
0.08251002 -0.02465481 0.3640033 205 205 205
0.1028488 -0.02623318 0.3613869 205 205 205
0.1029769 -0.02078007 0.3444613 205 205 205
0.1033704 -0.00702938 0.3021045 205 205 205
0.1050053 -0.006302966 0.2994197 205 205 205
0.1100316 -0.007094988 0.3004192 205 205 205
0.1123781 -0.006971202 0.2994131 205 205 205
0.1190639 -0.007579713 0.299524 205 205 205
0.1210507 -0.007781927 0.29964 205 205 205
0.1258344 -0.00809439 0.2994338 205 205 205
-0.01767717 0.001081497 0.3317262 205 205 205
0.001857565 -0.02692487 0.407167 205 205 205
0.01499435 -0.0290202 0.4062885 205 205 205
0.01874697 -0.02752875 0.3995436 205 205 205
0.02000001 -0.02652135 0.3956984 205 205 205
0.02575928 -0.02561872 0.389769 205 205 205
0.09936657 -0.02689185 0.3610851 205 205 205
0.1067608 -0.02957098 0.3667249 205 205 205
0.105673 -0.02599074 0.3561564 205 205 205
0.09872354 -0.01423208 0.3226138 205 205 205
0.1126816 -0.00810621 0.3000112 205 205 205
0.1169978 -0.008187232 0.2991257 205 205 205
0.1201786 -0.008665374 0.2997414 205 205 205
0.02560063 -0.02669997 0.3894224 205 205 205
0.03594827 -0.03036311 0.3954447 205 205 205
0.07243208 -0.02925109 0.3751571 205 205 205
0.08121304 -0.02664172 0.3635898 205 205 205
0.08970869 -0.02733635 0.3624452 205 205 205
0.09536409 -0.02815679 0.3628574 205 205 205
0.09856625 -0.01411634 0.3193522 205 205 205
0.1141579 -0.008827746 0.299057 205 205 205
0.1220846 -0.00969311 0.2995743 205 205 205
0.1301504 -0.01043056 0.2998112 205 205 205
-0.01129015 -0.001284828 0.3290756 205 205 205
-0.003561688 -0.005576754 0.3374249 205 205 205
0.0005419236 -0.02025161 0.3796973 205 205 205
0.02770296 -0.02905907 0.3918107 205 205 205
0.03724862 -0.03447252 0.4035254 205 205 205
0.07729664 -0.02808767 0.3660502 205 205 205
0.08831865 -0.02798667 0.361464 205 205 205
0.09989926 -0.03125954 0.3670603 205 205 205
0.1060059 -0.02868688 0.357284 205 205 205
0.1043865 -0.02568297 0.3488898 205 205 205
0.09965209 -0.01091139 0.3066425 205 205 205
0.1013988 -0.01018919 0.3039807 205 205 205
0.1046704 -0.009398265 0.300689 205 205 205
0.1093783 -0.009194106 0.2987589 205 205 205
0.1156296 -0.009540559 0.298089 205 205 205
0.123211 -0.01078359 0.2997643 205 205 205
0.1301751 -0.01199912 0.3015938 205 205 205
-0.01809088 -0.001454489 0.3309151 205 205 205
-0.01633192 -0.001895186 0.3311376 205 205 205
-0.006754963 -0.00448897 0.333081 205 205 205
-0.0006755756 -0.01154722 0.3506981 205 205 205
0.007535231 -0.03025182 0.4023554 205 205 205
0.01549094 -0.03418804 0.4099132 205 205 205
0.03745304 -0.03912884 0.4135652 205 205 205
0.03958311 -0.04697927 0.4361817 205 205 205
0.0715385 -0.03227734 0.3774631 205 205 205
0.08137722 -0.02772246 0.3599106 205 205 205
0.1041428 -0.0105685 0.3016026 205 205 205
0.1049353 -0.01054007 0.3012889 205 205 205
0.1073476 -0.009737458 0.2982776 205 205 205
0.1085041 -0.01003676 0.2988167 205 205 205
0.1092862 -0.009998368 0.2984883 205 205 205
0.1131924 -0.01049777 0.2988589 205 205 205
0.1219039 -0.01134231 0.2990218 205 205 205
0.1231201 -0.01161104 0.2994853 205 205 205
0.1288377 -0.01258876 0.3008804 205 205 205
0.1324705 -0.01260506 0.3000853 205 205 205
-0.01172708 -0.003241661 0.3294723 205 205 205
-0.002046243 -0.01027868 0.344605 205 205 205
0.0001173569 -0.01908674 0.3694917 205 205 205
0.0003107082 -0.03003017 0.4018594 205 205 205
0.002738229 -0.03018224 0.4009679 205 205 205
0.02853079 -0.03204744 0.3929206 205 205 205
0.07688057 -0.0596912 0.4527056 205 205 205
0.0761563 -0.03040696 0.366517 205 205 205
0.07835702 -0.0289008 0.3612098 205 205 205
0.07938773 -0.02895766 0.3609735 205 205 205
0.08863106 -0.02937553 0.3586866 205 205 205
0.1052243 -0.03513073 0.3695791 205 205 205
0.1060187 -0.03480074 0.3683483 205 205 205
0.1066197 -0.03174828 0.3592807 205 205 205
0.1033531 -0.02560414 0.3425485 205 205 205
0.1012057 -0.01181451 0.3034312 205 205 205
0.1044819 -0.01100743 0.3001445 205 205 205
0.104908 -0.01063712 0.2989617 205 205 205
0.1138833 -0.01126012 0.2982378 205 205 205
0.1166353 -0.01144534 0.2980348 205 205 205
-0.01836809 -0.003138837 0.3303576 205 205 205
-0.01273923 -0.003868519 0.3291002 205 205 205
-0.009543423 -0.005284482 0.3313383 205 205 205
0.02008913 -0.03571193 0.4042792 205 205 205
0.02492345 -0.03293755 0.3936752 205 205 205
0.07925372 -0.02996342 0.3606294 205 205 205
0.08600993 -0.02961574 0.3570494 205 205 205
0.09031039 -0.03010694 0.3568856 205 205 205
0.09850359 -0.01513688 0.311101 205 205 205
0.1075329 -0.01167899 0.2985919 205 205 205
0.1157587 -0.01230976 0.298109 205 205 205
-0.002567756 -0.01267947 0.3458902 205 205 205
-0.0007869744 -0.0163471 0.3554926 205 205 205
0.004878256 -0.03223306 0.398359 205 205 205
0.02109057 -0.03736367 0.4047963 205 205 205
0.02706102 -0.03503971 0.3950751 205 205 205
0.07312929 -0.03527315 0.3750173 205 205 205
0.07587986 -0.03245362 0.3658128 205 205 205
0.07656848 -0.031827 0.3637418 205 205 205
0.09347791 -0.03154436 0.3565979 205 205 205
0.1073163 -0.03623903 0.3651546 205 205 205
0.09959279 -0.02123768 0.3252735 205 205 205
0.1196298 -0.01358582 0.2980723 205 205 205
0.1269627 -0.01525165 0.3008027 205 205 205
-0.003976436 -0.01163946 0.3407496 205 205 205
-0.0004714518 -0.0300111 0.3912326 205 205 205
0.004632363 -0.03365645 0.3989222 205 205 205
0.008079667 -0.03463076 0.3998956 205 205 205
0.009253752 -0.03484522 0.3998966 205 205 205
0.01729928 -0.03823335 0.4054583 205 205 205
0.0769982 -0.05577296 0.4283007 205 205 205
0.0849425 -0.03191705 0.3575246 205 205 205
0.1047868 -0.03692112 0.36456 205 205 205
0.1073792 -0.03623583 0.3617723 205 205 205
0.1015873 -0.01494724 0.304329 205 205 205
0.1143941 -0.01438025 0.2990888 205 205 205
0.1207429 -0.0146884 0.2982523 205 205 205
-0.0004102931 -0.02273494 0.3671899 205 205 205
-0.0004809719 -0.03481286 0.4012722 205 205 205
0.001877728 -0.03527473 0.4013281 205 205 205
0.00673159 -0.03552639 0.3995009 205 205 205
0.01142967 -0.03638123 0.3994955 205 205 205
0.0768341 -0.03491144 0.365781 205 205 205
0.08502345 -0.03326923 0.3580797 205 205 205
0.1073298 -0.03869392 0.3653011 205 205 205
0.09954365 -0.02014541 0.3166752 205 205 205
0.09998415 -0.01869724 0.3125544 205 205 205
0.1003616 -0.01724281 0.308443 205 205 205
0.1044513 -0.01456609 0.2998832 205 205 205
0.1056719 -0.01414792 0.2983866 205 205 205
0.1107406 -0.01502219 0.2993196 205 205 205
0.1127123 -0.01528761 0.299491 205 205 205
0.1210683 -0.01585759 0.2987951 205 205 205
0.1349909 -0.01767476 0.3002256 205 205 205
-0.01114191 -0.008750897 0.3310292 205 205 205
-0.009361715 -0.009168279 0.3311925 205 205 205
-0.00862115 -0.009683073 0.3322086 205 205 205
-0.00711551 -0.01071278 0.334233 205 205 205
-0.005712323 -0.01205461 0.3371873 205 205 205
-0.004927073 -0.0125703 0.3381905 205 205 205
-0.003001912 -0.01537848 0.3449485 205 205 205
0.001700655 -0.03639101 0.4009325 205 205 205
0.0100805 -0.03728263 0.3991085 205 205 205
0.01238457 -0.03803142 0.4000317 205 205 205
0.01817584 -0.04037469 0.4036794 205 205 205
0.07581222 -0.03622457 0.3665622 205 205 205
0.07824111 -0.03498498 0.3621961 205 205 205
0.08013219 -0.03474076 0.3608007 205 205 205
0.08591504 -0.03431112 0.3574583 205 205 205
0.105851 -0.03937802 0.3643692 205 205 205
0.104303 -0.0311089 0.3423092 205 205 205
0.1209712 -0.01667781 0.2984973 205 205 205
0.1324078 -0.01597939 0.2938217 205 205 205
-0.01749345 -0.008076509 0.3300584 205 205 205
-0.009655384 -0.01032256 0.3318291 205 205 205
-0.008012119 -0.01104882 0.3329181 205 205 205
-0.005989599 -0.01323674 0.3378167 205 205 205
-0.003267838 -0.01659435 0.3455676 205 205 205
-0.002664523 -0.01775737 0.3484394 205 205 205
0.002860092 -0.03707867 0.3986705 205 205 205
0.02273761 -0.04364131 0.4068591 205 205 205
0.07867077 -0.05590416 0.4160616 205 205 205
0.103707 -0.01731291 0.3025171 205 205 205
0.1054044 -0.01649886 0.2998433 205 205 205
0.1062002 -0.01646586 0.2995228 205 205 205
0.1093283 -0.01707979 0.3002534 205 205 205
0.115291 -0.01712163 0.2986993 205 205 205
0.1168767 -0.01701454 0.2979868 205 205 205
0.1261369 -0.01823197 0.2987726 205 205 205
-0.01391297 -0.009482432 0.3292229 205 205 205
-0.007540029 -0.01273875 0.334556 205 205 205
-0.002695305 -0.01834413 0.3471705 205 205 205
0.0189713 -0.04351471 0.4047025 205 205 205
0.08338072 -0.03763397 0.3611323 205 205 205
0.08881996 -0.03821454 0.3607076 205 205 205
0.1005222 -0.03886428 0.3583513 205 205 205
0.100146 -0.02381733 0.3183643 205 205 205
0.1015319 -0.02043924 0.3089706 205 205 205
0.1040593 -0.01772859 0.3010399 205 205 205
0.1236395 -0.01926981 0.2996275 205 205 205
-0.01316799 -0.01053201 0.3290094 205 205 205
-0.00858925 -0.0133871 0.3341713 205 205 205
-0.002089666 -0.03803255 0.3968167 205 205 205
0.08805666 -0.07784301 0.4634905 205 205 205
0.0912324 -0.04003874 0.3615699 205 205 205
0.1010391 -0.02278839 0.3127542 205 205 205
0.1131082 -0.01847619 0.2979511 205 205 205
0.1223134 -0.01979766 0.2988694 205 205 205
0.1296671 -0.02074838 0.2994184 205 205 205
0.1350624 -0.02141315 0.299784 205 205 205
0.1353998 -0.02096133 0.2985524 205 205 205
-0.01186474 -0.01243177 0.3307401 205 205 205
-0.006693021 -0.01649147 0.338733 205 205 205
0.01173155 -0.04213387 0.3974649 205 205 205
0.01743986 -0.04523404 0.4029618 205 205 205
0.01975437 -0.04702687 0.4066285 205 205 205
0.07980485 -0.05247816 0.3954029 205 205 205
0.09261262 -0.04183767 0.3626924 205 205 205
0.09343078 -0.04149413 0.3615039 205 205 205
0.09947001 -0.04125516 0.3587906 205 205 205
0.1078999 -0.04281127 0.3600332 205 205 205
0.1002284 -0.02592042 0.3185865 205 205 205
0.1007106 -0.02439732 0.3144823 205 205 205
0.1050091 -0.01968061 0.3009735 205 205 205
0.1085909 -0.01991486 0.3005262 205 205 205
0.1093949 -0.01987567 0.3001932 205 205 205
0.1141938 -0.01960361 0.2981377 205 205 205
0.1165765 -0.01944382 0.2970734 205 205 205
0.1238632 -0.02129084 0.2998284 205 205 205
0.1312703 -0.02223595 0.3003221 205 205 205
0.1354255 -0.02262275 0.3002691 205 205 205
-0.01217056 -0.01359592 0.3313565 205 205 205
-0.00762412 -0.01682491 0.3374065 205 205 205
0.002311311 -0.04080727 0.3951643 205 205 205
0.01378377 -0.04469847 0.3998179 205 205 205
0.01723084 -0.0467122 0.4034715 205 205 205
0.02067846 -0.05048545 0.4117612 205 205 205
0.08631842 -0.04301004 0.3648802 205 205 205
0.1003751 -0.04378442 0.3619539 205 205 205
0.1005974 -0.02524828 0.3141558 205 205 205
0.1148869 -0.02035955 0.297475 205 205 205
0.1156815 -0.0203061 0.2971202 205 205 205
0.1266077 -0.02227661 0.299162 205 205 205
-0.01661052 -0.01302159 0.3296473 205 205 205
-0.01571911 -0.01324287 0.3297455 205 205 205
-0.01410738 -0.01400593 0.3308618 205 205 205
-0.009165914 -0.01627574 0.3341425 205 205 205
-0.007121371 -0.01856686 0.339007 205 205 205
0.01705108 -0.04784091 0.4030396 205 205 205
0.08566824 -0.04698238 0.3722331 205 205 205
0.1047646 -0.04676155 0.3650005 205 205 205
0.1025932 -0.02449907 0.3091209 205 205 205
0.1204026 -0.02238826 0.2986738 205 205 205
0.1319628 -0.02466318 0.3012936 205 205 205
0.1305347 -0.01846434 0.2863479 205 205 205
-0.01961979 -0.01350533 0.3299393 205 205 205
-0.00819983 -0.01922852 0.3386059 205 205 205
-0.006605207 -0.02032402 0.3405959 205 205 205
-0.001542644 -0.04229818 0.3942563 205 205 205
0.003278475 -0.04251381 0.3924752 205 205 205
0.01461669 -0.04712916 0.3989359 205 205 205
0.01810451 -0.04881041 0.4016311 205 205 205
0.08996549 -0.06841873 0.4220093 205 205 205
0.08762405 -0.05636263 0.3922111 205 205 205
0.09428596 -0.04836921 0.3695409 205 205 205
0.1064884 -0.04743612 0.3630338 205 205 205
0.1085299 -0.04589777 0.3584907 205 205 205
0.1015489 -0.02731559 0.3140497 205 205 205
0.1094509 -0.02268125 0.300097 205 205 205
0.1223533 -0.02428405 0.3004524 205 205 205
0.1339448 -0.02571352 0.3009323 205 205 205
-0.01127618 -0.01755526 0.3333325 205 205 205
-0.007553457 -0.02065065 0.3392617 205 205 205
0.007743386 -0.04446987 0.3920719 205 205 205
0.0110228 -0.04653685 0.3957717 205 205 205
0.09789949 -0.05028561 0.3699838 205 205 205
0.1017623 -0.04959163 0.3669324 205 205 205
0.1028477 -0.04960674 0.3666043 205 205 205
0.1033978 -0.04884129 0.3645095 205 205 205
0.1081112 -0.04380087 0.3504068 205 205 205
0.1189886 -0.02453079 0.299596 205 205 205
0.1359338 -0.02675956 0.3005471 205 205 205
-0.01920745 -0.01573679 0.3303174 205 205 205
-0.01398013 -0.01741504 0.3318234 205 205 205
-0.01050902 -0.01861886 0.3330745 205 205 205
-0.002968712 -0.04388067 0.3924416 205 205 205
0.1010374 -0.05140939 0.3686028 205 205 205
0.1026991 -0.05065657 0.3661834 205 205 205
0.1035171 -0.05027653 0.3649715 205 205 205
0.1056166 -0.02689124 0.3068524 205 205 205
0.1201 -0.02567754 0.2997209 205 205 205
0.1287441 -0.02705159 0.3007036 205 205 205
0.1371096 -0.02789684 0.3005727 205 205 205
0.1379294 -0.0278011 0.3001378 205 205 205
0.1371836 -0.02569579 0.2952983 205 205 205
-0.02114623 -0.01611262 0.3297659 205 205 205
-0.004753259 -0.03821298 0.3761089 205 205 205
-0.001891526 -0.04483676 0.3911123 205 205 205
0.002984452 -0.04466883 0.3884071 205 205 205
0.008490664 -0.04720747 0.3921356 205 205 205
0.009600247 -0.04778484 0.3930549 205 205 205
0.1097812 -0.02672026 0.3028292 205 205 205
0.1179615 -0.02622745 0.2993011 205 205 205
0.1204003 -0.02689073 0.3002105 205 205 205
0.1236821 -0.02747673 0.3007104 205 205 205
0.1345311 -0.02902331 0.3015141 205 205 205
0.1394559 -0.02845279 0.2989136 205 205 205
0.1391545 -0.02671008 0.2948764 205 205 205
-0.01878978 -0.01797843 0.3306733 205 205 205
-0.01262107 -0.01988298 0.3322395 205 205 205
-0.01111226 -0.02101021 0.3342434 205 205 205
-0.002166614 -0.04627186 0.3916055 205 205 205
-0.0008203692 -0.04578085 0.3897768 205 205 205
0.001659037 -0.04551013 0.387962 205 205 205
0.01288843 -0.04986646 0.3934877 205 205 205
0.1001066 -0.06570725 0.3974552 205 205 205
0.1021372 -0.05235072 0.3644511 205 205 205
0.109007 -0.0499857 0.3564906 205 205 205
0.1043142 -0.03713644 0.3270955 205 205 205
0.1033554 -0.03472207 0.3216007 205 205 205
0.114981 -0.02766089 0.3012413 205 205 205
0.1166197 -0.02755417 0.3005216 205 205 205
0.133143 -0.0295695 0.3007858 205 205 205
0.1378203 -0.03037478 0.3014664 205 205 205
-0.02053962 -0.01801391 0.3292013 205 205 205
-0.01064603 -0.02278269 0.3358151 205 205 205
-0.007076347 -0.02669428 0.3435303 205 205 205
-0.00360949 -0.04747555 0.3920611 205 205 205
0.01486855 -0.05324021 0.3976136 205 205 205
0.1026634 -0.07170535 0.4076121 205 205 205
0.09912648 -0.05573831 0.3705932 205 205 205
0.1041378 -0.0518071 0.3595233 205 205 205
0.1088613 -0.05100397 0.356068 205 205 205
0.1083797 -0.04613579 0.344638 205 205 205
0.125124 -0.02986096 0.3012644 205 205 205
0.1364184 -0.03093012 0.300751 205 205 205
0.1428065 -0.02922525 0.2951916 205 205 205
-0.01248672 -0.02285058 0.3343894 205 205 205
0.01135424 -0.05183169 0.3926146 205 205 205
0.1058356 -0.05243233 0.357547 205 205 205
0.1091764 -0.05119976 0.3535601 205 205 205
0.1077144 -0.04506036 0.3395785 205 205 205
0.1046703 -0.03851663 0.3251567 205 205 205
0.1192317 -0.0302858 0.3015747 205 205 205
0.1371315 -0.03168368 0.2999598 205 205 205
0.1384231 -0.03198313 0.3003135 205 205 205
-0.01706089 -0.02223015 0.3326854 205 205 205
-0.007923888 -0.0299252 0.3464787 205 205 205
-2.365317E-05 -0.04846482 0.3866273 205 205 205
0.006674689 -0.05092522 0.389442 205 205 205
0.1019595 -0.07128109 0.4000756 205 205 205
0.0999234 -0.06557244 0.3873931 205 205 205
0.09849328 -0.06108945 0.3773773 205 205 205
0.1061792 -0.05262961 0.3550388 205 205 205
0.109305 -0.04972301 0.3472596 205 205 205
0.1074157 -0.03177276 0.3061679 205 205 205
0.127831 -0.03259256 0.3021923 205 205 205
0.1340821 -0.03241019 0.3000955 205 205 205
0.1396059 -0.03313349 0.3002973 205 205 205
0.1448449 -0.03430541 0.3016154 205 205 205
-0.01885011 -0.02226175 0.3312196 205 205 205
-0.007540515 -0.03531701 0.3563322 205 205 205
-0.00651812 -0.0462492 0.3813866 205 205 205
0.09899019 -0.06137458 0.3748334 205 205 205
0.100956 -0.05731625 0.3647753 205 205 205
0.1036879 -0.05487395 0.3582233 205 205 205
0.1055368 -0.05446746 0.3566795 205 205 205
0.1063128 -0.05405351 0.3554713 205 205 205
0.1059645 -0.04111607 0.3257709 205 205 205
0.1058808 -0.03859021 0.3199903 205 205 205
0.1062488 -0.03561823 0.3130514 205 205 205
0.1074876 -0.03387363 0.3086725 205 205 205
0.1357052 -0.03397144 0.3008918 205 205 205
0.1378293 -0.03418491 0.300813 205 205 205
0.1399608 -0.03438901 0.3007157 205 205 205
0.1488889 -0.03459012 0.2988949 205 205 205
0.1476994 -0.03287292 0.2953525 205 205 205
-0.01772266 -0.02463986 0.3337988 205 205 205
-0.01529052 -0.02604811 0.3358984 205 205 205
-0.0129669 -0.02781664 0.3388894 205 205 205
-0.01042041 -0.02921653 0.340938 205 205 205
0.107126 -0.03772179 0.3152179 205 205 205
0.1085713 -0.03509347 0.3088128 205 205 205
0.1138983 -0.03309128 0.3026969 205 205 205
0.1326396 -0.03468233 0.3010069 205 205 205
0.1499314 -0.03718557 0.3020689 205 205 205
0.1501036 -0.03573195 0.2988066 205 205 205
-0.02474416 -0.02454418 0.3345156 205 205 205
-0.01327959 -0.02905507 0.3394296 205 205 205
-0.01168257 -0.0302435 0.3414071 205 205 205
-0.01034335 -0.03217679 0.3452064 205 205 205
-0.0087508 -0.03658929 0.3545556 205 205 205
-0.00797915 -0.04080589 0.3638366 205 205 205
-0.007779616 -0.04367916 0.37031 205 205 205
0.003884487 -0.05330003 0.3871539 205 205 205
0.1004354 -0.06272998 0.371498 205 205 205
0.1086212 -0.03722787 0.3113011 205 205 205
0.1220079 -0.03602413 0.3046665 205 205 205
0.1228549 -0.03595878 0.3042799 205 205 205
0.1508153 -0.03647019 0.2979446 205 205 205
-0.02417571 -0.02600199 0.3351699 205 205 205
-0.01438322 -0.02969979 0.338972 205 205 205
-0.01359378 -0.0302989 0.3399634 205 205 205
-0.007051873 -0.04934624 0.3800474 205 205 205
-0.00169962 -0.05167388 0.3829589 205 205 205
-0.0005584983 -0.0519029 0.3829793 205 205 205
0.00588318 -0.05558223 0.3885217 205 205 205
0.01033978 -0.05801794 0.3921352 205 205 205
0.1029601 -0.05749862 0.3560243 205 205 205
0.1089835 -0.03980545 0.3146218 205 205 205
0.1102381 -0.03800446 0.3102387 205 205 205
0.1114616 -0.03838935 0.3107245 205 205 205
0.1210385 -0.03692929 0.3046768 205 205 205
0.125249 -0.03750284 0.3047423 205 205 205
0.1303278 -0.03704183 0.3023099 205 205 205
0.1311691 -0.03695819 0.3018945 205 205 205
0.1383995 -0.03756304 0.3012615 205 205 205
-0.02153064 -0.02758381 0.3351223 205 205 205
-0.01009123 -0.0382201 0.3536821 205 205 205
-0.00302026 -0.0524832 0.3824743 205 205 205
0.1009233 -0.06826383 0.3778425 205 205 205
0.1097722 -0.05633786 0.3485237 205 205 205
0.1106136 -0.05459419 0.3444043 205 205 205
0.1086383 -0.04155355 0.3162564 205 205 205
0.1132174 -0.03825702 0.307624 205 205 205
0.1167417 -0.03715447 0.3041663 205 205 205
0.1310485 -0.03780278 0.3015157 205 205 205
0.1512552 -0.03955567 0.2999378 205 205 205
0.1522313 -0.03793368 0.2962034 205 205 205
-0.0184873 -0.03050858 0.3378601 205 205 205
-0.01753899 -0.03074335 0.3379505 205 205 205
-0.01053305 -0.03991597 0.3550934 205 205 205
-0.005045783 -0.05148478 0.3782955 205 205 205
0.003495777 -0.05567555 0.3839221 205 205 205
0.006818026 -0.05712812 0.3857384 205 205 205
0.1021172 -0.06037275 0.3571743 205 205 205
0.1044974 -0.05908986 0.3535845 205 205 205
0.104994 -0.05822513 0.3515282 205 205 205
0.1088811 -0.05777016 0.3492835 205 205 205
0.1090069 -0.04549939 0.3224268 205 205 205
0.1283947 -0.03982265 0.304378 205 205 205
-0.01787155 -0.03198735 0.3384689 205 205 205
-0.01551184 -0.03383083 0.3414472 205 205 205
-0.0130079 -0.03821639 0.3499297 205 205 205
0.01066104 -0.06390197 0.3961359 205 205 205
0.1027626 -0.06095638 0.3555185 205 205 205
0.1038283 -0.06096104 0.3551815 205 205 205
0.1166705 -0.04108886 0.3082377 205 205 205
0.1180233 -0.04054772 0.3066762 205 205 205
0.1188851 -0.04049074 0.3063011 205 205 205
0.1243844 -0.04146946 0.3068033 205 205 205
0.1435301 -0.03990333 0.2981731 205 205 205
-0.02426635 -0.03040668 0.3355646 205 205 205
-0.02258291 -0.03127437 0.3366848 205 205 205
-0.001090765 -0.05525311 0.3792903 205 205 205
0.001004675 -0.05651075 0.381139 205 205 205
0.1011044 -0.06675416 0.3658504 205 205 205
0.1103693 -0.04947104 0.3257958 205 205 205
0.1148556 -0.04431703 0.3134218 205 205 205
0.1212632 -0.04208408 0.3067732 205 205 205
0.1272604 -0.04254002 0.3060094 205 205 205
0.1285655 -0.04195273 0.3043944 205 205 205
-0.003332772 -0.05501124 0.3769562 205 205 205
-0.001271004 -0.05627948 0.3788165 205 205 205
0.104808 -0.06164552 0.3510073 205 205 205
0.1119502 -0.04759272 0.3189565 205 205 205
0.1141861 -0.04566653 0.3142065 205 205 205
0.117025 -0.04459419 0.3110918 205 205 205
0.1314373 -0.04299171 0.303545 205 205 205
0.1378551 -0.04277823 0.3013111 205 205 205
0.1420832 -0.04225469 0.299066 205 205 205
0.1429238 -0.04214397 0.2986086 205 205 205
0.1450831 -0.04234593 0.2984484 205 205 205
0.1529467 -0.0431871 0.2981141 205 205 205
0.1551387 -0.04334325 0.2978667 205 205 205
-0.02444759 -0.03389704 0.3384873 205 205 205
-0.02080528 -0.03526838 0.3397992 205 205 205
-0.01129221 -0.05049876 0.3680024 205 205 205
-0.007535431 -0.05346808 0.3727242 205 205 205
0.003996297 -0.05965589 0.381097 205 205 205
0.1025315 -0.06619699 0.3587247 205 205 205
0.110033 -0.05672987 0.3364076 205 205 205
0.1107443 -0.05489871 0.3323417 205 205 205
0.1123079 -0.05166078 0.3250673 205 205 205
0.1171052 -0.04683496 0.313512 205 205 205
0.1313094 -0.04384225 0.3031437 205 205 205
0.1419572 -0.0431053 0.2986645 205 205 205
0.1457965 -0.04308159 0.2975781 205 205 205
0.1506346 -0.04388264 0.2979354 205 205 205
0.1561704 -0.04350505 0.2957096 205 205 205
-0.02746998 -0.03400398 0.337739 205 205 205
-0.01842545 -0.03764924 0.3414657 205 205 205
-0.009929076 -0.05398745 0.3721669 205 205 205
-0.00869813 -0.05382194 0.3713069 205 205 205
-0.0004980146 -0.05855403 0.3778715 205 205 205
0.0005484552 -0.05919328 0.3787882 205 205 205
0.114072 -0.04878426 0.3162157 205 205 205
0.119281 -0.04709415 0.3111521 205 205 205
0.1246735 -0.04575898 0.3068088 205 205 205
0.1277381 -0.04501853 0.3043967 205 205 205
0.1298959 -0.04433305 0.3023691 205 205 205
0.1311805 -0.04469106 0.3027391 205 205 205
0.1519072 -0.03779065 0.2830389 205 205 205
-0.02634297 -0.03654448 0.3402518 205 205 205
-0.02149945 -0.03779763 0.3407757 205 205 205
-0.002847754 -0.05870106 0.3764483 205 205 205
0.006482421 -0.06616738 0.3882283 205 205 205
0.1029875 -0.06959279 0.3603087 205 205 205
0.1048864 -0.06552286 0.3512897 205 205 205
0.1053861 -0.06461281 0.349251 205 205 205
0.1133511 -0.05527638 0.3275144 205 205 205
0.1151981 -0.05006484 0.3162486 205 205 205
0.1218108 -0.04777604 0.3095806 205 205 205
0.1219158 -0.04681343 0.3075816 205 205 205
0.1236677 -0.04668084 0.3067959 205 205 205
0.1249425 -0.04706008 0.3071974 205 205 205
0.125414 -0.04654016 0.3059985 205 205 205
0.1477077 -0.04497803 0.2965727 205 205 205
0.1490407 -0.04529115 0.2968456 205 205 205
-0.0278944 -0.03794403 0.341509 205 205 205
-0.02692037 -0.03820286 0.3416247 205 205 205
-0.02301642 -0.03921883 0.3420529 205 205 205
-0.01945727 -0.04100565 0.3442233 205 205 205
-0.01864344 -0.0416508 0.3452075 205 205 205
-0.01553733 -0.04771973 0.3563879 205 205 205
-0.01262586 -0.05236929 0.3647486 205 205 205
-0.002093936 -0.06078365 0.3777837 205 205 205
0.001151663 -0.0623077 0.3796201 205 205 205
0.109951 -0.05861755 0.3330269 205 205 205
0.1122534 -0.05762341 0.3302834 205 205 205
0.1148456 -0.05189409 0.3178293 205 205 205
0.1226593 -0.04759937 0.3067766 205 205 205
0.1248091 -0.04791433 0.3067823 205 205 205
0.125745 -0.04686559 0.3043884 205 205 205
0.1300611 -0.04646885 0.302339 205 205 205
0.1440924 -0.04530483 0.2960618 205 205 205
0.1484167 -0.04570339 0.2956818 205 205 205
0.1580414 -0.04885311 0.2993912 205 205 205
0.1578603 -0.04783396 0.2974067 205 205 205
0.1548564 -0.04201953 0.2866156 205 205 205
-0.02651801 -0.04013243 0.3431002 205 205 205
-0.02159413 -0.04139978 0.3436124 205 205 205
-0.01915642 -0.04335258 0.3465698 205 205 205
-0.01512166 -0.05012995 0.3586988 205 205 205
-0.01359058 -0.05226611 0.3624219 205 205 205
0.1028348 -0.07393434 0.3638988 205 205 205
0.1045876 -0.06935001 0.3540458 205 205 205
0.1073364 -0.06192804 0.3381546 205 205 205
0.1101129 -0.06000792 0.333402 205 205 205
0.1229177 -0.04890491 0.3071584 205 205 205
