ply
format ascii 1.0
comment Generated by Floating Hands
element vertex 1073
property double x
property double y
property double z
property uchar red
property uchar green
property uchar blue
end_header
0.1564255 -0.008509188 0.4288238 205 205 205
0.1709003 -0.01177524 0.4418836 205 205 205
0.1767706 -0.01256329 0.4446642 205 205 205
0.1792939 -0.01308418 0.4467582 205 205 205
-0.001644705 0.004668909 0.4476461 205 205 205
0.002098718 0.003756191 0.4488111 205 205 205
0.004521195 0.002930674 0.4508761 205 205 205
0.01330915 -0.006287575 0.4924078 205 205 205
0.1229753 -0.009586339 0.4372382 205 205 205
0.1234739 -0.008181679 0.4299205 205 205 205
0.12412 -0.007783344 0.4276683 205 205 205
0.125962 -0.007389912 0.4250288 205 205 205
0.1339685 -0.006335629 0.417163 205 205 205
0.1413839 -0.006420122 0.4154965 205 205 205
0.1599286 -0.01035995 0.430263 205 205 205
0.1758592 -0.01358179 0.4426065 205 205 205
-0.02462673 -0.0006440309 0.4921073 205 205 205
-0.01958598 0.001458643 0.4757499 205 205 205
0.001925701 0.002463357 0.4485742 205 205 205
0.008153182 0.0007364068 0.4517326 205 205 205
0.128554 -0.008054184 0.4208061 205 205 205
0.1294371 -0.00784251 0.4194785 205 205 205
0.1439932 -0.007836377 0.4152616 205 205 205
0.1500906 -0.009186879 0.4202269 205 205 205
0.1711844 -0.01410404 0.4389929 205 205 205
0.1741349 -0.01417012 0.4387662 205 205 205
-0.00590652 0.002691901 0.4479286 205 205 205
-0.0006383057 0.002018034 0.4462538 205 205 205
0.01022693 -0.002303167 0.4584144 205 205 205
0.01139941 -0.009329478 0.4938148 205 205 205
0.1263386 -0.01038453 0.4263827 205 205 205
0.1296433 -0.009323289 0.4201509 205 205 205
0.1329019 -0.009088386 0.4179997 205 205 205
0.1349448 -0.008848867 0.4162424 205 205 205
0.1508185 -0.01022895 0.4185838 205 205 205
0.1786453 -0.01646607 0.4417768 205 205 205
0.1913944 -0.02061084 0.4585202 205 205 205
-0.01291931 0.002052977 0.4511335 205 205 205
0.002713446 -0.0007248196 0.4500977 205 205 205
0.1252351 -0.01274263 0.4315562 205 205 205
0.126524 -0.01189152 0.4270498 205 205 205
0.1271445 -0.01146209 0.4247972 205 205 205
0.1292227 -0.01037626 0.4189672 205 205 205
0.1609369 -0.01364015 0.4257285 205 205 205
0.1702823 -0.01503546 0.4302001 205 205 205
-0.004796648 0.0002180645 0.4455529 205 205 205
0.1313987 -0.02086962 0.4609913 205 205 205
0.1364231 -0.01089292 0.4130396 205 205 205
0.1624927 -0.01441281 0.4226234 205 205 205
0.1641046 -0.01456765 0.4229899 205 205 205
0.1818551 -0.01956298 0.441779 205 205 205
-0.01740468 -5.464309E-05 0.4522407 205 205 205
-0.00379579 -0.001500497 0.4463501 205 205 205
-0.002609552 -0.0019408 0.4473974 205 205 205
0.1329136 -0.0225371 0.4612031 205 205 205
0.1284222 -0.01515407 0.428893 205 205 205
0.1287432 -0.01448167 0.4257123 205 205 205
0.1296571 -0.01425653 0.4243833 205 205 205
0.1398322 -0.01207097 0.4114716 205 205 205
0.1640151 -0.01515886 0.4195113 205 205 205
0.1800748 -0.02009756 0.4379529 205 205 205
-0.01901823 -0.001248513 0.452831 205 205 205
-0.001508551 -0.003479572 0.4471996 205 205 205
0.006646739 -0.00791807 0.4612238 205 205 205
0.1297403 -0.01850891 0.4373564 205 205 205
0.131598 -0.01438256 0.4182704 205 205 205
0.1324708 -0.01414375 0.4169374 205 205 205
0.1370449 -0.0131432 0.4111611 205 205 205
0.1444595 -0.01246642 0.4062407 205 205 205
0.1448711 -0.01197031 0.4039802 205 205 205
0.154047 -0.01377223 0.4096845 205 205 205
0.181672 -0.02163712 0.4379353 205 205 205
-0.01432921 -0.001925988 0.4451141 205 205 205
-0.003054643 -0.004701372 0.4478465 205 205 205
0.004057813 -0.007971702 0.4569618 205 205 205
0.1325831 -0.02216892 0.4463263 205 205 205
0.1303345 -0.01845462 0.4306945 205 205 205
0.1312332 -0.0163525 0.4211629 205 205 205
0.13236 -0.01540422 0.4166598 205 205 205
0.1470533 -0.01310876 0.402785 205 205 205
0.150096 -0.01347185 0.4036341 205 205 205
0.1702812 -0.01840436 0.420312 205 205 205
0.1773453 -0.02075548 0.4288509 205 205 205
0.1984985 -0.02801496 0.4554543 205 205 205
-0.03016825 -0.007484952 0.4788034 205 205 205
-0.02416011 -0.004078296 0.4577285 205 205 205
-0.02198921 -0.003268646 0.4520322 205 205 205
-0.01578177 -0.002921689 0.4447367 205 205 205
-0.006980988 -0.005011172 0.4463802 205 205 205
0.001681161 -0.007594355 0.4507307 205 205 205
0.004381399 -0.01216328 0.4694236 205 205 205
0.1383785 -0.02826863 0.4645281 205 205 205
0.1376568 -0.0153697 0.4092652 205 205 205
0.1420173 -0.0142683 0.4034377 205 205 205
0.1435248 -0.01446503 0.403888 205 205 205
0.161306 -0.01768629 0.4133239 205 205 205
0.1922381 -0.0262724 0.4429627 205 205 205
-0.0108815 -0.005292439 0.444872 205 205 205
-0.00588361 -0.006552748 0.4461812 205 205 205
-0.0009279156 -0.00798317 0.4483939 205 205 205
0.003292075 -0.01184367 0.4622528 205 205 205
0.003560286 -0.0155884 0.4788921 205 205 205
0.134377 -0.01691456 0.4111767 205 205 205
0.1363822 -0.01663205 0.4094136 205 205 205
0.147612 -0.01527164 0.4008656 205 205 205
0.1491296 -0.01545942 0.4012879 205 205 205
0.1604026 -0.01849518 0.4112585 205 205 205
-0.03451466 -0.0109467 0.4846518 205 205 205
-0.03040024 -0.008068041 0.4683467 205 205 205
-0.02749378 -0.006487506 0.4588082 205 205 205
-0.01095114 -0.006365239 0.4436194 205 205 205
-0.004879444 -0.008294751 0.4469464 205 205 205
-0.002397314 -0.009015495 0.4480515 205 205 205
0.1320955 -0.02016406 0.419877 205 205 205
0.138719 -0.0170557 0.4051049 205 205 205
0.1990892 -0.03130811 0.4496484 205 205 205
-0.007526405 -0.008843608 0.4455376 205 205 205
-0.003958702 -0.0102508 0.448674 205 205 205
-0.0002379224 -0.0114401 0.4507973 205 205 205
0.001071545 -0.01575175 0.4684356 205 205 205
0.1425477 -0.03409886 0.4681473 205 205 205
0.1344847 -0.01964175 0.411505 205 205 205
0.1382609 -0.01803123 0.4039112 205 205 205
0.16774 -0.02165176 0.4115294 205 205 205
-0.01878837 -0.007028364 0.4414456 205 205 205
0.1347018 -0.02113475 0.4121154 205 205 205
0.1373467 -0.01952994 0.404956 205 205 205
0.1576406 -0.02000697 0.4019049 205 205 205
0.162391 -0.02135604 0.4061511 205 205 205
0.1841741 -0.02613907 0.4205238 205 205 205
-0.03577993 -0.01195745 0.4707879 205 205 205
-0.01253442 -0.009469426 0.4407197 205 205 205
-0.002497326 -0.0152931 0.4569526 205 205 205
0.134586 -0.02237857 0.4118107 205 205 205
0.1434079 -0.02002481 0.4001914 205 205 205
0.1453089 -0.01967975 0.3983814 205 205 205
0.1582768 -0.02092066 0.4002147 205 205 205
0.1626236 -0.02203421 0.4035659 205 205 205
0.1674537 -0.02338464 0.4077408 205 205 205
0.1698975 -0.02405389 0.4098076 205 205 205
0.1735496 -0.02462779 0.4112986 205 205 205
-0.033756 -0.01070804 0.4579313 205 205 205
-0.02435899 -0.008587596 0.4413162 205 205 205
-0.0216852 -0.00896606 0.4406137 205 205 205
-0.01410354 -0.01066295 0.4412955 205 205 205
-0.01168561 -0.01142419 0.4424559 205 205 205
-0.01052569 -0.01191008 0.4435148 205 205 205
-0.009142146 -0.0119631 0.4426287 205 205 205
0.1616928 -0.02277144 0.4015047 205 205 205
0.176119 -0.02512334 0.4075421 205 205 205
-0.03275161 -0.01059141 0.4508728 205 205 205
-0.0243949 -0.009633535 0.4400504 205 205 205
-0.01668915 -0.01114699 0.4398175 205 205 205
-0.008366411 -0.01415324 0.4453131 205 205 205
-0.005067359 -0.01628268 0.4513471 205 205 205
-0.004382505 -0.0181121 0.4582034 205 205 205
-0.004242212 -0.02152073 0.4718525 205 205 205
0.1349599 -0.03045812 0.4324351 205 205 205
0.1337033 -0.02834315 0.4247084 205 205 205
0.1350112 -0.0253878 0.4130002 205 205 205
0.1368747 -0.0240026 0.4071838 205 205 205
0.148871 -0.02219591 0.3972566 205 205 205
0.1523062 -0.0228627 0.3989461 205 205 205
0.1557166 -0.02266907 0.397466 205 205 205
0.1757117 -0.02702073 0.4095086 205 205 205
-0.04329256 -0.01813316 0.4836807 205 205 205
-0.02600217 -0.01079961 0.4405721 205 205 205
-0.01800125 -0.01189726 0.4384353 205 205 205
-0.01078392 -0.0142163 0.4419322 205 205 205
-0.004843039 -0.02011747 0.4607871 205 205 205
0.1359246 -0.02552273 0.4082027 205 205 205
0.136758 -0.02523007 0.4068677 205 205 205
0.141937 -0.02369292 0.399724 205 205 205
0.1442375 -0.02276166 0.3956855 205 205 205
0.1766403 -0.02732458 0.4054503 205 205 205
-0.02729414 -0.01153556 0.4391564 205 205 205
-0.01818793 -0.01314129 0.4381262 205 205 205
-0.01441232 -0.01397892 0.4384418 205 205 205
-0.005537725 -0.01910396 0.4516735 205 205 205
-0.005036449 -0.02145011 0.4604538 205 205 205
0.135023 -0.03227476 0.4285892 205 205 205
0.133025 -0.02845732 0.4150165 205 205 205
0.1426007 -0.02458639 0.3980638 205 205 205
0.146379 -0.02385416 0.3944469 205 205 205
0.1490112 -0.02401192 0.3943878 205 205 205
0.1524396 -0.02469594 0.3960649 205 205 205
0.1604446 -0.02507246 0.3956727 205 205 205
0.1752689 -0.02627552 0.3971333 205 205 205
0.1782238 -0.02722365 0.3999661 205 205 205
-0.02732256 -0.01256262 0.4378808 205 205 205
-0.01837508 -0.01438386 0.4378123 205 205 205
-0.005503208 -0.02348595 0.4630185 205 205 205
0.134509 -0.02800492 0.4079839 205 205 205
0.1638647 -0.02693611 0.3969025 205 205 205
0.1774157 -0.02885802 0.4010594 205 205 205
-0.04064455 -0.01661373 0.4584736 205 205 205
-0.03469337 -0.01335948 0.4415817 205 205 205
-0.02985327 -0.01297544 0.4363066 205 205 205
-0.02078861 -0.01459805 0.4353354 205 205 205
-0.01717095 -0.0156776 0.4366384 205 205 205
0.1375864 -0.03738976 0.4360606 205 205 205
0.1360611 -0.02862525 0.4049929 205 205 205
0.1396577 -0.02766225 0.40055 205 205 205
0.1446553 -0.02601186 0.3933873 205 205 205
0.154882 -0.02724932 0.3953059 205 205 205
0.1575519 -0.02738138 0.3951731 205 205 205
0.1701932 -0.02980735 0.4009788 205 205 205
-0.02596782 -0.01466095 0.4345002 205 205 205
-0.02222557 -0.01554043 0.4348925 205 205 205
0.1342642 -0.03045733 0.4073172 205 205 205
0.1367646 -0.02953201 0.4033281 205 205 205
0.1452864 -0.02686439 0.3917164 205 205 205
0.1479064 -0.02703289 0.3916602 205 205 205
0.1597042 -0.02843713 0.3938178 205 205 205
0.171676 -0.03123702 0.4009361 205 205 205
0.1783575 -0.03126726 0.3997892 205 205 205
-0.01977268 -0.01710935 0.4338435 205 205 205
-0.01628951 -0.01842884 0.4360908 205 205 205
0.134373 -0.03400962 0.4150374 205 205 205
0.1342718 -0.0328464 0.4110039 205 205 205
0.1466736 -0.02827332 0.3918009 205 205 205
0.147408 -0.02793211 0.3904521 205 205 205
0.1493017 -0.0284398 0.3917313 205 205 205
0.151208 -0.02894422 0.3930006 205 205 205
0.1542579 -0.02937735 0.3937656 205 205 205
0.1595933 -0.02964458 0.3934802 205 205 205
0.1747662 -0.03284654 0.401165 205 205 205
0.1777951 -0.03224507 0.3985902 205 205 205
-0.03257138 -0.01559536 0.433105 205 205 205
-0.03097588 -0.01544128 0.4313485 205 205 205
-0.0223036 -0.0175213 0.4323165 205 205 205
-0.01773414 -0.01938137 0.4356543 205 205 205
-0.01155876 -0.02100755 0.437088 205 205 205
-0.00880619 -0.03558485 0.4876223 205 205 205
0.1496862 -0.05298578 0.4711288 205 205 205
0.1351935 -0.03287887 0.4062022 205 205 205
0.1384965 -0.03159941 0.4008783 205 205 205
0.1389472 -0.03098492 0.3986541 205 205 205
0.1405212 -0.03032747 0.3959851 205 205 205
0.1776926 -0.03185863 0.3928543 205 205 205
-0.03010368 -0.01719607 0.432125 205 205 205
-0.0238884 -0.0186891 0.4328169 205 205 205
-0.01414908 -0.02145006 0.4356119 205 205 205
-0.01300998 -0.02197241 0.4366625 205 205 205
0.1343428 -0.0356133 0.411199 205 205 205
0.1350674 -0.0340994 0.4058525 205 205 205
0.138025 -0.03251122 0.3996425 205 205 205
0.1396183 -0.03185027 0.3969779 205 205 205
0.1404017 -0.03151648 0.3956438 205 205 205
0.1423093 -0.03113466 0.3938556 205 205 205
0.1434407 -0.03108632 0.3933986 205 205 205
0.1607851 -0.03131118 0.3900335 205 205 205
0.1650002 -0.03162283 0.3901676 205 205 205
0.1723312 -0.03392021 0.3961965 205 205 205
-0.02888392 -0.01847638 0.430979 205 205 205
-0.02129081 -0.01999902 0.4308064 205 205 205
-0.01546782 -0.02215401 0.4342149 205 205 205
0.1345392 -0.03714854 0.4117364 205 205 205
0.1481802 -0.03140034 0.3889643 205 205 205
0.1534341 -0.03172305 0.388766 205 205 205
0.1564815 -0.03216211 0.3894982 205 205 205
0.1713348 -0.03457194 0.3941378 205 205 205
0.1733641 -0.03504975 0.3952722 205 205 205
0.1770067 -0.03570368 0.3966649 205 205 205
-0.02800295 -0.02023465 0.4317343 205 205 205
-0.02287077 -0.02117081 0.4313015 205 205 205
-0.01664556 -0.02259427 0.4318536 205 205 205
-0.01223998 -0.02497179 0.4370117 205 205 205
-0.01047109 -0.02731898 0.4438868 205 205 205
-0.009811237 -0.02914407 0.4497201 205 205 205
0.139441 -0.03328969 0.3931802 205 205 205
0.1435856 -0.03280078 0.3904878 205 205 205
0.1498972 -0.03214645 0.38679 205 205 205
0.154434 -0.0328292 0.3879211 205 205 205
0.1639134 -0.03343195 0.3877551 205 205 205
0.1787347 -0.03642353 0.3942924 205 205 205
-0.03261522 -0.01948974 0.4279354 205 205 205
-0.0312073 -0.01955072 0.4271367 205 205 205
-0.01571557 -0.02434572 0.4325583 205 205 205
0.1493837 -0.05643088 0.4612199 205 205 205
0.140158 -0.04635261 0.4311474 205 205 205
0.1368388 -0.03644331 0.3999091 205 205 205
0.13896 -0.03416256 0.391945 205 205 205
0.1400888 -0.03411879 0.3914987 205 205 205
0.1434656 -0.03397287 0.3901364 205 205 205
0.1468279 -0.03380509 0.3887392 205 205 205
0.1519964 -0.03317524 0.3854691 205 205 205
0.1626818 -0.03471401 0.3879261 205 205 205
0.165348 -0.03482741 0.3877141 205 205 205
0.1680204 -0.03492966 0.3874801 205 205 205
-0.03726732 -0.02073635 0.4308985 205 205 205
-0.03280732 -0.0206895 0.4275874 205 205 205
-0.01590445 -0.02556409 0.4322025 205 205 205
-0.01465183 -0.02584121 0.4322946 205 205 205
-0.01169443 -0.0285095 0.4392468 205 205 205
-0.01116918 -0.0341092 0.4575949 205 205 205
0.1383714 -0.04487405 0.422245 205 205 205
0.1350578 -0.03832072 0.4021939 205 205 205
0.1433444 -0.03514338 0.3897805 205 205 205
0.1444673 -0.03508967 0.3893186 205 205 205
0.1467082 -0.0349749 0.3883833 205 205 205
0.1500569 -0.03478453 0.3869516 205 205 205
0.1549063 -0.03480142 0.3858494 205 205 205
0.1560156 -0.0347231 0.3853476 205 205 205
0.1610234 -0.03568874 0.3872349 205 205 205
0.1652325 -0.03601956 0.3873505 205 205 205
0.1699099 -0.0366264 0.3882551 205 205 205
0.1805707 -0.03937604 0.3946268 205 205 205
-0.03707343 -0.02144846 0.4286452 205 205 205
-0.03281621 -0.02163527 0.4262845 205 205 205
-0.03141023 -0.02168906 0.4254867 205 205 205
-0.02204799 -0.0248359 0.4294077 205 205 205
-0.02095231 -0.02538508 0.4304754 205 205 205
-0.01484085 -0.02705835 0.4319338 205 205 205
0.1371497 -0.03720775 0.3938763 205 205 205
0.1406053 -0.0361018 0.3894548 205 205 205
0.143222 -0.03631222 0.3894201 205 205 205
0.1570062 -0.0358119 0.3844807 205 205 205
0.1620225 -0.03678313 0.3863455 205 205 205
0.1639958 -0.03730511 0.3875169 205 205 205
0.1677893 -0.03731848 0.3867462 205 205 205
-0.03726855 -0.0226504 0.4282865 205 205 205
-0.03442204 -0.02277304 0.4267196 205 205 205
-0.02332553 -0.02548691 0.427976 205 205 205
-0.0208501 -0.02606413 0.4282063 205 205 205
0.1396701 -0.04773135 0.42189 205 205 205
0.1364517 -0.04003343 0.3988041 205 205 205
0.1438466 -0.03711104 0.3877216 205 205 205
0.1475839 -0.03724811 0.3871848 205 205 205
0.1549567 -0.03643698 0.3829076 205 205 205
0.1634482 -0.0381835 0.386296 205 205 205
0.175069 -0.04097237 0.3922598 205 205 205
0.1791808 -0.04197452 0.3944441 205 205 205
-0.02443622 -0.02586118 0.4255878 205 205 205
-0.01647405 -0.029209 0.4311063 205 205 205
-0.01222993 -0.03555246 0.448697 205 205 205
0.1360027 -0.04320719 0.4046136 205 205 205
0.1363202 -0.04122676 0.3984268 205 205 205
0.1376815 -0.03919907 0.3918169 205 205 205
0.1485785 -0.03834851 0.3863384 205 205 205
0.1587113 -0.03869255 0.3849394 205 205 205
0.1797529 -0.04277902 0.3926296 205 205 205
0.1852782 -0.04289112 0.3918873 205 205 205
-0.03480976 -0.02515955 0.4259908 205 205 205
-0.03339445 -0.02520836 0.4252007 205 205 205
-0.03198575 -0.0252529 0.4244053 205 205 205
-0.01999096 -0.02874885 0.4275782 205 205 205
-0.01653243 -0.03014464 0.4297792 205 205 205
0.1360387 -0.04342092 0.4011326 205 205 205
0.1366587 -0.04173685 0.3958423 205 205 205
0.1395012 -0.03894408 0.3866029 205 205 205
0.1469511 -0.03925452 0.3855771 205 205 205
0.1509992 -0.03866264 0.3827927 205 205 205
0.1532057 -0.03851261 0.3818103 205 205 205
0.1669938 -0.04057171 0.3847708 205 205 205
-0.03095381 -0.02674346 0.424182 205 205 205
-0.02937892 -0.02650768 0.4224302 205 205 205
-0.02003715 -0.02966912 0.4262528 205 205 205
-0.01797302 -0.03106957 0.4293058 205 205 205
-0.01407286 -0.03810928 0.448773 205 205 205
-0.01810135 -0.05172917 0.4935991 205 205 205
0.148662 -0.03995619 0.3833844 205 205 205
0.1537746 -0.03926267 0.3800851 205 205 205
0.157216 -0.04006613 0.3816323 205 205 205
0.163341 -0.04099023 0.3829361 205 205 205
-0.03765714 -0.02690562 0.4249176 205 205 205
-0.03500873 -0.02726952 0.424299 205 205 205
-0.02921961 -0.02713751 0.4201657 205 205 205
-0.01592313 -0.03340249 0.4310072 205 205 205
-0.01498459 -0.04110829 0.4540693 205 205 205
0.1446408 -0.05712743 0.4312737 205 205 205
0.137996 -0.0433601 0.3924307 205 205 205
0.1380729 -0.0423271 0.3893609 205 205 205
0.1422214 -0.04075981 0.3836219 205 205 205
0.1503532 -0.04063879 0.3811809 205 205 205
0.1525544 -0.04048822 0.3802018 205 205 205
0.1540621 -0.04073619 0.3805583 205 205 205
0.1586168 -0.04146225 0.3815855 205 205 205
0.17099 -0.04326303 0.384012 205 205 205
0.1770889 -0.0448534 0.3872862 205 205 205
0.1812136 -0.0458934 0.3894141 205 205 205
0.1818858 -0.045443 0.387994 205 205 205
-0.03662415 -0.0284101 0.4247019 205 205 205
-0.03201467 -0.02797575 0.4204502 205 205 205
-0.02819816 -0.02860382 0.4199258 205 205 205
-0.02439628 -0.02920537 0.4193597 205 205 205
-0.01710613 -0.03375763 0.428629 205 205 205
0.1467965 -0.0607933 0.4370117 205 205 205
0.1364641 -0.04665116 0.3986292 205 205 205
0.1362574 -0.04527836 0.3946766 205 205 205
0.1432039 -0.04184648 0.3827803 205 205 205
0.158073 -0.04229127 0.3803523 205 205 205
0.163337 -0.04257417 0.3799474 205 205 205
0.1704186 -0.04412154 0.3827829 205 205 205
0.1719844 -0.04433606 0.3830543 205 205 205
0.1776351 -0.04561178 0.3854742 205 205 205
0.182605 -0.04542119 0.3839301 205 205 205
0.18181 -0.04399015 0.3800651 205 205 205
-0.03642947 -0.02904312 0.4224342 205 205 205
-0.03482381 -0.0288042 0.4207098 205 205 205
-0.02579646 -0.03007834 0.418858 205 205 205
-0.02337348 -0.03065873 0.419097 205 205 205
-0.02231451 -0.03123157 0.4201558 205 205 205
-0.01908731 -0.03294662 0.42331 205 205 205
-0.01617773 -0.03553007 0.4292731 205 205 205
0.1396407 -0.0536566 0.4140644 205 205 205
0.1363257 -0.04784319 0.3982267 205 205 205
0.1361212 -0.04645536 0.3942791 205 205 205
0.1378087 -0.04464455 0.3885828 205 205 205
0.1426988 -0.04265179 0.3815311 205 205 205
0.1463972 -0.04280178 0.3809924 205 205 205
0.1667368 -0.04452479 0.3809862 205 205 205
0.173431 -0.04573434 0.3829156 205 205 205
0.1829274 -0.04424853 0.3768399 205 205 205
-0.03482528 -0.02969283 0.4193836 205 205 205
-0.03202996 -0.02974596 0.4178018 205 205 205
-0.02143693 -0.03297526 0.4208228 205 205 205
0.1377335 -0.04473199 0.3851332 205 205 205
0.1465919 -0.04319522 0.3784158 205 205 205
0.1619841 -0.04499001 0.3796862 205 205 205
0.1686077 -0.04625602 0.3817014 205 205 205
0.1737597 -0.04725353 0.3833343 205 205 205
0.1801055 -0.04809063 0.3843003 205 205 205
0.1821754 -0.04862354 0.3853402 205 205 205
0.183307 -0.04848896 0.3847387 205 205 205
0.1390115 -0.0558165 0.4123248 205 205 205
0.1355022 -0.04845881 0.3925972 205 205 205
0.1364045 -0.04699848 0.3882296 205 205 205
0.1413315 -0.04498018 0.3812065 205 205 205
0.1664847 -0.04685936 0.3801795 205 205 205
0.1828758 -0.04855349 0.3812773 205 205 205
0.1835117 -0.04808006 0.3798637 205 205 205
0.1842679 -0.04679459 0.3762298 205 205 205
-0.03642456 -0.03170481 0.4184445 205 205 205
-0.03120608 -0.03236396 0.4171648 205 205 205
-0.02636706 -0.03355917 0.417691 205 205 205
-0.02410167 -0.03443888 0.4188699 205 205 205
-0.02288429 -0.03472803 0.4189823 205 205 205
0.1359177 -0.0478026 0.3869557 205 205 205
0.1389784 -0.04622127 0.3817135 205 205 205
0.1444637 -0.04482686 0.3763894 205 205 205
0.1485251 -0.04531122 0.3766727 205 205 205
0.1597715 -0.04670946 0.3777295 205 205 205
-0.03103293 -0.03293012 0.4148916 205 205 205
-0.02622309 -0.03412003 0.4154133 205 205 205
-0.01819635 -0.03702493 0.418987 205 205 205
-0.01451622 -0.0482436 0.4487166 205 205 205
0.08419985 -0.05686745 0.4261211 205 205 205
0.0925801 -0.0658631 0.4482683 205 205 205
0.09617843 -0.07014912 0.4589797 205 205 205
0.1353383 -0.04969602 0.3887246 205 205 205
0.1362063 -0.04820171 0.3843738 205 205 205
0.1369731 -0.04780374 0.3830664 205 205 205
0.1384802 -0.04700129 0.380449 205 205 205
0.1395884 -0.04694837 0.3799999 205 205 205
0.1443334 -0.04594611 0.3759913 205 205 205
0.1539906 -0.04716916 0.3768459 205 205 205
0.1682225 -0.04977065 0.3804639 205 205 205
0.180378 -0.05121031 0.3816267 205 205 205
-0.03521193 -0.03374693 0.4159284 205 205 205
-0.02984339 -0.03407843 0.4136919 205 205 205
-0.02727359 -0.03437193 0.4130131 205 205 205
-0.02624518 -0.03496617 0.4140745 205 205 205
-0.01743999 -0.03908268 0.4205533 205 205 205
-0.01418219 -0.05200665 0.4549374 205 205 205
0.08175155 -0.07057738 0.4614162 205 205 205
0.07673516 -0.05282323 0.4137932 205 205 205
0.08280346 -0.04843125 0.3991635 205 205 205
0.09716734 -0.06158813 0.430385 205 205 205
0.1373209 -0.05958034 0.411453 205 205 205
0.1352491 -0.05598309 0.4022632 205 205 205
0.1401901 -0.04766382 0.3782838 205 205 205
0.1412574 -0.04648177 0.3748045 205 205 205
0.1455984 -0.04621884 0.3729503 205 205 205
0.1579887 -0.04874146 0.3765913 205 205 205
0.1610409 -0.04925328 0.3772195 205 205 205
0.1754867 -0.05174636 0.3805094 205 205 205
0.1781893 -0.05183897 0.3801615 205 205 205
-0.03381641 -0.03460823 0.4138039 205 205 205
-0.0308644 -0.03431519 0.4112823 205 205 205
-0.02506892 -0.0360941 0.412852 205 205 205
-0.02282856 -0.03697668 0.4140141 205 205 205
-0.01482588 -0.04328189 0.426969 205 205 205
-0.01381265 -0.04419005 0.4289251 205 205 205
-0.01458323 -0.05805538 0.4677224 205 205 205
0.07514904 -0.05941154 0.4288493 205 205 205
0.07275677 -0.0426981 0.383651 205 205 205
0.07957861 -0.04348536 0.3831778 205 205 205
0.0838615 -0.0454615 0.3869974 205 205 205
0.09468108 -0.05260174 0.4026248 205 205 205
0.109785 -0.07108565 0.4478693 205 205 205
0.1391586 -0.06445409 0.420201 205 205 205
0.1343672 -0.05128056 0.3861575 205 205 205
0.1378463 -0.04889284 0.3787747 205 205 205
0.1389517 -0.04883968 0.3783271 205 205 205
0.1473404 -0.04796903 0.3737659 205 205 205
0.1686295 -0.05163947 0.3782412 205 205 205
0.1713005 -0.05176086 0.3779472 205 205 205
0.1760117 -0.05244768 0.378686 205 205 205
0.1887838 -0.0541292 0.3803299 205 205 205
-0.03087019 -0.03514129 0.4099438 205 205 205
-0.02814196 -0.03512281 0.4083375 205 205 205
-0.02611771 -0.03632259 0.410455 205 205 205
-0.02165994 -0.0380915 0.4127732 205 205 205
-0.01158817 -0.04626213 0.4295699 205 205 205
0.0326593 -0.07063996 0.4741952 205 205 205
0.03481356 -0.05896553 0.441148 205 205 205
0.0358592 -0.05534549 0.4307282 205 205 205
0.03678976 -0.05136428 0.4193731 205 205 205
0.04620865 -0.04949952 0.4099958 205 205 205
0.07640582 -0.07119062 0.4565833 205 205 205
0.06942316 -0.04387848 0.3848267 205 205 205
0.0697901 -0.04216615 0.3800095 205 205 205
0.07042484 -0.04116806 0.3770368 205 205 205
0.08198897 -0.04329292 0.3783882 205 205 205
0.08607233 -0.0449046 0.3812543 205 205 205
0.08738329 -0.04531717 0.3818944 205 205 205
0.1420796 -0.04863507 0.3735344 205 205 205
0.1438637 -0.04814129 0.3717596 205 205 205
0.152366 -0.04948621 0.3730921 205 205 205
0.154956 -0.04967181 0.3729287 205 205 205
0.1607764 -0.05154205 0.3763792 205 205 205
0.1763414 -0.05397531 0.379065 205 205 205
0.1812759 -0.05379573 0.3775183 205 205 205
0.185018 -0.0499611 0.366907 205 205 205
-0.03820472 -0.03655776 0.4143879 205 205 205
-0.01637747 -0.04189897 0.4165712 205 205 205
-0.0120941 -0.04459999 0.4215589 205 205 205
0.03992979 -0.04017276 0.3839039 205 205 205
0.04103339 -0.04031483 0.3837948 205 205 205
0.04576825 -0.04263476 0.3879837 205 205 205
0.04959773 -0.05072486 0.4082187 205 205 205
0.07148047 -0.04017814 0.3707173 205 205 205
0.07482704 -0.0407516 0.3709738 205 205 205
0.07819095 -0.04130651 0.3711927 205 205 205
0.08343026 -0.0433595 0.3747589 205 205 205
0.1322932 -0.05814769 0.3978921 205 205 205
0.1320004 -0.0551438 0.3900737 205 205 205
0.1321445 -0.05400664 0.3870419 205 205 205
0.1334799 -0.05168553 0.3805612 205 205 205
0.1368472 -0.05039611 0.3762318 205 205 205
0.1477633 -0.04975371 0.3716191 205 205 205
0.1602154 -0.05232167 0.3751238 205 205 205
0.1721448 -0.0539646 0.3765192 205 205 205
0.1737117 -0.05420049 0.3767647 205 205 205
0.1779728 -0.05453033 0.3766495 205 205 205
-0.03224741 -0.03677742 0.4080554 205 205 205
-0.0275117 -0.03796839 0.4085793 205 205 205
-0.0239508 -0.03883726 0.408928 205 205 205
-0.01736774 -0.04180464 0.4132552 205 205 205
0.02354297 -0.06720304 0.4605667 205 205 205
0.02767576 -0.04790735 0.4069452 205 205 205
0.04048874 -0.03850746 0.3759417 205 205 205
0.0722318 -0.04089855 0.3692057 205 205 205
0.07556936 -0.04146875 0.3694513 205 205 205
0.07768211 -0.04159252 0.3689866 205 205 205
0.0930387 -0.0466003 0.3766971 205 205 205
0.1490021 -0.08356169 0.4555057 205 205 205
0.1367591 -0.06755823 0.4174918 205 205 205
0.1385368 -0.05102506 0.3740681 205 205 205
0.1432087 -0.04997256 0.3700886 205 205 205
0.1546891 -0.05191118 0.3720872 205 205 205
0.1616106 -0.05372258 0.3749943 205 205 205
0.1715555 -0.05476059 0.3752671 205 205 205
0.1859379 -0.05592644 0.3750097 205 205 205
-0.03381341 -0.03790498 0.408429 205 205 205
-0.03243772 -0.03789528 0.4076407 205 205 205
-0.03088239 -0.0375656 0.4059168 205 205 205
-0.02852922 -0.03815832 0.4061765 205 205 205
-0.02668584 -0.03970033 0.4092155 205 205 205
-0.0229506 -0.04024432 0.4086186 205 205 205
-0.01847628 -0.04201455 0.4108751 205 205 205
-0.01621176 -0.04289086 0.4119796 205 205 205
-0.0102916 -0.05241147 0.4339767 205 205 205
0.02066218 -0.06492658 0.4517671 205 205 205
0.02240674 -0.05601555 0.427367 205 205 205
0.02382953 -0.05129287 0.4142031 205 205 205
0.02513192 -0.04725567 0.4029117 205 205 205
0.04231445 -0.03870868 0.3725434 205 205 205
0.04337581 -0.0388392 0.3724272 205 205 205
0.04543096 -0.03873112 0.3712542 205 205 205
0.04662989 -0.03958076 0.3729856 205 205 205
0.06675288 -0.05657142 0.4095028 205 205 205
0.06495352 -0.04496606 0.3796424 205 205 205
0.06574596 -0.04144634 0.3700604 205 205 205
0.07087278 -0.04146676 0.3681234 205 205 205
0.07630427 -0.04217425 0.3679254 205 205 205
0.09507626 -0.04772341 0.375705 205 205 205
0.1298918 -0.05673167 0.3878933 205 205 205
0.1311819 -0.0555399 0.384448 205 205 205
0.13657 -0.05261017 0.3753915 205 205 205
0.1412931 -0.05157185 0.3714381 205 205 205
0.1460148 -0.05166697 0.3704167 205 205 205
0.1541385 -0.0526579 0.3708291 205 205 205
0.1575741 -0.05358138 0.3722993 205 205 205
0.1777025 -0.05686475 0.3757606 205 205 205
0.1853148 -0.05673891 0.3737659 205 205 205
0.1862675 -0.05271598 0.3636013 205 205 205
-0.03879119 -0.03997954 0.4131199 205 205 205
-0.02636081 -0.03985332 0.4060014 205 205 205
-0.02045338 -0.04127414 0.4065338 205 205 205
-0.01398855 -0.04456662 0.4117047 205 205 205
0.015534 -0.07470058 0.4757459 205 205 205
0.01785105 -0.06365176 0.4457689 205 205 205
0.02619238 -0.04212871 0.3856101 205 205 205
0.02946864 -0.04012466 0.378872 205 205 205
0.04316491 -0.03947624 0.371116 205 205 205
0.04619643 -0.03912054 0.3688909 205 205 205
0.06384718 -0.04954548 0.3888228 205 205 205
0.07931726 -0.04335913 0.3668271 205 205 205
0.08036809 -0.04341308 0.3665828 205 205 205
0.08161523 -0.04384195 0.36724 205 205 205
0.08307005 -0.04464624 0.3687958 205 205 205
0.09808028 -0.05035019 0.3782665 205 205 205
0.1026565 -0.05231018 0.3817682 205 205 205
0.1069839 -0.05537482 0.3882081 205 205 205
0.1342168 -0.06896812 0.4143635 205 205 205
0.1295663 -0.05632751 0.3835717 205 205 205
0.1375296 -0.05366056 0.3745205 205 205 205
0.1407764 -0.05229133 0.3701693 205 205 205
0.1418576 -0.05222582 0.3697109 205 205 205
0.1454848 -0.05239001 0.369153 205 205 205
0.1593809 -0.05535123 0.3729977 205 205 205
0.1717363 -0.05743521 0.3751906 205 205 205
0.1770978 -0.05766056 0.3745061 205 205 205
0.1797866 -0.05775519 0.3741307 205 205 205
0.1850409 -0.0587901 0.3755114 205 205 205
0.1866434 -0.05900544 0.3756901 205 205 205
0.1884884 -0.05744367 0.3714605 205 205 205
0.1871477 -0.05457725 0.3647272 205 205 205
-0.03380667 -0.03949929 0.4057305 205 205 205
-0.03224563 -0.0391597 0.4040161 205 205 205
-0.02300674 -0.04182388 0.40591 205 205 205
-0.01617628 -0.04415238 0.4083236 205 205 205
-0.01284358 -0.04563006 0.4104089 205 205 205
-0.009135732 -0.05008045 0.4199801 205 205 205
0.01006887 -0.08205156 0.4930815 205 205 205
0.01284737 -0.07097203 0.4631514 205 205 205
0.02713845 -0.04117801 0.3795488 205 205 205
0.02821938 -0.04062014 0.3776174 205 205 205
0.0314172 -0.04000955 0.3746017 205 205 205
0.03566681 -0.04024576 0.3733277 205 205 205
0.04935739 -0.04121013 0.3699581 205 205 205
0.06832577 -0.0429487 0.3668541 205 205 205
0.06952992 -0.04340268 0.36756 205 205 205
0.07812196 -0.04431094 0.3666766 205 205 205
0.08003223 -0.04404058 0.3652871 205 205 205
0.0897225 -0.04668193 0.3685927 205 205 205
0.1058629 -0.05344261 0.3803461 205 205 205
0.1346423 -0.0725328 0.4195435 205 205 205
0.1286668 -0.06215802 0.3952018 205 205 205
0.1303316 -0.05585326 0.3788431 205 205 205
0.1351863 -0.05486843 0.3749752 205 205 205
0.1417196 -0.05331593 0.3692847 205 205 205
0.1468226 -0.05378604 0.3690872 205 205 205
0.153865 -0.05487875 0.369965 205 205 205
0.1592425 -0.05647792 0.3725567 205 205 205
0.1603404 -0.05637684 0.372033 205 205 205
0.1638377 -0.05729367 0.3734287 205 205 205
0.1653796 -0.05755915 0.3737051 205 205 205
0.1669265 -0.05782138 0.3739744 205 205 205
0.1807567 -0.05877547 0.3730805 205 205 205
0.1823431 -0.059002 0.3732766 205 205 205
0.1860175 -0.05981391 0.3744374 205 205 205
0.1901183 -0.0570208 0.3667798 205 205 205
-0.03380197 -0.04028296 0.4043787 205 205 205
-0.01594847 -0.04425674 0.405099 205 205 205
-0.01503477 -0.04520301 0.4070374 205 205 205
-0.01098127 -0.04831336 0.4128941 205 205 205
-0.009995465 -0.04926292 0.4148151 205 205 205
0.005282266 -0.08196262 0.4907264 205 205 205
0.01758046 -0.04870689 0.4000669 205 205 205
0.01886285 -0.04746326 0.3962978 205 205 205
0.03231126 -0.04079982 0.3732002 205 205 205
0.03973084 -0.04144138 0.3716078 205 205 205
0.04074326 -0.04120521 0.3705715 205 205 205
0.04687208 -0.04084602 0.3670681 205 205 205
0.06180226 -0.04639072 0.3751455 205 205 205
0.06607816 -0.04378904 0.3668656 205 205 205
0.06712915 -0.04386923 0.3666659 205 205 205
0.08723401 -0.04724552 0.3678446 205 205 205
0.09815242 -0.05135408 0.3744499 205 205 205
0.1035549 -0.05297096 0.3767157 205 205 205
0.1112897 -0.05609946 0.3820502 205 205 205
0.1166933 -0.06034856 0.3909693 205 205 205
0.1285795 -0.06958618 0.4103421 205 205 205
0.132073 -0.05649503 0.376696 205 205 205
0.1365056 -0.05630191 0.3749495 205 205 205
0.138701 -0.0549789 0.371064 205 205 205
0.1394152 -0.05453371 0.3697675 205 205 205
0.1415806 -0.05440417 0.3688545 205 205 205
0.1763536 -0.0596002 0.3727931 205 205 205
0.1909987 -0.05891262 0.3678793 205 205 205
-0.03576696 -0.04206005 0.406577 205 205 205
-0.03399263 -0.04138559 0.4039494 205 205 205
-0.03262496 -0.0413609 0.4031638 205 205 205
-0.02557765 -0.04313208 0.4039077 205 205 205
-0.0109314 -0.04875864 0.410588 205 205 205
-0.009954176 -0.04971416 0.4125056 205 205 205
0.02128759 -0.04381654 0.3827515 205 205 205
0.02242475 -0.0432643 0.3808415 205 205 205
0.02464468 -0.04251284 0.3779425 205 205 205
0.02681794 -0.04211349 0.3759607 205 205 205
0.03108733 -0.04164498 0.3728868 205 205 205
0.03953054 -0.04206328 0.3702884 205 205 205
0.06085941 -0.05181015 0.3861039 205 205 205
0.06222714 -0.04597622 0.3708929 205 205 205
0.07572516 -0.04620254 0.3663536 205 205 205
0.08203744 -0.04653351 0.3648977 205 205 205
0.08644557 -0.04709814 0.3647515 205 205 205
0.08854523 -0.04717281 0.364207 205 205 205
0.0941573 -0.04963258 0.368415 205 205 205
0.1083618 -0.05485469 0.3766961 205 205 205
0.1341474 -0.0575061 0.3753897 205 205 205
0.1432114 -0.05496407 0.3666562 205 205 205
0.1550903 -0.05738378 0.3694036 205 205 205
0.1570199 -0.0580565 0.3705379 205 205 205
0.1677517 -0.05998551 0.3725157 205 205 205
0.1697538 -0.06062929 0.3735778 205 205 205
0.1793691 -0.06123361 0.3727521 205 205 205
0.1852506 -0.06177969 0.3727154 205 205 205
0.1880766 -0.06093489 0.3700763 205 205 205
0.1912813 -0.06135797 0.370381 205 205 205
0.1873954 -0.05380633 0.3533289 205 205 205
-0.01941581 -0.04461905 0.4011956 205 205 205
-0.0128973 -0.04761566 0.405373 205 205 205
-0.005415603 -0.05709621 0.4252923 205 205 205
0.003591547 -0.05850321 0.4244934 205 205 205
0.00513423 -0.05730217 0.4207731 205 205 205
0.008484093 -0.05270285 0.4077381 205 205 205
0.01136172 -0.04987139 0.3993388 205 205 205
0.01272508 -0.04862475 0.3955988 205 205 205
0.01528012 -0.04683911 0.3899685 205 205 205
0.02448245 -0.04352612 0.3775389 205 205 205
0.04043481 -0.04318999 0.3697833 205 205 205
0.04144101 -0.04294381 0.3687467 205 205 205
0.04243936 -0.0426945 0.3677073 205 205 205
0.04545532 -0.04230916 0.3654946 205 205 205
0.04761644 -0.04293003 0.3661537 205 205 205
0.06041011 -0.04834309 0.3745128 205 205 205
0.06592388 -0.04616895 0.3669822 205 205 205
0.06697925 -0.0462496 0.3667816 205 205 205
0.07274131 -0.04778935 0.3684428 205 205 205
0.07699179 -0.04804787 0.3675227 205 205 205
0.0778693 -0.04771576 0.3663818 205 205 205
0.08294228 -0.04758372 0.3642394 205 205 205
0.08840144 -0.04817938 0.3638022 205 205 205
0.09247695 -0.04984684 0.3665167 205 205 205
0.09663508 -0.0514961 0.369174 205 205 205
0.1076642 -0.055142 0.3745083 205 205 205
0.1090412 -0.05553809 0.3750373 205 205 205
0.1154909 -0.05827923 0.3797062 205 205 205
0.120376 -0.0602098 0.3829059 205 205 205
0.1266617 -0.05806803 0.3757803 205 205 205
0.1299862 -0.05795639 0.3745295 205 205 205
0.1314361 -0.05830671 0.3749579 205 205 205
0.1325435 -0.05826192 0.3745283 205 205 205
0.1402163 -0.05664146 0.3684398 205 205 205
0.1409181 -0.05618431 0.3671435 205 205 205
0.1460081 -0.05667409 0.3669443 205 205 205
0.1572983 -0.05955812 0.3709075 205 205 205
0.1718287 -0.06152534 0.3719881 205 205 205
0.173852 -0.06216508 0.3730222 205 205 205
0.1839962 -0.06309589 0.3728547 205 205 205
0.1851088 -0.0629442 0.3722434 205 205 205
0.1862192 -0.06278988 0.3716283 205 205 205
0.1868341 -0.06225368 0.3702267 205 205 205
0.1884331 -0.0624733 0.3703871 205 205 205
-0.03065924 -0.04415622 0.4025574 205 205 205
-0.02077194 -0.04543377 0.4006681 205 205 205
-0.01505273 -0.04714049 0.4020101 205 205 205
-0.008776236 -0.0511812 0.4088692 205 205 205
-0.002920793 -0.05315913 0.4109197 205 205 205
0.002429885 -0.05195777 0.4054261 205 205 205
0.007730498 -0.0499521 0.3980061 205 205 205
0.009137882 -0.04870625 0.3942833 205 205 205
0.01770682 -0.04458143 0.3801951 205 205 205
0.02324713 -0.04399166 0.3762597 205 205 205
0.02433908 -0.04378921 0.3752767 205 205 205
0.03504037 -0.04424006 0.3717429 205 205 205
0.03717494 -0.04452854 0.3715483 205 205 205
0.03824214 -0.04466948 0.3714455 205 205 205
0.04333704 -0.04380552 0.3671906 205 205 205
0.06485528 -0.04747445 0.3676848 205 205 205
0.06591524 -0.04755772 0.3674871 205 205 205
0.06697474 -0.04763874 0.3672857 205 205 205
0.07152744 -0.04872715 0.3682547 205 205 205
0.07772179 -0.04872047 0.3659737 205 205 205
0.08174658 -0.0485376 0.3640877 205 205 205
0.08279671 -0.0485849 0.3638324 205 205 205
0.09493332 -0.05171263 0.3672853 205 205 205
0.1069676 -0.05541293 0.3723223 205 205 205
0.1195175 -0.05892097 0.3768702 205 205 205
0.1236453 -0.05842944 0.3744304 205 205 205
0.1371809 -0.05830476 0.3701925 205 205 205
0.1379028 -0.05785032 0.3689027 205 205 205
0.1526233 -0.05978031 0.3695111 205 205 205
0.1563155 -0.05989113 0.368813 205 205 205
0.1582527 -0.0605742 0.369933 205 205 205
0.1770347 -0.0629105 0.370813 205 205 205
0.1797175 -0.06301441 0.3704261 205 205 205
0.1813002 -0.06325411 0.3706187 205 205 205
0.190394 -0.06423542 0.3708404 205 205 205
-0.03594321 -0.04471142 0.4034122 205 205 205
-0.02732288 -0.04613788 0.4024782 205 205 205
-0.02313254 -0.04561494 0.3991103 205 205 205
-0.02196795 -0.04589516 0.3992091 205 205 205
-0.01101397 -0.05071072 0.4055293 205 205 205
-0.008622815 -0.05122757 0.4056348 205 205 205
-0.004826074 -0.05126307 0.4039077 205 205 205
0.02741083 -0.0445337 0.3728284 205 205 205
0.02954442 -0.04447363 0.3717599 205 205 205
0.04118337 -0.04530146 0.3688665 205 205 205
0.04324249 -0.04517447 0.3677093 205 205 205
0.04535261 -0.04542533 0.3674584 205 205 205
0.04859499 -0.04617495 0.3679725 205 205 205
0.06045119 -0.05156539 0.3764163 205 205 205
0.06106402 -0.0500871 0.3725863 205 205 205
0.0627111 -0.04869427 0.3685701 205 205 205
0.06576449 -0.04855641 0.3670775 205 205 205
0.07651575 -0.04966459 0.3658001 205 205 205
0.07930683 -0.04903679 0.3632799 205 205 205
0.08369998 -0.04962943 0.3631627 205 205 205
0.09148888 -0.05068235 0.3630237 205 205 205
0.09955996 -0.05361696 0.3673948 205 205 205
0.1092825 -0.05687236 0.3720657 205 205 205
0.1326532 -0.05960417 0.3715023 205 205 205
0.1395531 -0.058407 0.3667138 205 205 205
0.1406327 -0.05834026 0.3662572 205 205 205
0.1446433 -0.05891953 0.3665267 205 205 205
0.1520704 -0.06048818 0.3682321 205 205 205
0.1642297 -0.06283557 0.3706003 205 205 205
0.1746742 -0.06432659 0.3715018 205 205 205
0.192465 -0.06506488 0.3690867 205 205 205
0.1962085 -0.06586786 0.3701064 205 205 205
0.1984837 -0.06455923 0.3666083 205 205 205
-0.03338754 -0.04574025 0.4014069 205 205 205
-0.02850996 -0.04659169 0.4009939 205 205 205
-0.02581899 -0.04647729 0.3993796 205 205 205
-0.01719722 -0.04736675 0.3972729 205 205 205
0.0005458129 -0.05002947 0.3952313 205 205 205
0.005616712 -0.04871177 0.3897166 205 205 205
0.01050902 -0.04732203 0.3841383 205 205 205
0.01747562 -0.04548442 0.3765855 205 205 205
0.02295014 -0.04524004 0.3735869 205 205 205
0.03152018 -0.04577627 0.3711925 205 205 205
0.03367978 -0.04646539 0.3719412 205 205 205
0.04118036 -0.0474585 0.3712168 205 205 205
0.04320497 -0.04694002 0.3691397 205 205 205
0.04639378 -0.0473163 0.3687547 205 205 205
0.04851867 -0.04755607 0.3684799 205 205 205
0.06186565 -0.05079776 0.3710701 205 205 205
0.07385479 -0.05207979 0.3696811 205 205 205
0.07475961 -0.05174508 0.3685502 205 205 205
0.08059435 -0.05088757 0.3644091 205 205 205
0.08923836 -0.051626 0.3631739 205 205 205
0.09029103 -0.0516577 0.3628916 205 205 205
0.09808925 -0.05422626 0.3664013 205 205 205
0.1113192 -0.05792246 0.3709143 205 205 205
0.1198756 -0.05903105 0.3708898 205 205 205
0.1220622 -0.058979 0.3701055 205 205 205
0.1259961 -0.05969009 0.3706066 205 205 205
0.1281836 -0.05961311 0.3697803 205 205 205
0.1390326 -0.05908064 0.3654294 205 205 205
0.1411837 -0.05894466 0.3645158 205 205 205
0.1426434 -0.05927395 0.364884 205 205 205
0.1489385 -0.06096132 0.367114 205 205 205
0.1693846 -0.06427767 0.369537 205 205 205
0.1762771 -0.06480428 0.369069 205 205 205
0.1949512 -0.06721719 0.3702654 205 205 205
-0.02968808 -0.04703499 0.3995053 205 205 205
-0.02583473 -0.04720735 0.3980121 205 205 205
-0.01738259 -0.04844198 0.3968276 205 205 205
-0.008075468 -0.05051916 0.3973319 205 205 205
-0.006797597 -0.05040192 0.3964529 205 205 205
-0.004367143 -0.05052353 0.3956058 205 205 205
0.008107927 -0.04793995 0.3837288 205 205 205
0.01166829 -0.0470452 0.3799965 205 205 205
0.02708861 -0.04652067 0.3720043 205 205 205
0.02816034 -0.04668265 0.3719338 205 205 205
0.03029224 -0.04661147 0.3708605 205 205 205
0.03464614 -0.04838962 0.3732739 205 205 205
0.03684031 -0.0490743 0.3739956 205 205 205
0.0452406 -0.04857778 0.3693891 205 205 205
0.06251632 -0.0659363 0.4039331 205 205 205
0.06507676 -0.05247732 0.3709717 205 205 205
0.07745583 -0.0521295 0.3656222 205 205 205
0.08044523 -0.051887 0.3639892 205 205 205
0.08150073 -0.05193679 0.3637364 205 205 205
0.08592703 -0.05252023 0.3635778 205 205 205
0.09037086 -0.0530682 0.3633543 205 205 205
0.09507312 -0.05398807 0.3639458 205 205 205
0.1158313 -0.05934099 0.369866 205 205 205
0.116922 -0.05932349 0.3694893 205 205 205
0.1212721 -0.05922925 0.367946 205 205 205
0.1516356 -0.06138287 0.364356 205 205 205
0.1542074 -0.06159612 0.3641692 205 205 205
0.166141 -0.0648502 0.3685657 205 205 205
0.1692377 -0.06540564 0.3690597 205 205 205
0.1745624 -0.06568132 0.3683772 205 205 205
0.1772329 -0.06580098 0.3680031 205 205 205
0.1878563 -0.06710528 0.3684572 205 205 205
0.1971911 -0.06514531 0.3619384 205 205 205
-0.02584952 -0.04792845 0.3966434 205 205 205
-0.01354139 -0.0488534 0.3929122 205 205 205
-0.0102193 -0.04998744 0.3940137 205 205 205
-0.004235706 -0.05047981 0.3923888 205 205 205
0.01034035 -0.04824046 0.3805077 205 205 205
0.01379318 -0.04768977 0.3776814 205 205 205
0.03783882 -0.05101353 0.3753018 205 205 205
0.03893009 -0.05115613 0.3751924 205 205 205
0.04843764 -0.05073512 0.3703871 205 205 205
0.06217027 -0.05483987 0.3747499 205 205 205
0.0662783 -0.05438646 0.3721476 205 205 205
0.06938881 -0.05422255 0.370615 205 205 205
0.07371323 -0.05451348 0.3697241 205 205 205
0.07535234 -0.05341883 0.3665684 205 205 205
0.07818166 -0.05277813 0.3640606 205 205 205
0.08577791 -0.05352144 0.3631523 205 205 205
0.09022228 -0.05407295 0.3629271 205 205 205
0.09967221 -0.05589089 0.3640293 205 205 205
0.1009962 -0.05631379 0.3645827 205 205 205
0.1101577 -0.05879711 0.3674253 205 205 205
0.1172436 -0.05953747 0.3669436 205 205 205
0.1183246 -0.05951511 0.3665622 205 205 205
0.1355001 -0.06140515 0.3658646 205 205 205
0.1372909 -0.06087391 0.3641392 205 205 205
0.1980965 -0.06707374 0.3629598 205 205 205
0.1690747 -0.04216328 0.3139431 205 205 205
-0.03259622 -0.0489542 0.3992608 205 205 205
-0.01358865 -0.04954349 0.3915438 205 205 205
-0.009007477 -0.0505593 0.3917736 205 205 205
-0.004311518 -0.05116308 0.3910185 205 205 205
-0.0006870031 -0.05111557 0.3892581 205 205 205
0.003142077 -0.04989859 0.3846969 205 205 205
0.02140495 -0.04765502 0.3714632 205 205 205
0.02354826 -0.04799981 0.3713548 205 205 205
0.03767561 -0.05202275 0.3748708 205 205 205
0.03876711 -0.05216555 0.3747613 205 205 205
0.04198781 -0.05217892 0.3734957 205 205 205
0.04518404 -0.05216898 0.3721993 205 205 205
0.04727689 -0.05201497 0.371014 205 205 205
0.06543527 -0.0565463 0.374622 205 205 205
0.06653497 -0.05663304 0.3744166 205 205 205
0.08014461 -0.05388042 0.363138 205 205 205
0.08436423 -0.054066 0.3621048 205 205 205
0.09007286 -0.05507585 0.3624961 205 205 205
0.1072836 -0.05901616 0.3659483 205 205 205
0.1174019 -0.0610003 0.3673481 205 205 205
0.118487 -0.06097773 0.3669654 205 205 205
0.1217343 -0.06089545 0.3657957 205 205 205
0.1224873 -0.06044853 0.3645492 205 205 205
0.1346247 -0.06164555 0.3637344 205 205 205
0.1418202 -0.0620742 0.3626864 205 205 205
0.1472984 -0.06299175 0.3632615 205 205 205
0.1498562 -0.0632281 0.3631049 205 205 205
0.1643032 -0.06679781 0.3673492 205 205 205
0.1720559 -0.06820994 0.3685521 205 205 205
0.1774064 -0.06847087 0.3678135 205 205 205
0.1918777 -0.06970288 0.3671121 205 205 205
0.194597 -0.06974976 0.3665906 205 205 205
0.1978378 -0.07018002 0.3668047 205 205 205
-0.03670493 -0.0498258 0.4002166 205 205 205
-0.03415522 -0.05008809 0.3995805 205 205 205
-0.03278785 -0.05003515 0.3987989 205 205 205
-0.03007303 -0.04991649 0.3972209 205 205 205
-0.02506579 -0.0503558 0.3958378 205 205 205
-0.02274325 -0.05092163 0.3960361 205 205 205
-0.01008605 -0.05061414 0.3894325 205 205 205
-0.007925299 -0.05148653 0.3904494 205 205 205
-0.003041051 -0.0513162 0.3878389 205 205 205
-0.0006774943 -0.05140055 0.3869689 205 205 205
0.01350376 -0.04931207 0.3759007 205 205 205
0.01680988 -0.0494912 0.3748887 205 205 205
0.01792894 -0.04928391 0.3739313 205 205 205
0.02229564 -0.04920971 0.3719044 205 205 205
0.02767585 -0.0500485 0.3715855 205 205 205
0.02875216 -0.0502096 0.3715106 205 205 205
0.03198137 -0.0506795 0.3712636 205 205 205
0.03307943 -0.05123258 0.3720898 205 205 205
0.03529878 -0.05233524 0.3737289 205 205 205
0.03642 -0.05288479 0.3745419 205 205 205
0.03860351 -0.0531731 0.3743262 205 205 205
0.04834717 -0.05394989 0.3722606 205 205 205
0.06458542 -0.06234258 0.3854034 205 205 205
0.09403681 -0.0578324 0.3646965 205 205 205
0.1004367 -0.05793383 0.3628306 205 205 205
0.1071323 -0.0600486 0.3654991 205 205 205
0.1095696 -0.06045886 0.3656627 205 205 205
0.1177125 -0.06118978 0.3648024 205 205 205
0.1223376 -0.06149355 0.364094 205 205 205
0.1294636 -0.06208312 0.3633226 205 205 205
0.1416723 -0.06313729 0.3622226 205 205 205
0.1571941 -0.06588311 0.3641656 205 205 205
0.1591345 -0.06660107 0.3652556 205 205 205
0.1842166 -0.07007026 0.3666548 205 205 205
0.1853204 -0.06991127 0.366041 205 205 205
0.1885148 -0.07039151 0.3663393 205 205 205
-0.03924726 -0.05028026 0.3994554 205 205 205
-0.0316182 -0.05105394 0.3975473 205 205 205
-0.02641445 -0.05113696 0.3952709 205 205 205
-0.009006892 -0.05153028 0.3881124 205 205 205
-0.00559813 -0.05226298 0.38824 205 205 205
0.006515194 -0.0506642 0.3792241 205 205 205
0.02105486 -0.05002291 0.371527 205 205 205
0.02428286 -0.05054028 0.3713573 205 205 205
0.02751191 -0.05103765 0.3711543 205 205 205
0.03293701 -0.05263096 0.3725705 205 205 205
0.03516332 -0.05374228 0.3742056 205 205 205
0.03731085 -0.05362897 0.3730842 205 205 205
0.07449318 -0.05803479 0.3690682 205 205 205
0.07630898 -0.05732296 0.3668103 205 205 205
0.08215136 -0.05638472 0.362647 205 205 205
0.08447413 -0.05689446 0.3630044 205 205 205
0.09495363 -0.05886852 0.3639493 205 205 205
0.1005446 -0.05936936 0.363254 205 205 205
0.1129445 -0.06188368 0.3649863 205 205 205
0.1150998 -0.06185054 0.364247 205 205 205
0.1175612 -0.06222989 0.3643446 205 205 205
0.1197138 -0.06217722 0.3635738 205 205 205
0.1257456 -0.06284581 0.363268 205 205 205
0.1419075 -0.06461725 0.3625776 205 205 205
0.1440591 -0.06446343 0.36164 205 205 205
0.1532015 -0.06551185 0.3614796 205 205 205
0.1600747 -0.06758881 0.3642451 205 205 205
0.1620319 -0.06830632 0.3653146 205 205 205
0.1651004 -0.06890158 0.3658293 205 205 205
0.1666421 -0.06919421 0.366076 205 205 205
0.1681889 -0.06948343 0.3663155 205 205 205
0.1692891 -0.06935661 0.3657567 205 205 205
0.1728589 -0.07033055 0.3669908 205 205 205
0.1755311 -0.070467 0.3666207 205 205 205
0.178681 -0.07100116 0.367009 205 205 205
0.180263 -0.07126292 0.3671921 205 205 205
0.1917305 -0.06115348 0.34256 205 205 205
-0.02910512 -0.05198876 0.395495 205 205 205
-0.02642754 -0.05183255 0.3938926 205 205 205
-0.02527096 -0.05211896 0.3939969 205 205 205
-0.01358756 -0.05118088 0.3865168 205 205 205
-0.001867869 -0.05208121 0.3832913 205 205 205
0.008549815 -0.05209091 0.3787664 205 205 205
0.01643644 -0.05188246 0.3749331 205 205 205
0.01752719 -0.05206887 0.3748942 205 205 205
0.01867792 -0.05145259 0.3730199 205 205 205
0.02518761 -0.05209909 0.3717734 205 205 205
0.04165324 -0.05642341 0.3749112 205 205 205
0.04391114 -0.0571046 0.3755645 205 205 205
0.07264415 -0.06017629 0.3717594 205 205 205
0.07937514 -0.05850013 0.3656274 205 205 205
0.08346027 -0.0582732 0.3637105 205 205 205
0.0866557 -0.05839649 0.3628997 205 205 205
0.09266037 -0.05983225 0.3641008 205 205 205
0.09611233 -0.06032617 0.3640662 205 205 205
0.09800352 -0.05993386 0.3625726 205 205 205
0.1017217 -0.06081871 0.3633445 205 205 205
0.1054754 -0.06168246 0.3640702 205 205 205
0.1255943 -0.06388995 0.3628033 205 205 205
0.1298861 -0.06370489 0.3611361 205 205 205
0.1366943 -0.06511188 0.3622812 205 205 205
0.1413732 -0.06525744 0.3612829 205 205 205
0.1513037 -0.06719838 0.3628111 205 205 205
0.1599231 -0.06868314 0.3637571 205 205 205
0.162974 -0.0692922 0.3642866 205 205 205
0.1888151 -0.07210219 0.3639311 205 205 205
0.1909192 -0.07274936 0.3648241 205 205 205
0.1925284 -0.07298315 0.3649461 205 205 205
0.193123 -0.07239708 0.3635453 205 205 205
0.1947342 -0.07262436 0.363656 205 205 205
0.1964798 -0.06684661 0.35087 205 205 205
-0.02795238 -0.05297572 0.3942263 205 205 205
-0.007995225 -0.05308279 0.3854131 205 205 205
-0.004391536 -0.05302767 0.3836968 205 205 205
-0.003164886 -0.05287253 0.3828116 205 205 205
