ply
format ascii 1.0
Comment Generated by Floating Hands
element vertex 1215
property double x
property double y
property double z
property uchar red
property uchar green
property uchar blue
end_header
-0.1243754 -0.0009888259 0.2265512 1 0 1
-0.1226345 -0.001071602 0.2262022 1 0 1
-0.1208984 -0.001150156 0.2258457 1 0 1
-0.119167 -0.001224565 0.2254817 1 0 1
-0.1178326 -0.001490406 0.226009 1 0 1
-0.1168846 -0.001949751 0.227432 1 0 1
-0.1147723 -0.001816955 0.2261479 1 0 1
-0.1130534 -0.001876303 0.2257567 1 0 1
-0.1117175 -0.002129802 0.2262625 1 0 1
-0.1096307 -0.001982734 0.2249522 1 0 1
-0.1075561 -0.001830287 0.2236319 1 0 1
-0.1062282 -0.002073095 0.2241183 1 0 1
-0.1045345 -0.002112263 0.2236903 1 0 1
-0.102486 -0.001945887 0.2223443 1 0 1
-0.1011628 -0.002178626 0.2228128 1 0 1
-0.1001905 -0.002611511 0.2241902 1 0 1
-0.09851046 -0.00263613 0.2237359 1 0 1
-0.09683572 -0.002656824 0.2232746 1 0 1
-0.09585045 -0.003082902 0.2246404 1 0 1
-0.09451766 -0.003302208 0.2250856 1 0 1
-0.09251326 -0.003107265 0.2236871 1 0 1
-0.09151517 -0.003526427 0.2250413 1 0 1
-0.08985283 -0.003530197 0.2245494 1 0 1
-0.08819591 -0.003530117 0.2240505 1 0 1
-0.08686488 -0.00373433 0.2244688 1 0 1
-0.08521538 -0.003727223 0.2239572 1 0 1
-0.08388447 -0.003925529 0.2243651 1 0 1
-0.08255186 -0.004121149 0.2247682 1 0 1
-0.08091181 -0.004103879 0.2242382 1 0 1
-0.07897532 -0.003872121 0.2227715 1 0 1
-0.07764868 -0.004058211 0.2231576 1 0 1
-0.07661517 -0.0044534 0.2244708 1 0 1
-0.07528162 -0.00463464 0.2248485 1 0 1
-0.07365908 -0.004600463 0.2242876 1 0 1
-0.07260977 -0.004989167 0.2255899 1 0 1
-0.07155152 -0.005376132 0.2268895 1 0 1
-0.07020803 -0.005547199 0.2272495 1 0 1
-0.06886306 -0.005715556 0.2276049 1 0 1
-0.0677855 -0.006096405 0.2288943 1 0 1
-0.06643382 -0.006259849 0.2292412 1 0 1
-0.06508071 -0.006420596 0.2295834 1 0 1
-0.06372615 -0.006578704 0.2299208 1 0 1
-0.06262423 -0.006950947 0.231196 1 0 1
-0.06201426 -0.007755874 0.2343551 1 0 1
-0.06064061 -0.007907512 0.2346819 1 0 1
-0.0597514 -0.008492601 0.2368942 1 0 1
-0.05884595 -0.009076598 0.2391053 1 0 1
-0.0579242 -0.009659328 0.2413148 1 0 1
-0.05652272 -0.009802336 0.2416273 1 0 1
-0.05580389 -0.01060148 0.2447807 1 0 1
-0.05483704 -0.01118003 0.2469845 1 0 1
-0.05341293 -0.01131653 0.2472864 1 0 1
-0.05263777 -0.01211229 0.250436 1 0 1
-0.05141287 -0.01246521 0.2516819 1 0 1
-0.04996995 -0.01259458 0.2519718 1 0 1
-0.0489368 -0.01316451 0.2541631 1 0 1
0.004916701 -0.01262274 0.2474747 1 0 1
0.006409398 -0.0124137 0.2465965 1 0 1
0.007894778 -0.01220173 0.2457129 1 0 1
0.009372846 -0.01198697 0.2448239 1 0 1
0.01073741 -0.01222688 0.2458735 1 0 1
0.01215923 -0.01223526 0.2459463 1 0 1
0.0136721 -0.01178321 0.2440694 1 0 1
0.01504525 -0.01201483 0.2451045 1 0 1
0.01650172 -0.01178608 0.2441896 1 0 1
0.01795074 -0.01155453 0.2432694 1 0 1
0.01936226 -0.01154904 0.2433171 1 0 1
0.020774 -0.01154079 0.2433597 1 0 1
0.02220817 -0.01130102 0.2424242 1 0 1
0.0236348 -0.01105862 0.2414837 1 0 1
0.02505391 -0.01081348 0.240538 1 0 1
0.02646538 -0.01056576 0.2395874 1 0 1
0.02785537 -0.01077249 0.2405786 1 0 1
0.02925622 -0.01074788 0.2405916 1 0 1
0.03065712 -0.01072055 0.2405997 1 0 1
0.03206262 -0.01091877 0.2415765 1 0 1
0.03347581 -0.01111409 0.2425483 1 0 1
0.03488438 -0.01107834 0.2425417 1 0 1
0.03632522 -0.01149592 0.2444771 1 0 1
0.03774137 -0.01145441 0.2444605 1 0 1
0.03915743 -0.01141013 0.244439 1 0 1
0.04057338 -0.01136311 0.2444125 1 0 1
0.04202077 -0.01154086 0.2453543 1 0 1
0.04340487 -0.01126072 0.2443446 1 0 1
0.04470262 -0.01052363 0.2413841 1 0 1
0.04606326 -0.01023888 0.2403652 1 0 1
0.0698593 -0.006060519 0.2270826 1 0 1
0.07166973 -0.006845304 0.2308202 1 0 1
0.07315066 -0.006957918 0.2316472 1 0 1
0.07426778 -0.006401121 0.229567 1 0 1
0.07524151 -0.005621205 0.2265171 1 0 1
0.07619168 -0.004840577 0.223465 1 0 1
0.07725335 -0.004280458 0.2213767 1 0 1
0.07829911 -0.003719098 0.2192855 1 0 1
0.07961434 -0.003597186 0.2191215 1 0 1
0.08092891 -0.003472726 0.2189528 1 0 1
0.08224274 -0.003345645 0.2187795 1 0 1
0.08340167 -0.002996796 0.2176382 1 0 1
0.08471018 -0.002864949 0.2174562 1 0 1
0.08617965 -0.002949014 0.2182319 1 0 1
0.08715928 -0.002375481 0.2161165 1 0 1
0.08846162 -0.0022363 0.2159213 1 0 1
0.08993622 -0.002311851 0.2166821 1 0 1
0.09124066 -0.002167107 0.216477 1 0 1
0.09254421 -0.002019808 0.2162673 1 0 1
0.09403139 -0.002085919 0.2170119 1 0 1
0.09533689 -0.001933054 0.2167924 1 0 1
0.09664152 -0.001777576 0.2165684 1 0 1
0.098141 -0.001834155 0.2172965 1 0 1
0.09924786 -0.001458936 0.2161063 1 0 1
0.1003461 -0.001082086 0.214913 1 0 1
0.1016431 -0.0009167898 0.2146712 1 0 1
0.102939 -0.0007489447 0.2144248 1 0 1
0.1042338 -0.0005785039 0.2141738 1 0 1
0.1055276 -0.0004055474 0.2139183 1 0 1
0.1068203 -0.0002299625 0.2136581 1 0 1
0.1081119 -5.184981E-05 0.2133934 1 0 1
0.1094025 0.0001288465 0.2131241 1 0 1
0.1109253 0.0001024227 0.2137997 1 0 1
0.1124545 7.974589E-05 0.2144691 1 0 1
0.114231 -0.0001478566 0.2160801 1 0 1
0.1157765 -0.0001627346 0.2167363 1 0 1
0.1170799 3.357473E-05 0.2164399 1 0 1
0.1188863 -0.0001811903 0.2180294 1 0 1
0.1199387 0.0002277277 0.2167775 1 0 1
0.1215016 0.0002267337 0.2174099 1 0 1
0.1230707 0.0002295238 0.2180358 1 0 1
0.1249129 3.159143E-05 0.219597 1 0 1
0.1262271 0.0002464797 0.2192681 1 0 1
0.1278144 0.0002607785 0.2198745 1 0 1
0.1291296 0.0004815837 0.2195353 1 0 1
0.1307252 0.0005029608 0.2201294 1 0 1
0.1323269 0.0005282931 0.2207168 1 0 1
0.1342237 0.0003567862 0.2222336 1 0 1
0.1361338 0.0001905402 0.2237415 1 0 1
0.1380571 2.958485E-05 0.2252406 1 0 1
0.1396933 7.274692E-05 0.225798 1 0 1
0.1413354 0.0001199433 0.2263484 1 0 1
0.1429832 0.000171242 0.2268919 1 0 1
-0.1000573 0.01591913 0.1481354 1 0 1
-0.1311604 0.001593735 0.2137482 1 0 1
-0.1359024 -0.001374465 0.2266653 1 0 1
-0.1354171 -0.00205825 0.2290184 1 0 1
-0.1344917 -0.002549595 0.2304878 1 0 1
-0.1331365 -0.002846175 0.2310689 1 0 1
-0.1305284 -0.002557195 0.2289813 1 0 1
-0.1283522 -0.002455964 0.2277695 1 0 1
-0.1261877 -0.002348955 0.2265471 1 0 1
-0.1236285 -0.002039762 0.2244218 1 0 1
-0.121491 -0.001920687 0.223177 1 0 1
-0.1197646 -0.001993851 0.2228169 1 0 1
-0.118043 -0.002062923 0.2224494 1 0 1
-0.1171108 -0.002526516 0.2238704 1 0 1
-0.1161693 -0.002988814 0.2252895 1 0 1
-0.1144482 -0.003048342 0.2249051 1 0 1
-0.1127321 -0.003103701 0.2245133 1 0 1
-0.1110209 -0.003155008 0.2241141 1 0 1
-0.1093148 -0.00320227 0.2237076 1 0 1
-0.1072428 -0.003042103 0.2223876 1 0 1
-0.1062851 -0.003488794 0.22378 1 0 1
-0.1045907 -0.003524607 0.2233528 1 0 1
-0.1029014 -0.003556499 0.2229185 1 0 1
-0.1015739 -0.003790356 0.2233881 1 0 1
-0.1002445 -0.00402156 0.2238531 1 0 1
-0.09856364 -0.004042868 0.2233997 1 0 1
-0.0968881 -0.004060192 0.2229391 1 0 1
-0.09590229 -0.004490521 0.2243038 1 0 1
-0.09389161 -0.004292291 0.2229142 1 0 1
-0.09222847 -0.004298599 0.2224336 1 0 1
-0.09090213 -0.004511205 0.2228657 1 0 1
-0.08957395 -0.004721225 0.2232933 1 0 1
-0.08791993 -0.004717215 0.2227941 1 0 1
-0.08627134 -0.004709391 0.2222878 1 0 1
-0.08494516 -0.004910226 0.2226992 1 0 1
-0.08330406 -0.004895414 0.2221804 1 0 1
-0.08197808 -0.005090406 0.2225812 1 0 1
-0.0806504 -0.005282708 0.2229775 1 0 1
-0.07901888 -0.005257739 0.2224403 1 0 1
-0.07769157 -0.00544419 0.2228262 1 0 1
-0.07665747 -0.005843617 0.2241384 1 0 1
-0.07561444 -0.006241345 0.2254479 1 0 1
-0.07427496 -0.006420815 0.2258219 1 0 1
-0.07321772 -0.006814692 0.2271253 1 0 1
-0.0718714 -0.006989261 0.2274909 1 0 1
-0.07024711 -0.006943102 0.2269159 1 0 1
-0.06890145 -0.007111822 0.2272711 1 0 1
-0.0675543 -0.00727783 0.2276217 1 0 1
-0.06594031 -0.007221799 0.2270287 1 0 1
-0.06485552 -0.007601854 0.2283087 1 0 1
-0.06350399 -0.007759851 0.2286451 1 0 1
-0.06265941 -0.008356516 0.2308601 1 0 1
-0.06204904 -0.009173317 0.2340164 1 0 1
-0.06092143 -0.009546774 0.2352866 1 0 1
-0.06002802 -0.01014028 0.2374979 1 0 1
-0.0591183 -0.01073263 0.2397078 1 0 1
-0.05819228 -0.0113238 0.2419163 1 0 1
-0.05678634 -0.01146748 0.2422296 1 0 1
-0.05583525 -0.01205532 0.2444334 1 0 1
-0.05486787 -0.01264188 0.2466354 1 0 1
-0.05344302 -0.01277862 0.2469371 1 0 1
-0.05245058 -0.01336167 0.249134 1 0 1
-0.05144183 -0.01394328 0.251329 1 0 1
-0.05041682 -0.01452335 0.2535219 1 0 1
-0.04958107 -0.0153275 0.2566651 1 0 1
-0.02823744 -0.1064881 0.632852 1 0 1
0.00615067 -0.01477705 0.2501379 1 0 1
0.007773669 -0.01409625 0.2473148 1 0 1
0.009260104 -0.01387766 0.2464272 1 0 1
0.01063309 -0.0141215 0.2474764 1 0 1
0.01206327 -0.01412996 0.2475497 1 0 1
0.01362993 -0.01343749 0.2447035 1 0 1
0.01500767 -0.01367296 0.245738 1 0 1
0.01643097 -0.01367297 0.245796 1 0 1
0.0178884 -0.01343749 0.2448771 1 0 1
0.01930834 -0.01343195 0.2449251 1 0 1
0.02072842 -0.0134236 0.2449681 1 0 1
0.02219329 -0.01294727 0.2430615 1 0 1
0.02364292 -0.01246825 0.2411496 1 0 1
0.02506269 -0.01221924 0.240205 1 0 1
0.02648557 -0.01173507 0.2382827 1 0 1
0.02787246 -0.01194564 0.2392732 1 0 1
0.02927015 -0.01192103 0.2392863 1 0 1
0.03066785 -0.01189368 0.2392944 1 0 1
0.03207027 -0.01209575 0.2402703 1 0 1
0.03348033 -0.01229491 0.2412413 1 0 1
0.03489812 -0.01249114 0.2422075 1 0 1
0.03632353 -0.01268441 0.2431686 1 0 1
0.0377566 -0.01287469 0.2441247 1 0 1
0.03919727 -0.01306193 0.2450758 1 0 1
0.04061773 -0.01301463 0.2450493 1 0 1
0.04203811 -0.01296455 0.2450179 1 0 1
0.04349377 -0.01314297 0.2459537 1 0 1
0.04499628 -0.01354934 0.2478565 1 0 1
0.04647079 -0.01372139 0.2487818 1 0 1
0.04771783 -0.01273639 0.2448425 1 0 1
0.07000209 -0.00764114 0.2277319 1 0 1
0.07170125 -0.008214211 0.2304987 1 0 1
0.07318295 -0.008330388 0.2313249 1 0 1
0.07430056 -0.007765608 0.2292468 1 0 1
0.07540222 -0.00719942 0.2271654 1 0 1
0.07635654 -0.006406692 0.2241158 1 0 1
0.07742253 -0.005838223 0.222029 1 0 1
0.07861152 -0.005493062 0.2209039 1 0 1
0.07979222 -0.005145938 0.219775 1 0 1
0.08096457 -0.004797023 0.2186425 1 0 1
0.08227907 -0.004669638 0.2184694 1 0 1
0.08343852 -0.004316598 0.2173292 1 0 1
0.08474768 -0.004184445 0.2171474 1 0 1
0.08605601 -0.004049675 0.2169609 1 0 1
0.08736358 -0.003912354 0.2167698 1 0 1
0.08867036 -0.003772435 0.2165742 1 0 1
0.09014952 -0.003851026 0.2173337 1 0 1
0.09145834 -0.003705555 0.2171282 1 0 1
0.09258549 -0.00333721 0.2159597 1 0 1
0.09407341 -0.003406777 0.2167035 1 0 1
0.09537957 -0.003253528 0.2164842 1 0 1
0.09668478 -0.003097716 0.2162604 1 0 1
0.09798904 -0.002939274 0.2160319 1 0 1
0.0990926 -0.002560321 0.2148435 1 0 1
0.1005947 -0.002614696 0.2155611 1 0 1
0.1016887 -0.002231512 0.2143649 1 0 1
0.1029852 -0.002063256 0.2141187 1 0 1
0.1044955 -0.002108462 0.2148205 1 0 1
0.1057937 -0.001934534 0.2145644 1 0 1
0.1068685 -0.001543054 0.2133527 1 0 1
0.1083868 -0.001579007 0.2140384 1 0 1
0.1096817 -0.001397377 0.2137686 1 0 1
0.1107418 -0.0009996967 0.2125455 1 0 1
0.1125054 -0.001239267 0.2141629 1 0 1
0.1142827 -0.001474067 0.2157724 1 0 1
0.1158291 -0.001492226 0.2164278 1 0 1
0.117133 -0.001295461 0.2161317 1 0 1
0.1189404 -0.00151737 0.2177198 1 0 1
0.1199933 -0.001104189 0.216469 1 0 1
0.121557 -0.001108535 0.2171008 1 0 1
0.1231268 -0.001109032 0.217726 1 0 1
0.1247028 -0.001105792 0.2183448 1 0 1
0.1260139 -0.0008909723 0.2180172 1 0 1
0.1275983 -0.0008805998 0.2186239 1 0 1
0.128632 -0.0004534702 0.2173479 1 0 1
0.130221 -0.0004366267 0.2179434 1 0 1
0.1321018 -0.0006209827 0.2194683 1 0 1
0.1339959 -0.0008002138 0.2209845 1 0 1
0.1359033 -0.0009741542 0.222492 1 0 1
0.1378239 -0.001142789 0.2239907 1 0 1
0.1397577 -0.001306075 0.2254805 1 0 1
0.1414005 -0.001262123 0.2260303 1 0 1
0.143357 -0.001415249 0.2275032 1 0 1
-0.1342698 -0.001168924 0.2195644 1 0 1
-0.1381276 -0.003806192 0.2307171 1 0 1
-0.1367696 -0.004110582 0.2313106 1 0 1
-0.1345613 -0.004019126 0.2301312 1 0 1
-0.1327849 -0.004119018 0.2298265 1 0 1
-0.130179 -0.003818585 0.2277399 1 0 1
-0.1275918 -0.0035108 0.2256398 1 0 1
-0.1254333 -0.003395357 0.2244161 1 0 1
-0.1232865 -0.003274211 0.2231819 1 0 1
-0.1211514 -0.003147395 0.2219373 1 0 1
-0.1194277 -0.003216627 0.2215766 1 0 1
-0.1181048 -0.003484168 0.2221041 1 0 1
-0.1171721 -0.003952121 0.223524 1 0 1
-0.1162301 -0.004418712 0.2249419 1 0 1
-0.1145082 -0.004474983 0.2245584 1 0 1
-0.1127912 -0.004527117 0.2241673 1 0 1
-0.1110793 -0.004575168 0.2237689 1 0 1
-0.1089977 -0.004412621 0.2224593 1 0 1
-0.1072994 -0.004451879 0.2220449 1 0 1
-0.1063412 -0.004902848 0.2234361 1 0 1
-0.1046459 -0.004935425 0.2230098 1 0 1
-0.1029558 -0.004963979 0.2225762 1 0 1
-0.1016277 -0.005198357 0.2230457 1 0 1
-0.1002975 -0.005430051 0.2235106 1 0 1
-0.09861589 -0.005447993 0.2230579 1 0 1
-0.09693956 -0.005462016 0.2225982 1 0 1
-0.09561087 -0.005684359 0.2230466 1 0 1
-0.09394159 -0.005691158 0.2225739 1 0 1
-0.09227768 -0.005694138 0.2220941 1 0 1
-0.09095067 -0.005907252 0.2225261 1 0 1
-0.08962184 -0.006117686 0.2229536 1 0 1
-0.08796698 -0.006110262 0.2224551 1 0 1
-0.08631765 -0.006099062 0.2219498 1 0 1
-0.08467384 -0.006084022 0.2214375 1 0 1
-0.08272232 -0.00584846 0.2199938 1 0 1
-0.08140298 -0.006042782 0.2203924 1 0 1
-0.08008197 -0.006234393 0.2207864 1 0 1
-0.07875931 -0.006423422 0.2211758 1 0 1
-0.07773364 -0.006828652 0.2224894 1 0 1
-0.07669902 -0.007232282 0.2238005 1 0 1
-0.07565542 -0.007634216 0.2251091 1 0 1
-0.07431526 -0.007814054 0.225483 1 0 1
-0.07297354 -0.007991192 0.2258523 1 0 1
-0.07163024 -0.008165668 0.2262169 1 0 1
-0.07000887 -0.008115555 0.2256417 1 0 1
-0.06866624 -0.008284169 0.2259959 1 0 1
-0.06732208 -0.008450097 0.2263454 1 0 1
-0.06597649 -0.008613361 0.2266903 1 0 1
-0.06489114 -0.008997542 0.2279692 1 0 1
-0.06379694 -0.009379993 0.2292454 1 0 1
-0.06269387 -0.009760543 0.2305187 1 0 1
-0.06208309 -0.01058917 0.2336722 1 0 1
-0.06095488 -0.01096681 0.2349413 1 0 1
-0.06006092 -0.01156831 0.2371507 1 0 1
-0.05939009 -0.0123948 0.240303 1 0 1
-0.05822418 -0.01276775 0.2415653 1 0 1
-0.05704946 -0.01313866 0.2428245 1 0 1
-0.05609405 -0.0137349 0.2450271 1 0 1
-0.05534678 -0.01455746 0.2481756 1 0 1
-0.05413439 -0.01492325 0.2494272 1 0 1
-0.05313009 -0.01551532 0.2516244 1 0 1
-0.05232266 -0.0163347 0.2547697 1 0 1
-0.05001948 -0.01728249 0.2582043 1 0 1
0.005892355 -0.01716967 0.2536661 1 0 1
0.00771372 -0.01576819 0.2479376 1 0 1
0.009147795 -0.01578226 0.2480212 1 0 1
0.0105292 -0.01603002 0.24907 1 0 1
0.01196779 -0.01603846 0.2491437 1 0 1
0.01349746 -0.01557099 0.2472714 1 0 1
0.01488741 -0.01581033 0.2483055 1 0 1
0.01636065 -0.01557375 0.2473932 1 0 1
0.01782644 -0.01533439 0.2464755 1 0 1
0.0192548 -0.01532877 0.2465239 1 0 1
0.02070943 -0.01508381 0.2455959 1 0 1
0.02217882 -0.01459964 0.2436914 1 0 1
0.02363294 -0.01411284 0.2417815 1 0 1
0.02505721 -0.01385983 0.2408379 1 0 1
0.02648459 -0.01336782 0.2389177 1 0 1
0.02788291 -0.01334584 0.2389357 1 0 1
0.02928127 -0.01332115 0.2389489 1 0 1
0.03067969 -0.01329366 0.2389571 1 0 1
0.03207343 -0.01302742 0.2379887 1 0 1
0.03348511 -0.01346647 0.2399306 1 0 1
0.03488732 -0.01343067 0.2399243 1 0 1
0.03630577 -0.01362789 0.2408846 1 0 1
0.03771176 -0.01358645 0.2408684 1 0 1
0.03916558 -0.01401332 0.2427904 1 0 1
0.04057908 -0.01396615 0.2427642 1 0 1
0.04199244 -0.01391619 0.2427331 1 0 1
0.04347664 -0.01433367 0.2446396 1 0 1
0.04497607 -0.01474778 0.2465408 1 0 1
0.0464043 -0.01468887 0.2464943 1 0 1
0.04778528 -0.0143925 0.245472 1 0 1
0.04900565 -0.0133903 0.2415325 1 0 1
0.07150055 -0.009120909 0.2282394 1 0 1
0.07297536 -0.009241265 0.2290657 1 0 1
0.07420959 -0.008898864 0.2279557 1 0 1
0.07530787 -0.008325041 0.2258769 1 0 1
0.07639018 -0.007749914 0.223795 1 0 1
0.07759192 -0.007402196 0.2226743 1 0 1
0.07864617 -0.006824163 0.2205862 1 0 1
0.07982742 -0.006472928 0.2194585 1 0 1
0.08100034 -0.00611982 0.218327 1 0 1
0.08231542 -0.005992114 0.2181541 1 0 1
0.08347543 -0.005634931 0.217015 1 0 1
0.08478519 -0.005502453 0.2168333 1 0 1
0.08625615 -0.005593492 0.2176076 1 0 1
0.08756813 -0.005455422 0.2174162 1 0 1
0.08887932 -0.00531475 0.2172201 1 0 1
0.09036302 -0.00539641 0.2179783 1 0 1
0.09149911 -0.005025678 0.2168142 1 0 1
0.09280771 -0.004877195 0.2166044 1 0 1
0.09411543 -0.004726165 0.2163899 1 0 1
0.09542219 -0.004572538 0.2161709 1 0 1
0.09653572 -0.004193612 0.2149915 1 0 1
0.09822905 -0.004479787 0.216674 1 0 1
0.09933685 -0.004096142 0.215486 1 0 1
0.1004361 -0.003710848 0.2142949 1 0 1
0.1017343 -0.003544787 0.2140535 1 0 1
0.1032426 -0.003596461 0.2147598 1 0 1
0.1043275 -0.00320485 0.213557 1 0 1
0.1056225 -0.003031052 0.2133019 1 0 1
0.1069165 -0.002854678 0.2130422 1 0 1
0.1082093 -0.002675691 0.2127779 1 0 1
0.1095011 -0.002494144 0.212509 1 0 1
0.1107917 -0.002310066 0.2122356 1 0 1
0.1123186 -0.002340049 0.2129045 1 0 1
0.1140932 -0.002582536 0.2145134 1 0 1
0.1156365 -0.002604628 0.215169 1 0 1
0.1171861 -0.002623009 0.2158183 1 0 1
0.1187419 -0.002637614 0.2164613 1 0 1
0.1200477 -0.002434596 0.2161552 1 0 1
0.1213523 -0.002228937 0.2158446 1 0 1
0.1229192 -0.002233357 0.2164701 1 0 1
0.1247595 -0.002446146 0.2180291 1 0 1
0.1263424 -0.002442254 0.2186409 1 0 1
0.1276564 -0.002223708 0.2183078 1 0 1
0.1289691 -0.002002535 0.2179702 1 0 1
0.1305626 -0.001988296 0.218564 1 0 1
0.1321621 -0.001970152 0.2191513 1 0 1
0.1334779 -0.001739743 0.2187976 1 0 1
0.1353789 -0.001922033 0.2203056 1 0 1
0.1372931 -0.002099019 0.2218049 1 0 1
0.1392206 -0.002270672 0.2232953 1 0 1
0.1414655 -0.002642575 0.2257068 1 0 1
0.143423 -0.002802691 0.2271782 1 0 1
-0.136077 -0.003388928 0.2227263 1 0 1
-0.1381977 -0.005280299 0.2303532 1 0 1
-0.1364115 -0.005385797 0.2300648 1 0 1
-0.1337814 -0.005086357 0.2280024 1 0 1
-0.1315905 -0.004980527 0.2268108 1 0 1
-0.1294111 -0.004868925 0.2256085 1 0 1
-0.1268297 -0.004548929 0.2235081 1 0 1
-0.1250873 -0.004628348 0.2231722 1 0 1
-0.1233497 -0.004703458 0.2228288 1 0 1
-0.1216169 -0.004774442 0.2224778 1 0 1
-0.1202885 -0.005046653 0.2230126 1 0 1
-0.1189578 -0.005316166 0.2235427 1 0 1
-0.1180175 -0.005789897 0.2249643 1 0 1
-0.1166789 -0.006054621 0.2254864 1 0 1
-0.1145672 -0.005900008 0.224206 1 0 1
-0.1128494 -0.005948888 0.2238158 1 0 1
-0.1111366 -0.005993679 0.2234181 1 0 1
-0.1094289 -0.006034394 0.2230131 1 0 1
-0.1077262 -0.006071061 0.2226008 1 0 1
-0.1067639 -0.006527004 0.2239923 1 0 1
-0.1050643 -0.00655693 0.2235681 1 0 1
-0.1030093 -0.006369867 0.2222284 1 0 1
-0.1020374 -0.006818338 0.2236072 1 0 1
-0.1003497 -0.0068369 0.2231625 1 0 1
-0.09866726 -0.006851511 0.2227107 1 0 1
-0.09699012 -0.006862202 0.2222517 1 0 1
-0.09531829 -0.006868959 0.2217857 1 0 1
-0.09365182 -0.006871865 0.2213125 1 0 1
-0.09199074 -0.006870847 0.2208324 1 0 1
-0.09066671 -0.007083863 0.2212632 1 0 1
-0.08901286 -0.007075707 0.2207702 1 0 1
-0.08768886 -0.007282757 0.2211905 1 0 1
-0.08604237 -0.00726761 0.2206849 1 0 1
-0.08440144 -0.007248643 0.2201724 1 0 1
-0.08245268 -0.007005312 0.2187293 1 0 1
-0.08082659 -0.006978297 0.2182019 1 0 1
-0.07981835 -0.007391016 0.2195195 1 0 1
-0.07849868 -0.00757986 0.2199077 1 0 1
-0.07747617 -0.00798881 0.2212193 1 0 1
-0.07644465 -0.00839611 0.2225283 1 0 1
-0.07540421 -0.008801766 0.2238348 1 0 1
-0.07406706 -0.008981505 0.2242076 1 0 1
-0.07301237 -0.009383226 0.2255078 1 0 1
-0.0719488 -0.009783282 0.2268054 1 0 1
-0.07032295 -0.009730181 0.2262321 1 0 1
-0.06897596 -0.009899608 0.2265872 1 0 1
-0.06762742 -0.01006635 0.2269376 1 0 1
-0.06627745 -0.01023036 0.2272833 1 0 1
-0.06492599 -0.01039171 0.2276244 1 0 1
-0.06383121 -0.01077825 0.2288995 1 0 1
-0.06272757 -0.01116298 0.2301717 1 0 1
-0.06186575 -0.01177459 0.2323817 1 0 1
-0.06074067 -0.012156 0.2336489 1 0 1
-0.05984996 -0.01276506 0.2358555 1 0 1
-0.05918241 -0.01360301 0.239004 1 0 1
-0.05825534 -0.01421009 0.2412087 1 0 1
-0.05708002 -0.01458513 0.2424669 1 0 1
-0.05612406 -0.01518933 0.2446675 1 0 1
-0.05515184 -0.01579214 0.2468665 1 0 1
-0.05394256 -0.01616171 0.2481163 1 0 1
-0.05272449 -0.01652911 0.2493627 1 0 1
-0.05128442 -0.01666177 0.2496568 1 0 1
-0.04984313 -0.01679157 0.2499458 1 0 1
0.007350428 -0.01864766 0.2533969 1 0 1
0.009035927 -0.01770066 0.2496059 1 0 1
0.01058488 -0.01723125 0.2477464 1 0 1
0.01192194 -0.01772041 0.2497589 1 0 1
0.01345611 -0.01724521 0.2478887 1 0 1
0.01485064 -0.01748839 0.2489221 1 0 1
0.01629076 -0.01748836 0.2489809 1 0 1
0.01776497 -0.01724506 0.2480646 1 0 1
0.01923166 -0.01699897 0.2471431 1 0 1
0.02069083 -0.01675011 0.2462162 1 0 1
0.02218695 -0.01601787 0.2433433 1 0 1
0.02362333 -0.01576353 0.242406 1 0 1
0.02505212 -0.01550654 0.2414635 1 0 1
0.02648397 -0.01500668 0.2395453 1 0 1
0.02788684 -0.0149846 0.2395635 1 0 1
0.02928975 -0.0149597 0.2395767 1 0 1
0.03069182 -0.01469212 0.2386144 1 0 1
0.0320862 -0.01442188 0.237647 1 0 1
0.03349007 -0.01462873 0.2386164 1 0 1
0.03488915 -0.0145929 0.2386101 1 0 1
0.03628817 -0.01455439 0.2385989 1 0 1
0.03768714 -0.01451307 0.2385829 1 0 1
0.03913401 -0.01494774 0.2405032 1 0 1
0.04054045 -0.01490065 0.2404772 1 0 1
0.0419785 -0.01508992 0.2414169 1 0 1
0.04345966 -0.0155151 0.2433217 1 0 1
0.04491664 -0.01569808 0.244251 1 0 1
0.04633788 -0.0156393 0.2442049 1 0 1
0.04766466 -0.01510077 0.2422139 1 0 1
0.04887389 -0.01408356 0.2382788 1 0 1
0.04983288 -0.01211247 0.2304613 1 0 1
0.05031938 -0.008476099 0.2158553 1 0 1
0.07129961 -0.01001071 0.2259785 1 0 1
0.07288758 -0.01036909 0.2277696 1 0 1
0.07411852 -0.0100229 0.2266611 1 0 1
0.07521345 -0.009441457 0.2245848 1 0 1
0.07642399 -0.009091574 0.2234689 1 0 1
0.07762623 -0.008739745 0.2223494 1 0 1
0.07868094 -0.008153694 0.2202633 1 0 1
0.07986269 -0.007798331 0.2191366 1 0 1
0.08118297 -0.007672589 0.218968 1 0 1
0.08235184 -0.007313069 0.2178335 1 0 1
0.08351237 -0.006951743 0.2166955 1 0 1
0.08482271 -0.006818947 0.216514 1 0 1
0.08629445 -0.006913439 0.2172875 1 0 1
0.08760702 -0.00677508 0.2170963 1 0 1
0.08891886 -0.006634024 0.2169005 1 0 1
0.09022979 -0.006490471 0.2167001 1 0 1
0.09153986 -0.006344251 0.216495 1 0 1
0.09284908 -0.00619545 0.2162854 1 0 1
0.09415741 -0.006044006 0.2160711 1 0 1
0.09546482 -0.00589004 0.2158522 1 0 1
0.09677126 -0.005733443 0.2156287 1 0 1
0.09827304 -0.005800329 0.2163548 1 0 1
0.0991813 -0.005186896 0.2142145 1 0 1
0.1004811 -0.005022987 0.213978 1 0 1
0.1019874 -0.00508112 0.2146889 1 0 1
0.1032889 -0.00491158 0.2144424 1 0 1
0.1045894 -0.004739441 0.2141914 1 0 1
0.1058888 -0.004564707 0.2139358 1 0 1
0.1071871 -0.004387395 0.2136755 1 0 1
0.1082579 -0.003985325 0.2124623 1 0 1
0.1095503 -0.003803367 0.2121937 1 0 1
0.1108415 -0.003618831 0.2119206 1 0 1
0.1126069 -0.003872687 0.2135348 1 0 1
0.1141446 -0.003901833 0.214196 1 0 1
0.1159339 -0.004146656 0.2157953 1 0 1
0.1172391 -0.003948972 0.2154996 1 0 1
0.1187956 -0.003966912 0.2161419 1 0 1
0.1201021 -0.003763405 0.2158361 1 0 1
0.1216673 -0.003774392 0.2164666 1 0 1
0.1232387 -0.003781544 0.2170906 1 0 1
0.1245486 -0.003568964 0.216769 1 0 1
0.1261285 -0.003569038 0.217381 1 0 1
0.1279894 -0.003779921 0.2189236 1 0 1
0.1290277 -0.00334357 0.2176491 1 0 1
0.1303396 -0.00311918 0.217307 1 0 1
0.1322223 -0.003317701 0.2188289 1 0 1
0.1332489 -0.002874672 0.2175422 1 0 1
0.1351471 -0.003064638 0.2190497 1 0 1
0.1367615 -0.003038514 0.2196172 1 0 1
0.1389833 -0.003428613 0.2220384 1 0 1
0.1406167 -0.003393081 0.2225902 1 0 1
0.1431805 -0.003979766 0.2259195 1 0 1
-0.1361453 -0.004830566 0.2223644 1 0 1
-0.1374042 -0.006347677 0.2282252 1 0 1
-0.135624 -0.006448461 0.2279346 1 0 1
-0.1334241 -0.006340879 0.2267539 1 0 1
-0.1316565 -0.00643218 0.2264462 1 0 1
-0.1290588 -0.006107993 0.2243605 1 0 1
-0.1268936 -0.00598289 0.2231479 1 0 1
-0.12474 -0.005851994 0.2219246 1 0 1
-0.1230051 -0.00592321 0.2215805 1 0 1
-0.121275 -0.00599021 0.2212288 1 0 1
-0.1199494 -0.006262345 0.221762 1 0 1
-0.1186216 -0.006531687 0.2222905 1 0 1
-0.1176844 -0.007009058 0.2237096 1 0 1
-0.1155703 -0.006850806 0.2224371 1 0 1
-0.1138539 -0.006899177 0.2220523 1 0 1
-0.1121424 -0.006943462 0.22166 1 0 1
-0.110436 -0.006983624 0.2212605 1 0 1
-0.1087345 -0.007019753 0.2208537 1 0 1
-0.1074096 -0.007266584 0.2213428 1 0 1
-0.1060826 -0.007510731 0.2218273 1 0 1
-0.1047535 -0.007752131 0.2223071 1 0 1
-0.1030618 -0.007774097 0.2218751 1 0 1
-0.1013753 -0.007792094 0.2214359 1 0 1
-0.1000475 -0.008024075 0.2218992 1 0 1
-0.09871773 -0.008253409 0.222358 1 0 1
-0.09703977 -0.008260799 0.2218998 1 0 1
-0.0953672 -0.008264194 0.2214346 1 0 1
-0.09369995 -0.008263736 0.2209623 1 0 1
-0.09203806 -0.008259405 0.220483 1 0 1
-0.09071338 -0.008472832 0.2209136 1 0 1
-0.08938689 -0.008683548 0.2213397 1 0 1
-0.08773412 -0.008668828 0.2208418 1 0 1
-0.08640769 -0.00887361 0.2212573 1 0 1
-0.08444516 -0.008627912 0.2198252 1 0 1
-0.0824955 -0.0083774 0.218384 1 0 1
-0.08086866 -0.00834695 0.2178575 1 0 1
-0.0798599 -0.008763853 0.219174 1 0 1
-0.07853958 -0.008953141 0.2195621 1 0 1
-0.07751652 -0.009366276 0.2208726 1 0 1
-0.07648446 -0.009777782 0.2221805 1 0 1
-0.07544348 -0.01018764 0.223486 1 0 1
-0.07410569 -0.01036772 0.2238588 1 0 1
-0.07305046 -0.01077367 0.2251579 1 0 1
-0.07170586 -0.01094884 0.2255223 1 0 1
-0.07063645 -0.01135086 0.2268152 1 0 1
-0.06901204 -0.01129111 0.2262371 1 0 1
-0.06766287 -0.01145818 0.2265874 1 0 1
-0.06631222 -0.01162257 0.2269331 1 0 1
-0.06496012 -0.01178419 0.227274 1 0 1
-0.06360657 -0.01194316 0.2276102 1 0 1
-0.06250609 -0.01233162 0.2288806 1 0 1
-0.06164747 -0.01295083 0.2310877 1 0 1
-0.06052556 -0.01333589 0.232353 1 0 1
-0.05988133 -0.01418597 0.2354981 1 0 1
-0.05921339 -0.01503567 0.2386437 1 0 1
-0.05852159 -0.01588496 0.2417895 1 0 1
-0.05734189 -0.01626456 0.2430475 1 0 1
-0.05661 -0.01711206 0.2461919 1 0 1
-0.05562972 -0.01772358 0.2483904 1 0 1
-0.05441231 -0.01809796 0.2496409 1 0 1
-0.05340315 -0.01870632 0.251835 1 0 1
-0.05216439 -0.01907669 0.2530793 1 0 1
-0.052593 -0.02133907 0.2619096 1 0 1
-0.002245602 -0.05084579 0.3748592 1 0 1
0.01037572 -0.01964417 0.2512605 1 0 1
0.01182727 -0.01965265 0.251335 1 0 1
0.01336985 -0.0191698 0.2494672 1 0 1
0.01477279 -0.01941679 0.2505 1 0 1
0.01625896 -0.01917244 0.2495902 1 0 1
0.01773767 -0.01892525 0.2486751 1 0 1
0.01923883 -0.01843106 0.2467855 1 0 1
0.0207248 -0.01793404 0.2448903 1 0 1
0.02219547 -0.01743438 0.2429897 1 0 1
0.0236325 -0.01717617 0.2420534 1 0 1
0.02506193 -0.01691525 0.241112 1 0 1
0.02648378 -0.01665172 0.2401655 1 0 1
0.02789115 -0.01662945 0.2401838 1 0 1
0.02929861 -0.0166044 0.2401972 1 0 1
0.03070519 -0.01633274 0.2392358 1 0 1
0.03209929 -0.01581478 0.2372998 1 0 1
0.03350385 -0.01602538 0.2382683 1 0 1
0.03490357 -0.01598943 0.2382621 1 0 1
0.0363033 -0.01595073 0.238251 1 0 1
0.03770292 -0.01590929 0.2382351 1 0 1
0.03915055 -0.01635158 0.2401537 1 0 1
0.0405577 -0.01630433 0.2401278 1 0 1
0.04199647 -0.01649733 0.2410666 1 0 1
0.04347837 -0.01693003 0.2429697 1 0 1
0.04497559 -0.01735931 0.2448674 1 0 1
0.04640131 -0.01730026 0.2448213 1 0 1
0.04777971 -0.016996 0.2438012 1 0 1
0.04920119 -0.01693146 0.2437453 1 0 1
0.05051263 -0.01638018 0.2417471 1 0 1
0.05163226 -0.0151015 0.2368388 1 0 1
0.05290078 -0.0145468 0.2348327 1 0 1
0.05242682 -0.007714361 0.2076504 1 0 1
0.07144745 -0.01159764 0.2266089 1 0 1
0.07304005 -0.0119631 0.2283978 1 0 1
0.0741514 -0.01137508 0.2263266 1 0 1
0.0753746 -0.01102274 0.2252153 1 0 1
0.07658948 -0.01066846 0.2241002 1 0 1
0.07779609 -0.0103121 0.2229812 1 0 1
0.07885504 -0.009717781 0.2208968 1 0 1
0.08004113 -0.00935795 0.2197708 1 0 1
0.08121892 -0.008996188 0.2186411 1 0 1
0.08253907 -0.008867475 0.218468 1 0 1
0.08370388 -0.008501595 0.2173306 1 0 1
0.0850187 -0.008368067 0.2171488 1 0 1
0.08633274 -0.008231922 0.2169624 1 0 1
0.08764597 -0.008093162 0.2167713 1 0 1
0.08895837 -0.007951817 0.2165757 1 0 1
0.09026994 -0.00780786 0.2163754 1 0 1
0.09158067 -0.007661274 0.2161705 1 0 1
0.09289048 -0.007512157 0.2159611 1 0 1
0.0941994 -0.007360374 0.215747 1 0 1
0.09550744 -0.00720598 0.2155284 1 0 1
0.09681448 -0.00704902 0.2153051 1 0 1
0.09812059 -0.006889465 0.2150773 1 0 1
0.09922563 -0.006497856 0.2138923 1 0 1
0.100526 -0.006333597 0.2136559 1 0 1
0.102033 -0.00639517 0.2143661 1 0 1
0.1033352 -0.006225185 0.2141199 1 0 1
0.1046363 -0.006052632 0.213869 1 0 1
0.1059363 -0.005877472 0.2136136 1 0 1
0.1074579 -0.005926184 0.2143018 1 0 1
0.1083065 -0.005293445 0.2121416 1 0 1
0.1095994 -0.005111029 0.2118732 1 0 1
0.1108912 -0.004926067 0.2116003 1 0 1
0.1124197 -0.004962772 0.2122678 1 0 1
0.114196 -0.005219581 0.2138734 1 0 1
0.1157408 -0.005248371 0.2145277 1 0 1
0.1170429 -0.005050748 0.2142331 1 0 1
0.1185964 -0.005072603 0.2148756 1 0 1
0.1198997 -0.004869207 0.2145709 1 0 1
0.121462 -0.004884106 0.2152016 1 0 1
0.1230304 -0.004895147 0.2158258 1 0 1
0.1243372 -0.004682698 0.2155055 1 0 1
0.1261856 -0.004905746 0.2170549 1 0 1
0.1280474 -0.005123658 0.2185959 1 0 1
0.129365 -0.004900797 0.2182579 1 0 1
0.1309638 -0.00489247 0.2188495 1 0 1
0.1325685 -0.004880216 0.2194345 1 0 1
0.1335992 -0.004432195 0.218148 1 0 1
0.1349148 -0.004198054 0.2177902 1 0 1
0.1365262 -0.004175859 0.2183581 1 0 1
0.1384445 -0.004363507 0.2198485 1 0 1
0.1406807 -0.004758991 0.2222584 1 0 1
0.1429375 -0.00514766 0.2246572 1 0 1
-0.1366474 -0.006475933 0.2228737 1 0 1
-0.1379032 -0.008016984 0.2287299 1 0 1
-0.1361188 -0.008115463 0.2284416 1 0 1
-0.1334898 -0.007793868 0.2263829 1 0 1
-0.1317214 -0.007882073 0.2260759 1 0 1
-0.1291226 -0.007547223 0.2239929 1 0 1
-0.1265423 -0.007205049 0.2218963 1 0 1
-0.1248019 -0.007277337 0.2215605 1 0 1
-0.1230661 -0.007345374 0.2212171 1 0 1
-0.1213352 -0.007409179 0.2208662 1 0 1
-0.120009 -0.007681821 0.2213992 1 0 1
-0.1182842 -0.007737975 0.2210348 1 0 1
-0.1169571 -0.008004479 0.2215571 1 0 1
-0.1152385 -0.008053031 0.2211791 1 0 1
-0.1135248 -0.008097477 0.2207937 1 0 1
-0.1121983 -0.008354351 0.2212993 1 0 1
-0.1104911 -0.008391259 0.2209006 1 0 1
-0.1084137 -0.008206168 0.2195935 1 0 1
-0.1074632 -0.008671485 0.2209835 1 0 1
-0.1061356 -0.00891609 0.2214679 1 0 1
-0.1044415 -0.008938149 0.2210426 1 0 1
-0.1027526 -0.008956201 0.2206101 1 0 1
-0.1014261 -0.009191373 0.221078 1 0 1
-0.09974407 -0.009202114 0.2206325 1 0 1
-0.0980673 -0.009208826 0.2201798 1 0 1
-0.09674219 -0.009434716 0.2206313 1 0 1
-0.09541519 -0.00965781 0.2210781 1 0 1
-0.09374717 -0.009654023 0.2206066 1 0 1
-0.09242003 -0.009871162 0.2210429 1 0 1
-0.09109107 -0.01008563 0.2214747 1 0 1
-0.08976028 -0.01029739 0.2219017 1 0 1
-0.08810313 -0.01027982 0.2214059 1 0 1
-0.08645145 -0.01025849 0.220903 1 0 1
-0.08480535 -0.01023329 0.2203933 1 0 1
-0.08253753 -0.009747832 0.2180334 1 0 1
-0.08121992 -0.009942838 0.2184305 1 0 1
-0.07990063 -0.01013516 0.2188231 1 0 1
-0.07888234 -0.01055462 0.2201361 1 0 1
-0.07785507 -0.01097249 0.2214465 1 0 1
-0.07681881 -0.01138875 0.2227545 1 0 1
-0.07577358 -0.01180327 0.2240599 1 0 1
-0.07443146 -0.01198425 0.2244336 1 0 1
-0.07308775 -0.01216249 0.2248026 1 0 1
-0.0717425 -0.01233805 0.225167 1 0 1
-0.0703957 -0.01251088 0.2255266 1 0 1
-0.06904736 -0.01268103 0.2258815 1 0 1
-0.06769756 -0.01284843 0.2262318 1 0 1
-0.06634626 -0.01301313 0.2265774 1 0 1
-0.0652555 -0.01341026 0.2278542 1 0 1
-0.06389757 -0.01357003 0.2281913 1 0 1
-0.06279281 -0.01396301 0.2294615 1 0 1
-0.06192998 -0.0145906 0.2316675 1 0 1
-0.06080375 -0.01498025 0.2329326 1 0 1
-0.05991202 -0.01560524 0.2351352 1 0 1
-0.05924363 -0.01646674 0.2382778 1 0 1
-0.0585514 -0.01732784 0.2414206 1 0 1
-0.05737108 -0.01771152 0.2426775 1 0 1
-0.05686712 -0.01880961 0.2467627 1 0 1
-0.05588255 -0.01942947 0.2489601 1 0 1
-0.05466074 -0.01980832 0.2502103 1 0 1
-0.05364726 -0.02042494 0.2524033 1 0 1
0.01183146 -0.0211025 0.2509665 1 0 1
0.01332936 -0.02085995 0.2500684 1 0 1
0.01477834 -0.02086269 0.2501327 1 0 1
0.01630286 -0.02036639 0.2482559 1 0 1
0.0177446 -0.02036343 0.2483099 1 0 1
0.01921649 -0.02010952 0.2473905 1 0 1
0.02073298 -0.01935675 0.2445291 1 0 1
0.02220432 -0.01884932 0.2426306 1 0 1
0.02364196 -0.0185872 0.2416953 1 0 1
0.02505758 -0.01857033 0.2417237 1 0 1
0.02649454 -0.01805485 0.2398096 1 0 1
0.02790259 -0.01803255 0.239828 1 0 1
0.02931073 -0.0180074 0.2398414 1 0 1
0.0307189 -0.01797951 0.23985 1 0 1
0.03211746 -0.01745366 0.237916 1 0 1
0.03352655 -0.01766784 0.2388836 1 0 1
0.03491832 -0.01738432 0.2379086 1 0 1
0.03631872 -0.01734554 0.2378977 1 0 1
0.0376988 -0.01705677 0.2369131 1 0 1
0.03914331 -0.01750671 0.2388298 1 0 1
0.04057521 -0.01770641 0.2397728 1 0 1
0.04198289 -0.01765626 0.2397422 1 0 1
0.04346174 -0.01809668 0.2416436 1 0 1
0.04491632 -0.01828717 0.2425712 1 0 1
0.0462917 -0.01798187 0.2415573 1 0 1
0.04770637 -0.01792031 0.2415068 1 0 1
0.04922292 -0.01834793 0.2433872 1 0 1
0.05058985 -0.0180346 0.2423587 1 0 1
0.05183127 -0.01722759 0.2393905 1 0 1
0.05364547 -0.01340189 0.224738 1 0 1
0.06945 -0.01160347 0.2206204 1 0 1
0.07124624 -0.01246517 0.2243421 1 0 1
0.07283203 -0.0128386 0.2261301 1 0 1
0.07406022 -0.01248453 0.2250242 1 0 1
0.07540806 -0.01236927 0.2248766 1 0 1
0.07662349 -0.01201082 0.2237626 1 0 1
0.07783064 -0.01165035 0.2226448 1 0 1
0.07902943 -0.01128795 0.2215232 1 0 1
0.08007663 -0.01068415 0.2194376 1 0 1
0.08125491 -0.01031822 0.218309 1 0 1
0.08242478 -0.009950469 0.2171768 1 0 1
0.083741 -0.009819203 0.2169998 1 0 1
0.08489796 -0.009447346 0.2158599 1 0 1
0.08620876 -0.009311262 0.2156742 1 0 1
0.08768491 -0.00940977 0.2164411 1 0 1
0.08882805 -0.009031273 0.2152891 1 0 1
0.09013639 -0.008887401 0.2150896 1 0 1
0.09162141 -0.008976817 0.2158409 1 0 1
0.09293187 -0.008827296 0.2156316 1 0 1
0.09424138 -0.008675136 0.2154178 1 0 1
0.09555002 -0.008520406 0.2151993 1 0 1
0.0968577 -0.008363064 0.2149763 1 0 1
0.09816444 -0.008203128 0.2147486 1 0 1
0.09926989 -0.007807335 0.2135648 1 0 1
0.1005709 -0.007642629 0.2133286 1 0 1
0.1020786 -0.007707641 0.2140381 1 0 1
0.1033814 -0.007537242 0.2137921 1 0 1
0.104683 -0.007364279 0.2135415 1 0 1
0.1057645 -0.006957936 0.2123383 1 0 1
0.1072832 -0.007010537 0.2130265 1 0 1
0.1083549 -0.006600067 0.2118157 1 0 1
0.1096484 -0.006417208 0.2115475 1 0 1
0.1109408 -0.006231788 0.2112748 1 0 1
0.11247 -0.006271887 0.2119416 1 0 1
0.1137638 -0.006080688 0.211659 1 0 1
0.1155474 -0.006340912 0.2132567 1 0 1
0.1168462 -0.006143412 0.2129632 1 0 1
0.1181439 -0.005943316 0.2126651 1 0 1
0.1194403 -0.005740645 0.2123625 1 0 1
0.1209958 -0.005759979 0.2129942 1 0 1
0.1225575 -0.005775519 0.2136196 1 0 1
0.1241254 -0.005787263 0.2142385 1 0 1
0.1256993 -0.00579513 0.214851 1 0 1
0.1275547 -0.006021322 0.2163922 1 0 1
0.1291445 -0.006020821 0.2169908 1 0 1
0.1304575 -0.005795463 0.2166493 1 0 1
0.1320556 -0.005787689 0.2172355 1 0 1
0.1333695 -0.005556416 0.2168837 1 0 1
0.1349758 -0.005541374 0.2174577 1 0 1
0.1368855 -0.005740722 0.2189544 1 0 1
0.1385072 -0.005717 0.2195138 1 0 1
0.1410494 -0.006340243 0.2228485 1 0 1
0.143311 -0.006738928 0.2252437 1 0 1
-0.1354083 -0.007290179 0.2198723 1 0 1
-0.1362433 -0.008642063 0.2248407 1 0 1
-0.1353283 -0.009155813 0.2263046 1 0 1
-0.1335545 -0.009245254 0.2260062 1 0 1
-0.1317853 -0.009330231 0.2257 1 0 1
-0.1287676 -0.008771583 0.2227364 1 0 1
-0.1266039 -0.008631856 0.2215258 1 0 1
-0.1252734 -0.008915553 0.2220769 1 0 1
-0.1231262 -0.008765763 0.2208482 1 0 1
-0.1213944 -0.008826382 0.2204981 1 0 1
-0.1200676 -0.009099615 0.2210309 1 0 1
-0.1183419 -0.009152596 0.2206672 1 0 1
-0.1166212 -0.009201378 0.2202961 1 0 1
-0.1149053 -0.009245986 0.2199176 1 0 1
-0.1131944 -0.0092865 0.2195317 1 0 1
-0.1114885 -0.009322882 0.2191383 1 0 1
-0.1101664 -0.009576212 0.2196364 1 0 1
-0.1084669 -0.009605125 0.2192299 1 0 1
-0.1071443 -0.009852344 0.2197174 1 0 1
-0.1058196 -0.01009682 0.2202003 1 0 1
-0.1044929 -0.01033862 0.2206785 1 0 1
-0.1028032 -0.01035334 0.2202469 1 0 1
-0.1011187 -0.01036409 0.2198081 1 0 1
-0.09979323 -0.01059641 0.2202699 1 0 1
-0.09811567 -0.01059987 0.2198181 1 0 1
-0.09644343 -0.01059932 0.2193591 1 0 1
-0.09511939 -0.01082233 0.2198046 1 0 1
-0.09345423 -0.01081461 0.2193328 1 0 1
-0.0921301 -0.01103161 0.2197679 1 0 1
-0.09113616 -0.01147518 0.2211133 1 0 1
-0.08947636 -0.01145755 0.2206241 1 0 1
-0.08782207 -0.01143605 0.2201279 1 0 1
-0.08649436 -0.01164171 0.2205433 1 0 1
-0.08453007 -0.01138166 0.2191148 1 0 1
-0.08257868 -0.01111673 0.2176773 1 0 1
-0.08095035 -0.01107951 0.2171526 1 0 1
-0.07994054 -0.01150482 0.2184669 1 0 1
-0.07861897 -0.01169486 0.2188548 1 0 1
-0.07759484 -0.01211642 0.2201631 1 0 1
-0.07656173 -0.01253629 0.221469 1 0 1
-0.07551966 -0.01295456 0.2227723 1 0 1
-0.07418058 -0.01313539 0.2231448 1 0 1
-0.07312427 -0.0135497 0.2244419 1 0 1
-0.07149773 -0.01348893 0.223876 1 0 1
-0.07015397 -0.01366164 0.2242345 1 0 1
-0.06908195 -0.01406928 0.2255206 1 0 1
-0.06773148 -0.01423707 0.2258707 1 0 1
-0.06664536 -0.01464059 0.2271503 1 0 1
-0.06555033 -0.01504234 0.228427 1 0 1
-0.0644464 -0.01544225 0.2297008 1 0 1
-0.06307895 -0.01560046 0.230035 1 0 1
-0.0622119 -0.01623642 0.2322398 1 0 1
-0.06083418 -0.01638992 0.2325662 1 0 1
-0.05994196 -0.01702286 0.2347667 1 0 1
-0.05927313 -0.01789614 0.2379063 1 0 1
-0.05858049 -0.01876896 0.2410461 1 0 1
-0.05763179 -0.01939907 0.243244 1 0 1
-0.05689521 -0.02027049 0.2463831 1 0 1
-0.05635952 -0.0213843 0.2504658 1 0 1
-0.05512957 -0.021768 0.2517165 1 0 1
-0.05432518 -0.02263701 0.2548542 1 0 1
-0.01143503 -0.1126987 0.5962978 1 0 1
0.01461838 -0.02331471 0.2536271 1 0 1
0.01627181 -0.02205483 0.248852 1 0 1
0.01771812 -0.02205185 0.2489062 1 0 1
0.01919452 -0.02179404 0.2479879 1 0 1
0.02066342 -0.02153343 0.2470646 1 0 1
0.0221691 -0.02076631 0.2442009 1 0 1
0.02359682 -0.02075205 0.2442345 1 0 1
0.02503915 -0.02048317 0.2432955 1 0 1
0.02647386 -0.02021158 0.2423514 1 0 1
0.02790765 -0.01968567 0.2404343 1 0 1
0.02932028 -0.01966038 0.240448 1 0 1
0.03073199 -0.01938079 0.2394888 1 0 1
0.03213599 -0.01909858 0.2385247 1 0 1
0.03353227 -0.01881377 0.2375557 1 0 1
0.0349208 -0.01852638 0.2365819 1 0 1
0.03630156 -0.01823641 0.2356033 1 0 1
0.03769479 -0.01819493 0.2355876 1 0 1
0.03911209 -0.01840164 0.2365348 1 0 1
0.04053698 -0.01860528 0.237477 1 0 1
0.04196948 -0.01880592 0.2384143 1 0 1
0.04340953 -0.0190035 0.2393464 1 0 1
0.04481753 -0.01894764 0.2393061 1 0 1
0.04622536 -0.01888901 0.2392609 1 0 1
0.04768025 -0.01907761 0.2401779 1 0 1
0.04914262 -0.01926305 0.2410896 1 0 1
0.05061241 -0.01944538 0.2419961 1 0 1
0.05203083 -0.019375 0.2419308 1 0 1
0.05344893 -0.01930185 0.2418604 1 0 1
0.0546005 -0.01822975 0.2379204 1 0 1
0.05543935 -0.01616115 0.2301133 1 0 1
0.05936073 0.004371511 0.1521267 1 0 1
0.06970599 -0.01342234 0.222206 1 0 1
0.07139437 -0.01405278 0.2249608 1 0 1
0.07298482 -0.01443329 0.2267466 1 0 1
0.07409316 -0.01382974 0.22468 1 0 1
0.07544164 -0.01371419 0.2245325 1 0 1
0.07665758 -0.01335165 0.2234197 1 0 1
0.07786524 -0.01298705 0.222303 1 0 1
0.07906456 -0.01262055 0.2211826 1 0 1
0.08011218 -0.01200871 0.219099 1 0 1
0.08129095 -0.01163869 0.2179716 1 0 1
0.08246137 -0.01126679 0.2168407 1 0 1
0.08377816 -0.01113523 0.2166638 1 0 1
0.08493561 -0.01075922 0.2155251 1 0 1
0.08640947 -0.01086421 0.2162963 1 0 1
0.0877239 -0.01072479 0.2161057 1 0 1
0.08886748 -0.01034216 0.2149548 1 0 1
0.09017646 -0.01019791 0.2147555 1 0 1
0.09166224 -0.0102908 0.2155061 1 0 1
0.09297325 -0.01014091 0.215297 1 0 1
0.09428335 -0.009988412 0.2150833 1 0 1
0.09559257 -0.009833287 0.2148651 1 0 1
0.09690089 -0.009675515 0.2146422 1 0 1
0.09820817 -0.009515194 0.2144148 1 0 1
0.09951452 -0.009352246 0.2141827 1 0 1
0.1006157 -0.008950132 0.2129962 1 0 1
0.1021242 -0.009018521 0.2137049 1 0 1
0.1036393 -0.009083301 0.2144076 1 0 1
0.1049453 -0.008909414 0.2141565 1 0 1
0.106031 -0.008498377 0.2129538 1 0 1
0.1073311 -0.008319765 0.2126942 1 0 1
0.1086301 -0.008138557 0.2124301 1 0 1
0.109928 -0.007954773 0.2121614 1 0 1
0.1112247 -0.007768367 0.2118882 1 0 1
0.1127583 -0.007811252 0.2125534 1 0 1
0.1140565 -0.007619079 0.2122702 1 0 1
0.1158447 -0.00788584 0.2138654 1 0 1
0.1171479 -0.007687315 0.2135713 1 0 1
0.1181968 -0.00725655 0.2123328 1 0 1
0.1194938 -0.007053377 0.2120305 1 0 1
0.1210501 -0.007076039 0.2126615 1 0 1
0.1223483 -0.006867012 0.212349 1 0 1
0.1239131 -0.006882644 0.2129682 1 0 1
0.1257558 -0.007121059 0.2145162 1 0 1
0.127612 -0.007354339 0.2160558 1 0 1
0.1294817 -0.007582424 0.2175871 1 0 1
0.131082 -0.007580617 0.2181773 1 0 1
0.1321151 -0.007126667 0.216898 1 0 1
0.1334296 -0.006894797 0.2165465 1 0 1
0.1350366 -0.006883041 0.2171198 1 0 1
0.1369472 -0.007089337 0.2186149 1 0 1
0.1388711 -0.007290287 0.2201011 1 0 1
0.1411132 -0.007706572 0.2225049 1 0 1
0.1433759 -0.008116018 0.2248976 1 0 1
-0.1120219 0.004364363 0.1668909 1 0 1
-0.1328456 -0.006504392 0.2110502 1 0 1
-0.1359083 -0.008932102 0.2203703 1 0 1
-0.1358763 -0.0098766 0.2235825 1 0 1
-0.134536 -0.01017942 0.2241658 1 0 1
-0.1327684 -0.01026412 0.2238652 1 0 1
-0.1310054 -0.01034444 0.2235568 1 0 1
-0.1284113 -0.00998671 0.2214763 1 0 1
-0.1262501 -0.009839275 0.2202659 1 0 1
-0.1253333 -0.01034118 0.2217006 1 0 1
-0.1227778 -0.009965359 0.2195871 1 0 1
-0.1214526 -0.01024189 0.2201244 1 0 1
-0.1201251 -0.01051571 0.220657 1 0 1
-0.1183987 -0.01056543 0.2202942 1 0 1
-0.116284 -0.01038899 0.2190316 1 0 1
-0.1141813 -0.01020697 0.2177589 1 0 1
-0.1124767 -0.01024283 0.217371 1 0 1
-0.1111596 -0.01049874 0.2178722 1 0 1
-0.1098405 -0.01075188 0.2183688 1 0 1
-0.1081438 -0.01077687 0.2179618 1 0 1
-0.1068241 -0.01102392 0.2184478 1 0 1
-0.1055024 -0.01126827 0.2189292 1 0 1
-0.1041786 -0.0115099 0.219406 1 0 1
-0.1028528 -0.01174881 0.2198782 1 0 1
-0.1011676 -0.01175625 0.2194402 1 0 1
-0.09948763 -0.01175971 0.2189952 1 0 1
-0.09781288 -0.01175922 0.218543 1 0 1
-0.09649013 -0.01198537 0.2189929 1 0 1
-0.09516547 -0.01220886 0.2194382 1 0 1
-0.09349956 -0.01219778 0.2189673 1 0 1
-0.09217481 -0.01241523 0.2194022 1 0 1
-0.09118033 -0.01286302 0.2207465 1 0 1
-0.0895198 -0.01284205 0.2202581 1 0 1
-0.08786479 -0.01281724 0.2197628 1 0 1
-0.08621525 -0.01278855 0.2192606 1 0 1
-0.08457129 -0.01275607 0.2187516 1 0 1
-0.08293291 -0.01271981 0.2182356 1 0 1
-0.08161041 -0.01291613 0.2186338 1 0 1
-0.08028619 -0.01310976 0.2190272 1 0 1
-0.07926318 -0.01353822 0.220339 1 0 1
-0.07793199 -0.01372705 0.2207244 1 0 1
-0.07659914 -0.01391313 0.2211051 1 0 1
-0.07555657 -0.01433553 0.2224073 1 0 1
-0.07421686 -0.01451671 0.2227798 1 0 1
-0.07316 -0.01493522 0.2240757 1 0 1
-0.07181344 -0.01511148 0.2244398 1 0 1
-0.07046536 -0.01528505 0.2247993 1 0 1
-0.0693891 -0.0156973 0.2260853 1 0 1
-0.06803427 -0.01586587 0.2264363 1 0 1
-0.06667797 -0.0160317 0.2267827 1 0 1
-0.06558239 -0.01643762 0.2280584 1 0 1
-0.06447791 -0.01684167 0.2293311 1 0 1
-0.06336454 -0.01724383 0.230601 1 0 1
-0.06249328 -0.01788815 0.2328046 1 0 1
-0.06111118 -0.01804243 0.2331319 1 0 1
-0.06045824 -0.01892865 0.2362696 1 0 1
-0.0595417 -0.01956913 0.2384685 1 0 1
-0.05884486 -0.02045414 0.241606 1 0 1
-0.05789188 -0.02109253 0.2438027 1 0 1
-0.0571511 -0.0219761 0.2469396 1 0 1
-0.05616168 -0.0226122 0.2491336 1 0 1
-0.05449286 -0.02250519 0.2484957 1 0 1
0.016166 -0.02426083 0.2513724 1 0 1
0.0177258 -0.02349047 0.2485286 1 0 1
0.01917296 -0.02348454 0.2485778 1 0 1
0.02064636 -0.02322001 0.2476556 1 0 1
0.02215653 -0.0224413 0.2447951 1 0 1
0.02358881 -0.02242694 0.2448289 1 0 1
0.02503558 -0.02215409 0.2438911 1 0 1
0.02648536 -0.02162296 0.2419813 1 0 1
0.02791977 -0.02108927 0.2400665 1 0 1
0.02933306 -0.0210639 0.2400802 1 0 1
0.03074539 -0.02078041 0.2391221 1 0 1
0.03214514 -0.020239 0.2371923 1 0 1
0.03353817 -0.01995031 0.2362243 1 0 1
0.03492346 -0.01965909 0.2352517 1 0 1
0.03630098 -0.01936528 0.2342742 1 0 1
0.03769099 -0.01932383 0.2342587 1 0 1
0.03910514 -0.01953432 0.235205 1 0 1
0.04052686 -0.01974181 0.2361464 1 0 1
0.04192428 -0.0196918 0.2361163 1 0 1
0.04335733 -0.01989333 0.2370477 1 0 1
0.04471867 -0.01958345 0.2360414 1 0 1
0.04611557 -0.01952517 0.2359967 1 0 1
0.04755959 -0.01971793 0.2369132 1 0 1
0.04901113 -0.01990754 0.2378245 1 0 1
0.05047007 -0.02009405 0.2387307 1 0 1
0.05199536 -0.02053063 0.2405972 1 0 1
0.0533475 -0.02020443 0.2395618 1 0 1
0.05462499 -0.01962293 0.2375567 1 0 1
0.05581624 -0.01878685 0.2345826 1 0 1
0.07007526 -0.01550472 0.2247442 1 0 1
0.071776 -0.0161454 0.227495 1 0 1
0.07313786 -0.016034 0.2273559 1 0 1
0.07425049 -0.01542218 0.225291 1 0 1
0.07547528 -0.01505751 0.2241832 1 0 1
0.0765598 -0.01444265 0.2221118 1 0 1
0.07776413 -0.01407429 0.2209968 1 0 1
0.07882053 -0.01345652 0.2189191 1 0 1
0.08014777 -0.01333177 0.2187553 1 0 1
0.08117981 -0.01271083 0.2166713 1 0 1
0.08264904 -0.01282796 0.2174566 1 0 1
0.08381537 -0.01244967 0.2163226 1 0 1
0.085132 -0.01231514 0.2161414 1 0 1
0.08644786 -0.012178 0.2159555 1 0 1
0.08792923 -0.01228302 0.2167202 1 0 1
0.08890697 -0.01165142 0.2146154 1 0 1
0.0903905 -0.01175079 0.2153703 1 0 1
0.091703 -0.0116032 0.215166 1 0 1
0.09301459 -0.01145291 0.2149571 1 0 1
0.09432534 -0.01130002 0.2147437 1 0 1
0.09563513 -0.01114451 0.2145256 1 0 1
0.09675106 -0.01074468 0.2133521 1 0 1
0.0982519 -0.0108257 0.2140757 1 0 1
0.09935831 -0.01042154 0.2128943 1 0 1
0.1006605 -0.01025604 0.2126586 1 0 1
0.1021697 -0.01032787 0.2133665 1 0 1
0.1034736 -0.01015663 0.213121 1 0 1
0.1049921 -0.01022169 0.2138176 1 0 1
0.1060782 -0.009806442 0.2126161 1 0 1
0.1073789 -0.009627433 0.2123567 1 0 1
0.1084515 -0.009208508 0.2111483 1 0 1
0.109977 -0.009261556 0.2118244 1 0 1
0.1112743 -0.009074719 0.2115513 1 0 1
0.1128087 -0.009120902 0.2122159 1 0 1
0.1138654 -0.008693194 0.2109916 1 0 1
0.1156507 -0.008967631 0.2125859 1 0 1
0.1169507 -0.008769229 0.2122929 1 0 1
0.1182496 -0.008568193 0.2119953 1 0 1
0.1195472 -0.008364511 0.2116932 1 0 1
0.1208434 -0.008158282 0.2113864 1 0 1
0.1226673 -0.008412614 0.2129475 1 0 1
0.1239685 -0.00819992 0.2126298 1 0 1
0.1252683 -0.00798455 0.2123074 1 0 1
0.1273936 -0.008455879 0.2147807 1 0 1
0.1289812 -0.008462516 0.2153787 1 0 1
0.1302917 -0.008236741 0.2150388 1 0 1
0.1318876 -0.008236147 0.2156247 1 0 1
0.1334895 -0.008231604 0.216204 1 0 1
0.1350972 -0.008223004 0.2167765 1 0 1
0.1370088 -0.008436326 0.21827 1 0 1
0.1389336 -0.00864429 0.2197546 1 0 1
0.1408716 -0.008846733 0.2212303 1 0 1
0.1428228 -0.009043748 0.2226972 1 0 1
-0.1324694 -0.007681301 0.2098049 1 0 1
-0.1359721 -0.010363 0.2199869 1 0 1
-0.13594 -0.01131938 0.2231958 1 0 1
-0.134599 -0.01162281 0.223779 1 0 1
-0.1332557 -0.01192344 0.2243574 1 0 1
-0.1310668 -0.01178159 0.2231716 1 0 1
-0.1284715 -0.0114132 0.2210938 1 0 1
-0.1263095 -0.0112588 0.2198853 1 0 1
-0.1249812 -0.01154297 0.2204346 1 0 1
-0.1228356 -0.01137857 0.219208 1 0 1
-0.1211058 -0.01143205 0.2188581 1 0 1
-0.1193809 -0.01148134 0.2185008 1 0 1
-0.1172638 -0.01130142 0.2172461 1 0 1
-0.1151588 -0.01111582 0.2159812 1 0 1
-0.1134556 -0.01115121 0.2155987 1 0 1
-0.1117574 -0.01118246 0.215209 1 0 1
-0.1104469 -0.01143745 0.2157073 1 0 1
-0.1091342 -0.0116898 0.2162011 1 0 1
-0.107444 -0.01171014 0.2157922 1 0 1
-0.1061308 -0.01195638 0.2162754 1 0 1
-0.1048156 -0.01219985 0.2167541 1 0 1
-0.1034983 -0.01244072 0.2172281 1 0 1
-0.1018179 -0.01244691 0.2167944 1 0 1
-0.1001428 -0.01244919 0.2163535 1 0 1
-0.09882683 -0.0126806 0.2168113 1 0 1
-0.0971586 -0.01267553 0.2163575 1 0 1
-0.09584243 -0.01290094 0.2168048 1 0 1
-0.09452439 -0.01312365 0.2172476 1 0 1
-0.09320449 -0.01334367 0.2176857 1 0 1
-0.09221863 -0.01379723 0.2190311 1 0 1
-0.09089143 -0.0140124 0.2194613 1 0 1
-0.08956238 -0.0142249 0.2198868 1 0 1
-0.0879066 -0.01419669 0.2193924 1 0 1
-0.08625636 -0.01416469 0.2188911 1 0 1
-0.08492932 -0.01436792 0.2193005 1 0 1
-0.08360054 -0.01456846 0.2197053 1 0 1
-0.08227008 -0.01476629 0.2201055 1 0 1
-0.08093788 -0.01496145 0.220501 1 0 1
-0.08021001 -0.01563636 0.2227359 1 0 1
-0.07856783 -0.01558532 0.2222012 1 0 1
-0.07693142 -0.01553052 0.2216599 1 0 1
-0.07588459 -0.01595766 0.222962 1 0 1
-0.07454056 -0.01613973 0.2233354 1 0 1
-0.07347948 -0.0165629 0.2246313 1 0 1
-0.07184775 -0.01649577 0.2240682 1 0 1
-0.07077619 -0.01691444 0.2253567 1 0 1
-0.06942223 -0.01708606 0.2257124 1 0 1
-0.06806679 -0.01725498 0.2260634 1 0 1
-0.06670984 -0.0174212 0.2264097 1 0 1
-0.06561369 -0.01783122 0.2276842 1 0 1
-0.06476721 -0.01848644 0.2298898 1 0 1
-0.06364954 -0.01889316 0.2311595 1 0 1
