ply
format ascii 1.0
Comment Generated by Floating Hands
element vertex 1194
property double x
property double y
property double z
property uchar red
property uchar green
property uchar blue
end_header
-0.02882848 -0.01144786 0.17485 1 0 1
-0.02827835 -0.01224637 0.1779018 1 0 1
-0.02717116 -0.012312 0.1780939 1 0 1
-0.02623728 -0.01261945 0.1792361 1 0 1
-0.02512475 -0.01268055 0.1794213 1 0 1
-0.02417804 -0.01298388 0.1805579 1 0 1
-0.02289739 -0.01279562 0.1797802 1 0 1
-0.02194165 -0.01309461 0.1809105 1 0 1
-0.02097761 -0.01339153 0.182038 1 0 1
-0.01955093 -0.01295046 0.1802903 1 0 1
-0.01740036 -0.01127902 0.173746 1 0 1
0.06549289 0.001554989 0.1376552 1 0 1
0.06660397 0.001450431 0.1384833 1 0 1
0.06704599 0.002270649 0.135474 1 0 1
0.06781033 0.002629949 0.1343801 1 0 1
0.06821337 0.00344892 0.1313698 1 0 1
0.06877351 0.004037851 0.1293163 1 0 1
0.06931793 0.004626547 0.1272619 1 0 1
0.07003455 0.004987281 0.1261622 1 0 1
0.07055134 0.005575968 0.1241057 1 0 1
0.0714433 0.005711112 0.123957 1 0 1
0.07213544 0.006074232 0.1228516 1 0 1
0.07302232 0.006212608 0.1226973 1 0 1
0.07390852 0.006352921 0.1225399 1 0 1
0.07458362 0.006719366 0.1214279 1 0 1
0.07525054 0.007086504 0.1203141 1 0 1
0.07590926 0.007454304 0.1191987 1 0 1
0.07655979 0.007822741 0.1180817 1 0 1
0.0772021 0.008191803 0.1169631 1 0 1
0.07783621 0.008561431 0.1158429 1 0 1
0.07846215 0.008931641 0.1147212 1 0 1
0.07931649 0.009082594 0.1145445 1 0 1
-0.09975883 0.01313203 0.0998673 1 0 1
-0.0984534 0.01309196 0.09946516 1 0 1
-0.09766218 0.01286244 0.09989516 1 0 1
-0.09585674 0.01302301 0.09864189 1 0 1
-0.09456562 0.0129941 0.09822089 1 0 1
-0.09327929 0.01296883 0.09779359 1 0 1
-0.09199788 0.01294725 0.09736013 1 0 1
-0.09022837 0.01312708 0.09607322 1 0 1
-0.08847045 0.01331238 0.09477673 1 0 1
-0.08769684 0.01310383 0.09517206 1 0 1
-0.08643857 0.01309751 0.09471237 1 0 1
-0.08566499 0.01289336 0.09510069 1 0 1
-0.08488976 0.01269095 0.09548634 1 0 1
-0.08363998 0.0126935 0.09501193 1 0 1
-0.08286487 0.01249549 0.09539055 1 0 1
-0.081622 0.0125041 0.09490585 1 0 1
-0.08038431 0.0125162 0.09441523 1 0 1
-0.07869243 0.01273823 0.09305483 1 0 1
-0.0774686 0.01275796 0.09255086 1 0 1
-0.07625006 0.01278112 0.09204109 1 0 1
-0.07503682 0.01280759 0.0915255 1 0 1
-0.07382893 0.01283744 0.09100418 1 0 1
-0.0726264 0.01287055 0.09047714 1 0 1
-0.07186818 0.01269557 0.0908177 1 0 1
-0.07110854 0.01252231 0.09115568 1 0 1
-0.07077948 0.01213778 0.0923674 1 0 1
-0.07001352 0.01196714 0.09270165 1 0 1
-0.06924614 0.01179821 0.0930333 1 0 1
-0.06847736 0.011631 0.09336231 1 0 1
-0.06770721 0.01146552 0.09368867 1 0 1
-0.06693567 0.01130175 0.09401242 1 0 1
-0.06616276 0.01113973 0.09433351 1 0 1
-0.06538847 0.0109794 0.09465195 1 0 1
-0.06420863 0.0110397 0.09407968 1 0 1
-0.0638359 0.0106639 0.09528094 1 0 1
-0.06305762 0.01050874 0.09559143 1 0 1
-0.06227801 0.01035533 0.09589927 1 0 1
-0.06188732 0.009981963 0.09709807 1 0 1
-0.06110161 0.009831298 0.09740197 1 0 1
-0.0603146 0.009682379 0.09770314 1 0 1
-0.05990593 0.009311525 0.09889936 1 0 1
-0.05911286 0.009165442 0.09919652 1 0 1
-0.0583185 0.009021089 0.09949096 1 0 1
-0.05752291 0.008878523 0.09978269 1 0 1
-0.05636067 0.008963929 0.09916879 1 0 1
-0.05520431 0.009052346 0.09854959 1 0 1
-0.05441217 0.008916245 0.09883067 1 0 1
-0.05361885 0.008781862 0.09910902 1 0 1
-0.05282434 0.008649268 0.09938467 1 0 1
-0.05237624 0.008289102 0.1005668 1 0 1
-0.05191978 0.007929509 0.1017487 1 0 1
-0.05111466 0.007800993 0.1020187 1 0 1
-0.05030835 0.007674207 0.1022858 1 0 1
-0.04950092 0.007549203 0.1025503 1 0 1
-0.04869237 0.007425929 0.102812 1 0 1
-0.0478827 0.007304451 0.103071 1 0 1
-0.04707195 0.007184739 0.1033272 1 0 1
-0.04626011 0.007066767 0.1035806 1 0 1
-0.0454472 0.006950567 0.1038313 1 0 1
-0.04494466 0.006601441 0.105 1 0 1
-0.04412601 0.006488286 0.1052463 1 0 1
-0.04361046 0.006141172 0.1064127 1 0 1
-0.0430866 0.00579488 0.1075786 1 0 1
-0.04285127 0.005212716 0.1096688 1 0 1
-0.04201388 0.005104795 0.1099081 1 0 1
-0.04204411 0.004285821 0.1129261 1 0 1
-0.04205136 0.003465914 0.1159474 1 0 1
-0.04231778 0.002406626 0.119901 1 0 1
-0.04199674 0.001823625 0.1219993 1 0 1
-0.04248458 0.0005225952 0.1268922 1 0 1
-0.04212107 -6.125719E-05 0.1289952 1 0 1
-0.04147431 -0.0004045762 0.1301657 1 0 1
-0.04081916 -0.0007467357 0.1313351 1 0 1
-0.04015566 -0.001087722 0.1325033 1 0 1
-0.03897097 -0.0009446069 0.1317983 1 0 1
-0.04158318 -0.004426158 0.1451408 1 0 1
-0.04409067 -0.0079162 0.1585053 1 0 1
-0.04453104 -0.009473886 0.1643822 1 0 1
-0.04395954 -0.01006193 0.1665082 1 0 1
-0.04313428 -0.01040584 0.1676936 1 0 1
-0.04183229 -0.01026091 0.1669948 1 0 1
-0.04053672 -0.01011297 0.1662906 1 0 1
-0.0394743 -0.01020643 0.1665241 1 0 1
-0.0384109 -0.01029758 0.1667539 1 0 1
-0.03756575 -0.01063136 0.1679246 1 0 1
-0.03671218 -0.01096348 0.1690932 1 0 1
-0.03563847 -0.01104836 0.1693137 1 0 1
-0.0347718 -0.01137676 0.1704773 1 0 1
-0.03369254 -0.01145732 0.1706913 1 0 1
-0.03241185 -0.01128923 0.1699533 1 0 1
-0.03153128 -0.01161152 0.1711082 1 0 1
-0.03064234 -0.01193201 0.1722607 1 0 1
-0.02974504 -0.0122507 0.1734111 1 0 1
-0.02902486 -0.0128149 0.17551 1 0 1
-0.02828877 -0.01337771 0.1776079 1 0 1
-0.0273589 -0.01369121 0.1787524 1 0 1
-0.02624655 -0.01375476 0.1789414 1 0 1
-0.02530377 -0.01406417 0.1800802 1 0 1
-0.02418609 -0.0141232 0.1802623 1 0 1
-0.02290482 -0.01393115 0.1794858 1 0 1
-0.02178944 -0.01398517 0.1796596 1 0 1
-0.02051806 -0.01378782 0.1788737 1 0 1
-0.0191021 -0.01333864 0.1771263 1 0 1
-0.01725753 -0.01213843 0.1725017 1 0 1
0.06536771 0.0008388032 0.1364591 1 0 1
0.06680641 0.0002607601 0.1392028 1 0 1
0.06742138 0.0008589396 0.1371534 1 0 1
0.06802065 0.001457073 0.1351028 1 0 1
0.06842747 0.002288305 0.132095 1 0 1
0.06917202 0.002653031 0.1309986 1 0 1
0.06953987 0.003482827 0.1279901 1 0 1
0.07007253 0.00407976 0.1259364 1 0 1
0.07078126 0.004445362 0.124836 1 0 1
0.07167744 0.004581414 0.1246869 1 0 1
0.07237359 0.004949165 0.123582 1 0 1
0.07326467 0.005088469 0.1234273 1 0 1
0.07415511 0.005229707 0.1232694 1 0 1
0.07462362 0.005828897 0.1212073 1 0 1
0.07529078 0.006200143 0.1200947 1 0 1
0.07594977 0.006572073 0.1189805 1 0 1
0.07660053 0.006944608 0.1178646 1 0 1
0.0772431 0.007317761 0.1167472 1 0 1
0.07787746 0.007691516 0.1156282 1 0 1
0.07850363 0.008065833 0.1145077 1 0 1
0.0793584 0.008217121 0.1143312 1 0 1
-0.1003281 0.01203015 0.1004585 1 0 1
-0.09901868 0.01199246 0.1000591 1 0 1
-0.09771403 0.01195851 0.09965326 1 0 1
-0.0959077 0.01212616 0.09840188 1 0 1
-0.09411276 0.0122994 0.09714068 1 0 1
-0.09332895 0.01207873 0.09755534 1 0 1
-0.09204687 0.01206051 0.09712274 1 0 1
-0.09027651 0.0122475 0.09583773 1 0 1
-0.0890076 0.01223746 0.09539111 1 0 1
-0.08774368 0.012231 0.0949384 1 0 1
-0.08648476 0.0122281 0.09447961 1 0 1
-0.08571073 0.01202359 0.09486781 1 0 1
-0.08493505 0.01182083 0.09525336 1 0 1
-0.08368465 0.01182677 0.09477986 1 0 1
-0.08243936 0.01183617 0.09430037 1 0 1
-0.08166561 0.01164046 0.09467461 1 0 1
-0.07996432 0.01186543 0.09332366 1 0 1
-0.07873462 0.01188522 0.09282646 1 0 1
-0.07751016 0.0119084 0.09232343 1 0 1
-0.07629099 0.01193499 0.09181459 1 0 1
-0.07507715 0.01196492 0.09129995 1 0 1
-0.07431458 0.01178463 0.09164876 1 0 1
-0.07310802 0.01182042 0.0911242 1 0 1
-0.07234594 0.01164434 0.09146623 1 0 1
-0.07158244 0.01146999 0.09180567 1 0 1
-0.07081747 0.01129733 0.09214248 1 0 1
-0.07005107 0.0111264 0.09247667 1 0 1
-0.06928328 0.01095716 0.09280824 1 0 1
-0.06893589 0.01057062 0.09401703 1 0 1
-0.06774349 0.01062388 0.09346353 1 0 1
-0.06697151 0.01045985 0.09378719 1 0 1
-0.06619816 0.01029752 0.09410821 1 0 1
-0.06542346 0.01013691 0.09442662 1 0 1
-0.0646474 0.009978022 0.09474237 1 0 1
-0.06427092 0.009597467 0.09594397 1 0 1
-0.06348868 0.009441327 0.0962558 1 0 1
-0.06270512 0.009286946 0.09656497 1 0 1
-0.06231061 0.008908808 0.09776411 1 0 1
-0.06113412 0.008983361 0.09717534 1 0 1
-0.06072997 0.008607386 0.09837183 1 0 1
-0.05993771 0.008459299 0.09867164 1 0 1
-0.05914417 0.008312954 0.09896874 1 0 1
-0.05797673 0.008397145 0.09836383 1 0 1
-0.05718423 0.00825496 0.09865424 1 0 1
-0.05602497 0.008344549 0.09804004 1 0 1
-0.0548716 0.008437167 0.09742054 1 0 1
-0.0540826 0.008301438 0.09770032 1 0 1
-0.05364726 0.00793556 0.0988831 1 0 1
-0.05285233 0.007802711 0.09915873 1 0 1
-0.05205622 0.00767161 0.09943167 1 0 1
-0.05125895 0.007542242 0.09970188 1 0 1
-0.05046053 0.007414625 0.09996937 1 0 1
-0.04999788 0.007053946 0.101146 1 0 1
-0.04919361 0.006929257 0.1014093 1 0 1
-0.0487179 0.006570441 0.1025839 1 0 1
-0.04790779 0.006448756 0.1028429 1 0 1
-0.0470966 0.006328842 0.103099 1 0 1
-0.04596549 0.006448214 0.1024349 1 0 1
-0.04547095 0.006094296 0.1036032 1 0 1
-0.04465653 0.005979693 0.1038511 1 0 1
-0.04414897 0.005627781 0.1050171 1 0 1
-0.04363305 0.005276673 0.1061826 1 0 1
-0.04310884 0.004926387 0.1073474 1 0 1
-0.04287326 0.004336404 0.1094356 1 0 1
-0.04232871 0.003987296 0.1106 1 0 1
-0.04235507 0.003156168 0.113616 1 0 1
-0.04235845 0.002324148 0.1166353 1 0 1
-0.04233879 0.001491299 0.1196577 1 0 1
-0.04229607 0.000657669 0.1226832 1 0 1
-0.04250521 -0.000419889 0.1266417 1 0 1
-0.04241261 -0.001255236 0.1296738 1 0 1
-0.04202932 -0.001847045 0.1317765 1 0 1
-0.04215798 -0.002927484 0.1357459 1 0 1
-0.04225607 -0.004009113 0.1397197 1 0 1
-0.04309298 -0.005827697 0.1465024 1 0 1
-0.04564646 -0.009369229 0.1598453 1 0 1
-0.04535536 -0.01021271 0.162906 1 0 1
-0.0443049 -0.01031697 0.1631557 1 0 1
-0.0432534 -0.01041893 0.1634018 1 0 1
-0.04243878 -0.01076578 0.1645837 1 0 1
-0.0413815 -0.01086359 0.1648236 1 0 1
-0.04032322 -0.01095915 0.1650598 1 0 1
-0.03949068 -0.01130048 0.1662343 1 0 1
-0.03842671 -0.01139176 0.1664641 1 0 1
-0.03758103 -0.01172952 0.1676338 1 0 1
-0.03651141 -0.01181652 0.1678573 1 0 1
-0.03565262 -0.01215062 0.169022 1 0 1
-0.03478543 -0.01248296 0.1701847 1 0 1
-0.03370555 -0.01256363 0.1703987 1 0 1
-0.03242423 -0.01239178 0.1696618 1 0 1
-0.03173992 -0.0129685 0.1717636 1 0 1
-0.03084668 -0.0132932 0.172916 1 0 1
-0.02994507 -0.01361608 0.174066 1 0 1
-0.02903509 -0.01393707 0.1752137 1 0 1
-0.02829847 -0.01450764 0.1773096 1 0 1
-0.02736804 -0.01482508 0.1784531 1 0 1
-0.02642924 -0.0151406 0.1795942 1 0 1
-0.02548213 -0.01545415 0.1807327 1 0 1
-0.02436006 -0.01551337 0.1809155 1 0 1
-0.02323724 -0.01557023 0.1810944 1 0 1
-0.02195462 -0.01537206 0.1803152 1 0 1
-0.02083414 -0.01542392 0.1804859 1 0 1
-0.01925844 -0.01471437 0.1777863 1 0 1
-0.01785255 -0.01425465 0.1760356 1 0 1
0.06700935 -0.000935354 0.1399166 1 0 1
0.06762829 -0.0003287488 0.1378688 1 0 1
0.06823151 0.0002778203 0.1358198 1 0 1
0.0686421 0.001121273 0.1328145 1 0 1
0.06921007 0.001727076 0.1307641 1 0 1
0.06957792 0.002568568 0.1277586 1 0 1
0.07029888 0.002938036 0.1266607 1 0 1
0.07101168 0.003308337 0.1255607 1 0 1
0.07171632 0.003679442 0.124459 1 0 1
0.07261227 0.003817699 0.1243069 1 0 1
0.07350755 0.003957901 0.1241518 1 0 1
0.07440218 0.004100057 0.1239935 1 0 1
0.07487453 0.004707737 0.1219328 1 0 1
0.07554572 0.005083691 0.1208208 1 0 1
0.0762087 0.005460354 0.119707 1 0 1
0.07664143 0.006067593 0.1176441 1 0 1
0.07728425 0.006444844 0.1165278 1 0 1
0.07791886 0.006822725 0.11541 1 0 1
0.07854524 0.007201149 0.1142907 1 0 1
0.07916344 0.007580097 0.1131699 1 0 1
-0.09986379 0.01131945 0.09937844 1 0 1
-0.09855701 0.01128605 0.09897808 1 0 1
-0.09725498 0.0112564 0.09857135 1 0 1
-0.09595767 0.01123047 0.09815836 1 0 1
-0.09466526 0.01120826 0.09773912 1 0 1
-0.09287762 0.01139323 0.09647188 1 0 1
-0.0915982 0.0113793 0.09603846 1 0 1
-0.08983034 0.01157436 0.09475365 1 0 1
-0.0885641 0.01156859 0.09430621 1 0 1
-0.0877896 0.01135927 0.09470136 1 0 1
-0.08653005 0.01135977 0.09424349 1 0 1
-0.08527558 0.0113638 0.09377956 1 0 1
-0.08402617 0.01137139 0.09330966 1 0 1
-0.08325514 0.0111718 0.09368912 1 0 1
-0.08201262 0.01118549 0.09320895 1 0 1
-0.08077525 0.01120268 0.09272282 1 0 1
-0.07907994 0.01143653 0.09137058 1 0 1
-0.07785642 0.01146144 0.09087113 1 0 1
-0.07663816 0.01148974 0.0903658 1 0 1
-0.07587814 0.01130564 0.09071977 1 0 1
-0.07511663 0.01112332 0.09107111 1 0 1
-0.07435365 0.01094269 0.09141987 1 0 1
-0.0731465 0.01098194 0.09089626 1 0 1
-0.07238398 0.01080557 0.09123822 1 0 1
-0.07162003 0.01063089 0.09157757 1 0 1
-0.07085466 0.01045792 0.09191432 1 0 1
-0.07008784 0.01028671 0.09224843 1 0 1
-0.06974506 0.009895106 0.09345727 1 0 1
-0.06897195 0.00972658 0.09378763 1 0 1
-0.06819747 0.009559739 0.09411535 1 0 1
-0.06700656 0.009618992 0.09355872 1 0 1
-0.06664431 0.009231315 0.09476285 1 0 1
-0.06545764 0.009295478 0.09419803 1 0 1
-0.06468116 0.0091363 0.09451374 1 0 1
-0.06430438 0.008751675 0.09571424 1 0 1
-0.06352174 0.008595295 0.09602604 1 0 1
-0.06273774 0.008440617 0.09633517 1 0 1
-0.06195244 0.008287707 0.09664163 1 0 1
-0.06116586 0.00813653 0.09694543 1 0 1
-0.06037798 0.007987105 0.09724656 1 0 1
-0.05958882 0.007839441 0.09754498 1 0 1
-0.0587984 0.007693466 0.09784073 1 0 1
-0.05763391 0.007781864 0.09723549 1 0 1
-0.05684455 0.007640073 0.09752454 1 0 1
-0.05568827 0.007733864 0.09691005 1 0 1
-0.05490003 0.007596161 0.09719248 1 0 1
-0.0541106 0.0074602 0.09747222 1 0 1
-0.05367495 0.007090308 0.09865393 1 0 1
-0.05287956 0.006957209 0.09892954 1 0 1
-0.05208301 0.006825876 0.09920244 1 0 1
-0.05128532 0.006696306 0.09947263 1 0 1
-0.05048648 0.006568468 0.09974015 1 0 1
-0.04968649 0.006442401 0.1000049 1 0 1
-0.04888538 0.006318071 0.100267 1 0 1
-0.04874275 0.005716035 0.1023525 1 0 1
-0.0479322 0.005594129 0.1026115 1 0 1
-0.04712054 0.005473994 0.1028677 1 0 1
-0.04630781 0.005355643 0.1031211 1 0 1
-0.04580929 0.00499722 0.1042894 1 0 1
-0.04467913 0.005124274 0.1036197 1 0 1
-0.04417123 0.004768359 0.1047847 1 0 1
-0.04365497 0.004413261 0.1059491 1 0 1
-0.04313041 0.004058932 0.1071129 1 0 1
-0.04259749 0.003705464 0.1082759 1 0 1
-0.04205624 0.003352858 0.1094383 1 0 1
-0.04208609 0.002510576 0.1124502 1 0 1
-0.04209293 0.001667366 0.1154653 1 0 1
-0.0423591 0.0005770976 0.1194108 1 0 1
-0.04231616 -0.0002681752 0.1224332 1 0 1
-0.04252513 -0.001361222 0.1263876 1 0 1
-0.04188961 -0.001713239 0.1275563 1 0 1
-0.041781 -0.002559933 0.1305862 1 0 1
-0.04296892 -0.004648715 0.1382787 1 0 1
-0.04409671 -0.006741874 0.145983 1 0 1
-0.04516422 -0.008839274 0.1536987 1 0 1
-0.04591858 -0.01069119 0.1604909 1 0 1
-0.04512516 -0.01104698 0.1616781 1 0 1
-0.04432327 -0.01140128 0.1628635 1 0 1
-0.0430295 -0.01125281 0.1621723 1 0 1
-0.04198011 -0.01135232 0.162414 1 0 1
-0.0409297 -0.01144958 0.1626522 1 0 1
-0.04010883 -0.01179619 0.1638268 1 0 1
-0.03882593 -0.0116373 0.1631179 1 0 1
-0.03799564 -0.01198003 0.164287 1 0 1
-0.03715692 -0.01232113 0.1654541 1 0 1
-0.03630976 -0.01266055 0.1666192 1 0 1
-0.03524237 -0.01274511 0.1668383 1 0 1
-0.03459022 -0.01333433 0.1689431 1 0 1
-0.03371784 -0.01366859 0.1701018 1 0 1
-0.03243591 -0.01349301 0.1693661 1 0 1
-0.03135744 -0.0135689 0.1695721 1 0 1
-0.03047118 -0.013897 0.1707221 1 0 1
-0.02957653 -0.01422328 0.1718698 1 0 1
-0.02867354 -0.01454777 0.1730151 1 0 1
-0.02812569 -0.01538091 0.1760574 1 0 1
-0.02719846 -0.01570203 0.1771993 1 0 1
-0.02643709 -0.01627695 0.1792897 1 0 1
-0.02531895 -0.01633849 0.1794756 1 0 1
-0.02420006 -0.0163976 0.1796579 1 0 1
-0.02308043 -0.01645434 0.1798363 1 0 1
-0.02180096 -0.01625215 0.1790575 1 0 1
-0.02052837 -0.01604722 0.1782738 1 0 1
-0.01911112 -0.01558272 0.1765307 1 0 1
0.06671576 -0.001410817 0.1377568 1 0 1
0.06732729 -0.0007973421 0.1357122 1 0 1
0.06792311 -0.0001839116 0.1336665 1 0 1
0.06868022 0.000188617 0.1325741 1 0 1
0.06924834 0.0008022949 0.1305259 1 0 1
0.06961615 0.001655459 0.1275236 1 0 1
0.07014903 0.002268151 0.1254742 1 0 1
0.07105048 0.002403443 0.1253281 1 0 1
0.07175537 0.002778625 0.1242275 1 0 1
0.07265176 0.002917217 0.1240757 1 0 1
0.0735475 0.003057749 0.1239207 1 0 1
0.07444254 0.003200187 0.1237627 1 0 1
0.074915 0.003815767 0.1217042 1 0 1
0.07558645 0.004195856 0.1205933 1 0 1
0.0760312 0.004810949 0.1185335 1 0 1
0.07668249 0.005191712 0.11742 1 0 1
0.07732553 0.005573086 0.116305 1 0 1
0.07773069 0.006187493 0.1142433 1 0 1
0.07858701 0.006337566 0.1140702 1 0 1
0.07920542 0.006720642 0.1129506 1 0 1
-0.09888138 0.01081985 0.09746505 1 0 1
-0.09809392 0.01058827 0.09789561 1 0 1
-0.09730468 0.01035849 0.09832351 1 0 1
-0.09549992 0.01054129 0.09707419 1 0 1
-0.0942101 0.01052335 0.09665409 1 0 1
-0.09242494 0.01071638 0.09538703 1 0 1
-0.09114819 0.01070671 0.09495281 1 0 1
-0.08987639 0.01070073 0.0945124 1 0 1
-0.08860954 0.01069834 0.09406591 1 0 1
-0.08783463 0.01048863 0.09446096 1 0 1
-0.08657445 0.01049254 0.09400401 1 0 1
-0.08531936 0.01049999 0.09354105 1 0 1
-0.08406931 0.01051095 0.09307206 1 0 1
-0.0828244 0.01052546 0.09259713 1 0 1
-0.08111452 0.01075875 0.09126026 1 0 1
-0.07988331 0.01078104 0.09077185 1 0 1
-0.07865733 0.01080677 0.09027757 1 0 1
-0.0774366 0.01083596 0.08977743 1 0 1
-0.07667767 0.01064985 0.09013391 1 0 1
-0.07591723 0.01046543 0.09048779 1 0 1
-0.0751553 0.01028277 0.09083904 1 0 1
-0.07439187 0.01010182 0.0911877 1 0 1
-0.073627 0.009922613 0.09153375 1 0 1
-0.07242122 0.009967852 0.09100695 1 0 1
-0.07165685 0.009792851 0.09134624 1 0 1
-0.07132356 0.009395295 0.09255622 1 0 1
-0.07012381 0.009448079 0.09201699 1 0 1
-0.06978074 0.00905242 0.09322468 1 0 1
-0.06900723 0.008883556 0.09355501 1 0 1
-0.06823232 0.008716454 0.09388267 1 0 1
-0.06704081 0.008779188 0.09332699 1 0 1
-0.0662666 0.008616282 0.09364791 1 0 1
-0.06549107 0.008455114 0.09396622 1 0 1
-0.06471415 0.008295654 0.09428187 1 0 1
-0.06433708 0.007906958 0.09548125 1 0 1
-0.06315631 0.007981989 0.09490521 1 0 1
-0.06237542 0.007827753 0.09521291 1 0 1
-0.06198385 0.007442167 0.0964085 1 0 1
-0.06080972 0.0075245 0.09582034 1 0 1
-0.06040851 0.007141048 0.09701332 1 0 1
-0.05961892 0.006993104 0.09731171 1 0 1
-0.05845159 0.007082647 0.0967115 1 0 1
-0.05766303 0.006938847 0.09700321 1 0 1
-0.05687324 0.006796815 0.09729224 1 0 1
-0.05571639 0.006894148 0.09667875 1 0 1
-0.05492773 0.006756222 0.09696112 1 0 1
-0.05413787 0.006620035 0.09724084 1 0 1
-0.05370191 0.006246071 0.0984215 1 0 1
-0.05290609 0.006112765 0.09869707 1 0 1
-0.05210912 0.005981216 0.09896994 1 0 1
-0.05131098 0.005851409 0.09924013 1 0 1
-0.05051169 0.005723355 0.09950761 1 0 1
-0.04971129 0.005597062 0.09977238 1 0 1
-0.04890973 0.00547254 0.1000344 1 0 1
-0.04843698 0.005106205 0.1012058 1 0 1
-0.04762961 0.004984663 0.1014636 1 0 1
-0.04714379 0.004620252 0.1026329 1 0 1
-0.04633062 0.00450169 0.1028864 1 0 1
-0.04583175 0.0041392 0.1040537 1 0 1
-0.0450128 0.004023723 0.1043026 1 0 1
-0.04450089 0.003663309 0.1054677 1 0 1
-0.0436762 0.003550881 0.1057122 1 0 1
-0.04345206 0.002944892 0.1077959 1 0 1
-0.04261799 0.002835095 0.108037 1 0 1
-0.04236987 0.002229852 0.1101214 1 0 1
-0.04239585 0.001375449 0.1131311 1 0 1
-0.04211267 0.0007697314 0.115219 1 0 1
-0.04209625 -8.597889E-05 0.1182342 1 0 1
-0.0426143 -0.001443349 0.1231067 1 0 1
-0.04254432 -0.002301383 0.1261298 1 0 1
-0.04136559 -0.002154746 0.1254394 1 0 1
-0.04206721 -0.003767437 0.1312543 1 0 1
-0.04377959 -0.006391652 0.1408013 1 0 1
-0.04489629 -0.008516759 0.1485 1 0 1
-0.04543951 -0.01014028 0.1543446 1 0 1
-0.04568425 -0.01151289 0.1592629 1 0 1
-0.04489406 -0.01187228 0.1604481 1 0 1
-0.04409537 -0.0122302 0.1616317 1 0 1
-0.04304644 -0.01233215 0.161877 1 0 1
-0.0419965 -0.01243178 0.1621188 1 0 1
-0.04094554 -0.01252919 0.162357 1 0 1
-0.03989358 -0.01262432 0.1625917 1 0 1
-0.03861379 -0.01246137 0.161883 1 0 1
-0.0377867 -0.01280779 0.1630503 1 0 1
-0.03695121 -0.0131525 0.1642156 1 0 1
-0.03632291 -0.0137523 0.166321 1 0 1
-0.03546682 -0.014094 0.1674831 1 0 1
-0.03460231 -0.01443396 0.168643 1 0 1
-0.03352501 -0.01451455 0.1688564 1 0 1
-0.03244684 -0.01459286 0.1690661 1 0 1
-0.03117094 -0.01441069 0.1683263 1 0 1
-0.03028789 -0.01474252 0.1694746 1 0 1
-0.02958581 -0.01533114 0.1715678 1 0 1
-0.02868225 -0.01565952 0.1727122 1 0 1
-0.02795213 -0.0162451 0.1748028 1 0 1
-0.02720611 -0.01682927 0.1768923 1 0 1
-0.02644419 -0.01741194 0.1789807 1 0 1
-0.02549593 -0.01773328 0.1801173 1 0 1
-0.02420599 -0.0175327 0.179349 1 0 1
-0.02308575 -0.01758947 0.1795275 1 0 1
-0.02164658 -0.01712319 0.1777976 1 0 1
-0.02037716 -0.01691431 0.1770145 1 0 1
-0.01881158 -0.01618133 0.1743195 1 0 1
-0.01726811 -0.01544504 0.1716174 1 0 1
0.06736517 -0.00174077 0.1354647 1 0 1
0.06796115 -0.001119479 0.1334212 1 0 1
0.06871855 -0.0007428376 0.13233 1 0 1
0.06928679 -0.0001212887 0.130284 1 0 1
0.06983931 0.00050007 0.128237 1 0 1
0.0703761 0.001121212 0.1261893 1 0 1
0.07108945 0.00149969 0.1250918 1 0 1
0.07179464 0.001878979 0.1239924 1 0 1
0.07269146 0.002017877 0.1238409 1 0 1
0.07358763 0.002158749 0.1236862 1 0 1
0.07406837 0.002781472 0.1216316 1 0 1
0.07495563 0.002924967 0.1214721 1 0 1
0.07541243 0.003547909 0.1194154 1 0 1
0.07607219 0.003932108 0.1183048 1 0 1
0.07650129 0.004554445 0.116247 1 0 1
0.07736699 0.004702441 0.1160786 1 0 1
0.07777218 0.005324705 0.1140192 1 0 1
0.0786289 0.005475134 0.1138464 1 0 1
0.07924756 0.005862292 0.112728 1 0 1
-0.098931 0.00992394 0.09721397 1 0 1
-0.09762946 0.009899142 0.09681179 1 0 1
-0.09684306 0.009669932 0.09723775 1 0 1
-0.09554781 0.009651628 0.09682484 1 0 1
-0.09425736 0.009637058 0.09640566 1 0 1
-0.09247135 0.009837155 0.09514058 1 0 1
-0.09069689 0.01004279 0.09386586 1 0 1
-0.08942778 0.01004106 0.09342469 1 0 1
-0.08816366 0.01004295 0.09297742 1 0 1
-0.08739164 0.009833832 0.09337063 1 0 1
-0.08613419 0.009841988 0.09291293 1 0 1
-0.08488183 0.009853718 0.09244924 1 0 1
-0.08363455 0.009868964 0.09197956 1 0 1
-0.08239239 0.009887706 0.0915039 1 0 1
-0.0806851 0.01012903 0.09016743 1 0 1
-0.07945669 0.01015561 0.08967832 1 0 1
-0.07823349 0.01018563 0.08918335 1 0 1
-0.07747567 0.009997465 0.08954237 1 0 1
-0.07671635 0.009811025 0.08989876 1 0 1
-0.07595547 0.009626284 0.09025255 1 0 1
-0.07519313 0.009443307 0.09060374 1 0 1
-0.0744293 0.009262044 0.09095232 1 0 1
-0.07366399 0.009082474 0.09129829 1 0 1
-0.0728972 0.008904687 0.09164166 1 0 1
-0.07169282 0.008955908 0.09111166 1 0 1
-0.07092661 0.008782341 0.09144829 1 0 1
-0.07015894 0.008610501 0.09178227 1 0 1
-0.06938989 0.008440381 0.09211365 1 0 1
-0.0686194 0.008272008 0.09244242 1 0 1
-0.06784754 0.008105354 0.09276851 1 0 1
-0.06707428 0.007940453 0.09309203 1 0 1
-0.06629966 0.007777267 0.09341291 1 0 1
-0.06552368 0.007615808 0.09373112 1 0 1
-0.06474634 0.007456083 0.09404676 1 0 1
-0.06396766 0.00729809 0.09435968 1 0 1
-0.06318767 0.007141851 0.09466999 1 0 1
-0.06240635 0.006987345 0.09497764 1 0 1
-0.06162371 0.006834571 0.09528264 1 0 1
-0.06045255 0.006921099 0.09469412 1 0 1
-0.06005459 0.006534282 0.09588464 1 0 1
-0.05926813 0.006386751 0.09618165 1 0 1
-0.0584804 0.006240959 0.09647601 1 0 1
-0.05731834 0.006337091 0.09587149 1 0 1
-0.05690119 0.005954621 0.09705667 1 0 1
-0.05574378 0.00605551 0.0964442 1 0 1
-0.05531707 0.005675272 0.0976266 1 0 1
-0.05452319 0.005538226 0.09790755 1 0 1
-0.05372813 0.005402926 0.09818579 1 0 1
-0.05293189 0.00526939 0.09846136 1 0 1
-0.05213448 0.00513761 0.09873421 1 0 1
-0.05133591 0.005007596 0.09900436 1 0 1
-0.05087704 0.004633688 0.1001793 1 0 1
-0.05007258 0.004506584 0.1004452 1 0 1
-0.049267 0.00438129 0.1007084 1 0 1
-0.04879031 0.004010403 0.1018799 1 0 1
-0.04797887 0.003888088 0.1021388 1 0 1
-0.04748908 0.003519114 0.1033083 1 0 1
-0.04667184 0.003399837 0.1035628 1 0 1
-0.04616901 0.003032867 0.1047301 1 0 1
-0.04534597 0.002916635 0.1049802 1 0 1
-0.04483007 0.002551726 0.1061453 1 0 1
-0.04430583 0.002187619 0.1073097 1 0 1
-0.04347234 0.002075807 0.1075536 1 0 1
-0.04263783 0.001965852 0.1077947 1 0 1
-0.0423894 0.001352811 0.1098769 1 0 1
-0.04212531 0.000739722 0.1119605 1 0 1
-0.04213173 -0.0001267665 0.1149693 1 0 1
-0.04211508 -0.0009940625 0.1179813 1 0 1
-0.04263306 -0.002370678 0.1228485 1 0 1
-0.042838 -0.003495043 0.1267955 1 0 1
-0.04219797 -0.003855449 0.1279632 1 0 1
-0.04449517 -0.007025762 0.1393483 1 0 1
-0.04643853 -0.009947968 0.1498232 1 0 1
-0.04673709 -0.01133878 0.1547302 1 0 1
-0.04648417 -0.01221782 0.1577796 1 0 1
-0.04595495 -0.01283985 0.1598982 1 0 1
-0.04516054 -0.01320362 0.1610833 1 0 1
-0.04386658 -0.01305007 0.1603977 1 0 1
-0.04306263 -0.01341006 0.1615776 1 0 1
-0.04177403 -0.01325129 0.1608832 1 0 1
-0.04072623 -0.01334848 0.1611206 1 0 1
-0.03967744 -0.0134434 0.1613545 1 0 1
-0.03862768 -0.01353607 0.1615848 1 0 1
-0.03780009 -0.0138864 0.1627511 1 0 1
-0.03696408 -0.01423513 0.1639154 1 0 1
-0.03611963 -0.01458213 0.1650776 1 0 1
-0.03526677 -0.01492748 0.1662379 1 0 1
-0.03440547 -0.01527106 0.167396 1 0 1
-0.03353579 -0.01561294 0.168552 1 0 1
-0.03245704 -0.01569134 0.1687618 1 0 1
-0.03137742 -0.01576743 0.1689679 1 0 1
-0.03049008 -0.0161034 0.1701159 1 0 1
-0.02978369 -0.01670002 0.1722078 1 0 1
-0.02924699 -0.01755797 0.1752456 1 0 1
-0.02832321 -0.01788906 0.1763886 1 0 1
-0.02774713 -0.01874459 0.1794255 1 0 1
-0.0267991 -0.01907226 0.180565 1 0 1
-0.02567221 -0.01913433 0.1807523 1 0 1
-0.0242112 -0.01866634 0.1790358 1 0 1
-0.02325328 -0.01898718 0.180165 1 0 1
-0.02165059 -0.01824933 0.1774867 1 0 1
-0.02022524 -0.01777231 0.1757528 1 0 1
-0.01896591 -0.01755675 0.1749653 1 0 1
-0.01756577 -0.0170738 0.17322 1 0 1
0.06723347 -0.002433582 0.1342601 1 0 1
0.06782581 -0.001804955 0.1322194 1 0 1
0.06875706 -0.001673091 0.1320822 1 0 1
0.06932545 -0.00104366 0.1300385 1 0 1
0.06987811 -0.0004144099 0.1279937 1 0 1
0.0706037 -3.210946E-05 0.1268988 1 0 1
0.07132109 0.0003510363 0.1258019 1 0 1
0.07183408 0.0009805284 0.1237538 1 0 1
0.07273132 0.001119742 0.1236025 1 0 1
0.07362791 0.001260905 0.123448 1 0 1
0.07410873 0.00189151 0.1213957 1 0 1
0.07478513 0.002278467 0.1202897 1 0 1
0.07545332 0.002666123 0.1191819 1 0 1
0.07589447 0.003296328 0.1171272 1 0 1
0.07654247 0.00368464 0.1160169 1 0 1
0.07740854 0.003832947 0.1158489 1 0 1
0.07804386 0.004223107 0.1147347 1 0 1
0.07890476 0.004374529 0.1145614 1 0 1
0.07928979 0.005005093 0.1125019 1 0 1
-0.09846253 0.009239146 0.09612969 1 0 1
-0.09716365 0.009218615 0.09572665 1 0 1
-0.09586955 0.009201848 0.09531736 1 0 1
-0.09508751 0.008975966 0.09573694 1 0 1
-0.09379973 0.008965675 0.09531692 1 0 1
-0.09251685 0.008959085 0.09489074 1 0 1
-0.09123886 0.008956151 0.09445836 1 0 1
-0.08996581 0.008956889 0.09401986 1 0 1
-0.08869776 0.008961237 0.09357527 1 0 1
-0.08743466 0.008969196 0.09312459 1 0 1
-0.08617662 0.008980723 0.09266788 1 0 1
-0.08492364 0.008995832 0.09220511 1 0 1
-0.08319855 0.009235548 0.09088586 1 0 1
-0.08195917 0.00925859 0.09040953 1 0 1
-0.08072493 0.00928513 0.08992727 1 0 1
-0.07949594 0.009315111 0.08943915 1 0 1
-0.07827216 0.009348567 0.08894517 1 0 1
-0.07705363 0.009385416 0.08844537 1 0 1
-0.07629728 0.009199475 0.08880008 1 0 1
-0.07553944 0.009015277 0.0891522 1 0 1
-0.07478009 0.008832769 0.08950175 1 0 1
-0.07446589 0.008423322 0.09071368 1 0 1
-0.07414334 0.008014008 0.09192614 1 0 1
-0.07293295 0.008065355 0.09140287 1 0 1
-0.07172802 0.008120031 0.0908739 1 0 1
-0.07096137 0.007946162 0.09121044 1 0 1
-0.07019329 0.007774022 0.09154435 1 0 1
-0.06942382 0.007603601 0.09187565 1 0 1
-0.06865291 0.007434934 0.09220435 1 0 1
-0.06829958 0.007033098 0.0934075 1 0 1
-0.06710696 0.00710277 0.09285387 1 0 1
-0.06633192 0.006939316 0.09317467 1 0 1
-0.06555552 0.006777552 0.09349284 1 0 1
-0.06477776 0.006617561 0.09380838 1 0 1
-0.06399866 0.006459318 0.09412127 1 0 1
-0.06321824 0.006302793 0.09443152 1 0 1
-0.06243651 0.006148025 0.09473911 1 0 1
-0.06165346 0.005994977 0.09504408 1 0 1
-0.06086913 0.005843715 0.09534637 1 0 1
-0.0600835 0.005694151 0.09564601 1 0 1
-0.05929659 0.005546365 0.09594297 1 0 1
-0.05813169 0.005643636 0.09534346 1 0 1
-0.05734584 0.005500005 0.09563378 1 0 1
-0.05655875 0.005358107 0.09592144 1 0 1
-0.05577045 0.005217948 0.09620644 1 0 1
-0.05498092 0.005079534 0.09648873 1 0 1
-0.05419021 0.004942874 0.09676839 1 0 1
-0.05375363 0.004560876 0.09794684 1 0 1
-0.05330871 0.004179403 0.0991251 1 0 1
-0.05215914 0.004295097 0.09849523 1 0 1
-0.05136013 0.004164837 0.09876533 1 0 1
-0.05090094 0.00378692 0.09993914 1 0 1
-0.04975872 0.003909638 0.09929749 1 0 1
-0.04929005 0.003534088 0.1004682 1 0 1
-0.04881302 0.003159205 0.1016386 1 0 1
-0.04800116 0.003036679 0.1018975 1 0 1
-0.04751103 0.002663705 0.1030659 1 0 1
-0.04733177 0.002038707 0.1051471 1 0 1
-0.04650574 0.001919942 0.1054011 1 0 1
-0.04567863 0.001803042 0.1056523 1 0 1
-0.04515874 0.001433628 0.1068174 1 0 1
-0.04432585 0.00131984 0.1070641 1 0 1
-0.04349193 0.001207842 0.107308 1 0 1
-0.04265695 0.001097685 0.107549 1 0 1
-0.04240828 0.0004768456 0.1096291 1 0 1
-0.04214388 -0.0001440371 0.1117105 1 0 1
-0.0418638 -0.0007649255 0.1137932 1 0 1
-0.04185059 -0.001643395 0.1168009 1 0 1
-0.04265109 -0.003296854 0.1225867 1 0 1
-0.04368157 -0.005212192 0.1293073 1 0 1
-0.04411624 -0.006613629 0.1341845 1 0 1
-0.04612006 -0.009573456 0.1446356 1 0 1
-0.04698484 -0.01150114 0.151389 1 0 1
-0.04649444 -0.01213147 0.1535032 1 0 1
-0.04598812 -0.01276118 0.1556177 1 0 1
-0.04571891 -0.01365118 0.1586639 1 0 1
-0.04467842 -0.01375723 0.1589147 1 0 1
-0.04363689 -0.01386102 0.1591618 1 0 1
-0.04283617 -0.01422457 0.1603397 1 0 1
-0.04178882 -0.0143242 0.1605807 1 0 1
-0.04050607 -0.01415877 0.1598822 1 0 1
-0.03946045 -0.0142535 0.1601153 1 0 1
-0.0386408 -0.01460941 0.1612824 1 0 1
-0.03758953 -0.01469994 0.1615092 1 0 1
-0.03675675 -0.01505226 0.1626717 1 0 1
-0.03591552 -0.01540292 0.1638321 1 0 1
-0.03527785 -0.01601658 0.1659313 1 0 1
-0.03441604 -0.01636414 0.1670885 1 0 1
-0.03354581 -0.01670995 0.1682435 1 0 1
-0.0324665 -0.01678848 0.1684533 1 0 1
-0.03138632 -0.01686462 0.1686595 1 0 1
-0.03049842 -0.01720451 0.1698064 1 0 1
-0.02979152 -0.01780885 0.1718962 1 0 1
-0.02943995 -0.01894489 0.1758766 1 0 1
-0.02833 -0.01901341 0.1760729 1 0 1
-0.02793147 -0.02014745 0.1800538 1 0 1
-0.02715335 -0.02074641 0.1821405 1 0 1
-0.02584783 -0.02054155 0.1813809 1 0 1
-0.02454911 -0.02033387 0.1806162 1 0 1
-0.02342011 -0.02039116 0.180796 1 0 1
-0.02181301 -0.01964201 0.1781215 1 0 1
-0.02022796 -0.01888941 0.1754397 1 0 1
-0.01896803 -0.01867006 0.1746534 1 0 1
-0.01727181 -0.01764252 0.1710065 1 0 1
0.06769038 -0.002481628 0.1310159 1 0 1
0.06844079 -0.002097883 0.1299282 1 0 1
0.06936432 -0.001964819 0.1297893 1 0 1
0.06991707 -0.00132773 0.1277468 1 0 1
0.07064296 -0.0009413114 0.1266531 1 0 1
0.07136062 -0.000554111 0.1255575 1 0 1
0.07187369 8.325352E-05 0.1235116 1 0 1
0.07277136 0.0002227824 0.1233605 1 0 1
0.07346443 0.0006124037 0.1222593 1 0 1
0.07394159 0.001250246 0.1202099 1 0 1
0.07482592 0.00139378 0.1200515 1 0 1
0.07527912 0.002031802 0.118 1 0 1
0.07593556 0.002423587 0.1168925 1 0 1
0.07658379 0.002815983 0.1157834 1 0 1
0.07745029 0.00296462 0.1156157 1 0 1
0.07808581 0.003358851 0.1145027 1 0 1
0.07894712 0.003510622 0.1143297 1 0 1
0.0795699 0.003906631 0.113213 1 0 1
-0.09851 0.008349299 0.09587278 1 0 1
-0.09721051 0.008332093 0.09547072 1 0 1
-0.09642653 0.008103049 0.09589463 1 0 1
-0.09513328 0.008092385 0.09548178 1 0 1
-0.09434905 0.007867913 0.09589855 1 0 1
-0.09256143 0.008082162 0.09463751 1 0 1
-0.09078534 0.008301958 0.09336681 1 0 1
-0.08951499 0.008306969 0.09292754 1 0 1
-0.08824967 0.008315615 0.09248221 1 0 1
-0.08698933 0.008327843 0.09203079 1 0 1
-0.08573402 0.008343653 0.09157335 1 0 1
-0.08448379 0.008363046 0.09110989 1 0 1
-0.08371609 0.008161158 0.09148993 1 0 1
-0.08199872 0.008412382 0.09016512 1 0 1
-0.08029328 0.00866887 0.08883112 1 0 1
-0.07906709 0.008703131 0.08834235 1 0 1
-0.07784612 0.008740854 0.08784775 1 0 1
-0.07663041 0.008781957 0.08734733 1 0 1
-0.07587706 0.008596556 0.08770034 1 0 1
-0.07557584 0.008182053 0.08891157 1 0 1
-0.07481611 0.007999236 0.08926103 1 0 1
-0.07405487 0.007818117 0.08960789 1 0 1
-0.07373549 0.007405543 0.09081765 1 0 1
-0.07296789 0.007227092 0.09116085 1 0 1
-0.07176239 0.007285232 0.0906329 1 0 1
-0.07099532 0.007111043 0.09096935 1 0 1
-0.06979731 0.007175014 0.09043163 1 0 1
-0.06903087 0.00700507 0.09076137 1 0 1
-0.06826305 0.006836866 0.09108853 1 0 1
-0.06791294 0.006431709 0.09228907 1 0 1
-0.06713886 0.006266212 0.09261244 1 0 1
-0.06636339 0.006102439 0.09293317 1 0 1
-0.06558657 0.005940429 0.09325128 1 0 1
-0.06480841 0.005780148 0.09356679 1 0 1
-0.06402889 0.005621619 0.09387963 1 0 1
-0.06284995 0.005707851 0.09330525 1 0 1
-0.06246589 0.005309756 0.09449738 1 0 1
-0.06168244 0.00515648 0.09480228 1 0 1
-0.06089768 0.005004928 0.09510453 1 0 1
-0.06011164 0.004855143 0.09540411 1 0 1
-0.05932432 0.004707085 0.09570102 1 0 1
-0.05815887 0.00480789 0.09510257 1 0 1
-0.05737261 0.004663994 0.09539287 1 0 1
-0.0565851 0.00452184 0.09568048 1 0 1
-0.05579637 0.004381448 0.09596543 1 0 1
-0.05536905 0.003993145 0.09714561 1 0 1
-0.05457432 0.003855621 0.09742647 1 0 1
-0.05377842 0.00371987 0.09770466 1 0 1
-0.05333319 0.003334397 0.09888182 1 0 1
-0.05253131 0.003201569 0.09915583 1 0 1
-0.0517283 0.003070523 0.09942715 1 0 1
-0.05092413 0.002941224 0.09969576 1 0 1
-0.05011882 0.002813735 0.09996164 1 0 1
-0.04931238 0.002687998 0.1002248 1 0 1
-0.04883501 0.002309085 0.1013941 1 0 1
-0.04802272 0.002186358 0.101653 1 0 1
-0.04753228 0.001809407 0.1028202 1 0 1
-0.04735277 0.001176591 0.1048992 1 0 1
-0.04684197 0.0008005687 0.1060666 1 0 1
-0.04601078 0.000682944 0.1063189 1 0 1
-0.04517851 0.0005671227 0.1065684 1 0 1
-0.04464991 0.0001945293 0.1077318 1 0 1
-0.04351082 0.0003409818 0.107059 1 0 1
-0.04297281 -2.895807E-05 0.1082188 1 0 1
-0.04242646 -0.0003979612 0.109378 1 0 1
-0.04187172 -0.0007661209 0.1105363 1 0 1
-0.041595 -0.001394322 0.1126157 1 0 1
-0.04158524 -0.002283925 0.1156192 1 0 1
-0.04238941 -0.003959969 0.1213974 1 0 1
-0.0456261 -0.008000245 0.1355084 1 0 1
-0.04684962 -0.01021215 0.1431645 1 0 1
-0.04801294 -0.01242869 0.1508328 1 0 1
-0.0472664 -0.01280463 0.1520186 1 0 1
-0.04651137 -0.01317916 0.153203 1 0 1
-0.04600466 -0.01381667 0.1553153 1 0 1
-0.0452289 -0.01418879 0.1564973 1 0 1
-0.04444468 -0.01455936 0.1576776 1 0 1
-0.04365195 -0.01492842 0.1588562 1 0 1
-0.04285074 -0.01529599 0.160033 1 0 1
-0.04204105 -0.01566196 0.1612081 1 0 1
-0.04075397 -0.01549321 0.1605115 1 0 1
-0.03970407 -0.01558843 0.1607455 1 0 1
-0.0386532 -0.01568137 0.1609758 1 0 1
-0.03760137 -0.01577202 0.1612027 1 0 1
-0.03654857 -0.01586041 0.161426 1 0 1
-0.03592634 -0.01648288 0.1635235 1 0 1
-0.03528818 -0.01710433 0.1656206 1 0 1
-0.0342176 -0.01718698 0.1658362 1 0 1
-0.03314615 -0.01726738 0.1660483 1 0 1
-0.03247523 -0.01788412 0.1681405 1 0 1
-0.03139447 -0.0179604 0.1683467 1 0 1
-0.03050604 -0.0183042 0.1694926 1 0 1
-0.02998805 -0.01918641 0.1725243 1 0 1
-0.02963222 -0.02033802 0.1765011 1 0 1
-0.02869977 -0.02067744 0.1776435 1 0 1
-0.02829318 -0.02182731 0.1816214 1 0 1
-0.02750695 -0.02243443 0.1837073 1 0 1
-0.02619325 -0.02222624 0.1829501 1 0 1
-0.02455292 -0.02147231 0.180292 1 0 1
-0.02342334 -0.02152964 0.1804719 1 0 1
-0.0216565 -0.02049731 0.1768517 1 0 1
-0.02022997 -0.02000508 0.1751222 1 0 1
0.06738096 -0.00289311 0.12886 1 0 1
0.06847941 -0.00301814 0.1296752 1 0 1
0.0692219 -0.00262943 0.1285867 1 0 1
0.06995625 -0.002239808 0.1274963 1 0 1
0.07068236 -0.001849339 0.1264038 1 0 1
0.07120752 -0.001204378 0.1243616 1 0 1
0.0719135 -0.000812821 0.1232659 1 0 1
0.07261122 -0.0004204855 0.1221684 1 0 1
0.07330077 -2.741563E-05 0.1210691 1 0 1
0.07398211 0.0003664104 0.1199679 1 0 1
0.07465522 0.0007609398 0.1188651 1 0 1
0.07532012 0.001156135 0.1177605 1 0 1
0.07575764 0.001801416 0.1157111 1 0 1
0.07640233 0.002197271 0.114604 1 0 1
0.07749216 0.002097453 0.115379 1 0 1
0.07835833 0.0022483 0.1152084 1 0 1
0.07898959 0.002647865 0.1140945 1 0 1
0.07961261 0.003047965 0.1129791 1 0 1
-0.0985565 0.007460647 0.09561244 1 0 1
-0.09725638 0.007446752 0.09521133 1 0 1
-0.09647199 0.007217318 0.09563509 1 0 1
-0.09517816 0.007209976 0.09522323 1 0 1
-0.09388914 0.007206343 0.09480516 1 0 1
-0.09210405 0.00742859 0.09354445 1 0 1
-0.09082817 0.007433278 0.09311227 1 0 1
-0.08955723 0.00744166 0.09267396 1 0 1
-0.0882913 0.007453633 0.0922296 1 0 1
-0.08654271 0.007695099 0.09093585 1 0 1
-0.08529018 0.007715194 0.09047771 1 0 1
-0.08404273 0.007738842 0.09001356 1 0 1
-0.0828004 0.007766036 0.08954348 1 0 1
-0.08108904 0.008026156 0.08821744 1 0 1
-0.08033124 0.00783093 0.08858556 1 0 1
-0.07910445 0.007868586 0.0880978 1 0 1
-0.07788289 0.007909714 0.08760417 1 0 1
-0.07666665 0.007954262 0.0871048 1 0 1
-0.07591289 0.007768497 0.08745771 1 0 1
-0.07561143 0.007349934 0.08866777 1 0 1
-0.07440092 0.007402183 0.08815587 1 0 1
-0.07408964 0.006985405 0.08936391 1 0 1
-0.07332653 0.006805691 0.0897081 1 0 1
-0.07256196 0.006627759 0.0900497 1 0 1
-0.07135933 0.006690134 0.08952122 1 0 1
-0.07059532 0.006516436 0.08985609 1 0 1
-0.0698299 0.006344483 0.09018837 1 0 1
-0.06863686 0.006415177 0.08964609 1 0 1
-0.06787208 0.00624741 0.08997168 1 0 1
-0.06752519 0.005838957 0.09116959 1 0 1
-0.06675418 0.005673904 0.09149145 1 0 1
-0.06639409 0.005266676 0.09268849 1 0 1
-0.06561685 0.00510438 0.09300654 1 0 1
-0.06483828 0.004943823 0.09332196 1 0 1
-0.06405833 0.004785013 0.09363475 1 0 1
-0.06287887 0.004874755 0.09306142 1 0 1
-0.06209982 0.004720143 0.09336753 1 0 1
-0.06171064 0.004319077 0.09455725 1 0 1
-0.06053784 0.00441614 0.09397184 1 0 1
-0.06013901 0.004017198 0.09515897 1 0 1
-0.05935128 0.0038689 0.09545584 1 0 1
-0.05818531 0.003973228 0.09485848 1 0 1
-0.05739862 0.003829076 0.09514873 1 0 1
-0.0566107 0.003686705 0.09543629 1 0 1
-0.05618787 0.003293261 0.09661671 1 0 1
-0.05539392 0.003153753 0.09690021 1 0 1
-0.05459879 0.003015969 0.09718107 1 0 1
-0.05380247 0.002880001 0.09745923 1 0 1
-0.05335691 0.002490501 0.09863522 1 0 1
-0.05255464 0.002357414 0.09890922 1 0 1
-0.0517512 0.002226191 0.09918053 1 0 1
-0.05094661 0.002096675 0.0994491 1 0 1
-0.05014087 0.00196895 0.09971498 1 0 1
-0.04933401 0.001842997 0.09997813 1 0 1
-0.04885632 0.001460093 0.1011463 1 0 1
-0.04804362 0.001337169 0.1014052 1 0 1
-0.04755282 0.0009562075 0.1025712 1 0 1
-0.04737307 0.0003156056 0.1046481 1 0 1
-0.04686191 -6.441758E-05 0.1058143 1 0 1
-0.0460303 -0.0001822102 0.1060666 1 0 1
-0.0458145 -0.000822054 0.1081451 1 0 1
-0.04497342 -0.0009372309 0.1083939 1 0 1
-0.04413131 -0.001050528 0.1086399 1 0 1
-0.04328814 -0.001162045 0.1088831 1 0 1
-0.04273773 -0.001535541 0.1100421 1 0 1
-0.04246908 -0.002172437 0.1121202 1 0 1
-0.04218471 -0.002809354 0.1141994 1 0 1
-0.04216736 -0.003711435 0.1172016 1 0 1
-0.04352222 -0.005942725 0.1248207 1 0 1
-0.04812159 -0.01137254 0.1435378 1 0 1
-0.04931187 -0.01361891 0.1511939 1 0 1
-0.04883397 -0.01426802 0.1533078 1 0 1
-0.04754731 -0.01411438 0.1526421 1 0 1
-0.04626695 -0.01395775 0.1519711 1 0 1
-0.04576354 -0.0146026 0.1540803 1 0 1
-0.04499104 -0.01497828 0.1552603 1 0 1
-0.04421003 -0.01535248 0.1564386 1 0 1
-0.04342055 -0.01572514 0.1576153 1 0 1
-0.04262257 -0.01609628 0.1587902 1 0 1
-0.04181611 -0.01646587 0.1599633 1 0 1
-0.04076668 -0.0165635 0.1602007 1 0 1
-0.03971624 -0.01665886 0.1604348 1 0 1
-0.03889187 -0.017023 0.1616006 1 0 1
-0.03761245 -0.01684272 0.160892 1 0 1
-0.03655912 -0.01693122 0.1611154 1 0 1
-0.03572064 -0.01728946 0.162273 1 0 1
-0.03508576 -0.01791828 0.1643671 1 0 1
-0.03422666 -0.01827343 0.1655214 1 0 1
-0.03315464 -0.0183539 0.1657334 1 0 1
-0.03248321 -0.01897839 0.1678235 1 0 1
-0.03179586 -0.01960161 0.1699128 1 0 1
-0.03089936 -0.01994981 0.1710591 1 0 1
-0.03037332 -0.02084405 0.1740889 1 0 1
-0.03000944 -0.02201152 0.1780627 1 0 1
-0.0290689 -0.02235528 0.1792053 1 0 1
-0.02829805 -0.02297167 0.1812904 1 0 1
-0.02768556 -0.02386138 0.1843197 1 0 1
-0.02619697 -0.02337459 0.1826182 1 0 1
-0.02455601 -0.02260926 0.1799634 1 0 1
-0.02326293 -0.02239121 0.179196 1 0 1
-0.02165841 -0.0216191 0.1765276 1 0 1
0.06794132 -0.004589217 0.1314533 1 0 1
0.06869605 -0.004196805 0.1303677 1 0 1
0.06944264 -0.003803445 0.12928 1 0 1
0.07018103 -0.003409193 0.1281902 1 0 1
0.07091121 -0.003014109 0.1270984 1 0 1
0.07144021 -0.0023607 0.1250579 1 0 1
0.0721502 -0.001964529 0.1239629 1 0 1
0.07285198 -0.001567522 0.122866 1 0 1
0.07334125 -0.0009141154 0.1208223 1 0 1
0.07402281 -0.0005162089 0.1197225 1 0 1
0.07469616 -0.0001176194 0.1186209 1 0 1
0.07536129 0.000281656 0.1175176 1 0 1
0.07601818 0.000681578 0.1164127 1 0 1
0.07666687 0.001082167 0.1153062 1 0 1
0.07753417 0.00123146 0.1151389 1 0 1
0.07840075 0.001382636 0.1149685 1 0 1
0.0790322 0.001786296 0.1138559 1 0 1
0.07965545 0.002190486 0.1127417 1 0 1
-0.09860203 0.006573229 0.09534868 1 0 1
-0.09730131 0.006562626 0.09494854 1 0 1
-0.09651648 0.00633275 0.09537219 1 0 1
-0.09471422 0.006552758 0.09412944 1 0 1
-0.09342795 0.006553397 0.09371059 1 0 1
-0.09214655 0.006557765 0.09328555 1 0 1
-0.09037224 0.006792643 0.0920173 1 0 1
-0.08860953 0.007033009 0.09073947 1 0 1
-0.08734968 0.007050192 0.09029266 1 0 1
-0.08609485 0.007070976 0.08983982 1 0 1
-0.0848451 0.007095341 0.08938099 1 0 1
-0.08360045 0.00712325 0.0889162 1 0 1
-0.08283865 0.006922437 0.08929269 1 0 1
-0.0816009 0.00695651 0.08881768 1 0 1
-0.08083929 0.006760073 0.08918731 1 0 1
-0.07960855 0.00680027 0.08870219 1 0 1
-0.07884724 0.006608185 0.08906501 1 0 1
-0.0776236 0.006654448 0.08856985 1 0 1
-0.07640526 0.006704115 0.08806887 1 0 1
-0.07564619 0.006518918 0.08842076 1 0 1
-0.0744351 0.006574567 0.08790986 1 0 1
-0.07412359 0.006153725 0.08911671 1 0 1
-0.07336007 0.005973758 0.08946081 1 0 1
-0.0725951 0.005795496 0.08980232 1 0 1
-0.07139193 0.005861321 0.0892749 1 0 1
-0.07062752 0.005687304 0.0896097 1 0 1
-0.06986167 0.005515025 0.0899419 1 0 1
-0.06866809 0.00558916 0.08940066 1 0 1
-0.06790292 0.005421137 0.08972619 1 0 1
-0.06755579 0.005008633 0.09092292 1 0 1
-0.06678436 0.004843314 0.09124468 1 0 1
-0.06642397 0.004432025 0.09244058 1 0 1
-0.06564634 0.004269434 0.09275857 1 0 1
-0.06486737 0.004108621 0.09307393 1 0 1
-0.06408703 0.003949531 0.09338667 1 0 1
-0.06330536 0.003792194 0.09369675 1 0 1
-0.06212756 0.003887865 0.09312046 1 0 1
-0.06173808 0.003482777 0.09430898 1 0 1
-0.06056475 0.00358333 0.09372467 1 0 1
-0.06016565 0.003180377 0.09491063 1 0 1
-0.05899683 0.003285793 0.09431829 1 0 1
-0.05821099 0.00313967 0.09461113 1 0 1
-0.05779744 0.002739976 0.09579314 1 0 1
-0.05663557 0.002852644 0.09518886 1 0 1
-0.05621242 0.002455169 0.09636814 1 0 1
-0.05541809 0.002315426 0.09665164 1 0 1
-0.05462253 0.00217745 0.09693245 1 0 1
-0.05382579 0.002041226 0.09721057 1 0 1
-0.05337993 0.00164773 0.0983854 1 0 1
-0.05222877 0.001774112 0.09775873 1 0 1
-0.05177336 0.001382932 0.09893063 1 0 1
-0.05096837 0.001253205 0.09919921 1 0 1
-0.05049984 0.0008638752 0.1003693 1 0 1
-0.04968893 0.0007371533 0.1006336 1 0 1
-0.0492073 0.0003497109 0.1018018 1 0 1
-0.04839054 0.0002260131 0.1020618 1 0 1
-0.04789578 -0.0001594773 0.1032279 1 0 1
-0.04739266 -0.0005442296 0.1043935 1 0 1
-0.04688118 -0.0009282399 0.1055587 1 0 1
-0.04636128 -0.001311442 0.1067232 1 0 1
-0.04583304 -0.001693854 0.1078871 1 0 1
-0.04499153 -0.001809218 0.108136 1 0 1
-0.04445019 -0.00218943 0.1092975 1 0 1
-0.04390046 -0.002568749 0.1104583 1 0 1
-0.04304847 -0.002679508 0.1107006 1 0 1
-0.04248567 -0.003056556 0.1118589 1 0 1
-0.04191448 -0.003432627 0.1130162 1 0 1
-0.04246622 -0.00488388 0.1178553 1 0 1
-0.04409661 -0.007415665 0.1263882 1 0 1
-0.0481385 -0.01238263 0.1432396 1 0 1
-0.04932876 -0.01465956 0.1508866 1 0 1
-0.04858242 -0.01504567 0.1520737 1 0 1
-0.04756321 -0.01515923 0.1523337 1 0 1
-0.0462823 -0.01499891 0.1516639 1 0 1
-0.04552153 -0.0153796 0.1528435 1 0 1
-0.04475227 -0.01575886 0.1540215 1 0 1
-0.04372505 -0.01586384 0.1542687 1 0 1
-0.04294254 -0.01623973 0.1554424 1 0 1
-0.04215152 -0.01661411 0.1566145 1 0 1
-0.04135206 -0.01698694 0.1577848 1 0 1
-0.04030954 -0.01708402 0.1580206 1 0 1
-0.03926606 -0.01717885 0.158253 1 0 1
-0.03844865 -0.01754624 0.159416 1 0 1
-0.03739948 -0.01763683 0.1596422 1 0 1
-0.03634936 -0.01772516 0.1598648 1 0 1
-0.03551412 -0.01808701 0.1610205 1 0 1
-0.03488251 -0.01872328 0.1631116 1 0 1
-0.03381837 -0.01880562 0.1633259 1 0 1
-0.03295786 -0.01916234 0.1644754 1 0 1
-0.03228971 -0.01979425 0.1665626 1 0 1
-0.03160562 -0.02042494 0.168649 1 0 1
-0.03090558 -0.02105431 0.1707346 1 0 1
-0.03056848 -0.02223775 0.1747029 1 0 1
-0.03001467 -0.02314285 0.1777305 1 0 1
-0.02943735 -0.0240469 0.1807583 1 0 1
-0.02865838 -0.02467143 0.1828425 1 0 1
-0.02803779 -0.02557304 0.1858699 1 0 1
-0.02637048 -0.02480027 0.1832268 1 0 1
-0.02489186 -0.02430286 0.1815218 1 0 1
-0.02326473 -0.02352295 0.1788642 1 0 1
0.06763183 -0.004986931 0.1292933 1 0 1
0.06855727 -0.004854907 0.1291582 1 0 1
0.06930033 -0.004458026 0.1280723 1 0 1
0.07022074 -0.00432258 0.1279314 1 0 1
0.07095118 -0.003923382 0.1268409 1 0 1
0.07148028 -0.003262195 0.1248027 1 0 1
0.07219049 -0.00286191 0.123709 1 0 1
0.07289254 -0.002460856 0.1226134 1 0 1
0.07338186 -0.001799628 0.1205721 1 0 1
0.07406367 -0.001397662 0.1194735 1 0 1
0.07473725 -0.0009949863 0.1183732 1 0 1
0.07540262 -0.0005916304 0.1172713 1 0 1
0.0758402 6.928383E-05 0.1152265 1 0 1
0.07648534 0.000473289 0.1141219 1 0 1
0.07734926 0.0006222705 0.1139556 1 0 1
0.07821248 0.0007731406 0.1137862 1 0 1
0.07884043 0.001180196 0.1126756 1 0 1
0.07969839 0.001334173 0.112501 1 0 1
-0.09812874 0.0059118 0.09425614 1 0 1
-0.09734529 0.005679692 0.09468235 1 0 1
-0.09604874 0.0056762 0.09427688 1 0 1
-0.09475701 0.005676437 0.09386522 1 0 1
-0.09347013 0.005680399 0.09344736 1 0 1
-0.09168678 0.005917687 0.0921891 1 0 1
-0.09041305 0.005930006 0.09175717 1 0 1
-0.08864959 0.006177464 0.09048147 1 0 1
-0.08738915 0.006197998 0.09003568 1 0 1
-0.08662176 0.005988828 0.09042493 1 0 1
-0.08536807 0.006015631 0.08996881 1 0 1
-0.08460075 0.005810933 0.09035116 1 0 1
-0.08335391 0.005843965 0.08988474 1 0 1
-0.0821122 0.005880554 0.08941239 1 0 1
-0.08087569 0.005920666 0.08893417 1 0 1
-0.08011211 0.005725604 0.08930112 1 0 1
-0.07888267 0.00577182 0.08881281 1 0 1
-0.07765848 0.005821484 0.08831868 1 0 1
-0.07643958 0.005874571 0.08781874 1 0 1
-0.07568012 0.005689044 0.08817051 1 0 1
-0.07491916 0.005505246 0.08851971 1 0 1
-0.07415672 0.005323225 0.08886631 1 0 1
-0.07339279 0.005142934 0.08921032 1 0 1
-0.07262743 0.004964333 0.08955179 1 0 1
-0.0714237 0.005033574 0.0890254 1 0 1
-0.07109232 0.004612405 0.09022684 1 0 1
-0.06989267 0.004686726 0.08969223 1 0 1
-0.06869853 0.004764302 0.08915208 1 0 1
-0.06835599 0.004346814 0.09034871 1 0 1
-0.06758557 0.004179452 0.09067304 1 0 1
-0.06681374 0.004013794 0.09099478 1 0 1
-0.0664531 0.003598498 0.09218945 1 0 1
-0.06567505 0.003435655 0.09250735 1 0 1
-0.06489567 0.003274513 0.09282269 1 0 1
-0.06371293 0.00336876 0.09225553 1 0 1
-0.06293438 0.003211882 0.09256415 1 0 1
-0.06215452 0.003056725 0.09287016 1 0 1
-0.06176479 0.002647592 0.09405752 1 0 1
-0.06097877 0.002495251 0.0943596 1 0 1
-0.06019152 0.002344674 0.09465906 1 0 1
-0.05940296 0.002195869 0.09495585 1 0 1
-0.05861315 0.002048786 0.09524996 1 0 1
-0.05782208 0.001903506 0.09554143 1 0 1
-0.05702978 0.001759992 0.09583022 1 0 1
-0.05623626 0.001618235 0.09611634 1 0 1
-0.05544149 0.001478246 0.09639979 1 0 1
-0.05464553 0.001340014 0.09668057 1 0 1
-0.05384839 0.001203564 0.09695865 1 0 1
-0.05340222 0.0008060561 0.09813233 1 0 1
-0.05225054 0.000935968 0.09750676 1 0 1
-0.05179483 0.0005408059 0.09867753 1 0 1
-0.05098941 0.0004108811 0.09894604 1 0 1
-0.05018285 0.0002827382 0.09921187 1 0 1
-0.04970924 -0.0001093835 0.1003793 1 0 1
-0.04922727 -0.000500813 0.1015463 1 0 1
-0.04841008 -0.0006247329 0.1018062 1 0 1
-0.0482382 -0.001281592 0.103879 1 0 1
-0.0477311 -0.001670884 0.1050446 1 0 1
-0.0468997 -0.001790917 0.1052997 1 0 1
-0.04637948 -0.00217811 0.1064631 1 0 1
-0.04615949 -0.002833974 0.1085381 1 0 1
-0.04531389 -0.002950055 0.108788 1 0 1
-0.04476851 -0.003334726 0.1099494 1 0 1
-0.04451238 -0.003989459 0.1120256 1 0 1
-0.04394656 -0.004372812 0.1131865 1 0 1
