ply
format ascii 1.0
Comment Generated by Floating Hands
element vertex 1280
property double x
property double y
property double z
property uchar red
property uchar green
property uchar blue
end_header
0.2227702 0.02071019 0.6546755 1 0 1
0.2256064 0.02130803 0.6539021 1 0 1
0.2276071 0.02204978 0.6502389 1 0 1
0.2293021 0.02283799 0.6456127 1 0 1
0.1865323 0.0101495 0.6664373 1 0 1
0.1887374 0.01085625 0.6628846 1 0 1
0.1906872 0.01162408 0.6583549 1 0 1
0.1944817 0.0119227 0.6615838 1 0 1
0.1980641 0.01229022 0.663826 1 0 1
0.2009402 0.01283989 0.6631464 1 0 1
0.2038134 0.01339518 0.6624564 1 0 1
0.2074307 0.01378842 0.664656 1 0 1
0.2095509 0.01452294 0.6610438 1 0 1
0.2116466 0.01525894 0.6574264 1 0 1
0.2150167 0.01572736 0.6586246 1 0 1
0.2173446 0.01641661 0.6559554 1 0 1
0.2201889 0.01700406 0.6552039 1 0 1
0.2230302 0.01759723 0.6544418 1 0 1
0.2250456 0.01834843 0.6507881 1 0 1
0.2278697 0.01895072 0.6500078 1 0 1
0.230128 0.01965719 0.6473003 1 0 1
0.1397121 -0.0004242758 0.6719553 1 0 1
0.1426279 9.705248E-06 0.6714919 1 0 1
0.1462327 0.0001567998 0.674947 1 0 1
0.1847577 0.006230643 0.6706994 1 0 1
0.186768 0.0070138 0.6661809 1 0 1
0.1889743 0.007733351 0.6626298 1 0 1
0.1909247 0.008517989 0.6581021 1 0 1
0.1947223 0.008801758 0.6613305 1 0 1
0.1990231 0.008972756 0.6664798 1 0 1
0.201912 0.009525388 0.6657985 1 0 1
0.2047979 0.01008386 0.6651062 1 0 1
0.2124119 0.01202726 0.6591067 1 0 1
0.2160518 0.01243255 0.6612669 1 0 1
0.218128 0.01319007 0.6576335 1 0 1
0.2204468 0.01389256 0.6549569 1 0 1
0.2224771 0.01465313 0.6513125 1 0 1
0.2247574 0.01536022 0.6486235 1 0 1
0.2275762 0.01596201 0.6478459 1 0 1
0.2318001 0.01630382 0.6518479 1 0 1
0.1399156 -0.003560175 0.6716777 1 0 1
0.1436802 -0.003513753 0.6761273 1 0 1
0.1841102 0.003357649 0.6665367 1 0 1
0.186331 0.004086365 0.6629956 1 0 1
0.1892111 0.004612955 0.6623624 1 0 1
0.1911623 0.005414188 0.6578367 1 0 1
0.1949631 0.005683388 0.6610644 1 0 1
0.1992676 0.005831705 0.6662124 1 0 1
0.2021583 0.006385381 0.6655318 1 0 1
0.2035701 0.007331844 0.6590376 1 0 1
0.2079312 0.007510091 0.6641381 1 0 1
0.2100533 0.008270067 0.6605293 1 0 1
0.2121509 0.009031904 0.6569152 1 0 1
0.2163075 0.009301851 0.661004 1 0 1
0.2183846 0.01007215 0.6573724 1 0 1
0.2207047 0.01078346 0.6546971 1 0 1
0.2235496 0.01137879 0.6539365 1 0 1
0.2255669 0.01215574 0.6502863 1 0 1
0.2292302 0.01258659 0.6523835 1 0 1
0.2326295 0.01308494 0.6535066 1 0 1
0.1430392 -0.006257725 0.6709253 1 0 1
0.14665 -0.0061407 0.6743786 1 0 1
0.1816632 -0.0003659815 0.6678411 1 0 1
0.1836814 0.0004455368 0.6633366 1 0 1
0.186566 0.0009674161 0.6627148 1 0 1
0.189448 0.001495012 0.6620824 1 0 1
0.1913999 0.002313102 0.6575587 1 0 1
0.1952038 0.002567442 0.6607857 1 0 1
0.199512 0.002693256 0.6659322 1 0 1
0.2024047 0.003247923 0.6652522 1 0 1
0.2045555 0.004013752 0.6616613 1 0 1
0.2081813 0.004374667 0.6638601 1 0 1
0.2103045 0.005147723 0.6602529 1 0 1
0.212403 0.005922223 0.6566405 1 0 1
0.2157808 0.006370203 0.6578389 1 0 1
0.2181123 0.007086316 0.6551739 1 0 1
0.2209624 0.007677075 0.6544247 1 0 1
0.2229945 0.008463409 0.6507838 1 0 1
0.2252771 0.009188409 0.6480976 1 0 1
0.2280997 0.009792401 0.6473215 1 0 1
0.2323307 0.0100971 0.6513217 1 0 1
0.1403235 -0.009824382 0.6710848 1 0 1
0.1440945 -0.009815866 0.6755319 1 0 1
0.188375 -0.002684214 0.6692213 1 0 1
0.1932625 -0.001311436 0.6640567 1 0 1
0.1968592 -0.0009924868 0.666308 1 0 1
0.1997566 -0.0004425305 0.6656393 1 0 1
0.2048028 0.0008917678 0.6613708 1 0 1
0.2144576 0.002323748 0.6630993 1 0 1
0.2173409 0.002909045 0.6623657 1 0 1
0.2188976 0.003843979 0.6568118 1 0 1
0.2217567 0.004437255 0.6560615 1 0 1
0.2240688 0.005170792 0.6533805 1 0 1
0.2269143 0.005773967 0.6526108 1 0 1
0.2297567 0.006383082 0.6518305 1 0 1
0.2337265 0.006738106 0.6548676 1 0 1
0.1405279 -0.01295265 0.6707695 1 0 1
0.1443021 -0.01296305 0.6752151 1 0 1
0.1886122 -0.005825451 0.6689126 1 0 1
0.1915235 -0.005291155 0.668276 1 0 1
0.1935023 -0.004434878 0.6637508 1 0 1
0.1963935 -0.003891769 0.6630961 1 0 1
0.1985628 -0.003109829 0.6595274 1 0 1
0.2021675 -0.0027882 0.6617545 1 0 1
0.2043093 -0.001998869 0.6581696 1 0 1
0.2079299 -0.001661431 0.6603702 1 0 1
0.2113151 -0.001239199 0.6615907 1 0 1
0.214196 -0.0006600796 0.6608701 1 0 1
0.2170742 -7.479665E-05 0.660139 1 0 1
0.2191539 0.0007339309 0.6565127 1 0 1
0.2214776 0.001472074 0.6538419 1 0 1
0.2243282 0.00207068 0.6530835 1 0 1
0.2263481 0.002886158 0.6494386 1 0 1
0.2294609 0.003424259 0.6496197 1 0 1
0.2322947 0.004038659 0.6488315 1 0 1
0.1879477 -0.008626695 0.6647089 1 0 1
0.1917626 -0.008428739 0.6679552 1 0 1
0.194673 -0.007887668 0.6673084 1 0 1
0.1973443 -0.007258549 0.6656827 1 0 1
0.1995256 -0.006461578 0.6621134 1 0 1
0.2031438 -0.006148681 0.6643375 1 0 1
0.2052975 -0.005344446 0.6607518 1 0 1
0.2089318 -0.005015568 0.6629493 1 0 1
0.2115668 -0.004361528 0.6612754 1 0 1
0.2136753 -0.003547105 0.6576668 1 0 1
0.2165443 -0.002963243 0.6569392 1 0 1
0.2188794 -0.002220418 0.6542786 1 0 1
0.2217351 -0.001626448 0.6535315 1 0 1
0.2245875 -0.001026732 0.6527738 1 0 1
0.2274367 -0.0004212177 0.6520056 1 0 1
0.2302827 0.0001899312 0.6512268 1 0 1
0.2331255 0.0008069752 0.6504375 1 0 1
0.1890867 -0.01210001 0.6682572 1 0 1
0.1920017 -0.01156378 0.6676219 1 0 1
0.1975869 -0.0103875 0.6653511 1 0 1
0.199769 -0.00957779 0.6617836 1 0 1
0.2175849 -0.006312747 0.6594988 1 0 1
0.219135 -0.005317433 0.653955 1 0 1
0.2219924 -0.004722354 0.6532086 1 0 1
0.2248466 -0.004121513 0.6524517 1 0 1
0.2276977 -0.003514858 0.6516841 1 0 1
0.2299854 -0.002747606 0.6489924 1 0 1
0.2322554 -0.001977772 0.646294 1 0 1
0.189324 -0.0152334 0.6679105 1 0 1
0.1922409 -0.01469609 0.6672757 1 0 1
0.1978295 -0.01351386 0.6650068 1 0 1
0.2000126 -0.01269145 0.6614413 1 0 1
0.2029038 -0.01213356 0.6607673 1 0 1
0.2050483 -0.0113059 0.6571881 1 0 1
0.2079228 -0.0107385 0.6564955 1 0 1
0.2100288 -0.009905721 0.6529029 1 0 1
0.2136627 -0.009586638 0.6550782 1 0 1
0.2165281 -0.00900197 0.6543537 1 0 1
0.2193905 -0.008411624 0.6536186 1 0 1
0.2222496 -0.007815493 0.6528731 1 0 1
0.2251058 -0.007213438 0.6521168 1 0 1
0.2279586 -0.00660586 0.6513501 1 0 1
0.2308082 -0.005992282 0.6505728 1 0 1
0.2325185 -0.005050791 0.6459631 1 0 1
0.1864171 -0.01879969 0.6672045 1 0 1
0.1893349 -0.01826791 0.6665819 1 0 1
0.1908702 -0.01715767 0.6601375 1 0 1
0.1937606 -0.01661828 0.6594984 1 0 1
0.1966484 -0.01607311 0.6588486 1 0 1
0.1995333 -0.01552217 0.6581883 1 0 1
0.2024154 -0.01496535 0.6575173 1 0 1
0.2052945 -0.01440286 0.6568359 1 0 1
0.2081708 -0.01383443 0.6561438 1 0 1
0.2102778 -0.01298876 0.6525534 1 0 1
0.2131371 -0.01241111 0.651843 1 0 1
0.2159935 -0.01182762 0.6511219 1 0 1
0.2188468 -0.01123824 0.6503904 1 0 1
0.221697 -0.01064323 0.6496483 1 0 1
0.224544 -0.01004251 0.6488957 1 0 1
0.227665 -0.009521918 0.6490897 1 0 1
0.2288248 -0.008397402 0.642579 1 0 1
0.230791 -0.00752997 0.6389348 1 0 1
0.1859834 -0.02162259 0.6639236 1 0 1
0.1888921 -0.02109179 0.663304 1 0 1
0.1911073 -0.02025715 0.6597694 1 0 1
0.1939996 -0.01971677 0.6591309 1 0 1
0.1968891 -0.01917046 0.6584818 1 0 1
0.2004996 -0.0189103 0.660719 1 0 1
0.2033944 -0.0183503 0.6600462 1 0 1
0.2055408 -0.01749703 0.6564712 1 0 1
0.2084188 -0.01692759 0.6557797 1 0 1
0.2097592 -0.01578607 0.649305 1 0 1
0.2133877 -0.01549043 0.6514816 1 0 1
0.2162459 -0.01490585 0.6507614 1 0 1
0.2191011 -0.01431542 0.6500304 1 0 1
0.2227639 -0.0139935 0.6521644 1 0 1
0.2261712 -0.01357067 0.6533247 1 0 1
0.2284799 -0.0127792 0.6506443 1 0 1
0.2302088 -0.01180699 0.6460464 1 0 1
0.232475 -0.01101189 0.6433548 1 0 1
0.1920361 -0.02366354 0.6622916 1 0 1
0.1942385 -0.02281237 0.658751 1 0 1
0.1971299 -0.02226515 0.6581026 1 0 1
0.2000185 -0.02171208 0.6574435 1 0 1
0.2029041 -0.02115314 0.656774 1 0 1
0.2057869 -0.0205885 0.6560938 1 0 1
0.2079094 -0.0197208 0.6525155 1 0 1
0.2107753 -0.01914679 0.6518169 1 0 1
0.2136383 -0.0185669 0.6511078 1 0 1
0.2157082 -0.0176906 0.6475087 1 0 1
0.2193552 -0.01738968 0.649658 1 0 1
0.2230207 -0.01707835 0.6517913 1 0 1
0.2258821 -0.01647294 0.6510373 1 0 1
0.2281847 -0.01567435 0.6483607 1 0 1
0.2304696 -0.01487284 0.6456773 1 0 1
0.2321669 -0.01388435 0.6410793 1 0 1
0.1573753 -0.03296218 0.6697211 1 0 1
0.1603161 -0.03248727 0.6692082 1 0 1
0.1871228 -0.02816626 0.6660505 1 0 1
0.1900462 -0.02763148 0.6654297 1 0 1
0.1915814 -0.02644781 0.6589959 1 0 1
0.1944774 -0.02590537 0.6583586 1 0 1
0.1964178 -0.02493391 0.653849 1 0 1
0.2002609 -0.02480286 0.6570525 1 0 1
0.2031484 -0.02424297 0.6563835 1 0 1
0.206033 -0.02367713 0.6557041 1 0 1
0.2081564 -0.02279674 0.6521279 1 0 1
0.2117934 -0.02252812 0.6543134 1 0 1
0.2138888 -0.02164061 0.6507216 1 0 1
0.2175416 -0.02135592 0.6528807 1 0 1
0.2204111 -0.02076109 0.6521485 1 0 1
0.2232774 -0.02016043 0.6514056 1 0 1
0.2261407 -0.01955396 0.6506525 1 0 1
0.2284444 -0.01874633 0.6479775 1 0 1
0.2301669 -0.01774212 0.6433867 1 0 1
0.2315719 -0.01664242 0.6378398 1 0 1
0.1954209 -0.02932654 0.660851 1 0 1
0.1976113 -0.02844606 0.6573067 1 0 1
0.2019564 -0.02854468 0.6624335 1 0 1
0.2033927 -0.02732981 0.6559806 1 0 1
0.2062791 -0.02676298 0.6553019 1 0 1
0.2091624 -0.02619039 0.6546125 1 0 1
0.21384 -0.02635453 0.6606371 1 0 1
0.2154411 -0.02523822 0.6551216 1 0 1
0.2188507 -0.02485585 0.6563166 1 0 1
0.2212012 -0.02404912 0.6536656 1 0 1
0.2251615 -0.02385824 0.6567495 1 0 1
0.226399 -0.02263201 0.650255 1 0 1
0.2292607 -0.02201857 0.649492 1 0 1
0.2309909 -0.02099619 0.644902 1 0 1
0.2332603 -0.02017427 0.6422156 1 0 1
0.1905204 -0.0338598 0.6645988 1 0 1
0.1934447 -0.03331694 0.6639686 1 0 1
0.1949552 -0.03208265 0.6575364 1 0 1
0.1961804 -0.03073733 0.6501392 1 0 1
0.2007459 -0.03097606 0.656233 1 0 1
0.2028985 -0.03007753 0.6526771 1 0 1
0.206525 -0.02984602 0.6548873 1 0 1
0.20865 -0.02894014 0.6513155 1 0 1
0.2128064 -0.02891269 0.6554196 1 0 1
0.2151716 -0.0281072 0.6527896 1 0 1
0.2191049 -0.02795 0.6559025 1 0 1
0.2209207 -0.02691879 0.6513384 1 0 1
0.2248768 -0.02674398 0.6544229 1 0 1
0.2266572 -0.02570719 0.6498452 1 0 1
0.2295207 -0.0250926 0.6490828 1 0 1
0.2318161 -0.02426282 0.6464028 1 0 1
0.2340937 -0.02343039 0.6437162 1 0 1
0.1959004 -0.0355216 0.6600008 1 0 1
0.1973753 -0.03426319 0.6535693 1 0 1
0.2009883 -0.03405832 0.6558045 1 0 1
0.2031418 -0.03314704 0.6522511 1 0 1
0.206771 -0.03292613 0.6544601 1 0 1
0.209658 -0.03235136 0.6537722 1 0 1
0.2172497 -0.03197595 0.6590753 1 0 1
0.2274663 -0.02899968 0.651333 1 0 1
0.2297805 -0.02816365 0.6486613 1 0 1
0.2326424 -0.02754216 0.6478891 1 0 1
0.2349283 -0.02669922 0.6452024 1 0 1
0.1670795 -0.04396544 0.6664234 1 0 1
0.1706286 -0.0438531 0.6687934 1 0 1
0.1903094 -0.0397063 0.6608207 1 0 1
0.1932262 -0.03916343 0.6601941 1 0 1
0.195433 -0.03824864 0.6566647 1 0 1
0.1976149 -0.03733206 0.6531295 1 0 1
0.2012306 -0.03713778 0.6553636 1 0 1
0.2026447 -0.03585384 0.6489276 1 0 1
0.2070168 -0.03600339 0.6540206 1 0 1
0.2083813 -0.0347165 0.6475738 1 0 1
0.2133065 -0.03508118 0.6545534 1 0 1
0.2161963 -0.03449206 0.6538433 1 0 1
0.2204079 -0.03447837 0.6579088 1 0 1
0.2219669 -0.03329613 0.6523914 1 0 1
0.2253919 -0.03291896 0.6535603 1 0 1
0.2271731 -0.03184889 0.6489884 1 0 1
0.23004 -0.03123191 0.6482275 1 0 1
0.2323376 -0.0303844 0.645551 1 0 1
0.2340439 -0.0293109 0.6409651 1 0 1
0.1643566 -0.04756088 0.6664917 1 0 1
0.1673019 -0.04706958 0.6659604 1 0 1
0.1905457 -0.04279863 0.6603632 1 0 1
0.192767 -0.0418749 0.6568443 1 0 1
0.1956717 -0.04132722 0.6562101 1 0 1
0.1971355 -0.04002225 0.6497892 1 0 1
0.2000126 -0.03946707 0.649139 1 0 1
0.2014047 -0.03816307 0.6427121 1 0 1
0.2057583 -0.03833916 0.6478074 1 0 1
0.2086269 -0.03776645 0.647126 1 0 1
0.2130403 -0.03791778 0.6521848 1 0 1
0.2159246 -0.03732906 0.6514771 1 0 1
0.218806 -0.03673432 0.6507589 1 0 1
0.2208774 -0.03577571 0.647163 1 0 1
0.2245591 -0.03552755 0.649291 1 0 1
0.2254978 -0.03409039 0.6418643 1 0 1
0.2291804 -0.03382893 0.6439695 1 0 1
0.2308977 -0.0327431 0.6393949 1 0 1
0.2337307 -0.03211959 0.6386216 1 0 1
0.1907818 -0.04588805 0.6598932 1 0 1
0.1937022 -0.04534315 0.659268 1 0 1
0.1966196 -0.04479234 0.6586322 1 0 1
0.1988143 -0.04384821 0.6550994 1 0 1
0.2009841 -0.04290244 0.651561 1 0 1
0.203129 -0.04195511 0.648017 1 0 1
0.2067551 -0.04176814 0.6502256 1 0 1
0.2088723 -0.04081347 0.6466659 1 0 1
0.2132894 -0.04098689 0.6517219 1 0 1
0.2161754 -0.04039704 0.6510149 1 0 1
0.2190584 -0.03980126 0.6502975 1 0 1
0.2219383 -0.03919968 0.6495694 1 0 1
0.2239963 -0.03822467 0.6459682 1 0 1
0.2257532 -0.03712674 0.641409 1 0 1
0.2283179 -0.03639202 0.6397038 1 0 1
0.2305884 -0.03553302 0.6370389 1 0 1
0.2337033 -0.03502931 0.6372187 1 0 1
0.2024453 -0.04662288 0.6558884 1 0 1
0.204857 -0.04579078 0.6533026 1 0 1
0.2077537 -0.04521747 0.6526278 1 0 1
0.2106476 -0.04463817 0.6519426 1 0 1
0.2140556 -0.04431184 0.6531613 1 0 1
0.2169506 -0.04371933 0.6524531 1 0 1
0.2198425 -0.04312087 0.6517346 1 0 1
0.2227314 -0.04251661 0.6510054 1 0 1
0.2250706 -0.04165371 0.6483585 1 0 1
0.2273922 -0.04078797 0.6457048 1 0 1
0.229696 -0.03991953 0.6430445 1 0 1
0.231414 -0.03880045 0.6384761 1 0 1
0.234538 -0.03829782 0.638654 1 0 1
0.1416663 -0.06089634 0.6708317 1 0 1
0.1997763 -0.05026221 0.6560517 1 0 1
0.2014665 -0.04901734 0.6505964 1 0 1
0.2043569 -0.04845092 0.6499353 1 0 1
0.2064895 -0.04747447 0.6463885 1 0 1
0.209363 -0.04689853 0.645709 1 0 1
0.2137872 -0.04711613 0.650759 1 0 1
0.2166765 -0.04652403 0.6500534 1 0 1
0.2195629 -0.04592597 0.6493373 1 0 1
0.2224461 -0.0453221 0.6486107 1 0 1
0.2253262 -0.04471223 0.6478736 1 0 1
0.2262631 -0.04319047 0.6404616 1 0 1
0.229392 -0.04270308 0.6406613 1 0 1
0.2316719 -0.04182459 0.6379983 1 0 1
0.2345099 -0.04119762 0.6372271 1 0 1
0.2007402 -0.05375769 0.6584281 1 0 1
0.2024414 -0.05249034 0.6529741 1 0 1
0.2053445 -0.05192068 0.6523112 1 0 1
0.2082446 -0.05134511 0.6516376 1 0 1
0.2111416 -0.05076363 0.6509537 1 0 1
0.2153321 -0.05086179 0.6550394 1 0 1
0.2187672 -0.05053752 0.6562403 1 0 1
0.2216807 -0.04993301 0.6555184 1 0 1
0.2243209 -0.04918766 0.6538328 1 0 1
0.2272244 -0.0485722 0.6530908 1 0 1
0.2284601 -0.04715075 0.6466296 1 0 1
0.2302109 -0.04599809 0.6420703 1 0 1
0.2324989 -0.04510902 0.6394073 1 0 1
0.2350575 -0.0443484 0.6376864 1 0 1
0.2060852 -0.05526724 0.6537129 1 0 1
0.2089943 -0.05468917 0.6530383 1 0 1
0.2113887 -0.05382175 0.6504407 1 0 1
0.2153226 -0.05379715 0.6535684 1 0 1
0.2190197 -0.05362038 0.6557242 1 0 1
0.2298279 -0.05075067 0.6499242 1 0 1
0.2315937 -0.04957807 0.6453642 1 0 1
0.2344673 -0.04894821 0.6445972 1 0 1
0.2367602 -0.04804296 0.6419238 1 0 1
0.198531 -0.06063087 0.6589827 1 0 1
0.2007405 -0.0596213 0.6554603 1 0 1
0.2034157 -0.05890548 0.6538484 1 0 1
0.2058315 -0.05803816 0.6512704 1 0 1
0.2092401 -0.05775304 0.6525112 1 0 1
0.2116354 -0.05687675 0.6499156 1 0 1
0.2150527 -0.05657675 0.651132 1 0 1
0.2179543 -0.05597972 0.6504266 1 0 1
0.2208529 -0.05537675 0.6497108 1 0 1
0.2232067 -0.0544827 0.6470804 1 0 1
0.2277384 -0.05471998 0.6520518 1 0 1
0.2289735 -0.05325013 0.6455998 1 0 1
0.2318519 -0.05262505 0.6448439 1 0 1
0.2341564 -0.05171512 0.6421812 1 0 1
0.235865 -0.05052531 0.6376173 1 0 1
0.1783555 -0.06765826 0.6636212 1 0 1
0.1804501 -0.06650579 0.6591948 1 0 1
0.1842701 -0.06660434 0.6624671 1 0 1
0.1990094 -0.06386449 0.6593971 1 0 1
0.2009815 -0.06268913 0.6549181 1 0 1
0.2031669 -0.06166521 0.6513927 1 0 1
0.206075 -0.06109222 0.6507317 1 0 1
0.2097387 -0.06096382 0.6529275 1 0 1
0.2131647 -0.06067573 0.6541528 1 0 1
0.2195241 -0.05977659 0.6546549 1 0 1
0.2216401 -0.0587271 0.6510785 1 0 1
0.2245444 -0.05811556 0.650351 1 0 1
0.2303436 -0.05687446 0.6488645 1 0 1
0.2321099 -0.05566881 0.6443115 1 0 1
0.2349867 -0.05503648 0.6435458 1 0 1
0.2367029 -0.05382846 0.6389834 1 0 1
0.1756217 -0.07126559 0.6636196 1 0 1
0.1785845 -0.07074668 0.663059 1 0 1
0.1815447 -0.0702218 0.6624879 1 0 1
0.2063183 -0.06414316 0.6501806 1 0 1
0.2099845 -0.06402517 0.652375 1 0 1
0.2126424 -0.06328379 0.650737 1 0 1
0.2155503 -0.06269044 0.6500434 1 0 1
0.2184553 -0.06209109 0.6493394 1 0 1
0.2213571 -0.06148577 0.648625 1 0 1
0.2237128 -0.06057411 0.6459987 1 0 1
0.2277015 -0.06055625 0.649064 1 0 1
0.2300435 -0.0596342 0.6464187 1 0 1
0.2318029 -0.05841357 0.641871 1 0 1
0.234674 -0.0577817 0.641108 1 0 1
0.2363833 -0.05655877 0.6365511 1 0 1
0.1722656 -0.07436527 0.6607007 1 0 1
0.1743847 -0.0731887 0.6562988 1 0 1
0.1773232 -0.07267332 0.6557438 1 0 1
0.1809089 -0.07264657 0.6580651 1 0 1
0.1847346 -0.07277395 0.661333 1 0 1
0.205127 -0.06872183 0.6560135 1 0 1
0.2065615 -0.0671908 0.6496174 1 0 1
0.2094698 -0.06660973 0.6489472 1 0 1
0.2123751 -0.06602272 0.6482667 1 0 1
0.2152774 -0.06542967 0.6475755 1 0 1
0.2181766 -0.06483074 0.646874 1 0 1
0.2210727 -0.06422577 0.646162 1 0 1
0.2231503 -0.06315268 0.6425897 1 0 1
0.2268555 -0.06299806 0.6447066 1 0 1
0.2297419 -0.06237534 0.6439633 1 0 1
0.2314943 -0.06113979 0.639421 1 0 1
0.2349325 -0.06081007 0.6405532 1 0 1
0.236642 -0.05957064 0.6359997 1 0 1
0.1752384 -0.0767547 0.6586054 1 0 1
0.1790423 -0.07691389 0.6618978 1 0 1
0.2053704 -0.07179053 0.6554331 1 0 1
0.2068046 -0.07023527 0.6490421 1 0 1
0.2097145 -0.06965307 0.6483725 1 0 1
0.2141661 -0.0700307 0.6534092 1 0 1
0.2163086 -0.06895138 0.6498579 1 0 1
0.2197499 -0.06866793 0.6510564 1 0 1
0.2218606 -0.06758196 0.6474903 1 0 1
0.2242183 -0.06665254 0.6448682 1 0 1
0.2271097 -0.06603453 0.644136 1 0 1
0.2299977 -0.06541062 0.6433934 1 0 1
0.2314674 -0.06400297 0.6379083 1 0 1
0.2346174 -0.06352584 0.6380951 1 0 1
0.2369005 -0.06257931 0.6354362 1 0 1
0.2048733 -0.07435483 0.6519766 1 0 1
0.2070475 -0.0732765 0.6484545 1 0 1
0.209959 -0.07269316 0.6477856 1 0 1
0.2136408 -0.07259832 0.6499624 1 0 1
0.2173416 -0.07249288 0.6521236 1 0 1
0.2221121 -0.07062519 0.6469045 1 0 1
0.2250155 -0.07001041 0.6461816 1 0 1
0.2273636 -0.06906772 0.6435531 1 0 1
0.2302533 -0.06844264 0.6428113 1 0 1
0.2311561 -0.06669587 0.6354392 1 0 1
0.2345877 -0.06638149 0.6365726 1 0 1
0.2371587 -0.06558471 0.6348607 1 0 1
0.1999717 -0.07906535 0.6555294 1 0 1
0.2029156 -0.07849466 0.6548876 1 0 1
0.2043744 -0.07689278 0.6485124 1 0 1
0.2072903 -0.07631438 0.6478546 1 0 1
0.2102034 -0.07572995 0.6471864 1 0 1
0.2131135 -0.07513955 0.6465077 1 0 1
0.2160205 -0.0745431 0.6458187 1 0 1
0.2194553 -0.07427486 0.6470183 1 0 1
0.2218252 -0.07333231 0.6444092 1 0 1
0.2247229 -0.07271795 0.6436889 1 0 1
0.2262354 -0.0712736 0.638224 1 0 1
0.2285483 -0.07032322 0.6355959 1 0 1
0.230276 -0.06904375 0.6310712 1 0 1
0.2336952 -0.06873912 0.6322076 1 0 1
0.2353798 -0.06745582 0.6276721 1 0 1
0.1994916 -0.08159792 0.6520469 1 0 1
0.2024261 -0.08102822 0.6514081 1 0 1
0.2046156 -0.07992846 0.6478999 1 0 1
0.2075331 -0.07934897 0.6472427 1 0 1
0.2104478 -0.07876332 0.6465752 1 0 1
0.2133593 -0.07817191 0.6458972 1 0 1
0.2162679 -0.07757429 0.6452089 1 0 1
0.2191733 -0.07697078 0.64451 1 0 1
0.2220757 -0.07636123 0.6438008 1 0 1
0.2249749 -0.07574563 0.6430811 1 0 1
0.2278709 -0.07512408 0.642351 1 0 1
0.2307637 -0.07449663 0.6416106 1 0 1
0.2322331 -0.07302798 0.6361388 1 0 1
0.235101 -0.07239249 0.6353823 1 0 1
0.2362178 -0.07075871 0.6289622 1 0 1
0.1399695 -0.09420764 0.6590744 1 0 1
0.1429434 -0.09375997 0.658648 1 0 1
0.1459154 -0.09330627 0.6582112 1 0 1
0.1525756 -0.09314227 0.6611656 1 0 1
0.1977379 -0.08593121 0.6558648 1 0 1
0.1990096 -0.08410405 0.6485568 1 0 1
0.2019346 -0.08353547 0.6479213 1 0 1
0.203866 -0.08224678 0.6434661 1 0 1
0.2077757 -0.08238018 0.6466188 1 0 1
0.2106918 -0.08179351 0.6459518 1 0 1
0.2136049 -0.08120078 0.6452744 1 0 1
0.2165151 -0.08060223 0.6445867 1 0 1
0.2194221 -0.07999735 0.6438886 1 0 1
0.222326 -0.0793867 0.64318 1 0 1
0.2252267 -0.07877 0.6424611 1 0 1
0.2281242 -0.07814719 0.6417316 1 0 1
0.2301765 -0.07700362 0.638159 1 0 1
0.2324879 -0.07602956 0.6355248 1 0 1
0.2344933 -0.07488291 0.6319418 1 0 1
0.2367652 -0.07390429 0.6292958 1 0 1
0.2058413 -0.08653667 0.6494927 1 0 1
0.2097796 -0.08667912 0.6526369 1 0 1
0.2124678 -0.08590525 0.651015 1 0 1
0.2146275 -0.08476675 0.6474865 1 0 1
0.2167622 -0.0836265 0.6439525 1 0 1
0.2196706 -0.08302072 0.6432551 1 0 1
0.222576 -0.0824088 0.6425472 1 0 1
0.2260257 -0.08214495 0.6437197 1 0 1
0.2283773 -0.08116695 0.6411002 1 0 1
0.2318352 -0.08088797 0.6422483 1 0 1
0.234735 -0.08025035 0.641497 1 0 1
0.2370548 -0.07925924 0.6388519 1 0 1
0.2384808 -0.07774614 0.6333784 1 0 1
0.2011714 -0.091476 0.6539344 1 0 1
0.2041252 -0.09090018 0.6532944 1 0 1
0.2060831 -0.08957366 0.6488413 1 0 1
0.2090162 -0.08898862 0.6481837 1 0 1
0.2119465 -0.08839738 0.6475156 1 0 1
0.2140958 -0.08724844 0.6439927 1 0 1
0.217009 -0.08664747 0.6433063 1 0 1
0.2199189 -0.08604052 0.6426095 1 0 1
0.2233666 -0.08579061 0.6437933 1 0 1
0.2300185 -0.08508351 0.645175 1 0 1
0.2334967 -0.0848069 0.6463175 1 0 1
0.2364163 -0.08416422 0.6455622 1 0 1
0.2378894 -0.08262708 0.6400923 1 0 1
0.2401993 -0.08162264 0.637441 1 0 1
0.2158988 -0.09139355 0.6490173 1 0 1
0.2180455 -0.09022593 0.6454872 1 0 1
0.2209681 -0.08961545 0.6447886 1 0 1
0.2238875 -0.08899894 0.6440794 1 0 1
0.2276266 -0.08893024 0.6461909 1 0 1
0.2302726 -0.08811542 0.6445153 1 0 1
0.2390139 -0.08618823 0.6422571 1 0 1
0.2404578 -0.08463062 0.6367884 1 0 1
0.2153658 -0.09385692 0.6455019 1 0 1
0.2190838 -0.09382372 0.6476509 1 0 1
0.2220189 -0.09320976 0.6469503 1 0 1
0.2246798 -0.09240045 0.6452953 1 0 1
0.2276048 -0.09177506 0.6445746 1 0 1
0.2296918 -0.09058069 0.6410175 1 0 1
0.2320354 -0.08957182 0.6383967 1 0 1
0.2349323 -0.0889323 0.6376494 1 0 1
0.2378259 -0.08828668 0.6368917 1 0 1
0.2392515 -0.08671296 0.6314327 1 0 1
0.2163923 -0.097466 0.6476529 1 0 1
0.2222685 -0.09624184 0.6462634 1 0 1
0.236617 -0.09288479 0.6416674 1 0 1
0.2386616 -0.09166682 0.6380907 1 0 1
0.2409741 -0.0906359 0.6354468 1 0 1
0.2107473 -0.1016988 0.6482989 1 0 1
0.2129239 -0.1005013 0.6447943 1 0 1
0.2150754 -0.09930208 0.6412843 1 0 1
0.2195799 -0.09988666 0.6462636 1 0 1
0.2217142 -0.09867759 0.6427355 1 0 1
0.224638 -0.09805755 0.6420284 1 0 1
0.2275587 -0.09743132 0.6413108 1 0 1
0.2296392 -0.09621337 0.6377622 1 0 1
0.2325423 -0.09557746 0.6370267 1 0 1
0.2345833 -0.09435456 0.6334656 1 0 1
0.2374688 -0.09370894 0.6327123 1 0 1
0.2394702 -0.09248132 0.6291392 1 0 1
0.2139394 -0.1041293 0.6469177 1 0 1
0.2168851 -0.1035241 0.6462399 1 0 1
0.2227671 -0.1022953 0.6448532 1 0 1
0.2315664 -0.1004061 0.6426947 1 0 1
0.2327953 -0.09857487 0.6363238 1 0 1
0.2356966 -0.09793159 0.6355785 1 0 1
0.2385945 -0.09728232 0.6348231 1 0 1
0.2406073 -0.0960397 0.6312505 1 0 1
0.2344643 -0.1025786 0.6402964 1 0 1
0.2368115 -0.1015276 0.6376741 1 0 1
0.2403029 -0.1012754 0.6387877 1 0 1
0.2423344 -0.1000161 0.6352138 1 0 1
0.235002 -0.1057933 0.6405014 1 0 1
0.2379281 -0.1051427 0.6397521 1 0 1
0.239978 -0.1038736 0.6361882 1 0 1
0.2420027 -0.1026034 0.6326196 1 0 1
0.2349722 -0.1085928 0.6388213 1 0 1
0.2373209 -0.1075243 0.6362042 1 0 1
0.2408165 -0.1072846 0.6373156 1 0 1
0.2437334 -0.1066214 0.6365471 1 0 1
0.2293655 -0.1128802 0.6395285 1 0 1
0.2346574 -0.1111675 0.6361963 1 0 1
0.2375752 -0.1105171 0.6354512 1 0 1
0.2404897 -0.1098603 0.6346958 1 0 1
0.2442863 -0.10983 0.6367256 1 0 1
0.2290617 -0.1154428 0.6368883 1 0 1
0.23283 -0.115457 0.6389688 1 0 1
0.2357636 -0.1148089 0.6382319 1 0 1
0.2378291 -0.113506 0.6346863 1 0 1
0.2407449 -0.112848 0.6339316 1 0 1
0.2436573 -0.1121839 0.6331666 1 0 1
0.1822793 -0.1280764 0.6472135 1 0 1
0.1852574 -0.1275341 0.646656 1 0 1
0.2272022 -0.1197359 0.6396285 1 0 1
0.2284788 -0.1177643 0.6333054 1 0 1
0.231395 -0.117126 0.6325852 1 0 1
0.2343078 -0.1164816 0.6318547 1 0 1
0.2360633 -0.114951 0.6273864 1 0 1
0.2389546 -0.1142976 0.6266391 1 0 1
0.2430262 -0.1145115 0.6296014 1 0 1
0.1795248 -0.1316201 0.6469578 1 0 1
0.182507 -0.1310829 0.6464111 1 0 1
0.1854865 -0.1305397 0.6458542 1 0 1
0.2119225 -0.1251382 0.6394345 1 0 1
0.2148701 -0.1245334 0.6387743 1 0 1
0.2178144 -0.1239224 0.6381038 1 0 1
0.2215558 -0.1239909 0.6402318 1 0 1
0.230394 -0.1220951 0.6381193 1 0 1
0.2324891 -0.1207746 0.6345962 1 0 1
0.2354143 -0.1201266 0.6338637 1 0 1
0.2363143 -0.117906 0.6266047 1 0 1
0.2403771 -0.1181431 0.6295777 1 0 1
0.2432812 -0.1174789 0.628817 1 0 1
0.1797511 -0.1346238 0.6461428 1 0 1
0.1818602 -0.1331183 0.6418154 1 0 1
0.1857156 -0.1335412 0.6450406 1 0 1
0.1886938 -0.1329906 0.6444737 1 0 1
0.19075 -0.1314747 0.6401236 1 0 1
0.2102205 -0.1296676 0.643031 1 0 1
0.2113958 -0.1274223 0.6358141 1 0 1
0.2143335 -0.1268187 0.6351572 1 0 1
0.2172681 -0.1262088 0.6344898 1 0 1
0.2210008 -0.1262897 0.6366181 1 0 1
0.2335849 -0.1244418 0.6365891 1 0 1
0.235666 -0.1231051 0.6330623 1 0 1
0.2365652 -0.1208571 0.6258111 1 0 1
0.2394592 -0.1202012 0.6250651 1 0 1
0.2423499 -0.1195393 0.6243091 1 0 1
0.2124043 -0.1311105 0.6378086 1 0 1
0.2153545 -0.1305033 0.6371499 1 0 1
0.2175107 -0.1291794 0.6336755 1 0 1
0.2379735 -0.1247293 0.6287211 1 0 1
0.2408835 -0.1240688 0.6279721 1 0 1
0.2455711 -0.1247796 0.6327745 1 0 1
0.2126449 -0.1340906 0.6369779 1 0 1
0.2155964 -0.1334823 0.6363199 1 0 1
0.2193365 -0.1335898 0.6384535 1 0 1
0.2390943 -0.1283925 0.6306831 1 0 1
0.2420166 -0.1277283 0.6299322 1 0 1
0.1923642 -0.1414087 0.6413877 1 0 1
0.1944031 -0.139841 0.6370447 1 0 1
0.2062226 -0.1375247 0.6346104 1 0 1
0.2099295 -0.13767 0.6367825 1 0 1
0.2121149 -0.1363292 0.6333314 1 0 1
0.2150565 -0.1357221 0.6326765 1 0 1
0.2198448 -0.1368192 0.6385422 1 0 1
0.2318895 -0.139989 0.6331057 1 0 1
0.2348368 -0.1393374 0.6323851 1 0 1
0.2491692 -0.1634502 0.6220269 1 0 1
0.2055078 -0.1900935 0.6243324 1 0 1
0.2154406 -0.1972866 0.6201909 1 0 1
0.2184308 -0.1966582 0.6195549 1 0 1
0.221418 -0.1960233 0.6189088 1 0 1
0.2170881 -0.1976137 0.6130098 1 0 1
0.2200539 -0.1969824 0.6123692 1 0 1
0.2249106 -0.1985963 0.6180701 1 0 1
-0.08541537 -0.2792922 0.603264 1 0 1
0.1098642 -0.0810115 0.1757317 1 0 1
0.1148406 -0.08375619 0.181953 1 0 1
0.1133239 -0.08680994 0.184512 1 0 1
0.1136732 -0.08522442 0.1816531 1 0 1
0.1158786 -0.08617822 0.1838973 1 0 1
0.1131159 -0.0875443 0.1830442 1 0 1
0.1147004 -0.08765742 0.1835897 1 0 1
0.1153499 -0.0864872 0.1815835 1 0 1
0.1137534 -0.09160641 0.1878196 1 0 1
0.1122941 -0.08740651 0.1798784 1 0 1
0.1135577 -0.08709473 0.1795775 1 0 1
0.1148198 -0.08678006 0.1792724 1 0 1
0.1117313 -0.08973107 0.1812506 1 0 1
0.1126973 -0.08898503 0.1801058 1 0 1
0.1139649 -0.08867179 0.1798043 1 0 1
0.115231 -0.08835568 0.1794986 1 0 1
0.1118279 -0.09087951 0.1806227 1 0 1
0.1118729 -0.08881503 0.1769456 1 0 1
0.1134401 -0.08894132 0.1774911 1 0 1
0.1146989 -0.08862647 0.1771875 1 0 1
0.1052531 -0.08435381 0.1650786 1 0 1
0.1091923 -0.08804309 0.1723956 1 0 1
0.1113537 -0.08906373 0.1746349 1 0 1
0.113225 -0.08963534 0.1760228 1 0 1
0.1141655 -0.08888126 0.1748794 1 0 1
0.1107455 -0.0934784 0.179646 1 0 1
0.1114127 -0.09227687 0.1776692 1 0 1
0.1126786 -0.0919659 0.1773739 1 0 1
0.1133204 -0.09076407 0.175394 1 0 1
0.1142608 -0.09000611 0.1742528 1 0 1
0.1108998 -0.09251239 0.1753513 1 0 1
0.1118505 -0.09175449 0.1742188 1 0 1
0.1134155 -0.09189017 0.1747607 1 0 1
0.1143558 -0.09112834 0.1736218 1 0 1
0.1125163 -0.09589959 0.1789037 1 0 1
0.1131775 -0.09468157 0.1769319 1 0 1
0.1141342 -0.09391505 0.1757958 1 0 1
0.1144506 -0.092248 0.1729863 1 0 1
0.1147446 -0.1002293 0.1841051 1 0 1
0.1145065 -0.09763279 0.1796252 1 0 1
0.115478 -0.09685865 0.1784879 1 0 1
0.1151769 -0.09427116 0.1740136 1 0 1
-0.2490384 -0.3209567 0.519035 1 0 1
-0.2477999 -0.3238425 0.523987 1 0 1
-0.2397428 -0.3212705 0.5201262 1 0 1
-0.2381273 -0.3236516 0.5242546 1 0 1
-0.2377325 -0.3279963 0.5316325 1 0 1
0.1137164 -0.1043292 0.188207 1 0 1
0.1166718 -0.1041438 0.1884407 1 0 1
0.1167636 -0.1019828 0.184799 1 0 1
0.116199 -0.09891156 0.1794949 1 0 1
0.1155879 -0.09584858 0.1741971 1 0 1
-0.2459162 -0.3191334 0.5102611 1 0 1
-0.245038 -0.3225246 0.515998 1 0 1
-0.2408658 -0.320982 0.5136698 1 0 1
-0.2383239 -0.3218976 0.5153641 1 0 1
-0.2373562 -0.3252796 0.5210981 1 0 1
-0.2347733 -0.3261862 0.5227845 1 0 1
-0.2318697 -0.3265913 0.5236524 1 0 1
0.1114327 -0.1017885 0.1808486 1 0 1
0.1127288 -0.1014745 0.1805576 1 0 1
0.1152444 -0.1030076 0.1835919 1 0 1
0.1159345 -0.1017606 0.1816258 1 0 1
0.1166081 -0.1005143 0.1796589 1 0 1
0.1163157 -0.09788969 0.175202 1 0 1
-0.2513103 -0.3252218 0.5142384 1 0 1
-0.2437907 -0.3187303 0.5039208 1 0 1
-0.242277 -0.3211468 0.5080306 1 0 1
-0.2387835 -0.3205805 0.5073106 1 0 1
-0.2349805 -0.319508 0.5057707 1 0 1
-0.2349994 -0.324399 0.5139029 1 0 1
-0.2333815 -0.326801 0.5180042 1 0 1
-0.2295638 -0.3257082 0.5164385 1 0 1
0.1108191 -0.104182 0.1821265 1 0 1
0.1118264 -0.103401 0.1810062 1 0 1
0.1128247 -0.1026188 0.1798834 1 0 1
0.1141195 -0.1023012 0.1795885 1 0 1
0.1157219 -0.1024455 0.1801189 1 0 1
0.1167044 -0.101657 0.1789858 1 0 1
0.1170443 -0.09994134 0.1761947 1 0 1
-0.2410023 -0.317283 0.4959934 1 0 1
-0.2398449 -0.3202086 0.500887 1 0 1
-0.2360531 -0.3191326 0.4993593 1 0 1
-0.2326004 -0.318547 0.49862 1 0 1
-0.2320097 -0.3224628 0.5051151 1 0 1
-0.2329282 -0.3288878 0.5156493 1 0 1
-0.2284958 -0.3267809 0.5124729 1 0 1
0.1091606 -0.1073708 0.1845035 1 0 1
0.1090266 -0.1046964 0.1800628 1 0 1
0.1097369 -0.1034437 0.1781191 1 0 1
0.110729 -0.1026624 0.1770044 1 0 1
0.1117121 -0.10188 0.1758873 1 0 1
0.112992 -0.1015656 0.1755962 1 0 1
0.11458 -0.1017164 0.1761285 1 0 1
0.1158606 -0.1013951 0.175828 1 0 1
0.1168226 -0.1006045 0.1746975 1 0 1
-0.2391561 -0.3266861 0.5058485 1 0 1
-0.2363065 -0.3271081 0.5067286 1 0 1
-0.2334534 -0.3275232 0.5075997 1 0 1
-0.2349763 -0.3350017 0.5197235 1 0 1
0.1090693 -0.1107474 0.1874115 1 0 1
0.1101185 -0.109959 0.1863008 1 0 1
0.1099945 -0.107265 0.181868 1 0 1
0.1101262 -0.105052 0.178268 1 0 1
0.1108234 -0.1037917 0.1763268 1 0 1
0.1115041 -0.1025321 0.1743847 1 0 1
0.1121682 -0.1012732 0.1724417 1 0 1
0.1140552 -0.1019011 0.1738006 1 0 1
0.115642 -0.1020518 0.174327 1 0 1
0.1166002 -0.1012583 0.1731998 1 0 1
0.1075481 -0.1117423 0.186149 1 0 1
0.1083149 -0.1104721 0.1842156 1 0 1
0.109065 -0.1092023 0.182281 1 0 1
0.1097987 -0.1079329 0.1803453 1 0 1
0.1102207 -0.1061856 0.1775815 1 0 1
0.1109175 -0.1049183 0.1756447 1 0 1
0.1112952 -0.1031749 0.1728815 1 0 1
0.1122615 -0.1023856 0.1717682 1 0 1
0.113529 -0.10207 0.1714762 1 0 1
0.1154226 -0.1026991 0.1728256 1 0 1
0.1163769 -0.1019027 0.1717016 1 0 1
0.1072745 -0.1096897 0.1801998 1 0 1
0.108297 -0.1088998 0.1790993 1 0 1
0.1090189 -0.1076261 0.1771704 1 0 1
0.1094289 -0.1058711 0.1744155 1 0 1
0.110114 -0.1045994 0.1724854 1 0 1
0.1107826 -0.1033284 0.1705545 1 0 1
0.1111281 -0.1015791 0.1678004 1 0 1
0.1123807 -0.1012667 0.1675121 1 0 1
0.1139459 -0.1014285 0.1680406 1 0 1
0.1151992 -0.1011093 0.1677434 1 0 1
0.1073689 -0.110829 0.1794971 1 0 1
0.1081032 -0.1095486 0.1775745 1 0 1
0.1091128 -0.1087546 0.1764746 1 0 1
0.1092265 -0.1065042 0.172903 1 0 1
0.1096081 -0.1047423 0.1701561 1 0 1
0.1105719 -0.1039492 0.1690526 1 0 1
0.1112198 -0.1026728 0.1671262 1 0 1
0.1121618 -0.1018786 0.1660187 1 0 1
0.1137237 -0.1020441 0.1665464 1 0 1
0.1143371 -0.1007664 0.1646147 1 0 1
0.1055895 -0.1112859 0.1774105 1 0 1
0.1071786 -0.1114745 0.1779666 1 0 1
0.108197 -0.110678 0.1768718 1 0 1
0.1089143 -0.1093911 0.1749525 1 0 1
0.1093192 -0.1076163 0.1722113 1 0 1
0.1099997 -0.1063315 0.1702909 1 0 1
0.1109672 -0.1055337 0.169189 1 0 1
0.1116184 -0.1042493 0.1672661 1 0 1
0.1125641 -0.1034504 0.1661602 1 0 1
0.1135007 -0.1026504 0.165052 1 0 1
0.11411 -0.1013665 0.1631255 1 0 1
0.1059639 -0.1129086 0.1775247 1 0 1
0.1069874 -0.1121105 0.1764357 1 0 1
0.1077133 -0.1108178 0.1745235 1 0 1
0.1084227 -0.1095256 0.1726103 1 0 1
0.1088194 -0.1077424 0.1698772 1 0 1
0.1097919 -0.106943 0.168781 1 0 1
0.1107553 -0.1061424 0.1676823 1 0 1
0.1114024 -0.104852 0.1657648 1 0 1
0.1120329 -0.1035623 0.1638466 1 0 1
0.112647 -0.1022735 0.1619278 1 0 1
0.1132446 -0.1009855 0.1600085 1 0 1
0.1069013 -0.1155317 0.1792703 1 0 1
0.107936 -0.1147273 0.1781815 1 0 1
0.1086728 -0.1134249 0.1762714 1 0 1
0.1091003 -0.1116273 0.1735426 1 0 1
0.1095039 -0.109832 0.1708144 1 0 1
0.1098834 -0.1080391 0.168087 1 0 1
0.1105427 -0.1067419 0.1661755 1 0 1
0.1111856 -0.1054453 0.1642633 1 0 1
0.111812 -0.1041496 0.1623505 1 0 1
0.1124218 -0.1028547 0.160437 1 0 1
0.1133343 -0.1020499 0.1593348 1 0 1
0.1069952 -0.1166665 0.1785452 1 0 1
0.1083151 -0.1163591 0.1782759 1 0 1
0.1090553 -0.1150488 0.1763697 1 0 1
0.1094859 -0.1132401 0.1736466 1 0 1
0.1098925 -0.1114336 0.1709242 1 0 1
0.110275 -0.1096296 0.1682025 1 0 1
0.1109377 -0.1083245 0.1662948 1 0 1
0.111276 -0.1065247 0.1635739 1 0 1
0.1122136 -0.1057163 0.162477 1 0 1
0.1128269 -0.1044135 0.1605672 1 0 1
0.1137428 -0.1036041 0.1594665 1 0 1
0.1081232 -0.1169864 0.1767316 1 0 1
0.1091486 -0.1161732 0.1756449 1 0 1
0.1095786 -0.1143542 0.1729286 1 0 1
0.1102815 -0.1130389 0.1710255 1 0 1
0.1103663 -0.1107234 0.1674977 1 0 1
0.1107241 -0.1089117 0.1647834 1 0 1
0.1113661 -0.1076012 0.1628803 1 0 1
0.1123036 -0.1067891 0.1617858 1 0 1
0.1129163 -0.1054794 0.1598805 1 0 1
0.1144712 -0.1056575 0.1603975 1 0 1
0.1082166 -0.1181115 0.176 1 0 1
0.1095315 -0.1178009 0.1757279 1 0 1
0.1099645 -0.1159708 0.1730175 1 0 1
0.1103734 -0.1141431 0.1703075 1 0 1
0.1107583 -0.1123178 0.1675983 1 0 1
0.1111191 -0.1104951 0.1648898 1 0 1
0.1117645 -0.1091767 0.1629904 1 0 1
0.1127056 -0.1083599 0.1618976 1 0 1
0.1133216 -0.1070423 0.159996 1 0 1
0.1148805 -0.1072222 0.1605104 1 0 1
0.1119443 -0.1229993 0.1814729 1 0 1
0.1118194 -0.1201345 0.1771442 1 0 1
0.1119528 -0.1177833 0.1736277 1 0 1
0.1120544 -0.1154364 0.1701134 1 0 1
0.1121245 -0.1130939 0.1666015 1 0 1
0.1127807 -0.1117657 0.1647041 1 0 1
0.1137329 -0.1109424 0.1636112 1 0 1
0.1149923 -0.1106211 0.1633202 1 0 1
0.1168903 -0.1113011 0.1646318 1 0 1
0.1113252 -0.1202385 0.1747837 1 0 1
0.1123433 -0.1194087 0.1736967 1 0 1
0.1127494 -0.1175576 0.1709961 1 0 1
0.1134366 -0.1162181 0.1691008 1 0 1
0.1144164 -0.1153876 0.1680086 1 0 1
0.1157 -0.115063 0.1677169 1 0 1
0.116982 -0.1147354 0.1674211 1 0 1
0.1192234 -0.1159208 0.1695249 1 0 1
0.1148205 -0.1246369 0.1793867 1 0 1
0.1152559 -0.1227683 0.1766863 1 0 1
0.1159728 -0.1214145 0.1747891 1 0 1
0.1166732 -0.1200612 0.1728909 1 0 1
0.1179831 -0.1197295 0.1725937 1 0 1
0.1196083 -0.1199042 0.1730922 1 0 1
0.12156 -0.1205824 0.1743839 1 0 1
0.1177666 -0.1280271 0.1823378 1 0 1
0.1188189 -0.1271744 0.1812391 1 0 1
0.1195526 -0.1258058 0.1793381 1 0 1
0.120583 -0.1249513 0.1782348 1 0 1
0.1222386 -0.125121 0.1787247 1 0 1
0.1242208 -0.1257972 0.1800054 1 0 1
0.1188911 -0.1336756 0.1882501 1 0 1
0.1199788 -0.132814 0.1871511 1 0 1
0.1210573 -0.1319511 0.1860492 1 0 1
0.1224365 -0.1316045 0.1857419 1 0 1
0.1235006 -0.1307378 0.1846336 1 0 1
0.1251901 -0.1309015 0.185114 1 0 1
0.1265644 -0.130545 0.1847933 1 0 1
0.1133107 -0.1248966 0.1722904 1 0 1
0.1164449 -0.1277088 0.1767879 1 0 1
0.1196226 -0.1305065 0.1812711 1 0 1
0.1222236 -0.1322479 0.1841495 1 0 1
0.1239115 -0.1324184 0.1846334 1 0 1
0.1259228 -0.1331026 0.1859047 1 0 1
0.1273046 -0.1327437 0.1855827 1 0 1
0.106388 -0.1187154 0.1601223 1 0 1
0.1079483 -0.1189379 0.1606553 1 0 1
0.1101128 -0.1202094 0.1627736 1 0 1
0.1126014 -0.1219983 0.1656777 1 0 1
0.1157319 -0.1248267 0.1701589 1 0 1
0.118906 -0.1276406 0.174626 1 0 1
0.1214953 -0.1293937 0.1774942 1 0 1
0.1244309 -0.131658 0.1811425 1 0 1
0.126759 -0.132867 0.1831969 1 0 1
0.1067678 -0.1203065 0.1601793 1 0 1
0.1077409 -0.1194689 0.1591214 1 0 1
0.1093038 -0.1196901 0.1596475 1 0 1
0.111176 -0.1204357 0.1609606 1 0 1
0.1133686 -0.1217026 0.163058 1 0 1
0.1158929 -0.1234881 0.1659372 1 0 1
0.1184457 -0.1252628 0.1688055 1 0 1
0.1219815 -0.1286027 0.1740302 1 0 1
0.1252463 -0.1314014 0.1784502 1 0 1
0.1047255 -0.1254957 0.1649709 1 0 1
0.1047207 -0.1200622 0.157314 1 0 1
0.1065637 -0.1208309 0.1586423 1 0 1
0.1075328 -0.1199905 0.1575876 1 0 1
0.1087926 -0.1196821 0.1573216 1 0 1
0.1106578 -0.1204353 0.1586323 1 0 1
0.1116151 -0.1195877 0.1575671 1 0 1
0.1134961 -0.1203302 0.1588654 1 0 1
0.1153906 -0.1210658 0.1601563 1 0 1
0.118254 -0.1233799 0.1638007 1 0 1
0.1214754 -0.1262087 0.1682183 1 0 1
0.1036907 -0.1244087 0.1610368 1 0 1
0.1032626 -0.1208684 0.1560324 1 0 1
0.1045191 -0.1205705 0.1557805 1 0 1
0.1063589 -0.1213459 0.1571055 1 0 1
0.1070279 -0.1199655 0.1552645 1 0 1
0.1085801 -0.1201949 0.1557894 1 0 1
0.1098346 -0.119884 0.1555205 1 0 1
0.1110878 -0.1195701 0.1552477 1 0 1
0.1120284 -0.1187196 0.1541843 1 0 1
0.1132748 -0.1184006 0.1539041 1 0 1
0.1151572 -0.1191419 0.1551895 1 0 1
0.1180203 -0.1214681 0.158819 1 0 1
0.1040599 -0.1260139 0.1610691 1 0 1
0.103634 -0.1224533 0.1560777 1 0 1
0.1046055 -0.1216118 0.1550363 1 0 1
0.1061532 -0.1218517 0.155569 1 0 1
0.1068179 -0.1204655 0.1537337 1 0 1
0.1080665 -0.120159 0.1534708 1 0 1
0.1090097 -0.1193109 0.1524181 1 0 1
0.1102516 -0.1189993 0.152148 1 0 1
0.1108692 -0.1176115 0.1503055 1 0 1
0.1117855 -0.1167601 0.1492458 1 0 1
0.1130117 -0.1164425 0.1489663 1 0 1
0.1155272 -0.118257 0.1518095 1 0 1
0.1023966 -0.1293166 0.1631659 1 0 1
0.1020289 -0.1257298 0.1581856 1 0 1
0.1035847 -0.1259806 0.1587279 1 0 1
0.1037204 -0.1234952 0.1553268 1 0 1
0.1044026 -0.1221047 0.1535013 1 0 1
0.1059468 -0.1223482 0.1540329 1 0 1
0.1069039 -0.1214997 0.1529884 1 0 1
0.1078521 -0.1206502 0.1519415 1 0 1
0.1084871 -0.1192577 0.1501086 1 0 1
0.1094135 -0.1184068 0.1490577 1 0 1
0.1100194 -0.1170151 0.1472226 1 0 1
0.1106087 -0.1156242 0.1453868 1 0 1
0.1121391 -0.1158479 0.1458914 1 0 1
0.1139986 -0.1166035 0.1471698 1 0 1
0.1021157 -0.1267789 0.1574231 1 0 1
0.1028266 -0.1253815 0.1556054 1 0 1
0.103521 -0.1239846 0.1537866 1 0 1
0.1041989 -0.1225884 0.1519668 1 0 1
0.1051533 -0.1217403 0.1509297 1 0 1
0.1063958 -0.1214377 0.1506732 1 0 1
0.1073361 -0.1205863 0.1496305 1 0 1
0.1079632 -0.1191891 0.147804 1 0 1
0.1088818 -0.1183365 0.1467574 1 0 1
0.1094796 -0.11694 0.1449289 1 0 1
0.1103766 -0.1160863 0.1438786 1 0 1
0.1112647 -0.1152316 0.1428261 1 0 1
0.1134367 -0.1165359 0.14488 1 0 1
0.1022023 -0.1278249 0.1566565 1 0 1
0.1026307 -0.1258675 0.15406 1 0 1
0.1038925 -0.1255699 0.1538128 1 0 1
0.1048632 -0.1247176 0.1527793 1 0 1
0.1055317 -0.1233134 0.1509619 1 0 1
0.1067779 -0.1230094 0.1507049 1 0 1
0.1074209 -0.1216048 0.1488842 1 0 1
0.1077426 -0.1196529 0.1462836 1 0 1
0.1086573 -0.1187977 0.1452405 1 0 1
0.1092508 -0.1173955 0.1434176 1 0 1
0.1101439 -0.1165392 0.1423708 1 0 1
0.1113476 -0.116226 0.1420976 1 0 1
0.1131969 -0.116996 0.1433703 1 0 1
0.1034028 -0.1310974 0.1590143 1 0 1
0.1038455 -0.1291267 0.1564221 1 0 1
0.1048364 -0.1282694 0.1553916 1 0 1
0.1055283 -0.1268562 0.1535786 1 0 1
0.1059102 -0.1248897 0.1509855 1 0 1
0.1068628 -0.1240315 0.1499497 1 0 1
0.1075052 -0.1226202 0.1481339 1 0 1
0.1078263 -0.1206586 0.1455405 1 0 1
0.1087407 -0.1197998 0.1445001 1 0 1
0.1096462 -0.11894 0.1434573 1 0 1
0.1105427 -0.1180792 0.1424123 1 0 1
0.1117503 -0.1177646 0.1421386 1 0 1
0.1136038 -0.1185393 0.1434062 1 0 1
0.1032112 -0.1315891 0.1574503 1 0 1
0.1042145 -0.1307287 0.1564244 1 0 1
0.1052089 -0.129867 0.1553958 1 0 1
0.1059041 -0.1284463 0.153587 1 0 1
0.106289 -0.1264692 0.1510004 1 0 1
0.1069474 -0.1250505 0.1491904 1 0 1
0.1075894 -0.1236326 0.1473796 1 0 1
0.1079096 -0.1216612 0.1447935 1 0 1
0.1088238 -0.1207989 0.1437557 1 0 1
0.109729 -0.1199356 0.1427156 1 0 1
0.1106253 -0.1190712 0.1416733 1 0 1
0.1121531 -0.1193063 0.1421712 1 0 1
0.1140109 -0.1200857 0.1434337 1 0 1
0.10553 -0.1371436 0.1628846 1 0 1
0.105715 -0.1345845 0.1595251 1 0 1
0.1064414 -0.133153 0.1577194 1 0 1
0.1071513 -0.131722 0.1559126 1 0 1
0.1075505 -0.1297315 0.1533302 1 0 1
0.1079256 -0.1277436 0.1507484 1 0 1
0.1085784 -0.1263162 0.1489402 1 0 1
0.1092146 -0.1248895 0.1471312 1 0 1
0.1101436 -0.1240199 0.1460928 1 0 1
0.1107506 -0.1225939 0.1442816 1 0 1
0.1116578 -0.1217231 0.1432395 1 0 1
0.1131972 -0.1219578 0.1437329 1 0 1
0.1150667 -0.1227399 0.1449886 1 0 1
0.1066516 -0.1373364 0.1610494 1 0 1
0.1076757 -0.1364605 0.1600203 1 0 1
0.107819 -0.1338913 0.1566696 1 0 1
0.1088138 -0.1330154 0.1556375 1 0 1
0.1095014 -0.1315761 0.1538313 1 0 1
0.1098706 -0.1295763 0.1512536 1 0 1
0.1105213 -0.1281393 0.1494464 1 0 1
0.1111556 -0.126703 0.1476384 1 0 1
0.1117734 -0.1252675 0.1458297 1 0 1
0.1130086 -0.1249476 0.1455552 1 0 1
0.1148839 -0.1257374 0.1468098 1 0 1
0.1170971 -0.1270755 0.1488227 1 0 1
0.1075895 -0.1401035 0.1625555 1 0 1
0.1086248 -0.1392214 0.1615269 1 0 1
0.1084875 -0.1360697 0.157413 1 0 1
0.1097842 -0.1357545 0.1571519 1 0 1
0.110781 -0.134871 0.1561177 1 0 1
0.1114667 -0.1334221 0.1543125 1 0 1
0.1121358 -0.1319737 0.1525064 1 0 1
0.1134078 -0.1316507 0.1522329 1 0 1
0.1143649 -0.1307633 0.1511894 1 0 1
0.1153129 -0.1298747 0.1501435 1 0 1
0.117536 -0.1312226 0.1521521 1 0 1
0.1197799 -0.1325615 0.1541516 1 0 1
0.1052353 -0.1391905 0.1589046 1 0 1
0.1082452 -0.1423138 0.1632735 1 0 1
0.1101497 -0.1431392 0.1645533 1 0 1
0.1106123 -0.1411074 0.1619844 1 0 1
0.1122304 -0.1413545 0.1624859 1 0 1
0.1135559 -0.1410283 0.1622149 1 0 1
0.1139725 -0.138997 0.1596418 1 0 1
0.1149774 -0.1381008 0.1585996 1 0 1
0.1162833 -0.1377687 0.1583192 1 0 1
0.1169602 -0.1363046 0.1565075 1 0 1
0.1179379 -0.1354047 0.1554577 1 0 1
0.1201917 -0.1367534 0.157453 1 0 1
0.1224663 -0.1380929 0.159439 1 0 1
-0.273512 -0.3159076 0.3433385 1 0 1
-0.2694779 -0.3141738 0.3415268 1 0 1
-0.2633329 -0.3095389 0.3362178 1 0 1
-0.2542833 -0.3008329 0.3259956 1 0 1
-0.252903 -0.3025221 0.3282944 1 0 1
-0.2519209 -0.3047891 0.331292 1 0 1
-0.2513261 -0.3076365 0.334993 1 0 1
-0.2502895 -0.3099028 0.3379956 1 0 1
-0.2508498 -0.3144988 0.3438167 1 0 1
-0.2457283 -0.3109315 0.3397711 1 0 1
-0.2402551 -0.3067628 0.334992 1 0 1
-0.236415 -0.3049159 0.3330176 1 0 1
-0.2334606 -0.3082255 0.3375492 1 0 1
-0.23234 -0.3104637 0.3405254 1 0 1
0.108334 -0.1433831 0.162443 1 0 1
0.1122521 -0.1482323 0.1690851 1 0 1
0.1127405 -0.1461845 0.1665185 1 0 1
0.1143852 -0.1464277 0.1670128 1 0 1
0.116335 -0.147237 0.1682656 1 0 1
0.1167848 -0.1451876 0.1656929 1 0 1
0.1178233 -0.1442794 0.1646463 1 0 1
0.1188528 -0.1433697 0.163597 1 0 1
0.1198731 -0.1424588 0.1625451 1 0 1
0.1208845 -0.1415466 0.1614905 1 0 1
0.1228512 -0.1423295 0.162712 1 0 1
0.124506 -0.1425407 0.1631672 1 0 1
-0.2953226 -0.3246219 0.3481294 1 0 1
-0.2916183 -0.3235259 0.3471155 1 0 1
-0.2874827 -0.3218428 0.3454008 1 0 1
-0.2847046 -0.3218749 0.3457242 1 0 1
-0.2814883 -0.3213219 0.3453499 1 0 1
-0.2760943 -0.3178693 0.3415185 1 0 1
-0.2746512 -0.3196082 0.3438719 1 0 1
-0.2706074 -0.3178658 0.3420732 1 0 1
-0.2665879 -0.3161106 0.3402557 1 0 1
-0.2625929 -0.3143423 0.3384194 1 0 1
-0.2598814 -0.3143084 0.3386531 1 0 1
-0.256757 -0.3136837 0.3381793 1 0 1
-0.2557056 -0.3159699 0.341188 1 0 1
-0.2534019 -0.3165006 0.3420968 1 0 1
-0.2498783 -0.3152682 0.340893 1 0 1
-0.2475778 -0.3157847 0.3417836 1 0 1
-0.2436809 -0.3139458 0.3398485 1 0 1
-0.2382312 -0.3097422 0.335071 1 0 1
-0.2359626 -0.3102314 0.3359241 1 0 1
-0.2360138 -0.3142526 0.3410229 1 0 1
-0.2333325 -0.3141443 0.3411601 1 0 1
-0.230275 -0.3134374 0.3405762 1 0 1
-0.2279811 -0.3139054 0.3414056 1 0 1
0.113997 -0.1495723 0.1687245 1 0 1
0.1156571 -0.1498143 0.1692137 1 0 1
0.1176224 -0.1506255 0.1704591 1 0 1
0.1183894 -0.1491361 0.168652 1 0 1
0.1191398 -0.1476472 0.1668438 1 0 1
0.120184 -0.1467302 0.1657941 1 0 1
0.1215334 -0.1463823 0.1655005 1 0 1
0.1222451 -0.1448922 0.1636866 1 0 1
0.1239056 -0.1451082 0.1641433 1 0 1
0.1258974 -0.1458864 0.1653503 1 0 1
-0.2906051 -0.3208637 0.3397581 1 0 1
-0.2878395 -0.3209049 0.3400956 1 0 1
-0.2850766 -0.3209383 0.3404231 1 0 1
-0.2827606 -0.3215429 0.3414237 1 0 1
-0.2804404 -0.3221415 0.3424174 1 0 1
-0.2763668 -0.32041 0.3406581 1 0 1
-0.2736186 -0.320411 0.3409436 1 0 1
-0.2704431 -0.3198214 0.3405297 1 0 1
-0.2677043 -0.319806 0.3407936 1 0 1
-0.2636994 -0.3180292 0.3389704 1 0 1
-0.2584609 -0.3144835 0.3350472 1 0 1
-0.2557635 -0.3144372 0.3352683 1 0 1
-0.2538939 -0.3155577 0.336873 1 0 1
-0.2507872 -0.3149101 0.3363792 1 0 1
-0.2485012 -0.3154307 0.3372718 1 0 1
-0.2474157 -0.3177141 0.3402602 1 0 1
-0.2439176 -0.3164544 0.3390362 1 0 1
-0.2396489 -0.3140017 0.3363897 1 0 1
-0.2373658 -0.3144947 0.3372475 1 0 1
-0.23624 -0.3167601 0.3402176 1 0 1
-0.2331719 -0.3160567 0.33965 1 0 1
-0.2301148 -0.3153446 0.3390704 1 0 1
-0.2281968 -0.3164083 0.3406093 1 0 1
0.1169306 -0.1532217 0.1713913 1 0 1
0.1183126 -0.1528801 0.17111 1 0 1
0.1193898 -0.1519587 0.1700654 1 0 1
0.1204579 -0.1510358 0.169018 1 0 1
0.1212062 -0.149537 0.1672106 1 0 1
0.1225668 -0.1491857 0.166915 1 0 1
0.1236076 -0.1482585 0.1658595 1 0 1
0.1249611 -0.1479016 0.1655561 1 0 1
0.1263131 -0.1475413 0.1652483 1 0 1
-0.2908918 -0.3234126 0.3388675 1 0 1
-0.2881228 -0.3234528 0.3392082 1 0 1
-0.2840137 -0.3217412 0.3375001 1 0 1
-0.2808167 -0.3211806 0.3371349 1 0 1
-0.2785105 -0.3217765 0.3381216 1 0 1
-0.2753261 -0.3211984 0.3377332 1 0 1
-0.2725851 -0.3211955 0.3380173 1 0 1
-0.2698471 -0.321185 0.3382914 1 0 1
-0.267112 -0.3211666 0.3385555 1 0 1
-0.2631117 -0.3193779 0.3367397 1 0 1
-0.2582977 -0.3163995 0.3335225 1 0 1
-0.2551848 -0.3157619 0.3330524 1 0 1
-0.2533185 -0.3168853 0.3346525 1 0 1
-0.2510327 -0.3174136 0.3355528 1 0 1
-0.2479333 -0.3167525 0.3350519 1 0 1
-0.2464495 -0.3184524 0.3373325 1 0 1
-0.2441521 -0.3189629 0.3382118 1 0 1
-0.2402751 -0.3170909 0.3362792 1 0 1
-0.2375942 -0.3169914 0.3364365 1 0 1
-0.2356905 -0.318076 0.3379921 1 0 1
-0.2337758 -0.3191561 0.3395433 1 0 1
-0.2307119 -0.3184402 0.3389703 1 0 1
-0.2295379 -0.3207052 0.3419249 1 0 1
0.1190936 -0.1583936 0.1758194 1 0 1
0.1190035 -0.1551433 0.1717469 1 0 1
0.1197846 -0.1536371 0.1699471 1 0 1
0.1211634 -0.1532881 0.1696574 1 0 1
0.1216076 -0.1512034 0.1670987 1 0 1
0.1223423 -0.1496977 0.1652946 1 0 1
0.1236975 -0.1493435 0.164996 1 0 1
0.1253733 -0.1495605 0.1654454 1 0 1
0.126729 -0.1491987 0.1651372 1 0 1
-0.2889041 -0.3230492 0.3345944 1 0 1
-0.2861494 -0.3230836 0.3349304 1 0 1
-0.2838448 -0.3236945 0.3359335 1 0 1
-0.281092 -0.323714 0.3362509 1 0 1
-0.2779016 -0.3231397 0.335878 1 0 1
-0.2755947 -0.3237296 0.3368554 1 0 1
-0.2724172 -0.3231377 0.3364594 1 0 1
-0.2688202 -0.3219475 0.3353659 1 0 1
-0.2660924 -0.3219253 0.3356287 1 0 1
-0.2625227 -0.3207143 0.3345064 1 0 1
-0.2577136 -0.3177179 0.3313013 1 0 1
-0.2554357 -0.3182589 0.3322148 1 0 1
-0.2535655 -0.3193871 0.3338133 1 0 1
-0.2508678 -0.3193231 0.3340209 1 0 1
-0.2477689 -0.3186568 0.3335241 1 0 1
-0.2466854 -0.3209592 0.3364953 1 0 1
-0.243987 -0.320875 0.3366778 1 0 1
-0.2408984 -0.320186 0.3361518 1 0 1
-0.2382106 -0.320086 0.3363136 1 0 1
-0.2366858 -0.3217746 0.3385702 1 0 1
-0.2336114 -0.3210624 0.3380138 1 0 1
-0.2313063 -0.3215418 0.3388534 1 0 1
-0.2293731 -0.322616 0.3403915 1 0 1
0.1187953 -0.155665 0.1701053 1 0 1
0.1198757 -0.1547356 0.1690656 1 0 1
0.120947 -0.1538047 0.1680231 1 0 1
0.1220091 -0.1528724 0.1669778 1 0 1
0.1227471 -0.1513591 0.1651781 1 0 1
0.1244248 -0.151582 0.1656298 1 0 1
0.1261082 -0.1517995 0.1660756 1 0 1
0.1274713 -0.1514352 0.1657661 1 0 1
-0.2869167 -0.3226557 0.3303329 1 0 1
-0.2846268 -0.3232707 0.3313376 1 0 1
-0.2814385 -0.3227052 0.3309858 1 0 1
-0.2787036 -0.3227181 0.3312971 1 0 1
-0.2772914 -0.3244905 0.3336317 1 0 1
-0.2741151 -0.3239005 0.3332482 1 0 1
-0.2709487 -0.323301 0.3328519 1 0 1
-0.2677924 -0.3226917 0.3324425 1 0 1
-0.2659236 -0.323851 0.3340714 1 0 1
-0.2623547 -0.322632 0.3329556 1 0 1
-0.2583845 -0.3208074 0.3311375 1 0 1
-0.254854 -0.3195652 0.3299889 1 0 1
-0.2521641 -0.3195043 0.3302039 1 0 1
-0.2490696 -0.3188388 0.3297181 1 0 1
-0.2463899 -0.3187618 0.3299121 1 0 1
-0.2449157 -0.320473 0.3321775 1 0 1
-0.242232 -0.3203834 0.3323562 1 0 1
-0.2399452 -0.3208865 0.3332217 1 0 1
-0.2376548 -0.3213836 0.3340802 1 0 1
-0.2353606 -0.3218749 0.3349318 1 0 1
-0.2334453 -0.3229626 0.3364768 1 0 1
-0.2318981 -0.3246492 0.3387194 1 0 1
-0.229582 -0.3251248 0.339554 1 0 1
-0.2309786 -0.3316419 0.3474256 1 0 1
0.1185863 -0.1561771 0.1684641 1 0 1
0.1196626 -0.1552452 0.1674281 1 0 1
0.1210375 -0.1548962 0.16714 1 0 1
0.1220993 -0.1539603 0.1660976 1 0 1
