ply
format ascii 1.0
Comment Generated by Floating Hands
element vertex 1208
property double x
property double y
property double z
property uchar red
property uchar green
property uchar blue
end_header
-0.04991934 0.0108881 0.1186046 1 0 1
-0.04840497 0.01116172 0.1170391 1 0 1
-0.04690389 0.01143959 0.1154661 1 0 1
-0.04573908 0.01151147 0.1148083 1 0 1
-0.04458036 0.01158634 0.1141454 1 0 1
-0.04342779 0.01166411 0.1134774 1 0 1
-0.04228136 0.01174482 0.1128043 1 0 1
-0.04175809 0.01140358 0.1139805 1 0 1
-0.04061678 0.01148893 0.1132995 1 0 1
-0.0397829 0.01136363 0.1135428 1 0 1
-0.03894798 0.01124009 0.1137832 1 0 1
-0.03811201 0.0111183 0.1140207 1 0 1
-0.03698479 0.01121336 0.1133229 1 0 1
-0.03615046 0.0110956 0.1135537 1 0 1
-0.03531515 0.01097959 0.1137816 1 0 1
-0.03475814 0.01064874 0.114942 1 0 1
-0.0339172 0.01053575 0.1151651 1 0 1
-0.03280339 0.01064215 0.1144479 1 0 1
-0.03196424 0.01053316 0.1146643 1 0 1
-0.03138872 0.01020738 0.115817 1 0 1
-0.03002227 0.01053951 0.1141481 1 0 1
-0.02866971 0.01087525 0.1124726 1 0 1
-0.02758452 0.01099458 0.1117327 1 0 1
-0.02600629 0.01155725 0.1091023 1 0 1
-0.02371121 0.01278659 0.1036326 1 0 1
-0.02145978 0.01402274 0.09814966 1 0 1
-0.01877479 0.01570884 0.09076293 1 0 1
0.08248175 0.0006372046 0.1627953 1 0 1
0.0829178 0.001422619 0.1597467 1 0 1
0.08353254 0.001990615 0.1576536 1 0 1
0.08433726 0.002342604 0.1565142 1 0 1
0.08534317 0.002480119 0.1563264 1 0 1
0.08634833 0.002619773 0.1561351 1 0 1
0.08735268 0.002761521 0.1559402 1 0 1
0.0883562 0.002905365 0.1557419 1 0 1
0.08935893 0.003051342 0.15554 1 0 1
0.09013253 0.003412306 0.1543846 1 0 1
0.09112979 0.003561947 0.1541765 1 0 1
0.09212615 0.003713664 0.1539648 1 0 1
0.0931217 0.003867501 0.1537497 1 0 1
0.09387318 0.004234071 0.1525842 1 0 1
0.09486315 0.004391502 0.1523629 1 0 1
0.09560161 0.004760474 0.1511929 1 0 1
0.09684033 0.004712665 0.1519099 1 0 1
0.09782752 0.004876409 0.1516781 1 0 1
0.09933722 0.004627063 0.153328 1 0 1
0.1005953 0.004589308 0.1540292 1 0 1
0.1021289 0.004348628 0.1556658 1 0 1
0.1036763 0.004112637 0.1572951 1 0 1
0.1052375 0.003881404 0.1589172 1 0 1
0.1062519 0.004063664 0.158656 1 0 1
-0.0890719 0.01546359 0.1140542 1 0 1
-0.08729213 0.01559883 0.1127421 1 0 1
-0.08599419 0.01555706 0.112284 1 0 1
-0.08423454 0.01570232 0.1109546 1 0 1
-0.08341353 0.0154845 0.1113494 1 0 1
-0.0825908 0.01526844 0.1117412 1 0 1
-0.08130985 0.01524025 0.1112602 1 0 1
-0.08003403 0.01521559 0.110773 1 0 1
-0.07921322 0.01500676 0.111153 1 0 1
-0.07794442 0.01498835 0.1106554 1 0 1
-0.07756682 0.01459445 0.1119043 1 0 1
-0.07674124 0.01439102 0.1122757 1 0 1
-0.07591409 0.01418938 0.1126442 1 0 1
-0.07508538 0.01398955 0.1130097 1 0 1
-0.0742551 0.01379155 0.1133724 1 0 1
-0.0734233 0.01359532 0.1137322 1 0 1
-0.07301232 0.01320651 0.1149743 1 0 1
-0.07217399 0.0130131 0.1153298 1 0 1
-0.0717496 0.01262551 0.1165705 1 0 1
-0.07090481 0.012435 0.1169215 1 0 1
-0.07005855 0.01224629 0.1172696 1 0 1
-0.06961575 0.01186109 0.1185073 1 0 1
-0.06956597 0.01127707 0.1206388 1 0 1
-0.06950071 0.01069189 0.1227729 1 0 1
-0.06942 0.01010559 0.1249096 1 0 1
-0.06932376 0.009518232 0.1270488 1 0 1
-0.06804965 0.009536002 0.1264918 1 0 1
-0.06217429 0.01199071 0.1151193 1 0 1
-0.05791077 0.01365189 0.1073175 1 0 1
-0.0578548 0.01308121 0.1094274 1 0 1
-0.05479695 0.01414883 0.1043013 1 0 1
-0.05769644 0.01193668 0.1136544 1 0 1
-0.05576301 0.01239443 0.1112344 1 0 1
-0.05530025 0.01203011 0.1124385 1 0 1
-0.05554721 0.01125089 0.1154622 1 0 1
-0.05577152 0.01046951 0.1184904 1 0 1
-0.0556212 0.009894961 0.1206108 1 0 1
-0.05475857 0.00973886 0.1209058 1 0 1
-0.05354991 0.009794842 0.120283 1 0 1
-0.05234718 0.009853926 0.1196548 1 0 1
-0.05081281 0.01012763 0.1181041 1 0 1
-0.04962564 0.01019351 0.1174641 1 0 1
-0.04811408 0.01047512 0.1158993 1 0 1
-0.04661579 0.01076099 0.1143269 1 0 1
-0.04545399 0.01083705 0.1136689 1 0 1
-0.04429826 0.01091609 0.1130058 1 0 1
-0.04314868 0.01099804 0.1123375 1 0 1
-0.04231754 0.01086721 0.1125894 1 0 1
-0.04179397 0.01052195 0.1137647 1 0 1
-0.04065205 0.01061088 0.1130845 1 0 1
-0.03981769 0.01048533 0.1133278 1 0 1
-0.03898234 0.01036158 0.1135682 1 0 1
-0.03814592 0.01023956 0.1138057 1 0 1
-0.03730849 0.01011932 0.1140403 1 0 1
-0.03647004 0.01000084 0.114272 1 0 1
-0.0356306 0.009884109 0.1145009 1 0 1
-0.0350696 0.009548685 0.1156614 1 0 1
-0.03422454 0.009435011 0.1158854 1 0 1
-0.0333785 0.009323096 0.1161065 1 0 1
-0.03253153 0.009212999 0.1163248 1 0 1
-0.03141892 0.009327044 0.1156017 1 0 1
-0.03005175 0.009666677 0.1139347 1 0 1
-0.02844116 0.0102332 0.1113209 1 0 1
-0.02685186 0.01080418 0.1086989 1 0 1
-0.02528391 0.01137953 0.1060686 1 0 1
-0.02226017 0.01330705 0.09777343 1 0 1
-0.01954487 0.01501883 0.09040362 1 0 1
0.08014543 0.00101075 0.1560323 1 0 1
0.0821241 3.258929E-05 0.1606373 1 0 1
0.08275115 0.0006078602 0.1585478 1 0 1
0.08356454 0.0009629132 0.1574116 1 0 1
0.08457553 0.001099139 0.1572269 1 0 1
0.08558574 0.001237517 0.1570386 1 0 1
0.08638176 0.001596847 0.1558946 1 0 1
0.08738662 0.001738924 0.1557 1 0 1
0.08839067 0.001883116 0.1555019 1 0 1
0.08939387 0.002029426 0.1553002 1 0 1
0.09016789 0.002394551 0.1541458 1 0 1
0.09093358 0.002760706 0.1529896 1 0 1
0.09192673 0.002912194 0.152779 1 0 1
0.09291904 0.003065826 0.1525649 1 0 1
0.09366711 0.003435934 0.1514013 1 0 1
0.09440689 0.003806965 0.150236 1 0 1
0.09563976 0.003752465 0.1509573 1 0 1
0.09662469 0.003913853 0.1507302 1 0 1
0.09760864 0.004077337 0.1504995 1 0 1
0.09911542 0.003820168 0.1521488 1 0 1
0.1003705 0.003778338 0.1528502 1 0 1
0.1019012 0.003529787 0.1544862 1 0 1
0.1031727 0.003495428 0.155176 1 0 1
0.1044507 0.003464503 0.1558605 1 0 1
0.1054545 0.003645163 0.1556024 1 0 1
-0.08865575 0.01471473 0.112963 1 0 1
-0.08735213 0.01467267 0.1125119 1 0 1
-0.08605353 0.01463427 0.1120546 1 0 1
-0.08475997 0.01459952 0.1115912 1 0 1
-0.08347144 0.01456838 0.1111215 1 0 1
-0.08218805 0.01454087 0.1106458 1 0 1
-0.08136665 0.01432716 0.111033 1 0 1
-0.08009014 0.0143059 0.1105467 1 0 1
-0.07881882 0.01428821 0.1100543 1 0 1
-0.07799938 0.01408163 0.1104298 1 0 1
-0.07762156 0.0136836 0.1116776 1 0 1
-0.07723533 0.01328571 0.1129257 1 0 1
-0.07640427 0.01308285 0.1132956 1 0 1
-0.07557167 0.01288181 0.1136626 1 0 1
-0.07473747 0.01268259 0.1140266 1 0 1
-0.07390177 0.01248521 0.1143878 1 0 1
-0.07348709 0.01209143 0.1156304 1 0 1
-0.07264486 0.01189689 0.1159872 1 0 1
-0.07180111 0.01170415 0.116341 1 0 1
-0.071368 0.01131268 0.1175807 1 0 1
-0.07051779 0.01112285 0.1179301 1 0 1
-0.07007124 0.01073273 0.1191682 1 0 1
-0.07001789 0.01014003 0.1212991 1 0 1
-0.06994907 0.009546147 0.1234326 1 0 1
-0.06986476 0.008951156 0.1255687 1 0 1
-0.06898262 0.008765377 0.1259129 1 0 1
-0.06732374 0.008993246 0.1244569 1 0 1
-0.0603001 0.01211833 0.1103942 1 0 1
-0.05947717 0.01195117 0.1107052 1 0 1
-0.05902996 0.01157774 0.1119159 1 0 1
-0.05745386 0.0118309 0.1104148 1 0 1
-0.05922012 0.01020377 0.1170519 1 0 1
-0.05763786 0.01045978 0.1155463 1 0 1
-0.05679418 0.01029877 0.115848 1 0 1
-0.05666774 0.009716608 0.1179648 1 0 1
-0.05617002 0.009345748 0.1191735 1 0 1
-0.05531176 0.009188174 0.1194702 1 0 1
-0.05445224 0.00903245 0.1197639 1 0 1
-0.05324654 0.009092608 0.1191408 1 0 1
-0.0517054 0.009370605 0.1175973 1 0 1
-0.05051518 0.009437577 0.1169623 1 0 1
-0.04933095 0.009507612 0.116322 1 0 1
-0.04782223 0.009797233 0.1147579 1 0 1
-0.04665368 0.009873905 0.1141059 1 0 1
-0.04549126 0.009953554 0.1134489 1 0 1
-0.04401523 0.01025452 0.1118646 1 0 1
-0.04318473 0.0101217 0.1121193 1 0 1
-0.04204071 0.01021015 0.1114469 1 0 1
-0.04182928 0.009641313 0.1135454 1 0 1
-0.04099191 0.009513226 0.1137926 1 0 1
-0.04015347 0.009386903 0.1140368 1 0 1
-0.03931397 0.00926236 0.1142782 1 0 1
-0.03847344 0.00913959 0.1145167 1 0 1
-0.03763189 0.00901858 0.1147524 1 0 1
-0.03678934 0.008899379 0.1149851 1 0 1
-0.03594577 0.008781975 0.1152149 1 0 1
-0.03510122 0.008666301 0.1154418 1 0 1
-0.03425569 0.008552412 0.1156658 1 0 1
-0.0334092 0.008440331 0.115887 1 0 1
-0.03229325 0.00855578 0.1151687 1 0 1
-0.03118375 0.008673935 0.1144457 1 0 1
-0.02981955 0.009021529 0.1127796 1 0 1
-0.02795439 0.009827035 0.1092285 1 0 1
-0.02637169 0.01041028 0.1066075 1 0 1
-0.02456032 0.01122591 0.1030374 1 0 1
-0.02105352 0.01364609 0.09286438 1 0 1
0.08198893 0.000476209 0.1544846 1 0 1
0.0835966 -6.35696E-05 0.1571656 1 0 1
0.08440214 0.0002967169 0.1560284 1 0 1
0.08561883 0.0002116708 0.1567929 1 0 1
0.08641525 0.0005751725 0.1556501 1 0 1
0.08698612 0.001161916 0.1535547 1 0 1
0.08798315 0.001305344 0.1533582 1 0 1
0.08920412 0.001229822 0.1541073 1 0 1
0.0899748 0.001598573 0.1529548 1 0 1
0.09073708 0.001968281 0.1518005 1 0 1
0.09196299 0.001900187 0.1525375 1 0 1
0.09271609 0.002272964 0.1513778 1 0 1
0.09346084 0.002646652 0.1502162 1 0 1
0.09419722 0.003021248 0.1490528 1 0 1
0.09542701 0.002962702 0.1497744 1 0 1
0.09640871 0.003123848 0.1495483 1 0 1
0.09764778 0.003071271 0.1502604 1 0 1
0.09889331 0.00302207 0.1509673 1 0 1
0.1001453 0.002976189 0.151669 1 0 1
0.1016731 0.002719807 0.1533043 1 0 1
0.1032148 0.002468163 0.1549324 1 0 1
0.1044933 0.002433848 0.1556162 1 0 1
0.1057782 0.002402977 0.1562946 1 0 1
-0.08871566 0.01378635 0.1127283 1 0 1
-0.08693734 0.0139367 0.1114181 1 0 1
-0.08564141 0.01390258 0.11096 1 0 1
-0.0843505 0.01387206 0.1104957 1 0 1
-0.08306471 0.01384521 0.1100252 1 0 1
-0.081784 0.01382195 0.1095487 1 0 1
-0.08096553 0.0136087 0.1099342 1 0 1
-0.08014547 0.0133973 0.1103168 1 0 1
-0.07932375 0.01318766 0.1106965 1 0 1
-0.07850044 0.01297985 0.1110734 1 0 1
-0.07811897 0.01257683 0.1123217 1 0 1
-0.07728907 0.01237177 0.1126944 1 0 1
-0.07689415 0.01196984 0.1139416 1 0 1
-0.07605763 0.01176762 0.11431 1 0 1
-0.07521956 0.01156722 0.1146754 1 0 1
-0.07480617 0.01116744 0.1159199 1 0 1
-0.07396153 0.01096989 0.116281 1 0 1
-0.07311539 0.01077417 0.1166391 1 0 1
-0.07226771 0.01058033 0.1169943 1 0 1
-0.07183085 0.0101839 0.1182344 1 0 1
-0.07097667 0.00999295 0.1185851 1 0 1
-0.07052639 0.009597911 0.1198235 1 0 1
-0.07046948 0.008996514 0.1219538 1 0 1
-0.06999871 0.008601408 0.1231933 1 0 1
-0.0699143 0.007998461 0.1253273 1 0 1
-0.06864036 0.008021264 0.1247752 1 0 1
-0.06349374 0.01014421 0.1152416 1 0 1
-0.05765472 0.01270583 0.1038775 1 0 1
-0.05875988 0.01148779 0.1086803 1 0 1
-0.05831948 0.01111167 0.1098873 1 0 1
-0.05712333 0.011161 0.1092883 1 0 1
-0.05963422 0.009081154 0.1177256 1 0 1
-0.05804758 0.009343806 0.1162232 1 0 1
-0.05756288 0.008967198 0.1174329 1 0 1
-0.05706976 0.008591082 0.1186422 1 0 1
-0.05621234 0.008431396 0.1189418 1 0 1
-0.05535361 0.008273528 0.1192384 1 0 1
-0.05414492 0.008334763 0.1186204 1 0 1
-0.05294217 0.008399107 0.117997 1 0 1
-0.05140382 0.008685055 0.1164542 1 0 1
-0.05021657 0.008756253 0.1158189 1 0 1
-0.04870101 0.00905019 0.1142619 1 0 1
-0.04786012 0.008907644 0.1145325 1 0 1
-0.04636388 0.009208867 0.1129627 1 0 1
-0.04552792 0.009071114 0.1132254 1 0 1
-0.04437098 0.009157289 0.1125641 1 0 1
-0.04322019 0.009246402 0.1118977 1 0 1
-0.04238815 0.009115133 0.1121494 1 0 1
-0.04155502 0.0089856 0.1123983 1 0 1
-0.04072083 0.008857828 0.1126444 1 0 1
-0.04018726 0.008506862 0.113814 1 0 1
-0.03934732 0.008382092 0.1140554 1 0 1
-0.0388007 0.008033031 0.1152225 1 0 1
-0.03766433 0.008137897 0.1145295 1 0 1
-0.03710835 0.007791356 0.1156927 1 0 1
-0.03626066 0.007673179 0.1159235 1 0 1
-0.03541198 0.007556815 0.1161514 1 0 1
-0.0342863 0.007670865 0.1154428 1 0 1
-0.03316704 0.007787711 0.1147294 1 0 1
-0.03205417 0.007907275 0.1140111 1 0 1
-0.03094777 0.008029555 0.1132881 1 0 1
-0.02958658 0.008385107 0.111623 1 0 1
-0.02746663 0.009437206 0.1071367 1 0 1
-0.02563665 0.01026413 0.1035776 1 0 1
-0.02308504 0.01179196 0.09718862 1 0 1
0.1482749 -0.1265127 0.6663246 1 0 1
0.1513012 -0.1261957 0.665925 1 0 1
0.08383107 -0.001316871 0.1578678 1 0 1
0.08484686 -0.001179474 0.1576828 1 0 1
0.08607173 -0.00126697 0.1584452 1 0 1
0.0866624 -0.0006717792 0.1563518 1 0 1
0.08723725 -7.654592E-05 0.1542577 1 0 1
0.08801745 0.0002931914 0.1531119 1 0 1
0.08901418 0.0004390875 0.1529122 1 0 1
0.09001008 0.000587098 0.1527089 1 0 1
0.09077274 0.0009609431 0.1515557 1 0 1
0.09176318 0.001112607 0.1513463 1 0 1
0.09251288 0.001488924 0.1501886 1 0 1
0.09349782 0.001644169 0.149973 1 0 1
0.09423458 0.002022942 0.1488108 1 0 1
0.09521398 0.002181748 0.1485893 1 0 1
0.09644718 0.002122456 0.1493059 1 0 1
0.09768689 0.002066482 0.1500172 1 0 1
0.09893307 0.002013837 0.1507235 1 0 1
0.1004516 0.001746244 0.1523634 1 0 1
0.1017143 0.001701003 0.1530582 1 0 1
0.1032568 0.001442165 0.1546848 1 0 1
0.104536 0.001404434 0.1553679 1 0 1
0.1058215 0.001370201 0.1560456 1 0 1
-0.08877472 0.01285912 0.1124901 1 0 1
-0.08746973 0.01282374 0.1120406 1 0 1
-0.08616976 0.01279202 0.111585 1 0 1
-0.08440729 0.01295864 0.1102608 1 0 1
-0.0835849 0.01273957 0.1106551 1 0 1
-0.08230015 0.0127188 0.110181 1 0 1
-0.08147784 0.01250426 0.110568 1 0 1
-0.08019998 0.01248978 0.1100833 1 0 1
-0.07937783 0.01227977 0.1104629 1 0 1
-0.07900119 0.01187161 0.1117115 1 0 1
-0.0781724 0.01166438 0.1120869 1 0 1
-0.07778228 0.01125734 0.1133344 1 0 1
-0.07694688 0.0110529 0.1137056 1 0 1
-0.07654329 0.01064697 0.1149518 1 0 1
-0.07527139 0.01064952 0.1144392 1 0 1
-0.07485776 0.01024561 0.1156825 1 0 1
-0.07443566 0.009841898 0.116926 1 0 1
-0.07358558 0.00964504 0.1172855 1 0 1
-0.07273396 0.009450011 0.117642 1 0 1
-0.07229337 0.009048667 0.1188825 1 0 1
-0.07143525 0.008856581 0.1192345 1 0 1
-0.07098119 0.008456653 0.1204733 1 0 1
-0.07051867 0.008057048 0.1217118 1 0 1
-0.07044619 0.007446552 0.1238427 1 0 1
-0.06996313 0.007046911 0.1250823 1 0 1
-0.06829698 0.007285914 0.1236358 1 0 1
-0.06237531 0.009877926 0.1123183 1 0 1
-0.05961979 0.01077716 0.1081463 1 0 1
-0.06032684 0.009751149 0.1120515 1 0 1
-0.05911722 0.009799358 0.1114615 1 0 1
-0.0582872 0.009634429 0.1117679 1 0 1
-0.0593074 0.008386118 0.1165875 1 0 1
-0.05809026 0.008439046 0.1159901 1 0 1
-0.0572421 0.008276727 0.116293 1 0 1
-0.05675224 0.007897191 0.1175 1 0 1
-0.05625397 0.007518135 0.1187066 1 0 1
-0.05504234 0.007580394 0.1180936 1 0 1
-0.0538366 0.007645766 0.1174753 1 0 1
-0.0526368 0.007714296 0.1168516 1 0 1
-0.05110124 0.00800825 0.1153094 1 0 1
-0.04991698 0.008083547 0.1146739 1 0 1
-0.04873874 0.008161921 0.1140331 1 0 1
-0.04756653 0.008243316 0.1133871 1 0 1
-0.04640039 0.008327716 0.1127359 1 0 1
-0.04556397 0.008189694 0.1129984 1 0 1
-0.04440644 0.008279446 0.112338 1 0 1
-0.04325505 0.008372148 0.1116726 1 0 1
-0.04273531 0.008013459 0.1128466 1 0 1
-0.0418981 0.007883145 0.1130965 1 0 1
-0.04105982 0.007754606 0.1133436 1 0 1
-0.04022048 0.007627838 0.1135878 1 0 1
-0.03967824 0.007273476 0.1147557 1 0 1
-0.03883316 0.007149752 0.1149952 1 0 1
-0.03798703 0.007027807 0.1152317 1 0 1
-0.0371399 0.006907602 0.1154654 1 0 1
-0.03629176 0.006789257 0.1156962 1 0 1
-0.03544262 0.006672696 0.115924 1 0 1
-0.03431636 0.00679038 0.1152164 1 0 1
-0.03292405 0.007143734 0.1135703 1 0 1
-0.03154554 0.007500877 0.1119176 1 0 1
-0.03044594 0.007627759 0.1111937 1 0 1
-0.02856869 0.008460436 0.107656 1 0 1
-0.02620481 0.009768211 0.1022336 1 0 1
-0.02388451 0.01108309 0.09679773 1 0 1
0.08046184 0.000308109 0.1463685 1 0 1
0.08406586 -0.002576497 0.1585641 1 0 1
0.08508589 -0.00243828 0.1583786 1 0 1
0.08631514 -0.002528723 0.1591396 1 0 1
0.08690988 -0.001925065 0.1570476 1 0 1
0.08727124 -0.001091618 0.1540062 1 0 1
0.08805177 -0.0007177276 0.1528616 1 0 1
0.08904899 -0.0005715076 0.1526621 1 0 1
0.08981662 -0.0001950611 0.1515127 1 0 1
0.09057593 0.0001824025 0.1503614 1 0 1
0.09156311 0.0003338167 0.150153 1 0 1
0.09230946 0.0007137228 0.1489972 1 0 1
0.09329116 0.0008687291 0.1487827 1 0 1
0.09402451 0.001251072 0.1476225 1 0 1
0.09525184 0.00118503 0.1483435 1 0 1
0.09623078 0.001346287 0.1481187 1 0 1
0.0974674 0.001286291 0.1488303 1 0 1
0.09871052 0.001229595 0.1495367 1 0 1
0.1002261 0.0009541746 0.151176 1 0 1
0.1014858 0.0009049021 0.1518709 1 0 1
0.1030253 0.0006382327 0.1534968 1 0 1
0.1043015 0.0005964766 0.1541802 1 0 1
0.105584 0.0005581927 0.1548582 1 0 1
-0.08883296 0.01193303 0.1122482 1 0 1
-0.08752728 0.01190097 0.1117995 1 0 1
-0.08622661 0.01187262 0.1113447 1 0 1
-0.084931 0.0118479 0.1108837 1 0 1
-0.08364043 0.01182685 0.1104166 1 0 1
-0.082355 0.01180943 0.1099433 1 0 1
-0.08153227 0.01159453 0.1103301 1 0 1
-0.08025374 0.01158338 0.1098463 1 0 1
-0.07943115 0.01137299 0.1102258 1 0 1
-0.07860696 0.01116442 0.1106024 1 0 1
-0.07822502 0.01075309 0.1118486 1 0 1
-0.07783468 0.01034189 0.1130949 1 0 1
-0.07699885 0.01013706 0.113466 1 0 1
-0.07616143 0.009934058 0.1138341 1 0 1
-0.07532245 0.009732922 0.1141993 1 0 1
-0.07490858 0.009324882 0.1154416 1 0 1
-0.07448623 0.008917049 0.1166839 1 0 1
-0.0736357 0.008719819 0.1170433 1 0 1
-0.07319988 0.008313286 0.1182842 1 0 1
-0.07275554 0.007907017 0.1195249 1 0 1
-0.07189346 0.007713795 0.1198783 1 0 1
-0.07143566 0.007308932 0.1211174 1 0 1
-0.07177388 0.00647588 0.1241365 1 0 1
-0.07169081 0.005855199 0.1262695 1 0 1
-0.07159218 0.005233419 0.1284049 1 0 1
-0.06873591 0.006126234 0.1242831 1 0 1
-0.0604786 0.01006997 0.1076062 1 0 1
-0.05966275 0.009901554 0.1079171 1 0 1
-0.0580833 0.01017232 0.1064286 1 0 1
-0.05802706 0.009570018 0.1085303 1 0 1
-0.05870341 0.008526403 0.1124364 1 0 1
-0.05897954 0.00769979 0.1154478 1 0 1
-0.05813223 0.007535359 0.1157535 1 0 1
-0.05764698 0.007150579 0.1169611 1 0 1
-0.05643371 0.007211991 0.1163563 1 0 1
-0.05558253 0.007053066 0.1166532 1 0 1
-0.05473005 0.006895931 0.1169473 1 0 1
-0.05317823 0.007190338 0.1154189 1 0 1
-0.051985 0.007263687 0.1147937 1 0 1
-0.05079772 0.007340105 0.1141632 1 0 1
-0.04961645 0.007419615 0.1135274 1 0 1
-0.04844121 0.007502138 0.1128864 1 0 1
-0.04760303 0.007359673 0.1131558 1 0 1
-0.0464363 0.007447647 0.1125055 1 0 1
-0.04527564 0.007538563 0.1118501 1 0 1
-0.0444413 0.007402672 0.1121086 1 0 1
-0.04360582 0.007268545 0.1123643 1 0 1
-0.04276927 0.007136208 0.1126171 1 0 1
-0.04224087 0.006774109 0.1137894 1 0 1
-0.0413985 0.006644785 0.1140375 1 0 1
-0.04055506 0.006517254 0.1142827 1 0 1
-0.04000886 0.006158328 0.1154505 1 0 1
-0.03915966 0.006033808 0.115691 1 0 1
-0.03830944 0.005911106 0.1159286 1 0 1
-0.03717089 0.006024997 0.1152346 1 0 1
-0.03632229 0.005906412 0.1154653 1 0 1
-0.03547269 0.005789607 0.1156932 1 0 1
-0.03406959 0.00614719 0.1140549 1 0 1
-0.03268027 0.006508556 0.1124099 1 0 1
-0.03103586 0.007110854 0.1098247 1 0 1
-0.0294127 0.007717803 0.107231 1 0 1
-0.02728784 0.008805675 0.1027583 1 0 1
-0.02468351 0.01037716 0.09640109 1 0 1
0.08491254 -0.003233128 0.1571688 1 0 1
0.08613864 -0.00332757 0.1579298 1 0 1
0.08672982 -0.002716497 0.1558406 1 0 1
0.08730523 -0.002105427 0.1537507 1 0 1
0.08808612 -0.001727413 0.1526072 1 0 1
0.08908387 -0.001580824 0.152408 1 0 1
0.08985186 -0.001200225 0.1512597 1 0 1
0.09061149 -0.0008186672 0.1501096 1 0 1
0.09159917 -0.0006668787 0.1499015 1 0 1
0.09234588 -0.0002828398 0.1487468 1 0 1
0.09308419 0.0001021364 0.1475903 1 0 1
0.09381416 0.0004879792 0.1464321 1 0 1
0.09503837 0.0004179374 0.1471532 1 0 1
0.09626912 0.0003511876 0.1478692 1 0 1
0.09750637 0.0002877521 0.1485801 1 0 1
0.09848765 0.0004541883 0.1483479 1 0 1
0.1000003 0.000170941 0.1499863 1 0 1
0.1012569 0.0001176249 0.1506815 1 0 1
0.1027935 -0.0001568412 0.1523067 1 0 1
0.104344 -0.0004265498 0.1539246 1 0 1
0.1053461 -0.0002449478 0.1536685 1 0 1
-0.08889039 0.01100809 0.1120027 1 0 1
-0.08758403 0.01097936 0.1115549 1 0 1
-0.08628268 0.01095434 0.1111009 1 0 1
-0.0849864 0.01093298 0.1106408 1 0 1
-0.08369516 0.01091527 0.1101744 1 0 1
-0.08240908 0.0109012 0.1097021 1 0 1
-0.08158588 0.01068588 0.1100887 1 0 1
-0.08076108 0.01047241 0.1104725 1 0 1
-0.07993465 0.01026073 0.1108535 1 0 1
-0.07910657 0.01005091 0.1112315 1 0 1
-0.07827691 0.009842886 0.1116067 1 0 1
-0.07788631 0.009427546 0.1128519 1 0 1
-0.07748727 0.009012332 0.1140973 1 0 1
-0.07664596 0.008808139 0.1144669 1 0 1
-0.07580308 0.008605803 0.1148334 1 0 1
-0.0753855 0.008192789 0.1160761 1 0 1
-0.07495945 0.007780022 0.1173188 1 0 1
-0.07452489 0.007367464 0.1185615 1 0 1
-0.07408185 0.006955224 0.1198041 1 0 1
-0.07363032 0.006543233 0.1210467 1 0 1
-0.07276081 0.006348088 0.1214028 1 0 1
-0.07229573 0.005937539 0.1226436 1 0 1
-0.07262707 0.005091297 0.1256624 1 0 1
-0.07253687 0.004461173 0.1277961 1 0 1
-0.0708494 0.0047082 0.1263647 1 0 1
-0.06721493 0.006061659 0.1204586 1 0 1
-0.06246321 0.008090549 0.1118466 1 0 1
-0.06239897 0.007474604 0.113956 1 0 1
-0.06079394 0.007747605 0.1124788 1 0 1
-0.06033505 0.007355645 0.1136891 1 0 1
-0.05986772 0.006964026 0.1148992 1 0 1
-0.05939195 0.006572905 0.116109 1 0 1
-0.05854064 0.006407468 0.1164159 1 0 1
-0.05768801 0.006243904 0.1167199 1 0 1
-0.05647413 0.006308832 0.116116 1 0 1
-0.05562248 0.006149573 0.1164129 1 0 1
-0.05406398 0.006448197 0.1148919 1 0 1
-0.05286777 0.006522565 0.1142718 1 0 1
-0.05167752 0.006600093 0.1136463 1 0 1
-0.05083525 0.006450726 0.1139267 1 0 1
-0.04965337 0.006533742 0.1132918 1 0 1
-0.04847752 0.006619805 0.1126517 1 0 1
-0.04763891 0.006477109 0.1129211 1 0 1
-0.04647158 0.006568614 0.1122718 1 0 1
-0.04563428 0.006430088 0.1125343 1 0 1
-0.04479586 0.006293357 0.1127938 1 0 1
-0.04363964 0.006392606 0.1121314 1 0 1
-0.04311568 0.006025266 0.1133044 1 0 1
-0.04258333 0.005658557 0.1144767 1 0 1
-0.04173688 0.005528434 0.1147259 1 0 1
-0.04088932 0.005400077 0.1149721 1 0 1
-0.04033917 0.00503657 0.11614 1 0 1
-0.03948586 0.004911321 0.1163814 1 0 1
-0.03863153 0.004787865 0.11662 1 0 1
-0.03748872 0.004904817 0.115928 1 0 1
-0.03635225 0.005024599 0.1152311 1 0 1
-0.03494205 0.005386814 0.1135997 1 0 1
-0.03354562 0.005752851 0.1119615 1 0 1
-0.03189028 0.006363184 0.109385 1 0 1
-0.02998714 0.00721932 0.1058675 1 0 1
-0.02837797 0.007839433 0.1032731 1 0 1
-0.02626687 0.008948103 0.09880169 1 0 1
-0.02341823 0.01079051 0.09151272 1 0 1
0.0861722 -0.004355937 0.1576659 1 0 1
0.08676364 -0.003736946 0.1555789 1 0 1
0.0871215 -0.002880598 0.1525445 1 0 1
0.08789901 -0.002498978 0.1514029 1 0 1
0.0886682 -0.002116373 0.1502594 1 0 1
0.08965805 -0.001968456 0.1500583 1 0 1
0.09041434 -0.001583305 0.1489102 1 0 1
0.09139874 -0.001431781 0.1487031 1 0 1
0.09214202 -0.001044172 0.1475503 1 0 1
0.09312094 -0.0008890204 0.1473372 1 0 1
0.09385126 -0.0004990207 0.1461801 1 0 1
0.09507611 -0.0005725026 0.1469005 1 0 1
0.09605227 -0.0004111304 0.1466771 1 0 1
0.09728643 -0.0004785873 0.1473881 1 0 1
0.09852706 -0.0005426946 0.1480939 1 0 1
0.09977416 -0.0006034393 0.1487945 1 0 1
0.1012977 -0.0008897946 0.1504252 1 0 1
0.1025614 -0.0009431102 0.1511144 1 0 1
0.1038315 -0.00099292 0.1517982 1 0 1
0.1048267 -0.0008122568 0.1515443 1 0 1
-0.08846866 0.01028744 0.1108992 1 0 1
-0.087165 0.01026298 0.1104506 1 0 1
-0.08633795 0.01003722 0.1108535 1 0 1
-0.08550915 0.009813312 0.1112535 1 0 1
-0.08421389 0.009798029 0.1107897 1 0 1
-0.08292375 0.009786393 0.1103198 1 0 1
-0.08209673 0.009569799 0.110708 1 0 1
-0.08126805 0.00935505 0.1110932 1 0 1
-0.08043777 0.009142136 0.1114756 1 0 1
-0.07960586 0.008931032 0.1118551 1 0 1
-0.0787723 0.008721783 0.1122316 1 0 1
-0.07837804 0.008301448 0.1134773 1 0 1
-0.07753789 0.008095043 0.1138496 1 0 1
-0.07669615 0.007890456 0.114219 1 0 1
-0.07585282 0.007687734 0.1145855 1 0 1
-0.07543502 0.0072706 0.115827 1 0 1
-0.07500871 0.006853699 0.1170686 1 0 1
-0.0745739 0.006436999 0.1183101 1 0 1
-0.07454724 0.005801936 0.120434 1 0 1
-0.07409195 0.005385034 0.1216768 1 0 1
-0.07362815 0.004968454 0.1229195 1 0 1
-0.07315581 0.004552211 0.1241621 1 0 1
-0.07307757 0.003914577 0.1262924 1 0 1
-0.07218552 0.003720921 0.1266464 1 0 1
-0.07010511 0.00419926 0.1243248 1 0 1
-0.06451544 0.006700744 0.1139619 1 0 1
-0.06211758 0.00742333 0.110712 1 0 1
-0.06205677 0.006800261 0.1128179 1 0 1
-0.060836 0.006854936 0.1122375 1 0 1
-0.06037684 0.006458872 0.1134468 1 0 1
-0.05990926 0.006063215 0.1146557 1 0 1
-0.05906237 0.005896345 0.1149642 1 0 1
-0.05821418 0.005731326 0.1152698 1 0 1
-0.05772839 0.005338361 0.1164752 1 0 1
-0.05651387 0.005406784 0.1158722 1 0 1
-0.05530524 0.005478388 0.1152638 1 0 1
-0.0541025 0.005553125 0.11465 1 0 1
-0.05255633 0.005863503 0.1131232 1 0 1
-0.05136907 0.005945146 0.1124974 1 0 1
-0.05052997 0.005796175 0.1127766 1 0 1
-0.04968966 0.005648984 0.1130528 1 0 1
-0.04851322 0.005738593 0.1124137 1 0 1
-0.04734285 0.005831225 0.1117694 1 0 1
-0.04650625 0.005690649 0.1120346 1 0 1
-0.04566852 0.005551867 0.1122971 1 0 1
-0.04515012 0.005177514 0.1134736 1 0 1
-0.04398968 0.005279702 0.1128132 1 0 1
-0.04346178 0.004907751 0.1139863 1 0 1
-0.04292551 0.004536447 0.1151586 1 0 1
-0.04238082 0.004165804 0.1163302 1 0 1
-0.04152553 0.004036146 0.1165785 1 0 1
-0.04066918 0.00390829 0.1168239 1 0 1
-0.03981176 0.003782273 0.1170663 1 0 1
-0.03866207 0.003899952 0.1163803 1 0 1
-0.03751868 0.004020475 0.1156893 1 0 1
-0.03609775 0.004386789 0.1140658 1 0 1
-0.03497076 0.004513522 0.113364 1 0 1
-0.03329713 0.005130898 0.1107983 1 0 1
-0.03137185 0.005997405 0.1072934 1 0 1
-0.02920605 0.007114453 0.1028467 1 0 1
-0.02734176 0.007992615 0.09932017 1 0 1
-0.02445929 0.009859608 0.09205028 1 0 1
0.08578508 -0.004898572 0.1555037 1 0 1
0.08658335 -0.004514441 0.1543667 1 0 1
0.08715543 -0.003888062 0.152282 1 0 1
0.0879333 -0.003502322 0.1511416 1 0 1
0.08870282 -0.003115597 0.1499992 1 0 1
0.08946404 -0.002727842 0.1488549 1 0 1
0.09021688 -0.00233916 0.1477087 1 0 1
0.09143469 -0.002426178 0.1484445 1 0 1
0.09217833 -0.002034423 0.147293 1 0 1
0.0931577 -0.001878933 0.1470801 1 0 1
0.09388834 -0.001484826 0.1459242 1 0 1
0.09511381 -0.001561704 0.1466439 1 0 1
0.09609044 -0.001399942 0.1464206 1 0 1
0.09732523 -0.001470807 0.1471309 1 0 1
0.09856648 -0.001538312 0.147836 1 0 1
0.09981421 -0.001602451 0.1485359 1 0 1
0.1010684 -0.001663185 0.1492306 1 0 1
0.1026028 -0.001952645 0.1508533 1 0 1
0.1035959 -0.001774361 0.150604 1 0 1
0.1040253 -0.001132415 0.1484884 1 0 1
-0.08804563 0.009575451 0.1097941 1 0 1
-0.08721985 0.009347434 0.1101998 1 0 1
-0.08686416 0.008912577 0.1114592 1 0 1
-0.08603156 0.008687331 0.1118607 1 0 1
-0.08473223 0.008674463 0.1113994 1 0 1
-0.08389967 0.008453843 0.1117935 1 0 1
-0.08260719 0.00844739 0.1113216 1 0 1
-0.08177467 0.008231352 0.1117083 1 0 1
-0.08048915 0.008231241 0.1112258 1 0 1
-0.08010475 0.00780481 0.112473 1 0 1
-0.07926735 0.007594305 0.112851 1 0 1
-0.07842834 0.007385667 0.1132261 1 0 1
-0.07758775 0.00717886 0.1135983 1 0 1
-0.07717975 0.006755568 0.1148415 1 0 1
-0.07590181 0.006770837 0.1143339 1 0 1
-0.07548373 0.006349563 0.1155743 1 0 1
-0.07505719 0.005928525 0.1168147 1 0 1
-0.07504246 0.005286083 0.118935 1 0 1
-0.07459542 0.004864739 0.1201768 1 0 1
-0.07455321 0.004220458 0.1223013 1 0 1
-0.07408565 0.00379901 0.1235443 1 0 1
-0.07401588 0.00315305 0.1256727 1 0 1
-0.07393058 0.002505913 0.1278037 1 0 1
-0.07343034 0.002084071 0.1290488 1 0 1
-0.06856771 0.004160854 0.1205056 1 0 1
-0.06573547 0.005115263 0.1163879 1 0 1
-0.06410336 0.00539323 0.1149311 1 0 1
-0.06325439 0.0052173 0.1152539 1 0 1
-0.06164068 0.005503295 0.1137832 1 0 1
-0.06079606 0.00533248 0.1140974 1 0 1
-0.05995008 0.005163477 0.1144088 1 0 1
-0.05910278 0.004996314 0.1147172 1 0 1
-0.05825414 0.004830986 0.1150227 1 0 1
-0.0574042 0.004667512 0.1153253 1 0 1
-0.05619265 0.004740088 0.114722 1 0 1
-0.05498701 0.00481588 0.1141133 1 0 1
-0.05378726 0.004894808 0.1134992 1 0 1
-0.05259344 0.004976871 0.1128798 1 0 1
-0.0514056 0.005062045 0.1122551 1 0 1
-0.05056605 0.004912781 0.1125341 1 0 1
-0.04938659 0.005003489 0.1119 1 0 1
-0.04854829 0.00485848 0.1121722 1 0 1
-0.04770881 0.00471524 0.1124414 1 0 1
-0.04686816 0.004573817 0.1127078 1 0 1
-0.04570216 0.004674805 0.1120564 1 0 1
-0.04518345 0.004296376 0.1132319 1 0 1
-0.0443394 0.004160348 0.1134896 1 0 1
-0.04380756 0.003783772 0.1146626 1 0 1
-0.04326732 0.003407846 0.1158349 1 0 1
-0.0427187 0.003032579 0.1170065 1 0 1
-0.04185933 0.002902154 0.1172559 1 0 1
-0.04099886 0.00277352 0.1175022 1 0 1
-0.04013733 0.002646747 0.1177457 1 0 1
-0.03869203 0.003013145 0.1161372 1 0 1
-0.03754808 0.003137283 0.1154472 1 0 1
-0.03612648 0.003510995 0.1138258 1 0 1
-0.03443826 0.004135774 0.1112699 1 0 1
-0.03249456 0.005013103 0.1077768 1 0 1
-0.03057944 0.005896109 0.1042732 1 0 1
-0.02788524 0.007530927 0.09796804 1 0 1
-0.02550748 0.008924903 0.09257833 1 0 1
0.08640288 -0.005283036 0.1531525 1 0 1
0.08697142 -0.004649311 0.1510707 1 0 1
0.08796765 -0.004504392 0.1508762 1 0 1
0.08873754 -0.004113527 0.1497351 1 0 1
0.0894991 -0.00372167 0.1485921 1 0 1
0.09025227 -0.003328847 0.1474471 1 0 1
0.09123389 -0.003177158 0.1472411 1 0 1
0.09221464 -0.003023427 0.1470318 1 0 1
0.09295024 -0.002626648 0.1458797 1 0 1
0.09392547 -0.002469308 0.1456644 1 0 1
0.09515151 -0.002549598 0.1463833 1 0 1
0.0963841 -0.002626586 0.1470971 1 0 1
0.09736401 -0.002461762 0.1468699 1 0 1
0.09886879 -0.002770509 0.1485092 1 0 1
0.09985423 -0.002600169 0.1482733 1 0 1
0.101109 -0.002664292 0.1489673 1 0 1
0.1023702 -0.002724979 0.1496558 1 0 1
0.1030822 -0.002311762 0.1484764 1 0 1
0.1035044 -0.00166323 0.1463649 1 0 1
-0.08714256 0.00908272 0.1078352 1 0 1
-0.0867985 0.0086446 0.1090914 1 0 1
-0.08644595 0.008206496 0.110348 1 0 1
-0.08608493 0.007768409 0.111605 1 0 1
-0.08525021 0.007544603 0.1120034 1 0 1
-0.08395196 0.007537863 0.1115385 1 0 1
-0.0831173 0.007318683 0.1119296 1 0 1
-0.08182593 0.007318296 0.111454 1 0 1
-0.08099135 0.007103714 0.1118377 1 0 1
-0.08015512 0.006890995 0.1122185 1 0 1
-0.0793173 0.006680098 0.1125964 1 0 1
-0.07891916 0.006250625 0.1138412 1 0 1
-0.07807467 0.006042623 0.1142148 1 0 1
-0.07722861 0.005836441 0.1145855 1 0 1
-0.07638094 0.00563215 0.1149532 1 0 1
-0.07553171 0.005429701 0.115318 1 0 1
-0.07552891 0.00477996 0.1174346 1 0 1
-0.07509014 0.004354231 0.1186753 1 0 1
-0.07464284 0.003928766 0.119916 1 0 1
-0.07501409 0.003049573 0.12292 1 0 1
-0.07495279 0.002395377 0.1250464 1 0 1
-0.0744694 0.00196856 0.1262909 1 0 1
-0.07397747 0.001542165 0.1275351 1 0 1
-0.07147944 0.002266786 0.1243421 1 0 1
-0.06742416 0.003922912 0.11758 1 0 1
-0.06538606 0.004434827 0.1152435 1 0 1
-0.06453449 0.004255969 0.1155704 1 0 1
-0.06368155 0.004078975 0.1158944 1 0 1
-0.06244537 0.004137671 0.1153212 1 0 1
-0.06121494 0.004199666 0.1147426 1 0 1
-0.06036496 0.004029655 0.1150551 1 0 1
-0.05914248 0.004097432 0.1144666 1 0 1
-0.05829342 0.00393181 0.1147721 1 0 1
-0.05744306 0.003768028 0.1150746 1 0 1
-0.05623093 0.003844108 0.1144723 1 0 1
-0.05502466 0.003923376 0.1138646 1 0 1
-0.05382434 0.004005784 0.1132515 1 0 1
-0.05228022 0.004331378 0.1117274 1 0 1
-0.05144148 0.004180027 0.1120093 1 0 1
-0.05060152 0.004030517 0.1122883 1 0 1
-0.04976035 0.003882776 0.1125644 1 0 1
-0.04891799 0.003736891 0.1128376 1 0 1
-0.04807445 0.003592771 0.1131079 1 0 1
-0.04722976 0.003450487 0.1133754 1 0 1
-0.04605953 0.003554396 0.1127262 1 0 1
-0.04521618 0.00341634 0.1129867 1 0 1
-0.04468881 0.003034477 0.1141604 1 0 1
-0.04415302 0.002653276 0.1153335 1 0 1
-0.04360884 0.002272752 0.1165057 1 0 1
-0.04305626 0.001892935 0.1176773 1 0 1
-0.04219276 0.001761661 0.1179276 1 0 1
-0.04132821 0.001632261 0.118175 1 0 1
-0.04016741 0.00175366 0.117497 1 0 1
-0.03872141 0.002127442 0.1158906 1 0 1
-0.03728909 0.002505173 0.1142771 1 0 1
-0.03587049 0.002886787 0.1126568 1 0 1
-0.03390472 0.003774322 0.1091766 1 0 1
-0.03169074 0.004919215 0.1047584 1 0 1
-0.02951277 0.006070788 0.1003277 1 0 1
-0.02629339 0.008238997 0.09216742 1 0 1
0.08622215 -0.006042792 0.1519363 1 0 1
0.08678716 -0.005401734 0.1498575 1 0 1
0.08778013 -0.005256995 0.149664 1 0 1
0.08877226 -0.005110163 0.149467 1 0 1
0.08953413 -0.00471419 0.1483252 1 0 1
0.09028766 -0.004317227 0.1471814 1 0 1
0.09126975 -0.004165227 0.1469757 1 0 1
0.09225094 -0.004011138 0.1467666 1 0 1
0.09298688 -0.003610256 0.1456158 1 0 1
0.09421068 -0.003696641 0.1463382 1 0 1
0.0954411 -0.003779719 0.1470554 1 0 1
0.09616679 -0.00337376 0.145896 1 0 1
0.0974028 -0.003451428 0.1466048 1 0 1
0.09864528 -0.003525714 0.1473084 1 0 1
0.09962745 -0.003355653 0.1470736 1 0 1
0.1006086 -0.003183493 0.1468354 1 0 1
0.1015888 -0.003009219 0.1465938 1 0 1
0.10229 -0.002593875 0.1454184 1 0 1
0.1027012 -0.001939437 0.1433119 1 0 1
-0.0867168 0.008391752 0.1067283 1 0 1
-0.08637589 0.007950443 0.1079816 1 0 1
-0.08649875 0.007292947 0.1100899 1 0 1
-0.08613751 0.006850699 0.1113456 1 0 1
-0.08530238 0.006626461 0.111744 1 0 1
-0.0844655 0.00640412 0.1121394 1 0 1
-0.08362699 0.006183656 0.1125319 1 0 1
-0.08233158 0.006185739 0.1120589 1 0 1
-0.08149315 0.005969877 0.112444 1 0 1
-0.08065308 0.005755879 0.1128262 1 0 1
-0.07981138 0.005543745 0.1132055 1 0 1
-0.07940958 0.005109315 0.1144507 1 0 1
-0.07812317 0.005125065 0.1139553 1 0 1
-0.07771124 0.00469265 0.1151977 1 0 1
-0.0768597 0.004487141 0.1155668 1 0 1
-0.07643421 0.004055983 0.1168078 1 0 1
-0.07600024 0.003625059 0.1180488 1 0 1
-0.07555774 0.00319441 0.1192898 1 0 1
-0.0751067 0.002764019 0.1205307 1 0 1
-0.07506086 0.002103174 0.1226522 1 0 1
-0.07540969 0.001209537 0.1256585 1 0 1
-0.07410911 0.001242505 0.1251362 1 0 1
-0.07200759 0.001745224 0.1228381 1 0 1
-0.06672821 0.004125477 0.1134382 1 0 1
-0.06509028 0.004412624 0.111994 1 0 1
-0.06503555 0.003763052 0.1140978 1 0 1
-0.06418711 0.003584663 0.1144232 1 0 1
-0.06333726 0.003408051 0.1147457 1 0 1
-0.06248605 0.003233361 0.1150653 1 0 1
-0.061255 0.003298786 0.1144876 1 0 1
-0.06040459 0.003128428 0.1148001 1 0 1
-0.05918153 0.003199698 0.1142126 1 0 1
-0.05833203 0.003033795 0.1145179 1 0 1
-0.05711704 0.003110801 0.1139208 1 0 1
-0.05590789 0.003191048 0.1133182 1 0 1
-0.05470464 0.003274495 0.1127103 1 0 1
-0.0535073 0.003361057 0.1120969 1 0 1
-0.05231592 0.003450783 0.1114783 1 0 1
-0.05147673 0.003299166 0.1117601 1 0 1
-0.05063635 0.003149367 0.112039 1 0 1
-0.04979474 0.003001371 0.112315 1 0 1
-0.04928736 0.002608822 0.1134975 1 0 1
-0.04843977 0.002463841 0.1137689 1 0 1
-0.04759102 0.002320701 0.1140374 1 0 1
-0.0464166 0.002427561 0.1133904 1 0 1
-0.04556917 0.002288637 0.113652 1 0 1
-0.04472062 0.002151537 0.1139107 1 0 1
-0.04418455 0.001766292 0.1150826 1 0 1
-0.04333014 0.001632275 0.1153366 1 0 1
-0.04278089 0.001248965 0.116506 1 0 1
-0.04222326 0.0008663902 0.1176745 1 0 1
-0.0410593 0.0009889551 0.1170015 1 0 1
-0.04019691 0.0008617402 0.1172449 1 0 1
-0.03875022 0.001242877 0.1156405 1 0 1
-0.03731722 0.00162797 0.1140292 1 0 1
-0.03532944 0.002525614 0.1105621 1 0 1
-0.03337014 0.003429169 0.1070843 1 0 1
-0.03060881 0.005104529 0.1008167 1 0 1
-0.02707875 0.007556043 0.09175096 1 0 1
0.08582673 -0.006540672 0.1497749 1 0 1
0.0866027 -0.006145256 0.1486423 1 0 1
0.08759236 -0.006000762 0.1484498 1 0 1
0.0885812 -0.005854128 0.1482538 1 0 1
0.08933965 -0.005454604 0.147114 1 0 1
0.09008976 -0.005054135 0.1459723 1 0 1
0.09130561 -0.005151996 0.1467064 1 0 1
0.09228729 -0.004997559 0.1464975 1 0 1
0.09326806 -0.004841008 0.1462852 1 0 1
0.09424795 -0.00468234 0.1460695 1 0 1
0.09547896 -0.004768812 0.146786 1 0 1
0.0964607 -0.004605359 0.1465626 1 0 1
0.09770107 -0.004685745 0.1472697 1 0 1
0.09868465 -0.004517432 0.1470386 1 0 1
0.09940035 -0.004102279 0.145872 1 0 1
0.1003782 -0.003930393 0.1456349 1 0 1
0.1010808 -0.003512991 0.1444642 1 0 1
0.1014968 -0.002852102 0.1423624 1 0 1
0.101897 -0.002191834 0.1402611 1 0 1
-0.08581058 0.007927429 0.1047697 1 0 1
-0.08595204 0.007264887 0.1068703 1 0 1
-0.08560586 0.006820367 0.1081212 1 0 1
-0.08572023 0.006154994 0.1102276 1 0 1
-0.08535369 0.005709562 0.1114809 1 0 1
-0.08497866 0.005264153 0.1127345 1 0 1
-0.08367746 0.005265933 0.1122685 1 0 1
-0.08283687 0.005046915 0.112658 1 0 1
-0.08199458 0.004829749 0.1130445 1 0 1
-0.08070209 0.004840669 0.1125635 1 0 1
-0.07985996 0.004628184 0.1129426 1 0 1
-0.0794579 0.004189586 0.1141866 1 0 1
-0.07860912 0.003979964 0.1145615 1 0 1
-0.07775873 0.003772204 0.1149334 1 0 1
-0.07733805 0.00333584 0.1161747 1 0 1
-0.07690886 0.002899724 0.117416 1 0 1
-0.07647117 0.002463879 0.1186573 1 0 1
-0.07602494 0.00202828 0.1198985 1 0 1
-0.07598756 0.001359252 0.1220179 1 0 1
-0.07552074 0.0009234903 0.1232603 1 0 1
-0.07586617 1.741862E-05 0.1262647 1 0 1
-0.07456145 5.300139E-05 0.1257448 1 0 1
-0.06842168 0.002934488 0.1146128 1 0 1
-0.06637045 0.003461561 0.1122939 1 0 1
-0.06592428 0.003041491 0.1135103 1 0 1
-0.06507681 0.002860865 0.1138386 1 0 1
-0.06422792 0.002682118 0.1141639 1 0 1
-0.06337766 0.002505225 0.1144864 1 0 1
-0.06252602 0.002330162 0.1148059 1 0 1
-0.06129436 0.002399018 0.1142292 1 0 1
-0.06044353 0.00222841 0.1145415 1 0 1
-0.05921989 0.002303119 0.1139551 1 0 1
-0.05800203 0.002381088 0.1133631 1 0 1
-0.05715437 0.002217411 0.1136642 1 0 1
-0.05594465 0.002301104 0.1130626 1 0 1
-0.05474082 0.002388012 0.1124557 1 0 1
-0.05354291 0.002478092 0.1118433 1 0 1
-0.05270092 0.002323725 0.1121291 1 0 1
-0.05151135 0.002419411 0.1115074 1 0 1
-0.05101329 0.002020489 0.1126921 1 0 1
-0.05016767 0.001871585 0.1129692 1 0 1
-0.04932084 0.001724508 0.1132435 1 0 1
-0.04847284 0.001579257 0.1135149 1 0 1
-0.04762366 0.001435838 0.1137834 1 0 1
-0.04677332 0.00129426 0.114049 1 0 1
-0.04592184 0.00115447 0.1143117 1 0 1
-0.04506921 0.001016569 0.1145715 1 0 1
-0.0445292 0.0006267025 0.1157433 1 0 1
-0.0436707 0.0004918654 0.1159984 1 0 1
-0.0431175 0.0001039673 0.1171677 1 0 1
-0.04225315 -2.773936E-05 0.1174179 1 0 1
-0.04108864 9.83944E-05 0.116746 1 0 1
-0.03993038 0.0002274458 0.116069 1 0 1
-0.03877845 0.000359428 0.1153871 1 0 1
-0.03705673 0.001009513 0.1128556 1 0 1
-0.03478736 0.002180738 0.1084685 1 0 1
-0.03255389 0.003358916 0.1040687 1 0 1
-0.02952544 0.005321264 0.09688053 1 0 1
0.08685482 -0.007392456 0.1493086 1 0 1
0.08807086 -0.007502762 0.1500564 1 0 1
0.08884179 -0.007099559 0.148919 1 0 1
0.08983401 -0.006949938 0.1487191 1 0 1
0.09035849 -0.006290191 0.1466385 1 0 1
0.0913415 -0.00613745 0.1464332 1 0 1
0.09232359 -0.005982684 0.1462245 1 0 1
0.09330487 -0.005825736 0.1460125 1 0 1
0.09428521 -0.005666738 0.145797 1 0 1
0.09526463 -0.005505617 0.1455781 1 0 1
0.09624311 -0.005342402 0.1453558 1 0 1
0.09748031 -0.005426806 0.1460629 1 0 1
0.09846061 -0.005258754 0.145833 1 0 1
0.0991729 -0.004840113 0.1446684 1 0 1
0.09987675 -0.004420667 0.1435024 1 0 1
0.1005722 -0.00400048 0.1423347 1 0 1
0.1009809 -0.003333046 0.1402371 1 0 1
0.1016557 -0.002912033 0.1390674 1 0 1
-0.08586151 0.007035678 0.1045102 1 0 1
-0.08552695 0.00658797 0.1057577 1 0 1
-0.08565658 0.005916634 0.1078581 1 0 1
-0.08577097 0.005243388 0.1099622 1 0 1
-0.08540422 0.004793847 0.1112143 1 0 1
-0.08549141 0.004117937 0.1133239 1 0 1
-0.08418617 0.004122153 0.1128605 1 0 1
-0.08334172 0.003901841 0.1132514 1 0 1
-0.08249559 0.003683405 0.1136393 1 0 1
-0.08119906 0.003696779 0.1131608 1 0 1
-0.08035307 0.003483001 0.1135414 1 0 1
-0.07950547 0.003271089 0.113919 1 0 1
-0.07865625 0.003061059 0.1142937 1 0 1
-0.07780542 0.002852906 0.1146655 1 0 1
-0.07738453 0.002412473 0.1159056 1 0 1
-0.07738311 0.001737209 0.1180184 1 0 1
-0.07694169 0.001296434 0.1192599 1 0 1
-0.07649173 0.0008559086 0.1205014 1 0 1
-0.07645078 0.0001782044 0.1226199 1 0 1
-0.07598022 -0.0002624785 0.1238626 1 0 1
-0.07426936 1.434784E-05 0.1224654 1 0 1
-0.06931445 0.002215015 0.1140086 1 0 1
-0.06563896 0.003711292 0.108169 1 0 1
-0.06521156 0.003289108 0.1093802 1 0 1
-0.06556872 0.002382918 0.1123622 1 0 1
-0.06511734 0.001959842 0.1135759 1 0 1
-0.06465748 0.001537114 0.1147894 1 0 1
-0.06380323 0.001359133 0.1151131 1 0 1
-0.06256527 0.001428143 0.1145429 1 0 1
-0.06133304 0.001500473 0.1139672 1 0 1
-0.06048178 0.001329531 0.1142795 1 0 1
-0.05925755 0.001407711 0.113694 1 0 1
-0.05803911 0.001489151 0.1131031 1 0 1
-0.05719103 0.00132514 0.1134041 1 0 1
-0.05598073 0.001412342 0.1128035 1 0 1
-0.05477634 0.001502711 0.1121976 1 0 1
-0.05357786 0.001596279 0.1115863 1 0 1
-0.05273546 0.001441643 0.111872 1 0 1
-0.05189183 0.001288805 0.1121549 1 0 1
-0.05104699 0.001137839 0.1124348 1 0 1
-0.05020095 0.0009886648 0.112712 1 0 1
-0.04935369 0.0008413267 0.1129862 1 0 1
-0.04883733 0.000441268 0.1141657 1 0 1
-0.04798409 0.000296973 0.1144353 1 0 1
-0.04680491 0.0004102897 0.1137914 1 0 1
-0.04627414 1.391077E-05 0.1149657 1 0 1
-0.04541746 -0.0001248472 0.1152266 1 0 1
-0.04455964 -0.0002617938 0.1154845 1 0 1
-0.04370071 -0.0003968618 0.1157395 1 0 1
-0.04284069 -0.0005301071 0.1159916 1 0 1
-0.04197957 -0.0006615073 0.1162407 1 0 1
-0.04081818 -0.0005312545 0.1155688 1 0 1
-0.03966304 -0.000398097 0.1148919 1 0 1
-0.03822239 -1.165187E-06 0.1132898 1 0 1
-0.03650725 0.0006611082 0.1107595 1 0 1
-0.03424425 0.001852125 0.1063759 1 0 1
-0.03201719 0.003050064 0.1019796 1 0 1
-0.02677807 0.007146915 0.08740494 1 0 1
0.1824801 -0.1501339 0.6550725 1 0 1
0.1887215 -0.1495992 0.6549858 1 0 1
0.08589354 -0.008529416 0.1492177 1 0 1
0.08688872 -0.008385831 0.1490283 1 0 1
0.08810537 -0.008499577 0.1497752 1 0 1
0.08887658 -0.008092246 0.1486391 1 0 1
0.08986927 -0.007942282 0.1484393 1 0 1
0.09039393 -0.007274686 0.1463611 1 0 1
0.09137739 -0.00712163 0.1461561 1 0 1
0.09235996 -0.006966461 0.1459476 1 0 1
0.09309684 -0.006553216 0.1448006 1 0 1
0.09432243 -0.006649812 0.1455205 1 0 1
0.09530232 -0.006488346 0.1453018 1 0 1
0.09602521 -0.006070595 0.1441471 1 0 1
0.09725928 -0.00615904 0.1448543 1 0 1
0.09823631 -0.00599124 0.1446254 1 0 1
0.0986779 -0.00531692 0.1425331 1 0 1
0.09964555 -0.005146211 0.1422992 1 0 1
0.1000629 -0.004471666 0.1402055 1 0 1
0.1004643 -0.003797694 0.1381122 1 0 1
0.101132 -0.00337393 0.1369456 1 0 1
-0.08543202 0.006370584 0.1033992 1 0 1
-0.08557686 0.005693299 0.1054935 1 0 1
-0.08570649 0.005014094 0.1075916 1 0 1
-0.08535142 0.004561311 0.1088404 1 0 1
-0.08545392 0.003879348 0.1109441 1 0 1
-0.08507846 0.003425694 0.1121952 1 0 1
-0.08423525 0.003203107 0.1125889 1 0 1
-0.08339036 0.002982402 0.1129797 1 0 1
-0.08254381 0.002763592 0.1133674 1 0 1
-0.08124666 0.00278028 0.1128899 1 0 1
-0.08040024 0.002566112 0.1132703 1 0 1
-0.07955225 0.002353837 0.1136479 1 0 1
-0.07870261 0.002143415 0.1140225 1 0 1
-0.07785136 0.001934887 0.1143941 1 0 1
-0.07786191 0.001252436 0.116503 1 0 1
-0.07785698 0.0005684966 0.1186149 1 0 1
-0.07741179 0.0001227405 0.1198567 1 0 1
-0.07737935 -0.0005631055 0.121973 1 0 1
-0.07774909 -0.001491478 0.124968 1 0 1
-0.07561076 -0.0009706268 0.1227042 1 0 1
-0.07225963 0.0002853222 0.1177923 1 0 1
-0.06609836 0.003257713 0.1066987 1 0 1
-0.06567919 0.002831204 0.1079087 1 0 1
-0.06605195 0.001914647 0.1108847 1 0 1
-0.06600548 0.001241283 0.1129817 1 0 1
-0.06515717 0.001060009 0.1133098 1 0 1
-0.06469705 0.0006331959 0.114522 1 0 1
-0.06345632 0.0007030436 0.1139571 1 0 1
-0.06260382 0.0005273385 0.1142765 1 0 1
-0.06137103 0.0006031292 0.1137018 1 0 1
-0.06051935 0.0004318631 0.114014 1 0 1
-0.05929454 0.0005134796 0.1134295 1 0 1
-0.05807555 0.0005983799 0.1128396 1 0 1
-0.05686239 0.0006864932 0.1122443 1 0 1
-0.05601617 0.0005247171 0.112541 1 0 1
-0.05481121 0.0006185709 0.1119361 1 0 1
-0.05396604 0.000461167 0.1122259 1 0 1
-0.05311963 0.0003055896 0.1125127 1 0 1
-0.05227198 0.0001518535 0.1127967 1 0 1
-0.05142311 -5.987683E-08 0.1130778 1 0 1
-0.05057301 -0.0001501525 0.113356 1 0 1
-0.05005756 -0.0005560681 0.1145373 1 0 1
-0.04920146 -0.0007030692 0.1148109 1 0 1
-0.04834417 -0.0008482495 0.1150816 1 0 1
-0.04748571 -0.0009915698 0.1153493 1 0 1
-0.0466261 -0.00113303 0.1156141 1 0 1
-0.04576534 -0.001272636 0.115876 1 0 1
-0.04490346 -0.001410401 0.116135 1 0 1
-0.04404045 -0.001546293 0.116391 1 0 1
-0.04317634 -0.001680344 0.1166441 1 0 1
-0.04200814 -0.001549524 0.1159783 1 0 1
-0.04054686 -0.001152182 0.1143904 1 0 1
-0.03909924 -0.0007508065 0.1127955 1 0 1
-0.03766527 -0.0003454707 0.1111935 1 0 1
-0.03566847 0.0005941889 0.1077444 1 0 1
-0.03227718 0.002868192 0.09967901 1 0 1
-0.03007502 0.004088435 0.09528137 1 0 1
0.1663852 -0.1534059 0.6509169 1 0 1
0.169396 -0.1530446 0.6504629 1 0 1
0.172405 -0.1526768 0.6499985 1 0 1
0.08813987 -0.009495029 0.1494901 1 0 1
0.08891141 -0.009083615 0.1483553 1 0 1
0.08990455 -0.008933314 0.1481558 1 0 1
0.09066311 -0.008519381 0.1470163 1 0 1
0.09165078 -0.008365382 0.1468107 1 0 1
0.09239631 -0.007948932 0.1456668 1 0 1
0.09313348 -0.007531578 0.1445211 1 0 1
0.09411098 -0.007372445 0.1443069 1 0 1
0.09483508 -0.00695271 0.1431568 1 0 1
0.09555081 -0.006532122 0.1420051 1 0 1
0.09651804 -0.00636796 0.1417824 1 0 1
0.09748431 -0.006201708 0.1415564 1 0 1
0.09818226 -0.005777403 0.140398 1 0 1
0.09887179 -0.005352378 0.1392382 1 0 1
0.09955288 -0.004926567 0.1380768 1 0 1
0.1002256 -0.004500065 0.1369139 1 0 1
0.1008898 -0.004072852 0.1357495 1 0 1
-0.08548108 0.005484939 0.1031338 1 0 1
-0.08514951 0.005029934 0.1043772 1 0 1
-0.08528257 0.004343834 0.1064712 1 0 1
-0.0854003 0.003655883 0.108569 1 0 1
-0.0855028 0.002966098 0.1106704 1 0 1
-0.0851271 0.002508325 0.1119202 1 0 1
-0.08474293 0.002050625 0.1131704 1 0 1
-0.08389421 0.00182863 0.1135625 1 0 1
-0.08304381 0.001608522 0.1139518 1 0 1
-0.08174261 0.001627689 0.1134768 1 0 1
-0.08044665 0.001650464 0.1129957 1 0 1
-0.07959823 0.001437782 0.1133731 1 0 1
-0.07874817 0.001226985 0.1137476 1 0 1
-0.0778965 0.001018071 0.1141191 1 0 1
-0.07790698 0.0003277628 0.1162256 1 0 1
-0.07790198 -0.0003639938 0.1183352 1 0 1
-0.0778815 -0.001057132 0.1204477 1 0 1
-0.07742406 -0.001507507 0.1216896 1 0 1
-0.07737596 -0.002202519 0.1238063 1 0 1
-0.07399689 -0.0009328464 0.1189155 1 0 1
-0.06819277 0.001827541 0.1087383 1 0 1
-0.06613812 0.002382834 0.1064362 1 0 1
-0.06693038 0.001207947 0.1102865 1 0 1
-0.06689229 0.0005264264 0.1123813 1 0 1
-0.06604499 0.0003429596 0.1127121 1 0 1
-0.06519628 0.0001613713 0.1130401 1 0 1
-0.06434613 -1.837767E-05 0.1133652 1 0 1
-0.06349461 -0.0001962574 0.1136873 1 0 1
-0.06225905 -0.0001196335 0.1131178 1 0 1
-0.06102922 -3.972779E-05 0.1125429 1 0 1
-0.05980517 4.35231E-05 0.1119623 1 0 1
-0.05895889 -0.0001248017 0.112269 1 0 1
-0.0577429 -3.573238E-05 0.1116788 1 0 1
-0.05689757 -0.0001996496 0.1119784 1 0 1
-0.05605094 -0.0003616865 0.112275 1 0 1
-0.0548454 -0.0002643756 0.1116712 1 0 1
-0.05399983 -0.0004220885 0.1119609 1 0 1
-0.05315301 -0.000577921 0.1122477 1 0 1
-0.05230494 -0.0007319662 0.1125316 1 0 1
-0.05179885 -0.001144303 0.1137151 1 0 1
-0.05094475 -0.001295288 0.1139944 1 0 1
-0.05008942 -0.00144444 0.1142708 1 0 1
-0.04923291 -0.001591729 0.1145444 1 0 1
-0.0483752 -0.001737141 0.114815 1 0 1
-0.04751633 -0.001880697 0.1150826 1 0 1
-0.04665629 -0.002022437 0.1153474 1 0 1
-0.04579512 -0.002162289 0.1156092 1 0 1
-0.04493281 -0.002300309 0.1158681 1 0 1
-0.04406938 -0.00243645 0.1161241 1 0 1
-0.04289807 -0.002304533 0.1154634 1 0 1
-0.04203611 -0.002436376 0.1157124 1 0 1
-0.04027473 -0.001764404 0.1132108 1 0 1
-0.03883015 -0.001355147 0.1116171 1 0 1
-0.03681506 -0.0004050994 0.1081804 1 0 1
-0.03396325 0.001357865 0.1019759 1 0 1
-0.02916919 0.00501614 0.08931482 1 0 1
0.08839697 -0.01075613 0.1501387 1 0 1
0.08917259 -0.01034006 0.1490044 1 0 1
0.08993986 -0.009922991 0.1478682 1 0 1
0.09093258 -0.009770206 0.1476655 1 0 1
0.09168683 -0.009350606 0.1465247 1 0 1
0.09219132 -0.008665999 0.1444483 1 0 1
0.09317014 -0.008508621 0.1442377 1 0 1
0.09365036 -0.007823392 0.1421593 1 0 1
0.0946199 -0.007663042 0.1419436 1 0 1
0.09533214 -0.007238972 0.140794 1 0 1
0.09629607 -0.007075067 0.1405724 1 0 1
0.09699526 -0.006648784 0.1394188 1 0 1
0.09795357 -0.006481339 0.1391914 1 0 1
0.09863964 -0.006052857 0.1380337 1 0 1
0.09931729 -0.005623576 0.1368745 1 0 1
0.1002652 -0.005451332 0.136639 1 0 1
0.1009298 -0.00501998 0.135476 1 0 1
-0.08552936 0.00460049 0.102865 1 0 1
-0.08519758 0.004141365 0.1041071 1 0 1
-0.08485738 0.003682222 0.1053497 1 0 1
-0.08497855 0.002987406 0.1074434 1 0 1
-0.08508442 0.002290692 0.1095407 1 0 1
-0.08471192 0.001829713 0.1107877 1 0 1
-0.08433093 0.001368811 0.112035 1 0 1
-0.08394141 0.0009079871 0.1132826 1 0 1
-0.08309062 0.0006874715 0.1136717 1 0 1
