ply
format ascii 1.0
Comment Generated by Floating Hands
element vertex 1256
property double x
property double y
property double z
property uchar red
property uchar green
property uchar blue
end_header
0.08249605 -0.07866628 0.2582565 1 0 1
0.0839823 -0.07848113 0.2580412 1 0 1
0.08510107 -0.07757606 0.25599 1 0 1
0.08639045 -0.07702769 0.254851 1 0 1
0.08786203 -0.07683453 0.2546225 1 0 1
0.08952726 -0.07699502 0.2553025 1 0 1
0.09119902 -0.07715134 0.2559765 1 0 1
0.09267484 -0.0769477 0.2557318 1 0 1
0.09435575 -0.07709613 0.2563938 1 0 1
0.09541305 -0.07617623 0.2543163 1 0 1
0.09688154 -0.07596368 0.2540573 1 0 1
0.09834877 -0.07574797 0.2537933 1 0 1
0.1000362 -0.07588219 0.2544335 1 0 1
0.10173 -0.07601211 0.2550672 1 0 1
0.1032011 -0.07578583 0.2547869 1 0 1
0.1051366 -0.07625896 0.2563154 1 0 1
0.1068492 -0.07637587 0.2569298 1 0 1
0.1083276 -0.07613834 0.2566322 1 0 1
0.110293 -0.07659654 0.2581389 1 0 1
0.1115282 -0.07600262 0.256926 1 0 1
0.1130062 -0.07575499 0.2566127 1 0 1
0.1144826 -0.07550421 0.2562944 1 0 1
0.1156983 -0.07490331 0.2550697 1 0 1
0.1169049 -0.0743006 0.2538418 1 0 1
0.11917 -0.07507832 0.256209 1 0 1
0.1206441 -0.07481418 0.2558698 1 0 1
0.1223912 -0.07489114 0.2564236 1 0 1
0.1249785 -0.0759941 0.2596615 1 0 1
0.1275942 -0.07708825 0.2628872 1 0 1
0.1288101 -0.07646304 0.2616246 1 0 1
0.1308849 -0.07686023 0.2630415 1 0 1
0.133266 -0.07759196 0.2653428 1 0 1
0.1344805 -0.07695626 0.2640639 1 0 1
0.1353851 -0.07597962 0.2618904 1 0 1
0.1380988 -0.07703348 0.265058 1 0 1
0.1414565 -0.07875359 0.2699916 1 0 1
0.1423632 -0.07776563 0.2678006 1 0 1
0.1473537 -0.0811478 0.2771446 1 0 1
0.2898156 -0.2027416 0.6048332 1 0 1
0.2927408 -0.2020697 0.6039303 1 0 1
0.2935483 -0.199423 0.5977579 1 0 1
0.2943079 -0.1967805 0.5915896 1 0 1
0.2975366 -0.1964261 0.5915447 1 0 1
0.3022212 -0.1973657 0.5949796 1 0 1
-0.00320829 -0.2377441 0.6370794 1 0 1
0.002957572 -0.1752222 0.4834025 1 0 1
0.007257796 -0.1273911 0.3658123 1 0 1
0.01145953 -0.1103874 0.3241946 1 0 1
0.01499347 -0.1065427 0.314974 1 0 1
0.07361551 -0.08112322 0.2588741 1 0 1
0.07573391 -0.08241765 0.2623598 1 0 1
0.0770806 -0.08188152 0.2612506 1 0 1
0.07858285 -0.08170738 0.261054 1 0 1
0.07974804 -0.08080231 0.2590201 1 0 1
0.08124067 -0.08062269 0.2588145 1 0 1
0.08255656 -0.08007693 0.2576887 1 0 1
0.08404329 -0.07989142 0.2574736 1 0 1
0.08516219 -0.07897875 0.2554255 1 0 1
0.08663916 -0.07878789 0.2552015 1 0 1
0.08811501 -0.07859382 0.2549725 1 0 1
0.08958978 -0.07839666 0.2547386 1 0 1
0.09106346 -0.07819632 0.2544996 1 0 1
0.09253599 -0.07799279 0.2542558 1 0 1
0.09400731 -0.07778616 0.2540069 1 0 1
0.0952673 -0.07721802 0.2528435 1 0 1
0.09673247 -0.07700564 0.2525854 1 0 1
0.09819635 -0.07679013 0.2523223 1 0 1
0.09965901 -0.07657146 0.2520543 1 0 1
0.1013459 -0.07670574 0.2526882 1 0 1
0.103039 -0.07683571 0.2533157 1 0 1
0.1047385 -0.07696139 0.2539368 1 0 1
0.1064441 -0.07708272 0.2545515 1 0 1
0.108156 -0.07719967 0.2551596 1 0 1
0.1101185 -0.07766528 0.2566643 1 0 1
0.1115984 -0.07742035 0.2563563 1 0 1
0.1130768 -0.07717226 0.2560432 1 0 1
0.1142979 -0.07656983 0.2548244 1 0 1
0.1157697 -0.07631601 0.2545022 1 0 1
0.1169765 -0.07570919 0.2532759 1 0 1
0.1189756 -0.07614816 0.254741 1 0 1
0.1204465 -0.07588419 0.2544028 1 0 1
0.122465 -0.07631275 0.2558527 1 0 1
0.1244969 -0.07673538 0.2572939 1 0 1
0.1271063 -0.07784491 0.2605159 1 0 1
0.1286008 -0.0775627 0.2601506 1 0 1
0.1303832 -0.07762227 0.260673 1 0 1
0.1327579 -0.07836576 0.2629722 1 0 1
0.1339651 -0.07772739 0.2616969 1 0 1
0.1354639 -0.07743005 0.2613084 1 0 1
0.1378744 -0.07815574 0.2635817 1 0 1
0.1415382 -0.08023895 0.2693958 1 0 1
0.1430688 -0.07992432 0.2689819 1 0 1
0.1471225 -0.08232465 0.2756505 1 0 1
0.1518723 -0.08538723 0.2840672 1 0 1
0.1570172 -0.08876888 0.2933418 1 0 1
0.293258 -0.205266 0.6036596 1 0 1
0.2961836 -0.2045856 0.6027461 1 0 1
0.2966122 -0.2015834 0.5957049 1 0 1
0.2995042 -0.2008964 0.5947796 1 0 1
0.304209 -0.2018481 0.5982022 1 0 1
-0.005308684 -0.2273762 0.6034399 1 0 1
0.002113373 -0.1513228 0.4185961 1 0 1
0.009943467 -0.1044882 0.3049853 1 0 1
0.01166471 -0.1029337 0.3013156 1 0 1
0.01335192 -0.101756 0.2985647 1 0 1
0.01501685 -0.1009549 0.2967332 1 0 1
0.01667117 -0.1005302 0.2958211 1 0 1
0.01831758 -0.1001022 0.2949035 1 0 1
0.07352018 -0.08216403 0.2573831 1 0 1
0.0757924 -0.08384213 0.2617797 1 0 1
0.07697894 -0.08293356 0.2597564 1 0 1
0.07847781 -0.08275958 0.2595605 1 0 1
0.07980751 -0.08221485 0.2584449 1 0 1
0.08130062 -0.08203491 0.2582394 1 0 1
0.08244093 -0.0811186 0.2562017 1 0 1
0.08410402 -0.08129934 0.2569003 1 0 1
0.0854066 -0.08074471 0.2557679 1 0 1
0.08670049 -0.08018785 0.2546316 1 0 1
0.08798562 -0.07962883 0.2534915 1 0 1
0.0896521 -0.07979586 0.254169 1 0 1
0.0911262 -0.07959521 0.2539304 1 0 1
0.09239651 -0.07902828 0.2527772 1 0 1
0.09386446 -0.07882179 0.2525292 1 0 1
0.0951209 -0.0782502 0.251368 1 0 1
0.09658273 -0.07803795 0.2511108 1 0 1
0.09782527 -0.07746178 0.2499419 1 0 1
0.09950257 -0.07760413 0.2505816 1 0 1
0.1014118 -0.07810193 0.2521203 1 0 1
0.1031056 -0.07823515 0.2527466 1 0 1
0.1048057 -0.07836397 0.2533664 1 0 1
0.106749 -0.07884641 0.254883 1 0 1
0.1082246 -0.07860863 0.2545868 1 0 1
0.1099433 -0.07872435 0.2551872 1 0 1
0.1116682 -0.07883566 0.255781 1 0 1
0.1131471 -0.07858709 0.2554681 1 0 1
0.1143685 -0.07798059 0.254251 1 0 1
0.115581 -0.07737222 0.2530307 1 0 1
0.1167844 -0.07676196 0.2518069 1 0 1
0.1185132 -0.07685553 0.2523734 1 0 1
0.120248 -0.07694455 0.2529332 1 0 1
0.1222636 -0.07738052 0.2543812 1 0 1
0.1245711 -0.07816131 0.2567148 1 0 1
0.1268995 -0.07893474 0.259038 1 0 1
0.1283907 -0.07865269 0.2586739 1 0 1
0.1298802 -0.07836742 0.2583047 1 0 1
0.1322484 -0.07912265 0.2606016 1 0 1
0.1337457 -0.07882874 0.2602195 1 0 1
0.1352413 -0.07853164 0.2598322 1 0 1
0.1373444 -0.07892261 0.2612149 1 0 1
0.1406942 -0.08068706 0.2661346 1 0 1
0.1425262 -0.08071828 0.2666095 1 0 1
0.1456271 -0.08211821 0.2706153 1 0 1
0.1503609 -0.08522 0.2790229 1 0 1
0.1538737 -0.08693546 0.2838748 1 0 1
0.2967799 -0.2044185 0.5945568 1 0 1
0.2996728 -0.2037301 0.5936321 1 0 1
0.3025613 -0.2030354 0.5926974 1 0 1
-0.009247364 -0.243606 0.6344978 1 0 1
-0.0002978078 -0.1576064 0.4278415 1 0 1
0.008391135 -0.1034204 0.2978311 1 0 1
0.01007969 -0.1026222 0.2960197 1 0 1
0.01175931 -0.1014372 0.2932788 1 0 1
0.01341014 -0.1010159 0.2923793 1 0 1
0.01505316 -0.1005914 0.2914742 1 0 1
0.01669852 -0.1009298 0.2924108 1 0 1
0.01832469 -0.1001154 0.2905709 1 0 1
0.01993521 -0.09929795 0.2887256 1 0 1
0.0215636 -0.09924304 0.2887221 1 0 1
0.02321261 -0.09956738 0.2896369 1 0 1
0.02489396 -0.1002704 0.2914698 1 0 1
0.02656221 -0.1005869 0.2923734 1 0 1
0.02836777 -0.1024284 0.2969656 1 0 1
0.07327141 -0.08282227 0.2549743 1 0 1
0.07553711 -0.08451905 0.2593645 1 0 1
0.07687674 -0.08397593 0.2582596 1 0 1
0.07837225 -0.08380207 0.2580644 1 0 1
0.0795301 -0.08288267 0.2560377 1 0 1
0.08101595 -0.08270334 0.2558335 1 0 1
0.08232474 -0.08215061 0.2547121 1 0 1
0.08398463 -0.08233514 0.25541 1 0 1
0.08528367 -0.081777 0.2542798 1 0 1
0.0869491 -0.08195418 0.2549666 1 0 1
0.08823837 -0.0813907 0.2538276 1 0 1
0.08971407 -0.08119279 0.253594 1 0 1
0.09098961 -0.08062455 0.2524469 1 0 1
0.09225636 -0.08005409 0.2512961 1 0 1
0.09330761 -0.07911551 0.2492344 1 0 1
0.09476338 -0.07890714 0.2489836 1 0 1
0.09643234 -0.07906066 0.2496338 1 0 1
0.09767137 -0.07848103 0.2484673 1 0 1
0.09934551 -0.07862718 0.2491064 1 0 1
0.1012517 -0.0791324 0.2506431 1 0 1
0.1029423 -0.07926935 0.2512688 1 0 1
0.1044058 -0.07903991 0.2509857 1 0 1
0.105868 -0.07880723 0.2506976 1 0 1
0.1075698 -0.0789324 0.2513056 1 0 1
0.1095226 -0.07941348 0.2528072 1 0 1
0.110992 -0.07916956 0.2525019 1 0 1
0.1127122 -0.07928148 0.2530903 1 0 1
0.1141826 -0.07903059 0.2527744 1 0 1
0.1151316 -0.07806099 0.2506596 1 0 1
0.1165914 -0.07780511 0.2503354 1 0 1
0.1183171 -0.07790244 0.2509015 1 0 1
0.1200488 -0.07799529 0.2514609 1 0 1
0.1217864 -0.0780836 0.2520136 1 0 1
0.1238087 -0.07852174 0.2534522 1 0 1
0.1261269 -0.07930757 0.255774 1 0 1
0.1281797 -0.07973301 0.2571944 1 0 1
0.1296659 -0.07944795 0.2568265 1 0 1
0.1320315 -0.08021413 0.2591202 1 0 1
0.1341204 -0.08062196 0.2605152 1 0 1
0.1353189 -0.07997353 0.2592403 1 0 1
0.1368131 -0.07967262 0.2588482 1 0 1
0.1401571 -0.08145954 0.2637614 1 0 1
0.14167 -0.08114756 0.2633531 1 0 1
0.1441291 -0.08187323 0.2655888 1 0 1
0.1482073 -0.08432188 0.2722233 1 0 1
0.1513725 -0.08571839 0.276193 1 0 1
0.1535913 -0.0860697 0.2775071 1 0 1
0.1578078 -0.08847719 0.2840846 1 0 1
-0.005340978 -0.1968982 0.5153536 1 0 1
0.006763565 -0.1050055 0.2971399 1 0 1
0.008503201 -0.1030416 0.2925717 1 0 1
0.01016212 -0.1026236 0.2916849 1 0 1
0.01181987 -0.1018152 0.2898704 1 0 1
0.01345934 -0.1013905 0.2889723 1 0 1
0.01509106 -0.1009626 0.2880685 1 0 1
0.01672018 -0.1009182 0.2880814 1 0 1
0.01833104 -0.1000968 0.2862445 1 0 1
0.01992624 -0.09927249 0.2844023 1 0 1
0.02152261 -0.09883165 0.2834767 1 0 1
0.02315275 -0.09916022 0.2843902 1 0 1
0.02474109 -0.09871273 0.2834539 1 0 1
0.02635009 -0.09864812 0.2834345 1 0 1
0.02799149 -0.09896585 0.2843316 1 0 1
0.02964045 -0.09927981 0.2852232 1 0 1
0.03121633 -0.09881894 0.2842656 1 0 1
0.07286876 -0.08308696 0.2516524 1 0 1
0.07512411 -0.08480292 0.2560367 1 0 1
0.07661327 -0.08463284 0.2558476 1 0 1
0.07793688 -0.08408433 0.2547413 1 0 1
0.07891487 -0.08278397 0.2518077 1 0 1
0.08073042 -0.08335484 0.2534281 1 0 1
0.08203184 -0.08279908 0.2523095 1 0 1
0.0836846 -0.08298786 0.2530072 1 0 1
0.08497629 -0.08242675 0.2518798 1 0 1
0.08663468 -0.08260822 0.2525664 1 0 1
0.08791656 -0.08204176 0.2514303 1 0 1
0.08938503 -0.08184454 0.2511981 1 0 1
0.09045398 -0.08090248 0.2491469 1 0 1
0.09170956 -0.08032967 0.2479997 1 0 1
0.09295627 -0.07975484 0.2468488 1 0 1
0.09461555 -0.07991641 0.2475047 1 0 1
0.0960668 -0.07970509 0.2472499 1 0 1
0.09773511 -0.07985873 0.247894 1 0 1
0.09940983 -0.08000811 0.2485318 1 0 1
0.1013169 -0.08052012 0.2500657 1 0 1
0.1030081 -0.08066032 0.2506901 1 0 1
0.104472 -0.08043042 0.2504072 1 0 1
0.1059347 -0.08019739 0.2501195 1 0 1
0.1073959 -0.07996117 0.2498267 1 0 1
0.1088558 -0.07972183 0.249529 1 0 1
0.1103143 -0.07947931 0.2492264 1 0 1
0.1120238 -0.07959633 0.2498159 1 0 1
0.1134832 -0.07934687 0.2495027 1 0 1
0.1146811 -0.07873295 0.248289 1 0 1
0.1158699 -0.07811724 0.2470722 1 0 1
0.117585 -0.07821967 0.2476395 1 0 1
0.1195774 -0.07867703 0.2490932 1 0 1
0.1213081 -0.07876983 0.2496465 1 0 1
0.1233237 -0.07921605 0.2510841 1 0 1
0.1256354 -0.08001354 0.2534034 1 0 1
0.1276815 -0.0804471 0.2548231 1 0 1
0.1288705 -0.07980712 0.2535688 1 0 1
0.1315198 -0.08094081 0.2567486 1 0 1
0.1333043 -0.08100244 0.2572564 1 0 1
0.134492 -0.08035209 0.2559861 1 0 1
0.1359754 -0.08005288 0.2555973 1 0 1
0.1393099 -0.08186303 0.2605048 1 0 1
0.1411246 -0.08190411 0.2609825 1 0 1
0.1435773 -0.08264151 0.2632161 1 0 1
0.1473302 -0.08476999 0.2689604 1 0 1
0.1514567 -0.0872331 0.2755646 1 0 1
0.1530216 -0.08689462 0.2751192 1 0 1
0.1565707 -0.08863699 0.2799327 1 0 1
0.165183 -0.09556442 0.2978721 1 0 1
-0.001845679 -0.1543377 0.4085496 1 0 1
0.005002837 -0.1089305 0.3019578 1 0 1
0.006876142 -0.1049965 0.2928029 1 0 1
0.008585989 -0.1034056 0.2891622 1 0 1
0.01024394 -0.1025934 0.2873563 1 0 1
0.01187993 -0.1021686 0.2864651 1 0 1
0.01350808 -0.1017406 0.2855683 1 0 1
0.01512991 -0.1016999 0.2855866 1 0 1
0.01675171 -0.1016556 0.2855995 1 0 1
0.01835505 -0.1008272 0.2837658 1 0 1
0.01995583 -0.100386 0.2828472 1 0 1
0.02154869 -0.09994156 0.2819233 1 0 1
0.02315461 -0.09988393 0.2819146 1 0 1
0.02476035 -0.09982282 0.2819006 1 0 1
0.02639473 -0.1001479 0.2828017 1 0 1
0.02803669 -0.1004692 0.2836974 1 0 1
0.02968631 -0.1007866 0.2845875 1 0 1
0.03134349 -0.1011003 0.2854721 1 0 1
0.03300822 -0.1014101 0.2863511 1 0 1
0.03472876 -0.1021048 0.2881445 1 0 1
0.03651674 -0.1031836 0.290852 1 0 1
0.07292471 -0.08446806 0.2510706 1 0 1
0.07486708 -0.0854423 0.253624 1 0 1
0.07634894 -0.08527285 0.2534361 1 0 1
0.07766514 -0.0847213 0.2523325 1 0 1
0.07880407 -0.08378912 0.2503149 1 0 1
0.08061653 -0.08436733 0.2519329 1 0 1
0.08191438 -0.08380812 0.2508166 1 0 1
0.08356392 -0.08400065 0.2515134 1 0 1
0.08503608 -0.08381259 0.2512963 1 0 1
0.08669503 -0.08399732 0.2519816 1 0 1
0.08778552 -0.08305142 0.2499404 1 0 1
0.08925062 -0.08285435 0.249709 1 0 1
0.09031585 -0.08190523 0.2476616 1 0 1
0.09156787 -0.08132899 0.2465167 1 0 1
0.09301804 -0.08112411 0.2462726 1 0 1
0.09467794 -0.08128891 0.2469271 1 0 1
0.09612963 -0.08107718 0.2466725 1 0 1
0.09779852 -0.08123404 0.2473153 1 0 1
0.09947386 -0.08138666 0.2479518 1 0 1
0.1013817 -0.0819055 0.2494829 1 0 1
0.1030735 -0.08204886 0.250106 1 0 1
0.1043042 -0.0814492 0.248924 1 0 1
0.1055259 -0.08084758 0.2477385 1 0 1
0.10698 -0.08061212 0.2474474 1 0 1
0.1081876 -0.08000611 0.2462544 1 0 1
0.1096352 -0.07976502 0.2459544 1 0 1
0.111334 -0.07988714 0.2465451 1 0 1
0.1130389 -0.08000477 0.2471292 1 0 1
0.1144897 -0.07975302 0.2468129 1 0 1
0.115675 -0.07913385 0.2455986 1 0 1
0.1173869 -0.07924015 0.2461656 1 0 1
0.1193763 -0.07970484 0.2476174 1 0 1
0.1211039 -0.07980149 0.2481703 1 0 1
0.1231166 -0.08025507 0.249606 1 0 1
0.1254255 -0.08106355 0.251922 1 0 1
0.1271821 -0.08114433 0.252452 1 0 1
0.1286542 -0.08086108 0.2520883 1 0 1
0.131595 -0.08236804 0.2561493 1 0 1
0.1333802 -0.08243265 0.2566558 1 0 1
0.1348696 -0.08213535 0.2562714 1 0 1
0.1366624 -0.08219131 0.2567649 1 0 1
0.139388 -0.08330954 0.2598977 1 0 1
0.141516 -0.08370852 0.2612551 1 0 1
0.1433406 -0.08374701 0.2617235 1 0 1
0.1467715 -0.0855474 0.2665797 1 0 1
0.1495972 -0.08662988 0.2696624 1 0 1
0.1514679 -0.08664733 0.2701006 1 0 1
0.1536753 -0.08701074 0.2714073 1 0 1
0.1589097 -0.09051866 0.2805776 1 0 1
-0.01162278 -0.2463604 0.6169565 1 0 1
0.005130857 -0.1089258 0.2976119 1 0 1
0.006933914 -0.1061395 0.2912281 1 0 1
0.008625812 -0.1049287 0.2885124 1 0 1
0.01028411 -0.1041091 0.2867095 1 0 1
0.01192049 -0.1036808 0.2858199 1 0 1
0.01354665 -0.1036434 0.2858437 1 0 1
0.01517139 -0.1032083 0.284943 1 0 1
0.01678828 -0.1027699 0.2840369 1 0 1
0.0183973 -0.1023283 0.2831254 1 0 1
0.01999846 -0.1018834 0.2822084 1 0 1
0.02159175 -0.1014353 0.2812861 1 0 1
0.02319814 -0.1013776 0.2812774 1 0 1
0.02480443 -0.1013164 0.2812635 1 0 1
0.02641051 -0.1012518 0.2812442 1 0 1
0.02801646 -0.1011837 0.2812195 1 0 1
0.02965881 -0.101505 0.2821082 1 0 1
0.03126822 -0.1014298 0.2820728 1 0 1
0.03292188 -0.1017437 0.2829506 1 0 1
0.03453469 -0.1016614 0.2829042 1 0 1
0.03625172 -0.1023599 0.2846893 1 0 1
0.03792788 -0.1026621 0.2855502 1 0 1
0.07105943 -0.08485612 0.2479266 1 0 1
0.07313372 -0.08623055 0.2513939 1 0 1
0.07508088 -0.08721494 0.2539424 1 0 1
0.07640602 -0.08666177 0.2528445 1 0 1
0.07772248 -0.0861063 0.2517427 1 0 1
0.07903032 -0.08554859 0.2506369 1 0 1
0.08067472 -0.08575173 0.2513434 1 0 1
0.08197286 -0.08518856 0.2502288 1 0 1
0.08326232 -0.08462322 0.2491103 1 0 1
0.08491141 -0.08481587 0.2498009 1 0 1
0.0861911 -0.08424518 0.2486738 1 0 1
0.08746202 -0.08367233 0.2475428 1 0 1
0.08872417 -0.08309734 0.2464082 1 0 1
0.09037665 -0.08327639 0.247078 1 0 1
0.09162891 -0.0826962 0.2459349 1 0 1
0.09307951 -0.08249092 0.2456909 1 0 1
0.094529 -0.08228252 0.245442 1 0 1
0.09619211 -0.08244685 0.2460897 1 0 1
0.09786163 -0.08260693 0.2467312 1 0 1
0.09953754 -0.08276276 0.2473664 1 0 1
0.1012198 -0.08291425 0.2479953 1 0 1
0.1029085 -0.08306142 0.2486179 1 0 1
0.1041356 -0.0824583 0.2474383 1 0 1
0.1053538 -0.08185327 0.2462553 1 0 1
0.1068045 -0.08161803 0.2459653 1 0 1
0.1077633 -0.08063744 0.2438791 1 0 1
0.1092037 -0.0803972 0.2435809 1 0 1
0.1108956 -0.08052372 0.2441719 1 0 1
0.1120802 -0.07990741 0.24297 1 0 1
0.1137768 -0.08002638 0.2435496 1 0 1
0.1152152 -0.07977304 0.2432312 1 0 1
0.1169201 -0.0798838 0.2437986 1 0 1
0.118631 -0.07999007 0.2443594 1 0 1
0.1206235 -0.08045761 0.2458026 1 0 1
0.1229087 -0.08128443 0.2481255 1 0 1
0.1252147 -0.08210389 0.2504382 1 0 1
0.1275418 -0.08291586 0.2527403 1 0 1
0.1293086 -0.08299434 0.2532614 1 0 1
0.1316697 -0.08379269 0.2555443 1 0 1
0.1331575 -0.08349885 0.2551662 1 0 1
0.1343418 -0.08284104 0.2539005 1 0 1
0.1358225 -0.08254146 0.2535133 1 0 1
0.1379196 -0.0829572 0.2548821 1 0 1
0.139717 -0.08300813 0.2553624 1 0 1
0.1418366 -0.08341196 0.2567141 1 0 1
0.1452504 -0.08523711 0.2615667 1 0 1
0.1477348 -0.08598112 0.2637723 1 0 1
0.149584 -0.08600634 0.2642158 1 0 1
0.1530957 -0.08779916 0.2690236 1 0 1
0.1563146 -0.08922516 0.27294 1 0 1
-0.01094846 -0.2420083 0.5992416 1 0 1
0.005236395 -0.1092876 0.2941894 1 0 1
0.00699167 -0.1072726 0.2896504 1 0 1
0.008665797 -0.1064491 0.2878565 1 0 1
0.01031423 -0.1060204 0.2869742 1 0 1
0.01196113 -0.1051903 0.2851689 1 0 1
0.01358783 -0.1051529 0.2851926 1 0 1
0.01521452 -0.1051119 0.2852111 1 0 1
0.01683569 -0.1046698 0.2843066 1 0 1
0.01844904 -0.1042244 0.2833966 1 0 1
0.02005453 -0.1037756 0.2824812 1 0 1
0.02163487 -0.1029264 0.280643 1 0 1
0.02324174 -0.1028686 0.2806344 1 0 1
0.02484849 -0.1028073 0.2806205 1 0 1
0.0264261 -0.1023457 0.2796838 1 0 1
0.02802861 -0.1022777 0.2796592 1 0 1
0.02966769 -0.1026028 0.2805466 1 0 1
0.031233 -0.1021313 0.2795941 1 0 1
0.03283486 -0.1020529 0.2795535 1 0 1
0.03448491 -0.1023671 0.2804246 1 0 1
0.03619485 -0.1030731 0.2822069 1 0 1
0.0377512 -0.1025881 0.2812332 1 0 1
0.03941982 -0.1028908 0.2820875 1 0 1
0.04096766 -0.1023993 0.2811033 1 0 1
0.06066877 -0.06593474 0.1994232 1 0 1
0.07156292 -0.08738533 0.250067 1 0 1
0.07334283 -0.08799782 0.2517087 1 0 1
0.07498002 -0.08821836 0.2524352 1 0 1
0.07630157 -0.08766174 0.2513395 1 0 1
0.07777953 -0.08748891 0.2511474 1 0 1
0.07908767 -0.08692724 0.2500434 1 0 1
0.08073265 -0.08713367 0.2507484 1 0 1
0.08220775 -0.08695129 0.2505415 1 0 1
0.08350134 -0.08638149 0.2494242 1 0 1
0.08478618 -0.08580954 0.2483032 1 0 1
0.08606229 -0.08523538 0.2471783 1 0 1
0.08732965 -0.08465908 0.2460498 1 0 1
0.0887841 -0.08446285 0.2458206 1 0 1
0.09023745 -0.08426347 0.2455865 1 0 1
0.09168966 -0.08406097 0.2453477 1 0 1
0.09314074 -0.08385534 0.2451039 1 0 1
0.09480176 -0.08402657 0.2457557 1 0 1
0.09646931 -0.08419356 0.2464014 1 0 1
0.09792442 -0.08397742 0.2461417 1 0 1
0.09960092 -0.08413642 0.2467756 1 0 1
0.1010574 -0.08391331 0.2465053 1 0 1
0.1025125 -0.0836871 0.2462302 1 0 1
0.1037322 -0.08308124 0.2450539 1 0 1
0.1049431 -0.08247337 0.2438741 1 0 1
0.1063867 -0.08223896 0.2435859 1 0 1
0.1075834 -0.08162671 0.2423987 1 0 1
0.1090204 -0.08138668 0.2421015 1 0 1
0.110456 -0.08114354 0.2417995 1 0 1
0.112147 -0.08127007 0.2423843 1 0 1
0.1138441 -0.08139216 0.2429626 1 0 1
0.1155474 -0.08150981 0.2435345 1 0 1
0.1172566 -0.08162297 0.2440997 1 0 1
0.1192438 -0.08210176 0.2455468 1 0 1
0.1209689 -0.08220524 0.246098 1 0 1
0.1229793 -0.08267287 0.2475292 1 0 1
0.1250032 -0.08313455 0.2489518 1 0 1
0.1273275 -0.08395748 0.2512506 1 0 1
0.1290911 -0.08403974 0.2517712 1 0 1
0.1317439 -0.08521482 0.2549337 1 0 1
0.1332321 -0.08492046 0.2545559 1 0 1
0.1347186 -0.08462282 0.254173 1 0 1
0.1358977 -0.08395837 0.2529051 1 0 1
0.1376863 -0.08401784 0.2533922 1 0 1
0.1391675 -0.08371052 0.2529942 1 0 1
0.1412804 -0.0841225 0.2543452 1 0 1
0.144368 -0.08560955 0.258315 1 0 1
0.1474907 -0.08708539 0.2622694 1 0 1
0.1490088 -0.08675549 0.2618388 1 0 1
0.1525148 -0.08857068 0.2666399 1 0 1
0.1563984 -0.09072997 0.2722948 1 0 1
-0.01108135 -0.2471695 0.6035327 1 0 1
0.005232547 -0.1116345 0.2953474 1 0 1
0.007013569 -0.1091993 0.289901 1 0 1
0.008705844 -0.1079667 0.2871948 1 0 1
0.01035469 -0.1075344 0.286314 1 0 1
0.01199578 -0.1070987 0.2854276 1 0 1
0.01362907 -0.1066596 0.2845357 1 0 1
0.01525455 -0.1062172 0.2836382 1 0 1
0.01686662 -0.1053701 0.2818193 1 0 1
0.01848206 -0.1053225 0.2818269 1 0 1
0.02007054 -0.1044692 0.2799973 1 0 1
0.02166068 -0.1040138 0.2790782 1 0 1
0.02324291 -0.1035553 0.2781538 1 0 1
0.02486745 -0.103895 0.2790558 1 0 1
0.02641248 -0.1030293 0.277205 1 0 1
0.02804061 -0.1033619 0.2780963 1 0 1
0.02963948 -0.1032905 0.2780666 1 0 1
0.03123811 -0.1032156 0.2780315 1 0 1
0.03279184 -0.1027375 0.2770756 1 0 1
0.03438604 -0.1026559 0.2770299 1 0 1
0.03603251 -0.1029703 0.2778943 1 0 1
0.03763001 -0.1028816 0.2778379 1 0 1
0.03916686 -0.1023905 0.2768612 1 0 1
0.04056705 -0.101099 0.2740499 1 0 1
0.04160281 -0.09781308 0.2666612 1 0 1
0.04006884 -0.07333437 0.210736 1 0 1
0.07191727 -0.08954231 0.2512846 1 0 1
0.07355204 -0.08976981 0.252015 1 0 1
0.07487869 -0.08921203 0.2509255 1 0 1
0.07603526 -0.08826182 0.2489256 1 0 1
0.07750598 -0.08808959 0.2487347 1 0 1
0.07897571 -0.08791418 0.2485389 1 0 1
0.08061746 -0.08812435 0.2492431 1 0 1
0.08191232 -0.08755385 0.2481325 1 0 1
0.08319846 -0.0869811 0.2470181 1 0 1
0.0844759 -0.08640618 0.2458999 1 0 1
0.08574457 -0.08582907 0.2447779 1 0 1
0.08700451 -0.08524987 0.2436523 1 0 1
0.08845172 -0.08505432 0.2434245 1 0 1
0.0902975 -0.08562617 0.2449938 1 0 1
0.09154642 -0.08503859 0.2438548 1 0 1
0.09320158 -0.0852173 0.2445115 1 0 1
0.09486323 -0.08539176 0.245162 1 0 1
0.09653132 -0.08556195 0.2458063 1 0 1
0.09820581 -0.08572787 0.2464444 1 0 1
0.09988671 -0.08588949 0.2470763 1 0 1
0.1013474 -0.08566546 0.2468056 1 0 1
0.1025763 -0.08505752 0.2456345 1 0 1
0.1040306 -0.08482774 0.2453547 1 0 1
0.1050074 -0.08383574 0.2432819 1 0 1
0.1062095 -0.083222 0.2421006 1 0 1
0.1076484 -0.08298463 0.2418085 1 0 1
0.1090858 -0.08274418 0.2415116 1 0 1
0.110775 -0.08287758 0.2421007 1 0 1
0.1122134 -0.08263024 0.2417933 1 0 1
0.1141719 -0.08313116 0.2432596 1 0 1
0.1158794 -0.08325125 0.2438293 1 0 1
0.1173247 -0.08299249 0.2435049 1 0 1
0.1193127 -0.08347794 0.244949 1 0 1
0.1207625 -0.08321155 0.2446131 1 0 1
0.1230496 -0.08405883 0.2469273 1 0 1
0.1247909 -0.08415555 0.247463 1 0 1
0.1268251 -0.08461852 0.2488751 1 0 1
0.1285819 -0.08470528 0.2493964 1 0 1
0.1309337 -0.0855262 0.2516735 1 0 1
0.1324111 -0.0852335 0.2512988 1 0 1
0.1338869 -0.08493759 0.2509191 1 0 1
0.1356667 -0.08500557 0.2514129 1 0 1
0.1374522 -0.08506883 0.2518997 1 0 1
0.1392433 -0.08512734 0.2523795 1 0 1
0.141991 -0.08627549 0.2554787 1 0 1
0.1447666 -0.08741412 0.2585646 1 0 1
0.1472456 -0.0881799 0.2607638 1 0 1
0.1490885 -0.08821263 0.261207 1 0 1
0.1519325 -0.08932528 0.2642566 1 0 1
0.1544684 -0.09006725 0.2664224 1 0 1
0.1560068 -0.08972102 0.2659691 1 0 1
-0.01171422 -0.2584539 0.6214954 1 0 1
0.005229262 -0.113993 0.2964929 1 0 1
0.007000225 -0.1119415 0.2919703 1 0 1
0.008718321 -0.1102924 0.2883551 1 0 1
0.01037535 -0.1098563 0.2874761 1 0 1
0.01203071 -0.1090116 0.2856773 1 0 1
0.0136704 -0.1081637 0.2838728 1 0 1
0.01529448 -0.1073125 0.2820626 1 0 1
0.01690864 -0.1068633 0.2811613 1 0 1
0.01852453 -0.1068156 0.2811689 1 0 1
0.02011329 -0.105955 0.2793425 1 0 1
0.02172122 -0.1059006 0.2793394 1 0 1
0.0233077 -0.1054382 0.2784165 1 0 1
0.02491145 -0.1053769 0.2784027 1 0 1
0.02645676 -0.1045039 0.2765552 1 0 1
0.02805237 -0.1044361 0.2765308 1 0 1
0.02964783 -0.1043648 0.2765012 1 0 1
0.03124305 -0.10429 0.2764663 1 0 1
0.0327932 -0.1038084 0.2755121 1 0 1
0.03438396 -0.1037269 0.2754667 1 0 1
0.03597446 -0.1036419 0.2754159 1 0 1
0.03750807 -0.1031508 0.2744463 1 0 1
0.03909399 -0.1030592 0.2743852 1 0 1
0.0404865 -0.1017572 0.2715791 1 0 1
0.04192342 -0.1008552 0.2696818 1 0 1
0.04320003 -0.09914723 0.2659543 1 0 1
0.0510654 -0.04423501 0.1431683 1 0 1
0.07019775 -0.09029072 0.2490362 1 0 1
0.07212213 -0.09131613 0.2515842 1 0 1
0.07376135 -0.09154649 0.2523127 1 0 1
0.07493443 -0.09059022 0.2503191 1 0 1
0.07609122 -0.08963252 0.2483225 1 0 1
0.07772766 -0.08985326 0.2490361 1 0 1
0.07903247 -0.08928426 0.2479361 1 0 1
0.08050167 -0.08910539 0.2477355 1 0 1
0.08214683 -0.08931515 0.2484329 1 0 1
0.08343711 -0.08873805 0.2473197 1 0 1
0.08471864 -0.08815867 0.2462027 1 0 1
0.08580294 -0.08718675 0.2441808 1 0 1
0.08706316 -0.0866036 0.2430569 1 0 1
0.08851075 -0.08640771 0.2428294 1 0 1
0.09015723 -0.08659755 0.2434963 1 0 1
0.09160645 -0.08639488 0.2432584 1 0 1
0.09326218 -0.08657677 0.2439137 1 0 1
0.09471288 -0.08636725 0.2436655 1 0 1
0.09637772 -0.0865412 0.2443091 1 0 1
0.09782979 -0.08632483 0.2440505 1 0 1
0.09950366 -0.08649078 0.2446824 1 0 1
0.1007303 -0.0858826 0.2435186 1 0 1
0.1021786 -0.08565673 0.2432454 1 0 1
0.1036257 -0.08542773 0.2429672 1 0 1
0.1048332 -0.08481252 0.2417919 1 0 1
0.1062737 -0.0845779 0.2415048 1 0 1
0.107713 -0.08434012 0.241213 1 0 1
0.1094004 -0.08448043 0.2418064 1 0 1
0.1110939 -0.08461635 0.2423935 1 0 1
0.1122793 -0.08398797 0.2411969 1 0 1
0.1142386 -0.08449554 0.2426604 1 0 1
0.1162115 -0.08499735 0.2441157 1 0 1
0.1176609 -0.08473746 0.2437906 1 0 1
0.1193811 -0.08485165 0.2443459 1 0 1
0.1208313 -0.08458479 0.2440102 1 0 1
0.1228395 -0.08506639 0.2454366 1 0 1
0.1245776 -0.0851669 0.2459718 1 0 1
0.1266089 -0.0856372 0.247382 1 0 1
0.1286536 -0.08610144 0.2487836 1 0 1
0.1310063 -0.08693249 0.2510564 1 0 1
0.1324842 -0.08663924 0.250682 1 0 1
0.1342627 -0.08671425 0.2511805 1 0 1
0.1357407 -0.08641385 0.2507952 1 0 1
0.1375268 -0.08648008 0.2512807 1 0 1
0.139632 -0.08691072 0.2526342 1 0 1
0.1417502 -0.08733498 0.2539786 1 0 1
0.1438815 -0.08775286 0.2553139 1 0 1
0.1463503 -0.08853105 0.2575119 1 0 1
0.1481828 -0.08856918 0.257957 1 0 1
0.1506848 -0.08933271 0.2601343 1 0 1
0.1528712 -0.08972364 0.2614314 1 0 1
0.1540522 -0.08901737 0.2601163 1 0 1
-0.001331184 -0.1605969 0.3960062 1 0 1
0.005204895 -0.1167723 0.2985382 1 0 1
0.006969892 -0.1151117 0.2949362 1 0 1
0.008731295 -0.1126299 0.289503 1 0 1
0.01038669 -0.112599 0.2895383 1 0 1
0.01205404 -0.1117467 0.287743 1 0 1
0.01370576 -0.1108913 0.2859419 1 0 1
0.01533999 -0.109624 0.2832225 1 0 1
0.01696231 -0.1091708 0.2823229 1 0 1
0.01857675 -0.1087144 0.2814178 1 0 1
0.02016971 -0.1078464 0.2795946 1 0 1
0.02176449 -0.1073836 0.2786788 1 0 1
0.0233513 -0.1069176 0.2777576 1 0 1
0.02493017 -0.1064483 0.2768312 1 0 1
0.0264718 -0.1055682 0.2749869 1 0 1
0.02806398 -0.1055004 0.2749627 1 0 1
0.02961886 -0.1050218 0.2740207 1 0 1
0.03116569 -0.1045401 0.2730736 1 0 1
0.03274935 -0.1044623 0.2730337 1 0 1
0.03433278 -0.1043811 0.2729885 1 0 1
0.03591591 -0.1042965 0.2729382 1 0 1
0.03738543 -0.1033956 0.2710586 1 0 1
0.03908117 -0.1041169 0.2728215 1 0 1
0.04053431 -0.1032101 0.2709321 1 0 1
0.04197147 -0.1023008 0.2690381 1 0 1
0.04353715 -0.1022 0.2689621 1 0 1
0.04479769 -0.1004751 0.2652368 1 0 1
0.05899304 -0.06797758 0.194391 1 0 1
0.07054417 -0.09245818 0.2502374 1 0 1
0.07247716 -0.09349327 0.2527799 1 0 1
0.0738168 -0.09292965 0.2516975 1 0 1
0.07514782 -0.0923637 0.250611 1 0 1
0.0761469 -0.09100071 0.2477139 1 0 1
0.07761843 -0.09082787 0.2475234 1 0 1
0.07891961 -0.09025542 0.2464255 1 0 1
0.0805586 -0.09047265 0.2471275 1 0 1
0.0818501 -0.08989479 0.246021 1 0 1
0.08313293 -0.08931471 0.2449107 1 0 1
0.08440707 -0.08873241 0.2437965 1 0 1
0.08567239 -0.08814798 0.2426787 1 0 1
0.08712147 -0.08795489 0.2424562 1 0 1
0.08837317 -0.0873657 0.2413305 1 0 1
0.09021654 -0.08795169 0.2428944 1 0 1
0.09146217 -0.08735676 0.2417596 1 0 1
0.09311459 -0.08754242 0.2424141 1 0 1
0.0945619 -0.08733308 0.2421668 1 0 1
0.09622342 -0.08751084 0.2428097 1 0 1
0.0976721 -0.08729462 0.2425519 1 0 1
0.09934273 -0.08746431 0.2431831 1 0 1
0.1005658 -0.08685275 0.2420219 1 0 1
0.1017799 -0.08623919 0.2408573 1 0 1
0.1034543 -0.08639831 0.2414725 1 0 1
0.1048967 -0.08616634 0.2411905 1 0 1
0.1060954 -0.08554523 0.2400136 1 0 1
0.1077772 -0.08569312 0.2406121 1 0 1
0.1097149 -0.08622131 0.2420928 1 0 1
0.1109058 -0.08559144 0.2409021 1 0 1
0.1126023 -0.0857267 0.2414822 1 0 1
0.1143049 -0.08585744 0.2420558 1 0 1
0.1160136 -0.08598375 0.2426228 1 0 1
0.1174597 -0.08572406 0.2422989 1 0 1
0.1191767 -0.08584204 0.2428537 1 0 1
0.1206235 -0.08557534 0.2425192 1 0 1
0.1229087 -0.0864437 0.2448253 1 0 1
0.1243637 -0.08616857 0.2444784 1 0 1
0.1266794 -0.08702417 0.2467667 1 0 1
0.1287248 -0.08749503 0.2481655 1 0 1
0.1307836 -0.08795972 0.2495555 1 0 1
0.1322581 -0.08766665 0.2491823 1 0 1
0.1337309 -0.08737043 0.2488043 1 0 1
0.1352019 -0.08707095 0.2484212 1 0 1
0.1366712 -0.08676824 0.2480331 1 0 1
0.138766 -0.08720778 0.2493868 1 0 1
0.1408738 -0.08764092 0.2507314 1 0 1
0.1433158 -0.0884388 0.2529383 1 0 1
0.1457781 -0.08922864 0.255134 1 0 1
0.1479323 -0.08964083 0.2564491 1 0 1
0.1507638 -0.09078386 0.2594912 1 0 1
0.1532869 -0.09154917 0.2616526 1 0 1
0.1548114 -0.09120498 0.2612044 1 0 1
0.002712387 -0.1319747 0.3278284 1 0 1
0.005138174 -0.1203958 0.3023888 1 0 1
0.006958082 -0.1178951 0.2969725 1 0 1
0.008744763 -0.1149789 0.2906385 1 0 1
0.01041823 -0.1145353 0.2897631 1 0 1
0.01208973 -0.1136758 0.2879712 1 0 1
0.01374565 -0.112813 0.2861733 1 0 1
0.01538194 -0.1111224 0.2825478 1 0 1
0.01700464 -0.1106657 0.2816498 1 0 1
0.01861946 -0.1102057 0.2807465 1 0 1
0.02019894 -0.1089184 0.2780154 1 0 1
0.02180778 -0.1088639 0.2780124 1 0 1
0.02339496 -0.1083942 0.2770929 1 0 1
0.02497415 -0.1079213 0.2761681 1 0 1
0.02651603 -0.1070339 0.2743272 1 0 1
0.02807534 -0.1065548 0.2733921 1 0 1
0.02962667 -0.1060727 0.2724518 1 0 1
0.03112878 -0.1051766 0.2705957 1 0 1
0.03270509 -0.1050991 0.2705561 1 0 1
0.03433008 -0.1054287 0.2714218 1 0 1
0.03580405 -0.1045237 0.2695507 1 0 1
0.03731877 -0.1040261 0.2685852 1 0 1
0.03894673 -0.1043452 0.2694351 1 0 1
0.04038838 -0.1034317 0.2675495 1 0 1
0.041951 -0.1033345 0.267479 1 0 1
0.0435856 -0.1036428 0.2683129 1 0 1
0.04507494 -0.1031297 0.2673225 1 0 1
0.04647584 -0.1022052 0.2654179 1 0 1
0.04786066 -0.1012784 0.2635092 1 0 1
0.05011493 -0.0462361 0.1424281 1 0 1
0.07074458 -0.09423487 0.2505232 1 0 1
0.07238193 -0.0944755 0.2512543 1 0 1
0.07371794 -0.09390847 0.2501741 1 0 1
0.07504538 -0.09333906 0.2490899 1 0 1
0.07604054 -0.09196547 0.2461983 1 0 1
0.07750863 -0.09179276 0.2460084 1 0 1
0.07897574 -0.09161693 0.2458136 1 0 1
0.08026852 -0.09103832 0.2447138 1 0 1
0.08172981 -0.09085658 0.2445098 1 0 1
0.0831901 -0.09067164 0.2443008 1 0 1
0.08464941 -0.09048355 0.244087 1 0 1
0.08573006 -0.08949709 0.2420725 1 0 1
0.08717953 -0.08930367 0.2418502 1 0 1
0.08843148 -0.08871053 0.2407262 1 0 1
0.09007521 -0.08890738 0.241391 1 0 1
0.09131726 -0.088309 0.2402586 1 0 1
0.09317438 -0.08889336 0.2418073 1 0 1
0.09462204 -0.08868364 0.2415601 1 0 1
0.09606851 -0.08847077 0.2413081 1 0 1
0.09751381 -0.08825475 0.2410513 1 0 1
0.09918112 -0.08842821 0.2416818 1 0 1
0.1004006 -0.08781325 0.2405231 1 0 1
0.1018421 -0.08758778 0.2402517 1 0 1
0.1035171 -0.08775005 0.2408656 1 0 1
0.1049597 -0.08751772 0.2405839 1 0 1
0.1061587 -0.08689258 0.2394087 1 0 1
0.1080872 -0.08743257 0.2408937 1 0 1
0.1097795 -0.08757851 0.2414837 1 0 1
0.1112243 -0.08733232 0.241181 1 0 1
0.1124101 -0.0866959 0.2399881 1 0 1
0.1141095 -0.08683045 0.2405612 1 0 1
0.1155499 -0.08657481 0.2402441 1 0 1
0.1172577 -0.08670103 0.240805 1 0 1
0.1192442 -0.08720713 0.2422414 1 0 1
0.1206913 -0.08693995 0.2419071 1 0 1
0.1226973 -0.08743551 0.2433285 1 0 1
0.1244327 -0.08754285 0.2438621 1 0 1
0.1258864 -0.08726405 0.2435105 1 0 1
0.1276299 -0.08736284 0.2440316 1 0 1
0.1296744 -0.08783704 0.2454225 1 0 1
0.1314332 -0.08792577 0.2459291 1 0 1
0.1328952 -0.08763123 0.2455542 1 0 1
0.1346618 -0.0877113 0.246048 1 0 1
0.1367442 -0.08816364 0.2474077 1 0 1
0.1388398 -0.08860966 0.2487585 1 0 1
0.1409484 -0.08904935 0.2501004 1 0 1
0.1433913 -0.08985725 0.2523028 1 0 1
0.1465047 -0.09140485 0.2562314 1 0 1
0.1480096 -0.09107579 0.2558063 1 0 1
0.1508422 -0.09223238 0.2588425 1 0 1
0.1537024 -0.09337907 0.261865 1 0 1
0.1562504 -0.0941451 0.2640093 1 0 1
0.1553836 -0.09120544 0.2575086 1 0 1
0.00479431 -0.1294647 0.3180335 1 0 1
0.006876957 -0.1223624 0.3026292 1 0 1
0.008731578 -0.1181719 0.2935798 1 0 1
0.0104307 -0.1173083 0.2917972 1 0 1
0.01212001 -0.1160252 0.2890993 1 0 1
0.01378399 -0.1151551 0.2873051 1 0 1
0.01542818 -0.11345 0.2836862 1 0 1
0.01705307 -0.1125736 0.2818805 1 0 1
0.01866224 -0.1116941 0.2800692 1 0 1
0.02024184 -0.1103961 0.2773432 1 0 1
0.02183338 -0.1099261 0.2764307 1 0 1
0.02343863 -0.1098681 0.2764224 1 0 1
0.02499264 -0.1089764 0.2745899 1 0 1
0.0265308 -0.1080819 0.2727523 1 0 1
0.02811996 -0.1080142 0.2727283 1 0 1
0.02967159 -0.1075283 0.2717898 1 0 1
0.0311327 -0.1062105 0.2690278 1 0 1
0.03275067 -0.1065474 0.2698974 1 0 1
0.03432717 -0.1064663 0.2698526 1 0 1
0.03579738 -0.1055543 0.2679849 1 0 1
0.03730852 -0.1050532 0.2670213 1 0 1
0.03893312 -0.105376 0.2678698 1 0 1
0.04043574 -0.1048686 0.2668961 1 0 1
0.04199881 -0.1047711 0.2668256 1 0 1
0.04370648 -0.1054956 0.2685661 1 0 1
0.04512366 -0.104566 0.2666693 1 0 1
0.04652474 -0.1036342 0.2647682 1 0 1
0.04790971 -0.1027 0.2628627 1 0 1
0.0491905 -0.1013521 0.260046 1 0 1
0.050094 -0.08580133 0.2261978 1 0 1
0.04135242 -0.04170183 0.1290727 1 0 1
0.06845477 -0.0933286 0.2446511 1 0 1
0.07035926 -0.09439118 0.2471926 1 0 1
0.07228616 -0.09544802 0.2497265 1 0 1
0.07361861 -0.09487754 0.2486486 1 0 1
0.0751005 -0.09470964 0.2484672 1 0 1
0.07625759 -0.09372953 0.2464808 1 0 1
0.07772991 -0.09355609 0.2462905 1 0 1
0.07886196 -0.09257229 0.2442973 1 0 1
0.08015111 -0.09199027 0.2431997 1 0 1
0.08160896 -0.09180871 0.2429964 1 0 1
0.08288456 -0.09122179 0.2418908 1 0 1
0.08415146 -0.0906327 0.2407814 1 0 1
0.08540956 -0.09004145 0.2396684 1 0 1
0.08685171 -0.08984873 0.2394474 1 0 1
0.08809619 -0.08925272 0.2383265 1 0 1
0.0899333 -0.08985335 0.2398855 1 0 1
0.0909674 -0.08885261 0.2378617 1 0 1
0.0928176 -0.08944482 0.2394087 1 0 1
0.09425795 -0.08923583 0.239163 1 0 1
0.09569719 -0.08902369 0.2389125 1 0 1
0.09713519 -0.08880842 0.2386573 1 0 1
0.09901883 -0.08938245 0.2401783 1 0 1
0.1002348 -0.08876412 0.2390222 1 0 1
0.1014417 -0.0881438 0.2378626 1 0 1
0.1033445 -0.08870487 0.239365 1 0 1
0.1047837 -0.08847272 0.2390842 1 0 1
0.1057367 -0.08745105 0.2370248 1 0 1
0.1079045 -0.08839152 0.2393944 1 0 1
0.1095936 -0.08854125 0.2399838 1 0 1
0.1107811 -0.087904 0.2387977 1 0 1
0.1119595 -0.08726484 0.2376083 1 0 1
0.1136519 -0.08740386 0.2381817 1 0 1
0.1150852 -0.08714905 0.2378664 1 0 1
0.1167859 -0.08727977 0.2384276 1 0 1
0.1187655 -0.08779386 0.2398628 1 0 1
0.1202056 -0.08752758 0.2395305 1 0 1
0.1222047 -0.08803115 0.2409507 1 0 1
0.1239332 -0.08814296 0.2414848 1 0 1
0.1250919 -0.08748006 0.2402585 1 0 1
0.1271162 -0.08796841 0.2416569 1 0 1
0.1288586 -0.08806702 0.2421718 1 0 1
0.1309059 -0.08854388 0.243554 1 0 1
0.1323607 -0.08825032 0.2431813 1 0 1
0.1341204 -0.0883349 0.2436758 1 0 1
0.1358859 -0.08841474 0.2441635 1 0 1
0.138285 -0.0892494 0.2463845 1 0 1
0.1400692 -0.08931818 0.2468563 1 0 1
0.1425019 -0.09013849 0.2490573 1 0 1
0.1452802 -0.09132817 0.2521143 1 0 1
0.1474285 -0.09175492 0.2534259 1 0 1
0.1502548 -0.09292667 0.2564581 1 0 1
0.1527726 -0.09371353 0.2586129 1 0 1
0.1549704 -0.09411795 0.2598931 1 0 1
0.1558062 -0.09302263 0.257717 1 0 1
0.006692927 -0.1293963 0.3137012 1 0 1
0.008651887 -0.1234898 0.3010396 1 0 1
0.01042478 -0.1209394 0.2956306 1 0 1
0.01213949 -0.1192255 0.2920304 1 0 1
0.01382113 -0.1179282 0.2893319 1 0 1
0.01547275 -0.1153695 0.2839043 1 0 1
0.01710176 -0.1144858 0.282102 1 0 1
0.0187151 -0.113599 0.2802941 1 0 1
0.02029875 -0.11229 0.277573 1 0 1
0.02189451 -0.1118162 0.2766622 1 0 1
0.02350418 -0.1117581 0.2766539 1 0 1
0.02501091 -0.1100217 0.2730093 1 0 1
0.02657495 -0.1095385 0.2720827 1 0 1
0.02813103 -0.1090523 0.2711511 1 0 1
0.02967909 -0.108563 0.2702143 1 0 1
0.0311777 -0.1076525 0.268365 1 0 1
0.03275097 -0.1075751 0.2683256 1 0 1
0.03432396 -0.1074941 0.268281 1 0 1
0.03579047 -0.106575 0.2664168 1 0 1
0.03729805 -0.1060704 0.265455 1 0 1
0.03898016 -0.1068138 0.267209 1 0 1
0.04054794 -0.1067194 0.2671437 1 0 1
0.04204656 -0.1062051 0.2661667 1 0 1
0.04382751 -0.1073528 0.2688103 1 0 1
0.04532535 -0.1068316 0.2678228 1 0 1
0.04665396 -0.1054762 0.2650187 1 0 1
0.04804303 -0.1045345 0.2631165 1 0 1
0.04932773 -0.1031753 0.2603046 1 0 1
0.05040419 -0.1009849 0.2556786 1 0 1
0.05182534 -0.1004523 0.25467 1 0 1
0.05323811 -0.09991702 0.2536569 1 0 1
0.05391553 -0.09648179 0.2463087 1 0 1
0.05496102 -0.09470284 0.2425768 1 0 1
0.05608641 -0.09333654 0.2397461 1 0 1
0.05649459 -0.08949186 0.2314921 1 0 1
0.0653041 -0.09416103 0.2425412 1 0 1
0.06704111 -0.09483308 0.2441899 1 0 1
0.06893563 -0.09591056 0.2467328 1 0 1
0.07055935 -0.0961627 0.2474676 1 0 1
0.0720395 -0.0960014 0.2472968 1 0 1
0.07367314 -0.09624586 0.2480204 1 0 1
0.07515542 -0.09607766 0.2478392 1 0 1
0.07631264 -0.09509011 0.2458562 1 0 1
0.07778531 -0.09491638 0.2456661 1 0 1
0.07891744 -0.09392513 0.2436763 1 0 1
0.08003318 -0.09293255 0.2416836 1 0 1
0.08148754 -0.09275115 0.2414811 1 0 1
0.08294094 -0.09256652 0.2412736 1 0 1
0.08420804 -0.09197353 0.240166 1 0 1
0.08546637 -0.09137843 0.2390548 1 0 1
0.08690894 -0.09118532 0.238834 1 0 1
0.08815362 -0.09058543 0.237715 1 0 1
0.08979078 -0.09078971 0.238378 1 0 1
0.09123003 -0.09058719 0.2381429 1 0 1
0.09287644 -0.09078358 0.2387945 1 0 1
0.09452933 -0.0909757 0.23944 1 0 1
0.09575678 -0.09036172 0.2382988 1 0 1
0.09741498 -0.09054643 0.2389334 1 0 1
0.09885591 -0.09032704 0.2386728 1 0 1
0.1000682 -0.08970532 0.2375192 1 0 1
0.1012716 -0.08908167 0.2363622 1 0 1
0.1029362 -0.08925209 0.2369756 1 0 1
0.1043682 -0.0890207 0.2366965 1 0 1
0.1057988 -0.08878625 0.2364127 1 0 1
0.1074747 -0.08894476 0.2370086 1 0 1
0.1091567 -0.08909886 0.2375982 1 0 1
0.1105908 -0.08885372 0.2372984 1 0 1
0.1120236 -0.08860542 0.2369938 1 0 1
0.1137165 -0.08874748 0.2375658 1 0 1
0.1151501 -0.08849227 0.2372508 1 0 1
0.1168513 -0.08862603 0.2378107 1 0 1
0.1185587 -0.08875527 0.2383641 1 0 1
0.1199954 -0.08848924 0.238033 1 0 1
0.121711 -0.08861008 0.2385741 1 0 1
0.1234324 -0.08872633 0.2391086 1 0 1
0.1248719 -0.08844942 0.2387612 1 0 1
0.1268932 -0.08894506 0.2401577 1 0 1
0.1286324 -0.08904748 0.2406721 1 0 1
0.1303774 -0.08914521 0.2411799 1 0 1
0.1321281 -0.08923828 0.2416809 1 0 1
0.1338847 -0.08932663 0.2421751 1 0 1
0.1356469 -0.08941019 0.2426624 1 0 1
0.1377289 -0.0898724 0.2440114 1 0 1
0.1398242 -0.09032816 0.2453514 1 0 1
0.1422541 -0.09115936 0.247549 1 0 1
0.1450298 -0.09236331 0.2506009 1 0 1
0.1471752 -0.09279734 0.2519106 1 0 1
0.149999 -0.0939834 0.2549378 1 0 1
0.1531869 -0.09553793 0.2588137 1 0 1
0.1553892 -0.0959479 0.2600901 1 0 1
0.1562287 -0.09484407 0.2579164 1 0 1
0.01042 -0.1246035 0.2994413 1 0 1
0.01215986 -0.1224516 0.2949421 1 0 1
0.01385894 -0.12072 0.2913429 1 0 1
0.01552445 -0.1185625 0.2868315 1 0 1
0.01716317 -0.1172483 0.2841265 1 0 1
0.01878846 -0.1163539 0.2823221 1 0 1
0.02036994 -0.1146111 0.2786999 1 0 1
0.02195592 -0.1137109 0.2768846 1 0 1
0.02354801 -0.11323 0.2759702 1 0 1
0.02508056 -0.1119015 0.2732383 1 0 1
0.02658946 -0.1105703 0.2705014 1 0 1
0.02817555 -0.1105026 0.2704775 1 0 1
0.02968633 -0.1095878 0.2686365 1 0 1
0.03118129 -0.1086703 0.2667907 1 0 1
0.03279641 -0.1090143 0.2676572 1 0 1
0.03436984 -0.1089332 0.2676127 1 0 1
0.03583652 -0.1080068 0.2657519 1 0 1
0.03734436 -0.1074986 0.2647918 1 0 1
0.03896613 -0.1078284 0.2656374 1 0 1
0.04046545 -0.1073138 0.2646672 1 0 1
0.04195658 -0.1067963 0.2636923 1 0 1
0.04373053 -0.107955 0.2663314 1 0 1
0.04514413 -0.1070111 0.2644416 1 0 1
0.04654163 -0.1060649 0.2625475 1 0 1
0.04809203 -0.1059544 0.2624573 1 0 1
0.04937677 -0.1045843 0.2596504 1 0 1
0.05072984 -0.103631 0.2577435 1 0 1
0.05225915 -0.1035119 0.2576392 1 0 1
0.05378787 -0.1033894 0.2575298 1 0 1
0.05500406 -0.1020111 0.2547072 1 0 1
0.05662778 -0.1023 0.2554909 1 0 1
0.05803511 -0.1017514 0.2544649 1 0 1
0.05897136 -0.09953427 0.2498274 1 0 1
0.06046575 -0.09939789 0.2496953 1 0 1
0.06171262 -0.09842682 0.2477563 1 0 1
0.06307051 -0.09786931 0.2467144 1 0 1
0.06441992 -0.09730933 0.2456684 1 0 1
0.06589597 -0.09716149 0.2455182 1 0 1
0.06737116 -0.09701044 0.245363 1 0 1
0.06913134 -0.09768373 0.2470011 1 0 1
0.07046599 -0.09711203 0.2459367 1 0 1
0.07194266 -0.09695088 0.2457665 1 0 1
0.07357295 -0.09719904 0.246489 1 0 1
0.07505174 -0.097031 0.2463085 1 0 1
0.07620515 -0.09603648 0.2443294 1 0 1
0.07750828 -0.09545174 0.2432437 1 0 1
0.07897269 -0.09527541 0.24305 1 0 1
0.07991468 -0.09386516 0.2401655 1 0 1
0.08118789 -0.09327414 0.2390689 1 0 1
0.08263393 -0.09309018 0.2388628 1 0 1
0.08407898 -0.09290309 0.2386518 1 0 1
0.0853337 -0.09230456 0.237543 1 0 1
0.08696586 -0.09251939 0.2382154 1 0 1
0.08821078 -0.09191559 0.2370982 1 0 1
0.08984845 -0.0921231 0.2377598 1 0 1
0.09149269 -0.09232637 0.2384154 1 0 1
0.09314345 -0.09252539 0.239065 1 0 1
0.09480072 -0.09272014 0.2397084 1 0 1
0.09603221 -0.09210165 0.2385684 1 0 1
0.09747478 -0.09188505 0.2383129 1 0 1
0.09869235 -0.09126195 0.2371653 1 0 1
0.1001286 -0.09103964 0.2369009 1 0 1
0.1013322 -0.09041207 0.2357458 1 0 1
0.1027621 -0.09018403 0.2354725 1 0 1
0.1041907 -0.0899529 0.2351944 1 0 1
0.1056179 -0.08971865 0.2349116 1 0 1
0.107537 -0.09028054 0.2363897 1 0 1
0.1089692 -0.09003874 0.2360958 1 0 1
0.1103999 -0.08979379 0.2357971 1 0 1
0.1118292 -0.08954575 0.2354937 1 0 1
0.1135188 -0.08969156 0.2360651 1 0 1
0.114949 -0.08943655 0.2357512 1 0 1
0.1166471 -0.08957405 0.2363105 1 0 1
0.1183512 -0.08970707 0.2368634 1 0 1
0.1200613 -0.08983552 0.2374097 1 0 1
0.1214968 -0.08956585 0.237074 1 0 1
0.123215 -0.08968589 0.2376081 1 0 1
0.1246511 -0.08940918 0.2372619 1 0 1
0.1266693 -0.08991211 0.2386563 1 0 1
0.1284053 -0.09001828 0.2391704 1 0 1
0.1301471 -0.09011978 0.2396778 1 0 1
0.1321979 -0.09060571 0.2410482 1 0 1
0.1339549 -0.09069704 0.241541 1 0 1
0.1357176 -0.09078366 0.2420271 1 0 1
0.1371717 -0.09047864 0.2416393 1 0 1
0.1395784 -0.09132853 0.2438443 1 0 1
0.1420054 -0.09217048 0.2460384 1 0 1
0.1441275 -0.09261986 0.2473574 1 0 1
0.1465917 -0.09344637 0.2495302 1 0 1
0.1497422 -0.09503031 0.2534151 1 0 1
0.152591 -0.09622069 0.2564236 1 0 1
0.1554674 -0.09740098 0.2594184 1 0 1
0.1583713 -0.09857118 0.2623994 1 0 1
0.00835203 -0.1390067 0.3257966 1 0 1
0.01042561 -0.1278735 0.302325 1 0 1
0.01219199 -0.1248497 0.2960259 1 0 1
0.01390049 -0.122677 0.291529 1 0 1
0.01556507 -0.1196482 0.2852173 1 0 1
0.01721263 -0.1191763 0.2843262 1 0 1
0.01884207 -0.1182747 0.2825252 1 0 1
0.02041334 -0.116091 0.2780052 1 0 1
0.0220176 -0.1156098 0.2770979 1 0 1
0.02359195 -0.1146992 0.2752807 1 0 1
0.02515051 -0.1137856 0.2734583 1 0 1
0.02663357 -0.1120179 0.2698221 1 0 1
0.02822007 -0.11195 0.2697983 1 0 1
0.02969342 -0.1106027 0.2670565 1 0 1
0.03122617 -0.1101032 0.2661182 1 0 1
0.03275087 -0.1096008 0.265175 1 0 1
0.03431685 -0.10952 0.2651308 1 0 1
0.03577594 -0.1085868 0.2632737 1 0 1
0.03733347 -0.1084996 0.2632194 1 0 1
0.03895181 -0.1088331 0.2640634 1 0 1
0.04044754 -0.108315 0.2630953 1 0 1
0.04193502 -0.107794 0.2621223 1 0 1
0.04363292 -0.1085402 0.2638536 1 0 1
0.0450389 -0.1075896 0.2619677 1 0 1
0.04650947 -0.1070594 0.26098 1 0 1
0.04805636 -0.106949 0.2608901 1 0 1
0.04933723 -0.1055683 0.2580886 1 0 1
0.05087135 -0.105452 0.2579893 1 0 1
0.05240495 -0.1053323 0.2578848 1 0 1
0.05393797 -0.1052093 0.2577752 1 0 1
0.05526218 -0.1042408 0.2558584 1 0 1
0.05689421 -0.1045325 0.25664 1 0 1
0.0584215 -0.1043997 0.2565155 1 0 1
0.05960073 -0.1030036 0.2536857 1 0 1
0.06111502 -0.1028652 0.2535521 1 0 1
0.0626286 -0.1027236 0.2534135 1 0 1
0.06375901 -0.1013218 0.2505728 1 0 1
0.06499676 -0.1003375 0.2486281 1 0 1
0.06635344 -0.09976974 0.2475781 1 0 1
0.06756246 -0.09878171 0.2456263 1 0 1
0.06904117 -0.09862675 0.245466 1 0 1
0.0706659 -0.0988855 0.2461977 1 0 1
0.07184532 -0.09789063 0.2442341 1 0 1
0.07347225 -0.09814251 0.2449556 1 0 1
0.07478905 -0.09755898 0.2438801 1 0 1
0.0759348 -0.09655794 0.2419055 1 0 1
0.07739667 -0.09638499 0.2417173 1 0 1
0.07885765 -0.0962088 0.2415242 1 0 1
0.07979568 -0.09478811 0.2386455 1 0 1
0.08106527 -0.09419367 0.2375513 1 0 1
0.08268949 -0.09442271 0.2382383 1 0 1
0.08394931 -0.09382297 0.2371356 1 0 1
0.08520041 -0.09322105 0.2360292 1 0 1
0.08682927 -0.09343962 0.2367008 1 0 1
0.08846474 -0.09365398 0.2373664 1 0 1
0.08990583 -0.09345391 0.2371364 1 0 1
0.09155058 -0.09366038 0.2377906 1 0 1
0.09320184 -0.09386261 0.2384387 1 0 1
0.09464718 -0.09365192 0.238193 1 0 1
0.09609134 -0.09343812 0.2379425 1 0 1
0.09775434 -0.09362856 0.2385735 1 0 1
0.09897594 -0.09300097 0.2374271 1 0 1
0.1001887 -0.09237137 0.2362772 1 0 1
0.1013924 -0.09173987 0.2351241 1 0 1
0.1025873 -0.09110641 0.2339676 1 0 1
0.1042516 -0.09127991 0.2345732 1 0 1
0.1054362 -0.0906414 0.2334086 1 0 1
0.1073522 -0.09121058 0.2348844 1 0 1
0.1090316 -0.09137151 0.235472 1 0 1
0.1104626 -0.09112614 0.2351735 1 0 1
0.1118923 -0.09087764 0.2348703 1 0 1
0.1135824 -0.09102657 0.2354403 1 0 1
0.1147472 -0.09037118 0.2342495 1 0 1
0.116442 -0.09051247 0.2348083 1 0 1
0.1181428 -0.09064921 0.2353607 1 0 1
0.1195727 -0.0903836 0.2350318 1 0 1
0.12072 -0.08971776 0.2338244 1 0 1
0.1227122 -0.09023937 0.2352327 1 0 1
0.1244294 -0.0903593 0.2357606 1 0 1
0.1258604 -0.09007966 0.2354108 1 0 1
0.1278815 -0.09058525 0.2367964 1 0 1
0.1296163 -0.09069123 0.2373043 1 0 1
0.1319637 -0.09157787 0.2395419 1 0 1
0.1337175 -0.09167295 0.2400344 1 0 1
0.1357879 -0.09215442 0.2413863 1 0 1
0.1375569 -0.09223919 0.2418642 1 0 1
0.1399682 -0.09309831 0.2440636 1 0 1
0.1417559 -0.09317183 0.2445255 1 0 1
0.1435491 -0.0932406 0.2449805 1 0 1
0.1460069 -0.09407867 0.2471507 1 0 1
0.1484849 -0.0949086 0.2493097 1 0 1
0.1509832 -0.09573022 0.2514572 1 0 1
0.1531611 -0.09615887 0.2527354 1 0 1
0.01392669 -0.1293712 0.3016354 1 0 1
0.01562551 -0.1241653 0.2908223 1 0 1
0.01729442 -0.123259 0.2890305 1 0 1
0.01893726 -0.1219195 0.2863303 1 0 1
0.02051378 -0.1192875 0.280916 1 0 1
0.02207952 -0.117513 0.277302 1 0 1
0.02365799 -0.1165951 0.2754883 1 0 1
0.02519462 -0.1152448 0.2727666 1 0 1
0.02670764 -0.1138919 0.2700398 1 0 1
0.02826462 -0.1133947 0.2691134 1 0 1
0.02977577 -0.1124655 0.2672792 1 0 1
0.03131276 -0.1119622 0.2663427 1 0 1
0.03284166 -0.1114558 0.2654011 1 0 1
0.03441197 -0.1113748 0.2653568 1 0 1
0.03582169 -0.1100059 0.2626009 1 0 1
0.03737963 -0.1099186 0.2625467 1 0 1
0.03893726 -0.1098279 0.2624873 1 0 1
0.04042932 -0.1093064 0.2615211 1 0 1
0.0419132 -0.1087819 0.26055 1 0 1
0.04353481 -0.1091084 0.2613769 1 0 1
0.04501005 -0.1085777 0.260396 1 0 1
0.04647698 -0.1080441 0.2594104 1 0 1
0.04810505 -0.1083598 0.2602214 1 0 1
0.04938592 -0.1069683 0.2574252 1 0 1
0.05092047 -0.1068518 0.2573259 1 0 1
0.05255086 -0.1071572 0.2581214 1 0 1
0.05408819 -0.1070337 0.2580117 1 0 1
0.05541644 -0.1060576 0.2560981 1 0 1
0.05694475 -0.1059279 0.2559788 1 0 1
0.05858443 -0.1062189 0.2567532 1 0 1
0.05988353 -0.1052351 0.2548266 1 0 1
0.06128614 -0.1046726 0.2537944 1 0 1
0.062804 -0.1045303 0.2536556 1 0 1
0.06393829 -0.1031173 0.2508197 1 0 1
0.06531154 -0.1025474 0.2497751 1 0 1
0.06640546 -0.1011315 0.246933 1 0 1
0.06775383 -0.1005575 0.2458809 1 0 1
0.06923676 -0.1004019 0.2457203 1 0 1
0.07071891 -0.100243 0.2455548 1 0 1
0.0718984 -0.09924075 0.2435947 1 0 1
0.07352585 -0.09949589 0.2443147 1 0 1
0.07484288 -0.09890852 0.243241 1 0 1
0.07598872 -0.0979001 0.2412699 1 0 1
0.07745095 -0.09772682 0.2410819 1 0 1
0.07874198 -0.09713255 0.2399965 1 0 1
0.0798502 -0.09611867 0.2380155 1 0 1
0.08129797 -0.09593726 0.2378145 1 0 1
0.08256291 -0.09533631 0.2367179 1 0 1
0.0838191 -0.09473319 0.2356176 1 0 1
0.08525611 -0.09454326 0.2354033 1 0 1
0.08688545 -0.09476506 0.2360734 1 0 1
0.08852141 -0.09498262 0.2367375 1 0 1
0.08996287 -0.0947822 0.2365077 1 0 1
0.09160812 -0.09499182 0.2371604 1 0 1
0.09325995 -0.09519722 0.237807 1 0 1
0.09470563 -0.09498619 0.2375616 1 0 1
0.09615014 -0.09477199 0.2373113 1 0 1
0.09781367 -0.09496558 0.2379408 1 0 1
0.09903544 -0.09433409 0.2367963 1 0 1
0.1002483 -0.09370055 0.2356484 1 0 1
0.1014523 -0.09306508 0.2344971 1 0 1
0.1026474 -0.09242772 0.2333425 1 0 1
0.1038335 -0.09178836 0.2321846 1 0 1
0.1052538 -0.09155453 0.2319037 1 0 1
0.1071667 -0.09213099 0.2333773 1 0 1
0.1088427 -0.09229568 0.2339641 1 0 1
0.1102703 -0.09205053 0.2336668 1 0 1
0.1116965 -0.09180222 0.2333645 1 0 1
0.1136456 -0.09235894 0.2348103 1 0 1
0.1148106 -0.0916996 0.2336215 1 0 1
0.1162362 -0.09144121 0.2333042 1 0 1
0.1179338 -0.09158173 0.233856 1 0 1
