ply
format ascii 1.0
Comment Generated by Floating Hands
element vertex 1250
property double x
property double y
property double z
property uchar red
property uchar green
property uchar blue
end_header
0.09847978 0.02205953 0.2033377 1 0 1
0.09989293 0.02205985 0.204058 1 0 1
0.1015339 0.02191501 0.2057362 1 0 1
0.1029636 0.02192236 0.206444 1 0 1
0.1053151 0.02134329 0.2109947 1 0 1
0.1072375 0.02106539 0.2136101 1 0 1
0.1091811 0.02079289 0.2162162 1 0 1
0.1109059 0.02067183 0.217853 1 0 1
0.1124006 0.02070063 0.218523 1 0 1
0.1134068 0.02102269 0.2172707 1 0 1
0.1146554 0.02120186 0.2169728 1 0 1
0.1156482 0.02152727 0.2157141 1 0 1
0.244646 -0.03713847 0.6208627 1 0 1
0.2485864 -0.03723969 0.6238902 1 0 1
0.252265 -0.03719191 0.6259518 1 0 1
0.2545052 -0.03644459 0.6232642 1 0 1
0.2576129 -0.03610647 0.6234071 1 0 1
0.2613221 -0.03603514 0.6254265 1 0 1
0.2635381 -0.03527349 0.6227124 1 0 1
0.2660421 -0.03464442 0.6209345 1 0 1
0.2688451 -0.03414593 0.6200899 1 0 1
0.2700784 -0.03297063 0.6145344 1 0 1
0.2722228 -0.03219708 0.6117969 1 0 1
0.2749903 -0.03168646 0.6109295 1 0 1
-0.05500966 0.03524592 0.1217473 1 0 1
-0.07630768 0.02587267 0.1824486 1 0 1
-0.08397341 0.0219791 0.2070172 1 0 1
-0.08677515 0.02005976 0.218601 1 0 1
-0.08618484 0.0195654 0.2208807 1 0 1
-0.08492477 0.01935961 0.2212926 1 0 1
-0.08333971 0.01930121 0.2207648 1 0 1
-0.08176019 0.01924647 0.2202302 1 0 1
-0.08050223 0.01904928 0.2206264 1 0 1
-0.07830536 0.01929433 0.2182023 1 0 1
-0.07612849 0.01954508 0.215767 1 0 1
-0.07366654 0.0199492 0.21238 1 0 1
-0.07123204 0.02036003 0.2089799 1 0 1
-0.06942089 0.02048013 0.2074527 1 0 1
-0.0679171 0.0204555 0.2068608 1 0 1
-0.06612845 0.02058403 0.2053176 1 0 1
-0.06492697 0.02041643 0.2056581 1 0 1
-0.06372408 0.0202512 0.2059943 1 0 1
-0.0625198 0.02008834 0.2063262 1 0 1
-0.06131409 0.01992781 0.2066538 1 0 1
-0.06037948 0.01961744 0.2079272 1 0 1
-0.05943617 0.01930857 0.2091981 1 0 1
-0.05821908 0.01915419 0.2095148 1 0 1
-0.05726212 0.01884862 0.2107801 1 0 1
-0.05552319 0.01900668 0.2091813 1 0 1
-0.05125682 0.02071381 0.1980268 1 0 1
-0.03631006 0.0290957 0.1457529 1 0 1
-0.02522161 0.03535208 0.1067688 1 0 1
-0.01245545 0.03196193 0.1214774 1 0 1
-0.02020139 0.02394828 0.1692033 1 0 1
-0.02292708 0.02029393 0.190755 1 0 1
-0.02312724 0.01890734 0.1987195 1 0 1
-0.02293694 0.01784457 0.204744 1 0 1
-0.02205662 0.01743383 0.2068779 1 0 1
-0.02100319 0.01718792 0.208036 1 0 1
-0.01978795 0.01710756 0.2082163 1 0 1
-0.01872168 0.01686557 0.2093674 1 0 1
-0.01735517 0.01695392 0.2085641 1 0 1
-0.0164221 0.01655169 0.2106837 1 0 1
-0.01519636 0.01648031 0.2108478 1 0 1
-0.01396992 0.01641124 0.2110076 1 0 1
-0.01261192 0.01650964 0.2101855 1 0 1
-0.0111337 0.01677605 0.2083801 1 0 1
-0.008929941 0.01803843 0.2006978 1 0 1
0.05592091 0.01991806 0.1921642 1 0 1
0.05770417 0.01883273 0.198948 1 0 1
0.05897907 0.0187385 0.1998315 1 0 1
0.0601638 0.01881109 0.1997285 1 0 1
0.06124701 0.01904973 0.19864 1 0 1
0.06242709 0.0191266 0.1985289 1 0 1
0.06349798 0.01936906 0.197433 1 0 1
0.06456081 0.01961329 0.1963337 1 0 1
0.06561561 0.0198592 0.1952311 1 0 1
0.0666623 0.02010683 0.1941251 1 0 1
0.06770088 0.02035617 0.1930157 1 0 1
0.06885901 0.02044519 0.1928817 1 0 1
0.06975373 0.02085975 0.1907873 1 0 1
0.07103841 0.02079132 0.1916236 1 0 1
0.07219104 0.02088674 0.1914776 1 0 1
0.07362864 0.02066297 0.1932808 1 0 1
0.07493417 0.02060318 0.1941017 1 0 1
0.07624661 0.02054626 0.1949174 1 0 1
0.07741183 0.02065196 0.1947529 1 0 1
0.0788921 0.0204412 0.1965333 1 0 1
0.08022512 0.02039313 0.1973334 1 0 1
0.0820611 0.01987216 0.2010482 1 0 1
0.08392645 0.01935649 0.2047541 1 0 1
0.08564819 0.01900396 0.2074789 1 0 1
0.08703838 0.0189711 0.2082524 1 0 1
0.08807441 0.01925556 0.2070785 1 0 1
0.08910205 0.01954155 0.2059014 1 0 1
0.09049725 0.01951652 0.2066607 1 0 1
0.09151571 0.01980641 0.2054763 1 0 1
0.0927212 0.0199424 0.2052573 1 0 1
0.09392583 0.02008065 0.205034 1 0 1
0.09512953 0.02022129 0.2048063 1 0 1
0.09612565 0.02051837 0.2036082 1 0 1
0.09711338 0.02081692 0.2024071 1 0 1
0.09830676 0.02096371 0.2021681 1 0 1
0.09971697 0.02095998 0.2028887 1 0 1
0.1013552 0.02080726 0.2045666 1 0 1
0.102782 0.02081059 0.2052747 1 0 1
0.1046732 0.02051467 0.2079 1 0 1
0.1065856 0.02022403 0.2105162 1 0 1
0.1085192 0.01993875 0.2131231 1 0 1
0.1102338 0.01980875 0.2147613 1 0 1
0.1122058 0.01953397 0.2173499 1 0 1
0.1134564 0.01971105 0.2170568 1 0 1
0.1152082 0.0195941 0.2186721 1 0 1
0.1162089 0.01992493 0.2174125 1 0 1
0.249166 -0.04430586 0.6458381 1 0 1
0.2450536 -0.04024591 0.6213315 1 0 1
0.2501371 -0.04093343 0.628148 1 0 1
0.2526843 -0.04032306 0.6264153 1 0 1
0.2540545 -0.03914053 0.6208907 1 0 1
0.257452 -0.03894768 0.6219804 1 0 1
0.2608607 -0.03874683 0.6230559 1 0 1
0.2627679 -0.03783764 0.6194028 1 0 1
0.2655687 -0.03734482 0.618571 1 0 1
0.268676 -0.03698527 0.61867 1 0 1
0.2702197 -0.0359283 0.6140587 1 0 1
0.2726823 -0.03528325 0.6122614 1 0 1
0.2760965 -0.03504442 0.6132681 1 0 1
-0.06713094 0.02921407 0.1540391 1 0 1
-0.08183011 0.02233653 0.1970969 1 0 1
-0.08640284 0.01964939 0.2132993 1 0 1
-0.08784427 0.01826675 0.2211595 1 0 1
-0.08691219 0.01790993 0.2225091 1 0 1
-0.08531717 0.01785069 0.2219899 1 0 1
-0.08340421 0.01794388 0.2205294 1 0 1
-0.08182377 0.01789258 0.2199954 1 0 1
-0.07993262 0.01799472 0.2185179 1 0 1
-0.07774167 0.01825205 0.2160935 1 0 1
-0.0752618 0.01866614 0.2127189 1 0 1
-0.07311467 0.01893552 0.2102713 1 0 1
-0.07068598 0.01936259 0.2068716 1 0 1
-0.06917919 0.01933859 0.2062857 1 0 1
-0.06797264 0.01916487 0.2066367 1 0 1
-0.06618295 0.01930077 0.2050948 1 0 1
-0.06498078 0.01913287 0.2054352 1 0 1
-0.06377719 0.01896727 0.2057713 1 0 1
-0.06229229 0.01895921 0.2051557 1 0 1
-0.06108955 0.01879886 0.2054822 1 0 1
-0.0604306 0.01832863 0.2077033 1 0 1
-0.05948675 0.0180155 0.2089736 1 0 1
-0.05800369 0.01801782 0.2083389 1 0 1
-0.05704982 0.01770848 0.2096024 1 0 1
-0.05453984 0.0183483 0.2051444 1 0 1
-0.04901459 0.02089562 0.189224 1 0 1
-0.0328398 0.03028982 0.1322042 1 0 1
-0.01629776 0.02846517 0.1366681 1 0 1
-0.02183373 0.02242231 0.1717378 1 0 1
-0.02392837 0.01934927 0.1893856 1 0 1
-0.024508 0.01759878 0.1992849 1 0 1
-0.02383125 0.01701123 0.2023921 1 0 1
-0.02296624 0.01659129 0.2045265 1 0 1
-0.02192427 0.01633971 0.2056864 1 0 1
-0.02087398 0.01608995 0.2068431 1 0 1
-0.01966178 0.01600971 0.2070229 1 0 1
-0.01859865 0.01576387 0.2081728 1 0 1
-0.01723512 0.01585623 0.2073696 1 0 1
-0.01630527 0.01544622 0.2094873 1 0 1
-0.01508259 0.01537493 0.2096509 1 0 1
-0.0138592 0.01530595 0.2098103 1 0 1
-0.0125042 0.01540832 0.2089884 1 0 1
-0.01115607 0.01551348 0.2081612 1 0 1
-0.009444682 0.0161295 0.2043955 1 0 1
0.05754218 0.0179519 0.1967767 1 0 1
0.05899742 0.01751709 0.1996229 1 0 1
0.06018281 0.01758982 0.19952 1 0 1
0.06136784 0.01766488 0.1994128 1 0 1
0.06255236 0.01774219 0.1993015 1 0 1
0.06341013 0.0183235 0.1962463 1 0 1
0.06446978 0.01857152 0.1951482 1 0 1
0.06552137 0.01882132 0.1940467 1 0 1
0.06656487 0.01907279 0.1929419 1 0 1
0.06760024 0.01932595 0.1918338 1 0 1
0.06875528 0.01941495 0.1917003 1 0 1
0.06977823 0.01967167 0.1905853 1 0 1
0.07092831 0.01976484 0.190444 1 0 1
0.07221694 0.01969527 0.1912751 1 0 1
0.0735125 0.01962857 0.1921012 1 0 1
0.074815 0.01956473 0.192922 1 0 1
0.0762748 0.0193399 0.1947127 1 0 1
0.07728651 0.01960943 0.193574 1 0 1
0.0786059 0.01955407 0.1943798 1 0 1
0.07993213 0.01950164 0.1951804 1 0 1
0.08159618 0.01912714 0.1979212 1 0 1
0.08362057 0.01843288 0.2025986 1 0 1
0.08568188 0.01774466 0.2072658 1 0 1
0.08724963 0.01754683 0.2090098 1 0 1
0.0884705 0.01767491 0.2088063 1 0 1
0.08950627 0.01796592 0.2076288 1 0 1
0.0907217 0.01809829 0.2074173 1 0 1
0.0917445 0.01839281 0.2062331 1 0 1
0.09275889 0.01868884 0.2050459 1 0 1
0.09396417 0.01882744 0.2048227 1 0 1
0.09516856 0.01896847 0.2045953 1 0 1
0.09616524 0.01926978 0.2033979 1 0 1
0.09736402 0.01941496 0.2031626 1 0 1
0.09834755 0.01971965 0.2019588 1 0 1
0.09997655 0.01955579 0.2036422 1 0 1
0.1013978 0.01955233 0.2043557 1 0 1
0.1028254 0.01955215 0.2050634 1 0 1
0.1044886 0.0194001 0.2067261 1 0 1
0.1061655 0.01925242 0.2083811 1 0 1
0.1083293 0.01880069 0.2119472 1 0 1
0.1100412 0.01866285 0.2135852 1 0 1
0.1117667 0.0185295 0.2152154 1 0 1
0.1132583 0.01855329 0.2158809 1 0 1
0.1145047 0.01873273 0.2155842 1 0 1
0.1157499 0.01891461 0.2152832 1 0 1
0.1172526 0.01894792 0.2159317 1 0 1
0.25112 -0.04436897 0.6304927 1 0 1
0.2542559 -0.04404462 0.6306509 1 0 1
0.2544779 -0.04225548 0.6213436 1 0 1
0.257881 -0.04206863 0.6224317 1 0 1
0.2606971 -0.04158477 0.6216189 1 0 1
0.2622991 -0.04051952 0.6170273 1 0 1
0.2650941 -0.0400269 0.6161984 1 0 1
0.2675758 -0.03938612 0.6144194 1 0 1
0.2700469 -0.03874109 0.6126323 1 0 1
0.2728244 -0.03823315 0.6117752 1 0 1
0.2759195 -0.03786021 0.6118447 1 0 1
-0.05284556 0.0348315 0.1127806 1 0 1
-0.07684936 0.02395548 0.1797926 1 0 1
-0.08530865 0.01957547 0.2061513 1 0 1
-0.08748228 0.01786761 0.2158504 1 0 1
-0.08791055 0.01690425 0.2209176 1 0 1
-0.08664716 0.01669454 0.221335 1 0 1
-0.08505481 0.01663934 0.2208153 1 0 1
-0.08314432 0.01674042 0.2193549 1 0 1
-0.08156656 0.01669315 0.2188202 1 0 1
-0.07967795 0.01680321 0.2173428 1 0 1
-0.07748934 0.0170723 0.2149193 1 0 1
-0.07501168 0.01750207 0.2115463 1 0 1
-0.07286695 0.01778322 0.2090995 1 0 1
-0.07074245 0.01807003 0.2066419 1 0 1
-0.06893647 0.01820602 0.2051151 1 0 1
-0.06773287 0.01803243 0.205465 1 0 1
-0.06623681 0.01801876 0.2048669 1 0 1
-0.06474658 0.01800854 0.2042625 1 0 1
-0.06354592 0.01784308 0.2045975 1 0 1
-0.06234388 0.01768 0.2049283 1 0 1
-0.06114043 0.01751932 0.2052547 1 0 1
-0.06020837 0.01720095 0.2065257 1 0 1
-0.05926763 0.01688405 0.2077942 1 0 1
-0.0580528 0.01672953 0.2081098 1 0 1
-0.05709838 0.01641595 0.2093725 1 0 1
-0.05432892 0.01723681 0.2039655 1 0 1
-0.04600613 0.0216356 0.1775686 1 0 1
-0.01820078 0.02671573 0.141165 1 0 1
-0.02367294 0.02070881 0.1752246 1 0 1
-0.02528203 0.0180762 0.1899479 1 0 1
-0.02536783 0.01679663 0.1969301 1 0 1
-0.02505525 0.01585581 0.2019765 1 0 1
-0.02402934 0.01559657 0.2031418 1 0 1
-0.02316007 0.01516832 0.2052755 1 0 1
-0.02195251 0.01508349 0.2054632 1 0 1
-0.0209016 0.01482967 0.2066192 1 0 1
-0.01984238 0.01457766 0.2077722 1 0 1
-0.01877487 0.01432755 0.2089218 1 0 1
-0.01755291 0.01425133 0.2090941 1 0 1
-0.01647261 0.01400522 0.2102368 1 0 1
-0.01538403 0.01376102 0.2113761 1 0 1
-0.01401757 0.01386418 0.2105607 1 0 1
-0.01278902 0.01379722 0.2107162 1 0 1
-0.01117807 0.01425203 0.2079374 1 0 1
0.05693081 0.01794956 0.1896987 1 0 1
0.05873487 0.01681314 0.1964676 1 0 1
0.06000701 0.01671348 0.1973461 1 0 1
0.06128633 0.01661657 0.1982197 1 0 1
0.06236271 0.01686526 0.1971292 1 0 1
0.06332219 0.01728683 0.1950561 1 0 1
0.06426598 0.01770959 0.1929804 1 0 1
0.06542703 0.01779239 0.1928589 1 0 1
0.06646731 0.01804769 0.1917554 1 0 1
0.06762352 0.01813469 0.1916261 1 0 1
0.06877919 0.01822386 0.1914927 1 0 1
0.06980272 0.01848474 0.1903785 1 0 1
0.07095347 0.01857812 0.1902374 1 0 1
0.0722428 0.01850488 0.1910679 1 0 1
0.07353912 0.01843452 0.1918934 1 0 1
0.07469565 0.01853522 0.191739 1 0 1
0.07615252 0.01830246 0.193529 1 0 1
0.07716102 0.01857584 0.1923916 1 0 1
0.07847739 0.01851652 0.1931974 1 0 1
0.07963882 0.01862688 0.1930254 1 0 1
0.08129624 0.01824023 0.1957655 1 0 1
0.08314496 0.0176921 0.1994693 1 0 1
0.08536926 0.01681791 0.205106 1 0 1
0.08693037 0.0166118 0.20685 1 0 1
0.08832508 0.01657449 0.2076175 1 0 1
0.08954204 0.01670483 0.2074106 1 0 1
0.09075816 0.01683754 0.2071992 1 0 1
0.09178155 0.01713628 0.2060159 1 0 1
0.09299217 0.01727329 0.2057965 1 0 1
0.09400246 0.01757548 0.2046065 1 0 1
0.09520754 0.01771678 0.2043792 1 0 1
0.09620476 0.01802237 0.2031827 1 0 1
0.09740422 0.01816793 0.2029475 1 0 1
0.09838831 0.01847682 0.2017446 1 0 1
0.09980014 0.01846605 0.2024643 1 0 1
0.1012185 0.01845858 0.203178 1 0 1
0.1026432 0.01845444 0.203886 1 0 1
0.1040743 0.01845364 0.204588 1 0 1
0.1057448 0.01829756 0.2062436 1 0 1
0.1079024 0.0178297 0.2098089 1 0 1
0.1098482 0.01752589 0.2124052 1 0 1
0.111571 0.01738467 0.2140351 1 0 1
0.1135553 0.01709143 0.2166132 1 0 1
0.1148061 0.0172718 0.216316 1 0 1
0.1160556 0.01745465 0.2160142 1 0 1
0.1170451 0.0177949 0.2147545 1 0 1
0.1180259 0.0181365 0.2134922 1 0 1
0.257529 -0.04672212 0.6302853 1 0 1
0.2591967 -0.04564161 0.6257005 1 0 1
0.2617297 -0.04500563 0.6239416 1 0 1
0.2633435 -0.043922 0.6193501 1 0 1
0.2658444 -0.04327925 0.617578 1 0 1
0.2686449 -0.04277867 0.6167374 1 0 1
0.2711282 -0.0421266 0.6149483 1 0 1
0.2745531 -0.04190577 0.6159626 1 0 1
0.2767048 -0.04109875 0.6132184 1 0 1
-0.06719641 0.02767447 0.1505278 1 0 1
-0.08208869 0.02046882 0.1934652 1 0 1
-0.08742326 0.01735226 0.2114779 1 0 1
-0.08856208 0.01606393 0.218392 1 0 1
-0.08797606 0.01554305 0.2206705 1 0 1
-0.08671193 0.01533289 0.2210877 1 0 1
-0.08511869 0.0152811 0.2205686 1 0 1
-0.08320712 0.01538953 0.2191094 1 0 1
-0.08130828 0.01550274 0.2176412 1 0 1
-0.07910562 0.01577828 0.2152286 1 0 1
-0.07661006 0.01621792 0.2118683 1 0 1
-0.0744512 0.0165057 0.2094323 1 0 1
-0.07231247 0.01679921 0.2069853 1 0 1
-0.07049612 0.01693854 0.2054673 1 0 1
-0.06869278 0.01708243 0.2039408 1 0 1
-0.06749211 0.01690899 0.2042896 1 0 1
-0.06599882 0.01689937 0.203691 1 0 1
-0.06422386 0.01705503 0.2021422 1 0 1
-0.06331371 0.01672786 0.2034201 1 0 1
-0.06239484 0.01640202 0.2046958 1 0 1
-0.06146728 0.01607761 0.2059692 1 0 1
-0.06053101 0.01575456 0.2072403 1 0 1
-0.05931681 0.01559732 0.2075601 1 0 1
-0.05810129 0.01544243 0.2078756 1 0 1
-0.05636068 0.01562048 0.2062851 1 0 1
-0.05076054 0.01828873 0.19041 1 0 1
-0.03739446 0.02612601 0.1449663 1 0 1
-0.01956823 0.02545143 0.1427421 1 0 1
-0.02479257 0.01966185 0.1748245 1 0 1
-0.02664342 0.01679958 0.1904988 1 0 1
-0.0265725 0.01566561 0.196508 1 0 1
-0.02610299 0.01487808 0.2005831 1 0 1
-0.02543001 0.0142647 0.2036896 1 0 1
-0.02422717 0.01417527 0.2038852 1 0 1
-0.02318856 0.0139135 0.2050473 1 0 1
-0.0219803 0.01382847 0.2052351 1 0 1
-0.02092878 0.01357053 0.2063904 1 0 1
-0.01971519 0.01348997 0.2065702 1 0 1
-0.01865082 0.01323603 0.2077186 1 0 1
-0.01743194 0.01315991 0.2078903 1 0 1
-0.01635479 0.01290997 0.2090318 1 0 1
-0.01526933 0.01266189 0.2101699 1 0 1
-0.01390588 0.0127691 0.2093548 1 0 1
-0.01268043 0.01270219 0.2095098 1 0 1
-0.01119966 0.01299176 0.2077086 1 0 1
-0.009486324 0.01363891 0.2039484 1 0 1
0.05819089 0.01666186 0.1903719 1 0 1
0.059831 0.01585394 0.1951701 1 0 1
0.06120477 0.01557724 0.1970232 1 0 1
0.06238308 0.01565451 0.1969127 1 0 1
0.06334309 0.01608408 0.1948412 1 0 1
0.0642874 0.01651488 0.1927669 1 0 1
0.0654491 0.01659786 0.1926456 1 0 1
0.06661027 0.0166831 0.1925201 1 0 1
0.06752271 0.01711844 0.1904367 1 0 1
0.06867526 0.01720754 0.190304 1 0 1
0.06982725 0.01729893 0.190167 1 0 1
0.07097866 0.01739252 0.190026 1 0 1
0.07212947 0.01748835 0.1898809 1 0 1
0.07342272 0.01741401 0.1907064 1 0 1
0.07472292 0.01734258 0.1915266 1 0 1
0.07603007 0.01727405 0.1923418 1 0 1
0.07703534 0.0175512 0.1912058 1 0 1
0.0783487 0.01748786 0.1920116 1 0 1
0.07934503 0.01776882 0.1908684 1 0 1
0.08099589 0.01737009 0.1936076 1 0 1
0.08266865 0.01697582 0.1963393 1 0 1
0.08505619 0.01590786 0.2029439 1 0 1
0.08661066 0.01569348 0.204688 1 0 1
0.08836009 0.01531426 0.2073941 1 0 1
0.08976229 0.01527654 0.2081556 1 0 1
0.09098286 0.01541003 0.2079438 1 0 1
0.09181853 0.01588093 0.2057936 1 0 1
0.09302978 0.01601827 0.2055744 1 0 1
0.09404066 0.01632468 0.2043853 1 0 1
0.09524643 0.01646635 0.2041582 1 0 1
0.09624422 0.01677614 0.2029625 1 0 1
0.09744431 0.01692205 0.2027275 1 0 1
0.09864345 0.01707029 0.2024882 1 0 1
0.09984159 0.0172209 0.2022446 1 0 1
0.1012607 0.01720993 0.2029579 1 0 1
0.1024605 0.01736571 0.202705 1 0 1
0.1036593 0.01752382 0.2024477 1 0 1
0.1050902 0.01752187 0.203145 1 0 1
0.1072379 0.0170374 0.2067102 1 0 1
0.1094142 0.01655939 0.2102643 1 0 1
0.1113748 0.01624885 0.212851 1 0 1
0.1136045 0.01578351 0.2163836 1 0 1
0.1151076 0.01580448 0.2170411 1 0 1
0.1161062 0.01614761 0.215785 1 0 1
0.1173553 0.01633339 0.2154789 1 0 1
0.1183403 0.01667977 0.2142166 1 0 1
0.1187839 0.01734287 0.2110499 1 0 1
0.1208247 0.01706249 0.213584 1 0 1
0.2579536 -0.04988154 0.6307059 1 0 1
0.2602175 -0.04908948 0.6280093 1 0 1
0.2627629 -0.04844668 0.6262483 1 0 1
0.2640853 -0.04719304 0.620716 1 0 1
0.2675151 -0.04699683 0.6217623 1 0 1
0.2706458 -0.04664216 0.6218556 1 0 1
0.2728382 -0.04583149 0.6191234 1 0 1
0.2756478 -0.04531595 0.6182586 1 0 1
0.2778116 -0.04449809 0.615513 1 0 1
-0.04955085 0.03501774 0.1010759 1 0 1
-0.07632615 0.02254342 0.1743526 1 0 1
-0.08525992 0.01780786 0.2015602 1 0 1
-0.08885553 0.01539866 0.214938 1 0 1
-0.08896555 0.01455429 0.2190686 1 0 1
-0.08770607 0.01434176 0.2194891 1 0 1
-0.0864448 0.01413174 0.219905 1 0 1
-0.08485424 0.014084 0.2193852 1 0 1
-0.08294519 0.01420027 0.2179263 1 0 1
-0.08104891 0.01432135 0.2164582 1 0 1
-0.07853188 0.01477018 0.2131118 1 0 1
-0.07604215 0.015226 0.2097521 1 0 1
-0.07357978 0.01568867 0.206379 1 0 1
-0.07145078 0.01599505 0.2039309 1 0 1
-0.06994654 0.0159797 0.2033501 1 0 1
-0.06814946 0.01613201 0.2018227 1 0 1
-0.06725036 0.01579454 0.2031105 1 0 1
-0.06575988 0.01578892 0.2025116 1 0 1
-0.06456295 0.01562094 0.2028496 1 0 1
-0.0636486 0.01528904 0.2041278 1 0 1
-0.06272555 0.0149585 0.2054037 1 0 1
-0.06179377 0.01462935 0.2066772 1 0 1
-0.06058028 0.01446937 0.2070013 1 0 1
-0.05963475 0.01414353 0.2082692 1 0 1
-0.05814916 0.01415657 0.2076364 1 0 1
-0.05588353 0.01468042 0.204147 1 0 1
-0.03182865 0.02884111 0.1238322 1 0 1
-0.0201703 0.02488087 0.1404471 1 0 1
-0.02552929 0.01897159 0.1724852 1 0 1
-0.02763712 0.01587328 0.1891059 1 0 1
-0.02796114 0.0143612 0.1970439 1 0 1
-0.02732327 0.01373394 0.2001508 1 0 1
-0.0264856 0.01328499 0.2022893 1 0 1
-0.02563202 0.0128372 0.204426 1 0 1
-0.02442472 0.01274733 0.2046223 1 0 1
-0.0232166 0.01265981 0.2048143 1 0 1
-0.02216903 0.01239572 0.2059726 1 0 1
-0.02095553 0.01231264 0.2061566 1 0 1
-0.01974123 0.01223189 0.2063364 1 0 1
-0.01867625 0.01197388 0.2074841 1 0 1
-0.01745668 0.01189756 0.2076558 1 0 1
-0.0163789 0.01164358 0.2087965 1 0 1
-0.0151541 0.01157183 0.2089602 1 0 1
-0.01379367 0.01168297 0.2081453 1 0 1
-0.0124401 0.01179691 0.207325 1 0 1
-0.0107113 0.01245645 0.2035739 1 0 1
0.05147771 0.02657957 0.1295208 1 0 1
0.05945967 0.01537046 0.1910346 1 0 1
0.06112315 0.01454694 0.1958232 1 0 1
0.06240347 0.01444488 0.1966915 1 0 1
0.06336401 0.01488247 0.1946214 1 0 1
0.06442165 0.01514262 0.1935261 1 0 1
0.06570435 0.01504767 0.1943816 1 0 1
0.06663304 0.01548992 0.1923022 1 0 1
0.06767014 0.01575541 0.1911965 1 0 1
0.06869914 0.01602263 0.1900876 1 0 1
0.06985179 0.01611426 0.1899509 1 0 1
0.07086828 0.016385 0.1888352 1 0 1
0.07201594 0.01648071 0.1886907 1 0 1
0.07330618 0.01640244 0.189516 1 0 1
0.07445641 0.01650297 0.1893628 1 0 1
0.07575671 0.01643013 0.1901785 1 0 1
0.07675496 0.01671077 0.1890443 1 0 1
0.0780615 0.01664307 0.1898507 1 0 1
0.07937489 0.01657837 0.190652 1 0 1
0.08086091 0.01634241 0.1924185 1 0 1
0.08253084 0.0159364 0.1951488 1 0 1
0.08474267 0.01501458 0.2007798 1 0 1
0.08646756 0.01461892 0.2034926 1 0 1
0.08821426 0.01422792 0.2061975 1 0 1
0.08979808 0.014014 0.2079266 1 0 1
0.09101932 0.01414777 0.2077149 1 0 1
0.09223967 0.01428393 0.2074989 1 0 1
0.09326328 0.01459346 0.206313 1 0 1
0.09427845 0.01490455 0.205124 1 0 1
0.09508182 0.0153872 0.2029679 1 0 1
0.09628353 0.01553109 0.2027374 1 0 1
0.09727343 0.01584657 0.2015398 1 0 1
0.09846949 0.01599472 0.2013015 1 0 1
0.09966458 0.01614521 0.2010588 1 0 1
0.1013028 0.01596244 0.2027328 1 0 1
0.1025033 0.01611859 0.2024801 1 0 1
0.1037028 0.01627712 0.202223 1 0 1
0.1051344 0.01627164 0.2029198 1 0 1
0.1075203 0.01560625 0.2074397 1 0 1
0.1094609 0.015279 0.210034 1 0 1
0.111667 0.01479251 0.2135744 1 0 1
0.1139016 0.01431263 0.2171035 1 0 1
0.1151575 0.0144944 0.2168058 1 0 1
0.1164122 0.01467865 0.2165035 1 0 1
0.1176656 0.01486539 0.2161968 1 0 1
0.1189177 0.01505462 0.2158856 1 0 1
0.119902 0.0154078 0.2146197 1 0 1
0.2583782 -0.05304541 0.631113 1 0 1
0.2612388 -0.05255758 0.6303018 1 0 1
0.2628977 -0.05143965 0.6257155 1 0 1
0.2636143 -0.04985474 0.6183068 1 0 1
0.2661179 -0.04920196 0.6165373 1 0 1
0.2701637 -0.04931571 0.6194497 1 0 1
0.2720359 -0.04834404 0.6157851 1 0 1
0.2751539 -0.04798219 0.6158599 1 0 1
0.2773116 -0.0471567 0.6131185 1 0 1
-0.06335513 0.0279375 0.1368701 1 0 1
-0.08127379 0.01913243 0.1870561 1 0 1
-0.087051 0.01572105 0.2059391 1 0 1
-0.08926212 0.01389913 0.2156096 1 0 1
-0.08903007 0.01320005 0.2188116 1 0 1
-0.08743491 0.01314948 0.2183038 1 0 1
-0.08584519 0.01310267 0.2177891 1 0 1
-0.08491644 0.0127323 0.2191286 1 0 1
-0.08268218 0.01302005 0.2167393 1 0 1
-0.08078844 0.013149 0.2152715 1 0 1
-0.07827364 0.01361344 0.2119268 1 0 1
-0.07547285 0.01425079 0.2076337 1 0 1
-0.07301639 0.0147297 0.2042613 1 0 1
-0.07119952 0.01488136 0.2027503 1 0 1
-0.06969805 0.01487005 0.202169 1 0 1
-0.06820238 0.01486214 0.2015814 1 0 1
-0.06730278 0.01452046 0.2028683 1 0 1
-0.06581148 0.01451835 0.2022701 1 0 1
-0.06461385 0.01435002 0.2026081 1 0 1
-0.06369898 0.01401387 0.2038853 1 0 1
-0.06277539 0.0136791 0.2051604 1 0 1
-0.06184311 0.01334572 0.2064332 1 0 1
-0.06090209 0.01301378 0.2077036 1 0 1
-0.05968284 0.01285537 0.2080242 1 0 1
-0.05793059 0.01304451 0.2064437 1 0 1
-0.05592953 0.01341096 0.2039056 1 0 1
-0.04800437 0.0177731 0.1795006 1 0 1
-0.0272755 0.03103225 0.1065314 1 0 1
-0.01916466 0.0257662 0.1304436 1 0 1
-0.02586 0.01865951 0.1682152 1 0 1
-0.02823999 0.01531884 0.1857776 1 0 1
-0.02879408 0.0135958 0.1946718 1 0 1
-0.02835955 0.01277479 0.1987434 1 0 1
-0.0275335 0.01231641 0.2008826 1 0 1
-0.02669157 0.01185922 0.2030202 1 0 1
-0.02566096 0.01158509 0.2041881 1 0 1
-0.02445299 0.01149504 0.2043844 1 0 1
-0.02340942 0.0112248 0.2055456 1 0 1
-0.02235751 0.01095639 0.2067037 1 0 1
-0.02113952 0.01087286 0.2068883 1 0 1
-0.01992078 0.01079171 0.2070686 1 0 1
-0.01870126 0.01071292 0.2072446 1 0 1
-0.01762737 0.01045269 0.2083884 1 0 1
-0.01640259 0.01037842 0.2085563 1 0 1
-0.01517711 0.01030654 0.20872 1 0 1
-0.0138159 0.01042142 0.2079058 1 0 1
-0.01246159 0.01053913 0.2070863 1 0 1
-0.01060441 0.01139903 0.2023637 1 0 1
0.05869738 0.01565377 0.1829875 1 0 1
0.06083858 0.01389224 0.1926643 1 0 1
0.0623187 0.01341956 0.1954879 1 0 1
0.06349403 0.01349921 0.1953739 1 0 1
0.06444321 0.01394625 0.1933025 1 0 1
0.06560999 0.01402994 0.193181 1 0 1
0.06665582 0.01429787 0.1920795 1 0 1
0.06756926 0.01474925 0.1899992 1 0 1
0.06859503 0.0150203 0.1888916 1 0 1
0.0697445 0.0151118 0.1887554 1 0 1
0.07075778 0.01538642 0.187641 1 0 1
0.07176284 0.01566259 0.1865235 1 0 1
0.07304621 0.01557999 0.1873492 1 0 1
0.07418951 0.01568012 0.1871972 1 0 1
0.07548299 0.01560293 0.1880133 1 0 1
0.07647421 0.01588702 0.1868811 1 0 1
0.07809059 0.01545741 0.1896301 1 0 1
0.07924261 0.0155675 0.1894602 1 0 1
0.08089159 0.01514563 0.1921961 1 0 1
0.08222316 0.01508366 0.1929856 1 0 1
0.08425523 0.01431539 0.1976448 1 0 1
0.08596981 0.01390718 0.2003575 1 0 1
0.08806816 0.01315061 0.2049973 1 0 1
0.08964907 0.01292881 0.2067258 1 0 1
0.09105571 0.01288678 0.2074812 1 0 1
0.09189225 0.01337387 0.2053342 1 0 1
0.09290889 0.01368676 0.2041504 1 0 1
0.0939171 0.01400118 0.2029638 1 0 1
0.09471342 0.01449106 0.2008107 1 0 1
0.09590828 0.01463438 0.2005818 1 0 1
0.09710222 0.01478008 0.2003486 1 0 1
0.09850992 0.0147555 0.2010725 1 0 1
0.09970568 0.01490634 0.20083 1 0 1
0.1011226 0.01488787 0.201543 1 0 1
0.10232 0.0150439 0.2012912 1 0 1
0.1032868 0.015373 0.200077 1 0 1
0.1047118 0.01536303 0.2007749 1 0 1
0.1068545 0.01484739 0.2043364 1 0 1
0.1092666 0.01416907 0.2088428 1 0 1
0.1114703 0.01366696 0.2123814 1 0 1
0.1137024 0.01317152 0.2159088 1 0 1
0.1152072 0.01318563 0.2165653 1 0 1
0.1164625 0.01337032 0.2162632 1 0 1
0.1174573 0.01372396 0.2150055 1 0 1
0.1184434 0.01407901 0.213745 1 0 1
0.1196876 0.01426996 0.2134313 1 0 1
0.1203897 0.01479306 0.2112162 1 0 1
0.2643334 -0.05716965 0.639169 1 0 1
0.2645309 -0.05522914 0.6298731 1 0 1
0.2649626 -0.05345376 0.621525 1 0 1
0.2674821 -0.05279347 0.6197526 1 0 1
0.2706124 -0.05244482 0.6198467 1 0 1
0.2724892 -0.05145991 0.6161837 1 0 1
0.2752948 -0.05094324 0.6153222 1 0 1
0.2771319 -0.04995299 0.6116488 1 0 1
-0.070819 0.02349488 0.1560199 1 0 1
-0.08447864 0.01643377 0.1951214 1 0 1
-0.0884973 0.01376146 0.2093817 1 0 1
-0.08932602 0.01255829 0.2153496 1 0 1
-0.08875508 0.01201283 0.217623 1 0 1
-0.08716267 0.0119663 0.2171147 1 0 1
-0.08557563 0.01192349 0.2165994 1 0 1
-0.08432204 0.01171688 0.2170071 1 0 1
-0.0824181 0.01184889 0.2155485 1 0 1
-0.08052692 0.01198573 0.214081 1 0 1
-0.07801437 0.0124658 0.210738 1 0 1
-0.07521566 0.0131226 0.2064474 1 0 1
-0.07338118 0.01327642 0.2049476 1 0 1
-0.07125345 0.01360578 0.2025027 1 0 1
-0.06944858 0.01376934 0.2009844 1 0 1
-0.06825464 0.01359355 0.201335 1 0 1
-0.06705924 0.01342008 0.2016814 1 0 1
-0.06557076 0.01342204 0.2010828 1 0 1
-0.06437612 0.01325386 0.2014197 1 0 1
-0.06346439 0.01291398 0.2026951 1 0 1
-0.06254394 0.0125755 0.2039683 1 0 1
-0.0616148 0.0122384 0.2052393 1 0 1
-0.06067692 0.01190272 0.206508 1 0 1
-0.05919102 0.01192042 0.2058808 1 0 1
-0.05744512 0.01211797 0.2042997 1 0 1
-0.05545035 0.01249669 0.201762 1 0 1
-0.04571801 0.01820187 0.1707278 1 0 1
-0.01544461 0.02910933 0.1079579 1 0 1
-0.02556243 0.01893053 0.1610609 1 0 1
-0.02842895 0.01515763 0.1805227 1 0 1
-0.02941992 0.0130329 0.1913325 1 0 1
-0.02920017 0.01201139 0.1963652 1 0 1
-0.02857371 0.01135898 0.1994697 1 0 1
-0.02756307 0.01107759 0.2006421 1 0 1
-0.02672064 0.01061236 0.2027781 1 0 1
-0.02586231 0.01014829 0.2049125 1 0 1
-0.0246499 0.0100578 0.2051094 1 0 1
-0.02343665 0.009969643 0.2053019 1 0 1
-0.02238412 0.009697156 0.2064593 1 0 1
-0.02116547 0.00961344 0.2066439 1 0 1
-0.01994603 0.009532126 0.2068242 1 0 1
-0.01872583 0.009453163 0.2070002 1 0 1
-0.01765133 0.009188901 0.2081432 1 0 1
-0.01642589 0.009114492 0.2083112 1 0 1
-0.01506083 0.009230569 0.2075025 1 0 1
-0.01383774 0.009161117 0.2076613 1 0 1
-0.01248268 0.009282606 0.2068427 1 0 1
-0.00985941 0.01129441 0.1962816 1 0 1
0.04876246 0.0320767 0.09095786 1 0 1
0.06055367 0.01326204 0.1895052 1 0 1
0.06233919 0.01221615 0.1952578 1 0 1
0.06362429 0.01210929 0.1961203 1 0 1
0.06457776 0.01256463 0.19405 1 0 1
0.065749 0.01264878 0.1939283 1 0 1
0.06679918 0.01292115 0.1928272 1 0 1
0.06771688 0.01338078 0.1907482 1 0 1
0.06874701 0.01365624 0.189641 1 0 1
0.0699009 0.01374828 0.1895044 1 0 1
0.07091852 0.01402728 0.1883905 1 0 1
0.07178844 0.01449231 0.1863004 1 0 1
0.0730725 0.01440607 0.1871255 1 0 1
0.07421645 0.01450649 0.1869737 1 0 1
0.07520888 0.01479246 0.1858464 1 0 1
0.0765024 0.01471391 0.1866578 1 0 1
0.07796122 0.01445558 0.1884344 1 0 1
0.07911012 0.01456561 0.1882652 1 0 1
0.08059021 0.01431394 0.1900304 1 0 1
0.081915 0.01424761 0.1908206 1 0 1
0.08359362 0.0138219 0.1935414 1 0 1
0.08529407 0.01340079 0.1962545 1 0 1
0.08737852 0.01262353 0.2008932 1 0 1
0.08913013 0.01221264 0.2035891 1 0 1
0.09090345 0.01180662 0.2062768 1 0 1
0.09192903 0.01212221 0.205097 1 0 1
0.09314231 0.01226053 0.2048783 1 0 1
0.09395497 0.01275789 0.2027284 1 0 1
0.09495529 0.01307799 0.2015397 1 0 1
0.09594723 0.01339957 0.2003483 1 0 1
0.09714182 0.0135456 0.2001153 1 0 1
0.09855025 0.01351747 0.2008385 1 0 1
0.09952805 0.01384473 0.1996365 1 0 1
0.100942 0.01382225 0.2003497 1 0 1
0.1023625 0.01380313 0.2010572 1 0 1
0.1035595 0.01396189 0.2008013 1 0 1
0.1047555 0.01412304 0.2005412 1 0 1
0.1068994 0.01359233 0.2041 1 0 1
0.1090719 0.01306809 0.207648 1 0 1
0.1115178 0.01237794 0.2121389 1 0 1
0.1137511 0.01186747 0.2156635 1 0 1
0.1155089 0.0117067 0.2172719 1 0 1
0.1167686 0.01189237 0.2169693 1 0 1
0.1177675 0.01225084 0.2157115 1 0 1
0.1187579 0.01261075 0.214451 1 0 1
0.1200064 0.01280276 0.2141367 1 0 1
0.1204419 0.01350319 0.2109745 1 0 1
0.1233224 0.01269008 0.2163351 1 0 1
0.2659495 -0.06103342 0.6433058 1 0 1
0.2661651 -0.05905413 0.6340116 1 0 1
0.2669188 -0.05740678 0.6266034 1 0 1
0.2691544 -0.05657522 0.6238881 1 0 1
0.2719938 -0.05606404 0.62304 1 0 1
0.2742006 -0.05522493 0.6203108 1 0 1
0.2763894 -0.05438288 0.6175757 1 0 1
0.2782384 -0.05337796 0.6139017 1 0 1
-0.04691382 0.03422842 0.09109624 1 0 1
-0.076524 0.01972685 0.1705311 1 0 1
-0.08663716 0.01417005 0.2004029 1 0 1
-0.08925215 0.01210889 0.2109671 1 0 1
-0.08973164 0.01104983 0.2160086 1 0 1
-0.08881787 0.01066512 0.2173561 1 0 1
-0.08722457 0.01062199 0.2168484 1 0 1
-0.08596838 0.01041184 0.2172615 1 0 1
-0.08438239 0.01037558 0.2167413 1 0 1
-0.08215289 0.01068673 0.214354 1 0 1
-0.07994344 0.01100397 0.2119554 1 0 1
-0.07743677 0.01150018 0.2086132 1 0 1
-0.0746438 0.012177 0.2043241 1 0 1
-0.07281556 0.01233932 0.2028235 1 0 1
-0.07130669 0.01233144 0.20225 1 0 1
-0.06950085 0.01250239 0.2007332 1 0 1
-0.06800715 0.01250202 0.2001458 1 0 1
-0.06681472 0.01232871 0.200491 1 0 1
-0.06562088 0.01215782 0.2008321 1 0 1
-0.06442557 0.01198926 0.2011688 1 0 1
-0.06351334 0.01164518 0.2024434 1 0 1
-0.06259236 0.01130248 0.2037158 1 0 1
-0.06166269 0.01096118 0.2049859 1 0 1
-0.06072427 0.01062129 0.2062537 1 0 1
-0.05923755 0.01064253 0.2056272 1 0 1
-0.05695849 0.01120816 0.2021538 1 0 1
-0.05418268 0.01214147 0.1967728 1 0 1
-0.04161745 0.01997036 0.1553226 1 0 1
-0.02460194 0.01981656 0.1510361 1 0 1
-0.02917703 0.01447307 0.1781594 1 0 1
-0.03021809 0.01230738 0.1889556 1 0 1
-0.03021708 0.01107797 0.194947 1 0 1
-0.02941821 0.01060118 0.1970868 1 0 1
-0.02860338 0.01012543 0.1992251 1 0 1
-0.02759216 0.009839982 0.2003967 1 0 1
-0.02674925 0.009366763 0.2025312 1 0 1
-0.02571748 0.0090845 0.2036975 1 0 1
-0.02467734 0.008804002 0.2048608 1 0 1
-0.023298 0.00890602 0.2040857 1 0 1
-0.02224866 0.008629736 0.2052417 1 0 1
-0.02119096 0.008355275 0.2063945 1 0 1
-0.01997086 0.008273758 0.2065749 1 0 1
-0.01874998 0.008194673 0.2067509 1 0 1
-0.0178214 0.007734786 0.2088635 1 0 1
-0.01644873 0.007851741 0.208061 1 0 1
-0.01494398 0.008163636 0.2062816 1 0 1
-0.01331853 0.008671016 0.203524 1 0 1
-0.01145243 0.009566926 0.1988143 1 0 1
-0.007837525 0.01316433 0.1804744 1 0 1
0.06214892 0.01139576 0.1930711 1 0 1
0.06353633 0.01109404 0.1949092 1 0 1
0.0645995 0.01136675 0.1938162 1 0 1
0.06577134 0.01145107 0.1936945 1 0 1
0.06682211 0.01172757 0.1925944 1 0 1
0.06774031 0.01219522 0.1905169 1 0 1
0.06877098 0.01247477 0.1894107 1 0 1
0.0699255 0.01256708 0.1892742 1 0 1
0.07094369 0.01285022 0.1881611 1 0 1
0.07181405 0.01332323 0.1860728 1 0 1
0.07309879 0.01323335 0.1868972 1 0 1
0.0740962 0.0135216 0.1857744 1 0 1
0.07523631 0.0136241 0.1856191 1 0 1
0.0763758 0.01372888 0.1854598 1 0 1
0.07783168 0.01346269 0.1872356 1 0 1
0.07897737 0.0135726 0.1870672 1 0 1
0.08028848 0.01349895 0.187863 1 0 1
0.08143652 0.01361373 0.1876858 1 0 1
0.08310475 0.01317551 0.1904064 1 0 1
0.08479488 0.01274191 0.1931192 1 0 1
0.08686919 0.01194439 0.1977562 1 0 1
0.0887954 0.01133713 0.2014174 1 0 1
0.0905622 0.01091893 0.2041043 1 0 1
0.09177326 0.01105477 0.2038908 1 0 1
0.09298345 0.01119305 0.2036729 1 0 1
0.09399273 0.01151588 0.2024882 1 0 1
0.09499361 0.01184022 0.2013004 1 0 1
0.09619354 0.01198469 0.2010711 1 0 1
0.09739251 0.01213153 0.2008375 1 0 1
0.0985905 0.01228072 0.2005997 1 0 1
0.09956881 0.01261222 0.1993986 1 0 1
0.1009835 0.01258623 0.2001113 1 0 1
0.1021785 0.01274254 0.1998607 1 0 1
0.1033725 0.01290117 0.1996058 1 0 1
0.1045654 0.01306218 0.1993466 1 0 1
0.1064694 0.01269331 0.2019485 1 0 1
0.1083946 0.01232993 0.2045411 1 0 1
0.1108306 0.01161931 0.209031 1 0 1
0.1130541 0.01109226 0.2125555 1 0 1
0.1150539 0.0107473 0.2151169 1 0 1
0.1165628 0.01075755 0.215767 1 0 1
0.1175586 0.01111978 0.2145111 1 0 1
0.1188091 0.01130973 0.2142015 1 0 1
0.1200583 0.01150224 0.2138874 1 0 1
0.1213062 0.01169715 0.2135688 1 0 1
0.1236505 0.01120698 0.2170302 1 0 1
0.2675005 -0.0627467 0.6371917 1 0 1
0.2694843 -0.06173662 0.6335369 1 0 1
0.2702131 -0.06005939 0.6261305 1 0 1
0.2724428 -0.05921387 0.6234082 1 0 1
0.2740249 -0.05803538 0.6188105 1 0 1
0.2765296 -0.05734932 0.6170121 1 0 1
0.2780575 -0.05616812 0.6124085 1 0 1
-0.06016235 0.0271053 0.124913 1 0 1
-0.08152749 0.01617872 0.1831737 1 0 1
-0.08844731 0.01203301 0.2047492 1 0 1
-0.09000696 0.01044232 0.2125442 1 0 1
-0.0897942 0.009707844 0.2157373 1 0 1
-0.08854081 0.009492206 0.2161592 1 0 1
-0.0872857 0.009279069 0.2165767 1 0 1
-0.08569696 0.009243084 0.2160628 1 0 1
-0.08378543 0.009385956 0.2146138 1 0 1
-0.08188665 0.009533715 0.2131559 1 0 1
-0.07903752 0.01021533 0.2088973 1 0 1
-0.07654035 0.01072825 0.2055546 1 0 1
-0.07375679 0.01142566 0.201266 1 0 1
-0.07224862 0.01141889 0.2006974 1 0 1
-0.07043965 0.01159424 0.1991874 1 0 1
-0.06924953 0.01141583 0.1995409 1 0 1
-0.06775869 0.0114195 0.1989532 1 0 1
-0.06686487 0.01106616 0.2002354 1 0 1
-0.06537841 0.01107563 0.1996371 1 0 1
-0.06447437 0.01072597 0.200913 1 0 1
-0.06356165 0.01037771 0.2021868 1 0 1
-0.0623592 0.01021304 0.202516 1 0 1
-0.06115535 0.01005077 0.202841 1 0 1
-0.06022378 0.009707613 0.204106 1 0 1
-0.05847366 0.009917146 0.2025331 1 0 1
-0.05647069 0.01031509 0.2000061 1 0 1
-0.0537008 0.01127228 0.1946278 1 0 1
-0.04113643 0.01927211 0.1532102 1 0 1
-0.02170295 0.02249377 0.1323973 1 0 1
-0.02848799 0.01514427 0.1690715 1 0 1
-0.0308014 0.01179144 0.1856149 1 0 1
-0.03103062 0.01034739 0.1925611 1 0 1
-0.03043905 0.009669506 0.1956632 1 0 1
-0.02963594 0.009184404 0.197802 1 0 1
-0.02863257 0.008893108 0.1989757 1 0 1
-0.02762079 0.00860355 0.2001464 1 0 1
-0.02660061 0.008315765 0.2013143 1 0 1
-0.02557203 0.008029742 0.2024791 1 0 1
-0.02436581 0.007939369 0.2026747 1 0 1
-0.02315875 0.007851393 0.2028661 1 0 1
-0.02211259 0.007571301 0.2040207 1 0 1
-0.02105808 0.007293079 0.2051721 1 0 1
-0.01999525 0.007016704 0.2063205 1 0 1
-0.01892406 0.006742163 0.2074657 1 0 1
-0.01799117 0.006274123 0.2095774 1 0 1
-0.01647116 0.00659032 0.2078059 1 0 1
-0.0149656 0.006909841 0.2060281 1 0 1
-0.01320405 0.007624924 0.2023016 1 0 1
-0.01147221 0.008343994 0.1985671 1 0 1
0.06185305 0.01078688 0.1899075 1 0 1
0.06355754 0.009893268 0.1946698 1 0 1
0.06462126 0.01017008 0.1935776 1 0 1
0.06591062 0.01006067 0.1944301 1 0 1
0.06684508 0.01053519 0.1923568 1 0 1
0.06788823 0.01081749 0.1912542 1 0 1
0.06892326 0.0111014 0.1901484 1 0 1
0.07008218 0.01119423 0.1900117 1 0 1
0.07110468 0.01148178 0.188899 1 0 1
0.07197931 0.01196314 0.1868118 1 0 1
0.07312509 0.01206179 0.1866643 1 0 1
0.07412303 0.01235418 0.1855424 1 0 1
0.07526376 0.01245694 0.1853872 1 0 1
0.07640386 0.01256195 0.1852281 1 0 1
0.07786055 0.01228827 0.1870025 1 0 1
0.07916927 0.01220842 0.1878024 1 0 1
0.08031865 0.01232122 0.1876294 1 0 1
0.08163729 0.01224693 0.1884195 1 0 1
0.08296273 0.01217566 0.1892043 1 0 1
0.08465004 0.0117304 0.1919155 1 0 1
0.08654044 0.01110155 0.1955842 1 0 1
0.08846019 0.01047827 0.1992437 1 0 1
0.09040923 0.009860651 0.2028939 1 0 1
0.09180978 0.009809551 0.2036444 1 0 1
0.09321695 0.009761624 0.2043894 1 0 1
0.09403042 0.01027513 0.2022429 1 0 1
0.09523568 0.01041805 0.2020173 1 0 1
0.0960248 0.01093363 0.1998665 1 0 1
0.09722062 0.01108037 0.1996338 1 0 1
0.09841552 0.01122944 0.1993969 1 0 1
0.09939061 0.01156469 0.1981975 1 0 1
0.1008024 0.01153471 0.1989104 1 0 1
0.1022206 0.01150814 0.1996174 1 0 1
0.1034152 0.01166715 0.1993628 1 0 1
0.1048425 0.01164675 0.200059 1 0 1
0.1065138 0.01144853 0.2017036 1 0 1
0.1081987 0.01125468 0.2033406 1 0 1
0.1106324 0.01052468 0.2078279 1 0 1
0.1128534 0.009982125 0.2113504 1 0 1
0.115103 0.009446314 0.2148616 1 0 1
0.1163566 0.009631777 0.2145611 1 0 1
0.117609 0.009819712 0.2142562 1 0 1
0.1185967 0.0101876 0.2129986 1 0 1
0.12011 0.01020303 0.2136329 1 0 1
0.1208168 0.01075105 0.2114219 1 0 1
0.1228805 0.01042056 0.2139371 1 0 1
0.2676355 -0.06578102 0.6366005 1 0 1
0.2693164 -0.06458755 0.6320114 1 0 1
0.2700418 -0.062883 0.6246119 1 0 1
0.2707126 -0.06118191 0.6172172 1 0 1
0.2732184 -0.06049731 0.6154317 1 0 1
0.2753949 -0.05964018 0.6127052 1 0 1
0.2762646 -0.05811032 0.6062461 1 0 1
-0.06628073 0.02317992 0.1403143 1 0 1
-0.08299945 0.01427122 0.1866002 1 0 1
-0.08885847 0.01056022 0.2054017 1 0 1
-0.08972243 0.009289649 0.2113486 1 0 1
-0.08917022 0.00872035 0.2136153 1 0 1
-0.08826263 0.008328291 0.2149586 1 0 1
-0.08667478 0.008293191 0.2144497 1 0 1
-0.08476034 0.008440208 0.2130079 1 0 1
-0.08285862 0.008592152 0.2115569 1 0 1
-0.08064482 0.00892854 0.2091683 1 0 1
-0.07780868 0.009631308 0.204909 1 0 1
-0.07532465 0.01016151 0.201565 1 0 1
-0.07286809 0.01069873 0.1982076 1 0 1
-0.07168035 0.0105152 0.1985695 1 0 1
-0.07049109 0.01033406 0.1989271 1 0 1
-0.06899728 0.01033829 0.1983453 1 0 1
-0.06780867 0.01016242 0.1986935 1 0 1
-0.06691433 0.009804878 0.1999748 1 0 1
-0.06542709 0.009817831 0.1993773 1 0 1
-0.06423412 0.009649073 0.1997128 1 0 1
-0.06303976 0.009482725 0.2000442 1 0 1
-0.06184401 0.00931871 0.2003714 1 0 1
-0.06064686 0.009157112 0.2006943 1 0 1
-0.05944835 0.008997876 0.2010131 1 0 1
-0.05770833 0.009216168 0.1994388 1 0 1
-0.05571534 0.009626872 0.1969112 1 0 1
-0.05242967 0.01098539 0.1896423 1 0 1
-0.03858226 0.02010231 0.1435191 1 0 1
-0.01802565 0.02589115 0.1109355 1 0 1
-0.02835033 0.01529884 0.1628792 1 0 1
-0.03136151 0.01130064 0.1822748 1 0 1
-0.03202808 0.009439622 0.1911327 1 0 1
-0.03164777 0.008553213 0.1951945 1 0 1
-0.03066069 0.008254456 0.1963729 1 0 1
-0.02947704 0.008153759 0.1965863 1 0 1
-0.0284769 0.00785869 0.1977584 1 0 1
-0.02746831 0.007565364 0.1989277 1 0 1
-0.02645131 0.007273777 0.200094 1 0 1
-0.02542594 0.006983943 0.2012575 1 0 1
-0.02422283 0.006893718 0.2014524 1 0 1
-0.02301888 0.006805827 0.2016432 1 0 1
-0.02197592 0.006521957 0.2027964 1 0 1
-0.02092461 0.006239903 0.2039465 1 0 1
-0.01986494 0.005959725 0.2050934 1 0 1
-0.01894741 0.005482315 0.2072057 1 0 1
-0.01786731 0.005205675 0.2083468 1 0 1
-0.01635031 0.005529748 0.2065764 1 0 1
-0.01470865 0.006056922 0.2038298 1 0 1
-0.01241263 0.007587926 0.1962239 1 0 1
-0.009650677 0.009925623 0.1847226 1 0 1
0.06336017 0.009090511 0.1924775 1 0 1
0.06464309 0.008974594 0.1933343 1 0 1
0.06581622 0.009059388 0.1932129 1 0 1
0.06686809 0.009344023 0.1921145 1 0 1
0.06778724 0.009827667 0.1900405 1 0 1
0.06894736 0.009918472 0.189908 1 0 1
0.07010691 0.01001151 0.1897713 1 0 1
0.07112996 0.0103032 0.1886596 1 0 1
0.072005 0.01079254 0.1865742 1 0 1
0.07315142 0.01089142 0.1864267 1 0 1
0.07414982 0.0111879 0.1853057 1 0 1
0.07529121 0.01129097 0.1851507 1 0 1
0.07643192 0.01139624 0.1849917 1 0 1
0.07773069 0.01130941 0.1857967 1 0 1
0.07903631 0.01122553 0.1865965 1 0 1
0.08018254 0.01133825 0.1864242 1 0 1
0.08149809 0.01126 0.1872142 1 0 1
0.08264663 0.01137765 0.1870333 1 0 1
0.08432727 0.01092023 0.1897436 1 0 1
0.08621117 0.01027544 0.1934105 1 0 1
0.0881245 0.009636223 0.1970683 1 0 1
0.09006705 0.009002583 0.2007168 1 0 1
0.09184624 0.008565514 0.2033932 1 0 1
0.09325416 0.008514116 0.2041375 1 0 1
0.09426825 0.008845765 0.2029539 1 0 1
0.0954779 0.008989455 0.2027279 1 0 1
0.09627116 0.009513541 0.200578 1 0 1
0.09747136 0.00966108 0.2003448 1 0 1
0.09867067 0.009811021 0.2001073 1 0 1
0.09964997 0.01015088 0.1989081 1 0 1
0.1010662 0.01011797 0.1996196 1 0 1
0.1022625 0.010275 0.1993694 1 0 1
0.1034577 0.01043439 0.1991149 1 0 1
0.1046519 0.01059617 0.1988562 1 0 1
0.1060827 0.01057522 0.1995467 1 0 1
0.1075198 0.0105576 0.2002313 1 0 1
0.1099436 0.009807223 0.2047174 1 0 1
0.1124035 0.009064548 0.2091907 1 0 1
0.1143943 0.008695707 0.2117506 1 0 1
0.1158937 0.008697457 0.2124023 1 0 1
0.1171393 0.008884711 0.2120994 1 0 1
0.1183837 0.009074448 0.2117921 1 0 1
0.1196268 0.009266665 0.2114803 1 0 1
0.1205977 0.009641504 0.2102185 1 0 1
0.1221093 0.009658561 0.2108433 1 0 1
0.1236269 0.009679168 0.2114619 1 0 1
0.2718847 -0.06899914 0.6389036 1 0 1
0.2723318 -0.06708753 0.6305661 1 0 1
0.2724055 -0.06500731 0.6213011 1 0 1
0.2752458 -0.06448697 0.6204447 1 0 1
0.2771267 -0.06344504 0.6167816 1 0 1
0.2776926 -0.06171635 0.609391 1 0 1
-0.04310841 0.0341992 0.07840975 1 0 1
-0.07562087 0.01752445 0.1639362 1 0 1
-0.08659479 0.01126316 0.1955243 1 0 1
-0.09031978 0.008543582 0.2088057 1 0 1
-0.09012998 0.007786438 0.2119907 1 0 1
-0.08923086 0.007388784 0.2133351 1 0 1
-0.08798333 0.007173496 0.2137543 1 0 1
-0.08673406 0.006960717 0.2141692 1 0 1
-0.08481862 0.007114993 0.2127288 1 0 1
-0.08258729 0.007457053 0.2103527 1 0 1
-0.08005094 0.007988594 0.2070375 1 0 1
-0.0775419 0.008527295 0.2037088 1 0 1
-0.0747425 0.00925767 0.1994367 1 0 1
-0.07260602 0.009625811 0.1970115 1 0 1
-0.07142126 0.009442452 0.197372 1 0 1
-0.07023498 0.009261482 0.1977285 1 0 1
-0.06874403 0.009269735 0.1971463 1 0 1
-0.06755842 0.00909407 0.1974934 1 0 1
-0.06637137 0.008920721 0.1978362 1 0 1
-0.06518283 0.00874977 0.1981748 1 0 1
-0.06370434 0.008770171 0.1975707 1 0 1
-0.06251664 0.008604468 0.1979 1 0 1
-0.06132759 0.008441128 0.1982251 1 0 1
-0.06013715 0.008280187 0.1985459 1 0 1
-0.05867146 0.008312555 0.19792 1 0 1
-0.05694159 0.008539705 0.1963444 1 0 1
-0.05469207 0.009155025 0.1928717 1 0 1
-0.04984245 0.01170036 0.1799328 1 0 1
-0.03421105 0.02236095 0.1272155 1 0 1
-0.01353544 0.03003957 0.08666652 1 0 1
-0.02732325 0.01629202 0.1528686 1 0 1
-0.03148429 0.01123191 0.1770193 1 0 1
-0.03261108 0.008940607 0.1877811 1 0 1
-0.03245728 0.007839341 0.1927982 1 0 1
-0.03167766 0.007335652 0.194938 1 0 1
-0.03069006 0.007032838 0.1961155 1 0 1
-0.02950576 0.006931895 0.1963288 1 0 1
-0.02850505 0.006632754 0.1975001 1 0 1
-0.02749592 0.006335385 0.1986685 1 0 1
-0.02647836 0.006039693 0.199834 1 0 1
-0.0252792 0.005947207 0.2000325 1 0 1
-0.02407921 0.005857047 0.2002269 1 0 1
-0.02287842 0.005769262 0.2004171 1 0 1
-0.02183867 0.005481601 0.2015688 1 0 1
-0.02079054 0.005195771 0.2027175 1 0 1
-0.01988838 0.004709071 0.2048301 1 0 1
-0.01897032 0.004223721 0.2069406 1 0 1
-0.01803637 0.003739787 0.209049 1 0 1
-0.01651476 0.004071211 0.2072808 1 0 1
-0.01486847 0.004609728 0.2045372 1 0 1
-0.01270284 0.005967559 0.1979079 1 0 1
-0.009274166 0.009371955 0.181567 1 0 1
0.05126955 0.02720924 0.09895483 1 0 1
0.06316254 0.008304457 0.1902838 1 0 1
0.06477816 0.007578349 0.194059 1 0 1
0.06595574 0.00766363 0.1939374 1 0 1
0.06713277 0.007751251 0.1938115 1 0 1
0.06805998 0.008243406 0.1917384 1 0 1
0.06909992 0.008535883 0.190634 1 0 1
0.07026389 0.008629465 0.1904971 1 0 1
0.07129125 0.008925541 0.1893858 1 0 1
0.07217056 0.009423245 0.1873016 1 0 1
0.07332136 0.009522683 0.1871538 1 0 1
0.0743241 0.009823628 0.1860332 1 0 1
0.07531864 0.01012617 0.1849096 1 0 1
0.07645994 0.0102317 0.1847507 1 0 1
0.0777594 0.01014128 0.185555 1 0 1
0.07890313 0.01025165 0.1853875 1 0 1
0.08004615 0.01036428 0.185216 1 0 1
0.08135865 0.01028206 0.1860059 1 0 1
0.08250403 0.01039958 0.1858257 1 0 1
0.08400407 0.01012677 0.1875701 1 0 1
0.08588146 0.009466002 0.1912352 1 0 1
0.08778824 0.008810814 0.1948913 1 0 1
0.08991344 0.007966205 0.1995004 1 0 1
0.09188262 0.007322818 0.203137 1 0 1
0.09348787 0.007073642 0.2048418 1 0 1
0.09450626 0.007409958 0.2036585 1 0 1
0.09572029 0.00755441 0.2034319 1 0 1
0.09672549 0.007894158 0.202242 1 0 1
0.09772233 0.008235391 0.2010493 1 0 1
0.09871058 0.008578063 0.1998538 1 0 1
0.09969041 0.008922195 0.1986555 1 0 1
0.1008846 0.009076725 0.1984105 1 0 1
0.1023043 0.009043193 0.1991164 1 0 1
0.1035002 0.009202959 0.1988621 1 0 1
0.104695 0.009365114 0.1986036 1 0 1
0.1061265 0.009340639 0.1992935 1 0 1
0.1078058 0.009131198 0.2009295 1 0 1
0.1099895 0.00855043 0.20446 1 0 1
0.1122018 0.007976304 0.2079793 1 0 1
0.1141899 0.007595805 0.2105379 1 0 1
0.1159428 0.00740734 0.2121384 1 0 1
0.1171891 0.007595024 0.2118357 1 0 1
0.1184341 0.00778517 0.2115286 1 0 1
0.1196779 0.007977847 0.211217 1 0 1
0.1209204 0.008172991 0.210901 1 0 1
0.1221616 0.00837061 0.2105806 1 0 1
0.1228442 0.008936381 0.20837 1 0 1
0.2724679 -0.07009787 0.6299551 1 0 1
0.273788 -0.06869058 0.6244319 1 0 1
0.2763292 -0.06798992 0.6226391 1 0 1
0.2791784 -0.06746068 0.6217697 1 0 1
0.2794439 -0.06552494 0.6134482 1 0 1
-0.05758919 0.02618456 0.1148354 1 0 1
-0.08067944 0.01385143 0.1765188 1 0 1
-0.08842317 0.009091563 0.1998405 1 0 1
-0.09073064 0.007046674 0.2094423 1 0 1
-0.09019035 0.006460544 0.2117061 1 0 1
-0.08929072 0.006058638 0.2130495 1 0 1
-0.08770292 0.006027806 0.2125464 1 0 1
-0.0861206 0.006000639 0.2120366 1 0 1
-0.08421136 0.006163381 0.2105954 1 0 1
-0.08198608 0.006517689 0.2082192 1 0 1
-0.07913051 0.007252643 0.203978 1 0 1
-0.07630951 0.007995919 0.199721 1 0 1
-0.07415897 0.008370514 0.1973068 1 0 1
-0.07202868 0.008750951 0.1948817 1 0 1
-0.07085054 0.008568317 0.1952399 1 0 1
-0.06967092 0.008388088 0.1955941 1 0 1
-0.06848981 0.008210236 0.1959441 1 0 1
-0.06700753 0.008225936 0.1953553 1 0 1
-0.06612318 0.007861572 0.1966317 1 0 1
-0.0649377 0.007690745 0.1969692 1 0 1
-0.06375079 0.007522328 0.1973025 1 0 1
-0.06284753 0.007162953 0.1985705 1 0 1
-0.06193554 0.006804938 0.1998363 1 0 1
-0.06101483 0.006448298 0.2010999 1 0 1
-0.05953733 0.006482719 0.2004777 1 0 1
-0.05779549 0.006715842 0.1989065 1 0 1
-0.05500044 0.007736366 0.1935526 1 0 1
-0.04672611 0.01288627 0.1683459 1 0 1
-0.01518531 0.02852797 0.09016268 1 0 1
-0.02643364 0.01715717 0.1438374 1 0 1
-0.03220098 0.01059604 0.1746404 1 0 1
-0.03337796 0.008264345 0.1853874 1 0 1
-0.0334546 0.00694091 0.1913572 1 0 1
-0.03268676 0.006427945 0.1934972 1 0 1
-0.03170707 0.006119363 0.1946766 1 0 1
-0.03052682 0.006016214 0.1948933 1 0 1
-0.02934565 0.005915376 0.1951059 1 0 1
-0.02834814 0.005612488 0.1962756 1 0 1
-0.02734224 0.005311328 0.1974426 1 0 1
-0.02615083 0.005216863 0.1976441 1 0 1
-0.0249586 0.005124792 0.1978413 1 0 1
-0.02393502 0.004829465 0.1989982 1 0 1
-0.02290307 0.004535933 0.2001521 1 0 1
-0.02186273 0.004244213 0.2013031 1 0 1
-0.02081404 0.003954315 0.2024509 1 0 1
-0.01991139 0.003459668 0.2045619 1 0 1
-0.01899281 0.002966421 0.2066707 1 0 1
-0.01820512 0.002267458 0.2097446 1 0 1
-0.01667893 0.002606305 0.2079786 1 0 1
0.06285523 0.007741311 0.1871162 1 0 1
0.06457359 0.006793223 0.1918615 1 0 1
0.0659783 0.006466982 0.1936839 1 0 1
0.06715598 0.006554796 0.1935582 1 0 1
0.06808369 0.007054957 0.1914869 1 0 1
0.0691241 0.007351506 0.1903834 1 0 1
0.07015638 0.007649777 0.1892767 1 0 1
0.07131658 0.007745526 0.1891363 1 0 1
0.07233628 0.008047394 0.1880228 1 0 1
0.07334775 0.00835087 0.1869062 1 0 1
0.07449855 0.008452813 0.1867545 1 0 1
0.07549735 0.008759824 0.1856313 1 0 1
0.07664306 0.008865965 0.185472 1 0 1
0.07778806 0.008974361 0.1853087 1 0 1
0.07893241 0.009085023 0.1851414 1 0 1
0.07990954 0.009399234 0.1840047 1 0 1
0.08121897 0.00931308 0.1847946 1 0 1
0.08218709 0.009631022 0.183651 1 0 1
0.08368041 0.009349988 0.1853951 1 0 1
0.08555127 0.008673275 0.1890585 1 0 1
0.08763695 0.007802811 0.1936749 1 0 1
0.08957034 0.007137731 0.1973192 1 0 1
0.09191892 0.006081386 0.2028759 1 0 1
0.09352503 0.00582488 0.2045792 1 0 1
0.09454393 0.006165346 0.2033969 1 0 1
0.09555437 0.006507349 0.2022116 1 0 1
0.09655637 0.006850846 0.2010234 1 0 1
0.09754988 0.007195827 0.1998325 1 0 1
0.09853494 0.007542211 0.1986387 1 0 1
0.09994993 0.00749943 0.199354 1 0 1
0.1011485 0.00765485 0.1991084 1 0 1
0.102346 0.00781264 0.1988586 1 0 1
0.1035424 0.00797276 0.1986045 1 0 1
0.1047379 0.008135314 0.1983461 1 0 1
0.1059322 0.008300221 0.1980835 1 0 1
0.1073671 0.00827521 0.1987678 1 0 1
0.1092991 0.007870132 0.2013467 1 0 1
0.1115014 0.007279518 0.2048656 1 0 1
0.1137323 0.006695612 0.2083731 1 0 1
0.1152221 0.006688927 0.2090263 1 0 1
0.1167181 0.006685841 0.2096733 1 0 1
0.1179564 0.006875291 0.2093683 1 0 1
0.1191934 0.007067253 0.2090588 1 0 1
0.1207005 0.007073856 0.2096889 1 0 1
0.1219386 0.007271333 0.2093696 1 0 1
0.1228967 0.007657963 0.2081039 1 0 1
0.2707546 -0.07201532 0.6237289 1 0 1
0.2723652 -0.07077269 0.6191496 1 0 1
0.2755203 -0.07043092 0.6192271 1 0 1
0.2789982 -0.07026171 0.6202227 1 0 1
0.27926 -0.06829497 0.6119093 1 0 1
