ply
format ascii 1.0
Comment Generated by Floating Hands
element vertex 1224
property double x
property double y
property double z
property uchar red
property uchar green
property uchar blue
end_header
-0.01139909 0.02407574 0.1345324 1 0 1
-0.01049515 0.02404394 0.1346592 1 0 1
-0.009590697 0.024014 0.134783 1 0 1
-0.008552606 0.02412392 0.1339221 1 0 1
-0.007650862 0.02409785 0.134039 1 0 1
-0.00674867 0.02407365 0.1341527 1 0 1
-0.005967937 0.02391297 0.1352462 1 0 1
-0.005061073 0.02389239 0.135354 1 0 1
-0.004153768 0.02387371 0.1354587 1 0 1
-0.003246046 0.02385686 0.1355602 1 0 1
-0.002230928 0.0239805 0.134674 1 0 1
-0.001429379 0.02382885 0.1357537 1 0 1
-0.0005204797 0.02381766 0.1358457 1 0 1
0.0003888318 0.02380834 0.1359345 1 0 1
0.001482526 0.02407842 0.134048 1 0 1
0.002738216 0.02462807 0.1301842 1 0 1
0.005147838 0.02712303 0.1125008 1 0 1
0.0318757 0.02944906 0.1023458 1 0 1
0.03287393 0.0288271 0.1072699 1 0 1
0.03376867 0.0286127 0.1092204 1 0 1
0.0346275 0.02853523 0.1101778 1 0 1
0.03543923 0.02859386 0.1101426 1 0 1
0.03625077 0.0286542 0.1101045 1 0 1
0.03700011 0.02884958 0.1090744 1 0 1
0.03780758 0.02891299 0.1090307 1 0 1
0.0385453 0.0291108 0.1079955 1 0 1
0.03927529 0.02930967 0.1069579 1 0 1
0.03999759 0.02950958 0.105918 1 0 1
0.04079296 0.02957866 0.1058637 1 0 1
0.04150352 0.02978089 0.1048188 1 0 1
0.04220636 0.02998408 0.1037717 1 0 1
0.04290146 0.03018822 0.1027225 1 0 1
0.04358876 0.03039324 0.101671 1 0 1
0.04426834 0.03059918 0.1006174 1 0 1
0.04504342 0.03067632 0.1005479 1 0 1
0.04571117 0.03088434 0.09948976 1 0 1
0.04637114 0.03109321 0.09842961 1 0 1
0.0470233 0.0313029 0.09736748 1 0 1
0.04766766 0.03151336 0.09630342 1 0 1
0.04842621 0.03159688 0.09622172 1 0 1
0.04918442 0.03168198 0.09613731 1 0 1
0.04981283 0.03189551 0.09506678 1 0 1
0.05069978 0.03185691 0.0959604 1 0 1
0.05145689 0.03194676 0.09586792 1 0 1
0.05207299 0.0321637 0.09479063 1 0 1
0.05282561 0.03225625 0.09469318 1 0 1
0.05342973 0.03247495 0.093612 1 0 1
0.05791167 0.03306966 0.09295808 1 0 1
0.05865707 0.03317428 0.09283973 1 0 1
0.05940198 0.03328043 0.09271871 1 0 1
0.06014639 0.03338817 0.09259501 1 0 1
0.0610755 0.03337792 0.09344403 1 0 1
0.06163372 0.03360834 0.09233957 1 0 1
0.06256918 0.03360232 0.09318195 1 0 1
0.0635115 0.03359903 0.09402029 1 0 1
0.06466066 0.0334812 0.09582735 1 0 1
0.06582401 0.03336729 0.09762894 1 0 1
0.06741624 0.03302515 0.1013676 1 0 1
0.06882629 0.03280487 0.1041272 1 0 1
0.07025779 0.0325899 0.1068795 1 0 1
0.07127395 0.03260886 0.1076862 1 0 1
0.07229679 0.03263074 0.1084885 1 0 1
0.07287481 0.03288167 0.1073511 1 0 1
0.07367422 0.0330206 0.1071792 1 0 1
0.07447295 0.03316127 0.1070045 1 0 1
-0.09226807 0.03751698 0.0928835 1 0 1
-0.09052493 0.03748536 0.09157579 1 0 1
-0.08879302 0.03745908 0.09025829 1 0 1
-0.08707235 0.03743805 0.08893104 1 0 1
-0.08585632 0.03733128 0.08845916 1 0 1
-0.08415509 0.03731975 0.08711436 1 0 1
-0.0829521 0.03722064 0.08662856 1 0 1
-0.08127046 0.03721843 0.08526642 1 0 1
-0.08056097 0.03703249 0.08563884 1 0 1
-0.07984991 0.03684811 0.08600874 1 0 1
-0.0786636 0.03676146 0.08550067 1 0 1
-0.07795282 0.03658117 0.08586378 1 0 1
-0.07677335 0.03650023 0.08534553 1 0 1
-0.07559901 0.03642255 0.08482145 1 0 1
-0.07489033 0.03624865 0.0851736 1 0 1
-0.07326578 0.03627676 0.08375581 1 0 1
-0.07210698 0.03620866 0.08321433 1 0 1
-0.07095339 0.03614373 0.08266707 1 0 1
-0.06980511 0.03608192 0.08211415 1 0 1
-0.06821824 0.03612658 0.08066543 1 0 1
-0.06752443 0.03596761 0.08099128 1 0 1
-0.0663921 0.03591508 0.0804214 1 0 1
-0.06569898 0.03575994 0.08074077 1 0 1
-0.06457409 0.03571272 0.08016136 1 0 1
-0.06388172 0.03556141 0.08047424 1 0 1
-0.06276434 0.03551945 0.07988529 1 0 1
-0.06165247 0.03548045 0.07929087 1 0 1
-0.06096301 0.03533518 0.07959341 1 0 1
-0.06027227 0.03519135 0.07989349 1 0 1
-0.0595803 0.03504908 0.08019112 1 0 1
-0.05929375 0.03479692 0.08139308 1 0 1
-0.05859588 0.03465699 0.08168725 1 0 1
-0.05829659 0.0344058 0.08288857 1 0 1
-0.05759286 0.03426826 0.08317922 1 0 1
-0.05688793 0.03413221 0.08346739 1 0 1
-0.05618178 0.03399773 0.08375306 1 0 1
-0.05547446 0.0338648 0.08403622 1 0 1
-0.05476595 0.03373336 0.08431689 1 0 1
-0.05443541 0.03348681 0.08551304 1 0 1
-0.05409676 0.03324054 0.08670937 1 0 1
-0.05337783 0.0331125 0.0869852 1 0 1
-0.05302646 0.03286748 0.08818045 1 0 1
-0.05266699 0.0326228 0.0893758 1 0 1
-0.05193765 0.03249823 0.08964661 1 0 1
-0.05156544 0.0322549 0.09084067 1 0 1
-0.05153983 0.03189109 0.09296187 1 0 1
-0.0514991 0.03152657 0.09508549 1 0 1
-0.05109549 0.03128343 0.09628187 1 0 1
-0.05068374 0.03104076 0.09747811 1 0 1
-0.05060452 0.03067548 0.09960616 1 0 1
-0.04983579 0.03055703 0.09986983 1 0 1
-0.0497332 0.03019176 0.1019998 1 0 1
-0.04961539 0.02982605 0.1041317 1 0 1
-0.04980885 0.02933463 0.1072025 1 0 1
-0.05030296 0.028716 0.1112155 1 0 1
-0.05076758 0.02809504 0.1152348 1 0 1
-0.05120265 0.02747181 0.1192604 1 0 1
-0.05223279 0.02659188 0.1251749 1 0 1
-0.05414532 0.02532462 0.1339273 1 0 1
-0.05446653 0.0246919 0.1379783 1 0 1
-0.01734511 0.02787235 0.1033142 1 0 1
-0.01844759 0.02642879 0.1131819 1 0 1
-0.01873503 0.02554104 0.1191695 1 0 1
-0.0186146 0.02493213 0.1232155 1 0 1
-0.01846395 0.02432334 0.1272636 1 0 1
-0.01793498 0.02399531 0.1293645 1 0 1
-0.01722022 0.02380879 0.1304895 1 0 1
-0.01666406 0.02348308 0.1325886 1 0 1
-0.01576662 0.0234402 0.1327339 1 0 1
-0.01486856 0.02339915 0.1328761 1 0 1
-0.01396994 0.02336001 0.1330151 1 0 1
-0.01322252 0.02318136 0.1341293 1 0 1
-0.01217097 0.02328727 0.1332837 1 0 1
-0.01141502 0.02311208 0.1343927 1 0 1
-0.01065109 0.02293851 0.1354995 1 0 1
-0.009605358 0.02305027 0.1346435 1 0 1
-0.008699796 0.02302217 0.1347641 1 0 1
-0.007793699 0.02299597 0.1348816 1 0 1
-0.006887156 0.02297164 0.1349959 1 0 1
-0.005980124 0.02294917 0.135107 1 0 1
-0.005190888 0.02278622 0.1361977 1 0 1
-0.004279253 0.02276745 0.136303 1 0 1
-0.003367166 0.02275058 0.136405 1 0 1
-0.002454655 0.02273554 0.1365038 1 0 1
-0.001645061 0.02257982 0.1375839 1 0 1
-0.000728049 0.02256854 0.1376767 1 0 1
0.0001893528 0.02255912 0.1377663 1 0 1
0.001107122 0.02255167 0.1378528 1 0 1
0.002290167 0.02297435 0.1349785 1 0 1
0.004296776 0.02482676 0.1222377 1 0 1
0.007014363 0.02810906 0.09962118 1 0 1
0.03258388 0.0289559 0.1002272 1 0 1
0.03368825 0.02803986 0.1071241 1 0 1
0.03464186 0.02768175 0.1100596 1 0 1
0.0355087 0.02760268 0.1110135 1 0 1
0.03638289 0.02752582 0.1119641 1 0 1
0.03707812 0.02786319 0.1099458 1 0 1
0.03788985 0.02792704 0.1099021 1 0 1
0.03863178 0.02812928 0.1088674 1 0 1
0.03936597 0.02833257 0.1078302 1 0 1
0.04001535 0.02867298 0.105803 1 0 1
0.04081122 0.02874226 0.1057489 1 0 1
0.04152224 0.02894858 0.1047048 1 0 1
0.04222549 0.02915589 0.1036584 1 0 1
0.04301316 0.02922941 0.1035964 1 0 1
0.04360875 0.02957329 0.101559 1 0 1
0.04438837 0.02964933 0.1014921 1 0 1
0.0450643 0.02986063 0.1004368 1 0 1
0.0458396 0.02993958 0.1003646 1 0 1
0.04650369 0.03015295 0.09930482 1 0 1
0.04704537 0.0304996 0.09725848 1 0 1
0.04780851 0.03058215 0.09717926 1 0 1
0.04844918 0.03079791 0.09611358 1 0 1
0.04920787 0.0308832 0.09602933 1 0 1
0.04983666 0.03110088 0.09495953 1 0 1
0.05072423 0.03105853 0.09585279 1 0 1
0.05148184 0.03114857 0.09576045 1 0 1
0.0520983 0.03136966 0.09468389 1 0 1
0.05285141 0.03146239 0.09458664 1 0 1
0.05345587 0.03168526 0.09350616 1 0 1
0.06409367 0.03304261 0.09280539 1 0 1
0.06524675 0.03291934 0.09460823 1 0 1
0.06662155 0.03268007 0.09737641 1 0 1
0.06801789 0.03244594 0.1001375 1 0 1
0.06943566 0.03221708 0.1028915 1 0 1
0.07087491 0.03199355 0.1056382 1 0 1
0.07189108 0.03201057 0.1064417 1 0 1
0.07268802 0.03214748 0.1062737 1 0 1
0.07348427 0.03228609 0.1061028 1 0 1
0.0745131 0.03231073 0.1068946 1 0 1
-0.09183449 0.0367221 0.09189081 1 0 1
-0.08959004 0.03679093 0.08972324 1 0 1
-0.08786341 0.03677384 0.08840324 1 0 1
-0.08664493 0.03666806 0.08793622 1 0 1
-0.08493768 0.03666052 0.08659863 1 0 1
-0.0832418 0.03665816 0.08525141 1 0 1
-0.08253162 0.03646778 0.0856306 1 0 1
-0.08085216 0.03647388 0.08426784 1 0 1
-0.0801454 0.03628847 0.08463851 1 0 1
-0.0794371 0.0361046 0.08500662 1 0 1
-0.07872729 0.0359224 0.08537217 1 0 1
-0.07801598 0.03574175 0.08573519 1 0 1
-0.07683571 0.03566441 0.08521748 1 0 1
-0.07566055 0.03559028 0.08469393 1 0 1
-0.07495136 0.03541607 0.08504602 1 0 1
-0.07332575 0.0354517 0.08362936 1 0 1
-0.07216617 0.03538723 0.0830884 1 0 1
-0.07101179 0.03532586 0.08254169 1 0 1
-0.06986272 0.03526766 0.08198932 1 0 1
-0.06827479 0.03531983 0.08054174 1 0 1
-0.06758048 0.03516059 0.08086753 1 0 1
-0.06644741 0.03511167 0.0802982 1 0 1
-0.06575377 0.03495626 0.08061752 1 0 1
-0.06462814 0.03491269 0.08003864 1 0 1
-0.06350794 0.03487212 0.07945424 1 0 1
-0.0623932 0.03483456 0.07886433 1 0 1
-0.06170449 0.03468746 0.07916927 1 0 1
-0.06101453 0.03454188 0.07947174 1 0 1
-0.05990958 0.03451173 0.07886856 1 0 1
-0.05963085 0.03425531 0.0800694 1 0 1
-0.05934403 0.03399896 0.08127072 1 0 1
-0.05864568 0.03385879 0.08156487 1 0 1
-0.05794608 0.03372012 0.08185653 1 0 1
-0.0572453 0.033583 0.08214575 1 0 1
-0.05654328 0.0334474 0.08243246 1 0 1
-0.05584009 0.03331332 0.0827167 1 0 1
-0.05513573 0.03318079 0.08299848 1 0 1
-0.05443017 0.03304979 0.08327776 1 0 1
-0.05410279 0.03279971 0.08447193 1 0 1
-0.05376733 0.03254993 0.0856663 1 0 1
-0.05305138 0.03242227 0.0859408 1 0 1
-0.0527032 0.0321737 0.08713412 1 0 1
-0.0523469 0.03192547 0.08832752 1 0 1
-0.05198251 0.03167763 0.08952101 1 0 1
-0.05160998 0.03143016 0.09071448 1 0 1
-0.05158428 0.03105829 0.09283446 1 0 1
-0.05154342 0.03068567 0.0949569 1 0 1
-0.05113949 0.03043839 0.09615267 1 0 1
-0.0507274 0.0301916 0.09734826 1 0 1
-0.05030717 0.02994533 0.09854364 1 0 1
-0.04987878 0.02969958 0.09973881 1 0 1
-0.04944222 0.02945441 0.1009337 1 0 1
-0.04965806 0.02895245 0.1039983 1 0 1
-0.04952483 0.02857822 0.1061311 1 0 1
-0.05034584 0.02781446 0.1110779 1 0 1
-0.05081061 0.02717754 0.1150948 1 0 1
-0.05124583 0.02653837 0.119118 1 0 1
-0.05258896 0.02550335 0.1259697 1 0 1
-0.05388105 0.02446337 0.132834 1 0 1
-0.05420588 0.02381513 0.1368816 1 0 1
-0.05208662 0.02422628 0.1333818 1 0 1
-0.01673666 0.02870196 0.09222193 1 0 1
-0.01932932 0.02622246 0.1088579 1 0 1
-0.02025498 0.02488165 0.1177491 1 0 1
-0.0203578 0.02411191 0.122764 1 0 1
-0.01986733 0.02377255 0.1248664 1 0 1
-0.01954294 0.02329032 0.1279411 1 0 1
-0.01884004 0.02309669 0.1290699 1 0 1
-0.0181291 0.02290452 0.1301969 1 0 1
-0.01741009 0.02271375 0.131322 1 0 1
-0.01668307 0.02252452 0.1324452 1 0 1
-0.015785 0.02248157 0.1325906 1 0 1
-0.01488633 0.02244047 0.1327329 1 0 1
-0.01398708 0.02240125 0.132872 1 0 1
-0.01308726 0.02236393 0.1330079 1 0 1
-0.01218688 0.02232845 0.1331408 1 0 1
-0.01143039 0.02214927 0.1342492 1 0 1
-0.01066588 0.0219717 0.1353555 1 0 1
-0.009756467 0.02194159 0.13548 1 0 1
-0.008846528 0.02191337 0.1356012 1 0 1
-0.007936087 0.02188703 0.1357192 1 0 1
-0.006899424 0.02200871 0.1348529 1 0 1
-0.00599178 0.02198625 0.1349641 1 0 1
-0.005083677 0.02196567 0.1350722 1 0 1
-0.00417513 0.02194696 0.1351771 1 0 1
-0.00337699 0.02178366 0.1362618 1 0 1
-0.002463883 0.02176866 0.1363608 1 0 1
-0.00165371 0.02160896 0.1374403 1 0 1
-0.0007360466 0.02159772 0.1375332 1 0 1
8.613909E-05 0.02144167 0.1386075 1 0 1
0.001008254 0.02143417 0.1386944 1 0 1
0.002195771 0.02186873 0.1358224 1 0 1
0.003614882 0.02274551 0.1299885 1 0 1
0.005878503 0.02523847 0.1133031 1 0 1
0.03341939 0.02805307 0.1010719 1 0 1
0.03455471 0.02711327 0.1079609 1 0 1
0.03552397 0.02674621 0.1108915 1 0 1
0.03639876 0.02666557 0.1118417 1 0 1
0.03721873 0.02672846 0.1118007 1 0 1
0.03797258 0.026934 0.1107689 1 0 1
0.03871873 0.02714068 0.1097347 1 0 1
0.03945712 0.02734837 0.1086981 1 0 1
0.04011061 0.02769716 0.1066719 1 0 1
0.04091076 0.0277669 0.1066177 1 0 1
0.04154122 0.02811708 0.1045874 1 0 1
0.04224491 0.02832848 0.1035417 1 0 1
0.04303307 0.02840216 0.1034799 1 0 1
0.043725 0.02861582 0.1024295 1 0 1
0.04440912 0.02883034 0.101377 1 0 1
0.04518894 0.02890818 0.1013075 1 0 1
0.04586126 0.02912486 0.1002504 1 0 1
0.04652574 0.02934236 0.09919134 1 0 1
0.04718246 0.02956069 0.09813026 1 0 1
0.04783133 0.02977984 0.09706721 1 0 1
0.04859461 0.02986415 0.09698545 1 0 1
0.04923158 0.03008519 0.0959182 1 0 1
0.04999042 0.03017227 0.09583142 1 0 1
0.0507489 0.03026094 0.09574198 1 0 1
0.05150699 0.03035118 0.09564983 1 0 1
0.05226471 0.03044298 0.09555497 1 0 1
0.05287739 0.03066935 0.09447691 1 0 1
0.05348223 0.03089634 0.09339714 1 0 1
0.05423126 0.03099196 0.09329519 1 0 1
0.06392652 0.03237807 0.09172683 1 0 1
0.0648727 0.03237118 0.09255848 1 0 1
0.0660334 0.03224313 0.0943564 1 0 1
0.06720825 0.03211908 0.09614871 1 0 1
0.06861233 0.03187634 0.09890424 1 0 1
0.0698191 0.03176099 0.1006845 1 0 1
0.07104002 0.03164982 0.1024589 1 0 1
0.07204882 0.0316636 0.1032608 1 0 1
0.0732941 0.03156018 0.1050241 1 0 1
0.07431995 0.03158059 0.1058163 1 0 1
-0.09139933 0.03593583 0.09089584 1 0 1
-0.08915666 0.03601681 0.08872821 1 0 1
-0.08743209 0.03600803 0.08740752 1 0 1
-0.08621602 0.03590666 0.08693925 1 0 1
-0.08451087 0.03590741 0.085601 1 0 1
-0.08330783 0.03581378 0.08511879 1 0 1
-0.08259713 0.03562307 0.0854979 1 0 1
-0.08140073 0.0355353 0.08500537 1 0 1
-0.08069017 0.03534868 0.08537765 1 0 1
-0.07997809 0.03516366 0.08574737 1 0 1
-0.07879015 0.03508414 0.08524035 1 0 1
-0.07807833 0.03490319 0.08560332 1 0 1
-0.07689726 0.0348294 0.08508614 1 0 1
-0.07572132 0.03475888 0.08456314 1 0 1
-0.07501163 0.03458439 0.08491515 1 0 1
-0.07338493 0.03462745 0.08349965 1 0 1
-0.07222454 0.03456655 0.08295924 1 0 1
-0.07106943 0.03450883 0.08241312 1 0 1
-0.06991957 0.03445422 0.08186128 1 0 1
-0.068775 0.03440272 0.08130375 1 0 1
-0.06807685 0.03424244 0.08163107 1 0 1
-0.06693965 0.03419637 0.0810639 1 0 1
-0.06580783 0.03415337 0.08049113 1 0 1
-0.06468141 0.03411342 0.07991279 1 0 1
-0.06356047 0.03407647 0.07932898 1 0 1
-0.062445 0.03404255 0.07873967 1 0 1
-0.0617558 0.03389519 0.07904454 1 0 1
-0.06106535 0.03374937 0.07934699 1 0 1
-0.06037362 0.03360505 0.079647 1 0 1
-0.05968067 0.03346227 0.07994457 1 0 1
-0.05898647 0.033321 0.0802397 1 0 1
-0.05829103 0.03318126 0.08053235 1 0 1
-0.05759438 0.03304303 0.08082256 1 0 1
-0.05689654 0.03290633 0.08111035 1 0 1
-0.05659089 0.03264923 0.08230689 1 0 1
-0.05549724 0.03263753 0.08167847 1 0 1
-0.05518232 0.03238217 0.08287284 1 0 1
-0.05447626 0.03225092 0.08315214 1 0 1
-0.05414863 0.03199669 0.08434566 1 0 1
-0.0534368 0.03186789 0.0846213 1 0 1
-0.05309641 0.03161487 0.08581386 1 0 1
-0.05274794 0.03136217 0.08700655 1 0 1
-0.05239136 0.03110983 0.08819934 1 0 1
-0.05202666 0.03085781 0.08939221 1 0 1
-0.05165382 0.03060621 0.09058505 1 0 1
-0.05162802 0.03022628 0.09270377 1 0 1
-0.05123542 0.02997491 0.09389783 1 0 1
-0.0511828 0.02959417 0.09602013 1 0 1
-0.05077039 0.02934325 0.09721512 1 0 1
-0.05034981 0.02909282 0.0984099 1 0 1
-0.04992107 0.02884293 0.09960444 1 0 1
-0.04981819 0.02846155 0.1017319 1 0 1
-0.04970003 0.02807968 0.1038615 1 0 1
-0.04989352 0.02756424 0.1069286 1 0 1
-0.05038799 0.02691373 0.1109367 1 0 1
-0.05085294 0.02626088 0.1149513 1 0 1
-0.05160453 0.02547109 0.1199111 1 0 1
-0.0538828 0.02400236 0.1295802 1 0 1
-0.05577945 0.0226614 0.1383272 1 0 1
-0.05424965 0.02281106 0.1367245 1 0 1
-0.01892764 0.02692997 0.09872717 1 0 1
-0.02075856 0.02497053 0.1114734 1 0 1
-0.02151091 0.02374062 0.1193883 1 0 1
-0.02143266 0.02309709 0.123431 1 0 1
-0.02113515 0.02260082 0.1265053 1 0 1
-0.02062947 0.02225259 0.1286092 1 0 1
-0.01992671 0.02205309 0.1297405 1 0 1
-0.01903796 0.02200303 0.1298972 1 0 1
-0.01832277 0.02180664 0.1310242 1 0 1
-0.01742905 0.02176009 0.1311754 1 0 1
-0.01670147 0.0215668 0.1322981 1 0 1
-0.0158028 0.02152379 0.1324435 1 0 1
-0.01490352 0.02148267 0.1325859 1 0 1
-0.01415931 0.02129435 0.1337016 1 0 1
-0.01325515 0.02125679 0.1338382 1 0 1
-0.01235043 0.02122116 0.1339717 1 0 1
-0.01158965 0.02103784 0.1350801 1 0 1
-0.01082089 0.02085613 0.1361865 1 0 1
-0.009770089 0.02097566 0.1353323 1 0 1
-0.008859544 0.02094742 0.1354536 1 0 1
-0.007948497 0.02092108 0.1355718 1 0 1
-0.00703697 0.02089658 0.1356867 1 0 1
-0.006124957 0.02087405 0.1357985 1 0 1
-0.005330852 0.02070305 0.1368887 1 0 1
-0.004414221 0.0206842 0.1369946 1 0 1
-0.003608025 0.02051681 0.1380796 1 0 1
-0.002686793 0.02050167 0.1381795 1 0 1
-0.001868549 0.02033795 0.1392593 1 0 1
-0.0009427767 0.02032659 0.1393531 1 0 1
-0.0001125036 0.02016653 0.1404276 1 0 1
0.0008177561 0.02015898 0.1405153 1 0 1
0.002013467 0.02060543 0.1376459 1 0 1
0.003356203 0.02135526 0.1328013 1 0 1
0.005551116 0.02376481 0.1171125 1 0 1
0.03436571 0.02685343 0.1038852 1 0 1
0.03548481 0.02603627 0.1097783 1 0 1
0.03647345 0.02566058 0.1127035 1 0 1
0.03729772 0.02572395 0.1126624 1 0 1
0.03805577 0.0259339 0.1116312 1 0 1
0.03873633 0.02628954 0.1096105 1 0 1
0.03947519 0.02650137 0.1085746 1 0 1
0.04012901 0.02685819 0.1065497 1 0 1
0.04092969 0.02692812 0.1064957 1 0 1
0.0415605 0.02728632 0.1044667 1 0 1
0.04226461 0.02750184 0.1034217 1 0 1
0.04305327 0.0275757 0.10336 1 0 1
0.04374561 0.02779345 0.1023104 1 0 1
0.04443014 0.02801212 0.1012587 1 0 1
0.04521048 0.02809015 0.1011893 1 0 1
0.04588316 0.02831093 0.100133 1 0 1
0.04665917 0.02839184 0.1000584 1 0 1
0.04720514 0.02875501 0.09801429 1 0 1
0.04797299 0.02883834 0.097935 1 0 1
0.04874049 0.02892324 0.09785303 1 0 1
0.04938158 0.02914886 0.09678609 1 0 1
0.05014464 0.02923659 0.09669907 1 0 1
0.05090735 0.02932585 0.09660936 1 0 1
0.05166966 0.02941676 0.09651692 1 0 1
0.05229058 0.02964658 0.09544133 1 0 1
0.05290362 0.02987703 0.09436399 1 0 1
0.05350878 0.03010818 0.09328494 1 0 1
0.05425831 0.030204 0.0931832 1 0 1
0.06544437 0.0318304 0.09133637 1 0 1
0.06639743 0.03182422 0.09216092 1 0 1
0.06757251 0.03169423 0.09394967 1 0 1
0.06876173 0.03156828 0.09573276 1 0 1
0.06996504 0.03144642 0.09751008 1 0 1
0.07118243 0.03132872 0.0992816 1 0 1
0.07264384 0.03109115 0.1020124 1 0 1
0.07389294 0.03098254 0.1037713 1 0 1
-0.09146985 0.0350592 0.09075477 1 0 1
-0.08922572 0.03515143 0.08858889 1 0 1
-0.08750003 0.03515002 0.08726936 1 0 1
-0.08578566 0.03515387 0.08594017 1 0 1
-0.08457687 0.03506035 0.08546451 1 0 1
-0.083373 0.03497024 0.08498287 1 0 1
-0.08266181 0.0347792 0.08536187 1 0 1
-0.08146456 0.03469494 0.08486987 1 0 1
-0.08075353 0.03450797 0.08524209 1 0 1
-0.08004094 0.03432267 0.08561175 1 0 1
-0.07932681 0.03413895 0.08597884 1 0 1
-0.07813988 0.03406547 0.08546817 1 0 1
-0.077426 0.0338858 0.08582848 1 0 1
-0.07624599 0.033818 0.08530768 1 0 1
-0.07507107 0.03375348 0.08478102 1 0 1
-0.07390138 0.03369213 0.08424861 1 0 1
-0.07228216 0.03374669 0.0828269 1 0 1
-0.07112626 0.03369252 0.08228133 1 0 1
-0.07042366 0.03352726 0.08261674 1 0 1
-0.06927499 0.03347861 0.08206137 1 0 1
-0.06857299 0.03331727 0.08239026 1 0 1
-0.06743165 0.03327404 0.08182519 1 0 1
-0.06629571 0.03323391 0.08125456 1 0 1
-0.06516518 0.03319681 0.08067835 1 0 1
-0.06404011 0.03316279 0.08009662 1 0 1
-0.0629205 0.03313176 0.07950939 1 0 1
-0.06222741 0.0329834 0.07981576 1 0 1
-0.06111543 0.03295759 0.07921913 1 0 1
-0.06042323 0.03281303 0.0795191 1 0 1
-0.05972979 0.03267002 0.07981665 1 0 1
-0.05903508 0.03252847 0.08011172 1 0 1
-0.05833916 0.03238849 0.08040436 1 0 1
-0.05764203 0.03225 0.08069456 1 0 1
-0.05694368 0.03211306 0.08098228 1 0 1
-0.05624414 0.03197765 0.08126757 1 0 1
-0.05593359 0.03171727 0.08246239 1 0 1
-0.05522821 0.03158426 0.08274411 1 0 1
-0.05490493 0.03132501 0.08393812 1 0 1
-0.05457355 0.03106601 0.08513237 1 0 1
-0.05385774 0.03093634 0.08540934 1 0 1
-0.0535136 0.03067858 0.08660256 1 0 1
-0.05316136 0.03042111 0.08779597 1 0 1
-0.05243512 0.03029489 0.08806797 1 0 1
-0.05207013 0.03003877 0.08926021 1 0 1
-0.05169699 0.02978302 0.09045239 1 0 1
-0.05131572 0.02952769 0.0916446 1 0 1
-0.05127816 0.02913956 0.09376326 1 0 1
-0.0508771 0.02888455 0.09495655 1 0 1
-0.05046787 0.02863002 0.09614968 1 0 1
-0.05039175 0.02824108 0.09827283 1 0 1
-0.05030042 0.0278516 0.1003982 1 0 1
-0.04985962 0.02759764 0.101593 1 0 1
-0.0497413 0.02720769 0.1037213 1 0 1
-0.0499348 0.02668028 0.1067865 1 0 1
-0.05042944 0.02601386 0.1107921 1 0 1
-0.05089453 0.02534507 0.1148041 1 0 1
-0.05196287 0.02439683 0.1206992 1 0 1
-0.05517729 0.02247082 0.1331818 1 0 1
-0.05798841 0.02067356 0.1447496 1 0 1
-0.0533793 0.02168805 0.1368402 1 0 1
-0.01992608 0.02600917 0.09940757 1 0 1
-0.0220065 0.02384939 0.113107 1 0 1
-0.02258168 0.02273815 0.1200474 1 0 1
-0.02251498 0.02207764 0.1240885 1 0 1
-0.02203244 0.02171915 0.1261932 1 0 1
-0.0213453 0.02151287 0.1273274 1 0 1
-0.0208355 0.02115642 0.1294307 1 0 1
-0.02012851 0.02095269 0.1305622 1 0 1
-0.01923545 0.02090234 0.1307196 1 0 1
-0.01834175 0.02085387 0.1308738 1 0 1
-0.01761799 0.02065494 0.1319985 1 0 1
-0.01671932 0.02060999 0.1321472 1 0 1
-0.01582002 0.02056695 0.1322927 1 0 1
-0.01492013 0.02052574 0.1324352 1 0 1
-0.01417537 0.02033343 0.1335503 1 0 1
-0.0132706 0.02029585 0.133687 1 0 1
-0.01236529 0.02026015 0.1338206 1 0 1
-0.01160394 0.02007284 0.1349285 1 0 1
-0.01083462 0.01988718 0.1360343 1 0 1
-0.009920239 0.0198569 0.1361594 1 0 1
-0.009005335 0.0198285 0.1362813 1 0 1
-0.00808993 0.01980204 0.1364001 1 0 1
-0.007174042 0.01977744 0.1365156 1 0 1
-0.006257689 0.01975476 0.1366279 1 0 1
-0.005459289 0.01957975 0.1377181 1 0 1
-0.004538284 0.0195608 0.1378244 1 0 1
-0.00361688 0.01954377 0.1379276 1 0 1
-0.00269502 0.01952867 0.1380276 1 0 1
-0.001876172 0.01936097 0.1391069 1 0 1
-0.0008501464 0.01950418 0.1382179 1 0 1
-0.0001189403 0.01918564 0.1402748 1 0 1
0.0008119322 0.01917812 0.1403626 1 0 1
0.00191996 0.01948182 0.1384791 1 0 1
0.003182516 0.02009678 0.1346225 1 0 1
0.005143199 0.02210565 0.1218981 1 0 1
0.03517181 0.02608358 0.1037268 1 0 1
0.03637288 0.02509686 0.1105996 1 0 1
0.03731483 0.02486149 0.1125328 1 0 1
0.03807335 0.02507557 0.1115023 1 0 1
0.03882416 0.02529072 0.1104694 1 0 1
0.03949357 0.02565518 0.1084478 1 0 1
0.04022514 0.02587213 0.1074102 1 0 1
0.04094894 0.02609013 0.1063703 1 0 1
0.04166498 0.02630913 0.1053281 1 0 1
0.04228457 0.026676 0.1032985 1 0 1
0.04307376 0.02675004 0.103237 1 0 1
0.04376649 0.0269719 0.1021881 1 0 1
0.04445143 0.02719468 0.1011371 1 0 1
0.04523225 0.02727288 0.1010679 1 0 1
0.04590534 0.02749779 0.1000123 1 0 1
0.0465706 0.02772352 0.09895471 1 0 1
0.04722808 0.02795011 0.09789512 1 0 1
0.04799642 0.0280336 0.09781603 1 0 1
0.04864196 0.02826216 0.09675212 1 0 1
0.04940587 0.02834846 0.09666802 1 0 1
0.05016942 0.02843639 0.09658116 1 0 1
0.05079891 0.02866801 0.09551081 1 0 1
0.05155798 0.02875865 0.095419 1 0 1
0.05231667 0.02885088 0.09532451 1 0 1
0.05293006 0.02908551 0.09424793 1 0 1
0.05353555 0.02932075 0.09316962 1 0 1
0.05428556 0.02941681 0.09306808 1 0 1
0.06696195 0.03129087 0.09093289 1 0 1
0.06792184 0.03128543 0.09175029 1 0 1
0.06888845 0.0312828 0.0925635 1 0 1
0.07031475 0.03102581 0.09530346 1 0 1
0.07176247 0.03077426 0.09803605 1 0 1
0.07299776 0.03065554 0.09979717 1 0 1
-0.09103199 0.03428631 0.0897548 1 0 1
-0.0892939 0.03428691 0.0884462 1 0 1
-0.08756709 0.03429291 0.08712786 1 0 1
-0.08585158 0.03430411 0.08579979 1 0 1
-0.08414747 0.03432054 0.08446213 1 0 1
-0.08294605 0.03423486 0.08397926 1 0 1
-0.0822376 0.03404434 0.08435643 1 0 1
-0.08104286 0.03396453 0.08386327 1 0 1
-0.07985311 0.03388806 0.08336415 1 0 1
-0.07914658 0.03370408 0.08373033 1 0 1
-0.07796364 0.03363336 0.08322103 1 0 1
-0.07725739 0.03345348 0.08358047 1 0 1
-0.07654964 0.03327518 0.08393738 1 0 1
-0.07537544 0.0332126 0.08341385 1 0 1
-0.07420641 0.03315327 0.0828845 1 0 1
-0.07304258 0.03309713 0.08234936 1 0 1
-0.071884 0.0330442 0.08180849 1 0 1
-0.07073067 0.03299442 0.08126189 1 0 1
-0.07003093 0.03282965 0.08159565 1 0 1
-0.06888485 0.03278538 0.08103929 1 0 1
-0.06818572 0.0326245 0.08136653 1 0 1
-0.067047 0.03258566 0.08080051 1 0 1
-0.06634852 0.03242867 0.08112124 1 0 1
-0.06521723 0.03239519 0.08054563 1 0 1
-0.06409142 0.03236477 0.07996452 1 0 1
-0.06297107 0.03233736 0.07937787 1 0 1
-0.06185623 0.03231296 0.0787858 1 0 1
-0.06158267 0.03204171 0.07998806 1 0 1
-0.06047211 0.03202178 0.07938811 1 0 1
-0.05977818 0.03187849 0.07968563 1 0 1
-0.059083 0.03173669 0.07998069 1 0 1
-0.05838661 0.0315965 0.08027329 1 0 1
-0.05728822 0.03158616 0.07965631 1 0 1
-0.05659284 0.03144965 0.07994261 1 0 1
-0.0562901 0.03118492 0.08113639 1 0 1
-0.05558887 0.03105078 0.08141918 1 0 1
-0.05527342 0.03078715 0.08261225 1 0 1
-0.05456639 0.03065545 0.08289147 1 0 1
-0.05423819 0.03039295 0.08408371 1 0 1
-0.05352537 0.03026369 0.08435931 1 0 1
-0.05355747 0.0298688 0.0864687 1 0 1
-0.05320494 0.02960718 0.08766142 1 0 1
-0.05284428 0.02934596 0.08885424 1 0 1
-0.05247546 0.02908509 0.09004704 1 0 1
-0.05209853 0.02882462 0.09123988 1 0 1
-0.05171344 0.02856455 0.09243272 1 0 1
-0.05132021 0.02830493 0.09362544 1 0 1
-0.0509188 0.02804582 0.09481806 1 0 1
-0.05050926 0.02778716 0.09601054 1 0 1
-0.050433 0.02739018 0.09813239 1 0 1
-0.0503415 0.02699267 0.1002565 1 0 1
-0.04990036 0.02673454 0.1014506 1 0 1
-0.05011271 0.02619608 0.1045108 1 0 1
-0.05030266 0.02565616 0.1075753 1 0 1
-0.05079389 0.02497332 0.1115795 1 0 1
-0.05125555 0.0242881 0.11559 1 0 1
-0.0523208 0.02331561 0.1214824 1 0 1
-0.05522025 0.02148083 0.1330188 1 0 1
-0.05679497 0.02021025 0.1408188 1 0 1
-0.05219376 0.02181367 0.1298107 1 0 1
-0.02072057 0.02523731 0.0991139 1 0 1
-0.02285412 0.02302424 0.1127967 1 0 1
-0.02345591 0.02188533 0.1197305 1 0 1
-0.02320418 0.02136272 0.1228016 1 0 1
-0.02273301 0.02099516 0.124906 1 0 1
-0.02224636 0.02062845 0.1270102 1 0 1
-0.02136582 0.02057312 0.1271748 1 0 1
-0.02085558 0.0202087 0.129277 1 0 1
-0.02014809 0.02000098 0.1304079 1 0 1
-0.01925442 0.01995058 0.1305653 1 0 1
-0.01836012 0.019902 0.1307197 1 0 1
-0.01746518 0.01985536 0.130871 1 0 1
-0.01656961 0.01981056 0.1310191 1 0 1
-0.01567344 0.01976763 0.1311641 1 0 1
-0.01493616 0.01956973 0.1322807 1 0 1
-0.0140351 0.01953039 0.1324201 1 0 1
-0.01328549 0.01933579 0.1335321 1 0 1
-0.01237957 0.01930005 0.1336657 1 0 1
-0.01161769 0.01910876 0.1347731 1 0 1
-0.01084778 0.0189191 0.1358784 1 0 1
-0.009932791 0.0188888 0.1360036 1 0 1
-0.009017267 0.01886042 0.1361256 1 0 1
-0.008101274 0.0188339 0.1362444 1 0 1
-0.007310679 0.01865128 0.1373394 1 0 1
-0.006389999 0.01862849 0.1374523 1 0 1
-0.005587245 0.01844945 0.1385423 1 0 1
-0.004661896 0.01843043 0.1386492 1 0 1
-0.003847031 0.01825502 0.1397341 1 0 1
-0.002917076 0.01823976 0.1398349 1 0 1
-0.001986732 0.01822647 0.1399326 1 0 1
-0.001055977 0.01821514 0.140027 1 0 1
-0.0002207705 0.01804713 0.1411008 1 0 1
0.0008066524 0.01819818 0.1402061 1 0 1
0.001826915 0.01835122 0.1393073 1 0 1
0.003009274 0.01882341 0.1364373 1 0 1
0.004735591 0.02040783 0.126674 1 0 1
0.03603774 0.02516314 0.1045491 1 0 1
0.03720742 0.02430605 0.1104272 1 0 1
0.03802504 0.02437082 0.110384 1 0 1
0.03884245 0.02443731 0.1103378 1 0 1
0.03958594 0.02465764 0.1093032 1 0 1
0.0403217 0.02487904 0.1082662 1 0 1
0.04113093 0.02494994 0.1082119 1 0 1
0.04176993 0.02532491 0.1061851 1 0 1
0.04248238 0.02554933 0.1051411 1 0 1
0.04318704 0.0257747 0.1040949 1 0 1
0.04398022 0.02585094 0.1040304 1 0 1
0.04457301 0.02622828 0.1019959 1 0 1
0.04535811 0.02630706 0.1019265 1 0 1
0.04614288 0.0263875 0.1018544 1 0 1
0.04670475 0.02676671 0.09981418 1 0 1
0.04736633 0.02699778 0.09875499 1 0 1
0.04813891 0.02708189 0.09867567 1 0 1
0.04878857 0.02731499 0.09761215 1 0 1
0.04955671 0.02740191 0.09752776 1 0 1
0.05032448 0.02749046 0.09744067 1 0 1
0.05095807 0.02772666 0.09637068 1 0 1
0.05172136 0.02781795 0.09627858 1 0 1
0.05234297 0.02805601 0.09520452 1 0 1
0.0529567 0.02829476 0.09412873 1 0 1
0.05356257 0.02853414 0.09305119 1 0 1
0.05431302 0.02863041 0.09294978 1 0 1
0.06847911 0.0307595 0.09051645 1 0 1
0.06944574 0.0307548 0.09132662 1 0 1
0.07087976 0.03048931 0.09406082 1 0 1
0.07210121 0.03036051 0.09582425 1 0 1
-0.0911004 0.03341534 0.08960747 1 0 1
-0.0893612 0.03342333 0.0883001 1 0 1
-0.08763327 0.0334366 0.08698299 1 0 1
-0.08591668 0.03345521 0.08565614 1 0 1
-0.08421145 0.03347902 0.08431967 1 0 1
-0.08350082 0.0332857 0.08470105 1 0 1
-0.08181199 0.03331808 0.08334904 1 0 1
-0.08110476 0.03312974 0.08372188 1 0 1
-0.07991422 0.03305675 0.08322334 1 0 1
-0.0792072 0.0328725 0.08358942 1 0 1
-0.07802349 0.03280536 0.08308069 1 0 1
-0.07731672 0.03262516 0.08344004 1 0 1
-0.07613993 0.0325637 0.0829213 1 0 1
-0.07496827 0.03250551 0.08239667 1 0 1
-0.07426371 0.03233174 0.0827452 1 0 1
-0.07309912 0.03227916 0.08221066 1 0 1
-0.07193977 0.03222983 0.08167036 1 0 1
-0.07078571 0.03218363 0.08112439 1 0 1
-0.07008546 0.03201859 0.08145806 1 0 1
-0.06893864 0.03197789 0.08090235 1 0 1
-0.068239 0.03181676 0.08122949 1 0 1
-0.06709954 0.03178151 0.08066409 1 0 1
-0.06640057 0.03162424 0.08098476 1 0 1
-0.06570027 0.03146851 0.08130297 1 0 1
-0.06414199 0.03156754 0.07982926 1 0 1
-0.06344585 0.03141643 0.08013947 1 0 1
-0.06274841 0.03126683 0.08044728 1 0 1
-0.06204968 0.03111878 0.0807526 1 0 1
-0.06093496 0.03110177 0.08015473 1 0 1
-0.06023715 0.03095754 0.08045369 1 0 1
-0.05913021 0.03094573 0.07984655 1 0 1
-0.05843331 0.03080525 0.0801391 1 0 1
-0.05733424 0.03079857 0.07952275 1 0 1
-0.05663837 0.03066181 0.07980902 1 0 1
-0.05633539 0.03039295 0.08100216 1 0 1
-0.05563367 0.0302586 0.08128492 1 0 1
-0.05531795 0.02999081 0.08247729 1 0 1
-0.0549941 0.02972325 0.08366995 1 0 1
-0.05428194 0.02959221 0.08394802 1 0 1
-0.05356862 0.02946273 0.08422362 1 0 1
-0.05360065 0.02905979 0.08633167 1 0 1
-0.05324782 0.02879408 0.08752372 1 0 1
-0.05288687 0.02852869 0.08871585 1 0 1
-0.05251775 0.02826369 0.08990799 1 0 1
-0.05214051 0.02799911 0.09110016 1 0 1
-0.0517551 0.0277349 0.09229232 1 0 1
-0.05136156 0.02747118 0.09348441 1 0 1
-0.05095984 0.02720789 0.09467634 1 0 1
-0.05089514 0.02680291 0.09679585 1 0 1
-0.05081519 0.02639732 0.09891761 1 0 1
-0.05072 0.02599118 0.1010415 1 0 1
-0.05060954 0.02558456 0.1031676 1 0 1
-0.05048377 0.02517747 0.1052956 1 0 1
-0.05099761 0.02448014 0.109293 1 0 1
-0.051158 0.02392579 0.112362 1 0 1
-0.05193657 0.02307823 0.1173071 1 0 1
-0.0529951 0.02208097 0.1231977 1 0 1
-0.05526245 0.02049182 0.132852 1 0 1
-0.05528978 0.01992679 0.1359498 1 0 1
-0.04733749 0.02320649 0.1145992 1 0 1
-0.02151491 0.02446802 0.09881423 1 0 1
-0.02349011 0.02235953 0.1115154 1 0 1
-0.02432998 0.02103536 0.1194068 1 0 1
-0.02429383 0.02034159 0.123443 1 0 1
-0.02382665 0.01996447 0.1255483 1 0 1
-0.02334398 0.0195882 0.1276536 1 0 1
-0.02245984 0.01953072 0.1278221 1 0 1
-0.02157502 0.01947509 0.1279876 1 0 1
-0.02106066 0.01910249 0.1300892 1 0 1
-0.02016707 0.01905017 0.1302499 1 0 1
-0.01927281 0.01899967 0.1304074 1 0 1
-0.0183779 0.01895106 0.1305618 1 0 1
-0.01748236 0.01890432 0.1307132 1 0 1
-0.0165862 0.01885946 0.1308614 1 0 1
-0.01568944 0.0188165 0.1310065 1 0 1
-0.01479206 0.01877539 0.1311485 1 0 1
-0.01404995 0.01857524 0.1322619 1 0 1
-0.0131477 0.0185377 0.1323982 1 0 1
-0.01239327 0.01834085 0.1335071 1 0 1
-0.01163085 0.01814559 0.1346139 1 0 1
-0.01086042 0.01795196 0.1357186 1 0 1
-0.009944789 0.01792163 0.1358439 1 0 1
-0.009162097 0.01773146 0.1369438 1 0 1
-0.008371448 0.01754296 0.1380414 1 0 1
-0.007446852 0.01751813 0.1381581 1 0 1
-0.006521789 0.01749526 0.1382716 1 0 1
-0.00571474 0.01731217 0.1393614 1 0 1
-0.004670328 0.01745528 0.1384889 1 0 1
-0.003743915 0.0174382 0.1385926 1 0 1
-0.002817102 0.01742302 0.1386933 1 0 1
-0.00188987 0.0174098 0.1387906 1 0 1
-0.0009622796 0.0173985 0.1388847 1 0 1
-3.428957E-05 0.0173891 0.1389756 1 0 1
0.0009862527 0.01754417 0.1380809 1 0 1
0.002176471 0.0180263 0.1352168 1 0 1
0.00325976 0.01834786 0.1333306 1 0 1
0.005784504 0.02159736 0.1137391 1 0 1
0.03666252 0.02486613 0.1014214 1 0 1
0.03777806 0.02414487 0.1063072 1 0 1
0.03872101 0.02389751 0.1082325 1 0 1
0.03960501 0.02380915 0.1091691 1 0 1
0.04041874 0.02387889 0.1091176 1 0 1
0.04115092 0.02410574 0.1080787 1 0 1
0.04187533 0.02433363 0.1070375 1 0 1
0.04259194 0.0245625 0.105994 1 0 1
0.0433008 0.02479234 0.1049483 1 0 1
0.04400184 0.02502314 0.1039004 1 0 1
0.04469508 0.02525488 0.1028502 1 0 1
0.04548441 0.0253342 0.1027807 1 0 1
0.04616581 0.02556811 0.101726 1 0 1
0.04683934 0.02580285 0.1006692 1 0 1
0.04738987 0.02619053 0.09862879 1 0 1
0.04816295 0.02627486 0.09854965 1 0 1
0.04881297 0.02651206 0.09748691 1 0 1
0.04958159 0.02659919 0.0974027 1 0 1
0.05021964 0.02683833 0.09633576 1 0 1
0.05098381 0.02692824 0.09624656 1 0 1
0.05174755 0.02701975 0.09615464 1 0 1
0.05236951 0.02726195 0.09508135 1 0 1
0.05283842 0.02765338 0.09302814 1 0 1
0.05358977 0.02774828 0.09292959 1 0 1
0.05434072 0.02784477 0.09282837 1 0 1
0.06999575 0.03023627 0.09008701 1 0 1
0.07120328 0.03009735 0.09185267 1 0 1
-0.0906598 0.03265572 0.08860259 1 0 1
-0.08942762 0.03256059 0.08815064 1 0 1
-0.08769858 0.03258121 0.08683474 1 0 1
-0.0859809 0.03260718 0.08550914 1 0 1
-0.08427458 0.03263837 0.08417391 1 0 1
-0.08356346 0.0324447 0.08455523 1 0 1
-0.08187354 0.03248445 0.08320443 1 0 1
-0.08116584 0.03229581 0.08357719 1 0 1
-0.08045654 0.03210872 0.08394744 1 0 1
-0.07926699 0.03204178 0.08344524 1 0 1
-0.07808251 0.03197818 0.08293712 1 0 1
-0.07737526 0.03179764 0.0832964 1 0 1
-0.07619767 0.03173976 0.08277822 1 0 1
-0.07502526 0.03168513 0.08225422 1 0 1
-0.07385804 0.03163375 0.08172442 1 0 1
-0.07315487 0.03146204 0.08206874 1 0 1
-0.07199477 0.03141629 0.08152907 1 0 1
-0.07083993 0.03137364 0.08098369 1 0 1
-0.0696904 0.03133422 0.08043261 1 0 1
-0.06899165 0.03117122 0.0807622 1 0 1
-0.06784944 0.03113723 0.08020147 1 0 1
-0.06715134 0.03097812 0.08052455 1 0 1
-0.06645186 0.03082057 0.08084514 1 0 1
-0.06531914 0.03079434 0.0802708 1 0 1
-0.06462041 0.03064064 0.08058495 1 0 1
-0.06349521 0.03061973 0.08000109 1 0 1
-0.06279729 0.03046986 0.08030882 1 0 1
-0.06167971 0.03045424 0.07971556 1 0 1
-0.06098266 0.0303082 0.08001691 1 0 1
-0.05987282 0.03029778 0.0794143 1 0 1
-0.05917669 0.03015551 0.07970928 1 0 1
-0.05847933 0.03001476 0.08000186 1 0 1
-0.05778074 0.02987556 0.08029195 1 0 1
-0.05708095 0.02973788 0.0805796 1 0 1
-0.05637995 0.02960176 0.0808648 1 0 1
-0.05606859 0.02932897 0.08205754 1 0 1
-0.05536176 0.02919522 0.08233921 1 0 1
-0.05465375 0.02906306 0.08261839 1 0 1
-0.05432501 0.02879225 0.08380925 1 0 1
-0.05361119 0.02866256 0.0840848 1 0 1
-0.05364315 0.0282516 0.08619149 1 0 1
-0.05365999 0.02783972 0.08830099 1 0 1
-0.05329522 0.0275696 0.08949368 1 0 1
-0.05292232 0.02729985 0.09068646 1 0 1
-0.05254126 0.02703054 0.09187925 1 0 1
-0.0517961 0.02690604 0.09214871 1 0 1
-0.05140222 0.0266382 0.09334006 1 0 1
-0.05134908 0.02622526 0.09545714 1 0 1
-0.05093534 0.02595777 0.09664949 1 0 1
-0.05085525 0.02554416 0.0987699 1 0 1
-0.05109817 0.02498273 0.1018219 1 0 1
-0.05131873 0.02441975 0.1048785 1 0 1
-0.05151686 0.02385522 0.1079393 1 0 1
-0.05169258 0.02328929 0.1110045 1 0 1
-0.05216986 0.02257258 0.115008 1 0 1
-0.05261751 0.02185358 0.1190178 1 0 1
-0.05366935 0.02083157 0.1249067 1 0 1
-0.05624396 0.01905111 0.135494 1 0 1
-0.05257984 0.01971525 0.1304184 1 0 1
-0.04623923 0.02233912 0.113753 1 0 1
-0.02209011 0.02386239 0.09754616 1 0 1
-0.02433357 0.02154355 0.1111937 1 0 1
-0.02499233 0.02034987 0.1181127 1 0 1
-0.02497515 0.01963978 0.1221454 1 0 1
-0.02451938 0.01925364 0.1242503 1 0 1
-0.02384765 0.01903071 0.125389 1 0 1
-0.02336457 0.01864649 0.127493 1 0 1
-0.02247986 0.01858893 0.1276616 1 0 1
-0.02159443 0.01853321 0.1278271 1 0 1
-0.02089399 0.01831602 0.1289585 1 0 1
-0.02018545 0.01810023 0.1300882 1 0 1
-0.01911238 0.01821346 0.1292755 1 0 1
-0.01822058 0.01816501 0.1294294 1 0 1
-0.01749896 0.01795421 0.1305517 1 0 1
-0.01643514 0.0180737 0.1297278 1 0 1
-0.01554149 0.01803084 0.1298724 1 0 1
-0.01464725 0.01798984 0.1300139 1 0 1
-0.01390834 0.01778586 0.1311262 1 0 1
-0.01300921 0.01774845 0.131262 1 0 1
-0.01225798 0.01754774 0.1323697 1 0 1
-0.01164344 0.01718333 0.134451 1 0 1
-0.01087246 0.01698575 0.1355551 1 0 1
-0.009956241 0.01695537 0.1356805 1 0 1
-0.009173 0.01676123 0.1367798 1 0 1
-0.008381761 0.01656877 0.1378769 1 0 1
-0.007456565 0.01654396 0.1379936 1 0 1
-0.006653143 0.01635509 0.1390857 1 0 1
-0.005841746 0.01616794 0.1401755 1 0 1
-0.00490769 0.01614876 0.1402835 1 0 1
-0.003973171 0.01613151 0.1403882 1 0 1
-0.003038241 0.01611624 0.1404897 1 0 1
-0.00199942 0.01626925 0.1396073 1 0 1
-0.001067437 0.01625792 0.1397019 1 0 1
-3.912838E-05 0.01641495 0.138812 1 0 1
0.001074237 0.01674046 0.1369363 1 0 1
0.002261322 0.01723442 0.1340739 1 0 1
0.006510517 0.02222433 0.1047486 1 0 1
0.03713259 0.02491494 0.09632349 1 0 1
0.03831899 0.02401551 0.1021881 1 0 1
0.03947654 0.02328149 0.1070629 1 0 1
0.04036095 0.02319108 0.1079961 1 0 1
0.0411712 0.02326235 0.1079421 1 0 1
0.04198121 0.02333533 0.1078854 1 0 1
0.04270202 0.02356864 0.1068424 1 0 1
0.043415 0.02380294 0.1057972 1 0 1
0.04421671 0.02388026 0.1057324 1 0 1
0.04481761 0.02427441 0.1037001 1 0 1
0.04561121 0.02435432 0.1036304 1 0 1
0.04618895 0.0247495 0.1015944 1 0 1
0.04686288 0.02498836 0.1005384 1 0 1
0.04752896 0.02522807 0.09948041 1 0 1
0.04818721 0.02546861 0.0984204 1 0 1
0.04896039 0.02555473 0.0983387 1 0 1
0.04973323 0.02564246 0.09825424 1 0 1
0.05037541 0.02588616 0.09718768 1 0 1
0.05100973 0.02613061 0.09611924 1 0 1
0.05177397 0.02622232 0.09602752 1 0 1
0.05239626 0.02646863 0.09495503 1 0 1
0.05286539 0.02686811 0.09290323 1 0 1
0.05361719 0.02696322 0.09280487 1 0 1
-0.09021776 0.03190477 0.08759569 1 0 1
-0.08848281 0.03192927 0.08628722 1 0 1
-0.0872611 0.03184289 0.08582607 1 0 1
-0.08554558 0.03187714 0.08449995 1 0 1
-0.08433686 0.03179858 0.08402485 1 0 1
-0.08313308 0.03172344 0.08354373 1 0 1
-0.08193427 0.03165168 0.08305658 1 0 1
-0.08122606 0.0314627 0.08342925 1 0 1
-0.08051627 0.03127531 0.08379941 1 0 1
-0.07932594 0.03121189 0.08329783 1 0 1
-0.07814069 0.03115181 0.08279031 1 0 1
-0.07743295 0.03097098 0.08314952 1 0 1
-0.07625461 0.03091663 0.08263196 1 0 1
-0.07508146 0.03086557 0.08210859 1 0 1
-0.07391348 0.03081774 0.08157939 1 0 1
-0.07320982 0.03064576 0.08192365 1 0 1
-0.0715932 0.03073171 0.0805038 1 0 1
-0.07044098 0.03069348 0.07995743 1 0 1
-0.06974313 0.03052862 0.08028941 1 0 1
-0.06904389 0.03036535 0.08061893 1 0 1
-0.06790097 0.03033498 0.08005881 1 0 1
-0.06720237 0.03017557 0.08038183 1 0 1
-0.06606685 0.03015062 0.07981213 1 0 1
-0.06536897 0.02999508 0.0801287 1 0 1
-0.06466976 0.02984112 0.08044282 1 0 1
-0.06354383 0.02982381 0.0798596 1 0 1
-0.06242344 0.02980956 0.07927093 1 0 1
-0.06172718 0.0296617 0.07957469 1 0 1
-0.06061446 0.02965268 0.07897662 1 0 1
-0.05991909 0.02950862 0.07927403 1 0 1
-0.05881418 0.0295048 0.07866675 1 0 1
-0.05852464 0.0292251 0.07986152 1 0 1
-0.05782557 0.02908566 0.08015156 1 0 1
-0.05712528 0.02894772 0.08043919 1 0 1
-0.05642381 0.02881135 0.08072434 1 0 1
-0.05572113 0.0286765 0.08100707 1 0 1
-0.0550173 0.02854319 0.08128734 1 0 1
-0.05469638 0.02826805 0.08247718 1 0 1
-0.05398674 0.02813719 0.08275387 1 0 1
-0.05365307 0.02786319 0.08394289 1 0 1
-0.05368494 0.02744419 0.08604816 1 0 1
-0.05333153 0.02717021 0.08723878 1 0 1
-0.05333664 0.02675004 0.08934826 1 0 1
-0.05260027 0.02662333 0.08962028 1 0 1
-0.05222241 0.02635046 0.09081106 1 0 1
-0.05183637 0.026078 0.09200182 1 0 1
-0.0514422 0.02580605 0.09319252 1 0 1
-0.05103984 0.02553451 0.09438309 1 0 1
-0.05097485 0.02511346 0.09649984 1 0 1
-0.05123661 0.02454122 0.0995464 1 0 1
-0.05113754 0.02411846 0.1016688 1 0 1
-0.05135809 0.02354352 0.1047232 1 0 1
-0.05188758 0.02281482 0.1087132 1 0 1
-0.05205968 0.02223641 0.1117775 1 0 1
-0.05253354 0.02150333 0.1157794 1 0 1
-0.05329839 0.02061414 0.1207222 1 0 1
-0.05466059 0.01941315 0.127545 1 0 1
-0.055031 0.01867139 0.1315698 1 0 1
-0.05413185 0.01854871 0.1318485 1 0 1
-0.02243485 0.02343132 0.09531416 1 0 1
-0.02495781 0.02089533 0.1099039 1 0 1
-0.0256469 0.01967454 0.1168148 1 0 1
-0.02564871 0.01894816 0.120844 1 0 1
-0.02541232 0.01838724 0.1239123 1 0 1
-0.02454026 0.01832483 0.1240879 1 0 1
-0.02386804 0.01809785 0.125226 1 0 1
-0.0231877 0.01787226 0.1263625 1 0 1
-0.0223061 0.01781487 0.1265304 1 0 1
-0.02161325 0.01759225 0.1276629 1 0 1
-0.02072656 0.01753832 0.1278254 1 0 1
-0.02002123 0.01731875 0.1289538 1 0 1
-0.0191295 0.01726834 0.1291109 1 0 1
-0.01823713 0.01721982 0.1292648 1 0 1
-0.01734412 0.01717317 0.1294156 1 0 1
-0.01628336 0.01729671 0.1285919 1 0 1
-0.01539285 0.01725397 0.128736 1 0 1
-0.01466144 0.01704445 0.1298496 1 0 1
-0.01376604 0.01700529 0.129988 1 0 1
-0.01287006 0.01696798 0.1301234 1 0 1
-0.01227053 0.01659434 0.1322043 1 0 1
-0.01151071 0.01639131 0.1333094 1 0 1
-0.01088392 0.01602043 0.1353878 1 0 1
-0.01010438 0.01582054 0.1364892 1 0 1
-0.009450368 0.01545268 0.1385648 1 0 1
-0.008521294 0.0154258 0.1386854 1 0 1
-0.007717779 0.01523101 0.1397801 1 0 1
-0.006783998 0.01520794 0.1398947 1 0 1
-0.005968294 0.01501676 0.1409843 1 0 1
-0.004915083 0.01516762 0.1401141 1 0 1
-0.004090982 0.01498024 0.1411981 1 0 1
-0.003044411 0.01513512 0.1403206 1 0 1
-0.002004963 0.01529209 0.139439 1 0 1
-0.000972646 0.01545109 0.1385533 1 0 1
0.0001484956 0.0157825 0.1366831 1 0 1
0.001623815 0.01679751 0.1308839 1 0 1
0.004270561 0.01849316 0.1212274 1 0 1
0.03920005 0.02309822 0.1029885 1 0 1
0.04030324 0.02251194 0.1068726 1 0 1
0.04119175 0.02241981 0.1078023 1 0 1
0.04200228 0.02249295 0.1077456 1 0 1
0.04281254 0.0225678 0.1076862 1 0 1
0.04352973 0.02280656 0.1066414 1 0 1
0.04423909 0.02304627 0.1055945 1 0 1
0.04494064 0.02328695 0.1045453 1 0 1
0.0457385 0.02336744 0.1044754 1 0 1
0.04632026 0.02377102 0.1024406 1 0 1
0.04699832 0.02401438 0.1013851 1 0 1
0.04755311 0.02441852 0.09934715 1 0 1
0.04833088 0.02450363 0.09926798 1 0 1
0.04898538 0.02474947 0.09820644 1 0 1
0.0497587 0.02483742 0.09812215 1 0 1
0.05040122 0.02508524 0.0970564 1 0 1
0.0510359 0.02533381 0.09598879 1 0 1
0.05166268 0.02558306 0.09491935 1 0 1
0.05242324 0.02567614 0.09482557 1 0 1
0.05289254 0.02608363 0.09277521 1 0 1
0.05364482 0.02617898 0.09267701 1 0 1
-0.09028288 0.03104418 0.08743955 1 0 1
-0.08854686 0.03107603 0.08613236 1 0 1
-0.08732437 0.03099315 0.08567181 1 0 1
-0.08560778 0.03103471 0.08434702 1 0 1
-0.0843983 0.03095967 0.08387253 1 0 1
-0.08319374 0.03088804 0.08339199 1 0 1
-0.08199416 0.03081982 0.08290546 1 0 1
-0.08177131 0.03050599 0.08414315 1 0 1
-0.08057519 0.03044275 0.08364814 1 0 1
-0.0793841 0.03038286 0.08314717 1 0 1
-0.07819808 0.03032636 0.08264028 1 0 1
-0.07701716 0.03027309 0.08212749 1 0 1
-0.0758414 0.03022315 0.08160889 1 0 1
-0.07467081 0.03017644 0.08108449 1 0 1
-0.07396813 0.03000259 0.08143117 1 0 1
-0.07280462 0.02996152 0.08089688 1 0 1
-0.07164637 0.02992367 0.08035684 1 0 1
-0.07049342 0.02988901 0.07981111 1 0 1
-0.06979509 0.02972388 0.08014305 1 0 1
-0.06864942 0.02969473 0.0795876 1 0 1
-0.06795172 0.02953349 0.07991304 1 0 1
-0.06725264 0.02937383 0.08023603 1 0 1
-0.0661164 0.02935247 0.07966694 1 0 1
-0.06498561 0.02933417 0.07909235 1 0 1
-0.06428933 0.0291807 0.07940489 1 0 1
-0.06359175 0.02902876 0.079715 1 0 1
-0.06247063 0.02901807 0.07912696 1 0 1
-0.06177389 0.02886997 0.07943067 1 0 1
-0.06066047 0.02886455 0.07883332 1 0 1
-0.05996464 0.02872025 0.07913069 1 0 1
-0.05926755 0.02857746 0.0794256 1 0 1
-0.05856923 0.02843621 0.07971809 1 0 1
-0.05786968 0.0282965 0.08000812 1 0 1
-0.05756713 0.02801371 0.08120153 1 0 1
-0.05646699 0.02802173 0.08058085 1 0 1
-0.05615511 0.02774068 0.08177216 1 0 1
-0.0554473 0.02760646 0.08205377 1 0 1
-0.05473835 0.02747384 0.08233291 1 0 1
-0.0540282 0.02734272 0.08260956 1 0 1
-0.05369425 0.02706462 0.08379782 1 0 1
-0.05372606 0.0266376 0.08590169 1 0 1
-0.05337235 0.02635947 0.08709159 1 0 1
-0.05301049 0.02608172 0.08828158 1 0 1
-0.05300384 0.02565333 0.09039097 1 0 1
-0.05262215 0.02537573 0.09158229 1 0 1
-0.0522323 0.02509859 0.09277361 1 0 1
-0.05148148 0.0249747 0.0930417 1 0 1
-0.05142806 0.02454568 0.09515595 1 0 1
-0.05101364 0.02426999 0.0963469 1 0 1
-0.05093325 0.02384033 0.09846449 1 0 1
-0.05117619 0.02325503 0.1015123 1 0 1
-0.05139675 0.02266816 0.1045647 1 0 1
-0.05192638 0.02192364 0.1085518 1 0 1
-0.05275438 0.02101994 0.1134771 1 0 1
-0.05354562 0.02011277 0.1184113 1 0 1
-0.05430003 0.0192023 0.123354 1 0 1
-0.0553348 0.01813038 0.1292402 1 0 1
-0.05350234 0.01848265 0.1267113 1 0 1
-0.04951953 0.01995409 0.1176116 1 0 1
-0.04468787 0.02191604 0.1056718 1 0 1
-0.02276423 0.02301741 0.09308227 1 0 1
-0.02535145 0.0204258 0.1076506 1 0 1
-0.02651278 0.01884044 0.1164743 1 0 1
-0.02631449 0.0182668 0.1195388 1 0 1
-0.02609332 0.01769324 0.122605 1 0 1
-0.02564119 0.01728966 0.1247095 1 0 1
-0.02476488 0.01722686 0.124886 1 0 1
-0.02388782 0.0171659 0.1250593 1 0 1
-0.023207 0.0169363 0.1261952 1 0 1
-0.02232482 0.0168788 0.1263632 1 0 1
-0.02144194 0.01682319 0.1265282 1 0 1
-0.02074419 0.0165982 0.1276576 1 0 1
-0.01985624 0.01654607 0.1278172 1 0 1
-0.01896767 0.01649579 0.1279736 1 0 1
-0.01825307 0.01627555 0.1290965 1 0 1
-0.01718856 0.0164009 0.1282773 1 0 1
-0.01629808 0.01635624 0.1284245 1 0 1
-0.01557046 0.01614103 0.12954 1 0 1
-0.01451532 0.01627254 0.1287097 1 0 1
-0.01362306 0.0162335 0.1288476 1 0 1
-0.01288251 0.01602343 0.1299556 1 0 1
-0.01213395 0.01581492 0.1310615 1 0 1
-0.01137735 0.01560802 0.1321655 1 0 1
-0.01075379 0.01522942 0.134242 1 0 1
-0.01011474 0.01485225 0.1363176 1 0 1
-0.009460209 0.01447649 0.1383919 1 0 1
-0.008530547 0.01444958 0.1385125 1 0 1
-0.00772646 0.01425083 0.1396066 1 0 1
-0.006914375 0.01405391 0.1406984 1 0 1
-0.005975775 0.01403266 0.1408103 1 0 1
-0.005036748 0.0140134 0.1409189 1 0 1
-0.004208299 0.013822 0.1420027 1 0 1
-0.003371921 0.01363244 0.1430842 1 0 1
-0.002320553 0.01379318 0.1422045 1 0 1
-0.001176559 0.01413026 0.1403412 1 0 1
0.0001447391 0.01481806 0.1365132 1 0 1
0.001712948 0.01603109 0.129738 1 0 1
0.003671063 0.01811811 0.1180512 1 0 1
0.00613191 0.02142791 0.09948622 1 0 1
0.03985636 0.02267909 0.1008331 1 0 1
0.04096771 0.02207966 0.1047114 1 0 1
0.04193822 0.02181827 0.1066203 1 0 1
0.0428344 0.02172644 0.1075432 1 0 1
0.04355197 0.02196929 0.1064994 1 0 1
0.04435842 0.02204736 0.1064347 1 0 1
0.04506413 0.02229249 0.105386 1 0 1
0.045762 0.02253857 0.1043352 1 0 1
0.04645202 0.02278557 0.1032823 1 0 1
0.04713422 0.02303342 0.1022272 1 0 1
0.04780858 0.02328216 0.1011701 1 0 1
0.04847503 0.02353168 0.100111 1 0 1
0.04913366 0.02378206 0.09904991 1 0 1
0.04991121 0.02387063 0.09896539 1 0 1
0.05042728 0.02428512 0.09692194 1 0 1
0.05106227 0.0245378 0.09585515 1 0 1
0.05182743 0.02462992 0.09576375 1 0 1
0.0524504 0.02488445 0.09469294 1 0 1
0.05306548 0.02513968 0.09362032 1 0 1
0.05367264 0.02539551 0.09254602 1 0 1
-0.08983816 0.03030654 0.08642796 1 0 1
-0.08810431 0.03034661 0.08512031 1 0 1
-0.0863818 0.03039203 0.08380293 1 0 1
-0.08516989 0.03031794 0.08333337 1 0 1
-0.08396289 0.03024728 0.08285774 1 0 1
-0.08276085 0.03018007 0.08237607 1 0 1
-0.0820532 0.02998878 0.0827511 1 0 1
-0.08134398 0.02979909 0.08312361 1 0 1
-0.08063325 0.02961105 0.0834936 1 0 1
-0.07944141 0.0295547 0.08299326 1 0 1
-0.07825464 0.0295017 0.08248701 1 0 1
-0.07754591 0.0293202 0.08284608 1 0 1
-0.0763661 0.02927295 0.08232978 1 0 1
-0.07472514 0.02936246 0.08093315 1 0 1
-0.07402197 0.02918825 0.08127976 1 0 1
-0.07285774 0.02915075 0.08074611 1 0 1
-0.07169878 0.02911647 0.08020674 1 0 1
-0.07099801 0.02894868 0.08054268 1 0 1
-0.06984629 0.02891997 0.07999353 1 0 1
-0.0691461 0.02875608 0.08032297 1 0 1
-0.06800171 0.02873285 0.07976414 1 0 1
-0.06686272 0.02871276 0.07919975 1 0 1
-0.06616522 0.02855514 0.07951868 1 0 1
-0.06503372 0.02854043 0.07894474 1 0 1
-0.06433697 0.02838669 0.07925723 1 0 1
-0.0636389 0.02823448 0.07956728 1 0 1
-0.06251711 0.02822743 0.07897996 1 0 1
-0.06181987 0.02807904 0.07928361 1 0 1
-0.06112138 0.02793219 0.07958485 1 0 1
-0.06042165 0.02778693 0.07988363 1 0 1
-0.05931191 0.02778964 0.07927916 1 0 1
-0.05861312 0.02764815 0.07957157 1 0 1
