ply
format ascii 1.0
Comment Generated by Floating Hands
element vertex 1197
property double x
property double y
property double z
property uchar red
property uchar green
property uchar blue
end_header
-0.06163426 -0.0115707 0.1038716 1 0 1
-0.05812083 -0.009556874 0.09809082 1 0 1
-0.05616615 -0.008782032 0.09577544 1 0 1
-0.05423177 -0.008001127 0.09344953 1 0 1
-0.05342851 -0.008156564 0.09373581 1 0 1
-0.05115739 -0.007051026 0.09051751 1 0 1
-0.04964002 -0.006569215 0.08903989 1 0 1
-0.04633882 -0.004502177 0.08316471 1 0 1
-0.04379876 -0.003057712 0.07902805 1 0 1
0.04021617 -0.01097937 0.09969352 1 0 1
0.04143635 -0.01331241 0.1062345 1 0 1
0.04253212 -0.01462019 0.1099549 1 0 1
0.04353196 -0.01524453 0.1117945 1 0 1
0.04447982 -0.01552645 0.1126922 1 0 1
0.04529293 -0.01512734 0.1117106 1 0 1
0.046023 -0.01438789 0.1097887 1 0 1
0.04673736 -0.01364762 0.1078646 1 0 1
0.04743597 -0.0129066 0.1059386 1 0 1
0.04811881 -0.01216491 0.1040106 1 0 1
0.04887644 -0.01176045 0.1030176 1 0 1
0.04981487 -0.01202983 0.1038954 1 0 1
0.05056418 -0.01162235 0.1028973 1 0 1
0.05150976 -0.01188742 0.1037688 1 0 1
0.05235675 -0.01181347 0.1037012 1 0 1
0.05331331 -0.01207389 0.1045661 1 0 1
0.05416349 -0.01199592 0.1044925 1 0 1
0.05489572 -0.01158064 0.1034813 1 0 1
0.05574136 -0.01149935 0.1034023 1 0 1
0.05658662 -0.01141623 0.1033204 1 0 1
0.05743146 -0.0113313 0.1032357 1 0 1
0.05814287 -0.01091059 0.102215 1 0 1
0.05898309 -0.01082237 0.102125 1 0 1
0.05982286 -0.01073236 0.1020322 1 0 1
0.06066224 -0.01064049 0.1019365 1 0 1
0.06135269 -0.01021458 0.1009066 1 0 1
0.06218729 -0.01011954 0.1008057 1 0 1
0.06317759 -0.01035408 0.1016325 1 0 1
0.06401509 -0.01025497 0.1015254 1 0 1
0.06501595 -0.01048451 0.1023451 1 0 1
0.06602395 -0.01071129 0.1031609 1 0 1
0.0668676 -0.01060578 0.1030443 1 0 1
0.06771077 -0.0104984 0.1029248 1 0 1
0.06873253 -0.01071774 0.1037299 1 0 1
0.06939541 -0.01027819 0.1026774 1 0 1
0.07023691 -0.01016532 0.1025494 1 0 1
0.07145908 -0.01070465 0.1042698 1 0 1
0.07289037 -0.0115665 0.1069098 1 0 1
0.07493875 -0.01340109 0.1123163 1 0 1
0.07804269 -0.0168542 0.122331 1 0 1
0.08122983 -0.02029319 0.1323285 1 0 1
0.08429032 -0.02339354 0.1413859 1 0 1
0.08635869 -0.0248618 0.1458178 1 0 1
0.08824699 -0.025999 0.1493183 1 0 1
0.08905932 -0.02551655 0.148208 1 0 1
0.09031305 -0.02567692 0.1489348 1 0 1
0.09088738 -0.02486986 0.1469 1 0 1
0.09167821 -0.02438369 0.1457827 1 0 1
0.09246059 -0.02389652 0.1446635 1 0 1
0.09323449 -0.02340838 0.1435422 1 0 1
0.09375612 -0.02260043 0.1415032 1 0 1
0.09450933 -0.0221111 0.140379 1 0 1
0.09500269 -0.02130332 0.1383387 1 0 1
0.0957352 -0.02081288 0.1372118 1 0 1
0.09645927 -0.02032156 0.136083 1 0 1
-0.06580973 0.00273429 0.06577883 1 0 1
-0.06512091 0.002549404 0.06610315 1 0 1
-0.06443068 0.002366087 0.06642515 1 0 1
-0.06420118 0.001887313 0.06758045 1 0 1
-0.06396336 0.001408305 0.06873655 1 0 1
-0.06326208 0.001227927 0.06905469 1 0 1
-0.06301115 0.0007494548 0.07021078 1 0 1
-0.06320019 -2.975285E-05 0.07220946 1 0 1
-0.06292915 -0.0005094107 0.07336851 1 0 1
-0.06309112 -0.001291453 0.07537311 1 0 1
-0.06323776 -0.002075238 0.07738129 1 0 1
-0.06380337 -0.003164763 0.08024095 1 0 1
-0.06391579 -0.003952788 0.08225763 1 0 1
-0.0640128 -0.004742414 0.08427769 1 0 1
-0.06451819 -0.005840073 0.08715341 1 0 1
-0.0658416 -0.007555472 0.09174284 1 0 1
-0.06879533 -0.01050946 0.09976494 1 0 1
-0.07127086 -0.01316705 0.1069534 1 0 1
-0.07245928 -0.01490639 0.1115875 1 0 1
-0.07036178 -0.014168 0.109357 1 0 1
-0.06747889 -0.01280061 0.1053935 1 0 1
-0.06502912 -0.0117356 0.1022755 1 0 1
-0.06418822 -0.01191362 0.1025982 1 0 1
-0.06256217 -0.01146277 0.1011881 1 0 1
-0.06172564 -0.01163551 0.1015025 1 0 1
-0.06088775 -0.01180638 0.101814 1 0 1
-0.05890507 -0.0110284 0.09951592 1 0 1
-0.0569426 -0.01024427 0.09720717 1 0 1
-0.05537437 -0.00977112 0.09575942 1 0 1
-0.05455996 -0.009928906 0.09604945 1 0 1
-0.05264407 -0.009129507 0.09371449 1 0 1
-0.05038548 -0.008004989 0.09049381 1 0 1
-0.04851414 -0.007193134 0.08813712 1 0 1
-0.0459516 -0.005734507 0.08401465 1 0 1
-0.04271972 -0.003625299 0.07811918 1 0 1
0.04195397 -0.01201496 0.1002787 1 0 1
0.04316942 -0.01402303 0.1058654 1 0 1
0.0443639 -0.01568296 0.1105102 1 0 1
0.04531198 -0.01596649 0.1114038 1 0 1
0.04611734 -0.01556215 0.1104211 1 0 1
0.04691471 -0.01515646 0.1094359 1 0 1
0.04762123 -0.01440732 0.1075122 1 0 1
0.04831198 -0.01365747 0.1055866 1 0 1
0.04898696 -0.01290697 0.103659 1 0 1
0.04983516 -0.01283833 0.1036002 1 0 1
0.05058473 -0.01242694 0.1026035 1 0 1
0.05142848 -0.01235495 0.1025392 1 0 1
0.0522719 -0.01228114 0.1024721 1 0 1
0.05322501 -0.01254536 0.1033361 1 0 1
0.05407164 -0.01246755 0.103263 1 0 1
0.05480025 -0.01204871 0.1022536 1 0 1
0.05576388 -0.01230639 0.1031081 1 0 1
0.05660944 -0.01222307 0.1030264 1 0 1
0.05732533 -0.01179988 0.1020096 1 0 1
0.0580331 -0.01137564 0.1009908 1 0 1
0.05886977 -0.01128762 0.1009014 1 0 1
0.05970602 -0.01119778 0.1008091 1 0 1
0.06054183 -0.01110614 0.1007141 1 0 1
0.06122862 -0.01067672 0.09968606 1 0 1
0.06221212 -0.0109174 0.1005154 1 0 1
0.06304655 -0.01082028 0.1004119 1 0 1
0.06404065 -0.011056 0.1012342 1 0 1
0.06487798 -0.01095481 0.1011245 1 0 1
0.06588258 -0.01118549 0.1019396 1 0 1
0.06672275 -0.01108017 0.1018238 1 0 1
0.06756233 -0.01097304 0.1017051 1 0 1
0.06840143 -0.01086407 0.1015835 1 0 1
0.06923997 -0.01075326 0.1014591 1 0 1
0.06989101 -0.01030944 0.100407 1 0 1
0.07091534 -0.01052619 0.1012018 1 0 1
0.07214128 -0.01107021 0.1029162 1 0 1
0.07358032 -0.01193984 0.1055483 1 0 1
0.07564826 -0.01379149 0.110941 1 0 1
0.07837941 -0.0166201 0.1190883 1 0 1
0.08201777 -0.02074838 0.1309053 1 0 1
0.08489987 -0.02355033 0.1390199 1 0 1
0.08784969 -0.0263397 0.1471189 1 0 1
0.08953962 -0.02715919 0.1496877 1 0 1
0.09057641 -0.02699605 0.1494937 1 0 1
0.0913835 -0.02650569 0.1483787 1 0 1
0.09194949 -0.02568989 0.1463447 1 0 1
0.09249945 -0.0248743 0.1443101 1 0 1
0.09303339 -0.024059 0.1422751 1 0 1
0.09355129 -0.02324405 0.1402397 1 0 1
0.09430092 -0.02275129 0.1391179 1 0 1
0.09504209 -0.02225768 0.1379943 1 0 1
0.09577484 -0.02176319 0.1368689 1 0 1
0.0964991 -0.02126784 0.1357418 1 0 1
-0.06857799 0.002761894 0.06418406 1 0 1
-0.06789458 0.002570403 0.06451749 1 0 1
-0.06652344 0.002192123 0.06517749 1 0 1
-0.06583575 0.002005345 0.06550401 1 0 1
-0.06514665 0.001820179 0.06582817 1 0 1
-0.06492182 0.00133677 0.06698272 1 0 1
-0.0646887 0.0008531382 0.06813812 1 0 1
-0.06444727 0.0003692892 0.0692943 1 0 1
-0.06374227 0.000187718 0.0696139 1 0 1
-0.06348771 -0.0002956026 0.07077008 1 0 1
-0.06322483 -0.0007790662 0.07192696 1 0 1
-0.06295364 -0.001262636 0.07308449 1 0 1
-0.06311555 -0.002052268 0.07508625 1 0 1
-0.06370004 -0.003150448 0.07793661 1 0 1
-0.0642622 -0.004252054 0.08079354 1 0 1
-0.0652329 -0.005665462 0.0845049 1 0 1
-0.06617413 -0.007083773 0.08822556 1 0 1
-0.06750976 -0.008817025 0.09280623 1 0 1
-0.06964952 -0.01117851 0.09910366 1 0 1
-0.07298901 -0.01448463 0.10798 1 0 1
-0.07294978 -0.01530456 0.11004 1 0 1
-0.07166557 -0.01518568 0.1095326 1 0 1
-0.0699807 -0.01474922 0.1081614 1 0 1
-0.06830854 -0.01430771 0.1067818 1 0 1
-0.06625001 -0.01354556 0.1045328 1 0 1
-0.06460701 -0.01309334 0.1031351 1 0 1
-0.06336883 -0.01295336 0.1025926 1 0 1
-0.06174801 -0.01249213 0.1011797 1 0 1
-0.06014013 -0.01202609 0.09975864 1 0 1
-0.05854524 -0.01155529 0.09832951 1 0 1
-0.0562081 -0.01043965 0.09515461 1 0 1
-0.05539464 -0.01059955 0.09544731 1 0 1
-0.05346859 -0.009793267 0.09312292 1 0 1
-0.05156294 -0.008981035 0.09078819 1 0 1
-0.04967775 -0.008162864 0.08844317 1 0 1
-0.0478131 -0.007338902 0.08608807 1 0 1
-0.04561304 -0.006185027 0.08284643 1 0 1
-0.04379325 -0.005348967 0.08047017 1 0 1
-0.04199415 -0.00450732 0.07808404 1 0 1
-0.04056088 -0.003986267 0.07656837 1 0 1
-0.03948253 -0.00378778 0.07592673 1 0 1
-0.0387482 -0.003913782 0.07616276 1 0 1
-0.03801284 -0.004038172 0.07639633 1 0 1
-0.03760689 -0.004489527 0.07751224 1 0 1
-0.03653909 -0.004282034 0.07685614 1 0 1
0.04255189 -0.01136709 0.09620678 1 0 1
0.04404552 -0.01478257 0.105524 1 0 1
0.04518857 -0.01611097 0.1092231 1 0 1
0.04613685 -0.01639609 0.1101124 1 0 1
0.04701357 -0.01633267 0.1100636 1 0 1
0.04772411 -0.01557565 0.1081426 1 0 1
0.04841888 -0.01481797 0.1062196 1 0 1
0.04909788 -0.0140596 0.1042947 1 0 1
0.04985568 -0.01364553 0.1033018 1 0 1
0.05060545 -0.01323025 0.1023066 1 0 1
0.05134718 -0.0128138 0.1013092 1 0 1
0.05218704 -0.01274013 0.1012425 1 0 1
0.0531367 -0.0130082 0.1021056 1 0 1
0.05397979 -0.01293053 0.102033 1 0 1
0.05482254 -0.01285102 0.1019574 1 0 1
0.05566492 -0.0127697 0.1018791 1 0 1
0.05650695 -0.01268651 0.1017979 1 0 1
0.05734856 -0.01260151 0.1017139 1 0 1
0.05805654 -0.0121734 0.1006966 1 0 1
0.05889351 -0.01208515 0.1006073 1 0 1
0.05973007 -0.01199506 0.1005152 1 0 1
0.06056617 -0.01190319 0.1004203 1 0 1
0.06125316 -0.01146986 0.09939388 1 0 1
0.06208456 -0.01137477 0.09929379 1 0 1
0.06307184 -0.01161661 0.1001187 1 0 1
0.06390613 -0.01151746 0.1000125 1 0 1
0.06490397 -0.0117543 0.1008303 1 0 1
0.06574111 -0.01165104 0.1007179 1 0 1
0.06657772 -0.01154596 0.1006028 1 0 1
0.06741382 -0.01143905 0.1004848 1 0 1
0.06824936 -0.01133031 0.100364 1 0 1
0.06908438 -0.01121975 0.1002403 1 0 1
0.06973177 -0.01077251 0.09919035 1 0 1
0.07075268 -0.01099317 0.09998456 1 0 1
0.07158599 -0.01087715 0.09985246 1 0 1
0.07281572 -0.01142583 0.1015609 1 0 1
0.07446481 -0.0126359 0.1051061 1 0 1
0.07634997 -0.01417183 0.1095638 1 0 1
0.07890247 -0.01669499 0.1167712 1 0 1
0.08215659 -0.02020008 0.1267223 1 0 1
0.08549369 -0.02369041 0.1366552 1 0 1
0.08847094 -0.02650598 0.1447342 1 0 1
0.09016462 -0.02733318 0.1472951 1 0 1
0.09096435 -0.02683998 0.146183 1 0 1
0.09152284 -0.02601772 0.1441534 1 0 1
0.0925384 -0.02585053 0.1439529 1 0 1
0.09283207 -0.02470077 0.1410067 1 0 1
0.09334625 -0.02387878 0.1389751 1 0 1
0.09434025 -0.02370813 0.1387681 1 0 1
0.09508158 -0.02321047 0.137646 1 0 1
0.09555905 -0.02238779 0.1356114 1 0 1
0.09679818 -0.02253608 0.1363068 1 0 1
-0.06586106 0.001277616 0.06522634 1 0 1
-0.06564089 0.0007896141 0.0663801 1 0 1
-0.06541245 0.0003013655 0.0675347 1 0 1
-0.06517573 -0.0001871408 0.06869018 1 0 1
-0.06447181 -0.0003706232 0.06901203 1 0 1
-0.06376652 -0.0005525071 0.0693315 1 0 1
-0.0635118 -0.001039766 0.07048617 1 0 1
-0.06369726 -0.001835012 0.07248064 1 0 1
-0.06386742 -0.002632145 0.07447886 1 0 1
-0.06402229 -0.003431046 0.07648073 1 0 1
-0.06459987 -0.004542165 0.07932988 1 0 1
-0.0655896 -0.005967936 0.08303066 1 0 1
-0.06698094 -0.00771083 0.08758746 1 0 1
-0.06919085 -0.01008617 0.09385267 1 0 1
-0.07135008 -0.01247123 0.1001357 1 0 1
-0.07303806 -0.01455125 0.1055852 1 0 1
-0.07301437 -0.01537754 0.1076395 1 0 1
-0.07173476 -0.01525655 0.1071349 1 0 1
-0.07046071 -0.01513202 0.1066246 1 0 1
-0.06919227 -0.01500396 0.1061085 1 0 1
-0.06792946 -0.01487244 0.1055868 1 0 1
-0.06587388 -0.0140989 0.1033406 1 0 1
-0.06462954 -0.01395896 0.102805 1 0 1
-0.06260677 -0.01317406 0.1005394 1 0 1
-0.06138107 -0.01302587 0.09999006 1 0 1
-0.05939136 -0.01222981 0.09770554 1 0 1
-0.05780314 -0.01175051 0.09627646 1 0 1
-0.05585025 -0.0109428 0.09397192 1 0 1
-0.05466595 -0.01077784 0.09339447 1 0 1
-0.05274653 -0.009959453 0.09107161 1 0 1
-0.0504806 -0.008809277 0.08786708 1 0 1
-0.04896901 -0.008304843 0.08639504 1 0 1
-0.04711103 -0.007468769 0.08404155 1 0 1
-0.04527368 -0.006626963 0.08167806 1 0 1
-0.04380938 -0.00610799 0.08018096 1 0 1
-0.04270729 -0.005913838 0.07955399 1 0 1
-0.0416114 -0.005716743 0.07892212 1 0 1
-0.04052175 -0.005516709 0.0782854 1 0 1
-0.03977617 -0.005644827 0.0785249 1 0 1
-0.03902954 -0.00577125 0.0787619 1 0 1
-0.03828188 -0.005896062 0.07899644 1 0 1
-0.03720636 -0.005686293 0.07834395 1 0 1
-0.03581403 -0.005140216 0.07680111 1 0 1
-0.03507438 -0.005258258 0.07702482 1 0 1
0.04352396 -0.01279212 0.09774612 1 0 1
0.0450651 -0.01623935 0.1070447 1 0 1
0.04615662 -0.01722872 0.1098005 1 0 1
0.04711285 -0.01751489 0.1106853 1 0 1
0.04791045 -0.01709958 0.1097002 1 0 1
0.04852619 -0.01598453 0.1068466 1 0 1
0.04920918 -0.01521827 0.1049243 1 0 1
0.04997107 -0.01480004 0.1039327 1 0 1
0.05062639 -0.01403228 0.1020066 1 0 1
0.05147075 -0.01395992 0.1019425 1 0 1
0.0523148 -0.0138857 0.1018757 1 0 1
0.05315857 -0.01380964 0.101806 1 0 1
0.05400196 -0.01373176 0.1017335 1 0 1
0.05484502 -0.01365203 0.1016581 1 0 1
0.0556877 -0.0135705 0.10158 1 0 1
0.05653003 -0.01348711 0.1014989 1 0 1
0.05737197 -0.01340188 0.101415 1 0 1
0.05821351 -0.01331484 0.1013284 1 0 1
0.05905465 -0.01322596 0.1012388 1 0 1
0.05989535 -0.01313524 0.1011465 1 0 1
0.06059068 -0.01269896 0.1001235 1 0 1
0.06127789 -0.01226172 0.09909857 1 0 1
0.06210954 -0.0121664 0.09899862 1 0 1
0.06294078 -0.01206927 0.09889591 1 0 1
0.06377151 -0.01197032 0.09879039 1 0 1
0.06476593 -0.01221105 0.09960748 1 0 1
0.06559952 -0.01210801 0.09949584 1 0 1
0.0664326 -0.01200313 0.09938137 1 0 1
0.06744087 -0.01223648 0.1001879 1 0 1
0.06809717 -0.01178795 0.099144 1 0 1
0.06892862 -0.01167764 0.09902111 1 0 1
0.06975957 -0.01156549 0.09889539 1 0 1
0.07078091 -0.01178952 0.09968847 1 0 1
0.07141966 -0.01133577 0.09863557 1 0 1
0.07244749 -0.01155509 0.09942177 1 0 1
0.07348235 -0.0117715 0.1002039 1 0 1
0.0749368 -0.01265656 0.10282 1 0 1
0.0764135 -0.01353641 0.1054295 1 0 1
0.07898199 -0.0160842 0.1126207 1 0 1
0.08269927 -0.02029118 0.1243833 1 0 1
0.08629326 -0.02414732 0.1352085 1 0 1
0.08885108 -0.02632256 0.1414353 1 0 1
0.09031559 -0.02682579 0.1430739 1 0 1
0.0913286 -0.02666106 0.1428778 1 0 1
0.09234075 -0.02649409 0.1426783 1 0 1
0.09263051 -0.02533369 0.1397372 1 0 1
0.09338523 -0.02483444 0.1386212 1 0 1
0.09413151 -0.02433429 0.1375034 1 0 1
0.0948693 -0.02383326 0.1363838 1 0 1
0.09585427 -0.02365914 0.1361719 1 0 1
0.09709766 -0.02380999 0.1368653 1 0 1
-0.06863003 0.001310182 0.06362699 1 0 1
-0.06794607 0.001118032 0.06396019 1 0 1
-0.0672607 0.0009274663 0.06429107 1 0 1
-0.06705005 0.0004342149 0.06544469 1 0 1
-0.06683115 -5.930517E-05 0.06659922 1 0 1
-0.06613462 -0.0002469946 0.0669264 1 0 1
-0.06636848 -0.001047116 0.06891096 1 0 1
-0.06566226 -0.001233439 0.06923663 1 0 1
-0.06495462 -0.001418154 0.06955993 1 0 1
-0.0642456 -0.001601246 0.06988086 1 0 1
-0.0644393 -0.002403924 0.07187171 1 0 1
-0.06416916 -0.00289701 0.07302866 1 0 1
-0.06433581 -0.003702543 0.07502549 1 0 1
-0.06492876 -0.004823097 0.07786672 1 0 1
-0.0659375 -0.006261196 0.08155681 1 0 1
-0.06822079 -0.008649089 0.08778763 1 0 1
-0.07088477 -0.01136272 0.09488189 1 0 1
-0.07391876 -0.01440443 0.1028438 1 0 1
-0.07476737 -0.01587212 0.1065885 1 0 1
-0.0743245 -0.01638972 0.107793 1 0 1
-0.07303892 -0.01626901 0.1072955 1 0 1
-0.07134534 -0.01582486 0.1059396 1 0 1
-0.06966443 -0.01537562 0.1045753 1 0 1
-0.06840266 -0.01524272 0.1040578 1 0 1
-0.06714653 -0.0151063 0.1035347 1 0 1
-0.06509744 -0.01432062 0.1012898 1 0 1
-0.0638598 -0.01417583 0.1007527 1 0 1
-0.0618436 -0.01337876 0.09848858 1 0 1
-0.06062463 -0.01322575 0.09793784 1 0 1
-0.05864149 -0.01241754 0.09565476 1 0 1
-0.05705995 -0.01192979 0.09422579 1 0 1
-0.05511369 -0.01110998 0.09192281 1 0 1
-0.05393618 -0.0109402 0.09134407 1 0 1
-0.05202341 -0.0101097 0.08902279 1 0 1
-0.05013108 -0.009273229 0.08669122 1 0 1
-0.04862264 -0.008761044 0.08522066 1 0 1
-0.04676775 -0.00791356 0.08287006 1 0 1
-0.0452896 -0.007391844 0.08138318 1 0 1
-0.04417735 -0.007197923 0.08076373 1 0 1
-0.04307126 -0.007000997 0.08013932 1 0 1
-0.04197136 -0.006801117 0.07951 1 0 1
-0.04121923 -0.006932355 0.07975429 1 0 1
-0.04012815 -0.006727213 0.07911642 1 0 1
-0.03937759 -0.006854477 0.07935454 1 0 1
-0.0382954 -0.006644138 0.07870819 1 0 1
-0.03754642 -0.006767463 0.07894018 1 0 1
-0.0364732 -0.006551994 0.07828544 1 0 1
-0.03604544 -0.007009165 0.07939669 1 0 1
-0.03466177 -0.006450858 0.07784835 1 0 1
0.04472701 -0.01528956 0.102071 1 0 1
0.04610122 -0.01770622 0.1085531 1 0 1
0.04721252 -0.01870313 0.1113009 1 0 1
0.04801424 -0.01828367 0.1103171 1 0 1
0.04872092 -0.01750998 0.1083992 1 0 1
0.04941181 -0.01673558 0.1064793 1 0 1
0.05008689 -0.01596057 0.1045577 1 0 1
0.05074619 -0.01518497 0.1026342 1 0 1
0.05159475 -0.01511206 0.10257 1 0 1
0.05233657 -0.01468603 0.1015728 1 0 1
0.0531806 -0.01460977 0.1015032 1 0 1
0.05402433 -0.01453169 0.1014309 1 0 1
0.05486768 -0.01445175 0.1013557 1 0 1
0.05571067 -0.01436999 0.1012776 1 0 1
0.0565533 -0.01428638 0.1011968 1 0 1
0.05752514 -0.01455 0.1020412 1 0 1
0.05823737 -0.01411366 0.1010265 1 0 1
0.05907879 -0.01402455 0.1009371 1 0 1
0.05977863 -0.01358578 0.09991808 1 0 1
0.06047032 -0.01314604 0.09889707 1 0 1
0.06130273 -0.01305231 0.09880014 1 0 1
0.06198195 -0.01261022 0.09777484 1 0 1
0.06280962 -0.01251328 0.09767277 1 0 1
0.06379727 -0.01276015 0.09849245 1 0 1
0.0646278 -0.01265915 0.0983843 1 0 1
0.06545783 -0.01255635 0.09827334 1 0 1
0.06628739 -0.0124517 0.09815959 1 0 1
0.06711638 -0.01234524 0.098043 1 0 1
0.06794486 -0.01223697 0.09792367 1 0 1
0.0687728 -0.01212689 0.09780152 1 0 1
0.06960016 -0.012015 0.09767655 1 0 1
0.07061812 -0.01224293 0.09846901 1 0 1
0.0712532 -0.01178579 0.0974183 1 0 1
0.07207885 -0.01166848 0.09728497 1 0 1
0.07310647 -0.01188934 0.09806716 1 0 1
0.07414114 -0.01210728 0.09884532 1 0 1
0.0751828 -0.01232227 0.09961935 1 0 1
0.07708766 -0.01388746 0.1040547 1 0 1
0.07990137 -0.01679581 0.1121432 1 0 1
0.08344791 -0.02070295 0.1229612 1 0 1
0.08685946 -0.0242572 0.132845 1 0 1
0.08920754 -0.02611643 0.138142 1 0 1
0.090668 -0.02662497 0.1397755 1 0 1
0.09190599 -0.02679414 0.1404905 1 0 1
0.0926694 -0.0262918 0.139378 1 0 1
0.09317987 -0.02545514 0.137353 1 0 1
0.09417078 -0.02528431 0.1371473 1 0 1
0.0949088 -0.0247793 0.1360294 1 0 1
0.09563828 -0.02427339 0.1349096 1 0 1
0.09687843 -0.02442813 0.1356028 1 0 1
-0.06728505 0.0002027146 0.06400809 1 0 1
-0.06707427 -0.0002944526 0.06516015 1 0 1
-0.06685521 -0.0007919162 0.06631316 1 0 1
-0.06709732 -0.001599336 0.06829391 1 0 1
-0.06685823 -0.002098229 0.06945029 1 0 1
-0.06661087 -0.002597326 0.07060748 1 0 1
-0.06589603 -0.002784136 0.0709338 1 0 1
-0.06517981 -0.002969346 0.07125774 1 0 1
-0.06536655 -0.003781347 0.07324876 1 0 1
-0.06508927 -0.004280115 0.07440723 1 0 1
-0.0656941 -0.005410937 0.07724201 1 0 1
-0.06671837 -0.0068621 0.08092278 1 0 1
-0.0685898 -0.008953783 0.0862948 1 0 1
-0.07128727 -0.01169098 0.09336688 1 0 1
-0.07478969 -0.01507859 0.1021477 1 0 1
-0.07608172 -0.01687995 0.1067289 1 0 1
-0.07521597 -0.01708249 0.107088 1 0 1
-0.07392797 -0.0169612 0.1065961 1 0 1
-0.07264546 -0.01683637 0.1060984 1 0 1
-0.07095493 -0.01638449 0.1047439 1 0 1
-0.06927703 -0.01592753 0.1033809 1 0 1
-0.06801837 -0.01579051 0.1028632 1 0 1
-0.06636242 -0.01532421 0.1014848 1 0 1
-0.06471924 -0.01485295 0.1000979 1 0 1
-0.06308894 -0.01437674 0.09870282 1 0 1
-0.06107928 -0.01356755 0.09644014 1 0 1
-0.05947841 -0.01308086 0.09502733 1 0 1
-0.05750544 -0.01225982 0.09274444 1 0 1
-0.05593422 -0.01176286 0.09131428 1 0 1
-0.05437608 -0.01126121 0.08987619 1 0 1
-0.05283109 -0.01075493 0.08843027 1 0 1
-0.05129929 -0.01024404 0.08697655 1 0 1
-0.04941365 -0.009395498 0.08464664 1 0 1
-0.047912 -0.008874892 0.08317635 1 0 1
-0.04642366 -0.008349819 0.08169847 1 0 1
-0.0453049 -0.008155489 0.08108535 1 0 1
-0.04419227 -0.007958155 0.08046725 1 0 1
-0.04308583 -0.00775782 0.07984421 1 0 1
-0.04198556 -0.007554472 0.07921626 1 0 1
-0.04123314 -0.007685931 0.07946048 1 0 1
-0.04014171 -0.007477346 0.07882398 1 0 1
-0.03939084 -0.007604825 0.07906204 1 0 1
-0.03863893 -0.007730659 0.07929762 1 0 1
-0.03788599 -0.00785478 0.07953066 1 0 1
-0.03680876 -0.007636458 0.07887845 1 0 1
-0.03637708 -0.008098056 0.07998931 1 0 1
-0.03530522 -0.007875181 0.07932987 1 0 1
-0.03423975 -0.007649496 0.07866572 1 0 1
-0.0328722 -0.007077875 0.07710979 1 0 1
0.04410192 -0.01287087 0.09338401 1 0 1
0.04589495 -0.01746014 0.1054434 1 0 1
0.04715389 -0.01918307 0.1100492 1 0 1
0.04811845 -0.01947374 0.110928 1 0 1
0.04882914 -0.0186922 0.1090128 1 0 1
0.04952403 -0.01790999 0.1070957 1 0 1
0.05020308 -0.01712713 0.1051767 1 0 1
0.05086637 -0.01634368 0.1032558 1 0 1
0.05161649 -0.01591495 0.1022624 1 0 1
0.05246503 -0.01584 0.1021955 1 0 1
0.05331324 -0.01576319 0.1021258 1 0 1
0.05404687 -0.01533029 0.1011251 1 0 1
0.05500864 -0.01560402 0.1019779 1 0 1
0.05573381 -0.01516817 0.1009722 1 0 1
0.05670261 -0.01543744 0.1018186 1 0 1
0.05741927 -0.0149987 0.1008079 1 0 1
0.05826142 -0.01491118 0.1007215 1 0 1
0.05910316 -0.01482185 0.1006323 1 0 1
0.05994447 -0.01473067 0.1005403 1 0 1
0.06064018 -0.01428661 0.09952041 1 0 1
0.06132773 -0.01384159 0.0984986 1 0 1
0.06215999 -0.01374578 0.09839901 1 0 1
0.06283507 -0.01329846 0.09737296 1 0 1
0.06366254 -0.01319945 0.09726825 1 0 1
0.06448955 -0.01309866 0.09716074 1 0 1
0.06531601 -0.01299606 0.09705047 1 0 1
0.06614201 -0.01289166 0.09693743 1 0 1
0.06714342 -0.01313276 0.09774268 1 0 1
0.0677924 -0.01267741 0.09670297 1 0 1
0.06880038 -0.0129139 0.09750155 1 0 1
0.06962809 -0.01280173 0.09737676 1 0 1
0.07064643 -0.01303302 0.09816801 1 0 1
0.07108659 -0.01222722 0.09620067 1 0 1
0.07190865 -0.01211018 0.09606812 1 0 1
0.07273017 -0.01199131 0.09593283 1 0 1
0.0737576 -0.01221372 0.09671107 1 0 1
0.0745817 -0.01209068 0.09656958 1 0 1
0.0760477 -0.01299162 0.09917023 1 0 1
0.07797191 -0.01456991 0.1035927 1 0 1
0.08059896 -0.01716266 0.1107462 1 0 1
0.0841886 -0.02110444 0.1215371 1 0 1
0.08740987 -0.02435056 0.1304834 1 0 1
0.08977346 -0.02622658 0.1357661 1 0 1
0.09147073 -0.02707809 0.1383044 1 0 1
0.09246755 -0.02691064 0.138105 1 0 1
0.09321887 -0.026404 0.136993 1 0 1
0.09421011 -0.02623282 0.1367876 1 0 1
0.09520042 -0.02605945 0.1365788 1 0 1
0.09618982 -0.02588389 0.1363667 1 0 1
0.09717828 -0.02570614 0.1361511 1 0 1
-0.06730867 -0.000520841 0.06372232 1 0 1
-0.06709772 -0.001021931 0.06487282 1 0 1
-0.06735151 -0.001835706 0.0668481 1 0 1
-0.06712057 -0.0023383 0.06800207 1 0 1
-0.06734747 -0.003155323 0.06998392 1 0 1
-0.06709648 -0.003659265 0.07114115 1 0 1
-0.06683715 -0.004163376 0.07229912 1 0 1
-0.06656945 -0.004667608 0.07345781 1 0 1
-0.06674576 -0.005489815 0.07545054 1 0 1
-0.0669067 -0.006313888 0.07744696 1 0 1
-0.06838831 -0.008098523 0.0819562 1 0 1
-0.06983359 -0.009890088 0.08647815 1 0 1
-0.07255758 -0.01265242 0.09353083 1 0 1
-0.07522404 -0.01542653 0.1006048 1 0 1
-0.0769702 -0.01756627 0.106015 1 0 1
-0.07610569 -0.0177711 0.106377 1 0 1
-0.07439099 -0.01732469 0.1050454 1 0 1
-0.0731096 -0.01719847 0.1045518 1 0 1
-0.07141652 -0.01674245 0.1032044 1 0 1
-0.07014976 -0.01660835 0.102698 1 0 1
-0.06847847 -0.01614286 0.1013349 1 0 1
-0.06722651 -0.01600097 0.1008158 1 0 1
-0.0659802 -0.01585559 0.1002911 1 0 1
-0.06434011 -0.01537659 0.09890563 1 0 1
-0.06231697 -0.01456169 0.09665534 1 0 1
-0.06031388 -0.01374038 0.09439416 1 0 1
-0.05871969 -0.01324524 0.09298147 1 0 1
-0.05713853 -0.01274527 0.09156074 1 0 1
-0.05557041 -0.01224059 0.09013203 1 0 1
-0.05401541 -0.0117312 0.08869541 1 0 1
-0.05247357 -0.01121719 0.08725098 1 0 1
-0.05057417 -0.01036252 0.08493301 1 0 1
-0.04906239 -0.009838675 0.08347184 1 0 1
-0.0475639 -0.009310292 0.08200307 1 0 1
-0.04607878 -0.008777488 0.08052677 1 0 1
-0.04496327 -0.008579089 0.07991377 1 0 1
-0.04385394 -0.008377668 0.07929584 1 0 1
-0.04275077 -0.008173249 0.07867295 1 0 1
-0.0416538 -0.007965838 0.07804517 1 0 1
-0.04090476 -0.008096874 0.07828818 1 0 1
-0.04015465 -0.008226241 0.07852863 1 0 1
-0.03940349 -0.008353945 0.07876665 1 0 1
-0.03865129 -0.008479971 0.07900217 1 0 1
-0.03789807 -0.008604317 0.07923518 1 0 1
-0.03714383 -0.008726982 0.07946568 1 0 1
-0.03670823 -0.009193042 0.08057618 1 0 1
-0.03563234 -0.008967287 0.07991924 1 0 1
-0.03456284 -0.008738698 0.07925757 1 0 1
-0.03349978 -0.008507282 0.07859126 1 0 1
-0.03244314 -0.0082731 0.07792032 1 0 1
0.04576395 -0.01755182 0.1032685 1 0 1
0.04725422 -0.02037592 0.1106555 1 0 1
0.04830639 -0.02103029 0.1124618 1 0 1
0.04902497 -0.02024065 0.1105491 1 0 1
0.04972775 -0.01945029 0.1086344 1 0 1
0.0504147 -0.01865927 0.1067179 1 0 1
0.05108583 -0.01786765 0.1047995 1 0 1
0.05184389 -0.0174344 0.103807 1 0 1
0.05259387 -0.01699995 0.1028123 1 0 1
0.05333579 -0.01656433 0.1018154 1 0 1
0.05418396 -0.01648549 0.101743 1 0 1
0.0550318 -0.01640473 0.1016677 1 0 1
0.05587924 -0.01632217 0.1015896 1 0 1
0.05660038 -0.015881 0.100583 1 0 1
0.05744319 -0.01579513 0.1004997 1 0 1
0.05828562 -0.01570739 0.1004134 1 0 1
0.05912766 -0.01561781 0.1003244 1 0 1
0.05996925 -0.01552641 0.1002325 1 0 1
0.06066515 -0.01507845 0.0992142 1 0 1
0.06150201 -0.01498381 0.09911712 1 0 1
0.06233842 -0.0148873 0.09901724 1 0 1
0.06301752 -0.01443562 0.09799226 1 0 1
0.06384914 -0.01433595 0.09788727 1 0 1
0.06468025 -0.01423443 0.09777945 1 0 1
0.06534249 -0.01377914 0.09674809 1 0 1
0.06616876 -0.01367448 0.0966352 1 0 1
0.06699452 -0.013568 0.09651956 1 0 1
0.06781971 -0.01345972 0.0964011 1 0 1
0.06882814 -0.01369957 0.09719843 1 0 1
0.06946849 -0.01323771 0.09615587 1 0 1
0.07048345 -0.0134729 0.09694649 1 0 1
0.07111502 -0.01300844 0.09589952 1 0 1
0.0719374 -0.01289111 0.09576718 1 0 1
0.07275916 -0.01277197 0.09563206 1 0 1
0.07378705 -0.01299772 0.09640911 1 0 1
0.07440086 -0.01252828 0.09535357 1 0 1
0.07564943 -0.01309481 0.09703729 1 0 1
0.07713073 -0.01400216 0.09962847 1 0 1
0.07885618 -0.01524849 0.1031249 1 0 1
0.08151437 -0.01786322 0.1102589 1 0 1
0.08469179 -0.02115251 0.1192001 1 0 1
0.08771107 -0.02408495 0.1272137 1 0 1
0.09032355 -0.02632023 0.1333921 1 0 1
0.09178359 -0.02683814 0.1350138 1 0 1
0.09301321 -0.02701067 0.1357214 1 0 1
0.0942495 -0.02717971 0.1364241 1 0 1
0.09524014 -0.02700593 0.1362156 1 0 1
0.09622986 -0.02682997 0.1360036 1 0 1
0.09747849 -0.02698977 0.136693 1 0 1
-0.06801774 -0.001051635 0.06310329 1 0 1
-0.06733155 -0.001243187 0.06343378 1 0 1
-0.06759699 -0.002063246 0.06540347 1 0 1
-0.0678473 -0.002885477 0.06737737 1 0 1
-0.0676128 -0.003392901 0.06853139 1 0 1
-0.0678362 -0.004218402 0.07051183 1 0 1
-0.06758158 -0.004727169 0.07166907 1 0 1
-0.06777793 -0.00555576 0.0736558 1 0 1
-0.06795904 -0.00638629 0.07564639 1 0 1
-0.06902961 -0.007861559 0.07930448 1 0 1
-0.06962202 -0.009019888 0.08213905 1 0 1
-0.07197382 -0.01147452 0.08832002 1 0 1
-0.07427529 -0.01393953 0.09451969 1 0 1
-0.07696477 -0.01673966 0.1015758 1 0 1
-0.07785692 -0.01824846 0.1052952 1 0 1
-0.07785652 -0.01910882 0.1073417 1 0 1
-0.07612879 -0.01866083 0.1060216 1 0 1
-0.0739892 -0.01787919 0.1038489 1 0 1
-0.07271092 -0.01774891 0.1033552 1 0 1
-0.07143821 -0.01761504 0.1028558 1 0 1
-0.06975725 -0.01714694 0.1015026 1 0 1
-0.068089 -0.01667376 0.1001409 1 0 1
-0.06724688 -0.01686004 0.1004727 1 0 1
-0.06559704 -0.0163783 0.09909698 1 0 1
-0.06396002 -0.01589158 0.09771294 1 0 1
-0.06193989 -0.01506536 0.09546555 1 0 1
-0.06033225 -0.01456804 0.09406373 1 0 1
-0.05834875 -0.0137298 0.09179599 1 0 1
-0.05677071 -0.01322212 0.09037673 1 0 1
-0.05482408 -0.01237215 0.08808906 1 0 1
-0.05327583 -0.01185432 0.08665266 1 0 1
-0.05174077 -0.01133188 0.08520848 1 0 1
-0.05021889 -0.01080485 0.08375653 1 0 1
-0.04871031 -0.01027326 0.08229695 1 0 1
-0.04757862 -0.01007826 0.08169661 1 0 1
-0.04609305 -0.009538413 0.08022313 1 0 1
-0.04497719 -0.009336611 0.07961152 1 0 1
-0.04386751 -0.009131766 0.07899497 1 0 1
-0.04311303 -0.009267679 0.07924523 1 0 1
-0.04201208 -0.009057489 0.07862005 1 0 1
-0.04125909 -0.009189396 0.07886416 1 0 1
-0.04016697 -0.00897392 0.07823043 1 0 1
-0.03974995 -0.009448142 0.07934488 1 0 1
-0.03899379 -0.00957498 0.07958148 1 0 1
-0.03823661 -0.009700147 0.07981557 1 0 1
-0.03780178 -0.01017175 0.08092706 1 0 1
-0.03735859 -0.01064281 0.08203825 1 0 1
-0.03627497 -0.01041477 0.08138488 1 0 1
-0.03519776 -0.01018387 0.08072683 1 0 1
-0.03412695 -0.009950129 0.08006407 1 0 1
-0.03306259 -0.009713567 0.07939667 1 0 1
0.04601108 -0.01945131 0.1057363 1 0 1
0.04751406 -0.02230365 0.1131112 1 0 1
0.04857837 -0.0229643 0.1149142 1 0 1
0.04930871 -0.02216623 0.1130038 1 0 1
0.04993206 -0.02100386 0.1101643 1 0 1
0.05062688 -0.02020468 0.1082502 1 0 1
0.0513059 -0.0194049 0.1063342 1 0 1
0.05196907 -0.01860452 0.1044165 1 0 1
0.05282984 -0.01852812 0.104349 1 0 1
0.0534691 -0.01772606 0.1024274 1 0 1
0.05420699 -0.01728508 0.1014295 1 0 1
0.05505511 -0.01720415 0.1013544 1 0 1
0.05590287 -0.01712134 0.1012765 1 0 1
0.05662417 -0.01667632 0.1002715 1 0 1
0.05746727 -0.01659022 0.1001882 1 0 1
0.05831002 -0.01650226 0.1001022 1 0 1
0.05901464 -0.01605328 0.09909023 1 0 1
0.05985266 -0.01596205 0.09899894 1 0 1
0.06054488 -0.01551064 0.09798265 1 0 1
0.06137817 -0.01541618 0.09788619 1 0 1
0.06221103 -0.01531991 0.09778693 1 0 1
0.06304339 -0.01522179 0.09768488 1 0 1
0.06371445 -0.01476532 0.09665968 1 0 1
0.06454205 -0.01466403 0.09655254 1 0 1
0.06520058 -0.01420534 0.0955233 1 0 1
0.06602328 -0.01410091 0.09541111 1 0 1
0.06684545 -0.01399466 0.09529614 1 0 1
0.06766712 -0.01388661 0.09517844 1 0 1
0.06867211 -0.01413035 0.0959751 1 0 1
0.06949649 -0.01401818 0.09585128 1 0 1
0.07051186 -0.01425671 0.09664069 1 0 1
0.07114358 -0.01378835 0.09559532 1 0 1
0.07196621 -0.01367074 0.09546316 1 0 1
0.07258525 -0.01320042 0.0944141 1 0 1
0.07340287 -0.01307975 0.09427704 1 0 1
0.07421988 -0.01295726 0.09413724 1 0 1
0.0752507 -0.01318217 0.09490684 1 0 1
0.07628851 -0.01340411 0.09567237 1 0 1
0.07777749 -0.01431899 0.09825531 1 0 1
0.07974039 -0.01592319 0.1026515 1 0 1
0.08220002 -0.01821297 0.1088565 1 0 1
0.0849456 -0.0208383 0.115957 1 0 1
0.08798849 -0.02379707 0.1239505 1 0 1
0.09037556 -0.02570773 0.1292059 1 0 1
0.09231755 -0.02692004 0.1326361 1 0 1
0.0940403 -0.02778141 0.1351512 1 0 1
0.0952799 -0.02795083 0.1358485 1 0 1
0.09652621 -0.02811672 0.1365409 1 0 1
0.09725909 -0.02759591 0.1354219 1 0 1
-0.06940871 -0.001383914 0.06214453 1 0 1
-0.06872513 -0.00157896 0.06247945 1 0 1
-0.0685236 -0.002089171 0.06362814 1 0 1
-0.0683138 -0.002599698 0.0647778 1 0 1
-0.06809574 -0.003110518 0.06592844 1 0 1
-0.06834256 -0.003941226 0.06790093 1 0 1
-0.06810443 -0.004453491 0.06905494 1 0 1
-0.06832434 -0.00528742 0.07103395 1 0 1
-0.06852899 -0.006123353 0.07301692 1 0 1
-0.06917781 -0.007284518 0.07583108 1 0 1
-0.06934843 -0.008125274 0.07782333 1 0 1
-0.07176621 -0.01059308 0.0839714 1 0 1
-0.07368481 -0.01274562 0.08930659 1 0 1
-0.07734223 -0.01621406 0.09799144 1 0 1
-0.07916014 -0.01838741 0.103364 1 0 1
-0.08005745 -0.01991207 0.1070788 1 0 1
-0.07874991 -0.0197947 0.1066127 1 0 1
-0.07744778 -0.01967367 0.1061407 1 0 1
-0.07529507 -0.01888688 0.1039809 1 0 1
-0.07358639 -0.01842504 0.1026519 1 0 1
-0.07189029 -0.01795795 0.1013143 1 0 1
-0.07104164 -0.0181527 0.1016587 1 0 1
-0.06936376 -0.01767689 0.1003069 1 0 1
-0.06810889 -0.01753107 0.09979463 1 0 1
-0.06685968 -0.01738178 0.09927682 1 0 1
-0.06521293 -0.01689234 0.09790251 1 0 1
-0.06357899 -0.01639792 0.09651992 1 0 1
-0.06195796 -0.01589857 0.0951291 1 0 1
-0.05995737 -0.01505532 0.0928751 1 0 1
-0.05836586 -0.01454547 0.0914667 1 0 1
-0.05640203 -0.01369038 0.08919257 1 0 1
-0.0548402 -0.01317024 0.08776688 1 0 1
-0.05329151 -0.01264543 0.0863333 1 0 1
-0.05175602 -0.01211597 0.08489198 1 0 1
-0.04986282 -0.01123859 0.08258002 1 0 1
-0.04835741 -0.01069928 0.08112197 1 0 1
-0.04722898 -0.01050023 0.08052179 1 0 1
-0.04610668 -0.01029808 0.07991657 1 0 1
-0.04499048 -0.01009286 0.07930636 1 0 1
-0.0442332 -0.01023135 0.07956031 1 0 1
-0.0431257 -0.01002076 0.07894143 1 0 1
-0.04236985 -0.01015518 0.07918911 1 0 1
-0.04127113 -0.009939251 0.07856164 1 0 1
-0.0405168 -0.01006969 0.0788032 1 0 1
-0.03976141 -0.01019842 0.07904224 1 0 1
-0.03900499 -0.01032547 0.07927879 1 0 1
-0.03857464 -0.01080199 0.08039012 1 0 1
-0.0381359 -0.01127805 0.08150121 1 0 1
-0.03768879 -0.01175358 0.08261199 1 0 1
-0.03660116 -0.01152266 0.08196117 1 0 1
-0.03583228 -0.0116424 0.08218734 1 0 1
-0.03475374 -0.01140632 0.08152816 1 0 1
-0.03337668 -0.01081279 0.07998044 1 0 1
-0.03141101 -0.009504911 0.07665614 1 0 1
0.04444594 -0.01664099 0.09618927 1 0 1
0.04671348 -0.02358188 0.1137516 1 0 1
0.04801356 -0.0253563 0.1183341 1 0 1
0.04893468 -0.02528661 0.1182807 1 0 1
0.04959329 -0.02411232 0.1154464 1 0 1
0.05022828 -0.02293787 0.1126107 1 0 1
0.05083968 -0.02176333 0.1097734 1 0 1
0.05152655 -0.02095539 0.10786 1 0 1
0.05219761 -0.02014684 0.1059448 1 0 1
0.05295961 -0.01970365 0.1049523 1 0 1
0.05360284 -0.01889372 0.1030334 1 0 1
0.05434477 -0.01844854 0.1020368 1 0 1
0.05519707 -0.01836701 0.1019615 1 0 1
0.05592665 -0.01791921 0.1009602 1 0 1
0.05677433 -0.01783433 0.1008796 1 0 1
0.05749156 -0.01738397 0.09987372 1 0 1
0.05833454 -0.01729579 0.0997878 1 0 1
0.0590394 -0.01684292 0.09877747 1 0 1
0.05973604 -0.01638908 0.09776514 1 0 1
0.06057005 -0.01629621 0.09767164 1 0 1
0.06140362 -0.01620151 0.09757535 1 0 1
0.06238998 -0.01646608 0.09839611 1 0 1
0.0630694 -0.01600664 0.09737439 1 0 1
0.06390158 -0.01590644 0.09726968 1 0 1
0.06456849 -0.01544472 0.0962438 1 0 1
0.06522718 -0.01498215 0.09521617 1 0 1
0.06605014 -0.01487748 0.09510416 1 0 1
0.0668726 -0.01477096 0.09498937 1 0 1
0.06769454 -0.01466265 0.09487185 1 0 1
0.06851592 -0.01455252 0.09475153 1 0 1
0.06933676 -0.01444062 0.09462848 1 0 1
0.0703487 -0.01468303 0.09541723 1 0 1
0.0711722 -0.01456696 0.09528804 1 0 1
0.07199515 -0.01444906 0.09515607 1 0 1
0.07261431 -0.01397482 0.09410863 1 0 1
0.07363917 -0.01420783 0.09488385 1 0 1
0.07424945 -0.01373111 0.09383214 1 0 1
0.0750661 -0.01360654 0.09368978 1 0 1
0.0758821 -0.01348015 0.09354464 1 0 1
0.07714189 -0.0140552 0.09521555 1 0 1
0.07864228 -0.01497697 0.09778955 1 0 1
0.08039466 -0.01624364 0.1012645 1 0 1
0.08264403 -0.01820296 0.1065452 1 0 1
0.08565054 -0.0212002 0.1145336 1 0 1
0.08824214 -0.02348699 0.120694 1 0 1
0.09088599 -0.02576268 0.1268407 1 0 1
0.09333316 -0.02767996 0.132069 1 0 1
0.09506712 -0.02854757 0.1345744 1 0 1
0.0965665 -0.02906316 0.136169 1 0 1
0.09755969 -0.02888352 0.1359535 1 0 1
-0.06874702 -0.002298227 0.06218564 1 0 1
-0.06854536 -0.002812342 0.06333271 1 0 1
-0.06833541 -0.003326772 0.06448078 1 0 1
-0.0676404 -0.003519302 0.06481194 1 0 1
-0.06836395 -0.004679704 0.06759924 1 0 1
-0.06859555 -0.005519975 0.06957274 1 0 1
-0.06881195 -0.006362332 0.07155027 1 0 1
-0.06947607 -0.007532639 0.07435603 1 0 1
-0.07103706 -0.009360401 0.07882049 1 0 1
-0.07256191 -0.0111955 0.08329812 1 0 1
-0.07540837 -0.01402367 0.09027562 1 0 1
-0.07819763 -0.01686422 0.09727513 1 0 1
-0.08092958 -0.01971697 0.1042964 1 0 1
-0.08139341 -0.02092539 0.1071715 1 0 1
-0.08008008 -0.02080851 0.1067126 1 0 1
-0.07790188 -0.02002196 0.1045748 1 0 1
-0.07617475 -0.01956215 0.1032631 1 0 1
-0.0744601 -0.01909704 0.1019427 1 0 1
-0.072758 -0.01862667 0.1006136 1 0 1
-0.07106848 -0.01815105 0.09927593 1 0 1
-0.07022661 -0.01834451 0.09961735 1 0 1
-0.06896928 -0.01819813 0.09911072 1 0 1
-0.06730714 -0.01770954 0.09775177 1 0 1
-0.06647152 -0.01789487 0.09808059 1 0 1
-0.06482786 -0.01739772 0.09670772 1 0 1
-0.06319705 -0.01689561 0.0953266 1 0 1
-0.06157913 -0.01638853 0.09393725 1 0 1
-0.0595816 -0.01553399 0.09168624 1 0 1
-0.05799322 -0.01501644 0.09027936 1 0 1
-0.05603247 -0.01415 0.08800823 1 0 1
-0.05447381 -0.01362219 0.08658409 1 0 1
-0.05292829 -0.01308967 0.08515209 1 0 1
-0.05139598 -0.0125525 0.08371232 1 0 1
-0.04987688 -0.01201074 0.0822648 1 0 1
-0.04873842 -0.0118121 0.08167236 1 0 1
-0.04724231 -0.01126197 0.08021087 1 0 1
-0.04611965 -0.01105645 0.07960708 1 0 1
-0.04535956 -0.01119755 0.07986467 1 0 1
-0.04459836 -0.01133694 0.08011977 1 0 1
-0.04348689 -0.01112357 0.0795035 1 0 1
-0.04238159 -0.0109072 0.07888231 1 0 1
-0.04128253 -0.01068786 0.07825626 1 0 1
-0.04052792 -0.01081851 0.07849773 1 0 1
-0.04010679 -0.01130104 0.07961027 1 0 1
-0.03934641 -0.0114289 0.07984789 1 0 1
-0.03891217 -0.0119099 0.08095883 1 0 1
-0.03846952 -0.01239037 0.08206949 1 0 1
-0.03769868 -0.01251434 0.0823018 1 0 1
-0.03692682 -0.01263657 0.08253156 1 0 1
-0.03615396 -0.01275706 0.08275876 1 0 1
-0.03538011 -0.01287585 0.08298342 1 0 1
-0.03430026 -0.01263461 0.08232311 1 0 1
-0.0326243 -0.01167285 0.07989129 1 0 1
0.04363687 -0.01747547 0.09591641 1 0 1
0.04568883 -0.0237479 0.1116069 1 0 1
0.0472661 -0.0270326 0.1198871 1 0 1
0.04835503 -0.02770772 0.1216863 1 0 1
0.04920838 -0.02726517 0.1207074 1 0 1
0.04979116 -0.02570764 0.1169526 1 0 1
0.05043394 -0.02452143 0.1141209 1 0 1
0.05105313 -0.02333512 0.1112877 1 0 1
0.05164869 -0.02214881 0.1084531 1 0 1
0.05242674 -0.02170232 0.107464 1 0 1
0.05319668 -0.02125459 0.1064725 1 0 1
0.05384774 -0.0204365 0.1045561 1 0 1
0.05448293 -0.01961792 0.102638 1 0 1
0.05533938 -0.0195358 0.1025625 1 0 1
0.05607305 -0.01908375 0.1015625 1 0 1
0.05679858 -0.01863059 0.1005603 1 0 1
0.05764614 -0.01854365 0.100477 1 0 1
0.05835926 -0.01808795 0.09947032 1 0 1
0.05920214 -0.01799772 0.09938175 1 0 1
0.05990284 -0.01753954 0.09837062 1 0 1
0.06074101 -0.01744601 0.09827684 1 0 1
0.06157869 -0.01735065 0.09818028 1 0 1
0.06241595 -0.01725344 0.09808087 1 0 1
0.06325275 -0.0171544 0.0979787 1 0 1
0.06408906 -0.01705348 0.09787372 1 0 1
0.06475995 -0.01658742 0.09684897 1 0 1
0.06542267 -0.01612048 0.09582242 1 0 1
0.06607716 -0.01565269 0.09479415 1 0 1
0.06689987 -0.01554593 0.09467957 1 0 1
0.0677221 -0.01543734 0.0945622 1 0 1
0.06854373 -0.01532699 0.09444209 1 0 1
0.06955282 -0.01557509 0.09523288 1 0 1
0.07037717 -0.01546055 0.09510668 1 0 1
0.07120094 -0.01534418 0.09497766 1 0 1
0.07202414 -0.01522601 0.0948459 1 0 1
0.07264347 -0.0147479 0.09380011 1 0 1
0.07346161 -0.01462666 0.09366343 1 0 1
0.07406821 -0.01414662 0.09261401 1 0 1
0.07488129 -0.01402234 0.09247249 1 0 1
0.07569373 -0.01389627 0.09232824 1 0 1
0.07695027 -0.01447881 0.09399716 1 0 1
0.07799519 -0.01470254 0.09475328 1 0 1
0.07927702 -0.01527716 0.09641171 1 0 1
0.08080717 -0.01620083 0.09897026 1 0 1
0.08307214 -0.01817703 0.1042368 1 0 1
0.08514058 -0.01979157 0.1085871 1 0 1
0.08822679 -0.02280342 0.116541 1 0 1
0.09138045 -0.02580145 0.1244778 1 0 1
0.09384312 -0.02773512 0.1296915 1 0 1
0.09609377 -0.02930913 0.133991 1 0 1
0.09760036 -0.02982796 0.1355781 1 0 1
-0.07013486 -0.002623218 0.06121749 1 0 1
-0.06994275 -0.003142476 0.06236418 1 0 1
-0.06925527 -0.003339182 0.0627005 1 0 1
-0.06905005 -0.003858147 0.0638476 1 0 1
-0.06883652 -0.004377447 0.0649957 1 0 1
-0.06813786 -0.004571265 0.06532837 1 0 1
-0.06838458 -0.005416924 0.06729469 1 0 1
-0.06861614 -0.006264687 0.06926512 1 0 1
-0.06929898 -0.007443144 0.07206074 1 0 1
-0.07042275 -0.008954968 0.07568631 1 0 1
-0.07243665 -0.01113322 0.08097073 1 0 1
-0.07531977 -0.01398328 0.08792327 1 0 1
-0.07905119 -0.01751029 0.09655301 1 0 1
-0.08181305 -0.02038699 0.1035528 1 0 1
-0.08273468 -0.02193992 0.1072522 1 0 1
-0.08185782 -0.02215839 0.1076326 1 0 1
-0.08010188 -0.02170342 0.106343 1 0 1
-0.0774879 -0.02056988 0.1033744 1 0 1
-0.07576377 -0.0201024 0.1020641 1 0 1
-0.07362398 -0.01929133 0.09990705 1 0 1
-0.07235311 -0.01915152 0.09941737 1 0 1
-0.07066664 -0.01866823 0.09808107 1 0 1
-0.069828 -0.01886119 0.09842092 1 0 1
-0.06857383 -0.01871073 0.09791422 1 0 1
-0.0673253 -0.01855676 0.09740192 1 0 1
-0.06608243 -0.01839929 0.09688405 1 0 1
-0.06484525 -0.01823836 0.09636062 1 0 1
-0.06321399 -0.01772932 0.09498238 1 0 1
-0.06159562 -0.01721535 0.0935959 1 0 1
-0.05959758 -0.01635022 0.09134923 1 0 1
-0.05800877 -0.01582574 0.08994525 1 0 1
-0.05604753 -0.01494876 0.08767852 1 0 1
-0.05448844 -0.01441396 0.08625723 1 0 1
-0.05294251 -0.01387448 0.08482814 1 0 1
-0.05178443 -0.01368022 0.08424991 1 0 1
-0.04989027 -0.0127816 0.08194666 1 0 1
-0.04875146 -0.01257958 0.08135561 1 0 1
-0.04725496 -0.01202245 0.07989706 1 0 1
-0.0464921 -0.01216618 0.08015832 1 0 1
-0.04537161 -0.01195487 0.0795522 1 0 1
-0.04461012 -0.01209448 0.07980719 1 0 1
-0.04349832 -0.01187773 0.07919236 1 0 1
-0.0423927 -0.01165795 0.07857261 1 0 1
-0.04163523 -0.01179114 0.0788177 1 0 1
-0.04087667 -0.01192263 0.07906026 1 0 1
-0.04011708 -0.01205242 0.07930037 1 0 1
-0.03968732 -0.01253833 0.0804111 1 0 1
-0.03892194 -0.01266532 0.0806473 1 0 1
-0.03847907 -0.01314964 0.08175643 1 0 1
-0.03802779 -0.01363342 0.0828652 1 0 1
-0.03725195 -0.01375645 0.083096 1 0 1
-0.03647512 -0.01387772 0.08332425 1 0 1
-0.03538855 -0.01363589 0.08267012 1 0 1
-0.03430839 -0.0133912 0.08201127 1 0 1
-0.03293337 -0.01278118 0.08046584 1 0 1
0.03991776 -0.01544531 0.08833416 1 0 1
0.04122462 -0.01879008 0.09662715 1 0 1
0.04248071 -0.02137516 0.1030662 1 0 1
0.04372687 -0.02357834 0.108576 1 0 1
0.04508771 -0.02615275 0.1150049 1 0 1
0.04650283 -0.02872147 0.1214283 1 0 1
0.04774437 -0.03015716 0.125075 1 0 1
0.04877732 -0.03046221 0.1259466 1 0 1
0.04965032 -0.03001434 0.1249683 1 0 1
0.05025245 -0.02844054 0.1212183 1 0 1
0.05082317 -0.02686714 0.1174672 1 0 1
0.05145791 -0.02566843 0.1146376 1 0 1
0.05196973 -0.02409584 0.1108843 1 0 1
0.05265648 -0.02327098 0.1089741 1 0 1
0.05332735 -0.02244555 0.1070621 1 0 1
0.05409328 -0.0219924 0.1060697 1 0 1
0.05473632 -0.02116561 0.1041541 1 0 1
0.05548215 -0.02071047 0.1031575 1 0 1
0.05621984 -0.02025419 0.1021587 1 0 1
0.0569494 -0.01979679 0.1011578 1 0 1
0.05767085 -0.0193383 0.1001548 1 0 1
0.05838415 -0.01887876 0.09914971 1 0 1
0.0592273 -0.01878828 0.09906131 1 0 1
0.05992815 -0.01832628 0.09805181 1 0 1
0.06076659 -0.01823251 0.0979582 1 0 1
0.06160456 -0.0181369 0.09786179 1 0 1
0.06244209 -0.01803944 0.09776256 1 0 1
0.06327916 -0.01794014 0.09766056 1 0 1
0.06411576 -0.017839 0.09755574 1 0 1
0.0647868 -0.01736906 0.09653266 1 0 1
0.06544963 -0.01689827 0.09550774 1 0 1
0.06627701 -0.01679256 0.09539555 1 0 1
0.06692727 -0.01631958 0.09436668 1 0 1
0.06774973 -0.01621075 0.0942495 1 0 1
0.06857167 -0.01610007 0.09412955 1 0 1
0.06939302 -0.01598763 0.09400687 1 0 1
0.07040577 -0.01623673 0.09479306 1 0 1
0.07122979 -0.0161201 0.09466427 1 0 1
0.07205326 -0.01600165 0.09453268 1 0 1
0.07267272 -0.01551963 0.0934885 1 0 1
0.07349113 -0.01539809 0.09335203 1 0 1
0.0743089 -0.01527474 0.09321278 1 0 1
0.07491119 -0.0147896 0.09216294 1 0 1
0.07572386 -0.01466324 0.0920189 1 0 1
0.07698095 -0.01525268 0.09368511 1 0 1
0.07779995 -0.01512149 0.09353415 1 0 1
0.07861829 -0.01498846 0.09338046 1 0 1
0.07990377 -0.01556755 0.09503273 1 0 1
0.08144151 -0.01649859 0.09758287 1 0 1
0.08300128 -0.01742393 0.1001257 1 0 1
0.08531907 -0.01940856 0.1053674 1 0 1
0.08817977 -0.02209211 0.1123996 1 0 1
0.09135313 -0.0251167 0.1203166 1 0 1
0.0940804 -0.02742105 0.1264167 1 0 1
0.09633876 -0.02900909 0.1307044 1 0 1
-0.07151705 -0.002939286 0.06023803 1 0 1
-0.07083715 -0.003140103 0.06057937 1 0 1
-0.07064975 -0.003663868 0.06172506 1 0 1
-0.0699635 -0.003862498 0.06206351 1 0 1
-0.06927577 -0.004059537 0.06239967 1 0 1
-0.06955419 -0.004909873 0.06435678 1 0 1
-0.0688567 -0.005105603 0.0646916 1 0 1
-0.06863476 -0.005629117 0.06583904 1 0 1
-0.06935151 -0.006813487 0.06862035 1 0 1
-0.0695761 -0.007670612 0.07059085 1 0 1
-0.07071871 -0.009194125 0.07420478 1 0 1
-0.07275857 -0.01138954 0.07947154 1 0 1
-0.07567487 -0.01426218 0.08640045 1 0 1
-0.07899041 -0.01748244 0.09417626 1 0 1
-0.08178909 -0.02038121 0.1011513 1 0 1
-0.08318259 -0.02228219 0.1056657 1 0 1
-0.08231059 -0.02250218 0.1060474 1 0 1
-0.08099459 -0.02238169 0.1055955 1 0 1
-0.07880638 -0.02157887 0.1034737 1 0 1
-0.07707285 -0.02110909 0.1021736 1 0 1
-0.07535178 -0.02063394 0.1008647 1 0 1
-0.07364322 -0.02015347 0.09954707 1 0 1
-0.07194725 -0.0196677 0.09822077 1 0 1
-0.07068505 -0.01952024 0.09772534 1 0 1
-0.06984611 -0.01971353 0.09806506 1 0 1
-0.06859156 -0.01955978 0.09755973 1 0 1
-0.06693207 -0.01905658 0.09620513 1 0 1
-0.06609939 -0.01924178 0.09653231 1 0 1
-0.06486184 -0.01907756 0.09601027 1 0 1
-0.06323016 -0.01856162 0.09463492 1 0 1
-0.06161135 -0.01804071 0.09325135 1 0 1
-0.06000554 -0.01751488 0.09185965 1 0 1
-0.05802358 -0.01663367 0.08960801 1 0 1
-0.05606186 -0.01574612 0.08734572 1 0 1
-0.05450236 -0.01520437 0.08592734 1 0 1
-0.05295603 -0.01465794 0.0845012 1 0 1
-0.0517976 -0.01446033 0.08392435 1 0 1
-0.05027409 -0.01390531 0.08248396 1 0 1
-0.04913132 -0.01370062 0.0818956 1 0 1
-0.04763079 -0.01313722 0.08044124 1 0 1
-0.04650382 -0.0129256 0.07984149 1 0 1
-0.04573957 -0.01306782 0.08010017 1 0 1
-0.04497417 -0.01320835 0.08035632 1 0 1
-0.04385838 -0.01298887 0.07974414 1 0 1
-0.04309441 -0.01312527 0.07999405 1 0 1
-0.0419874 -0.01290038 0.07937321 1 0 1
-0.04122491 -0.01303275 0.07961691 1 0 1
-0.04046135 -0.01316336 0.07985807 1 0 1
-0.03969676 -0.01329228 0.08009674 1 0 1
-0.03925837 -0.01378155 0.08120569 1 0 1
-0.03881158 -0.01427029 0.08231433 1 0 1
-0.03835638 -0.01475849 0.08342268 1 0 1
-0.03757658 -0.01488228 0.08365452 1 0 1
-0.03710825 -0.01536877 0.08476103 1 0 1
-0.03601395 -0.01512464 0.08411049 1 0 1
-0.03492606 -0.01487761 0.08345522 1 0 1
-0.0332419 -0.01389551 0.08103446 1 0 1
0.04069728 -0.02843395 0.1175953 1 0 1
0.04167372 -0.02876081 0.11849 1 0 1
0.04265774 -0.02908514 0.1193813 1 0 1
0.04364941 -0.02940695 0.1202692 1 0 1
0.04471301 -0.03010637 0.1220765 1 0 1
0.04572373 -0.03042278 0.1229574 1 0 1
0.04681415 -0.03111622 0.1247572 1 0 1
0.04791991 -0.03180644 0.126553 1 0 1
0.04888111 -0.03173532 0.1265009 1 0 1
0.04975822 -0.03128333 0.125524 1 0 1
0.05045185 -0.03007293 0.1227014 1 0 1
0.05112187 -0.02886228 0.1198772 1 0 1
0.05176825 -0.02765152 0.1170513 1 0 1
0.05229164 -0.02606319 0.1133034 1 0 1
0.05288685 -0.0248527 0.110475 1 0 1
0.05356558 -0.02401912 0.1085656 1 0 1
0.05422843 -0.02318498 0.1066544 1 0 1
0.0548754 -0.02235037 0.1047416 1 0 1
0.05562528 -0.021891 0.1037463 1 0 1
0.05636705 -0.02143048 0.1027488 1 0 1
0.05710066 -0.02096885 0.1017492 1 0 1
0.05782614 -0.02050612 0.1007474 1 0 1
0.05854343 -0.02004232 0.0997436 1 0 1
0.05939073 -0.0199512 0.09965497 1 0 1
0.06009562 -0.01948492 0.09864672 1 0 1
0.06093819 -0.01939047 0.09855279 1 0 1
0.06163059 -0.01892177 0.09754021 1 0 1
0.06246838 -0.01882409 0.09744117 1 0 1
0.06330571 -0.01872453 0.09733934 1 0 1
0.06414256 -0.01862313 0.09723467 1 0 1
0.06481375 -0.01814933 0.09621322 1 0 1
0.06564575 -0.01804474 0.09610351 1 0 1
0.06630439 -0.0175687 0.09507798 1 0 1
0.0671315 -0.01746092 0.0949632 1 0 1
0.0677775 -0.01698276 0.09393375 1 0 1
0.06859968 -0.01687185 0.09381398 1 0 1
0.06942133 -0.01675911 0.09369148 1 0 1
0.07024236 -0.01664456 0.09356622 1 0 1
0.07125874 -0.01689463 0.09434774 1 0 1
0.07188274 -0.01641 0.09330741 1 0 1
0.07270203 -0.01629001 0.09317387 1 0 1
0.07331333 -0.01580342 0.09212986 1 0 1
0.07412756 -0.01568037 0.09199149 1 0 1
0.07472612 -0.01519191 0.09094396 1 0 1
0.07575412 -0.01542885 0.09170651 1 0 1
0.07678908 -0.0156628 0.09246496 1 0 1
0.07783099 -0.01589369 0.09321924 1 0 1
0.07841928 -0.01539923 0.09216215 1 0 1
0.07946742 -0.01562526 0.09290951 1 0 1
0.08052249 -0.0158482 0.09365268 1 0 1
0.08182611 -0.01642731 0.09529297 1 0 1
0.08338963 -0.01736057 0.09782805 1 0 1
0.08597226 -0.01971979 0.1039551 1 0 1
0.08860709 -0.02206774 0.1100683 1 0 1
0.09155092 -0.02476086 0.1170656 1 0 1
0.09455443 -0.02744095 0.1240467 1 0 1
-0.07221632 -0.003450728 0.05959308 1 0 1
-0.07153767 -0.003653479 0.05993653 1 0 1
-0.07085751 -0.003854639 0.06027772 1 0 1
-0.07066999 -0.004382303 0.06142176 1 0 1
-0.06998348 -0.004581261 0.06176006 1 0 1
-0.06978283 -0.005108666 0.06290452 1 0 1
-0.06957388 -0.005636416 0.06405002 1 0 1
-0.06935664 -0.006164481 0.06519648 1 0 1
-0.0696081 -0.007025768 0.06715724 1 0 1
-0.07031803 -0.008223049 0.06993714 1 0 1
-0.07100584 -0.009424338 0.07272433 1 0 1
-0.0721382 -0.01096526 0.07633685 1 0 1
-0.07555776 -0.01419516 0.08405853 1 0 1
-0.07891352 -0.01743979 0.09180605 1 0 1
-0.08220525 -0.02069893 0.09957902 1 0 1
-0.08271572 -0.021936 0.1024304 1 0 1
-0.08275427 -0.02283623 0.1044621 1 0 1
-0.08143956 -0.02271454 0.1040146 1 0 1
-0.0796878 -0.0222471 0.1027321 1 0 1
-0.07794841 -0.0217742 0.1014407 1 0 1
-0.07665681 -0.02163962 0.1009725 1 0 1
-0.0749388 -0.02115678 0.09966496 1 0 1
-0.0732333 -0.02066865 0.09834877 1 0 1
-0.07196519 -0.0205215 0.09786036 1 0 1
-0.07028136 -0.02002366 0.0965284 1 0 1
