ply
format ascii 1.0
Comment Generated by Floating Hands
element vertex 1213
property double x
property double y
property double z
property uchar red
property uchar green
property uchar blue
end_header
-0.0404298 -0.08354395 0.1159996 1 0 1
-0.03966085 -0.08423902 0.1170148 1 0 1
-0.03888325 -0.08493274 0.1180286 1 0 1
-0.03809702 -0.08562502 0.1190407 1 0 1
-0.03706643 -0.08575669 0.1192563 1 0 1
-0.03603486 -0.0858859 0.1194686 1 0 1
-0.03477433 -0.08545261 0.1188813 1 0 1
-0.03352052 -0.08501586 0.1182891 1 0 1
-0.03271414 -0.08569793 0.1192881 1 0 1
-0.0316827 -0.08581696 0.1194867 1 0 1
-0.03065033 -0.08593354 0.1196819 1 0 1
-0.02961711 -0.08604769 0.1198739 1 0 1
-0.02878792 -0.08672212 0.1208634 1 0 1
-0.02774911 -0.0868318 0.1210496 1 0 1
-0.02690666 -0.08750258 0.1220346 1 0 1
-0.02605565 -0.08817169 0.1230178 1 0 1
-0.02500663 -0.08827474 0.1231953 1 0 1
-0.02414239 -0.08894006 0.1241737 1 0 1
-0.02326961 -0.08960361 0.1251501 1 0 1
-0.02256615 -0.09083077 0.1269297 1 0 1
-0.02167242 -0.09149106 0.1279024 1 0 1
-0.02111033 -0.09328172 0.1304862 1 0 1
-0.02069033 -0.09563819 0.1338772 1 0 1
-0.02040079 -0.0985614 0.1380771 1 0 1
-0.02022998 -0.1020521 0.1430874 1 0 1
-0.0200117 -0.1055438 0.1481007 1 0 1
-0.01989654 -0.1096038 0.1539261 1 0 1
-0.01972607 -0.113665 0.1597552 1 0 1
-0.01878629 -0.1148863 0.1615354 1 0 1
-0.01564292 -0.112205 0.1577875 1 0 1
0.06956434 -0.06422411 0.09220869 1 0 1
0.0710337 -0.06577788 0.09450463 1 0 1
0.07233076 -0.06676953 0.09598695 1 0 1
0.07264885 -0.06497505 0.09342996 1 0 1
0.07334828 -0.06429334 0.09248605 1 0 1
0.0740393 -0.06361064 0.09154049 1 0 1
0.07493224 -0.06348165 0.09139825 1 0 1
0.07539599 -0.06224226 0.08964441 1 0 1
0.07627977 -0.06211025 0.08949776 1 0 1
0.07694089 -0.06142318 0.08854519 1 0 1
0.07759354 -0.0607352 0.08759111 1 0 1
0.07800809 -0.0594946 0.08583385 1 0 1
0.07887349 -0.05935674 0.08567863 1 0 1
0.07950078 -0.05866632 0.08472032 1 0 1
0.08036077 -0.05852504 0.08456027 1 0 1
0.08122002 -0.05838174 0.08439748 1 0 1
0.08207841 -0.05823643 0.08423192 1 0 1
0.08268336 -0.05754111 0.0832662 1 0 1
0.0835363 -0.05739245 0.0830959 1 0 1
0.08438843 -0.05724176 0.08292286 1 0 1
0.08497556 -0.05654313 0.08195202 1 0 1
0.08609012 -0.05693442 0.08256859 1 0 1
0.08721144 -0.0573223 0.08318083 1 0 1
0.08806388 -0.05716291 0.08299603 1 0 1
0.08919482 -0.05754464 0.08360029 1 0 1
0.09033246 -0.05792293 0.08420014 1 0 1
0.09205065 -0.05938104 0.0863757 1 0 1
0.0934999 -0.06029174 0.08775404 1 0 1
0.09555241 -0.06227767 0.0907027 1 0 1
0.09823076 -0.06533423 0.09521627 1 0 1
0.1012556 -0.06891803 0.1005026 1 0 1
0.1040262 -0.07195088 0.1049874 1 0 1
0.1065314 -0.07443498 0.1086733 1 0 1
0.1081328 -0.07530009 0.1099955 1 0 1
0.1091138 -0.0750888 0.1097452 1 0 1
0.1094518 -0.07380597 0.1079281 1 0 1
0.1104229 -0.0735917 0.1076734 1 0 1
0.1110644 -0.07284217 0.1066357 1 0 1
0.1123614 -0.07315629 0.1071546 1 0 1
0.112993 -0.07240391 0.1061127 1 0 1
0.114295 -0.07271174 0.1066233 1 0 1
0.1149165 -0.07195652 0.1055771 1 0 1
0.1158765 -0.07172941 0.1053047 1 0 1
0.1164843 -0.07097229 0.1042556 1 0 1
0.1174378 -0.07074155 0.103978 1 0 1
0.1180319 -0.06998263 0.1029259 1 0 1
-0.07735186 -0.07633083 0.1030955 1 0 1
-0.07989379 -0.08137104 0.110185 1 0 1
-0.07851383 -0.08106659 0.1097819 1 0 1
-0.07713965 -0.08075809 0.1093731 1 0 1
-0.07539302 -0.0799081 0.1082049 1 0 1
-0.0736595 -0.07905245 0.1070286 1 0 1
-0.07231002 -0.07873025 0.1066005 1 0 1
-0.07096641 -0.07840408 0.1061667 1 0 1
-0.06962871 -0.07807399 0.1057276 1 0 1
-0.06865674 -0.07828141 0.1060427 1 0 1
-0.06732723 -0.07794435 0.1055938 1 0 1
-0.06635612 -0.07814634 0.1059016 1 0 1
-0.0650349 -0.07780228 0.1054429 1 0 1
-0.06440978 -0.07854339 0.106508 1 0 1
-0.06377593 -0.07928365 0.1075722 1 0 1
-0.06313326 -0.08002304 0.1086355 1 0 1
-0.06248187 -0.08076155 0.109698 1 0 1
-0.06182166 -0.08149913 0.1107595 1 0 1
-0.06115272 -0.08223576 0.1118201 1 0 1
-0.06079767 -0.08352023 0.1136508 1 0 1
-0.0604264 -0.08480506 0.1154826 1 0 1
-0.06003886 -0.08609017 0.1173154 1 0 1
-0.05963503 -0.08737557 0.1191491 1 0 1
-0.05890718 -0.08810966 0.1202084 1 0 1
-0.05847448 -0.08939475 0.1220428 1 0 1
-0.05772529 -0.0901271 0.1231005 1 0 1
-0.05696725 -0.09085821 0.1241569 1 0 1
-0.05707849 -0.09325031 0.12755 1 0 1
-0.05715828 -0.09564482 0.1309474 1 0 1
-0.05378502 -0.0913781 0.1249741 1 0 1
-0.04128381 -0.0729351 0.09910321 1 0 1
-0.04196596 -0.07642214 0.1040376 1 0 1
-0.04180296 -0.0782391 0.1066222 1 0 1
-0.04214088 -0.08117459 0.1107826 1 0 1
-0.04192251 -0.08299464 0.1133734 1 0 1
-0.04168027 -0.08481552 0.1159662 1 0 1
-0.04116319 -0.08607683 0.1177716 1 0 1
-0.04013556 -0.08621607 0.1179968 1 0 1
-0.03935022 -0.08691424 0.1190097 1 0 1
-0.03831675 -0.08704907 0.1192292 1 0 1
-0.03728228 -0.08718145 0.1194455 1 0 1
-0.03601504 -0.08674853 0.118865 1 0 1
-0.03498248 -0.08687557 0.119074 1 0 1
-0.03394898 -0.08700013 0.1192796 1 0 1
-0.03269428 -0.086558 0.1186863 1 0 1
-0.03187918 -0.08724193 0.1196811 1 0 1
-0.03063037 -0.08679403 0.1190798 1 0 1
-0.02980581 -0.08747394 0.1200695 1 0 1
-0.02897264 -0.08815221 0.1210573 1 0 1
-0.02792993 -0.08826249 0.1212441 1 0 1
-0.02688636 -0.08837032 0.1214275 1 0 1
-0.02603524 -0.08904283 0.1224082 1 0 1
-0.02498618 -0.08914606 0.1225856 1 0 1
-0.02412184 -0.08981477 0.1235616 1 0 1
-0.02324893 -0.09048171 0.1245356 1 0 1
-0.02254528 -0.09171549 0.1263106 1 0 1
-0.02199917 -0.09351712 0.1288885 1 0 1
-0.02159902 -0.09588758 0.1322709 1 0 1
-0.0213331 -0.09882773 0.1364595 1 0 1
-0.02135198 -0.1029084 0.1422613 1 0 1
-0.02131563 -0.1069907 0.1480673 1 0 1
-0.02122398 -0.1110745 0.1538774 1 0 1
-0.02092653 -0.1145887 0.1588841 1 0 1
-0.02102143 -0.1198169 0.1663162 1 0 1
-0.01876186 -0.1159045 0.1608228 1 0 1
-0.01572339 -0.1085555 0.1504667 1 0 1
0.07105447 -0.06652796 0.09398001 1 0 1
0.07215677 -0.06696571 0.09465284 1 0 1
0.07247071 -0.06516194 0.09210331 1 0 1
0.07336896 -0.06503639 0.09196638 1 0 1
0.07405989 -0.06435027 0.0910232 1 0 1
0.07495287 -0.06422107 0.09088115 1 0 1
0.07541647 -0.06297506 0.08913193 1 0 1
0.07630027 -0.06284282 0.08898545 1 0 1
0.07696132 -0.06215231 0.08803528 1 0 1
0.07761393 -0.0614609 0.0870836 1 0 1
0.07802831 -0.06021368 0.08533101 1 0 1
0.07866015 -0.05952122 0.08437715 1 0 1
0.07952097 -0.05938174 0.08422004 1 0 1
0.08038101 -0.05924022 0.08406019 1 0 1
0.08124025 -0.0590967 0.08389759 1 0 1
0.08209867 -0.05895115 0.08373223 1 0 1
0.08295631 -0.05880355 0.08356409 1 0 1
0.08355651 -0.05810345 0.08259879 1 0 1
0.08440866 -0.05795253 0.08242595 1 0 1
0.08525997 -0.0577996 0.08225038 1 0 1
0.08637843 -0.05819311 0.08286411 1 0 1
0.08750367 -0.05858321 0.08347351 1 0 1
0.0880843 -0.0578758 0.08249767 1 0 1
0.08921535 -0.05826046 0.08309991 1 0 1
0.09035309 -0.05864163 0.08369774 1 0 1
0.0914975 -0.05901933 0.0842911 1 0 1
0.09293938 -0.0599376 0.08566695 1 0 1
0.09498467 -0.06193747 0.08860872 1 0 1
0.09705926 -0.06392916 0.09154055 1 0 1
0.09976743 -0.06699615 0.09603088 1 0 1
0.1028258 -0.07059265 0.1012907 1 0 1
0.1053163 -0.07309545 0.1049695 1 0 1
0.1075299 -0.07504857 0.1078543 1 0 1
0.1085034 -0.07483854 0.1076062 1 0 1
0.1091547 -0.07408844 0.1065753 1 0 1
0.1101221 -0.07387465 0.1063219 1 0 1
0.1110882 -0.07365857 0.1060653 1 0 1
0.111721 -0.07290494 0.105029 1 0 1
0.1126809 -0.07268514 0.1047672 1 0 1
0.1139794 -0.07299662 0.1052769 1 0 1
0.1145971 -0.07223874 0.1042343 1 0 1
0.1155533 -0.07201215 0.1039632 1 0 1
0.1161573 -0.07125238 0.1029177 1 0 1
0.1171072 -0.07102214 0.1026414 1 0 1
0.1176975 -0.07026055 0.1015929 1 0 1
-0.07948592 -0.08169269 0.1088311 1 0 1
-0.07926586 -0.08300138 0.1106758 1 0 1
-0.07712086 -0.08161227 0.1087708 1 0 1
-0.07537434 -0.08075638 0.1076068 1 0 1
-0.07364092 -0.07989479 0.1064347 1 0 1
-0.07266224 -0.080112 0.1067624 1 0 1
-0.07094788 -0.07924086 0.1055767 1 0 1
-0.06997364 -0.07945179 0.1058959 1 0 1
-0.06863818 -0.07911579 0.1054544 1 0 1
-0.06766476 -0.07932125 0.1057662 1 0 1
-0.06633759 -0.07897824 0.105315 1 0 1
-0.06536507 -0.07917828 0.1056195 1 0 1
-0.06439118 -0.07937597 0.1059208 1 0 1
-0.0637572 -0.08011973 0.1069825 1 0 1
-0.06311443 -0.08086263 0.1080434 1 0 1
-0.06279673 -0.0821545 0.109869 1 0 1
-0.06213272 -0.08289631 0.1109292 1 0 1
-0.06178629 -0.08418844 0.1127562 1 0 1
-0.0614236 -0.08548095 0.1145843 1 0 1
-0.06136359 -0.08732651 0.1171835 1 0 1
-0.06064947 -0.08806698 0.1182437 1 0 1
-0.05992653 -0.08880637 0.1193027 1 0 1
-0.0591948 -0.0895446 0.1203606 1 0 1
-0.0587582 -0.090837 0.1221913 1 0 1
-0.05800509 -0.09157351 0.1232475 1 0 1
-0.0572432 -0.09230879 0.1243025 1 0 1
-0.05764294 -0.0952718 0.1284644 1 0 1
-0.05800367 -0.09823841 0.1326325 1 0 1
-0.05461964 -0.09394838 0.1266798 1 0 1
-0.04414472 -0.07749643 0.1037865 1 0 1
-0.04302688 -0.07947215 0.1065993 1 0 1
-0.04311453 -0.08186256 0.1099642 1 0 1
-0.0429084 -0.08369314 0.1125485 1 0 1
-0.04267837 -0.08552464 0.115135 1 0 1
-0.04216978 -0.08679397 0.1169372 1 0 1
-0.04139401 -0.08749943 0.1179526 1 0 1
-0.04036253 -0.08763942 0.1181785 1 0 1
-0.03933004 -0.08777694 0.118401 1 0 1
-0.03829652 -0.08791202 0.1186204 1 0 1
-0.03726203 -0.08804464 0.1188364 1 0 1
-0.03599483 -0.08760875 0.1182581 1 0 1
-0.03496223 -0.08773599 0.1184668 1 0 1
-0.03392867 -0.08786079 0.1186723 1 0 1
-0.03267403 -0.08741568 0.1180811 1 0 1
-0.03164247 -0.08753512 0.1182793 1 0 1
-0.03061004 -0.08765212 0.1184743 1 0 1
-0.02999399 -0.08890417 0.1202572 1 0 1
-0.02895209 -0.08901712 0.1204471 1 0 1
-0.02811025 -0.08969717 0.1214306 1 0 1
-0.02706278 -0.08980557 0.1216145 1 0 1
-0.02620767 -0.09048188 0.1225935 1 0 1
-0.0251547 -0.09058572 0.1227715 1 0 1
-0.02410093 -0.09068702 0.1229461 1 0 1
-0.02322792 -0.09135734 0.1239177 1 0 1
-0.02287941 -0.0937414 0.1272898 1 0 1
-0.02232528 -0.09555356 0.129862 1 0 1
-0.0220869 -0.09851018 0.1340385 1 0 1
-0.02214094 -0.1026132 0.1398227 1 0 1
-0.02246404 -0.1078644 0.1472178 1 0 1
-0.02224161 -0.1113981 0.152208 1 0 1
-0.02258902 -0.1172277 0.1604184 1 0 1
-0.02270731 -0.1224861 0.1678307 1 0 1
-0.02246157 -0.126598 0.1736377 1 0 1
0.07256763 -0.06884327 0.09572896 1 0 1
0.07308803 -0.06759142 0.09398752 1 0 1
0.07359229 -0.06633957 0.09224551 1 0 1
0.07428701 -0.06564949 0.09130416 1 0 1
0.07497334 -0.0649584 0.09036111 1 0 1
0.07543677 -0.06370579 0.08861659 1 0 1
0.07632063 -0.06357332 0.08847025 1 0 1
0.07675944 -0.06232002 0.08672392 1 0 1
0.07763413 -0.06218461 0.08657329 1 0 1
0.07827818 -0.06148893 0.08562259 1 0 1
0.0789138 -0.06079244 0.08467047 1 0 1
0.07954097 -0.06009517 0.08371699 1 0 1
0.08040101 -0.05995341 0.0835573 1 0 1
0.08126028 -0.05980963 0.08339486 1 0 1
0.08211874 -0.05966383 0.08322967 1 0 1
0.08272354 -0.05896167 0.08226881 1 0 1
0.08357653 -0.05881248 0.08209889 1 0 1
0.0844287 -0.05866128 0.08192622 1 0 1
0.08527998 -0.05850811 0.08175085 1 0 1
0.08639861 -0.05890452 0.08236254 1 0 1
0.08725198 -0.05874662 0.08218088 1 0 1
0.08838026 -0.05913689 0.08278468 1 0 1
0.08951519 -0.05952372 0.08338406 1 0 1
0.09065685 -0.05990707 0.083979 1 0 1
0.09180517 -0.06028691 0.08456948 1 0 1
0.09296008 -0.06066322 0.08515544 1 0 1
0.09471106 -0.06212897 0.08730464 1 0 1
0.09618525 -0.06304234 0.08866266 1 0 1
0.09888265 -0.06613034 0.09314254 1 0 1
0.1016243 -0.06920685 0.09760857 1 0 1
0.1047199 -0.07281504 0.1028407 1 0 1
0.1069263 -0.0747821 0.1057188 1 0 1
0.1088443 -0.07619862 0.1078078 1 0 1
0.1094993 -0.07544417 0.1067784 1 0 1
0.1104705 -0.07522921 0.1065243 1 0 1
0.1114404 -0.07501193 0.106267 1 0 1
0.1120768 -0.0742539 0.1052322 1 0 1
0.1127044 -0.07349535 0.1041963 1 0 1
0.1140029 -0.07380958 0.104704 1 0 1
0.1142771 -0.07251236 0.1028927 1 0 1
0.1152296 -0.07228628 0.1026229 1 0 1
0.1161808 -0.07205792 0.1023501 1 0 1
0.1171307 -0.0718273 0.1020742 1 0 1
0.117721 -0.07106217 0.1010282 1 0 1
-0.08398943 -0.08717624 0.1145726 1 0 1
-0.08063349 -0.08417041 0.1104605 1 0 1
-0.0792463 -0.08386217 0.1100638 1 0 1
-0.07710148 -0.08246405 0.1081653 1 0 1
-0.07535508 -0.08160225 0.1070054 1 0 1
-0.07399615 -0.08127932 0.106588 1 0 1
-0.07264306 -0.08095238 0.106165 1 0 1
-0.07129584 -0.08062144 0.1057364 1 0 1
-0.07031786 -0.08083353 0.1060566 1 0 1
-0.06897875 -0.08049551 0.1056182 1 0 1
-0.06764565 -0.08015358 0.1051743 1 0 1
-0.06667078 -0.08035705 0.1054828 1 0 1
-0.06569451 -0.0805582 0.1057882 1 0 1
-0.06471688 -0.08075698 0.1060904 1 0 1
-0.06407909 -0.08150501 0.1071508 1 0 1
-0.06343254 -0.08225213 0.1082103 1 0 1
-0.06311093 -0.08355139 0.1100323 1 0 1
-0.06277312 -0.08485115 0.1118555 1 0 1
-0.06241906 -0.08615132 0.1136799 1 0 1
-0.06204873 -0.08745189 0.1155055 1 0 1
-0.06166213 -0.08875282 0.1173321 1 0 1
-0.06094415 -0.0894975 0.1183909 1 0 1
-0.05990603 -0.08968385 0.1186787 1 0 1
-0.05978937 -0.09154127 0.1212757 1 0 1
-0.05934507 -0.09284165 0.1231036 1 0 1
-0.05828426 -0.09302375 0.1233866 1 0 1
-0.05781479 -0.09432296 0.1252139 1 0 1
-0.05791403 -0.09674294 0.1285913 1 0 1
-0.05740431 -0.09804326 0.1304216 1 0 1
-0.05288849 -0.09148027 0.1213778 1 0 1
-0.04508781 -0.07815322 0.1029757 1 0 1
-0.04357081 -0.07717784 0.1016551 1 0 1
-0.04398322 -0.08014184 0.1057847 1 0 1
-0.0440868 -0.08254533 0.1091398 1 0 1
-0.04389287 -0.08438638 0.1117176 1 0 1
-0.04367506 -0.08622842 0.1142977 1 0 1
-0.04317495 -0.08750572 0.1160967 1 0 1
-0.04240393 -0.0882165 0.117112 1 0 1
-0.04162424 -0.08892591 0.1181257 1 0 1
-0.0405889 -0.08906667 0.1183522 1 0 1
-0.03955255 -0.08920495 0.1185754 1 0 1
-0.0385152 -0.08934079 0.1187954 1 0 1
-0.03747682 -0.0894741 0.1190121 1 0 1
-0.03620583 -0.08903578 0.1184367 1 0 1
-0.03516936 -0.08916372 0.118646 1 0 1
-0.03413194 -0.08928918 0.1188521 1 0 1
-0.03287348 -0.08884156 0.1182638 1 0 1
-0.03183806 -0.08896165 0.1184625 1 0 1
-0.03080174 -0.08907931 0.1186581 1 0 1
-0.03018164 -0.09033839 0.120437 1 0 1
-0.02913585 -0.09045195 0.1206274 1 0 1
-0.02829003 -0.09113581 0.1216092 1 0 1
-0.02723867 -0.09124481 0.1217937 1 0 1
-0.02637959 -0.09192488 0.1227709 1 0 1
-0.0253227 -0.09202926 0.1229494 1 0 1
-0.0244504 -0.09270547 0.1239219 1 0 1
-0.02375099 -0.09395456 0.1256903 1 0 1
-0.0232129 -0.09577763 0.1282565 1 0 1
-0.02282445 -0.09817561 0.1316222 1 0 1
-0.02274382 -0.1017252 0.1365887 1 0 1
-0.02294767 -0.1064281 0.1431596 1 0 1
-0.02325057 -0.1117099 0.1505369 1 0 1
-0.02285 -0.1146878 0.1547146 1 0 1
-0.02302676 -0.1199738 0.1621021 1 0 1
-0.02313259 -0.1252621 0.1694954 1 0 1
0.07396474 -0.07652699 0.1049398 1 0 1
0.07317385 -0.07129794 0.0975937 1 0 1
0.07330767 -0.068906 0.09425511 1 0 1
0.07361271 -0.06708163 0.09171775 1 0 1
0.07410061 -0.06582329 0.08997995 1 0 1
0.07499364 -0.06569365 0.08983821 1 0 1
0.07567142 -0.06499819 0.08889601 1 0 1
0.07634077 -0.06430177 0.08795222 1 0 1
0.07700169 -0.06360444 0.08700689 1 0 1
0.0778802 -0.06346818 0.08685576 1 0 1
0.07852804 -0.06276852 0.08590684 1 0 1
0.07916743 -0.06206801 0.08495647 1 0 1
0.07979833 -0.06136669 0.08400471 1 0 1
0.08066227 -0.06122405 0.08384449 1 0 1
0.0812801 -0.06052056 0.08288933 1 0 1
0.08188946 -0.05981633 0.08193291 1 0 1
0.08274329 -0.05966893 0.08176593 1 0 1
0.0835963 -0.0595195 0.0815962 1 0 1
0.08444848 -0.05936805 0.08142371 1 0 1
0.0852998 -0.05921462 0.08124854 1 0 1
0.08641848 -0.05961394 0.08185818 1 0 1
0.08727191 -0.05945576 0.08167672 1 0 1
0.08840028 -0.05984894 0.08227845 1 0 1
0.08953534 -0.06023866 0.08287581 1 0 1
0.09039363 -0.060073 0.08268449 1 0 1
0.0918255 -0.06100761 0.08405715 1 0 1
0.09298054 -0.06138679 0.08464109 1 0 1
0.09443698 -0.06231209 0.08600212 1 0 1
0.09620617 -0.0637811 0.08813751 1 0 1
0.09829938 -0.06579154 0.09104453 1 0 1
0.1007279 -0.06834088 0.09472021 1 0 1
0.1035029 -0.0714267 0.09916173 1 0 1
0.1060083 -0.07395497 0.1028119 1 0 1
0.1079154 -0.07538301 0.1048973 1 0 1
0.1088802 -0.07517163 0.1046485 1 0 1
0.1098439 -0.07495794 0.1043966 1 0 1
0.1108063 -0.07474198 0.1041416 1 0 1
0.1117675 -0.07452376 0.1038835 1 0 1
0.1123914 -0.07376252 0.1028511 1 0 1
0.1136863 -0.07408043 0.1033579 1 0 1
0.1143002 -0.07331637 0.1023214 1 0 1
0.1152527 -0.0730899 0.1020519 1 0 1
0.1158529 -0.07232396 0.1010124 1 0 1
0.1167991 -0.07209386 0.1007379 1 0 1
0.117744 -0.0718615 0.1004602 1 0 1
-0.07825429 -0.07858724 0.1009864 1 0 1
-0.08122101 -0.08425141 0.1087482 1 0 1
-0.08022435 -0.08448718 0.1090999 1 0 1
-0.07922614 -0.08472054 0.1094484 1 0 1
-0.0770815 -0.08331342 0.1075564 1 0 1
-0.07533517 -0.08244573 0.1064007 1 0 1
-0.0739763 -0.08212001 0.1059852 1 0 1
-0.07262327 -0.08179031 0.1055642 1 0 1
-0.0712761 -0.08145659 0.1051376 1 0 1
-0.0699348 -0.08111893 0.1047055 1 0 1
-0.06931865 -0.08187916 0.1057742 1 0 1
-0.06798188 -0.0815352 0.1053335 1 0 1
-0.06665106 -0.08118735 0.1048874 1 0 1
-0.0656748 -0.08138884 0.1051926 1 0 1
-0.06504196 -0.08214194 0.1062523 1 0 1
-0.06405921 -0.08233947 0.1065524 1 0 1
-0.06374996 -0.08364553 0.1083694 1 0 1
-0.06342446 -0.08495217 0.1101877 1 0 1
-0.0634127 -0.08681617 0.1127695 1 0 1
-0.06272474 -0.0875668 0.113828 1 0 1
-0.06202799 -0.0883164 0.1148855 1 0 1
-0.06164125 -0.08962398 0.1167073 1 0 1
-0.06092316 -0.09037214 0.1177636 1 0 1
-0.05988499 -0.09055879 0.1180511 1 0 1
-0.05946056 -0.09186503 0.1198725 1 0 1
-0.05901983 -0.09317136 0.1216947 1 0 1
-0.05796276 -0.09335314 0.1219764 1 0 1
-0.05690439 -0.09353239 0.1222548 1 0 1
-0.05642972 -0.09483632 0.1240749 1 0 1
-0.05420657 -0.09275492 0.1212545 1 0 1
-0.04773887 -0.08219379 0.1068059 1 0 1
-0.04422493 -0.07726149 0.1000723 1 0 1
-0.04466077 -0.08024038 0.1041878 1 0 1
-0.04505759 -0.08322283 0.1083095 1 0 1
-0.04514562 -0.0856415 0.1116589 1 0 1
-0.04467031 -0.08692687 0.1134542 1 0 1
-0.04417871 -0.08821207 0.11525 1 0 1
-0.04367079 -0.08949707 0.117046 1 0 1
-0.04289205 -0.09021237 0.1180605 1 0 1
-0.0418539 -0.09035636 0.118291 1 0 1
-0.04081472 -0.09049787 0.1185181 1 0 1
-0.0397745 -0.09063687 0.118742 1 0 1
-0.0387333 -0.09077345 0.1189626 1 0 1
-0.03769106 -0.09090752 0.1191799 1 0 1
-0.03641628 -0.09046669 0.1186073 1 0 1
-0.03537595 -0.09059533 0.1188173 1 0 1
-0.03433466 -0.0907215 0.1190239 1 0 1
-0.0330724 -0.0902714 0.1184385 1 0 1
-0.03203311 -0.09039216 0.1186379 1 0 1
-0.03099291 -0.09051042 0.118834 1 0 1
-0.03036877 -0.09177651 0.1206089 1 0 1
-0.02931909 -0.09189069 0.1207998 1 0 1
-0.0284693 -0.09257832 0.1217799 1 0 1
-0.02741405 -0.09268792 0.1219649 1 0 1
-0.02655098 -0.09337174 0.1229404 1 0 1
-0.02549022 -0.09347669 0.1231194 1 0 1
-0.02461389 -0.09415667 0.1240901 1 0 1
-0.02409185 -0.09599055 0.1266502 1 0 1
-0.02372324 -0.09840231 0.1300069 1 0 1
-0.02349645 -0.1013928 0.134162 1 0 1
-0.02373924 -0.1061209 0.1407121 1 0 1
-0.0239191 -0.1108516 0.147268 1 0 1
-0.02419791 -0.1161641 0.154628 1 0 1
-0.02361548 -0.1185802 0.1579982 1 0 1
-0.02315529 -0.1215758 0.1621686 1 0 1
0.0749519 -0.07718753 0.1042319 1 0 1
0.07392555 -0.07136306 0.09611075 1 0 1
0.07383598 -0.06839015 0.09198425 1 0 1
0.0743276 -0.06712468 0.09025057 1 0 1
0.07501376 -0.06642681 0.08931243 1 0 1
0.07569146 -0.06572795 0.08837267 1 0 1
0.07636076 -0.06502814 0.0874313 1 0 1
0.07724389 -0.06489314 0.08728249 1 0 1
0.0779001 -0.06419092 0.08633748 1 0 1
0.07854788 -0.06348785 0.08539099 1 0 1
0.07918719 -0.06278393 0.08444305 1 0 1
0.08005572 -0.06264248 0.08428508 1 0 1
0.0809235 -0.06249899 0.08412434 1 0 1
0.08154509 -0.06179145 0.08317094 1 0 1
0.08240739 -0.06164451 0.08300538 1 0 1
0.08301588 -0.06093485 0.08204867 1 0 1
0.08361588 -0.06022448 0.0810907 1 0 1
0.08446806 -0.06007279 0.08091842 1 0 1
0.0855839 -0.06047774 0.08152954 1 0 1
0.08643818 -0.06032132 0.08135102 1 0 1
0.08729161 -0.06016289 0.08116978 1 0 1
0.08842008 -0.06055896 0.08176946 1 0 1
0.08955524 -0.06095155 0.08236472 1 0 1
0.09069707 -0.06134065 0.08295559 1 0 1
0.09184558 -0.06172626 0.083542 1 0 1
0.09300074 -0.06210829 0.08412387 1 0 1
0.09445734 -0.06303959 0.08548062 1 0 1
0.09622683 -0.06451777 0.08760948 1 0 1
0.09801795 -0.06598922 0.08973011 1 0 1
0.1004431 -0.06855477 0.09339568 1 0 1
0.1032149 -0.07165992 0.09782485 1 0 1
0.105717 -0.07420436 0.1014649 1 0 1
0.1076206 -0.07564234 0.1035448 1 0 1
0.108903 -0.07597867 0.1040701 1 0 1
0.1101917 -0.07631101 0.1045904 1 0 1
0.1108291 -0.07554831 0.1035637 1 0 1
0.1117903 -0.0753297 0.1033059 1 0 1
0.1127504 -0.0751088 0.1030449 1 0 1
0.1137091 -0.07488561 0.1027809 1 0 1
0.1143229 -0.07411808 0.1017469 1 0 1
0.1152754 -0.07389122 0.1014777 1 0 1
0.1158755 -0.07312179 0.1004408 1 0 1
0.1168218 -0.0728913 0.1001665 1 0 1
0.1177667 -0.07265855 0.09988917 1 0 1
-0.08259145 -0.08541363 0.108514 1 0 1
-0.08237768 -0.08674628 0.1103493 1 0 1
-0.08020357 -0.08534266 0.1084815 1 0 1
-0.07920533 -0.08557642 0.1088297 1 0 1
-0.07706091 -0.08416033 0.1069442 1 0 1
-0.07531472 -0.08328677 0.1057927 1 0 1
-0.07395591 -0.08295832 0.1053793 1 0 1
-0.07260289 -0.08262582 0.1049601 1 0 1
-0.07125578 -0.08228938 0.1045356 1 0 1
-0.07027776 -0.08250219 0.1048551 1 0 1
-0.0692983 -0.08271264 0.1051716 1 0 1
-0.06796154 -0.08236592 0.1047329 1 0 1
-0.06698295 -0.08257087 0.105042 1 0 1
-0.06600294 -0.08277345 0.105348 1 0 1
-0.06536631 -0.08353078 0.1064064 1 0 1
-0.06437983 -0.08372942 0.1067074 1 0 1
-0.06406666 -0.08504282 0.1085207 1 0 1
-0.06373727 -0.08635679 0.1103353 1 0 1
-0.06306179 -0.08711118 0.1113912 1 0 1
-0.06270361 -0.08842537 0.1132072 1 0 1
-0.0623292 -0.08973993 0.1150243 1 0 1
-0.06161981 -0.09049264 0.1160791 1 0 1
-0.06090164 -0.09124425 0.1171329 1 0 1
-0.05986344 -0.09143125 0.1174202 1 0 1
-0.05943885 -0.09274407 0.1192368 1 0 1
-0.05839055 -0.09292739 0.1195196 1 0 1
-0.05734098 -0.09310822 0.1197991 1 0 1
-0.05629014 -0.09328649 0.1200752 1 0 1
-0.05553045 -0.09402901 0.1211183 1 0 1
-0.05245309 -0.09023134 0.1159902 1 0 1
-0.04885778 -0.08528662 0.109301 1 0 1
-0.04645358 -0.08260288 0.105684 1 0 1
-0.04630414 -0.08446421 0.1082472 1 0 1
-0.04558397 -0.08518719 0.1092628 1 0 1
-0.04566408 -0.08761995 0.1126047 1 0 1
-0.04518097 -0.08891302 0.1143971 1 0 1
-0.04441951 -0.08963448 0.1154121 1 0 1
-0.04390762 -0.0909266 0.1172042 1 0 1
-0.04312493 -0.09164583 0.1182171 1 0 1
-0.04208297 -0.0917906 0.1184482 1 0 1
-0.04079314 -0.0913593 0.1178949 1 0 1
-0.0397529 -0.09149858 0.1181186 1 0 1
-0.03871165 -0.09163538 0.1183391 1 0 1
-0.03766941 -0.0917697 0.1185562 1 0 1
-0.0363947 -0.09132592 0.1179857 1 0 1
-0.03535434 -0.09145477 0.1181955 1 0 1
-0.03431303 -0.09158117 0.1184021 1 0 1
-0.03327077 -0.09170507 0.1186053 1 0 1
-0.03222759 -0.0918265 0.1188053 1 0 1
-0.03139579 -0.09252333 0.11979 1 0 1
-0.03055536 -0.09321849 0.1207728 1 0 1
-0.0295018 -0.09333327 0.1209643 1 0 1
-0.02864805 -0.09402472 0.1219426 1 0 1
-0.02758892 -0.09413491 0.1221282 1 0 1
-0.02672188 -0.09482251 0.1231018 1 0 1
-0.02565721 -0.09492804 0.1232814 1 0 1
-0.02514731 -0.09677312 0.1258359 1 0 1
-0.02461335 -0.09861781 0.1283908 1 0 1
-0.02458763 -0.1022064 0.133328 1 0 1
-0.02451455 -0.1057965 0.1382692 1 0 1
-0.02473338 -0.1105522 0.1448043 1 0 1
-0.02538656 -0.1170577 0.1537325 1 0 1
-0.02611528 -0.1241502 0.1634659 1 0 1
-0.02390582 -0.1207523 0.1588641 1 0 1
-0.02004724 -0.1109308 0.1454798 1 0 1
0.07374698 -0.07154781 0.0947678 1 0 1
0.07324695 -0.06741587 0.08906371 1 0 1
0.07393374 -0.06671672 0.08813085 1 0 1
0.0750337 -0.06715784 0.08878375 1 0 1
0.07592601 -0.06702568 0.0886395 1 0 1
0.07659909 -0.0663219 0.08769998 1 0 1
0.0772637 -0.0656172 0.08675892 1 0 1
0.07814607 -0.06547989 0.08660745 1 0 1
0.07879762 -0.06477281 0.08566277 1 0 1
0.07944069 -0.06406488 0.0847166 1 0 1
0.07983752 -0.06278969 0.08297999 1 0 1
0.08070145 -0.0626466 0.08282016 1 0 1
0.08131915 -0.06193631 0.08186994 1 0 1
0.08217762 -0.06178977 0.08170532 1 0 1
0.08303532 -0.0616412 0.08153793 1 0 1
0.08389217 -0.06149061 0.08136781 1 0 1
0.0847482 -0.06133801 0.08119499 1 0 1
0.08560336 -0.06118334 0.08101939 1 0 1
0.08645763 -0.06102667 0.08084106 1 0 1
0.08758327 -0.06142834 0.08144224 1 0 1
0.08871566 -0.06182659 0.08203904 1 0 1
0.08985471 -0.06222134 0.08263142 1 0 1
0.09100045 -0.06261257 0.08321936 1 0 1
0.09186542 -0.06244282 0.083024 1 0 1
0.09302066 -0.06282771 0.08360381 1 0 1
0.09418245 -0.06320906 0.08417913 1 0 1
0.09564966 -0.06414196 0.08552607 1 0 1
0.09713095 -0.06506967 0.08686662 1 0 1
0.09923896 -0.06709938 0.08974948 1 0 1
0.1016861 -0.06967338 0.09339552 1 0 1
0.1044837 -0.07278922 0.09780183 1 0 1
0.1063725 -0.07423952 0.099879 1 0 1
0.1079613 -0.07513229 0.1011768 1 0 1
0.109564 -0.07601946 0.1024676 1 0 1
0.1105227 -0.0758036 0.1022141 1 0 1
0.1114802 -0.07558548 0.1019575 1 0 1
0.1124365 -0.07536511 0.1016979 1 0 1
0.1137316 -0.07568853 0.1022007 1 0 1
0.1143453 -0.07491749 0.1011693 1 0 1
0.1152978 -0.07469025 0.1009004 1 0 1
0.1158978 -0.07391728 0.09986595 1 0 1
0.1168441 -0.07368644 0.099592 1 0 1
0.117789 -0.07345332 0.09931497 1 0 1
-0.08138197 -0.08462248 0.1056821 1 0 1
-0.08235609 -0.08760821 0.1097211 1 0 1
-0.08057097 -0.08674625 0.1085985 1 0 1
-0.07918392 -0.08642982 0.1082077 1 0 1
-0.07703972 -0.08500478 0.1063287 1 0 1
-0.07529368 -0.08412534 0.1051815 1 0 1
-0.0739349 -0.08379415 0.10477 1 0 1
-0.07258197 -0.08345892 0.1043529 1 0 1
-0.0712349 -0.08311972 0.1039303 1 0 1
-0.07025683 -0.0833329 0.1042496 1 0 1
-0.06927736 -0.08354373 0.1045658 1 0 1
-0.06794067 -0.08319421 0.1041291 1 0 1
-0.06696206 -0.0833995 0.1044379 1 0 1
-0.0663304 -0.08416193 0.1054957 1 0 1
-0.06534529 -0.08436324 0.1057995 1 0 1
-0.06435881 -0.08456222 0.1061002 1 0 1
-0.06404545 -0.08588223 0.1079087 1 0 1
-0.06338238 -0.08664033 0.1089619 1 0 1
-0.06304027 -0.08796068 0.1107719 1 0 1
-0.06235585 -0.08871755 0.1118243 1 0 1
-0.061985 -0.09003797 0.1136354 1 0 1
-0.06159787 -0.09135874 0.1154476 1 0 1
-0.06056472 -0.09154788 0.1157369 1 0 1
-0.05984137 -0.09230115 0.1167859 1 0 1
-0.05910922 -0.09305326 0.1178337 1 0 1
-0.05776108 -0.09266828 0.1173502 1 0 1
-0.05671901 -0.09284812 0.1176274 1 0 1
-0.0553796 -0.09245616 0.1171343 1 0 1
-0.05404651 -0.09206045 0.1166361 1 0 1
-0.05156562 -0.08937896 0.1130568 1 0 1
-0.0488366 -0.08611771 0.1086948 1 0 1
-0.04671375 -0.08399025 0.10586 1 0 1
-0.04683745 -0.08643422 0.1091888 1 0 1
-0.04638295 -0.0877347 0.1109764 1 0 1
-0.04591217 -0.08903506 0.1127645 1 0 1
-0.04569089 -0.09090936 0.1153274 1 0 1
-0.0449217 -0.09163535 0.1163417 1 0 1
-0.04388566 -0.09178478 0.1165783 1 0 1
-0.04310291 -0.09250745 0.1175887 1 0 1
-0.0420609 -0.09265246 0.1178196 1 0 1
-0.04101786 -0.092795 0.1180472 1 0 1
-0.03973091 -0.09235778 0.117492 1 0 1
-0.03868962 -0.09249479 0.1177122 1 0 1
-0.03764737 -0.09262937 0.1179292 1 0 1
-0.03637271 -0.09218264 0.1173608 1 0 1
-0.03533234 -0.09231175 0.1175705 1 0 1
-0.03451471 -0.09301804 0.1185603 1 0 1
-0.03346861 -0.09314264 0.1187642 1 0 1
-0.03242157 -0.09326471 0.1189647 1 0 1
-0.03158581 -0.09396534 0.1199477 1 0 1
-0.03074141 -0.09466432 0.1209288 1 0 1
-0.02968398 -0.09477974 0.1211208 1 0 1
-0.02862567 -0.09489262 0.1213095 1 0 1
-0.02776326 -0.09558573 0.1222834 1 0 1
-0.0270851 -0.09686019 0.1240445 1 0 1
-0.02620167 -0.09755014 0.125015 1 0 1
-0.02567988 -0.09940603 0.1275643 1 0 1
-0.02513402 -0.1012616 0.130114 1 0 1
-0.02527354 -0.105455 0.1358309 1 0 1
-0.02518439 -0.1090657 0.1407604 1 0 1
-0.02572618 -0.1150188 0.148865 1 0 1
-0.02668651 -0.1227326 0.159358 1 0 1
-0.02722126 -0.12928 0.168274 1 0 1
-0.02419549 -0.1229343 0.1597169 1 0 1
0.07376735 -0.07229947 0.09421965 1 0 1
0.07306357 -0.06757029 0.08773923 1 0 1
0.07416046 -0.06801704 0.08839342 1 0 1
0.07526439 -0.06846055 0.08904353 1 0 1
0.0759458 -0.06775438 0.08810811 1 0 1
0.07683739 -0.06761986 0.08796118 1 0 1
0.07750578 -0.06691121 0.08702195 1 0 1
0.0781657 -0.06620162 0.0860812 1 0 1
0.07881714 -0.06549115 0.08513895 1 0 1
0.07969419 -0.06535005 0.08498275 1 0 1
0.08033257 -0.0646373 0.08403698 1 0 1
0.08096248 -0.06392374 0.08308984 1 0 1
0.08158387 -0.0632094 0.08214137 1 0 1
0.08244622 -0.06306197 0.08197621 1 0 1
0.08305454 -0.06234553 0.08102443 1 0 1
0.08391138 -0.06219467 0.08085451 1 0 1
0.08476742 -0.06204181 0.08068188 1 0 1
0.08588724 -0.06245182 0.081288 1 0 1
0.08674534 -0.0622942 0.0811091 1 0 1
0.08787486 -0.06269807 0.08170737 1 0 1
0.08901113 -0.06309843 0.08230125 1 0 1
0.0901541 -0.06349533 0.08289076 1 0 1
0.0913037 -0.0638887 0.08347578 1 0 1
0.09217246 -0.06371792 0.08327976 1 0 1
0.09304032 -0.06354507 0.08308095 1 0 1
0.09420226 -0.06392923 0.08365419 1 0 1
0.09537075 -0.06430981 0.08422287 1 0 1
0.09684845 -0.06524426 0.08555999 1 0 1
0.09864662 -0.06673021 0.08766276 1 0 1
0.1007765 -0.06876521 0.09052831 1 0 1
0.1032494 -0.07134677 0.09415378 1 0 1
0.1054411 -0.07336367 0.09699748 1 0 1
0.1073403 -0.0748183 0.09906219 1 0 1
0.1086104 -0.07516038 0.09958331 1 0 1
0.1102158 -0.07605033 0.1008658 1 0 1
0.1111695 -0.07583269 0.1006105 1 0 1
0.1121221 -0.07561281 0.1003521 1 0 1
0.1134135 -0.07593985 0.100854 1 0 1
0.1143673 -0.07571454 0.1005885 1 0 1
0.1153198 -0.07548694 0.1003199 1 0 1
0.1155684 -0.07416397 0.09852786 1 0 1
0.116511 -0.07393364 0.09825524 1 0 1
0.1174522 -0.07370105 0.09797961 1 0 1
-0.08115692 -0.08680923 0.106884 1 0 1
-0.08016022 -0.08704619 0.1072347 1 0 1
-0.07839187 -0.0861717 0.1061069 1 0 1
-0.07663655 -0.08529138 0.1049709 1 0 1
-0.07489429 -0.08440529 0.1038267 1 0 1
-0.07391331 -0.08462758 0.1041574 1 0 1
-0.07256044 -0.08428959 0.1037424 1 0 1
-0.07121343 -0.08394766 0.1033218 1 0 1
-0.07023537 -0.08416117 0.1036408 1 0 1
-0.06925587 -0.08437233 0.1039567 1 0 1
-0.06791925 -0.08402008 0.103522 1 0 1
-0.06694061 -0.08422574 0.1038306 1 0 1
-0.06630887 -0.08499163 0.1048859 1 0 1
-0.06532374 -0.08519328 0.1051894 1 0 1
-0.06467809 -0.08595667 0.1062418 1 0 1
-0.06402371 -0.08671918 0.1072935 1 0 1
-0.0633605 -0.08748075 0.1083442 1 0 1
-0.06268852 -0.08824136 0.1093939 1 0 1
-0.06200774 -0.08900099 0.1104426 1 0 1
-0.06164043 -0.09032729 0.1122478 1 0 1
-0.06093834 -0.09108552 0.1132955 1 0 1
-0.0605422 -0.09241179 0.1151017 1 0 1
-0.05950774 -0.09259874 0.1153875 1 0 1
-0.05877923 -0.09335366 0.1164317 1 0 1
-0.05743491 -0.09296518 0.1159493 1 0 1
-0.05639661 -0.09314464 0.1162253 1 0 1
-0.05476503 -0.09217683 0.1149686 1 0 1
-0.05314735 -0.09120403 0.1137048 1 0 1
-0.05096663 -0.08907891 0.1109006 1 0 1
-0.04909961 -0.08752066 0.108853 1 0 1
-0.04781593 -0.08710612 0.1083338 1 0 1
-0.04764706 -0.08898982 0.1108874 1 0 1
-0.047181 -0.09029863 0.1126729 1 0 1
-0.04669866 -0.09160729 0.1144589 1 0 1
-0.0462 -0.09291578 0.1162452 1 0 1
-0.04542312 -0.09364627 0.1172588 1 0 1
-0.04437945 -0.09379709 0.1174969 1 0 1
-0.04358898 -0.09452426 0.1185065 1 0 1
-0.04253933 -0.09467059 0.1187389 1 0 1
-0.041242 -0.09423447 0.1181915 1 0 1
-0.03995128 -0.09379486 0.1176392 1 0 1
-0.03890617 -0.09393264 0.1178601 1 0 1
-0.0376249 -0.09348649 0.1172988 1 0 1
-0.03658162 -0.09361879 0.1175123 1 0 1
-0.03553741 -0.09374857 0.1177225 1 0 1
-0.03449222 -0.09387589 0.1179295 1 0 1
-0.03366588 -0.09458396 0.118915 1 0 1
-0.03261498 -0.09470671 0.1191161 1 0 1
-0.03177526 -0.09541114 0.1200974 1 0 1
-0.03092694 -0.09611393 0.1210767 1 0 1
-0.02986564 -0.09622996 0.1212693 1 0 1
-0.02880345 -0.09634347 0.1214585 1 0 1
-0.02793708 -0.09704033 0.1224306 1 0 1
-0.02744765 -0.09890795 0.1249744 1 0 1
-0.02674527 -0.1001887 0.1267312 1 0 1
-0.02639663 -0.1026424 0.1300635 1 0 1
-0.02619732 -0.1056838 0.1341862 1 0 1
-0.02631292 -0.1099017 0.1398903 1 0 1
-0.02619999 -0.1135336 0.1448093 1 0 1
-0.0270566 -0.1206975 0.1544752 1 0 1
-0.02781914 -0.1278664 0.1641514 1 0 1
0.07267659 -0.06713825 0.08562624 1 0 1
0.07418007 -0.06874407 0.08785886 1 0 1
0.07528408 -0.06919049 0.08850683 1 0 1
0.07596541 -0.06848096 0.08757387 1 0 1
0.07685701 -0.0683462 0.08742711 1 0 1
0.07797042 -0.06878455 0.08806469 1 0 1
0.07841155 -0.06749582 0.0863386 1 0 1
0.07929701 -0.06735533 0.086184 1 0 1
0.07994764 -0.06663944 0.08524147 1 0 1
0.08035182 -0.06534992 0.08351305 1 0 1
0.08122342 -0.0652051 0.08335214 1 0 1
0.08184861 -0.06448673 0.08240545 1 0 1
0.08271476 -0.0643384 0.08223972 1 0 1
0.08332681 -0.0636179 0.08128969 1 0 1
0.08418749 -0.06346612 0.0811192 1 0 1
0.08504736 -0.06331231 0.080946 1 0 1
0.08617106 -0.06372453 0.08154924 1 0 1
0.087033 -0.06356595 0.08136974 1 0 1
0.08816644 -0.06397196 0.08196513 1 0 1
0.08903041 -0.06380854 0.08177929 1 0 1
0.0901734 -0.06420828 0.0823667 1 0 1
0.09132313 -0.06460449 0.08294962 1 0 1
0.0921919 -0.06443343 0.08275383 1 0 1
0.09305973 -0.06426031 0.08255523 1 0 1
0.09392659 -0.0640851 0.08235387 1 0 1
0.09539031 -0.0650307 0.08369302 1 0 1
0.09656546 -0.06541047 0.08425504 1 0 1
0.09836009 -0.06690627 0.0863521 1 0 1
0.1001763 -0.06839517 0.08844077 1 0 1
0.1023281 -0.07043534 0.09128892 1 0 1
0.1041911 -0.07190943 0.0933596 1 0 1
0.1060755 -0.07337637 0.09542155 1 0 1
0.1079813 -0.07483607 0.0974747 1 0 1
0.1095793 -0.07573359 0.09875486 1 0 1
0.1108583 -0.07607137 0.09926492 1 0 1
0.1121436 -0.07640516 0.09976991 1 0 1
0.1130949 -0.07618265 0.09950878 1 0 1
0.114045 -0.07595781 0.09924453 1 0 1
0.1149938 -0.07573075 0.09897729 1 0 1
0.1155899 -0.07495175 0.09794904 1 0 1
0.1165325 -0.07472104 0.09767674 1 0 1
0.1174737 -0.07448806 0.09740138 1 0 1
-0.07912814 -0.08163347 0.09824253 1 0 1
-0.08173363 -0.08686206 0.1051707 1 0 1
-0.08152657 -0.08821276 0.1069888 1 0 1
-0.079749 -0.08733745 0.1058722 1 0 1
-0.07836939 -0.08701392 0.1054829 1 0 1
-0.07661422 -0.08612777 0.1043511 1 0 1
-0.07487213 -0.08523586 0.1032112 1 0 1
-0.07351713 -0.08489837 0.1028025 1 0 1
-0.07253835 -0.08511783 0.1031286 1 0 1
-0.07119142 -0.08477314 0.10271 1 0 1
-0.07021333 -0.08498702 0.1030287 1 0 1
-0.0692338 -0.08519856 0.1033444 1 0 1
-0.06789728 -0.08484352 0.1029117 1 0 1
-0.0669186 -0.0850495 0.10322 1 0 1
-0.06593856 -0.08525313 0.1035252 1 0 1
-0.06530163 -0.08602088 0.104576 1 0 1
-0.06431513 -0.08622051 0.1048762 1 0 1
-0.06400143 -0.08755366 0.1066749 1 0 1
-0.06300475 -0.08774999 0.1069711 1 0 1
-0.06266605 -0.08908272 0.1087702 1 0 1
-0.06198518 -0.08984579 0.1098164 1 0 1
-0.06161768 -0.09117866 0.1116167 1 0 1
-0.06059707 -0.09136882 0.1119056 1 0 1
-0.0602045 -0.09270097 0.1137059 1 0 1
-0.05917376 -0.09288757 0.1139904 1 0 1
-0.05844894 -0.09364523 0.115031 1 0 1
-0.05710843 -0.09325326 0.1145496 1 0 1
-0.05607387 -0.09343241 0.1148244 1 0 1
-0.05444625 -0.09245798 0.1135711 1 0 1
-0.0531246 -0.09205475 0.1130741 1 0 1
-0.05152093 -0.09107096 0.1118076 1 0 1
-0.04993119 -0.09008224 0.110534 1 0 1
-0.04891704 -0.09024467 0.1107859 1 0 1
-0.04845571 -0.09156185 0.1125688 1 0 1
-0.0477049 -0.09229973 0.1135842 1 0 1
-0.04694537 -0.09303634 0.1145982 1 0 1
-0.04617712 -0.09377158 0.1156107 1 0 1
-0.04540015 -0.09450546 0.1166217 1 0 1
-0.04435645 -0.09465651 0.1168596 1 0 1
-0.04356588 -0.09538707 0.1178667 1 0 1
-0.04251623 -0.09553366 0.1180989 1 0 1
-0.04146554 -0.09567773 0.1183278 1 0 1
-0.04017105 -0.09523571 0.1177784 1 0 1
-0.03912211 -0.09537423 0.1179999 1 0 1
-0.0378371 -0.09492569 0.1174416 1 0 1
-0.03655876 -0.09447365 0.1168784 1 0 1
-0.03551451 -0.09460367 0.1170884 1 0 1
-0.03469288 -0.09531718 0.1180741 1 0 1
-0.03386261 -0.09602908 0.1190579 1 0 1
-0.03280784 -0.09615249 0.1192596 1 0 1
-0.03175218 -0.09627339 0.119458 1 0 1
-0.03090377 -0.09697951 0.1204348 1 0 1
-0.03004673 -0.09768395 0.1214097 1 0 1
-0.02918112 -0.0983867 0.1223827 1 0 1
-0.02830691 -0.09908769 0.1233536 1 0 1
-0.02780949 -0.1009657 0.1258916 1 0 1
-0.02747683 -0.1034333 0.1292152 1 0 1
-0.02711236 -0.1059013 0.1325406 1 0 1
-0.02689709 -0.1089602 0.1366539 1 0 1
-0.02717377 -0.1137926 0.143131 1 0 1
-0.02756082 -0.1192191 0.1504018 1 0 1
-0.02821593 -0.1258322 0.159256 1 0 1
0.07269578 -0.06785391 0.08509564 1 0 1
0.0739923 -0.06888829 0.08653407 1 0 1
0.07530358 -0.06991828 0.08796724 1 0 1
0.07619977 -0.06978485 0.08782285 1 0 1
0.07709522 -0.06964934 0.08767566 1 0 1
0.07798992 -0.06951166 0.08752559 1 0 1
0.07843088 -0.06821644 0.08580436 1 0 1
0.07908601 -0.06749862 0.08486642 1 0 1
0.07996687 -0.06735645 0.0847099 1 0 1
0.08060892 -0.06663633 0.08376844 1 0 1
0.08124247 -0.0659154 0.08282559 1 0 1
0.08186758 -0.06519367 0.0818814 1 0 1
0.08273373 -0.06504509 0.08171587 1 0 1
0.08334568 -0.06432122 0.08076836 1 0 1
0.08420637 -0.06416918 0.08059807 1 0 1
0.08506621 -0.06401513 0.08042502 1 0 1
0.08619002 -0.06443023 0.08102618 1 0 1
0.08705194 -0.06427135 0.08084687 1 0 1
0.08818544 -0.06468023 0.08144014 1 0 1
0.08904939 -0.06451654 0.08125451 1 0 1
0.09019251 -0.06491914 0.08183983 1 0 1
0.09134228 -0.06531819 0.08242068 1 0 1
0.09221106 -0.06514684 0.08222508 1 0 1
0.09278743 -0.06440736 0.0812556 1 0 1
0.0939457 -0.06479795 0.08182557 1 0 1
0.0951106 -0.06518494 0.082391 1 0 1
0.09628207 -0.06556831 0.08295187 1 0 1
0.09807318 -0.06707391 0.08504315 1 0 1
0.09957555 -0.06801049 0.08635948 1 0 1
0.101406 -0.06950304 0.08843489 1 0 1
0.1032579 -0.07098857 0.09050175 1 0 1
0.1054529 -0.07302667 0.09332371 1 0 1
0.1070261 -0.07393817 0.09460941 1 0 1
0.1092713 -0.0759601 0.09741177 1 0 1
0.1105466 -0.07630149 0.09792081 1 0 1
0.1118283 -0.07663891 0.09842481 1 0 1
0.1127759 -0.07641687 0.09816495 1 0 1
0.1140662 -0.07674711 0.09865976 1 0 1
0.115015 -0.07651965 0.09839278 1 0 1
0.115611 -0.0757372 0.09736714 1 0 1
0.1165535 -0.07550612 0.09709513 1 0 1
0.1178537 -0.07582368 0.09757353 1 0 1
-0.08190161 -0.08634749 0.1027308 1 0 1
-0.08210625 -0.08826176 0.1052713 1 0 1
-0.08071896 -0.08794297 0.104894 1 0 1
-0.07933736 -0.08762002 0.104511 1 0 1
-0.07796146 -0.08729289 0.1041223 1 0 1
-0.0762101 -0.08640014 0.1029937 1 0 1
-0.07447181 -0.08550157 0.1018569 1 0 1
-0.07349449 -0.08572377 0.1021858 1 0 1
-0.07214542 -0.08537953 0.1017735 1 0 1
-0.07116881 -0.08559617 0.1020951 1 0 1
-0.07019071 -0.08581042 0.1024135 1 0 1
-0.0692112 -0.0860223 0.1027289 1 0 1
-0.06787473 -0.08566453 0.1022983 1 0 1
-0.06689607 -0.08587085 0.1026063 1 0 1
-0.06591602 -0.08607485 0.1029113 1 0 1
-0.06527898 -0.08684599 0.1039594 1 0 1
-0.0642925 -0.08704598 0.1042593 1 0 1
-0.06397858 -0.08838569 0.1060532 1 0 1
-0.06331521 -0.08915412 0.1070987 1 0 1
-0.06297258 -0.09049412 0.108894 1 0 1
-0.0622879 -0.09126135 0.1099387 1 0 1
-0.0615944 -0.09202752 0.1109823 1 0 1
-0.06089211 -0.09279262 0.1120249 1 0 1
-0.06018104 -0.09355667 0.1130663 1 0 1
-0.0591503 -0.0937436 0.1133506 1 0 1
-0.05811825 -0.09392799 0.1136316 1 0 1
-0.0567816 -0.09353256 0.1131513 1 0 1
-0.05605039 -0.09428935 0.1141838 1 0 1
-0.05442293 -0.09330902 0.112935 1 0 1
-0.05310137 -0.09290294 0.1124401 1 0 1
-0.05178613 -0.0924931 0.11194 1 0 1
-0.05047728 -0.09207956 0.1114347 1 0 1
-0.04917481 -0.09166232 0.1109244 1 0 1
-0.04870956 -0.09298662 0.1127034 1 0 1
-0.04795486 -0.09372849 0.1137171 1 0 1
-0.04692211 -0.09388617 0.1139629 1 0 1
-0.04615377 -0.09462483 0.1149728 1 0 1
-0.04563843 -0.09594613 0.1167497 1 0 1
-0.04433301 -0.09551343 0.116219 1 0 1
-0.04354236 -0.09624736 0.1172236 1 0 1
-0.0424927 -0.09639419 0.1174555 1 0 1
-0.04119552 -0.09595233 0.1169125 1 0 1
-0.04014762 -0.0960936 0.1171371 1 0 1
-0.03885986 -0.09564519 0.116585 1 0 1
-0.03781373 -0.09578089 0.1168022 1 0 1
-0.03653548 -0.09532597 0.1162411 1 0 1
-0.03571855 -0.09604486 0.1172268 1 0 1
-0.03489297 -0.09676219 0.1182106 1 0 1
-0.03383914 -0.09688833 0.1184154 1 0 1
-0.03300016 -0.09760201 0.119395 1 0 1
-0.03194063 -0.09772354 0.1195939 1 0 1
-0.0308802 -0.09784251 0.1197895 1 0 1
-0.03022731 -0.09914166 0.1215421 1 0 1
-0.02935772 -0.09984813 0.1225132 1 0 1
-0.02867604 -0.101145 0.1242638 1 0 1
-0.02855585 -0.1042186 0.1283603 1 0 1
-0.02820736 -0.1067005 0.131677 1 0 1
-0.02782705 -0.1091828 0.1349953 1 0 1
-0.02759584 -0.112259 0.1390993 1 0 1
-0.02803342 -0.1177122 0.1463446 1 0 1
-0.02840029 -0.123169 0.1535971 1 0 1
-0.02751102 -0.1244659 0.1553552 1 0 1
0.07463335 -0.07135919 0.08835116 1 0 1
0.07574522 -0.07181031 0.08899359 1 0 1
0.0764341 -0.0710929 0.08806438 1 0 1
0.07733341 -0.07095656 0.0879167 1 0 1
0.07823196 -0.07081808 0.08776618 1 0 1
0.0786766 -0.06951576 0.08604909 1 0 1
0.07956591 -0.06937423 0.08589422 1 0 1
0.08022019 -0.06865096 0.08495601 1 0 1
0.08062785 -0.06734788 0.08323658 1 0 1
0.08126132 -0.06662358 0.08229624 1 0 1
0.08188632 -0.06589849 0.08135457 1 0 1
0.08250285 -0.06517264 0.08041159 1 0 1
0.08336435 -0.06502242 0.08024423 1 0 1
0.08448227 -0.06544586 0.08085028 1 0 1
0.08534594 -0.06529086 0.08067667 1 0 1
0.08620872 -0.0651338 0.08050033 1 0 1
0.08733938 -0.06554828 0.08109503 1 0 1
0.08820421 -0.06538639 0.08091237 1 0 1
0.08934449 -0.06579463 0.08149915 1 0 1
0.09021135 -0.06562788 0.08131016 1 0 1
0.09164514 -0.06660045 0.08265941 1 0 1
0.09222995 -0.06585813 0.08169352 1 0 1
0.09309776 -0.06568443 0.08149538 1 0 1
0.0942599 -0.0660771 0.08206238 1 0 1
0.09512954 -0.06589847 0.08185781 1 0 1
0.09630106 -0.06628465 0.08241658 1 0 1
0.09778576 -0.06723319 0.08373593 1 0 1
0.09928452 -0.06817644 0.08504879 1 0 1
0.1007973 -0.06911437 0.08635511 1 0 1
0.1026419 -0.07061049 0.08841719 1 0 1
0.104508 -0.07209953 0.09047066 1 0 1
0.1060701 -0.07301939 0.09175491 1 0 1
0.1086335 -0.075617 0.09531073 1 0 1
0.1102344 -0.0765231 0.0965782 1 0 1
0.1111757 -0.07630471 0.09632371 1 0 1
0.1124562 -0.07664258 0.09682263 1 0 1
0.1137429 -0.07697644 0.09731647 1 0 1
0.114688 -0.07674951 0.09705083 1 0 1
0.1156318 -0.07652032 0.09678214 1 0 1
0.1165743 -0.07628888 0.09651043 1 0 1
0.1178745 -0.07660913 0.09698682 1 0 1
-0.08003853 -0.0830215 0.0966778 1 0 1
-0.08187802 -0.08718003 0.1021038 1 0 1
-0.08129105 -0.08798158 0.103183 1 0 1
-0.08030315 -0.08822042 0.1035334 1 0 1
-0.07853685 -0.08733097 0.1024216 1 0 1
-0.07755309 -0.08756324 0.1027632 1 0 1
-0.07580555 -0.08666384 0.1016376 1 0 1
-0.07444857 -0.08632413 0.1012372 1 0 1
-0.0730974 -0.08598039 0.1008313 1 0 1
-0.07212226 -0.08619976 0.1011557 1 0 1
-0.07114563 -0.08641674 0.1014769 1 0 1
-0.07016756 -0.08663135 0.1017951 1 0 1
-0.0688289 -0.08627401 0.1013708 1 0 1
-0.06785162 -0.08648307 0.1016816 1 0 1
-0.06652124 -0.08611862 0.1012477 1 0 1
-0.06554488 -0.08632216 0.1015512 1 0 1
-0.06491146 -0.08709597 0.1025956 1 0 1
-0.06460989 -0.08844236 0.1043843 1 0 1
-0.06395522 -0.08921519 0.1054282 1 0 1
-0.06362495 -0.09056196 0.1072184 1 0 1
-0.06327844 -0.09190921 0.1090099 1 0 1
-0.06226418 -0.09210422 0.1093036 1 0 1
-0.0615706 -0.09287383 0.1103446 1 0 1
-0.06086823 -0.09364238 0.1113846 1 0 1
-0.06015706 -0.09440983 0.1124234 1 0 1
-0.05912632 -0.09459706 0.1127074 1 0 1
-0.0580943 -0.0947818 0.1129882 1 0 1
-0.05675771 -0.09438357 0.11251 1 0 1
-0.05602642 -0.09514375 0.11354 1 0 1
-0.05439911 -0.09415749 0.1122956 1 0 1
-0.05336962 -0.09433095 0.1125614 1 0 1
-0.05233888 -0.09450193 0.112824 1 0 1
-0.05102256 -0.0940868 0.1123228 1 0 1
-0.04999324 -0.09425223 0.112578 1 0 1
-0.04923961 -0.09499997 0.1135925 1 0 1
-0.04847723 -0.09574639 0.1146055 1 0 1
-0.04743689 -0.09590548 0.1148527 1 0 1
-0.04639542 -0.09606209 0.1150968 1 0 1
-0.0458761 -0.09739048 0.1168697 1 0 1
-0.04456697 -0.09695545 0.116342 1 0 1
-0.04377238 -0.09769329 0.1173448 1 0 1
-0.04271895 -0.09784091 0.1175775 1 0 1
-0.04141802 -0.09739672 0.1170374 1 0 1
-0.04012373 -0.09694893 0.1164924 1 0 1
-0.03883607 -0.09649763 0.1159424 1 0 1
-0.03778994 -0.09663357 0.1161594 1 0 1
-0.03674284 -0.09676705 0.1163732 1 0 1
-0.03592199 -0.09748975 0.1173571 1 0 1
-0.03486912 -0.09761865 0.117565 1 0 1
-0.03403483 -0.09833774 0.1185446 1 0 1
-0.0331919 -0.0990552 0.1195223 1 0 1
-0.03212853 -0.09917738 0.1197218 1 0 1
-0.03127223 -0.09989104 0.120695 1 0 1
-0.03040732 -0.100603 0.1216663 1 0 1
-0.0299343 -0.102503 0.1241926 1 0 1
-0.02943724 -0.1044029 0.1267195 1 0 1
-0.02910862 -0.1068982 0.1300268 1 0 1
-0.02912547 -0.1105861 0.1348968 1 0 1
-0.02909498 -0.1142759 0.1397709 1 0 1
-0.02883621 -0.1173705 0.1438673 1 0 1
-0.02924584 -0.1228547 0.1510954 1 0 1
-0.02975788 -0.1289398 0.1591137 1 0 1
0.07354767 -0.07162863 0.087159 1 0 1
0.0752747 -0.07384661 0.0901513 1 0 1
0.07597579 -0.07312634 0.08922566 1 0 1
0.07688354 -0.07299075 0.08907975 1 0 1
0.07757159 -0.07226784 0.0881502 1 0 1
0.07847397 -0.07212856 0.08799921 1 0 1
0.07892229 -0.07081918 0.08628635 1 0 1
0.07981545 -0.0706768 0.08613098 1 0 1
0.08023912 -0.06936684 0.08441647 1 0 1
0.0808848 -0.06863938 0.08347937 1 0 1
0.08152203 -0.0679111 0.08254088 1 0 1
0.08215075 -0.06718201 0.081601 1 0 1
0.08277101 -0.06645215 0.08065981 1 0 1
0.08363631 -0.06630103 0.08049192 1 0 1
0.0845008 -0.06614783 0.08032127 1 0 1
0.0856256 -0.06657068 0.08092089 1 0 1
0.08649222 -0.06641266 0.08074396 1 0 1
0.08735792 -0.06625258 0.08056426 1 0 1
0.08822273 -0.06609046 0.08038183 1 0 1
0.08908667 -0.06592624 0.08019666 1 0 1
0.09022992 -0.06633449 0.08077769 1 0 1
0.09137983 -0.0667392 0.08135431 1 0 1
0.09224857 -0.06656731 0.08115919 1 0 1
0.09311638 -0.06639332 0.08096125 1 0 1
0.0942786 -0.06678879 0.08152615 1 0 1
0.09544739 -0.06718061 0.0820865 1 0 1
0.09662277 -0.06756878 0.08264225 1 0 1
0.09811138 -0.06852243 0.08395629 1 0 1
0.09930355 -0.06890241 0.08450186 1 0 1
0.1005022 -0.06927865 0.08504276 1 0 1
0.1020253 -0.07021786 0.086339 1 0 1
0.1038841 -0.07171746 0.08838766 1 0 1
0.1057644 -0.07320987 0.09042758 1 0 1
0.1076659 -0.07469504 0.09245877 1 0 1
0.1099217 -0.07673618 0.09523716 1 0 1
0.1111961 -0.07708079 0.09573911 1 0 1
0.1121361 -0.07685981 0.09548189 1 0 1
0.1137634 -0.07775794 0.09672778 1 0 1
0.1147084 -0.07753064 0.09646243 1 0 1
0.1153005 -0.07674217 0.09544305 1 0 1
0.1165946 -0.07706925 0.09592263 1 0 1
0.1178949 -0.0773922 0.09639699 1 0 1
-0.08202919 -0.08664199 0.09967433 1 0 1
-0.08305149 -0.08970013 0.1036435 1 0 1
-0.08126673 -0.08881508 0.1025501 1 0 1
-0.07988688 -0.08848916 0.1021742 1 0 1
-0.07851271 -0.0881591 0.1017927 1 0 1
-0.07714429 -0.08782491 0.1014055 1 0 1
-0.07578162 -0.08748662 0.1010128 1 0 1
-0.07442474 -0.08714419 0.1006144 1 0 1
-0.07307365 -0.08679775 0.1002105 1 0 1
-0.07209852 -0.08701748 0.1005346 1 0 1
-0.07112188 -0.08723484 0.1008555 1 0 1
-0.0701438 -0.08744979 0.1011734 1 0 1
-0.06880524 -0.08708974 0.1007512 1 0 1
-0.06782798 -0.08729913 0.1010617 1 0 1
-0.06649769 -0.08693195 0.1006299 1 0 1
-0.06586927 -0.08771082 0.1016736 1 0 1
-0.06523207 -0.0884888 0.1027166 1 0 1
-0.06458608 -0.08926596 0.1037587 1 0 1
-0.06426813 -0.09061944 0.1055438 1 0 1
-0.06393397 -0.09197345 0.1073302 1 0 1
-0.06325419 -0.09274923 0.1083718 1 0 1
-0.06256557 -0.09352401 0.1094123 1 0 1
-0.06154627 -0.09371759 0.1097036 1 0 1
-0.06084383 -0.09448955 0.110741 1 0 1
-0.06013257 -0.09526043 0.1117772 1 0 1
-0.05879113 -0.09486574 0.1113096 1 0 1
-0.05806979 -0.09563299 0.1123415 1 0 1
-0.05703648 -0.09581552 0.1126188 1 0 1
-0.05600193 -0.09599556 0.1128928 1 0 1
-0.05437482 -0.09500341 0.1116529 1 0 1
-0.05334531 -0.09517717 0.1119185 1 0 1
-0.05231459 -0.09534846 0.1121809 1 0 1
-0.05128268 -0.0955172 0.11244 1 0 1
-0.0502496 -0.09568349 0.1126959 1 0 1
-0.04949208 -0.09643522 0.1137087 1 0 1
-0.04872585 -0.09718563 0.11472 1 0 1
-0.04768171 -0.09734559 0.114968 1 0 1
-0.04663644 -0.09750304 0.1152128 1 0 1
-0.04559006 -0.09765796 0.1154542 1 0 1
-0.0448003 -0.09840113 0.1164569 1 0 1
-0.04374791 -0.09855152 0.1166926 1 0 1
-0.04269445 -0.09869939 0.1169251 1 0 1
-0.04139365 -0.09825233 0.1163872 1 0 1
-0.04034193 -0.09839461 0.1166122 1 0 1
-0.0390505 -0.09794091 0.1160652 1 0 1
-0.03800058 -0.0980776 0.1162829 1 0 1
-0.03694963 -0.0982118 0.1164972 1 0 1
-0.03612486 -0.09893833 0.1174793 1 0 1
-0.03506815 -0.09906791 0.1176879 1 0 1
-0.03422992 -0.09979077 0.1186656 1 0 1
-0.03316749 -0.09991573 0.1188682 1 0 1
-0.03231588 -0.1006349 0.1198416 1 0 1
-0.03124774 -0.1007551 0.1200383 1 0 1
-0.03079082 -0.1026656 0.1225579 1 0 1
-0.03030983 -0.104576 0.1250782 1 0 1
-0.03000106 -0.1070846 0.128376 1 0 1
-0.02966051 -0.1095938 0.1316756 1 0 1
-0.03004232 -0.1145002 0.1380893 1 0 1
-0.03017663 -0.1188104 0.143731 1 0 1
-0.02971337 -0.1213231 0.1470397 1 0 1
-0.02957204 -0.1250365 0.1519096 1 0 1
0.07570894 -0.07576057 0.09115417 1 0 1
0.07599503 -0.07385692 0.08867041 1 0 1
0.07690275 -0.07372113 0.08852471 1 0 1
0.07802877 -0.07417144 0.08915456 1 0 1
0.07849309 -0.07285538 0.08744688 1 0 1
0.07916796 -0.07212662 0.08651605 1 0 1
0.08006494 -0.0719834 0.08636019 1 0 1
0.08049226 -0.0706664 0.08464993 1 0 1
0.0811417 -0.06993494 0.08371464 1 0 1
0.08178266 -0.06920267 0.08277796 1 0 1
