ply
format ascii 1.0
Comment Generated by Floating Hands
element vertex 1200
property double x
property double y
property double z
property uchar red
property uchar green
property uchar blue
end_header
-0.07187777 0.01160506 0.08321711 1 0 1
-0.07114062 0.01141961 0.08356021 1 0 1
-0.070402 0.01123581 0.08390073 1 0 1
-0.07011079 0.01082336 0.08510218 1 0 1
-0.06981128 0.01041091 0.08630418 1 0 1
-0.06906146 0.01023045 0.08664021 1 0 1
-0.0691873 0.009586095 0.08870976 1 0 1
-0.06842771 0.009407362 0.08904368 1 0 1
-0.06809834 0.008995933 0.09024609 1 0 1
-0.06818878 0.008349353 0.09232146 1 0 1
-0.06826389 0.007701367 0.09440009 1 0 1
-0.06790248 0.007288753 0.0956065 1 0 1
-0.06836817 0.006401236 0.09856709 1 0 1
-0.06839725 0.005749183 0.1006553 1 0 1
-0.0684109 0.005095869 0.1027464 1 0 1
-0.06840913 0.004441328 0.1048405 1 0 1
-0.06879564 0.003545076 0.1078202 1 0 1
-0.06915966 0.002646257 0.1108054 1 0 1
-0.0691044 0.001986937 0.1129107 1 0 1
-0.06824725 0.001812098 0.1132448 1 0 1
-0.07050577 -0.0003085078 0.1206818 1 0 1
-0.07309231 -0.002682627 0.1290269 1 0 1
-0.07370088 -0.003843056 0.1329387 1 0 1
-0.05219157 -0.004119165 0.1289922 1 0 1
-0.05095765 -0.003998383 0.1283542 1 0 1
-0.05003668 -0.004132186 0.128627 1 0 1
-0.04911456 -0.004264031 0.1288968 1 0 1
-0.04789173 -0.004135118 0.1282451 1 0 1
-0.04667511 -0.004003235 0.1275881 1 0 1
-0.0460491 -0.004387773 0.1287668 1 0 1
-0.04454905 -0.003990689 0.1271801 1 0 1
-0.04334749 -0.003850378 0.1265087 1 0 1
-0.04271451 -0.004229441 0.1276791 1 0 1
-0.04179564 -0.004345837 0.127924 1 0 1
-0.04087572 -0.004460267 0.1281658 1 0 1
-0.03995477 -0.004572664 0.1284043 1 0 1
-0.03903278 -0.004683111 0.1286398 1 0 1
-0.03837246 -0.005054971 0.1298005 1 0 1
-0.03770371 -0.005425734 0.1309598 1 0 1
-0.03677133 -0.005531 0.1311878 1 0 1
-0.03608947 -0.005898993 0.1323435 1 0 1
-0.035647 -0.006530856 0.1344297 1 0 1
-0.03470055 -0.006631324 0.1346508 1 0 1
-0.03399348 -0.006995607 0.1358023 1 0 1
-0.03351461 -0.00762487 0.1378866 1 0 1
-0.03301989 -0.008253544 0.1399711 1 0 1
-0.03250928 -0.008881653 0.1420556 1 0 1
-0.03220817 -0.009776417 0.1450769 1 0 1
-0.03144041 -0.01013579 0.1462243 1 0 1
-0.03110003 -0.01102978 0.1492469 1 0 1
-0.03073622 -0.01192363 0.1522707 1 0 1
-0.02992826 -0.01227989 0.1534157 1 0 1
-0.02931851 -0.01290359 0.1554994 1 0 1
-0.02869285 -0.01352636 0.1575826 1 0 1
-0.02745402 -0.01333931 0.1568387 1 0 1
-0.0262219 -0.01314944 0.1560898 1 0 1
-0.0249965 -0.01295686 0.1553361 1 0 1
-0.02377785 -0.01276145 0.1545774 1 0 1
0.04328866 -0.001917902 0.1205301 1 0 1
0.05095133 -0.0184247 0.1798761 1 0 1
0.05233295 -0.01914281 0.1826824 1 0 1
0.05356093 -0.01931897 0.1835651 1 0 1
0.05479625 -0.01949203 0.1844433 1 0 1
0.05632631 -0.02046665 0.1881928 1 0 1
0.05738838 -0.02009677 0.1871446 1 0 1
0.05864936 -0.02026015 0.188009 1 0 1
0.05981022 -0.02015318 0.1879111 1 0 1
0.06108183 -0.02031053 0.1887665 1 0 1
0.06201566 -0.01966538 0.1867464 1 0 1
0.06317134 -0.01955139 0.1866369 1 0 1
0.06432649 -0.01943489 0.1865235 1 0 1
0.06535471 -0.01905066 0.1854503 1 0 1
0.06637473 -0.01866479 0.1843739 1 0 1
0.0673866 -0.01827726 0.1832944 1 0 1
0.06852814 -0.01815217 0.1831664 1 0 1
0.06938568 -0.01749739 0.1811262 1 0 1
0.07051848 -0.01736827 0.1809913 1 0 1
0.07165063 -0.01723675 0.1808525 1 0 1
0.07278218 -0.01710281 0.1807098 1 0 1
0.07391316 -0.01696641 0.1805632 1 0 1
0.07504341 -0.01682761 0.1804127 1 0 1
0.07600847 -0.01642549 0.1793071 1 0 1
0.07713359 -0.01628236 0.1791493 1 0 1
0.07808588 -0.01587682 0.1780376 1 0 1
0.07902983 -0.01546991 0.176923 1 0 1
0.0799655 -0.01506166 0.1758058 1 0 1
0.08089285 -0.01465196 0.1746859 1 0 1
0.08143716 -0.0137252 0.1716677 1 0 1
0.08157572 -0.01228464 0.1667548 1 0 1
0.08148076 -0.01059028 0.1608978 1 0 1
0.08153838 -0.009156451 0.1559907 1 0 1
0.08155741 -0.007725946 0.1510865 1 0 1
0.08236299 -0.007319368 0.149964 1 0 1
0.08295017 -0.006657193 0.1478953 1 0 1
0.08373535 -0.00624912 0.1467692 1 0 1
0.08407707 -0.005333347 0.1437559 1 0 1
0.08483806 -0.004924544 0.1426271 1 0 1
0.08536563 -0.004262679 0.1405553 1 0 1
0.08610623 -0.003852688 0.1394234 1 0 1
0.08683847 -0.003441869 0.1382897 1 0 1
0.08779874 -0.003280498 0.138093 1 0 1
0.08851811 -0.002867403 0.1369549 1 0 1
0.08947296 -0.002702513 0.1367524 1 0 1
-0.0840241 0.01377767 0.07798185 1 0 1
-0.08279843 0.01378218 0.07753415 1 0 1
-0.08157772 0.01379032 0.07708041 1 0 1
-0.08086508 0.0135824 0.07745659 1 0 1
-0.07965111 0.0135967 0.07699271 1 0 1
-0.0789386 0.01339299 0.07736224 1 0 1
-0.07822454 0.01319093 0.07772931 1 0 1
-0.07750891 0.01299051 0.07809392 1 0 1
-0.07630534 0.01301604 0.07761161 1 0 1
-0.07558998 0.0128198 0.07796961 1 0 1
-0.07535274 0.01239902 0.07917298 1 0 1
-0.0741547 0.01243221 0.07867826 1 0 1
-0.07438058 0.01178489 0.0807311 1 0 1
-0.07365239 0.01159337 0.08108251 1 0 1
-0.07338884 0.01117377 0.08228581 1 0 1
-0.07219154 0.01121528 0.08177785 1 0 1
-0.07191821 0.01079725 0.08297933 1 0 1
-0.07118069 0.01061147 0.08332231 1 0 1
-0.07044167 0.01042736 0.08366276 1 0 1
-0.07015027 0.01001084 0.084863 1 0 1
-0.07029616 0.009359432 0.08692769 1 0 1
-0.06954251 0.009177838 0.08726516 1 0 1
-0.06922613 0.008761384 0.08846703 1 0 1
-0.06846616 0.008582328 0.08880091 1 0 1
-0.06856835 0.007928669 0.09087207 1 0 1
-0.06822693 0.007512446 0.09207518 1 0 1
-0.06830201 0.006856679 0.09415153 1 0 1
-0.06794035 0.006439979 0.09535676 1 0 1
-0.06798822 0.005782208 0.09743808 1 0 1
-0.06802072 0.005123094 0.09952252 1 0 1
-0.06844869 0.004219866 0.1024887 1 0 1
-0.06844682 0.00355752 0.1045806 1 0 1
-0.06883337 0.002649691 0.1075568 1 0 1
-0.0695978 0.001494184 0.1114217 1 0 1
-0.06914204 0.001072084 0.1126417 1 0 1
-0.0690711 0.0004039579 0.1147472 1 0 1
-0.06976415 -0.0007596335 0.1186296 1 0 1
-0.07197246 -0.002918646 0.1260736 1 0 1
-0.07220904 -0.003843735 0.129087 1 0 1
-0.07280202 -0.005020264 0.1329965 1 0 1
-0.06042637 -0.006272167 0.1342322 1 0 1
-0.05715366 -0.004622498 0.1281865 1 0 1
-0.05623228 -0.004769692 0.1284802 1 0 1
-0.05498444 -0.004656138 0.1278613 1 0 1
-0.05374264 -0.004539465 0.127237 1 0 1
-0.05314273 -0.004939307 0.128431 1 0 1
-0.05222005 -0.005077876 0.1287111 1 0 1
-0.05098553 -0.004953525 0.1280742 1 0 1
-0.04975714 -0.004826124 0.1274319 1 0 1
-0.0488382 -0.004957637 0.1277006 1 0 1
-0.04731883 -0.00456217 0.1261317 1 0 1
-0.04640493 -0.004688684 0.126392 1 0 1
-0.04519764 -0.004549698 0.1257299 1 0 1
-0.04428521 -0.004671743 0.1259831 1 0 1
-0.04308675 -0.004527335 0.1253118 1 0 1
-0.04245711 -0.004909894 0.1264801 1 0 1
-0.04181902 -0.005291454 0.1276473 1 0 1
-0.04089863 -0.005406027 0.127889 1 0 1
-0.04024736 -0.005784951 0.1290529 1 0 1
-0.03905475 -0.005629239 0.1283631 1 0 1
-0.03839403 -0.006005083 0.1295227 1 0 1
-0.03746587 -0.00611212 0.1297528 1 0 1
-0.03653672 -0.006217154 0.1299799 1 0 1
-0.03585819 -0.006588702 0.1311336 1 0 1
-0.03517127 -0.006959026 0.132286 1 0 1
-0.03423179 -0.00705885 0.1325054 1 0 1
-0.0340126 -0.007965649 0.1355189 1 0 1
-0.03329673 -0.008332632 0.1366678 1 0 1
-0.03303833 -0.009239095 0.1396834 1 0 1
-0.03275656 -0.0101457 0.1427006 1 0 1
-0.03222597 -0.01078125 0.1447836 1 0 1
-0.03167948 -0.01141606 0.1468666 1 0 1
-0.03155297 -0.01259374 0.1508239 1 0 1
-0.03075295 -0.01295546 0.1519698 1 0 1
-0.02994454 -0.01331568 0.1531137 1 0 1
-0.02954104 -0.01421996 0.1561348 1 0 1
-0.02850541 -0.01430452 0.1563359 1 0 1
-0.02726977 -0.01411347 0.1555924 1 0 1
-0.02565013 -0.01337222 0.1529605 1 0 1
0.0397103 0.001416791 0.105047 1 0 1
0.04922662 -0.02162849 0.1864033 1 0 1
0.05069021 -0.02263589 0.190173 1 0 1
0.05194255 -0.02281869 0.1910613 1 0 1
0.05311788 -0.02272543 0.1909867 1 0 1
0.05429281 -0.02262965 0.1909081 1 0 1
0.05537533 -0.02225903 0.1898678 1 0 1
0.05654565 -0.02215857 0.1897814 1 0 1
0.05761586 -0.02178399 0.1887339 1 0 1
0.05878158 -0.02167886 0.1886399 1 0 1
0.05983943 -0.02130029 0.1875853 1 0 1
0.0610004 -0.02119061 0.1874837 1 0 1
0.06204585 -0.02080813 0.1864221 1 0 1
0.06320206 -0.02069383 0.1863129 1 0 1
0.06423505 -0.02030758 0.1852445 1 0 1
0.06525984 -0.01991969 0.184173 1 0 1
0.06627648 -0.01953008 0.1830983 1 0 1
0.06741914 -0.01940713 0.1829745 1 0 1
0.06856124 -0.01928172 0.1828468 1 0 1
0.06956095 -0.01888644 0.181762 1 0 1
0.07069807 -0.0187566 0.1816269 1 0 1
0.07183458 -0.01862428 0.1814879 1 0 1
0.07297049 -0.01848953 0.1813449 1 0 1
0.07410577 -0.01835235 0.1811981 1 0 1
0.07507948 -0.0179476 0.1800966 1 0 1
0.07620964 -0.01780601 0.1799425 1 0 1
0.07717057 -0.01739783 0.1788349 1 0 1
0.07812324 -0.01698823 0.1777244 1 0 1
0.07906759 -0.01657722 0.1766112 1 0 1
0.08000366 -0.01616477 0.1754953 1 0 1
0.08093137 -0.01575098 0.1743767 1 0 1
0.08166327 -0.0150742 0.1723086 1 0 1
0.08199673 -0.01387501 0.1683469 1 0 1
0.08190902 -0.01215666 0.1624953 1 0 1
0.08197397 -0.01070257 0.1575924 1 0 1
0.08200037 -0.009251807 0.1526924 1 0 1
0.08240099 -0.008322206 0.1496827 1 0 1
0.08298837 -0.007652163 0.1476163 1 0 1
0.08377385 -0.007239977 0.1464916 1 0 1
0.08411556 -0.006312584 0.1434816 1 0 1
0.08465541 -0.005643126 0.1414134 1 0 1
0.08517936 -0.004973991 0.1393446 1 0 1
0.08591648 -0.004560519 0.1382148 1 0 1
0.08664525 -0.004146191 0.1370831 1 0 1
0.08760223 -0.003985097 0.1368875 1 0 1
0.08831809 -0.00356852 0.1357515 1 0 1
0.08902561 -0.003151146 0.1346137 1 0 1
-0.08406996 0.01297279 0.07774161 1 0 1
-0.08284369 0.01298066 0.07729486 1 0 1
-0.08162243 0.01299214 0.07684212 1 0 1
-0.08090941 0.01278385 0.07721817 1 0 1
-0.07969484 0.01280152 0.07675527 1 0 1
-0.07898199 0.01259746 0.07712469 1 0 1
-0.07826754 0.01239504 0.07749166 1 0 1
-0.07706163 0.0124214 0.07701451 1 0 1
-0.07634742 0.01222317 0.07737485 1 0 1
-0.07563169 0.01202656 0.07773277 1 0 1
-0.07491442 0.01183163 0.0780882 1 0 1
-0.07419564 0.01163828 0.07844117 1 0 1
-0.07394845 0.01121491 0.07964169 1 0 1
-0.07369298 0.01079136 0.08084299 1 0 1
-0.07296292 0.01060115 0.08119181 1 0 1
-0.07223137 0.0104126 0.08153815 1 0 1
-0.07195785 0.009990507 0.0827384 1 0 1
-0.07167601 0.009568313 0.08393935 1 0 1
-0.07093321 0.009383008 0.0842813 1 0 1
-0.07063816 0.008961635 0.08548189 1 0 1
-0.0703348 0.008540199 0.08668306 1 0 1
-0.06958076 0.008358272 0.08702048 1 0 1
-0.06926417 0.007937749 0.08822112 1 0 1
-0.06893924 0.007517288 0.08942223 1 0 1
-0.06860597 0.007096949 0.09062377 1 0 1
-0.06826431 0.006676683 0.09182568 1 0 1
-0.06833931 0.006013062 0.09389973 1 0 1
-0.06797743 0.005592328 0.09510376 1 0 1
-0.06802522 0.004926723 0.09718275 1 0 1
-0.0680576 0.004259788 0.09926488 1 0 1
-0.06848564 0.003345017 0.1022276 1 0 1
-0.06848368 0.00267486 0.1043172 1 0 1
-0.06846623 0.002003527 0.1064095 1 0 1
-0.06963488 0.000584629 0.1111503 1 0 1
-0.06957584 -9.109501E-05 0.1132523 1 0 1
-0.06950124 -0.0007678145 0.115357 1 0 1
-0.06980098 -0.001696439 0.1183502 1 0 1
-0.06969163 -0.002375709 0.1204611 1 0 1
-0.0680353 -0.002046284 0.1190198 1 0 1
-0.06677099 -0.001965149 0.1184601 1 0 1
-0.06551242 -0.001880767 0.1178948 1 0 1
-0.0679812 -0.004337441 0.1262501 1 0 1
-0.06337602 -0.007723822 0.1360267 1 0 1
-0.06140243 -0.007102824 0.1336304 1 0 1
-0.059113 -0.006215423 0.1303187 1 0 1
-0.05751638 -0.005843929 0.1288068 1 0 1
-0.05626199 -0.005730034 0.1281944 1 0 1
-0.05501355 -0.0056129 0.1275766 1 0 1
-0.05377118 -0.005492708 0.1269534 1 0 1
-0.05285288 -0.005632939 0.1272355 1 0 1
-0.05161898 -0.005507041 0.1266028 1 0 1
-0.05070193 -0.005642759 0.1268776 1 0 1
-0.04947661 -0.005511257 0.1262354 1 0 1
-0.04856089 -0.005642449 0.1265029 1 0 1
-0.04734426 -0.005505379 0.1258513 1 0 1
-0.04613384 -0.005365277 0.1251945 1 0 1
-0.04522204 -0.005489523 0.1254507 1 0 1
-0.04430916 -0.005611745 0.1257038 1 0 1
-0.04339519 -0.00573201 0.1259539 1 0 1
-0.04248012 -0.005850295 0.1262008 1 0 1
-0.04156402 -0.005966604 0.1264447 1 0 1
-0.04092082 -0.006350544 0.1276086 1 0 1
-0.03972868 -0.006193221 0.1269231 1 0 1
-0.03880947 -0.006303559 0.1271577 1 0 1
-0.03788926 -0.006411902 0.1273891 1 0 1
-0.03722716 -0.006789695 0.1285444 1 0 1
-0.03604588 -0.006622641 0.1278427 1 0 1
-0.0353744 -0.006997283 0.1289936 1 0 1
-0.03494247 -0.007643437 0.1310727 1 0 1
-0.03425048 -0.008016068 0.1322217 1 0 1
-0.03379054 -0.008660978 0.1343006 1 0 1
-0.03331476 -0.00930532 0.1363796 1 0 1
-0.03282308 -0.009949137 0.1384588 1 0 1
-0.03254478 -0.01086695 0.1414719 1 0 1
-0.03224308 -0.01178478 0.1444866 1 0 1
-0.03169622 -0.01242732 0.1465672 1 0 1
-0.03156944 -0.01362035 0.1505201 1 0 1
-0.03119749 -0.01453792 0.1535389 1 0 1
-0.03038108 -0.0149027 0.1546832 1 0 1
-0.029763 -0.0155425 0.156764 1 0 1
-0.02831717 -0.01507371 0.1550874 1 0 1
-0.02668636 -0.01432424 0.1524645 1 0 1
-0.02429573 -0.01246082 0.1460712 1 0 1
0.04706609 -0.02349199 0.1881086 1 0 1
0.04850809 -0.02452101 0.1918834 1 0 1
0.04983463 -0.02499 0.1937367 1 0 1
0.05117628 -0.0254553 0.1955851 1 0 1
0.05221042 -0.02480871 0.1935987 1 0 1
0.05331331 -0.02443749 0.1925664 1 0 1
0.05449652 -0.02434084 0.1924875 1 0 1
0.05558715 -0.02396555 0.1914479 1 0 1
0.05666973 -0.02358837 0.1904048 1 0 1
0.05774422 -0.02320937 0.1893583 1 0 1
0.05891432 -0.02310361 0.1892641 1 0 1
0.05997645 -0.02272064 0.1882106 1 0 1
0.06114179 -0.02261025 0.1881088 1 0 1
0.06219152 -0.02222339 0.1870482 1 0 1
0.06323311 -0.02183475 0.1859844 1 0 1
0.0642665 -0.02144444 0.1849174 1 0 1
0.06529175 -0.02105243 0.1838472 1 0 1
0.06630882 -0.02065876 0.1827738 1 0 1
0.06745198 -0.02053549 0.1826502 1 0 1
0.06859463 -0.02040975 0.1825227 1 0 1
0.06973666 -0.02028158 0.1823912 1 0 1
0.07073238 -0.0198802 0.1813044 1 0 1
0.07186943 -0.01974754 0.1811656 1 0 1
0.07300585 -0.01961249 0.1810229 1 0 1
0.07414164 -0.01947499 0.1808763 1 0 1
0.07511577 -0.0190661 0.1797761 1 0 1
0.07624643 -0.01892417 0.1796223 1 0 1
0.07703914 -0.01824396 0.1775674 1 0 1
0.07798841 -0.01783068 0.1764588 1 0 1
0.07892934 -0.01741605 0.1753475 1 0 1
0.07986198 -0.017 0.1742335 1 0 1
0.08097009 -0.01684853 0.1740631 1 0 1
0.08170226 -0.01616388 0.1719975 1 0 1
0.08222709 -0.01521411 0.1689854 1 0 1
0.08233801 -0.01373663 0.1640843 1 0 1
0.08241032 -0.01226231 0.1591858 1 0 1
0.08224124 -0.01052812 0.1533469 1 0 1
0.0824392 -0.009323666 0.1493974 1 0 1
0.08302674 -0.008645782 0.1473335 1 0 1
0.08381253 -0.008229515 0.14621 1 0 1
0.08393636 -0.007029605 0.1422631 1 0 1
0.08447257 -0.006352906 0.1401979 1 0 1
0.08499289 -0.005676542 0.1381323 1 0 1
0.08572654 -0.005259542 0.1370045 1 0 1
0.08645187 -0.004841732 0.1358749 1 0 1
0.0874055 -0.004680913 0.1356803 1 0 1
0.08811788 -0.004260854 0.1345463 1 0 1
0.08906612 -0.004096504 0.1343459 1 0 1
-0.08411498 0.01216901 0.07749824 1 0 1
-0.08288813 0.01218021 0.0770525 1 0 1
-0.08166627 0.01219503 0.07660075 1 0 1
-0.0809529 0.01198637 0.0769767 1 0 1
-0.07973778 0.0120074 0.07651478 1 0 1
-0.07902454 0.01180298 0.0768841 1 0 1
-0.07830973 0.01160024 0.07725093 1 0 1
-0.07759336 0.01139909 0.07761532 1 0 1
-0.07638866 0.01143137 0.07713501 1 0 1
-0.07567256 0.01123443 0.07749281 1 0 1
-0.07495493 0.01103914 0.07784815 1 0 1
-0.07423577 0.01084545 0.07820102 1 0 1
-0.07398841 0.01041801 0.0794003 1 0 1
-0.07373275 0.009990402 0.0806004 1 0 1
-0.07300234 0.009799866 0.08094912 1 0 1
-0.07227039 0.00961099 0.08129533 1 0 1
-0.07199668 0.009184846 0.08249438 1 0 1
-0.07171465 0.008758604 0.08369411 1 0 1
-0.07097147 0.008572965 0.08403597 1 0 1
-0.07067622 0.008147519 0.08523534 1 0 1
-0.07037265 0.007722049 0.08643529 1 0 1
-0.06961823 0.007539806 0.08677261 1 0 1
-0.06930141 0.00711523 0.08797202 1 0 1
-0.06897626 0.006690725 0.08917192 1 0 1
-0.06864276 0.006266299 0.09037223 1 0 1
-0.0678722 0.006088438 0.09070375 1 0 1
-0.06837583 0.005170583 0.09364466 1 0 1
-0.06801369 0.0047458 0.09484745 1 0 1
-0.0680614 0.004072393 0.09692413 1 0 1
-0.06809371 0.003397671 0.09900389 1 0 1
-0.0685218 0.00247135 0.1019632 1 0 1
-0.06851973 0.001793378 0.1040504 1 0 1
-0.06850216 0.001114252 0.1061404 1 0 1
-0.06927045 -7.11797E-05 0.1099947 1 0 1
-0.06921481 -0.0007539457 0.112093 1 0 1
-0.06874998 -0.001183744 0.1133105 1 0 1
-0.06827664 -0.00161304 0.1145277 1 0 1
-0.06818131 -0.002297279 0.1166309 1 0 1
-0.06692141 -0.002213984 0.116074 1 0 1
-0.06490836 -0.001613655 0.1137338 1 0 1
-0.06103594 0.000280306 0.1069318 1 0 1
-0.06056991 -0.0001367836 0.1081293 1 0 1
-0.06040213 -0.004724516 0.1224999 1 0 1
-0.0629725 -0.007506872 0.1318067 1 0 1
-0.06203374 -0.007666275 0.1321201 1 0 1
-0.05837404 -0.005712169 0.1252091 1 0 1
-0.05712523 -0.005598116 0.1246028 1 0 1
-0.05621507 -0.005746036 0.1248962 1 0 1
-0.05497461 -0.005626264 0.1242803 1 0 1
-0.05406559 -0.005769632 0.1245663 1 0 1
-0.05315534 -0.005910981 0.1248492 1 0 1
-0.05224388 -0.006050359 0.1251291 1 0 1
-0.05101673 -0.005919776 0.1244953 1 0 1
-0.05010653 -0.006054669 0.1247679 1 0 1
-0.04888798 -0.005918515 0.1241246 1 0 1
-0.0479791 -0.006048882 0.12439 1 0 1
-0.04676925 -0.005907207 0.1237374 1 0 1
-0.04615798 -0.006303651 0.1249116 1 0 1
-0.04495322 -0.00615702 0.1242508 1 0 1
-0.04433238 -0.006550503 0.1254209 1 0 1
-0.04341795 -0.006670979 0.125671 1 0 1
-0.04250244 -0.006789436 0.1259179 1 0 1
-0.04186361 -0.007178914 0.1270828 1 0 1
-0.04066826 -0.007020398 0.1264025 1 0 1
-0.03974962 -0.007132884 0.1266402 1 0 1
-0.03882994 -0.007243403 0.1268748 1 0 1
-0.03790929 -0.007351942 0.1271062 1 0 1
-0.03698762 -0.007458437 0.1273346 1 0 1
-0.03632045 -0.007838634 0.1284865 1 0 1
-0.03564489 -0.00821763 0.1296372 1 0 1
-0.03496088 -0.008595444 0.1307864 1 0 1
-0.03451278 -0.009248914 0.1328636 1 0 1
-0.03404879 -0.009901923 0.1349411 1 0 1
-0.03356892 -0.0105544 0.1370187 1 0 1
-0.03307316 -0.0112063 0.1390965 1 0 1
-0.03279082 -0.01213599 0.142107 1 0 1
-0.03225949 -0.012787 0.1441856 1 0 1
-0.03171226 -0.01343722 0.146264 1 0 1
-0.03136716 -0.01436616 0.1492773 1 0 1
-0.03078432 -0.01501517 0.151356 1 0 1
-0.03018554 -0.01566331 0.1534343 1 0 1
-0.02977761 -0.01659086 0.1564495 1 0 1
-0.0271131 -0.01443036 0.1491467 1 0 1
-0.02470735 -0.01254378 0.1427678 1 0 1
0.0419931 -0.02954749 0.2033269 1 0 1
0.04297234 -0.02805844 0.1984981 1 0 1
0.04407421 -0.02741735 0.1965396 1 0 1
0.04504517 -0.02620971 0.1926625 1 0 1
0.04629254 -0.02641274 0.1935694 1 0 1
0.04754734 -0.02661273 0.194472 1 0 1
0.04880957 -0.02680963 0.1953701 1 0 1
0.05000618 -0.02672194 0.195307 1 0 1
0.05127934 -0.02691287 0.1961963 1 0 1
0.05231772 -0.02625817 0.1942121 1 0 1
0.05342492 -0.02588262 0.1931809 1 0 1
0.05452411 -0.02550517 0.1921461 1 0 1
0.05561516 -0.02512584 0.1911078 1 0 1
0.05669824 -0.02474456 0.190066 1 0 1
0.05777315 -0.02436153 0.1890209 1 0 1
0.05884004 -0.02397663 0.1879722 1 0 1
0.06000638 -0.02386848 0.1878747 1 0 1
0.06117225 -0.02375778 0.1877731 1 0 1
0.06222241 -0.02336683 0.1867139 1 0 1
0.06338354 -0.02325153 0.1866048 1 0 1
0.06442121 -0.02285676 0.1855387 1 0 1
0.06532394 -0.02218366 0.1835168 1 0 1
0.06634143 -0.02178589 0.1824448 1 0 1
0.06748512 -0.02166231 0.1823214 1 0 1
0.06876653 -0.02181163 0.1831455 1 0 1
0.06977089 -0.02140774 0.1820629 1 0 1
0.070767 -0.02100229 0.1809774 1 0 1
0.07190455 -0.02086933 0.1808388 1 0 1
0.07288798 -0.02046029 0.1797469 1 0 1
0.07386315 -0.02004975 0.178652 1 0 1
0.07499118 -0.01991038 0.1785027 1 0 1
0.07611856 -0.01976862 0.1783496 1 0 1
0.07690772 -0.01908097 0.1762977 1 0 1
0.07802613 -0.01893532 0.176138 1 0 1
0.07896743 -0.01851655 0.175028 1 0 1
0.08008061 -0.01836658 0.1748611 1 0 1
0.08100909 -0.01794456 0.1737452 1 0 1
0.08211695 -0.01779031 0.1735712 1 0 1
0.08264945 -0.01682784 0.1705614 1 0 1
0.08296309 -0.01559823 0.1666082 1 0 1
0.08304653 -0.01410315 0.1617135 1 0 1
0.08288845 -0.01234438 0.1558794 1 0 1
0.08289091 -0.01085654 0.1509911 1 0 1
0.08327571 -0.009903847 0.1479875 1 0 1
0.08385133 -0.009217647 0.1459245 1 0 1
0.08397505 -0.008002397 0.1419821 1 0 1
0.08428961 -0.00705385 0.1389808 1 0 1
0.08480629 -0.006370245 0.1369182 1 0 1
0.08553646 -0.005949805 0.1357925 1 0 1
0.08625826 -0.005528491 0.134665 1 0 1
0.08720858 -0.005367938 0.1344714 1 0 1
0.08815806 -0.00520529 0.1342745 1 0 1
0.08910668 -0.005040586 0.1340743 1 0 1
-0.08415911 0.01136637 0.07725178 1 0 1
-0.0829317 0.01138089 0.07680703 1 0 1
-0.08170926 0.01139902 0.07635629 1 0 1
-0.08099553 0.01119004 0.07673213 1 0 1
-0.08028019 0.01098267 0.07710548 1 0 1
-0.07956327 0.01077695 0.07747639 1 0 1
-0.07884474 0.01057288 0.07784484 1 0 1
-0.07763434 0.01060499 0.07737144 1 0 1
-0.07642908 0.01064064 0.07689214 1 0 1
-0.07571262 0.01044335 0.07724984 1 0 1
-0.07499461 0.01024772 0.07760503 1 0 1
-0.07427513 0.01005373 0.07795784 1 0 1
-0.07402757 0.009622209 0.07915588 1 0 1
-0.07377172 0.009190566 0.08035469 1 0 1
-0.07257426 0.009240641 0.07985234 1 0 1
-0.07230865 0.008810496 0.08104946 1 0 1
-0.0720347 0.008380258 0.08224725 1 0 1
-0.07129604 0.008193529 0.08258996 1 0 1
-0.07055592 0.00800842 0.08293016 1 0 1
-0.07071348 0.007334528 0.08498565 1 0 1
-0.07040971 0.006905035 0.08618436 1 0 1
-0.06965488 0.006722438 0.08652157 1 0 1
-0.06933787 0.006293823 0.08771979 1 0 1
-0.06901249 0.005865264 0.08891845 1 0 1
-0.06867877 0.005436804 0.09011754 1 0 1
-0.06833667 0.005008446 0.09131701 1 0 1
-0.06841154 0.004329255 0.09338634 1 0 1
-0.06847102 0.003648656 0.0954589 1 0 1
-0.06809679 0.00321922 0.09666222 1 0 1
-0.068129 0.002536724 0.09873961 1 0 1
-0.06814577 0.001852926 0.10082 1 0 1
-0.06855495 0.0009130774 0.1037802 1 0 1
-0.06813294 0.0004817444 0.1049897 1 0 1
-0.06890493 -0.0007182095 0.1088379 1 0 1
-0.06885266 -0.001408107 0.1109324 1 0 1
-0.06878486 -0.002098989 0.1130297 1 0 1
-0.06831121 -0.002532328 0.1142457 1 0 1
-0.06744239 -0.002705992 0.1145765 1 0 1
-0.06657214 -0.002877706 0.1149043 1 0 1
-0.06494136 -0.002526321 0.1134539 1 0 1
-0.06181942 -0.001125146 0.1084391 1 0 1
-0.06283571 -0.002595461 0.1131993 1 0 1
-0.06602804 -0.005646372 0.1233192 1 0 1
-0.06366112 -0.004760607 0.1200709 1 0 1
-0.05951305 -0.00254786 0.1123387 1 0 1
-0.06223215 -0.005348736 0.1215937 1 0 1
-0.0623965 -0.006303885 0.124594 1 0 1
-0.06288882 -0.007526694 0.1284966 1 0 1
-0.06091988 -0.0068871 0.1261122 1 0 1
-0.05965862 -0.00677598 0.125518 1 0 1
-0.05772317 -0.006126266 0.1231153 1 0 1
-0.05614459 -0.005739208 0.1216051 1 0 1
-0.0555777 -0.006154472 0.1227988 1 0 1
-0.05434392 -0.006030018 0.1221816 1 0 1
-0.05311619 -0.005902384 0.1215592 1 0 1
-0.05221642 -0.006042309 0.1218387 1 0 1
-0.05163371 -0.006451413 0.1230236 1 0 1
-0.05041329 -0.006316204 0.1223887 1 0 1
-0.0498209 -0.006722439 0.1235697 1 0 1
-0.04860544 -0.006582218 0.1229265 1 0 1
-0.04800343 -0.006985566 0.1241035 1 0 1
-0.04679301 -0.006840305 0.123452 1 0 1
-0.04618138 -0.007240773 0.1246251 1 0 1
-0.0449761 -0.007090539 0.1239654 1 0 1
-0.04406599 -0.007212665 0.1242175 1 0 1
-0.04315479 -0.00733283 0.1244665 1 0 1
-0.04252405 -0.007727338 0.1256314 1 0 1
-0.04160704 -0.007843976 0.1258752 1 0 1
-0.04041485 -0.007681402 0.1251951 1 0 1
-0.03949945 -0.007793608 0.1254318 1 0 1
-0.03858304 -0.007903857 0.1256655 1 0 1
-0.03766563 -0.00801211 0.125896 1 0 1
-0.0370065 -0.008397376 0.1270481 1 0 1
-0.03608341 -0.008502058 0.1272733 1 0 1
-0.03566299 -0.009164474 0.1293484 1 0 1
-0.0352267 -0.009826476 0.1314237 1 0 1
-0.03453017 -0.0102074 0.1325713 1 0 1
-0.03406586 -0.01086813 0.1346465 1 0 1
-0.03358565 -0.01152833 0.1367219 1 0 1
-0.03332266 -0.01246977 0.1397281 1 0 1
-0.0328069 -0.01312914 0.1418044 1 0 1
-0.03227522 -0.01378783 0.1438807 1 0 1
-0.03194951 -0.0147287 0.14689 1 0 1
-0.03116408 -0.01510304 0.1480328 1 0 1
-0.03079897 -0.01604297 0.1510431 1 0 1
-0.03062098 -0.01726653 0.1549901 1 0 1
0.04091301 -0.03168794 0.2058725 1 0 1
0.04201577 -0.03075454 0.2029664 1 0 1
0.04304525 -0.0295331 0.1991001 1 0 1
0.04425908 -0.02945704 0.199057 1 0 1
0.04535731 -0.02880584 0.1970969 1 0 1
0.04656298 -0.0287251 0.1970459 1 0 1
0.04776839 -0.02864186 0.1969908 1 0 1
0.04897356 -0.02855595 0.1969315 1 0 1
0.05003217 -0.02789709 0.1949568 1 0 1
0.051229 -0.02780664 0.1948898 1 0 1
0.05226393 -0.02714441 0.1929083 1 0 1
0.05336775 -0.02676512 0.1918786 1 0 1
0.05446351 -0.02638394 0.1908454 1 0 1
0.05555123 -0.02600085 0.1898087 1 0 1
0.05663086 -0.02561593 0.1887686 1 0 1
0.05770243 -0.02522912 0.187725 1 0 1
0.05886973 -0.02512318 0.1876316 1 0 1
0.05992891 -0.02473243 0.186581 1 0 1
0.06109154 -0.02462181 0.18648 1 0 1
0.06225366 -0.02450874 0.1863751 1 0 1
0.06341529 -0.02439314 0.1862662 1 0 1
0.06445342 -0.02399425 0.1852014 1 0 1
0.0654833 -0.02359371 0.1841335 1 0 1
0.06650502 -0.02319149 0.1830624 1 0 1
0.06765312 -0.02306715 0.1829389 1 0 1
0.06893894 -0.02321948 0.1837616 1 0 1
0.06994751 -0.02281111 0.18268 1 0 1
0.07109387 -0.02267937 0.1825447 1 0 1
0.07208977 -0.02226734 0.1814566 1 0 1
0.0730774 -0.02185379 0.1803655 1 0 1
0.07405675 -0.02143868 0.1792714 1 0 1
0.07502785 -0.02102206 0.1781745 1 0 1
0.07615572 -0.02087992 0.1780217 1 0 1
0.07711405 -0.02045988 0.1769186 1 0 1
0.07823676 -0.02031337 0.1767585 1 0 1
0.07918225 -0.01988999 0.1756494 1 0 1
0.08011939 -0.01946523 0.1745375 1 0 1
0.08123235 -0.01931247 0.1743671 1 0 1
0.08196873 -0.01861154 0.1723057 1 0 1
0.08268919 -0.01791038 0.1702431 1 0 1
0.08319823 -0.01693721 0.1672367 1 0 1
0.08348452 -0.01569373 0.1632888 1 0 1
0.08313056 -0.01364034 0.1565193 1 0 1
0.08292971 -0.01186274 0.1506957 1 0 1
0.08310394 -0.0106289 0.1467559 1 0 1
0.08367591 -0.009935462 0.1446961 1 0 1
0.08379572 -0.008705512 0.1407591 1 0 1
0.08432839 -0.008013766 0.1386995 1 0 1
0.0848452 -0.007322299 0.1366394 1 0 1
0.08557563 -0.006897738 0.1355151 1 0 1
0.08629771 -0.006472364 0.1343889 1 0 1
0.08724844 -0.006311427 0.1341955 1 0 1
0.08819836 -0.006148434 0.1339989 1 0 1
0.0891474 -0.005983336 0.133799 1 0 1
-0.08420238 0.01056481 0.07700219 1 0 1
-0.0829744 0.01058266 0.07655847 1 0 1
-0.08175144 0.01060412 0.07610878 1 0 1
-0.08103731 0.01039474 0.07648447 1 0 1
-0.08032162 0.01018704 0.07685773 1 0 1
-0.07960431 0.00998095 0.0772285 1 0 1
-0.0793793 0.009539204 0.07843338 1 0 1
-0.078165 0.009573755 0.07796269 1 0 1
-0.07695584 0.009611811 0.07748616 1 0 1
-0.07623565 0.009413286 0.07784539 1 0 1
-0.07551391 0.009216359 0.0782022 1 0 1
-0.07479068 0.009021098 0.07855652 1 0 1
-0.07406592 0.008827503 0.07890836 1 0 1
-0.07380987 0.008391772 0.08010594 1 0 1
-0.07261186 0.008445232 0.07960463 1 0 1
-0.07234603 0.008011061 0.08080046 1 0 1
-0.07207193 0.00757679 0.08199703 1 0 1
-0.07178951 0.007142463 0.08319424 1 0 1
-0.07059241 0.007204312 0.08267974 1 0 1
-0.07030019 0.006771624 0.08387507 1 0 1
-0.06999964 0.006338898 0.08507097 1 0 1
-0.0692479 0.006156847 0.08540656 1 0 1
-0.06893413 0.005725021 0.08660199 1 0 1
-0.06904794 0.005040958 0.08866177 1 0 1
-0.06871398 0.004608409 0.08985963 1 0 1
-0.06837165 0.004176046 0.09105785 1 0 1
-0.06844643 0.003489071 0.09312476 1 0 1
-0.06808382 0.003056176 0.0943251 1 0 1
-0.06771284 0.002623501 0.09552571 1 0 1
-0.06774846 0.001933978 0.09759925 1 0 1
-0.06776864 0.001243183 0.09967584 1 0 1
-0.06777336 0.0005511213 0.1017554 1 0 1
-0.06776261 -0.0001420931 0.1038379 1 0 1
-0.06853827 -0.001356586 0.1076799 1 0 1
-0.06809197 -0.001792689 0.1088909 1 0 1
-0.06842498 -0.002751452 0.1118641 1 0 1
-0.06756424 -0.002925913 0.1121951 1 0 1
-0.06670208 -0.003098418 0.1125231 1 0 1
-0.06622175 -0.003532703 0.1137334 1 0 1
-0.06535324 -0.003702078 0.114057 1 0 1
-0.06335493 -0.003074467 0.111714 1 0 1
-0.06398459 -0.00430082 0.1155843 1 0 1
-0.06384632 -0.004997887 0.1176812 1 0 1
-0.06003833 -0.003025191 0.1108631 1 0 1
-0.05918091 -0.003181671 0.1111655 1 0 1
-0.06011329 -0.004678034 0.1159364 1 0 1
-0.06029915 -0.005640877 0.1189257 1 0 1
-0.06011106 -0.00633597 0.1210227 1 0 1
-0.05955983 -0.006761339 0.1222237 1 0 1
-0.05900007 -0.007185983 0.1234241 1 0 1
-0.05741124 -0.006795455 0.1219228 1 0 1
-0.0558356 -0.00640055 0.1204138 1 0 1
-0.05493909 -0.006546569 0.1207023 1 0 1
-0.05404133 -0.006690659 0.1209879 1 0 1
-0.05249103 -0.006285111 0.1194605 1 0 1
-0.05159811 -0.006424142 0.1197377 1 0 1
-0.05102236 -0.006836093 0.1209192 1 0 1
-0.04980871 -0.006696244 0.1202832 1 0 1
-0.04922329 -0.007105413 0.1214608 1 0 1
-0.04801463 -0.006960534 0.1208166 1 0 1
-0.04741959 -0.00736683 0.1219903 1 0 1
-0.04621599 -0.007216983 0.1213379 1 0 1
-0.04561135 -0.007620376 0.1225077 1 0 1
-0.04470557 -0.007744178 0.1227618 1 0 1
-0.04408769 -0.008145147 0.1239285 1 0 1
-0.04317604 -0.008265497 0.1241776 1 0 1
-0.04226333 -0.008383849 0.1244235 1 0 1
-0.04134956 -0.008500228 0.1246663 1 0 1
-0.04043474 -0.008614611 0.1249061 1 0 1
-0.03951891 -0.008727018 0.1251428 1 0 1
-0.03886883 -0.009119359 0.1262981 1 0 1
-0.03794726 -0.009228203 0.1265295 1 0 1
-0.03702469 -0.009335041 0.1267579 1 0 1
-0.03635677 -0.009723086 0.1279075 1 0 1
-0.03568042 -0.01011001 0.1290559 1 0 1
-0.03524381 -0.01077974 0.131129 1 0 1
-0.03454689 -0.0111646 0.1322754 1 0 1
-0.03408225 -0.01183304 0.1343482 1 0 1
-0.0336017 -0.01250094 0.1364212 1 0 1
-0.03333843 -0.01345386 0.139424 1 0 1
-0.03259287 -0.01383502 0.1405676 1 0 1
-0.03251595 -0.01507368 0.1445031 1 0 1
-0.03218615 -0.01602637 0.1475097 1 0 1
-0.03139654 -0.01640495 0.1486522 1 0 1
-0.03059851 -0.01678205 0.1497928 1 0 1
-0.03063463 -0.01830823 0.1546686 1 0 1
0.03859026 -0.03420794 0.2093857 1 0 1
0.03969377 -0.03297491 0.2055348 1 0 1
0.04085103 -0.03232289 0.203592 1 0 1
0.04199265 -0.03166917 0.2016454 1 0 1
0.04316878 -0.03130425 0.2006507 1 0 1
0.04433697 -0.03093718 0.1996521 1 0 1
0.04543942 -0.03027796 0.1976944 1 0 1
0.04664951 -0.03019674 0.1976434 1 0 1
0.04772836 -0.02953388 0.1956784 1 0 1
0.04886087 -0.02915874 0.1946648 1 0 1
0.04991217 -0.02849268 0.192693 1 0 1
0.05110184 -0.02840257 0.1926266 1 0 1
0.05221033 -0.02802148 0.1916021 1 0 1
0.05322598 -0.02735043 0.1896202 1 0 1
0.05449172 -0.02754132 0.1904961 1 0 1
0.05557989 -0.02715422 0.1894607 1 0 1
0.05665996 -0.02676525 0.1884219 1 0 1
0.05773194 -0.0263744 0.1873797 1 0 1
0.05889983 -0.02626813 0.1872865 1 0 1
0.06006721 -0.02615939 0.1871894 1 0 1
0.06112252 -0.02576246 0.1861365 1 0 1
0.06240069 -0.02593436 0.1869832 1 0 1
0.06344734 -0.02553314 0.1859231 1 0 1
0.06460904 -0.02541476 0.1858104 1 0 1
0.06551623 -0.02472559 0.1837931 1 0 1
0.06666918 -0.02460301 0.1836734 1 0 1
0.06782156 -0.02447797 0.1835496 1 0 1
0.06911188 -0.02463329 0.184371 1 0 1
0.07012466 -0.0242204 0.1832904 1 0 1
0.07127534 -0.02408789 0.1831549 1 0 1
0.07227544 -0.02367133 0.1820676 1 0 1
0.0732673 -0.0232532 0.1809775 1 0 1
0.07425088 -0.02283356 0.1798843 1 0 1
0.07522616 -0.02241239 0.1787882 1 0 1
0.07635836 -0.02226941 0.1786351 1 0 1
0.07715182 -0.02156559 0.1765877 1 0 1
0.07827501 -0.02141871 0.1764278 1 0 1
0.07922091 -0.02099121 0.1753201 1 0 1
0.08033887 -0.02084001 0.1751532 1 0 1
0.08145608 -0.02068637 0.1749824 1 0 1
0.0821965 -0.01997706 0.1729229 1 0 1
0.08311279 -0.01954361 0.171804 1 0 1
0.08362947 -0.01855773 0.1688 1 0 1
0.08372384 -0.01702281 0.163915 1 0 1
0.08337314 -0.01494233 0.1571528 1 0 1
0.08317565 -0.01314138 0.1513356 1 0 1
0.08293202 -0.01134511 0.1455227 1 0 1
0.08307132 -0.01009906 0.1415903 1 0 1
0.08361621 -0.009399793 0.1395344 1 0 1
0.08414525 -0.008700793 0.137478 1 0 1
0.08488427 -0.008273043 0.1363569 1 0 1
0.08561495 -0.007844383 0.1352339 1 0 1
0.08657067 -0.007684536 0.1350434 1 0 1
0.08728845 -0.007253591 0.1339159 1 0 1
0.08823875 -0.007090237 0.1337196 1 0 1
0.08918823 -0.006924747 0.1335199 1 0 1
-0.08424478 0.009764358 0.07674954 1 0 1
-0.08250556 0.0100217 0.07548018 1 0 1
-0.08179273 0.009810323 0.07585821 1 0 1
-0.08107828 0.009600615 0.07623376 1 0 1
-0.08036222 0.009392515 0.07660688 1 0 1
-0.07964455 0.009186071 0.07697754 1 0 1
-0.07892531 0.008981299 0.07734575 1 0 1
-0.07771382 0.009020109 0.07687443 1 0 1
-0.07699482 0.008819573 0.07723603 1 0 1
-0.07579031 0.008864489 0.07675473 1 0 1
-0.07507159 0.008668171 0.07710973 1 0 1
-0.07435136 0.008473503 0.07746226 1 0 1
-0.07410343 0.008033881 0.07865778 1 0 1
-0.07337679 0.007841585 0.07900705 1 0 1
-0.07264868 0.007650982 0.07935382 1 0 1
-0.07238268 0.007212763 0.08054841 1 0 1
-0.07164817 0.007024553 0.08089182 1 0 1
-0.07091219 0.006838015 0.08123275 1 0 1
-0.07062809 0.006401292 0.08242622 1 0 1
-0.06988578 0.006217247 0.08276369 1 0 1
-0.06958846 0.005781366 0.08395676 1 0 1
-0.0688398 0.005599824 0.08429074 1 0 1
-0.06852927 0.005164784 0.08548337 1 0 1
-0.06864646 0.004473755 0.08753922 1 0 1
-0.06831576 0.004038034 0.08873427 1 0 1
-0.06797669 0.003602401 0.08992977 1 0 1
-0.06805489 0.002908461 0.09199279 1 0 1
-0.06769554 0.002472337 0.09319039 1 0 1
-0.06732778 0.002036397 0.09438825 1 0 1
-0.06736682 0.001339902 0.09645794 1 0 1
-0.06697873 0.0009036217 0.09765767 1 0 1
-0.06699038 0.0002053452 0.09973195 1 0 1
-0.06698653 -0.0004941462 0.1018092 1 0 1
-0.06736829 -0.001458625 0.1047664 1 0 1
-0.06732989 -0.002161097 0.1068506 1 0 1
-0.06766997 -0.00312994 0.1098175 1 0 1
-0.06720638 -0.003569225 0.111027 1 0 1
-0.06712124 -0.004274713 0.113119 1 0 1
-0.06625368 -0.004446334 0.1134453 1 0 1
-0.06538473 -0.00461602 0.1137688 1 0 1
-0.06376187 -0.004246213 0.112316 1 0 1
-0.0628973 -0.004410699 0.112631 1 0 1
-0.06166226 -0.004303118 0.1120538 1 0 1
-0.05933648 -0.003379896 0.1087996 1 0 1
-0.05812388 -0.003263906 0.1082076 1 0 1
-0.06085892 -0.006137801 0.117434 1 0 1
-0.05997327 -0.006295252 0.1177393 1 0 1
-0.0597886 -0.006997479 0.1198327 1 0 1
-0.05889312 -0.007152241 0.1201345 1 0 1
-0.05834027 -0.007579662 0.1213313 1 0 1
-0.05675801 -0.007180651 0.11983 1 0 1
-0.05552565 -0.00705307 0.1192212 1 0 1
-0.05463231 -0.007198791 0.1195086 1 0 1
-0.05340836 -0.007065486 0.1188903 1 0 1
-0.05251621 -0.007206676 0.1191705 1 0 1
-0.05162285 -0.007345898 0.1194477 1 0 1
-0.05072831 -0.007483181 0.1197219 1 0 1
-0.04951778 -0.007339234 0.119086 1 0 1
-0.04893567 -0.007751815 0.1202613 1 0 1
-0.04773015 -0.007602851 0.1196171 1 0 1
-0.04683464 -0.007731771 0.1198782 1 0 1
-0.04623812 -0.008140051 0.1210477 1 0 1
-0.04533669 -0.008265533 0.1213038 1 0 1
-0.04443415 -0.008389032 0.1215569 1 0 1
-0.04381961 -0.008793449 0.1227214 1 0 1
-0.0429112 -0.008913503 0.1229694 1 0 1
-0.04228343 -0.009315457 0.1241309 1 0 1
-0.04136922 -0.009432014 0.1243738 1 0 1
-0.04045397 -0.009546554 0.1246136 1 0 1
-0.03953769 -0.009659124 0.1248503 1 0 1
-0.03888723 -0.01005541 0.1260043 1 0 1
-0.03796522 -0.01016443 0.1262358 1 0 1
-0.03704219 -0.01027143 0.1264641 1 0 1
-0.0363739 -0.01066345 0.1276126 1 0 1
-0.03594912 -0.01134167 0.1296838 1 0 1
-0.03526025 -0.0117317 0.1308305 1 0 1
-0.03456292 -0.01212046 0.1319757 1 0 1
-0.03409795 -0.01279664 0.1340462 1 0 1
-0.03385406 -0.01376122 0.1370444 1 0 1
-0.03358676 -0.01472602 0.1400444 1 0 1
-0.03283703 -0.01511142 0.1411877 1 0 1
-0.03253037 -0.01607562 0.1441893 1 0 1
-0.03197824 -0.01674935 0.1462616 1 0 1
-0.03075552 -0.01654995 0.145539 1 0 1
-0.02932495 -0.01605655 0.1438791 1 0 1
-0.02832997 -0.01614261 0.144079 1 0 1
0.03625786 -0.03734101 0.2147781 1 0 1
0.03744684 -0.03639067 0.2118945 1 0 1
0.03857786 -0.03514354 0.2080522 1 0 1
0.03971637 -0.03419039 0.2051609 1 0 1
0.04083164 -0.03323586 0.2022661 1 0 1
0.04196981 -0.03257459 0.2003221 1 0 1
0.04314256 -0.03220589 0.1993288 1 0 1
0.0443074 -0.03183506 0.1983317 1 0 1
0.04540638 -0.0311683 0.1963766 1 0 1
0.04661317 -0.03108712 0.196326 1 0 1
0.04768852 -0.03041676 0.1943637 1 0 1
0.04881763 -0.0300379 0.1933517 1 0 1
0.04993876 -0.02965706 0.192336 1 0 1
0.05112898 -0.02956664 0.1922698 1 0 1
0.05223791 -0.02918156 0.1912466 1 0 1
0.05333878 -0.02879452 0.19022 1 0 1
0.05452029 -0.02869712 0.1901422 1 0 1
0.05570144 -0.02859715 0.1900604 1 0 1
0.0567858 -0.02820377 0.1890226 1 0 1
0.05786205 -0.02780857 0.1879815 1 0 1
0.05893018 -0.02741153 0.186937 1 0 1
0.06009813 -0.02730248 0.18684 1 0 1
0.06126564 -0.02719092 0.1867392 1 0 1
0.06243264 -0.02707686 0.1866343 1 0 1
0.06347974 -0.02667161 0.1855755 1 0 1
0.06464192 -0.02655288 0.1854631 1 0 1
0.06554943 -0.02585586 0.1834483 1 0 1
0.06670285 -0.025733 0.1833288 1 0 1
0.06785579 -0.02560762 0.1832053 1 0 1
0.06928534 -0.02605301 0.1849738 1 0 1
0.07030234 -0.0256356 0.183894 1 0 1
0.07145734 -0.02550232 0.1837583 1 0 1
0.07261171 -0.02536655 0.1836186 1 0 1
0.07361159 -0.02494343 0.1825289 1 0 1
0.07444548 -0.02423435 0.1804904 1 0 1
0.07542497 -0.0238086 0.1793953 1 0 1
0.07639615 -0.02338136 0.1782973 1 0 1
0.07735902 -0.02295265 0.1771965 1 0 1
0.0784865 -0.02280492 0.1770363 1 0 1
0.07943652 -0.0223728 0.1759294 1 0 1
0.08037822 -0.0219393 0.1748197 1 0 1
0.08149593 -0.02178529 0.1746492 1 0 1
0.08223659 -0.02106815 0.1725923 1 0 1
0.08315323 -0.02063055 0.1714747 1 0 1
0.08386571 -0.01991237 0.1694145 1 0 1
0.0841632 -0.01863658 0.1654741 1 0 1
0.08402288 -0.01680664 0.1596577 1 0 1
0.08342207 -0.01442605 0.1519692 1 0 1
0.08297085 -0.01232949 0.1452252 1 0 1
0.08310997 -0.01106815 0.1412976 1 0 1
0.08343655 -0.01008526 0.1383081 1 0 1
0.08418418 -0.009654277 0.1371903 1 0 1
0.08492345 -0.009222403 0.1360705 1 0 1
0.08542462 -0.008515713 0.134015 1 0 1
0.08637702 -0.008356106 0.1338255 1 0 1
0.08732858 -0.008194427 0.1336326 1 0 1
0.08827928 -0.008030676 0.1334365 1 0 1
0.08922916 -0.007864838 0.1332371 1 0 1
-0.08428633 0.00896508 0.0764938 1 0 1
-0.08254638 0.009229384 0.07522666 1 0 1
-0.08183318 0.009017627 0.07560456 1 0 1
-0.08111837 0.008807547 0.07598 1 0 1
-0.08090287 0.008356303 0.07718374 1 0 1
-0.08018149 0.008148537 0.07755601 1 0 1
-0.07945857 0.007942443 0.07792582 1 0 1
-0.0782432 0.007983687 0.07745725 1 0 1
-0.07752047 0.007781858 0.07782041 1 0 1
-0.07631206 0.007829191 0.07734187 1 0 1
-0.07558961 0.007631608 0.07769841 1 0 1
-0.07486565 0.007435685 0.07805251 1 0 1
-0.07414015 0.007241391 0.07840414 1 0 1
-0.07341316 0.00704878 0.0787533 1 0 1
-0.07268468 0.006857794 0.07910001 1 0 1
-0.0724185 0.006415549 0.08029329 1 0 1
-0.07168362 0.006227015 0.08063661 1 0 1
-0.07094729 0.00604017 0.08097743 1 0 1
-0.0702095 0.005854985 0.08131576 1 0 1
-0.06992031 0.005415061 0.08250698 1 0 1
-0.06917618 0.005232384 0.08284185 1 0 1
-0.0684306 0.005051368 0.08317419 1 0 1
-0.06856303 0.00435422 0.08522402 1 0 1
-0.06824393 0.003915179 0.08641588 1 0 1
-0.06791647 0.003476235 0.08760816 1 0 1
-0.06758065 0.003037387 0.08880088 1 0 1
-0.06766223 0.00233648 0.09085994 1 0 1
-0.06688385 0.002160079 0.09118737 1 0 1
-0.06652284 0.001721686 0.09238104 1 0 1
-0.06656878 0.001018963 0.09444536 1 0 1
-0.06659927 0.0003149293 0.09651277 1 0 1
-0.06620602 -0.0001243148 0.09770992 1 0 1
-0.06661386 -0.001096865 0.1006565 1 0 1
-0.06699917 -0.002072076 0.1036087 1 0 1
-0.06656645 -0.00251334 0.1048116 1 0 1
-0.06730776 -0.003761204 0.1086509 1 0 1
-0.06684744 -0.004203793 0.1098577 1 0 1
-0.06676571 -0.00491637 0.1119459 1 0 1
-0.06590128 -0.005087559 0.1122709 1 0 1
-0.06541543 -0.005528666 0.1134772 1 0 1
-0.06379189 -0.005151677 0.1120267 1 0 1
-0.06329972 -0.005589615 0.1132284 1 0 1
-0.06206055 -0.00547924 0.1126536 1 0 1
-0.06155849 -0.005914711 0.1138521 1 0 1
-0.06104793 -0.006349564 0.1150501 1 0 1
-0.06088728 -0.00705961 0.1171396 1 0 1
-0.06000124 -0.007217306 0.1174449 1 0 1
-0.05911387 -0.007373029 0.1177472 1 0 1
-0.05822518 -0.007526839 0.1180466 1 0 1
-0.05733521 -0.007678647 0.1183429 1 0 1
-0.05610356 -0.007549543 0.1177382 1 0 1
-0.0552147 -0.007696839 0.1180274 1 0 1
-0.05399143 -0.007561998 0.1174133 1 0 1
-0.05310371 -0.00770478 0.1176953 1 0 1
-0.05188893 -0.0075643 0.1170718 1 0 1
-0.05132464 -0.007984523 0.1182504 1 0 1
-0.05011477 -0.007838995 0.1176186 1 0 1
-0.04922592 -0.007973404 0.1178876 1 0 1
-0.04864715 -0.00838944 0.1190606 1 0 1
-0.04775232 -0.008520516 0.1193246 1 0 1
-0.04685637 -0.008649598 0.1195857 1 0 1
-0.04595929 -0.008776709 0.1198437 1 0 1
-0.04535763 -0.009187534 0.1210101 1 0 1
-0.04445467 -0.009311243 0.1212631 1 0 1
-0.04355061 -0.009432987 0.1215131 1 0 1
-0.04264548 -0.009552709 0.1217601 1 0 1
-0.04173929 -0.009670493 0.122004 1 0 1
-0.04111011 -0.01007438 0.1231613 1 0 1
-0.04019812 -0.01018866 0.1234 1 0 1
-0.03928511 -0.01030095 0.1236358 1 0 1
-0.03890493 -0.01099018 0.1257069 1 0 1
-0.03824569 -0.01138928 0.1268585 1 0 1
-0.0373185 -0.01149687 0.1270878 1 0 1
-0.03664609 -0.01189323 0.128236 1 0 1
-0.03621728 -0.0125796 0.1303057 1 0 1
-0.03552426 -0.01297394 0.131452 1 0 1
-0.03482284 -0.01336705 0.132597 1 0 1
-0.03411296 -0.01375891 0.1337405 1 0 1
-0.03386879 -0.01473494 0.1367351 1 0 1
-0.03336788 -0.01541807 0.1388043 1 0 1
-0.03285104 -0.01610056 0.1408736 1 0 1
-0.03231826 -0.01678232 0.1429429 1 0 1
-0.03176955 -0.01746339 0.145012 1 0 1
-0.02989522 -0.01637629 0.1414987 1 0 1
0.03203028 -0.03097213 0.1896176 1 0 1
0.03488163 -0.03715692 0.2096326 1 0 1
0.03611749 -0.03679694 0.2086647 1 0 1
0.03734554 -0.03643456 0.2076925 1 0 1
0.03849617 -0.03547195 0.204809 1 0 1
0.0396235 -0.0345079 0.2019217 1 0 1
0.04077002 -0.03384103 0.1999843 1 0 1
0.0419009 -0.03317245 0.1980431 1 0 1
0.04301615 -0.03250215 0.1960982 1 0 1
0.04422397 -0.03242593 0.1960559 1 0 1
0.04531564 -0.03175189 0.1941036 1 0 1
0.04651524 -0.03167097 0.1940535 1 0 1
0.0477146 -0.03158749 0.1939994 1 0 1
0.04884415 -0.03120463 0.1929887 1 0 1
0.04996573 -0.03081974 0.1919743 1 0 1
0.05115649 -0.03072912 0.1919083 1 0 1
0.05226585 -0.03034 0.1908866 1 0 1
0.05345211 -0.03024454 0.1908128 1 0 1
0.05454921 -0.02985125 0.1897837 1 0 1
0.05573087 -0.02975102 0.1897021 1 0 1
0.05681567 -0.02935363 0.1886658 1 0 1
0.05779202 -0.0286601 0.1866756 1 0 1
0.05896092 -0.02855328 0.1865829 1 0 1
0.0601294 -0.02844393 0.1864861 1 0 1
0.0612974 -0.0283321 0.1863855 1 0 1
0.0624649 -0.02821772 0.1862808 1 0 1
0.06363198 -0.02810082 0.1861723 1 0 1
0.06467513 -0.02768937 0.1851113 1 0 1
0.06571009 -0.02727623 0.1840471 1 0 1
0.06699895 -0.02744384 0.184875 1 0 1
0.06816003 -0.02731729 0.1847509 1 0 1
0.0694593 -0.02747862 0.1855697 1 0 1
0.07062303 -0.02734668 0.1854373 1 0 1
0.07178621 -0.02721217 0.1853009 1 0 1
0.07279858 -0.02678609 0.1842151 1 0 1
0.07380263 -0.02635843 0.1831262 1 0 1
0.07464059 -0.02564105 0.1810899 1 0 1
0.07562426 -0.02521074 0.1799957 1 0 1
0.07659964 -0.02477893 0.1788985 1 0 1
0.07773595 -0.02463229 0.1787415 1 0 1
0.07869847 -0.02419701 0.1776382 1 0 1
0.07982957 -0.02404598 0.1774739 1 0 1
0.08077923 -0.02360733 0.1763646 1 0 1
0.08172049 -0.02316728 0.1752524 1 0 1
0.08246515 -0.02244179 0.1731975 1 0 1
0.08338592 -0.0219995 0.1720807 1 0 1
0.08429832 -0.02155597 0.1709613 1 0 1
0.08480296 -0.02054621 0.1679628 1 0 1
0.08447014 -0.01840995 0.1612139 1 0 1
0.08387621 -0.01599804 0.1535335 1 0 1
0.08322091 -0.01359313 0.1458601 1 0 1
0.08314883 -0.01203584 0.141001 1 0 1
0.08347537 -0.01104143 0.1380153 1 0 1
0.08422326 -0.01060637 0.1368988 1 0 1
0.0849628 -0.01017042 0.1357804 1 0 1
0.08569399 -0.009733589 0.1346602 1 0 1
0.08665054 -0.009573019 0.1344701 1 0 1
0.08736878 -0.009133927 0.1333456 1 0 1
0.08807872 -0.008694003 0.1322192 1 0 1
0.08902523 -0.008528451 0.1320209 1 0 1
-0.08381265 0.008409427 0.07541246 1 0 1
-0.08258633 0.008438194 0.07497012 1 0 1
-0.0818728 0.008226086 0.07534786 1 0 1
-0.08115763 0.008015631 0.07572317 1 0 1
-0.08044086 0.007806807 0.07609605 1 0 1
-0.0797225 0.007599664 0.07646647 1 0 1
-0.07949694 0.007145773 0.07766742 1 0 1
-0.07828103 0.007190324 0.07719991 1 0 1
-0.0770703 0.007238434 0.07672661 1 0 1
-0.07586473 0.00729008 0.07624745 1 0 1
-0.0751453 0.007093062 0.07660223 1 0 1
-0.07490189 0.006644632 0.07779594 1 0 1
-0.07417607 0.006450037 0.07814744 1 0 1
-0.07391948 0.006002195 0.07934116 1 0 1
-0.07318723 0.005809993 0.07968938 1 0 1
-0.07245351 0.005619486 0.08003508 1 0 1
-0.0717183 0.005430643 0.08037831 1 0 1
-0.07098158 0.005243435 0.08071904 1 0 1
-0.07024343 0.005057944 0.08105727 1 0 1
-0.06950383 0.004874093 0.081393 1 0 1
-0.06876279 0.004691935 0.08172622 1 0 1
-0.06802031 0.004511476 0.08205693 1 0 1
-0.06815612 0.003807391 0.08410274 1 0 1
-0.06784028 0.003365187 0.08529178 1 0 1
-0.06708316 0.003187296 0.08561944 1 0 1
-0.06718351 0.002480987 0.08767119 1 0 1
-0.0672685 0.001773129 0.08972629 1 0 1
-0.06649321 0.001597223 0.09005214 1 0 1
-0.0661355 0.00115556 0.09124308 1 0 1
-0.06618482 0.0004458824 0.09330349 1 0 1
-0.06621873 -0.000265142 0.09536695 1 0 1
-0.06582874 -0.0007076532 0.09656142 1 0 1
-0.06624014 -0.001690928 0.09950288 1 0 1
-0.06703034 -0.00294813 0.1033248 1 0 1
-0.0669952 -0.003665421 0.1054027 1 0 1
-0.06733879 -0.004656469 0.1083608 1 0 1
-0.06726893 -0.005376562 0.1104453 1 0 1
-0.06679627 -0.00582341 0.1116521 1 0 1
-0.06593145 -0.005994918 0.111977 1 0 1
-0.06506523 -0.00616448 0.1122991 1 0 1
-0.06382111 -0.00605587 0.1117339 1 0 1
-0.06258278 -0.00594394 0.1111632 1 0 1
-0.06171959 -0.006106396 0.1114739 1 0 1
-0.06085506 -0.006266891 0.1117816 1 0 1
-0.05998921 -0.00642547 0.1120865 1 0 1
-0.05983918 -0.007141322 0.1141697 1 0 1
-0.05860854 -0.007017149 0.1135793 1 0 1
-0.05808653 -0.007451472 0.1147698 1 0 1
-0.05686053 -0.007322168 0.1141711 1 0 1
-0.05598461 -0.007471788 0.1144626 1 0 1
-0.05544794 -0.007902147 0.1156478 1 0 1
-0.0545659 -0.008048479 0.1159346 1 0 1
-0.05368262 -0.008192879 0.1162184 1 0 1
-0.0531277 -0.008619846 0.1173995 1 0 1
-0.05191239 -0.008475808 0.1167771 1 0 1
-0.05102548 -0.008614346 0.117052 1 0 1
-0.04981874 -0.00846474 0.1164203 1 0 1
-0.04893313 -0.008598816 0.1166881 1 0 1
-0.04804638 -0.008730952 0.1169529 1 0 1
-0.04715847 -0.008861143 0.1172148 1 0 1
-0.04657342 -0.009277774 0.1183817 1 0 1
-0.04597989 -0.009693466 0.1195477 1 0 1
-0.04508127 -0.009818834 0.1198027 1 0 1
-0.04418157 -0.009942238 0.1200547 1 0 1
-0.04328076 -0.01006366 0.1203036 1 0 1
-0.04237889 -0.0101831 0.1205496 1 0 1
-0.04147597 -0.01030058 0.1207925 1 0 1
-0.04085014 -0.01070796 0.1219475 1 0 1
-0.04021585 -0.01111427 0.1231015 1 0 1
-0.03930241 -0.01122674 0.1233372 1 0 1
-0.03865495 -0.01163042 0.1244879 1 0 1
-0.03826232 -0.01232669 0.1265563 1 0 1
-0.03733469 -0.01243446 0.1267856 1 0 1
-0.03666191 -0.01283474 0.1279325 1 0 1
-0.03623278 -0.01352877 0.1299998 1 0 1
-0.03553938 -0.01392705 0.131145 1 0 1
-0.03459295 -0.01402832 0.1313653 1 0 1
-0.03412729 -0.01471983 0.133431 1 0 1
-0.03364572 -0.01541081 0.1354968 1 0 1
-0.03314822 -0.01610123 0.1375629 1 0 1
-0.03240516 -0.01649371 0.1387022 1 0 1
-0.03142783 -0.01658717 0.1389122 1 0 1
-0.03089378 -0.0172745 0.1409757 1 0 1
0.03483341 -0.03747873 0.2063848 1 0 1
0.03608534 -0.03741841 0.2063708 1 0 1
0.03730615 -0.03705248 0.2054002 1 0 1
0.0384494 -0.03607878 0.2025206 1 0 1
0.03956933 -0.03510366 0.1996372 1 0 1
0.0407085 -0.03442948 0.1977025 1 0 1
0.04187854 -0.03405568 0.1967162 1 0 1
0.04299033 -0.03337787 0.1947741 1 0 1
0.044249 -0.03360324 0.195684 1 0 1
0.04539906 -0.03322282 0.1946861 1 0 1
0.04660308 -0.03314141 0.194636 1 0 1
0.04780683 -0.03305741 0.1945818 1 0 1
0.04901028 -0.03297081 0.1945236 1 0 1
0.05006653 -0.0322811 0.1925592 1 0 1
0.05126169 -0.03218992 0.1924933 1 0 1
0.05245651 -0.03209614 0.1924232 1 0 1
0.05356596 -0.03170045 0.1913988 1 0 1
0.05466736 -0.03130282 0.1903708 1 0 1
0.05585338 -0.031202 0.1902892 1 0 1
0.05694246 -0.03080021 0.189254 1 0 1
0.05792298 -0.03009854 0.187266 1 0 1
0.05909625 -0.02999109 0.1871733 1 0 1
0.06026907 -0.02988109 0.1870764 1 0 1
0.06144144 -0.02976862 0.1869757 1 0 1
0.06261332 -0.02965356 0.1868709 1 0 1
0.06378472 -0.02953597 0.1867622 1 0 1
0.06483214 -0.02912006 0.1857022 1 0 1
0.06587133 -0.02870248 0.1846391 1 0 1
0.06716464 -0.02887308 0.1854656 1 0 1
0.06846504 -0.02904035 0.1862874 1 0 1
0.06963373 -0.02891016 0.1861588 1 0 1
0.0709445 -0.02907107 0.1869714 1 0 1
0.07211582 -0.02893536 0.1868343 1 0 1
0.07313623 -0.02850429 0.185749 1 0 1
0.07430243 -0.02836396 0.1856045 1 0 1
0.07515212 -0.02763737 0.1835693 1 0 1
0.07614762 -0.02720153 0.1824749 1 0 1
0.07713477 -0.02676418 0.1813777 1 0 1
0.07811364 -0.0263253 0.1802776 1 0 1
0.07908414 -0.02588494 0.1791746 1 0 1
0.08004631 -0.02544311 0.1780688 1 0 1
0.08100013 -0.02499983 0.1769602 1 0 1
0.08194558 -0.02455514 0.175849 1 0 1
0.08269423 -0.02382126 0.173796 1 0 1
0.08361911 -0.0233744 0.1726801 1 0 1
0.08453566 -0.02292619 0.1715615 1 0 1
0.08504414 -0.02190433 0.1685661 1 0 1
0.08491815 -0.02002664 0.1627614 1 0 1
0.0843311 -0.01758346 0.1550892 1 0 1
0.08368263 -0.01514727 0.147424 1 0 1
