ply
format ascii 1.0
Comment Generated by Floating Hands
element vertex 1226
property double x
property double y
property double z
property uchar red
property uchar green
property uchar blue
end_header
-0.05753982 -0.01138657 0.1122817 1 0 1
-0.05605299 -0.01089852 0.1107084 1 0 1
-0.05513348 -0.01098618 0.1109605 1 0 1
-0.05421295 -0.0110718 0.1112094 1 0 1
-0.05302211 -0.01086514 0.110537 1 0 1
-0.05210332 -0.01094641 0.1107788 1 0 1
-0.05118357 -0.01102567 0.1110175 1 0 1
-0.05026288 -0.01110292 0.1112531 1 0 1
-0.04908684 -0.01088664 0.1105635 1 0 1
-0.04841869 -0.01125136 0.111715 1 0 1
-0.04749524 -0.0113226 0.1119413 1 0 1
-0.04657088 -0.01139177 0.1121645 1 0 1
-0.04516672 -0.01087366 0.1105331 1 0 1
-0.04071251 -0.006544476 0.09684882 1 0 1
0.02772536 -0.01932699 0.1484921 1 0 1
0.02895733 -0.02009463 0.1513299 1 0 1
0.03009403 -0.02028052 0.1522522 1 0 1
0.03123813 -0.02046342 0.1531705 1 0 1
0.03232292 -0.02035535 0.1531294 1 0 1
0.03340743 -0.02024497 0.1530847 1 0 1
0.03449161 -0.02013232 0.1530363 1 0 1
0.03565371 -0.02030403 0.153939 1 0 1
0.03682319 -0.02047264 0.1548376 1 0 1
0.03799998 -0.02063806 0.1557321 1 0 1
0.03909426 -0.02051489 0.1556681 1 0 1
0.04018815 -0.02038945 0.1556004 1 0 1
0.04137912 -0.02054616 0.1564828 1 0 1
0.04247601 -0.0204156 0.1564074 1 0 1
0.04357246 -0.02028272 0.1563282 1 0 1
0.04466842 -0.02014752 0.1562453 1 0 1
0.04576395 -0.02000999 0.1561586 1 0 1
0.04685894 -0.01987014 0.1560682 1 0 1
0.04807391 -0.02000963 0.1569259 1 0 1
0.04942031 -0.02042693 0.1587307 1 0 1
0.05090956 -0.02112052 0.1614816 1 0 1
0.05202533 -0.02096825 0.161374 1 0 1
0.05286908 -0.02025443 0.1593615 1 0 1
0.05369693 -0.01954038 0.1573468 1 0 1
0.05479569 -0.01938324 0.1572293 1 0 1
0.05574661 -0.01894578 0.1561588 1 0 1
0.05668928 -0.01850713 0.1550853 1 0 1
0.05777854 -0.01834408 0.1549574 1 0 1
0.05886707 -0.01817879 0.1548257 1 0 1
0.05963013 -0.01745979 0.1527953 1 0 1
0.06070971 -0.01729103 0.1526571 1 0 1
0.06178857 -0.01711998 0.1525151 1 0 1
0.06304057 -0.01722049 0.1533154 1 0 1
0.06412179 -0.01704423 0.1531654 1 0 1
0.06520227 -0.01686568 0.1530118 1 0 1
0.06628197 -0.01668481 0.1528544 1 0 1
0.06736089 -0.01650167 0.1526933 1 0 1
0.06824626 -0.01604556 0.1515853 1 0 1
0.06931978 -0.01585847 0.1514173 1 0 1
0.07059277 -0.01593848 0.1521875 1 0 1
0.07207663 -0.01628354 0.1538942 1 0 1
0.07315896 -0.01608752 0.1537132 1 0 1
0.07466366 -0.01642388 0.1554085 1 0 1
0.07618258 -0.01675509 0.1570976 1 0 1
0.07727726 -0.0165494 0.1569026 1 0 1
0.07859392 -0.01660653 0.1576419 1 0 1
0.07969049 -0.01639543 0.1574387 1 0 1
0.08124694 -0.01670944 0.1591049 1 0 1
0.08258322 -0.01675519 0.1598285 1 0 1
0.08368807 -0.01653482 0.1596116 1 0 1
0.08382523 -0.01526615 0.155653 1 0 1
0.08491304 -0.01504409 0.1554315 1 0 1
0.08226274 -0.01092039 0.1412122 1 0 1
0.08405109 -0.01148294 0.1437913 1 0 1
0.08637404 -0.0125553 0.1482247 1 0 1
0.0882125 -0.01310231 0.1507852 1 0 1
-0.1325787 -0.01372076 0.1253181 1 0 1
-0.1315986 -0.01396916 0.1258315 1 0 1
-0.1306164 -0.01421524 0.1263414 1 0 1
-0.1301223 -0.01471688 0.1276807 1 0 1
-0.1291325 -0.01495918 0.1281857 1 0 1
-0.1291075 -0.0157181 0.1303594 1 0 1
-0.1276269 -0.01569715 0.1300233 1 0 1
-0.1271042 -0.01619441 0.1313592 1 0 1
-0.1256263 -0.01616719 0.1310131 1 0 1
-0.1236833 -0.01587337 0.1298172 1 0 1
-0.1212857 -0.01531068 0.127767 1 0 1
-0.1184436 -0.01447681 0.1248574 1 0 1
-0.1078151 -0.009129665 0.1075203 1 0 1
-0.1041705 -0.007734788 0.1028518 1 0 1
-0.1059972 -0.009526725 0.1083723 1 0 1
-0.1163154 -0.01640292 0.130107 1 0 1
-0.1170986 -0.01768635 0.1339814 1 0 1
-0.116083 -0.01789856 0.1344422 1 0 1
-0.114188 -0.01756959 0.1331851 1 0 1
-0.1131758 -0.01777572 0.1336359 1 0 1
-0.111298 -0.01743789 0.1323627 1 0 1
-0.1098606 -0.01736645 0.1319417 1 0 1
-0.1088533 -0.01756359 0.1323777 1 0 1
-0.1078443 -0.01775837 0.1328104 1 0 1
-0.1064156 -0.01767736 0.1323732 1 0 1
-0.1049922 -0.01759271 0.1319297 1 0 1
-0.1039849 -0.01777937 0.1323491 1 0 1
-0.1029759 -0.01796368 0.1327651 1 0 1
-0.1019652 -0.01814575 0.1331778 1 0 1
-0.1009528 -0.0183255 0.1335871 1 0 1
-0.1003354 -0.01878034 0.1348679 1 0 1
-0.09931611 -0.01895616 0.1352718 1 0 1
-0.09790567 -0.01885106 0.1347943 1 0 1
-0.09727264 -0.01930086 0.1360691 1 0 1
-0.09663087 -0.01974956 0.1373432 1 0 1
-0.09598038 -0.02019708 0.1386166 1 0 1
-0.09569632 -0.0209244 0.1407726 1 0 1
-0.09576804 -0.02193313 0.1438151 1 0 1
-0.09544854 -0.02266082 0.145976 1 0 1
-0.09547757 -0.02367092 0.1490259 1 0 1
-0.09440078 -0.02383248 0.1494142 1 0 1
-0.09082156 -0.02200588 0.1435698 1 0 1
-0.08446208 -0.01789596 0.1305746 1 0 1
-0.07750953 -0.01319873 0.1157532 1 0 1
-0.07691419 -0.01361605 0.1169719 1 0 1
-0.07699586 -0.01460371 0.1199798 1 0 1
-0.0763761 -0.01501981 0.1211995 1 0 1
-0.07507673 -0.01486134 0.1206239 1 0 1
-0.07345145 -0.0144126 0.1191439 1 0 1
-0.07183947 -0.01395987 0.117656 1 0 1
-0.07056545 -0.01379125 0.1170611 1 0 1
-0.06897655 -0.01333107 0.1155586 1 0 1
-0.06771835 -0.01315604 0.1149516 1 0 1
-0.06677987 -0.01326751 0.1152435 1 0 1
-0.06522036 -0.01279713 0.1137212 1 0 1
-0.0642869 -0.01290359 0.1140045 1 0 1
-0.06274715 -0.01242659 0.1124692 1 0 1
-0.06181877 -0.01252812 0.1127441 1 0 1
-0.06029892 -0.01204463 0.1111961 1 0 1
-0.05966723 -0.01243318 0.1123735 1 0 1
-0.05845148 -0.01223595 0.111726 1 0 1
-0.05752616 -0.01232853 0.1119863 1 0 1
-0.05631941 -0.0121261 0.1113293 1 0 1
-0.05567243 -0.01250763 0.1124975 1 0 1
-0.05447105 -0.01230043 0.1118323 1 0 1
-0.0532761 -0.01209051 0.1111621 1 0 1
-0.0526187 -0.01246664 0.1123229 1 0 1
-0.05169106 -0.01254672 0.1125635 1 0 1
-0.05050437 -0.01232976 0.111881 1 0 1
-0.04932423 -0.01211016 0.1111935 1 0 1
-0.04840124 -0.01218353 0.1114229 1 0 1
-0.04698358 -0.01166313 0.1098037 1 0 1
-0.04558 -0.0111396 0.1081777 1 0 1
-0.03692452 -0.002665845 0.08176975 1 0 1
0.02798996 -0.02154361 0.1519893 1 0 1
0.02923843 -0.02232093 0.1548234 1 0 1
0.03033195 -0.02221651 0.1547897 1 0 1
0.03142521 -0.02210977 0.1547523 1 0 1
0.03251819 -0.0220007 0.1547112 1 0 1
0.03354005 -0.02159806 0.1537122 1 0 1
0.03462853 -0.02148479 0.1536638 1 0 1
0.03579521 -0.02165962 0.1545654 1 0 1
0.03688689 -0.02154127 0.1545093 1 0 1
0.03806436 -0.02171025 0.1554028 1 0 1
0.03915913 -0.02158684 0.155339 1 0 1
0.04025351 -0.02146112 0.1552716 1 0 1
0.04134746 -0.02133306 0.1552003 1 0 1
0.04254254 -0.02149053 0.1560777 1 0 1
0.04353409 -0.02107 0.1550467 1 0 1
0.04473589 -0.0212219 0.155916 1 0 1
0.04583189 -0.02108408 0.1558295 1 0 1
0.04692737 -0.02094392 0.1557393 1 0 1
0.04814307 -0.02108688 0.1565961 1 0 1
0.04961494 -0.02179631 0.1593492 1 0 1
0.05098089 -0.02221595 0.1611465 1 0 1
0.05209717 -0.02206338 0.161039 1 0 1
0.05307687 -0.02162511 0.1599784 1 0 1
0.05404835 -0.0211855 0.1589148 1 0 1
0.05501157 -0.0207447 0.1578481 1 0 1
0.0558191 -0.02002088 0.1558304 1 0 1
0.05706449 -0.02014042 0.1566536 1 0 1
0.05800672 -0.01969538 0.1555778 1 0 1
0.05894069 -0.01924915 0.1544991 1 0 1
0.05986635 -0.01880176 0.1534175 1 0 1
0.06095021 -0.01863206 0.1532791 1 0 1
0.06186305 -0.01818187 0.1521915 1 0 1
0.06311578 -0.01828574 0.1529909 1 0 1
0.06437534 -0.01838612 0.1537854 1 0 1
0.06546004 -0.01820658 0.1536315 1 0 1
0.06635854 -0.01774902 0.1525306 1 0 1
0.06762715 -0.01784058 0.1533123 1 0 1
0.06851647 -0.0173797 0.1522051 1 0 1
0.06959425 -0.01719156 0.1520367 1 0 1
0.07087178 -0.01727423 0.1528055 1 0 1
0.07215602 -0.01735327 0.1535693 1 0 1
0.07323878 -0.01715693 0.1533886 1 0 1
0.07474454 -0.01750031 0.155082 1 0 1
0.07604875 -0.01756822 0.1558307 1 0 1
0.07714012 -0.01736284 0.1556367 1 0 1
0.07845379 -0.017424 0.1563758 1 0 1
0.079774 -0.01748138 0.1571097 1 0 1
0.08110078 -0.01753496 0.1578384 1 0 1
0.08266851 -0.01785143 0.1594968 1 0 1
0.08425026 -0.01816254 0.1611483 1 0 1
0.08536202 -0.01793784 0.1609264 1 0 1
0.08647272 -0.0177108 0.1607005 1 0 1
0.08533746 -0.01510835 0.1520845 1 0 1
0.08337443 -0.01172893 0.1406858 1 0 1
0.08568805 -0.01282179 0.1451163 1 0 1
0.08777731 -0.01364319 0.1486056 1 0 1
-0.1320923 -0.01453847 0.1241487 1 0 1
-0.131115 -0.01478647 0.12466 1 0 1
-0.1306293 -0.01529292 0.1259978 1 0 1
-0.1296445 -0.01553715 0.1265043 1 0 1
-0.1291445 -0.01604146 0.1278405 1 0 1
-0.1286357 -0.01654511 0.1291768 1 0 1
-0.1276379 -0.01678408 0.1296766 1 0 1
-0.1271148 -0.01728554 0.1310113 1 0 1
-0.1261096 -0.01752066 0.131506 1 0 1
-0.1241626 -0.01722067 0.130314 1 0 1
-0.1226938 -0.01718242 0.1299553 1 0 1
-0.1193779 -0.01606853 0.1262103 1 0 1
-0.1078224 -0.01010819 0.1072082 1 0 1
-0.1069138 -0.01030814 0.1076356 1 0 1
-0.1100776 -0.01293782 0.1157077 1 0 1
-0.116771 -0.01774631 0.1306162 1 0 1
-0.1166588 -0.0185024 0.1327814 1 0 1
-0.1156463 -0.01871431 0.1332406 1 0 1
-0.1137543 -0.01837758 0.1319841 1 0 1
-0.1123096 -0.01830957 0.1315756 1 0 1
-0.1108701 -0.01823785 0.1311607 1 0 1
-0.1094358 -0.01816241 0.1307393 1 0 1
-0.1084315 -0.01835925 0.1311737 1 0 1
-0.1074254 -0.01855377 0.1316047 1 0 1
-0.1059998 -0.01846874 0.1311671 1 0 1
-0.1045794 -0.01838011 0.1307231 1 0 1
-0.1039859 -0.01884505 0.1320092 1 0 1
-0.1029764 -0.01902973 0.1324251 1 0 1
-0.1019653 -0.01921214 0.1328377 1 0 1
-0.1009524 -0.01939229 0.1332468 1 0 1
-0.1003344 -0.01985122 0.1345264 1 0 1
-0.09931467 -0.02002739 0.1349301 1 0 1
-0.09790374 -0.01991889 0.1344537 1 0 1
-0.09727021 -0.02037279 0.1357273 1 0 1
-0.09662794 -0.02082554 0.1370001 1 0 1
-0.09597691 -0.02127716 0.1382723 1 0 1
-0.09569235 -0.02201228 0.1404257 1 0 1
-0.0957635 -0.02303257 0.1434646 1 0 1
-0.09581151 -0.02405388 0.1465078 1 0 1
-0.09547193 -0.02478975 0.1486693 1 0 1
-0.09439461 -0.02495164 0.1490575 1 0 1
-0.08938604 -0.02194947 0.1396666 1 0 1
-0.08339452 -0.01806951 0.1275742 1 0 1
-0.0796029 -0.01590353 0.1207902 1 0 1
-0.0796781 -0.01690584 0.1238001 1 0 1
-0.0780164 -0.01646169 0.1223457 1 0 1
-0.07636788 -0.01601338 0.120883 1 0 1
-0.07506806 -0.01585142 0.1203085 1 0 1
-0.0734424 -0.01539544 0.1188309 1 0 1
-0.07183005 -0.01493541 0.1173453 1 0 1
-0.07055558 -0.01476332 0.1167516 1 0 1
-0.06896634 -0.01429588 0.1152515 1 0 1
-0.0677077 -0.01411734 0.1146455 1 0 1
-0.06645524 -0.0139358 0.1140342 1 0 1
-0.06520894 -0.01375135 0.1134175 1 0 1
-0.0639688 -0.013564 0.1127953 1 0 1
-0.06303742 -0.0136682 0.1130744 1 0 1
-0.0618061 -0.01347547 0.1124427 1 0 1
-0.06058104 -0.0132799 0.1118057 1 0 1
-0.05965371 -0.01337716 0.1120732 1 0 1
-0.05872532 -0.01347238 0.1123376 1 0 1
-0.05779587 -0.01356551 0.112599 1 0 1
-0.05658503 -0.0133599 0.1119443 1 0 1
-0.0556572 -0.01344862 0.1121983 1 0 1
-0.05500128 -0.01383274 0.1133642 1 0 1
-0.05379853 -0.01361993 0.1126971 1 0 1
-0.0528677 -0.01370252 0.1129418 1 0 1
-0.05193589 -0.01378307 0.1131833 1 0 1
-0.05074511 -0.01356282 0.112503 1 0 1
-0.04930657 -0.01304085 0.1108979 1 0 1
-0.0481326 -0.01281504 0.1102066 1 0 1
-0.0464716 -0.01198732 0.1076673 1 0 1
-0.04385998 -0.009956165 0.1014295 1 0 1
0.02815302 -0.02319509 0.1535661 1 0 1
0.0293547 -0.02368621 0.1554431 1 0 1
0.03045255 -0.0235812 0.1554095 1 0 1
0.03155011 -0.02347389 0.1553721 1 0 1
0.03264741 -0.02336424 0.155331 1 0 1
0.03374443 -0.02325223 0.1552862 1 0 1
0.03484108 -0.02313788 0.1552376 1 0 1
0.03585868 -0.02272701 0.1542327 1 0 1
0.03703342 -0.02290224 0.1551292 1 0 1
0.03812903 -0.02278091 0.1550693 1 0 1
0.03931453 -0.02295021 0.1559577 1 0 1
0.04031911 -0.02253129 0.1549385 1 0 1
0.04151149 -0.02269501 0.1558188 1 0 1
0.04260933 -0.02256394 0.1557438 1 0 1
0.04360109 -0.02213938 0.1547142 1 0 1
0.04480364 -0.02229475 0.1555825 1 0 1
0.0459001 -0.02215665 0.1554962 1 0 1
0.04711318 -0.02230588 0.1563561 1 0 1
0.04821246 -0.02216265 0.156262 1 0 1
0.04956074 -0.02259436 0.1580626 1 0 1
0.0509238 -0.02302169 0.1598581 1 0 1
0.05216917 -0.02315696 0.1606998 1 0 1
0.05301287 -0.02242754 0.1586923 1 0 1
0.05412082 -0.02227098 0.1585783 1 0 1
0.05508425 -0.02182608 0.157513 1 0 1
0.05603942 -0.02137994 0.1564447 1 0 1
0.05713787 -0.02121744 0.1563201 1 0 1
0.05823564 -0.02105262 0.1561917 1 0 1
0.05933274 -0.02088545 0.1560595 1 0 1
0.06026622 -0.02043281 0.1549784 1 0 1
0.06119138 -0.01997904 0.1538945 1 0 1
0.06227878 -0.01980611 0.153752 1 0 1
0.0635398 -0.01991216 0.1545494 1 0 1
0.06462952 -0.01973394 0.1543989 1 0 1
0.06553657 -0.01927332 0.153302 1 0 1
0.06662096 -0.01909112 0.1531446 1 0 1
0.06789409 -0.01918538 0.1539248 1 0 1
0.06878739 -0.01871974 0.1528184 1 0 1
0.0698694 -0.01853061 0.1526497 1 0 1
0.07095053 -0.01833915 0.1524773 1 0 1
0.07223551 -0.0184215 0.1532402 1 0 1
0.07331873 -0.01822475 0.1530597 1 0 1
0.07461329 -0.01830042 0.1538132 1 0 1
0.07591447 -0.01837238 0.1545618 1 0 1
0.07700252 -0.01816729 0.1543687 1 0 1
0.07831317 -0.01823246 0.1551076 1 0 1
0.07963035 -0.01829387 0.1558414 1 0 1
0.08095409 -0.01835146 0.1565699 1 0 1
0.08251911 -0.01867568 0.158227 1 0 1
0.08385962 -0.01872487 0.1589443 1 0 1
0.0852066 -0.01877016 0.1596563 1 0 1
0.08631402 -0.01854347 0.1594316 1 0 1
0.08642146 -0.01724483 0.1554802 1 0 1
0.08421677 -0.01355085 0.1431624 1 0 1
0.08474315 -0.01279879 0.1410814 1 0 1
0.08708005 -0.01390272 0.145498 1 0 1
-0.1316047 -0.01534726 0.1229774 1 0 1
-0.1306303 -0.01559488 0.1234868 1 0 1
-0.1301475 -0.0161046 0.1248215 1 0 1
-0.1296559 -0.01661374 0.1261563 1 0 1
-0.1291554 -0.01712223 0.1274912 1 0 1
-0.1281626 -0.01736317 0.1279925 1 0 1
-0.128128 -0.01813711 0.1301611 1 0 1
-0.127601 -0.01864354 0.1314961 1 0 1
-0.1265919 -0.01887995 0.1319924 1 0 1
-0.1255807 -0.01911399 0.1324851 1 0 1
-0.125034 -0.0196165 0.1338165 1 0 1
-0.1198483 -0.01740194 0.1267108 1 0 1
-0.109667 -0.01217483 0.1102735 1 0 1
-0.1101126 -0.01319772 0.1132481 1 0 1
-0.11461 -0.01668809 0.1238663 1 0 1
-0.1167765 -0.01882092 0.1302688 1 0 1
-0.1162181 -0.01930947 0.1315797 1 0 1
-0.1147662 -0.01924493 0.1311838 1 0 1
-0.1133195 -0.01917661 0.1307814 1 0 1
-0.1118778 -0.01910461 0.1303724 1 0 1
-0.1104413 -0.01902886 0.129957 1 0 1
-0.1094383 -0.01922837 0.1303946 1 0 1
-0.1084335 -0.01942558 0.1308289 1 0 1
-0.107427 -0.01962048 0.1312598 1 0 1
-0.1060008 -0.01953213 0.1308233 1 0 1
-0.1049943 -0.01972182 0.1312459 1 0 1
-0.103986 -0.01990916 0.1316651 1 0 1
-0.102976 -0.02009427 0.132081 1 0 1
-0.1019644 -0.02027705 0.1324934 1 0 1
-0.100951 -0.02045755 0.1329024 1 0 1
-0.1003326 -0.02092054 0.1341807 1 0 1
-0.09891925 -0.02081161 0.1337103 1 0 1
-0.0979009 -0.02098524 0.1341091 1 0 1
-0.09688096 -0.02115654 0.1345045 1 0 1
-0.0966241 -0.02190002 0.1366529 1 0 1
-0.09597259 -0.0223557 0.1379237 1 0 1
-0.09568749 -0.02309864 0.1400747 1 0 1
-0.09538647 -0.02384149 0.1422276 1 0 1
-0.09580553 -0.02516332 0.1461494 1 0 1
-0.09546537 -0.02590698 0.1483083 1 0 1
-0.09366588 -0.02548793 0.1469241 1 0 1
-0.08866432 -0.02244392 0.1375439 1 0 1
-0.08480151 -0.02026098 0.1307982 1 0 1
-0.08169512 -0.01865181 0.1258089 1 0 1
-0.08070897 -0.0187906 0.1261489 1 0 1
-0.07835051 -0.0177543 0.1229155 1 0 1
-0.07635888 -0.01700552 0.1205627 1 0 1
-0.0747232 -0.01654587 0.1190944 1 0 1
-0.07310079 -0.0160822 0.1176179 1 0 1
-0.07116356 -0.01531931 0.1152362 1 0 1
-0.069896 -0.01514279 0.1146413 1 0 1
-0.06863454 -0.01496326 0.1140409 1 0 1
-0.06737918 -0.01478073 0.1134349 1 0 1
-0.06612998 -0.01459525 0.1128237 1 0 1
-0.06519678 -0.01470422 0.11311 1 0 1
-0.06395628 -0.01451333 0.1124891 1 0 1
-0.06302444 -0.01461774 0.1127681 1 0 1
-0.0620915 -0.0147201 0.113044 1 0 1
-0.06115745 -0.0148204 0.1133167 1 0 1
-0.05993093 -0.01461922 0.1126778 1 0 1
-0.05899839 -0.014715 0.1129433 1 0 1
-0.0580648 -0.01480874 0.1132056 1 0 1
-0.05684986 -0.0145999 0.1125531 1 0 1
-0.0559179 -0.01468914 0.1128082 1 0 1
-0.0549849 -0.01477634 0.1130601 1 0 1
-0.05378177 -0.01455997 0.1123942 1 0 1
-0.0531159 -0.01494459 0.1135545 1 0 1
-0.05191825 -0.01472344 0.1128805 1 0 1
-0.05046916 -0.01419708 0.1112837 1 0 1
-0.04903408 -0.01366744 0.1096801 1 0 1
-0.0478635 -0.01343769 0.1089891 1 0 1
-0.04546589 -0.01168831 0.1036914 1 0 1
0.02826525 -0.02455944 0.1541816 1 0 1
0.02947166 -0.02505752 0.1560564 1 0 1
0.03063354 -0.02525187 0.1569749 1 0 1
0.03173932 -0.02514359 0.1569374 1 0 1
0.03284479 -0.02503292 0.1568962 1 0 1
0.03394997 -0.02491989 0.1568511 1 0 1
0.03497968 -0.02450618 0.1558509 1 0 1
0.0360014 -0.02409087 0.1548472 1 0 1
0.03718066 -0.0242692 0.1557425 1 0 1
0.03828061 -0.02414719 0.1556826 1 0 1
0.03928967 -0.02372617 0.1546683 1 0 1
0.04038497 -0.02359993 0.1546012 1 0 1
0.04157808 -0.02376715 0.1554805 1 0 1
0.04267636 -0.02363581 0.1554057 1 0 1
0.04377421 -0.02350211 0.1553271 1 0 1
0.04509101 -0.02395481 0.1571435 1 0 1
0.04619557 -0.02381549 0.1570568 1 0 1
0.04741705 -0.02396719 0.1579151 1 0 1
0.04852445 -0.02382266 0.1578205 1 0 1
0.04988138 -0.02426057 0.1596184 1 0 1
0.05112417 -0.02440216 0.1604632 1 0 1
0.05250678 -0.0248317 0.1622509 1 0 1
0.05349459 -0.02438422 0.1611923 1 0 1
0.05461445 -0.02422577 0.1610772 1 0 1
0.05573371 -0.02406489 0.1609583 1 0 1
0.05670436 -0.02361245 0.1598898 1 0 1
0.05751498 -0.02287014 0.157873 1 0 1
0.0586208 -0.02270384 0.1577439 1 0 1
0.05956664 -0.02224771 0.1566666 1 0 1
0.0603409 -0.02150355 0.1546424 1 0 1
0.06126625 -0.0210457 0.1535599 1 0 1
0.06235411 -0.02087239 0.1534176 1 0 1
0.06361584 -0.02098184 0.1542141 1 0 1
0.06470603 -0.02080326 0.1540638 1 0 1
0.06579542 -0.02062238 0.1539098 1 0 1
0.06688406 -0.02043918 0.153752 1 0 1
0.06797192 -0.02025361 0.1535905 1 0 1
0.06905896 -0.02006574 0.1534252 1 0 1
0.07014518 -0.01987556 0.1532562 1 0 1
0.07123058 -0.01968303 0.1530834 1 0 1
0.07231514 -0.01948822 0.1529069 1 0 1
0.07339881 -0.01929106 0.1527266 1 0 1
0.07469404 -0.01937005 0.1534792 1 0 1
0.07599598 -0.01944535 0.1542269 1 0 1
0.07708447 -0.01923981 0.154034 1 0 1
0.07839581 -0.0193083 0.154772 1 0 1
0.0794862 -0.01909741 0.154571 1 0 1
0.08080692 -0.01915903 0.1552994 1 0 1
0.08213416 -0.01921682 0.1560226 1 0 1
0.08394551 -0.01981751 0.1586041 1 0 1
0.08553576 -0.02013871 0.1602463 1 0 1
0.08713995 -0.02045445 0.1618816 1 0 1
0.08800796 -0.01995148 0.1607215 1 0 1
0.08835988 -0.01890713 0.1577015 1 0 1
0.08740082 -0.01651764 0.1500428 1 0 1
0.08742592 -0.01521333 0.1461016 1 0 1
-0.1316163 -0.01641346 0.1226282 1 0 1
-0.1311386 -0.01692876 0.1239631 1 0 1
-0.1301582 -0.01717546 0.1244708 1 0 1
-0.1296662 -0.01768873 0.1258042 1 0 1
-0.1291653 -0.01820136 0.1271377 1 0 1
-0.1286555 -0.01871335 0.1284713 1 0 1
-0.1281369 -0.0192246 0.1298049 1 0 1
-0.1276095 -0.01973518 0.1311385 1 0 1
-0.1265999 -0.01997203 0.1316345 1 0 1
-0.1251183 -0.01993275 0.1312879 1 0 1
-0.1241081 -0.02016413 0.1317755 1 0 1
-0.1180025 -0.01736458 0.1229922 1 0 1
-0.1115109 -0.01426966 0.1133255 1 0 1
-0.1165039 -0.01807559 0.1247602 1 0 1
-0.1177838 -0.01967805 0.1294547 1 0 1
-0.1181287 -0.020729 0.132464 1 0 1
-0.1166679 -0.02066571 0.1320773 1 0 1
-0.1147697 -0.0203188 0.1308319 1 0 1
-0.1133225 -0.02024724 0.1304305 1 0 1
-0.111445 -0.01989067 0.1291675 1 0 1
-0.1100115 -0.0198109 0.1287516 1 0 1
-0.1085831 -0.01972745 0.1283294 1 0 1
-0.1080097 -0.02020703 0.1296203 1 0 1
-0.1065848 -0.02011766 0.1291882 1 0 1
-0.1060009 -0.02059399 0.1304754 1 0 1
-0.1045796 -0.0204987 0.1300336 1 0 1
-0.1035744 -0.02068579 0.1304513 1 0 1
-0.1029747 -0.02115727 0.1317328 1 0 1
-0.1019625 -0.0213404 0.132145 1 0 1
-0.1009487 -0.02152126 0.132554 1 0 1
-0.09993315 -0.02169982 0.1329595 1 0 1
-0.09891597 -0.02187606 0.1333616 1 0 1
-0.09789716 -0.02205001 0.1337603 1 0 1
-0.09687673 -0.02222165 0.1341556 1 0 1
-0.09623697 -0.02268197 0.1354245 1 0 1
-0.09596731 -0.0234327 0.137571 1 0 1
-0.09568169 -0.02418344 0.1397195 1 0 1
-0.09538014 -0.02493406 0.1418698 1 0 1
-0.09506259 -0.02568461 0.1440219 1 0 1
-0.09509348 -0.0267288 0.1470594 1 0 1
-0.09257555 -0.02571334 0.1439063 1 0 1
-0.08829899 -0.02321679 0.136308 1 0 1
-0.08443957 -0.02100372 0.1295708 1 0 1
-0.08238638 -0.02025976 0.127254 1 0 1
-0.08035352 -0.01951047 0.1249262 1 0 1
-0.07799841 -0.018459 0.1216964 1 0 1
-0.07601004 -0.01769881 0.119346 1 0 1
-0.07437763 -0.01723147 0.1178789 1 0 1
-0.0727585 -0.01676005 0.1164036 1 0 1
-0.07115272 -0.01628464 0.1149205 1 0 1
-0.06988475 -0.01610461 0.1143267 1 0 1
-0.0686229 -0.01592157 0.1137275 1 0 1
-0.06768426 -0.01603579 0.1140223 1 0 1
-0.06643101 -0.01584723 0.1134133 1 0 1
-0.06518392 -0.01565572 0.1127989 1 0 1
-0.06424912 -0.01576285 0.1130822 1 0 1
-0.06331318 -0.01586792 0.1133622 1 0 1
-0.06237614 -0.01597084 0.1136392 1 0 1
-0.06114291 -0.015769 0.1130068 1 0 1
-0.06020732 -0.01586743 0.1132764 1 0 1
-0.05955829 -0.01626732 0.1144512 1 0 1
-0.05833292 -0.01605809 0.1138062 1 0 1
-0.05739412 -0.01615031 0.1140664 1 0 1
-0.05645428 -0.01624046 0.1143235 1 0 1
-0.05551342 -0.01632855 0.1145773 1 0 1
-0.05430248 -0.01610924 0.1139146 1 0 1
-0.05336334 -0.01619284 0.1141613 1 0 1
-0.05189998 -0.01566246 0.112574 1 0 1
-0.05070848 -0.01543502 0.111896 1 0 1
-0.04926938 -0.01489835 0.1102958 1 0 1
-0.04709316 -0.01343775 0.1059341 1 0 1
0.02832603 -0.02562539 0.1538394 1 0 1
0.02964544 -0.02673888 0.1576139 1 0 1
0.03081573 -0.02693602 0.1585312 1 0 1
0.03192967 -0.02682674 0.1584936 1 0 1
0.03304332 -0.02671508 0.1584523 1 0 1
0.0341567 -0.02660105 0.1584071 1 0 1
0.03519436 -0.02618251 0.1574079 1 0 1
0.03622401 -0.02576245 0.1564053 1 0 1
0.03732864 -0.0256421 0.1563491 1 0 1
0.0384329 -0.02551945 0.1562892 1 0 1
0.03944605 -0.02509402 0.1552761 1 0 1
0.04054566 -0.02496705 0.155209 1 0 1
0.04174326 -0.02513731 0.156087 1 0 1
0.04284588 -0.0250052 0.1560121 1 0 1
0.04394805 -0.02487078 0.1559334 1 0 1
0.04515968 -0.02503211 0.1567992 1 0 1
0.04626475 -0.02489249 0.1567127 1 0 1
0.04748689 -0.02504766 0.15757 1 0 1
0.0487162 -0.02519946 0.1584228 1 0 1
0.04995261 -0.0253479 0.1592712 1 0 1
0.05106706 -0.02519732 0.1591686 1 0 1
0.05244682 -0.02563453 0.1609545 1 0 1
0.05356773 -0.02547811 0.1608434 1 0 1
0.05468808 -0.02531931 0.1607286 1 0 1
0.05595218 -0.02545158 0.1615549 1 0 1
0.05692691 -0.02499451 0.1604874 1 0 1
0.05789328 -0.02453619 0.1594168 1 0 1
0.05885138 -0.02407665 0.1583434 1 0 1
0.05980119 -0.02361584 0.157267 1 0 1
0.06057922 -0.0228633 0.155245 1 0 1
0.06150855 -0.0224008 0.1541635 1 0 1
0.06242955 -0.02193716 0.1530791 1 0 1
0.06369202 -0.02204996 0.1538746 1 0 1
0.06478266 -0.02187104 0.1537246 1 0 1
0.06587251 -0.02168977 0.1535708 1 0 1
0.06696159 -0.0215062 0.1534132 1 0 1
0.06804989 -0.02132029 0.153252 1 0 1
0.06913738 -0.02113203 0.1530869 1 0 1
0.07022404 -0.02094147 0.1529181 1 0 1
0.07130988 -0.0207486 0.1527456 1 0 1
0.07218963 -0.02026983 0.1516326 1 0 1
0.07347894 -0.02035583 0.1523893 1 0 1
0.07477492 -0.02043813 0.153141 1 0 1
0.07586102 -0.02023525 0.1529529 1 0 1
0.07694621 -0.02003002 0.152761 1 0 1
0.07825454 -0.02010253 0.1534988 1 0 1
0.07956942 -0.02017124 0.1542315 1 0 1
0.08065926 -0.01995754 0.1540269 1 0 1
0.08198348 -0.02001941 0.15475 1 0 1
0.08379238 -0.02063151 0.157329 1 0 1
0.08537991 -0.0209604 0.1589699 1 0 1
0.08698139 -0.02128386 0.1606039 1 0 1
0.08809613 -0.02105227 0.1603743 1 0 1
0.08920975 -0.02081831 0.1601409 1 0 1
0.08903334 -0.01921603 0.1552697 1 0 1
0.08803392 -0.01680219 0.1476247 1 0 1
-0.1321274 -0.01774809 0.1230976 1 0 1
-0.1311487 -0.01799755 0.1236084 1 0 1
-0.1301679 -0.01824473 0.1241159 1 0 1
-0.1296754 -0.01876215 0.1254479 1 0 1
-0.1291741 -0.01927894 0.12678 1 0 1
-0.1281803 -0.01952082 0.127281 1 0 1
-0.1271845 -0.01976038 0.1277785 1 0 1
-0.1266634 -0.02027347 0.1291074 1 0 1
-0.1256602 -0.0205092 0.1295999 1 0 1
-0.1246549 -0.02074255 0.130089 1 0 1
-0.1231811 -0.02069539 0.1297351 1 0 1
-0.1180077 -0.01841217 0.1226444 1 0 1
-0.1147328 -0.01723189 0.1188926 1 0 1
-0.1169644 -0.01940828 0.1252554 1 0 1
-0.1182404 -0.02103042 0.1299453 1 0 1
-0.117683 -0.0215295 0.1312569 1 0 1
-0.1166709 -0.02174501 0.131719 1 0 1
-0.1152146 -0.02167462 0.1313268 1 0 1
-0.1137633 -0.02160047 0.1309281 1 0 1
-0.1118818 -0.02123764 0.1296688 1 0 1
-0.1104444 -0.02115527 0.1292556 1 0 1
-0.1090121 -0.02106924 0.128836 1 0 1
-0.107585 -0.02097951 0.12841 1 0 1
-0.1065845 -0.02117386 0.1288376 1 0 1
-0.1055823 -0.0213659 0.1292618 1 0 1
-0.104164 -0.02126662 0.1288197 1 0 1
-0.1031618 -0.02145339 0.1292358 1 0 1
-0.1025652 -0.0219283 0.1305144 1 0 1
-0.1015561 -0.02211118 0.1309252 1 0 1
-0.1005453 -0.02229179 0.1313326 1 0 1
-0.09953287 -0.02247006 0.1317366 1 0 1
-0.0989118 -0.02293894 0.1330089 1 0 1
-0.09789253 -0.02311323 0.1334075 1 0 1
-0.09687158 -0.02328524 0.1338027 1 0 1
-0.09661368 -0.02404428 0.1359459 1 0 1
-0.09633992 -0.02480336 0.1380913 1 0 1
-0.09605018 -0.02556248 0.1402386 1 0 1
-0.09574449 -0.02632148 0.1423877 1 0 1
-0.09542282 -0.02708037 0.1445386 1 0 1
-0.09399202 -0.02694644 0.1440438 1 0 1
-0.09112374 -0.02561671 0.1400079 1 0 1
-0.08757573 -0.023682 0.1341856 1 0 1
-0.08478397 -0.0223358 0.1301146 1 0 1
-0.08272677 -0.02158147 0.1278026 1 0 1
-0.08034366 -0.02052162 0.1245909 1 0 1
-0.0779882 -0.01945546 0.121366 1 0 1
-0.07599951 -0.01868434 0.1190193 1 0 1
-0.07436675 -0.0182098 0.1175545 1 0 1
-0.07274725 -0.01773118 0.1160817 1 0 1
-0.07114112 -0.01724854 0.114601 1 0 1
-0.06987277 -0.01706503 0.1140084 1 0 1
-0.06893126 -0.01718204 0.1143076 1 0 1
-0.06767146 -0.01699295 0.1137052 1 0 1
-0.06641781 -0.01680089 0.1130974 1 0 1
-0.06548007 -0.01691071 0.1133848 1 0 1
-0.06454117 -0.01701847 0.1136691 1 0 1
-0.06360111 -0.01712414 0.1139503 1 0 1
-0.06236125 -0.01692165 0.1133244 1 0 1
-0.06142264 -0.01702274 0.1135981 1 0 1
-0.06048292 -0.01712175 0.1138688 1 0 1
-0.05954212 -0.01721873 0.1141363 1 0 1
-0.05831636 -0.01700592 0.1134925 1 0 1
-0.05737714 -0.01709834 0.1137526 1 0 1
-0.0567133 -0.01749704 0.1149199 1 0 1
-0.05549556 -0.01727694 0.1142635 1 0 1
-0.05428428 -0.01705408 0.1136021 1 0 1
-0.05360995 -0.01744724 0.1147619 1 0 1
-0.0521426 -0.01690983 0.113178 1 0 1
-0.05068921 -0.01636911 0.1115871 1 0 1
-0.0479796 -0.0142734 0.1054091 1 0 1
-0.04507116 -0.01186084 0.09829798 1 0 1
0.02982042 -0.02843365 0.1591624 1 0 1
0.03105924 -0.02894102 0.1610281 1 0 1
0.03218523 -0.02883034 0.1609903 1 0 1
0.03331092 -0.02871731 0.1609486 1 0 1
0.03436458 -0.02829559 0.159954 1 0 1
0.03541023 -0.02787228 0.1589558 1 0 1
0.03644784 -0.02744738 0.1579542 1 0 1
0.0375606 -0.02732599 0.1578979 1 0 1
0.03867303 -0.02720223 0.1578378 1 0 1
0.03969411 -0.02677188 0.1568256 1 0 1
0.04080187 -0.02664381 0.1567581 1 0 1
0.04200788 -0.02681661 0.1576347 1 0 1
0.04301615 -0.02638054 0.1566119 1 0 1
0.04412263 -0.02624535 0.1565331 1 0 1
0.04533875 -0.02640969 0.1573976 1 0 1
0.04644813 -0.02626929 0.157311 1 0 1
0.04755698 -0.02612651 0.1572206 1 0 1
0.04878699 -0.02628177 0.1580724 1 0 1
0.05002413 -0.02643364 0.1589198 1 0 1
0.05126837 -0.02658208 0.1597627 1 0 1
0.05251973 -0.0267271 0.1606011 1 0 1
0.05377811 -0.02686865 0.1614349 1 0 1
0.05504355 -0.02700674 0.162264 1 0 1
0.05617139 -0.02684411 0.1621448 1 0 1
0.05729859 -0.02667904 0.1620216 1 0 1
0.05812052 -0.02591949 0.1600087 1 0 1
0.05892656 -0.02515983 0.1579937 1 0 1
0.05987653 -0.02469498 0.1569188 1 0 1
0.06081819 -0.02422898 0.155841 1 0 1
0.06175154 -0.02376177 0.1547604 1 0 1
0.06284788 -0.02358657 0.1546176 1 0 1
0.06394351 -0.02340899 0.154471 1 0 1
0.06521732 -0.02352095 0.1552602 1 0 1
0.06631526 -0.02333809 0.1551056 1 0 1
0.06741233 -0.02315287 0.1549472 1 0 1
0.06831831 -0.02267534 0.1538471 1 0 1
0.06941003 -0.02248605 0.1536817 1 0 1
0.07050093 -0.02229445 0.1535126 1 0 1
0.07138927 -0.02181257 0.1524036 1 0 1
0.07247468 -0.02161695 0.1522276 1 0 1
0.07355921 -0.02141902 0.1520478 1 0 1
0.07464289 -0.02121878 0.1518643 1 0 1
0.07572564 -0.02101617 0.1516771 1 0 1
0.07702805 -0.02109573 0.1524191 1 0 1
0.07833706 -0.02117152 0.153156 1 0 1
0.07965267 -0.02124351 0.1538877 1 0 1
0.08074299 -0.02102941 0.1536834 1 0 1
0.08206791 -0.02109453 0.1544055 1 0 1
0.08363876 -0.02143648 0.1560519 1 0 1
0.08498041 -0.02149309 0.1567627 1 0 1
0.0865754 -0.02182503 0.1583962 1 0 1
0.08793369 -0.02187301 0.1590956 1 0 1
0.08955278 -0.02219471 0.160716 1 0 1
0.09041138 -0.02168023 0.1595526 1 0 1
0.0909996 -0.02088885 0.1574621 1 0 1
-0.131136 -0.0182674 0.1210963 1 0 1
-0.1306607 -0.01879018 0.1224265 1 0 1
-0.1306703 -0.01958778 0.1245818 1 0 1
-0.1296836 -0.01983394 0.1250875 1 0 1
-0.1286948 -0.02007782 0.1255899 1 0 1
-0.127704 -0.02031935 0.126089 1 0 1
-0.1267111 -0.02055856 0.1265847 1 0 1
-0.1257162 -0.02079547 0.127077 1 0 1
-0.1251927 -0.02131036 0.1284011 1 0 1
-0.1251301 -0.02210566 0.1305619 1 0 1
-0.1236524 -0.02205603 0.1302107 1 0 1
-0.1198643 -0.020589 0.1256527 1 0 1
-0.1188732 -0.02081114 0.1261217 1 0 1
-0.1183363 -0.02131523 0.1274306 1 0 1
-0.1191489 -0.02267351 0.1312741 1 0 1
-0.1176854 -0.02260677 0.1308945 1 0 1
-0.1162271 -0.02253621 0.1305084 1 0 1
-0.1147738 -0.02246185 0.1301158 1 0 1
-0.1133255 -0.02238369 0.1297166 1 0 1
-0.1114471 -0.02201317 0.1284582 1 0 1
-0.1100126 -0.02192682 0.1280446 1 0 1
-0.1090117 -0.02212682 0.1284803 1 0 1
-0.1075841 -0.02203378 0.1280553 1 0 1
-0.1065832 -0.02222851 0.1284828 1 0 1
-0.1055805 -0.02242096 0.128907 1 0 1
-0.1041618 -0.0223183 0.128466 1 0 1
-0.1031591 -0.02250552 0.128882 1 0 1
-0.1021548 -0.02269038 0.1292946 1 0 1
-0.1015525 -0.02316771 0.1305699 1 0 1
-0.1005412 -0.02334867 0.1309772 1 0 1
-0.09952825 -0.02352731 0.1313811 1 0 1
-0.0985137 -0.02370365 0.1317817 1 0 1
-0.09788693 -0.02417491 0.1330505 1 0 1
-0.09686553 -0.02434724 0.1334456 1 0 1
-0.09622484 -0.02481568 0.1347118 1 0 1
-0.09557535 -0.02528295 0.1359773 1 0 1
-0.09529226 -0.02604868 0.1381193 1 0 1
-0.09425011 -0.026214 0.138506 1 0 1
-0.09320639 -0.02637699 0.1388893 1 0 1
-0.09216108 -0.02653765 0.139269 1 0 1
-0.08967129 -0.02548872 0.1361153 1 0 1
-0.08685175 -0.02413076 0.1320641 1 0 1
-0.08442043 -0.02306809 0.1288817 1 0 1
-0.08201663 -0.02199894 0.1256858 1 0 1
-0.07998674 -0.02122736 0.1233642 1 0 1
-0.07763462 -0.0201461 0.120143 1 0 1
-0.07598821 -0.01966847 0.1186887 1 0 1
-0.0743551 -0.01918673 0.1172264 1 0 1
-0.07306695 -0.01900679 0.1166485 1 0 1
-0.07145682 -0.0185174 0.1151714 1 0 1
-0.07018439 -0.01833087 0.1145812 1 0 1
-0.0689181 -0.0181413 0.1139855 1 0 1
-0.06765794 -0.0179487 0.1133843 1 0 1
-0.0664039 -0.01775314 0.1127778 1 0 1
-0.06546571 -0.0178632 0.1130651 1 0 1
-0.06422041 -0.01766218 0.1124489 1 0 1
-0.06358591 -0.01807706 0.1136305 1 0 1
-0.06264428 -0.01818088 0.1139085 1 0 1
-0.06170155 -0.01828258 0.1141833 1 0 1
-0.0607577 -0.0183822 0.114455 1 0 1
-0.06010028 -0.01879073 0.1156294 1 0 1
-0.05886673 -0.01857514 0.1149889 1 0 1
-0.05791964 -0.01866848 0.1152511 1 0 1
-0.05669517 -0.01844762 0.1146012 1 0 1
-0.05574972 -0.01853641 0.1148561 1 0 1
-0.05426541 -0.01799755 0.1132858 1 0 1
-0.05332541 -0.01808148 0.1135324 1 0 1
-0.05160007 -0.017223 0.1110372 1 0 1
-0.0501539 -0.01667429 0.1094469 1 0 1
-0.04491224 -0.01141109 0.0941278 1 0 1
-0.03779523 -0.00362061 0.07144822 1 0 1
0.0239867 -0.006307708 0.0877046 1 0 1
0.02988358 -0.02951875 0.1588047 1 0 1
0.03118365 -0.03034452 0.1616165 1 0 1
0.03231398 -0.03023329 0.1615787 1 0 1
0.03351206 -0.03043001 0.1624853 1 0 1
0.03464562 -0.0303135 0.1624397 1 0 1
0.03570305 -0.02988502 0.1614424 1 0 1
0.03667281 -0.02914574 0.159494 1 0 1
0.03779379 -0.02902325 0.1594375 1 0 1
0.03891436 -0.02889836 0.1593771 1 0 1
0.03994336 -0.02846318 0.1583659 1 0 1
0.04105929 -0.02833394 0.1582982 1 0 1
0.04217481 -0.02820228 0.1582266 1 0 1
0.04318713 -0.02776177 0.157205 1 0 1
0.04429791 -0.02762583 0.1571262 1 0 1
0.04540821 -0.02748754 0.1570436 1 0 1
0.04651798 -0.02734688 0.1569572 1 0 1
0.0476273 -0.02720381 0.156867 1 0 1
0.04885798 -0.02736252 0.1577178 1 0 1
0.04997008 -0.02721419 0.1576197 1 0 1
0.05134078 -0.02766967 0.1594061 1 0 1
0.05259282 -0.0278181 0.1602434 1 0 1
0.05385195 -0.02796306 0.1610762 1 0 1
0.05511811 -0.02810451 0.1619043 1 0 1
0.05668109 -0.02884432 0.164613 1 0 1
0.05782022 -0.02867724 0.1644889 1 0 1
0.05865358 -0.02790819 0.1624773 1 0 1
0.05947097 -0.02713902 0.1604636 1 0 1
0.0602724 -0.02636975 0.1584479 1 0 1
0.06122188 -0.02589852 0.1573707 1 0 1
0.06199522 -0.0251286 0.1553506 1 0 1
0.06309582 -0.02495246 0.1552076 1 0 1
0.0643711 -0.0250701 0.1559995 1 0 1
0.065474 -0.02488858 0.1558484 1 0 1
0.06657615 -0.0247047 0.1556935 1 0 1
0.0676775 -0.02451847 0.1555348 1 0 1
0.06858745 -0.02403623 0.1544356 1 0 1
0.0696834 -0.0238459 0.1542699 1 0 1
0.07077848 -0.02365326 0.1541004 1 0 1
0.07167076 -0.02316662 0.1529923 1 0 1
0.07276039 -0.02296992 0.1528159 1 0 1
0.07405869 -0.02306117 0.1535695 1 0 1
0.07493699 -0.02256957 0.1524519 1 0 1
0.07602395 -0.02236588 0.1522643 1 0 1
0.07733086 -0.02244799 0.1530047 1 0 1
0.07864437 -0.02252634 0.15374 1 0 1
0.07973604 -0.02231419 0.1535397 1 0 1
0.08082676 -0.02209965 0.1533357 1 0 1
0.08191648 -0.02188281 0.1531279 1 0 1
0.08324492 -0.02194807 0.1538446 1 0 1
0.08457982 -0.02200941 0.154556 1 0 1
0.08616833 -0.02234981 0.1561889 1 0 1
0.08751987 -0.0224026 0.156889 1 0 1
0.08938711 -0.0230141 0.159434 1 0 1
0.09101731 -0.02333793 0.1610461 1 0 1
0.09213702 -0.02309662 0.1608038 1 0 1
-0.1306438 -0.01904781 0.1199159 1 0 1
-0.1301715 -0.01957386 0.121243 1 0 1
-0.1301841 -0.02037843 0.1233939 1 0 1
-0.1292003 -0.02062424 0.1238977 1 0 1
-0.1287014 -0.02114847 0.1252252 1 0 1
-0.1277101 -0.02139048 0.1257241 1 0 1
-0.1267168 -0.02163018 0.1262197 1 0 1
-0.1252447 -0.02158431 0.1258797 1 0 1
-0.124724 -0.02210257 0.1272007 1 0 1
-0.1237247 -0.02233528 0.1276861 1 0 1
-0.1208572 -0.02142326 0.1248197 1 0 1
-0.1175522 -0.02021628 0.121098 1 0 1
-0.1179567 -0.02129649 0.1240799 1 0 1
-0.1178825 -0.02209106 0.1262262 1 0 1
-0.1186981 -0.0234637 0.1300628 1 0 1
-0.1172377 -0.02339297 0.1296828 1 0 1
-0.1157823 -0.02331843 0.1292962 1 0 1
-0.1147743 -0.02353097 0.1297515 1 0 1
-0.1133256 -0.02344954 0.1293535 1 0 1
-0.1114466 -0.02307205 0.1280974 1 0 1
-0.1104436 -0.02327545 0.1285379 1 0 1
-0.1090104 -0.02318281 0.1281205 1 0 1
-0.1080072 -0.02338092 0.1285528 1 0 1
-0.1065809 -0.02328159 0.1281241 1 0 1
-0.1055778 -0.02347439 0.1285481 1 0 1
-0.1041586 -0.02336845 0.1281083 1 0 1
-0.1031555 -0.02355601 0.1285241 1 0 1
-0.1021507 -0.02374127 0.1289366 1 0 1
-0.1011442 -0.02392424 0.1293457 1 0 1
-0.100136 -0.02410494 0.1297515 1 0 1
-0.0987296 -0.02398363 0.1292861 1 0 1
-0.09811468 -0.02445938 0.1305528 1 0 1
-0.09749103 -0.02493406 0.131819 1 0 1
-0.09647273 -0.02510616 0.1322126 1 0 1
-0.09621741 -0.02588016 0.1343493 1 0 1
-0.09594615 -0.0266542 0.1364881 1 0 1
-0.09528378 -0.02712496 0.1377528 1 0 1
-0.09386966 -0.0269868 0.1372622 1 0 1
-0.09282904 -0.02714956 0.137644 1 0 1
-0.09105825 -0.02670001 0.1362625 1 0 1
-0.08893963 -0.02594041 0.1339911 1 0 1
-0.08648414 -0.02486918 0.1308261 1 0 1
-0.08405612 -0.02379141 0.1276474 1 0 1
-0.08165567 -0.02270715 0.1244553 1 0 1
-0.07962906 -0.02192417 0.1221361 1 0 1
-0.07728032 -0.02082781 0.1189186 1 0 1
-0.07597616 -0.02065113 0.1183544 1 0 1
-0.07434269 -0.02016221 0.1168946 1 0 1
-0.07305414 -0.01997879 0.1163178 1 0 1
-0.07177164 -0.0197923 0.1157356 1 0 1
-0.07049521 -0.01960273 0.1151478 1 0 1
-0.06890423 -0.01909913 0.1136598 1 0 1
-0.06796063 -0.01921449 0.1139557 1 0 1
-0.06670257 -0.01901586 0.1133514 1 0 1
-0.06576029 -0.01912661 0.1136399 1 0 1
-0.06481685 -0.01923523 0.1139252 1 0 1
-0.06387223 -0.01934175 0.1142074 1 0 1
-0.06292651 -0.01944618 0.1144865 1 0 1
-0.06197963 -0.0195485 0.1147623 1 0 1
-0.06103166 -0.01964872 0.115035 1 0 1
-0.06008258 -0.01974684 0.1153046 1 0 1
-0.05884871 -0.01952769 0.1146653 1 0 1
-0.05790119 -0.01962122 0.1149275 1 0 1
-0.05695263 -0.01971265 0.1151865 1 0 1
-0.05573047 -0.01948578 0.1145337 1 0 1
-0.05397707 -0.01862308 0.1120563 1 0 1
-0.05277526 -0.01838999 0.1113912 1 0 1
-0.05157995 -0.01815417 0.1107211 1 0 1
-0.04961827 -0.01696314 0.1073082 1 0 1
0.03136941 -0.0320688 0.1631452 1 0 1
0.03257234 -0.03227111 0.1640545 1 0 1
0.03371438 -0.03215602 0.1640126 1 0 1
0.03478399 -0.03172477 0.1630201 1 0 1
0.03584553 -0.03129192 0.1620241 1 0 1
0.03689903 -0.03085742 0.1610246 1 0 1
0.03794442 -0.03042132 0.1600216 1 0 1
0.03898176 -0.02998367 0.1590152 1 0 1
0.04010239 -0.02985614 0.1589513 1 0 1
0.04112735 -0.02941503 0.1579379 1 0 1
0.04224333 -0.0292831 0.1578666 1 0 1
0.04335883 -0.02914885 0.1577914 1 0 1
0.04447391 -0.02901218 0.1577125 1 0 1
0.04558849 -0.02887309 0.1576298 1 0 1
0.04670257 -0.02873166 0.1575433 1 0 1
0.04781616 -0.02858783 0.157453 1 0 1
0.04892923 -0.0284416 0.1573589 1 0 1
0.05016777 -0.02860033 0.1582042 1 0 1
0.05141341 -0.02875562 0.1590451 1 0 1
0.05266618 -0.02890745 0.1598814 1 0 1
0.05392598 -0.02905582 0.1607132 1 0 1
0.05533416 -0.02950589 0.162482 1 0 1
0.05661187 -0.02964666 0.1633041 1 0 1
0.0580456 -0.03008798 0.1650625 1 0 1
0.05903551 -0.02961407 0.1639937 1 0 1
0.05970385 -0.02853306 0.1610418 1 0 1
0.06050904 -0.02775543 0.1590283 1 0 1
0.06129829 -0.02697778 0.1570129 1 0 1
0.06223958 -0.02650128 0.1559342 1 0 1
0.06334444 -0.02632413 0.1557909 1 0 1
0.06462422 -0.02644453 0.1565814 1 0 1
0.06573138 -0.02626206 0.15643 1 0 1
0.06665446 -0.02577851 0.1553382 1 0 1
0.06775624 -0.02559193 0.1551798 1 0 1
0.06866634 -0.02510559 0.154082 1 0 1
0.0697627 -0.02491489 0.1539166 1 0 1
0.07085827 -0.02472185 0.1537474 1 0 1
0.07195292 -0.02452647 0.1535744 1 0 1
0.07284073 -0.02403401 0.1524645 1 0 1
0.07413971 -0.0241286 0.1532171 1 0 1
0.07523176 -0.02392614 0.1530329 1 0 1
0.07632293 -0.02372134 0.1528449 1 0 1
0.07741317 -0.02351423 0.1526531 1 0 1
0.07872739 -0.0235958 0.1533874 1 0 1
0.0798195 -0.02338322 0.1531874 1 0 1
0.08091062 -0.0231683 0.1529837 1 0 1
0.08200076 -0.02295102 0.1527762 1 0 1
0.08332988 -0.02301951 0.1534919 1 0 1
0.0846655 -0.02308414 0.1542024 1 0 1
0.08625504 -0.02343143 0.1558332 1 0 1
0.08785849 -0.02377327 0.1574571 1 0 1
0.08947588 -0.02410955 0.1590741 1 0 1
0.09110707 -0.02444026 0.160684 1 0 1
0.09248966 -0.0244819 0.1613645 1 0 1
-0.1306512 -0.0201003 0.1195529 1 0 1
-0.1301784 -0.02063051 0.1208786 1 0 1
-0.1296967 -0.02116015 0.1222044 1 0 1
-0.1287159 -0.02140556 0.1227062 1 0 1
-0.12822 -0.02193312 0.1240307 1 0 1
-0.126748 -0.02188952 0.1237001 1 0 1
-0.1252808 -0.021842 0.1233629 1 0 1
-0.1233416 -0.02150365 0.1221881 1 0 1
-0.1223608 -0.02173509 0.1226684 1 0 1
-0.1204382 -0.0213873 0.1214769 1 0 1
-0.1175942 -0.02045552 0.1186038 1 0 1
-0.1170913 -0.02096546 0.1199019 1 0 1
-0.1188778 -0.02292877 0.1253956 1 0 1
-0.1187963 -0.0237327 0.1275425 1 0 1
-0.118699 -0.02453731 0.1296924 1 0 1
-0.1172381 -0.02446334 0.1293135 1 0 1
-0.1162281 -0.02467934 0.1297735 1 0 1
-0.1147738 -0.02459847 0.1293831 1 0 1
-0.1133247 -0.02451378 0.1289862 1 0 1
-0.1114453 -0.02412932 0.1277326 1 0 1
-0.1104418 -0.02433314 0.1281729 1 0 1
-0.1090081 -0.02423721 0.1277567 1 0 1
-0.1075796 -0.02413759 0.127334 1 0 1
-0.1065777 -0.02433306 0.1277613 1 0 1
-0.1051563 -0.02422679 0.1273274 1 0 1
-0.1041545 -0.02441704 0.1277465 1 0 1
-0.1031509 -0.02460495 0.1281622 1 0 1
-0.1021456 -0.02479059 0.1285746 1 0 1
-0.1011387 -0.02497393 0.1289836 1 0 1
-0.1001301 -0.02515496 0.1293892 1 0 1
-0.09911977 -0.0253337 0.1297915 1 0 1
-0.09810784 -0.02551015 0.1301904 1 0 1
-0.09748367 -0.02598888 0.1314551 1 0 1
-0.09685076 -0.02646654 0.1327193 1 0 1
-0.0958268 -0.02663724 0.1331107 1 0 1
-0.09555858 -0.02741843 0.1352455 1 0 1
-0.09564953 -0.02850663 0.1382569 1 0 1
-0.09385987 -0.02805807 0.1368927 1 0 1
-0.09171512 -0.0272968 0.1346425 1 0 1
-0.08995475 -0.0268385 0.1332595 1 0 1
-0.08784661 -0.02606646 0.130988 1 0 1
-0.08575871 -0.02528884 0.1287053 1 0 1
-0.08369109 -0.02450577 0.1264117 1 0 1
-0.08129399 -0.02340641 0.1232233 1 0 1
-0.0792707 -0.02261206 0.1209067 1 0 1
-0.07726786 -0.02181243 0.1185793 1 0 1
-0.07596331 -0.02163232 0.1180163 1 0 1
-0.0743295 -0.02113625 0.1165589 1 0 1
-0.07304059 -0.02094936 0.1159834 1 0 1
-0.07208563 -0.0210732 0.1162935 1 0 1
-0.0704809 -0.02056636 0.1148158 1 0 1
-0.06921018 -0.02037028 0.1142237 1 0 1
-0.06826251 -0.02048633 0.1145207 1 0 1
-0.06700039 -0.02028464 0.1139188 1 0 1
-0.06574446 -0.02008 0.1133116 1 0 1
-0.06480059 -0.02018885 0.1135969 1 0 1
-0.06415773 -0.02061249 0.1147781 1 0 1
-0.06290939 -0.02040022 0.114158 1 0 1
-0.0619621 -0.02050273 0.1144338 1 0 1
-0.06101372 -0.02060317 0.1147065 1 0 1
-0.06035157 -0.02101994 0.1158794 1 0 1
-0.05911364 -0.02079768 0.1152424 1 0 1
-0.05844192 -0.02121096 0.116411 1 0 1
-0.05748548 -0.0213033 0.116672 1 0 1
-0.05598304 -0.02075368 0.115115 1 0 1
-0.05341948 -0.01891947 0.1099172 1 0 1
-0.05142974 -0.01772033 0.1065233 1 0 1
-0.04842381 -0.01523281 0.09947719 1 0 1
0.03155635 -0.03380639 0.1646647 1 0 1
0.03263838 -0.03337491 0.163681 1 0 1
0.03391794 -0.03389532 0.1655306 1 0 1
0.03499549 -0.03345931 0.1645392 1 0 1
0.03606499 -0.03302163 0.1635443 1 0 1
0.0371264 -0.03258234 0.1625459 1 0 1
0.03809581 -0.03182526 0.160599 1 0 1
0.0391372 -0.03138321 0.1595939 1 0 1
0.04026214 -0.03125494 0.1595298 1 0 1
0.04129118 -0.03080939 0.1585177 1 0 1
0.04241144 -0.03067679 0.1584463 1 0 1
0.04353124 -0.03054179 0.1583711 1 0 1
0.04465062 -0.03040436 0.1582921 1 0 1
0.04565861 -0.02995149 0.157266 1 0 1
0.04677313 -0.02980977 0.1571797 1 0 1
0.04800573 -0.02997771 0.1580323 1 0 1
0.04900068 -0.02951913 0.1569957 1 0 1
0.05023993 -0.02968125 0.15784 1 0 1
0.05148628 -0.02983997 0.1586799 1 0 1
0.05260579 -0.02968521 0.1585739 1 0 1
0.05386247 -0.02983749 0.1594049 1 0 1
0.0551262 -0.0299863 0.1602314 1 0 1
0.05625157 -0.02982325 0.1601132 1 0 1
0.05782399 -0.0305811 0.1628102 1 0 1
0.0589595 -0.03041152 0.162683 1 0 1
0.05978056 -0.02962623 0.1606743 1 0 1
0.06074638 -0.02914692 0.159602 1 0 1
0.06153934 -0.02836089 0.1575888 1 0 1
0.06248463 -0.02787975 0.1565111 1 0 1
0.06359375 -0.02770163 0.1563675 1 0 1
0.06487802 -0.02782477 0.1571565 1 0 1
0.06598942 -0.02764126 0.1570048 1 0 1
0.06691648 -0.02715303 0.155914 1 0 1
0.06802247 -0.0269654 0.1557552 1 0 1
0.06893652 -0.02647435 0.1546584 1 0 1
0.07003711 -0.02628264 0.1544926 1 0 1
0.07113688 -0.02608853 0.154323 1 0 1
0.07223577 -0.02589206 0.1541497 1 0 1
0.07312749 -0.02539489 0.1530408 1 0 1
0.07422087 -0.02519439 0.1528605 1 0 1
0.07531334 -0.02499155 0.1526766 1 0 1
0.07618724 -0.02449009 0.1515588 1 0 1
0.07749557 -0.02457878 0.1522973 1 0 1
0.07881048 -0.02466369 0.1530306 1 0 1
0.07967404 -0.0241566 0.151903 1 0 1
0.08076182 -0.02394201 0.1517002 1 0 1
0.08184863 -0.02372506 0.1514937 1 0 1
0.0829344 -0.02350576 0.1512834 1 0 1
0.08426321 -0.02357515 0.1519944 1 0 1
0.08584628 -0.02393089 0.1536245 1 0 1
0.08744324 -0.0242812 0.1552478 1 0 1
0.08930939 -0.02491462 0.157787 1 0 1
0.09093787 -0.02525298 0.1593955 1 0 1
0.09231746 -0.02529866 0.1600759 1 0 1
-0.1296563 -0.02058187 0.1175507 1 0 1
-0.129687 -0.02140001 0.1196907 1 0 1
-0.1292083 -0.02193291 0.1210133 1 0 1
-0.1282304 -0.022178 0.1215133 1 0 1
-0.1272504 -0.02242074 0.12201 1 0 1
-0.1262684 -0.02266121 0.1225034 1 0 1
-0.1248041 -0.02260964 0.1221655 1 0 1
-0.1233447 -0.02255415 0.121821 1 0 1
-0.1223635 -0.02278606 0.1223011 1 0 1
-0.1204403 -0.02243141 0.1211121 1 0 1
-0.1194621 -0.02265711 0.1215823 1 0 1
-0.1184819 -0.02288056 0.1220492 1 0 1
-0.1188787 -0.02398517 0.1250264 1 0 1
-0.1187967 -0.02479682 0.1271705 1 0 1
-0.1186989 -0.02560927 0.1293178 1 0 1
-0.1172376 -0.02553203 0.12894 1 0 1
-0.1157813 -0.02545096 0.1285556 1 0 1
-0.1147724 -0.02566433 0.1290106 1 0 1
-0.1133227 -0.02557641 0.1286148 1 0 1
-0.1118783 -0.02548467 0.1282126 1 0 1
-0.1108708 -0.0256896 0.1286544 1 0 1
-0.1094332 -0.02559112 0.1282407 1 0 1
-0.1080008 -0.02548888 0.1278207 1 0 1
-0.1069949 -0.02568546 0.1282494 1 0 1
-0.1055695 -0.02557657 0.1278182 1 0 1
-0.1045637 -0.02576782 0.1282386 1 0 1
-0.1031454 -0.02565232 0.1277963 1 0 1
-0.1021397 -0.02583833 0.1282085 1 0 1
-0.1011323 -0.02602203 0.1286174 1 0 1
-0.1001232 -0.02620344 0.129023 1 0 1
-0.09871593 -0.02607542 0.1285599 1 0 1
-0.09810005 -0.02655929 0.1298239 1 0 1
-0.09747542 -0.02704207 0.1310872 1 0 1
-0.09684201 -0.02752377 0.13235 1 0 1
-0.0958176 -0.02769484 0.1327413 1 0 1
-0.09592752 -0.02879389 0.1357455 1 0 1
-0.09526417 -0.02927269 0.1370074 1 0 1
-0.09236335 -0.02788274 0.1330203 1 0 1
-0.09096838 -0.02773206 0.1325206 1 0 1
-0.08957907 -0.02757794 0.1320149 1 0 1
-0.08711363 -0.02648162 0.1288672 1 0 1
-0.08538961 -0.0260056 0.1274657 1 0 1
-0.0833253 -0.02521116 0.1251746 1 0 1
-0.08058183 -0.02378221 0.1211076 1 0 1
-0.07891162 -0.02329102 0.119676 1 0 1
-0.07725462 -0.0227956 0.1182361 1 0 1
-0.07594971 -0.02261203 0.1176743 1 0 1
-0.07465073 -0.02242534 0.1171069 1 0 1
-0.07368931 -0.02255254 0.1174224 1 0 1
-0.07239874 -0.02236005 0.116845 1 0 1
-0.07079004 -0.02184648 0.1153711 1 0 1
-0.06951531 -0.02164741 0.1147814 1 0 1
-0.06856353 -0.02176416 0.1150795 1 0 1
-0.06729737 -0.02155943 0.11448 1 0 1
-0.06603739 -0.02135171 0.1138751 1 0 1
-0.06508942 -0.02146123 0.1141615 1 0 1
-0.06414028 -0.02156858 0.1144447 1 0 1
-0.06319001 -0.02167385 0.1147247 1 0 1
-0.06223859 -0.02177697 0.1150016 1 0 1
-0.06128608 -0.021878 0.1152753 1 0 1
-0.06061973 -0.0222991 0.1164479 1 0 1
-0.0596613 -0.02239624 0.1167163 1 0 1
-0.0587018 -0.02249126 0.1169815 1 0 1
-0.05718897 -0.02193757 0.1154333 1 0 1
-0.05541757 -0.02105663 0.1129717 1 0 1
-0.05232421 -0.01855158 0.1059656 1 0 1
-0.04875972 -0.01539038 0.09712438 1 0 1
0.03107329 -0.03201127 0.1557835 1 0 1
0.03225056 -0.03222322 0.1566915 1 0 1
0.03364146 -0.03339678 0.1604285 1 0 1
0.03477255 -0.03327999 0.1603836 1 0 1
0.03590332 -0.03316075 0.1603349 1 0 1
0.03703372 -0.03303909 0.1602823 1 0 1
0.03816374 -0.03291504 0.1602259 1 0 1
0.03920537 -0.03246899 0.1592222 1 0 1
0.04033076 -0.0323405 0.1591583 1 0 1
0.04145573 -0.03220956 0.1590907 1 0 1
0.04258029 -0.03207624 0.1590193 1 0 1
0.04370442 -0.03194049 0.158944 1 0 1
0.04482808 -0.03180233 0.1588649 1 0 1
0.04584009 -0.03134499 0.15784 1 0 1
0.04695891 -0.03120248 0.1577536 1 0 1
0.04807724 -0.03105759 0.1576634 1 0 1
0.04919506 -0.03091024 0.1575694 1 0 1
0.05043879 -0.03107528 0.1584123 1 0 1
0.05155934 -0.03092264 0.1583103 1 0 1
0.05267928 -0.0307676 0.1582046 1 0 1
0.05379862 -0.03061015 0.158095 1 0 1
0.05505925 -0.0307629 0.1589209 1 0 1
0.05618122 -0.03060006 0.1588032 1 0 1
0.05745203 -0.03074628 0.1596202 1 0 1
0.05888313 -0.03119991 0.1613705 1 0 1
0.06001463 -0.03102809 0.1612401 1 0 1
0.06114541 -0.03085385 0.1611059 1 0 1
0.06178108 -0.0297498 0.1581579 1 0 1
0.06306756 -0.02988103 0.1589535 1 0 1
0.06401613 -0.02939282 0.157873 1 0 1
0.06513251 -0.02921075 0.1577249 1 0 1
0.06624812 -0.02902625 0.1575729 1 0 1
0.06717914 -0.02853331 0.156483 1 0 1
0.06828938 -0.02834468 0.1563239 1 0 1
0.06920741 -0.02784887 0.1552281 1 0 1
0.07031221 -0.02765612 0.155062 1 0 1
0.07141617 -0.02746097 0.1548921 1 0 1
0.07251928 -0.02726345 0.1547184 1 0 1
0.07341491 -0.02676151 0.1536103 1 0 1
0.0745125 -0.02655994 0.1534297 1 0 1
0.07560918 -0.02635595 0.1532453 1 0 1
0.076487 -0.0258497 0.1521285 1 0 1
0.07757802 -0.02564175 0.1519372 1 0 1
0.07866815 -0.02543144 0.1517422 1 0 1
0.07975734 -0.02521874 0.1515435 1 0 1
0.08084553 -0.02500372 0.151341 1 0 1
0.08169594 -0.02449009 0.1502094 1 0 1
0.08301898 -0.0245666 0.1509247 1 0 1
0.08434848 -0.02463923 0.1516348 1 0 1
0.0859325 -0.02500189 0.1532627 1 0 1
0.08727869 -0.02506591 0.1539615 1 0 1
0.08914237 -0.02571069 0.156498 1 0 1
0.09076812 -0.02605675 0.1581052 1 0 1
0.09240773 -0.02639713 0.1597054 1 0 1
-0.1281598 -0.02075896 0.1147333 1 0 1
-0.127703 -0.02129307 0.1160472 1 0 1
-0.1277312 -0.0221167 0.1181812 1 0 1
-0.126763 -0.02235972 0.1186758 1 0 1
-0.1262798 -0.02289214 0.1199904 1 0 1
-0.1257877 -0.02342392 0.1213051 1 0 1
-0.1248066 -0.02366171 0.1217933 1 0 1
-0.1233468 -0.023603 0.1214499 1 0 1
-0.1223651 -0.02383539 0.1219299 1 0 1
-0.1209115 -0.02376965 0.1215749 1 0 1
-0.1194628 -0.02370001 0.1212133 1 0 1
-0.118019 -0.02362651 0.1208451 1 0 1
-0.1184189 -0.02474179 0.1238167 1 0 1
-0.1183398 -0.02556045 0.1259564 1 0 1
-0.1182451 -0.02637987 0.1280993 1 0 1
-0.117236 -0.02659908 0.1285624 1 0 1
-0.1157793 -0.02651478 0.1281792 1 0 1
-0.1143276 -0.02642665 0.1277895 1 0 1
-0.112881 -0.02633473 0.1273934 1 0 1
-0.1114396 -0.02623904 0.1269907 1 0 1
-0.1104352 -0.02644366 0.1274308 1 0 1
-0.1094289 -0.02664598 0.1278675 1 0 1
-0.1079961 -0.02654046 0.1274487 1 0 1
