ply
format ascii 1.0
Comment Generated by Floating Hands
element vertex 1279
property double x
property double y
property double z
property uchar red
property uchar green
property uchar blue
end_header
0.2193351 -0.02845556 0.6581197 1 0 1
0.2203098 -0.02712274 0.6506811 1 0 1
0.2237027 -0.02675089 0.6518461 1 0 1
0.2268285 -0.02626489 0.6520422 1 0 1
0.2291127 -0.02545713 0.6493648 1 0 1
0.2316647 -0.02475073 0.6476335 1 0 1
0.233917 -0.02393679 0.6449421 1 0 1
0.2358589 -0.02301788 0.6412937 1 0 1
0.1569413 -0.0438063 0.678172 1 0 1
0.1708925 -0.04095299 0.6716102 1 0 1
0.1738251 -0.04046561 0.6710454 1 0 1
0.1761167 -0.03960674 0.6675617 1 0 1
0.1790333 -0.03910942 0.6669781 1 0 1
0.1826078 -0.03896806 0.6692877 1 0 1
0.186202 -0.03881678 0.6715822 1 0 1
0.1891327 -0.03829806 0.6709622 1 0 1
0.191367 -0.03741764 0.6674347 1 0 1
0.1935767 -0.03653517 0.6639012 1 0 1
0.1964772 -0.03600288 0.6632542 1 0 1
0.1993749 -0.03546466 0.6625966 1 0 1
0.2000571 -0.03387729 0.6532675 1 0 1
0.2036648 -0.03367935 0.6554812 1 0 1
0.2080508 -0.03381501 0.6605611 1 0 1
0.2101665 -0.03291196 0.6569821 1 0 1
0.2130386 -0.03234682 0.6562747 1 0 1
0.2159076 -0.03177586 0.6555567 1 0 1
0.2182382 -0.03097559 0.6529143 1 0 1
0.2186518 -0.02939633 0.6435726 1 0 1
0.2228465 -0.02936689 0.6476094 1 0 1
0.2254027 -0.02866769 0.6459011 1 0 1
0.2271018 -0.02763841 0.6413249 1 0 1
0.2301979 -0.02714882 0.6415072 1 0 1
0.2332979 -0.02665208 0.6416771 1 0 1
0.2346437 -0.02551004 0.6361338 1 0 1
0.1719277 -0.04456557 0.6750468 1 0 1
0.1769712 -0.04307499 0.6700264 1 0 1
0.1792502 -0.04219948 0.6665366 1 0 1
0.1834888 -0.04244214 0.6717474 1 0 1
0.186424 -0.04192828 0.6711385 1 0 1
0.1893565 -0.04140855 0.6705191 1 0 1
0.1908974 -0.04014776 0.6640986 1 0 1
0.1938025 -0.03962021 0.6634628 1 0 1
0.1967047 -0.03908681 0.6628164 1 0 1
0.1988767 -0.03818614 0.6592716 1 0 1
0.2010239 -0.03728366 0.6557212 1 0 1
0.2046451 -0.03709422 0.6579311 1 0 1
0.2082853 -0.03689474 0.6601256 1 0 1
0.2104018 -0.03597901 0.6565491 1 0 1
0.2132757 -0.03541265 0.6558422 1 0 1
0.2161465 -0.03484055 0.6551249 1 0 1
0.2184781 -0.03403166 0.6524844 1 0 1
0.219434 -0.03264578 0.6450593 1 0 1
0.2236392 -0.03263312 0.6490921 1 0 1
0.2256462 -0.03170098 0.6454759 1 0 1
0.2267808 -0.03042994 0.6389973 1 0 1
0.2298716 -0.02994462 0.6391817 1 0 1
0.2332562 -0.0295631 0.6403045 1 0 1
0.2345985 -0.02840131 0.6347656 1 0 1
0.1713172 -0.04715933 0.6707081 1 0 1
0.1742533 -0.04667003 0.6701444 1 0 1
0.1765469 -0.0457858 0.6666652 1 0 1
0.1801182 -0.04567358 0.6689855 1 0 1
0.1837091 -0.04555165 0.6712906 1 0 1
0.1911213 -0.04323098 0.6636471 1 0 1
0.1940281 -0.04270228 0.6630118 1 0 1
0.1976495 -0.0425431 0.6652548 1 0 1
0.1998332 -0.04162765 0.6617097 1 0 1
0.2012531 -0.04033931 0.6552756 1 0 1
0.2056271 -0.04052951 0.6603656 1 0 1
0.2085197 -0.0399716 0.6596779 1 0 1
0.210637 -0.03904315 0.6561037 1 0 1
0.2135126 -0.03847569 0.6553975 1 0 1
0.2163851 -0.03790252 0.6546809 1 0 1
0.2181812 -0.03684587 0.6501302 1 0 1
0.2199453 -0.03578923 0.6455766 1 0 1
0.2233306 -0.03544036 0.6467441 1 0 1
0.2258895 -0.0347313 0.6450385 1 0 1
0.2275896 -0.0336686 0.640468 1 0 1
0.2304032 -0.03306888 0.6396995 1 0 1
0.2329236 -0.03234865 0.6379706 1 0 1
0.2351396 -0.03151006 0.6352844 1 0 1
0.1913451 -0.04631114 0.6631832 1 0 1
0.1942536 -0.04578156 0.6625485 1 0 1
0.1971594 -0.0452461 0.6619034 1 0 1
0.2000624 -0.04470474 0.6612478 1 0 1
0.201482 -0.04339204 0.6548178 1 0 1
0.2058597 -0.04360441 0.659905 1 0 1
0.2087539 -0.04304552 0.6592178 1 0 1
0.210872 -0.04210432 0.655646 1 0 1
0.2137493 -0.0415358 0.6549404 1 0 1
0.2174186 -0.04133352 0.6570932 1 0 1
0.2189575 -0.04013478 0.6515874 1 0 1
0.2207292 -0.03906013 0.6470349 1 0 1
0.2235722 -0.03847281 0.6462932 1 0 1
0.2255735 -0.03751653 0.6426837 1 0 1
0.2272668 -0.03643882 0.6381183 1 0 1
0.2303617 -0.03595897 0.638303 1 0 1
0.2334604 -0.03547198 0.6384754 1 0 1
0.2353871 -0.03450578 0.6348415 1 0 1
0.1922659 -0.04979092 0.6655969 1 0 1
0.1951872 -0.04925832 0.6649606 1 0 1
0.1981057 -0.04871981 0.6643137 1 0 1
0.2002913 -0.0477789 0.6607734 1 0 1
0.202452 -0.04683619 0.6572276 1 0 1
0.2060919 -0.04667652 0.6594318 1 0 1
0.2089879 -0.04611648 0.6587452 1 0 1
0.2118808 -0.04555064 0.6580482 1 0 1
0.2134627 -0.04433572 0.652558 1 0 1
0.2176577 -0.04440118 0.6566227 1 0 1
0.2191968 -0.04318196 0.6511205 1 0 1
0.2215141 -0.04234342 0.6484787 1 0 1
0.2240899 -0.04162786 0.6467829 1 0 1
0.2263754 -0.04078303 0.6441268 1 0 1
0.2277928 -0.03956298 0.6386116 1 0 1
0.2308933 -0.03908512 0.6387954 1 0 1
0.2331255 -0.0382323 0.6361202 1 0 1
0.2350457 -0.03725498 0.6324907 1 0 1
0.1924904 -0.05287692 0.6651065 1 0 1
0.1961223 -0.05275545 0.6673565 1 0 1
0.1983337 -0.05180373 0.6638244 1 0 1
0.2010074 -0.05112217 0.6622073 1 0 1
0.2034235 -0.0503008 0.6596217 1 0 1
0.2055712 -0.0493417 0.6560705 1 0 1
0.2084579 -0.04878269 0.6553873 1 0 1
0.2121165 -0.04861744 0.6575641 1 0 1
0.2136984 -0.04738218 0.6520775 1 0 1
0.2170999 -0.04707056 0.6532747 1 0 1
0.2194359 -0.04622611 0.6506414 1 0 1
0.2220271 -0.04550901 0.6489545 1 0 1
0.2237785 -0.04439916 0.6444024 1 0 1
0.226618 -0.04380446 0.6436528 1 0 1
0.2291706 -0.04307596 0.6419424 1 0 1
0.2314252 -0.04221615 0.6392744 1 0 1
0.2330802 -0.04110067 0.6347035 1 0 1
0.2361758 -0.04061398 0.6348668 1 0 1
0.1809887 -0.05803948 0.6670392 1 0 1
0.1839242 -0.05752849 0.6664462 1 0 1
0.1875336 -0.05744136 0.6687335 1 0 1
0.1920161 -0.05553402 0.6617175 1 0 1
0.1949297 -0.05500143 0.6610847 1 0 1
0.1985614 -0.05488457 0.6633228 1 0 1
0.2007488 -0.05391826 0.6597877 1 0 1
0.2029111 -0.05295022 0.6562469 1 0 1
0.2058024 -0.05239612 0.6555747 1 0 1
0.2094556 -0.05224945 0.6577634 1 0 1
0.2123519 -0.05168136 0.6570676 1 0 1
0.2144584 -0.05069832 0.6534954 1 0 1
0.2173377 -0.05012059 0.6527814 1 0 1
0.2191358 -0.0489976 0.6482431 1 0 1
0.2222674 -0.04854522 0.6484644 1 0 1
0.2229118 -0.04688514 0.6401091 1 0 1
0.2262995 -0.04655771 0.6412652 1 0 1
0.2294143 -0.04608938 0.6414576 1 0 1
0.2316698 -0.0452207 0.6387914 1 0 1
0.2336164 -0.04421885 0.6351713 1 0 1
0.2364228 -0.04360462 0.6343871 1 0 1
0.1820799 -0.06171716 0.6703796 1 0 1
0.1850319 -0.0612026 0.6697842 1 0 1
0.187078 -0.06009343 0.6653262 1 0 1
0.190928 -0.06015545 0.6685616 1 0 1
0.1922395 -0.05860233 0.6612044 1 0 1
0.1951549 -0.05806863 0.6605722 1 0 1
0.1980675 -0.05752905 0.6599295 1 0 1
0.2009772 -0.0569834 0.6592762 1 0 1
0.2031404 -0.05600277 0.6557381 1 0 1
0.206788 -0.05587463 0.6579386 1 0 1
0.2096891 -0.05531126 0.6572538 1 0 1
0.212587 -0.05474212 0.6565588 1 0 1
0.2146944 -0.05374643 0.6529891 1 0 1
0.2170429 -0.05288866 0.6503683 1 0 1
0.2188342 -0.05175047 0.645835 1 0 1
0.22114 -0.05088844 0.6432025 1 0 1
0.2237053 -0.05016086 0.6415145 1 0 1
0.2271023 -0.04983837 0.6426681 1 0 1
0.2296576 -0.0490999 0.6409605 1 0 1
0.2324903 -0.04849209 0.6401925 1 0 1
0.2344448 -0.04747605 0.636573 1 0 1
0.2366694 -0.04659233 0.6338953 1 0 1
0.1727989 -0.06586166 0.6686702 1 0 1
0.1757493 -0.06536589 0.6681092 1 0 1
0.1793421 -0.06532305 0.6704314 1 0 1
0.1807675 -0.06374737 0.6631004 1 0 1
0.1836953 -0.06323621 0.6625107 1 0 1
0.1866205 -0.06271935 0.6619107 1 0 1
0.1902324 -0.06264748 0.6641847 1 0 1
0.1931633 -0.06211663 0.6635612 1 0 1
0.1960914 -0.06157977 0.6629273 1 0 1
0.1990167 -0.06103707 0.6622828 1 0 1
0.2019392 -0.06048838 0.6616277 1 0 1
0.2033695 -0.05905209 0.6552171 1 0 1
0.2062642 -0.05849575 0.6545461 1 0 1
0.2099224 -0.05837012 0.6567321 1 0 1
0.2128221 -0.05779984 0.6560377 1 0 1
0.2157187 -0.0572237 0.6553328 1 0 1
0.2178128 -0.05621152 0.6517581 1 0 1
0.2196116 -0.05505535 0.6472262 1 0 1
0.2219258 -0.05418297 0.6445939 1 0 1
0.2236674 -0.05302554 0.6400543 1 0 1
0.226782 -0.05257005 0.6402588 1 0 1
0.2301854 -0.0522468 0.6413997 1 0 1
0.2333116 -0.05177585 0.6415788 1 0 1
0.2346901 -0.05046953 0.6360672 1 0 1
0.2369157 -0.04957689 0.6333915 1 0 1
0.1677015 -0.07039954 0.6721147 1 0 1
0.170057 -0.06943688 0.6686754 1 0 1
0.1721801 -0.06831388 0.6642644 1 0 1
0.1751173 -0.06781968 0.6637068 1 0 1
0.1780519 -0.06731956 0.6631388 1 0 1
0.1801081 -0.06618872 0.6587077 1 0 1
0.1839136 -0.06630145 0.6619713 1 0 1
0.1868404 -0.06578343 0.6613716 1 0 1
0.1897647 -0.06525951 0.6607617 1 0 1
0.1926861 -0.06472965 0.6601412 1 0 1
0.1963171 -0.0646524 0.6623881 1 0 1
0.1992441 -0.06410868 0.6617442 1 0 1
0.2021682 -0.06355896 0.6610898 1 0 1
0.2035985 -0.06209843 0.6546839 1 0 1
0.2064948 -0.06154105 0.6540136 1 0 1
0.2086207 -0.06052949 0.6504675 1 0 1
0.2122785 -0.06040844 0.6526416 1 0 1
0.2143763 -0.05938959 0.64908 1 0 1
0.2172496 -0.05881069 0.6483707 1 0 1
0.2190379 -0.05764022 0.6438449 1 0 1
0.2213423 -0.05676118 0.6412174 1 0 1
0.2239064 -0.05602442 0.639533 1 0 1
0.2261789 -0.05513918 0.6368915 1 0 1
0.2298585 -0.05496811 0.6389822 1 0 1
0.2326906 -0.05435881 0.6382166 1 0 1
0.2349351 -0.05345988 0.6355492 1 0 1
0.2368658 -0.0524173 0.6319308 1 0 1
0.1679115 -0.07349449 0.6715546 1 0 1
0.1708813 -0.073007 0.671014 1 0 1
0.173016 -0.07186577 0.6666042 1 0 1
0.1759661 -0.07136858 0.6660451 1 0 1
0.1789135 -0.07086561 0.6654755 1 0 1
0.1812006 -0.06987644 0.6620079 1 0 1
0.1841318 -0.0693635 0.6614195 1 0 1
0.1870602 -0.0688445 0.6608205 1 0 1
0.1906772 -0.06879389 0.6630917 1 0 1
0.1936114 -0.06826088 0.6624694 1 0 1
0.2001957 -0.06764534 0.6640667 1 0 1
0.2031324 -0.06709242 0.6634104 1 0 1
0.2045738 -0.0656056 0.6570069 1 0 1
0.2074827 -0.06504498 0.6563346 1 0 1
0.208852 -0.06355898 0.6499254 1 0 1
0.2132915 -0.06390589 0.6549588 1 0 1
0.2154011 -0.06287214 0.6513972 1 0 1
0.2182869 -0.06229001 0.6506857 1 0 1
0.2206282 -0.06140129 0.6480624 1 0 1
0.2229516 -0.06050975 0.6454323 1 0 1
0.2247013 -0.05931781 0.6408976 1 0 1
0.2275452 -0.0587181 0.6401522 1 0 1
0.2312419 -0.05855443 0.6422378 1 0 1
0.2332235 -0.0575014 0.6386308 1 0 1
0.235765 -0.05673853 0.6369094 1 0 1
0.2377036 -0.05568167 0.6332918 1 0 1
0.1681215 -0.07658622 0.6709823 1 0 1
0.1763921 -0.07460727 0.6664405 1 0 1
0.1793449 -0.07410266 0.6658707 1 0 1
0.1822952 -0.07359203 0.6652904 1 0 1
0.1850196 -0.07291214 0.6637385 1 0 1
0.1879608 -0.07239012 0.6631379 1 0 1
0.1908994 -0.07186214 0.6625268 1 0 1
0.1947725 -0.07197335 0.6657398 1 0 1
0.2004237 -0.07072213 0.6635016 1 0 1
0.202626 -0.06969055 0.6599771 1 0 1
0.2048033 -0.06865715 0.6564471 1 0 1
0.2069556 -0.06762198 0.6529118 1 0 1
0.2085702 -0.066271 0.6474637 1 0 1
0.2127458 -0.06648508 0.6515424 1 0 1
0.214845 -0.06544083 0.6479863 1 0 1
0.2179889 -0.06501468 0.6482293 1 0 1
0.2203238 -0.06411868 0.6456098 1 0 1
0.2223663 -0.06306635 0.6420343 1 0 1
0.224662 -0.06216542 0.6394025 1 0 1
0.2277859 -0.06171725 0.6396061 1 0 1
0.2314851 -0.06156388 0.6416903 1 0 1
0.234335 -0.0609491 0.6409221 1 0 1
0.2363029 -0.0598798 0.6373106 1 0 1
0.2388388 -0.05910688 0.6355814 1 0 1
0.1558563 -0.08105216 0.6695491 1 0 1
0.2006515 -0.07379577 0.662924 1 0 1
0.2028546 -0.07275156 0.6594024 1 0 1
0.2050327 -0.07170548 0.6558751 1 0 1
0.2079449 -0.07114275 0.6552043 1 0 1
0.2100839 -0.07009111 0.6516638 1 0 1
0.2137602 -0.0699992 0.6538309 1 0 1
0.2158711 -0.06894016 0.6502749 1 0 1
0.2195632 -0.06883191 0.6524159 1 0 1
0.221646 -0.06776542 0.6488445 1 0 1
0.2245288 -0.06716911 0.6481137 1 0 1
0.2262938 -0.06594107 0.6435822 1 0 1
0.2291555 -0.06533606 0.6428345 1 0 1
0.2322998 -0.06488007 0.6430219 1 0 1
0.2351586 -0.06426249 0.6422525 1 0 1
0.2371344 -0.06317896 0.6386418 1 0 1
0.2396788 -0.06239938 0.6369121 1 0 1
0.1529009 -0.08441018 0.6684696 1 0 1
0.1553128 -0.08342096 0.6650868 1 0 1
0.1582708 -0.08295884 0.6645945 1 0 1
0.1979347 -0.07741621 0.6629781 1 0 1
0.2001525 -0.07636338 0.6594674 1 0 1
0.2023452 -0.07530849 0.655951 1 0 1
0.2052619 -0.07475065 0.6552911 1 0 1
0.2081756 -0.07418676 0.6546208 1 0 1
0.2103154 -0.07312255 0.6510832 1 0 1
0.2139942 -0.07304104 0.6532488 1 0 1
0.2161059 -0.07196932 0.6496955 1 0 1
0.2184605 -0.07105861 0.647087 1 0 1
0.2205257 -0.06998314 0.6435229 1 0 1
0.2233917 -0.06938958 0.6427975 1 0 1
0.2262545 -0.06879006 0.6420616 1 0 1
0.2288316 -0.06802506 0.6403695 1 0 1
0.2316843 -0.0674146 0.6396142 1 0 1
0.2354033 -0.06727209 0.6416801 1 0 1
0.2373797 -0.06617579 0.6380722 1 0 1
0.2396282 -0.06523482 0.6354021 1 0 1
0.1508437 -0.08866259 0.6722006 1 0 1
0.1531017 -0.0874813 0.6678607 1 0 1
0.1555144 -0.08647972 0.6644807 1 0 1
0.1590457 -0.08655808 0.6668838 1 0 1
0.2011068 -0.07993322 0.661732 1 0 1
0.2025728 -0.07835148 0.6553541 1 0 1
0.2054909 -0.0777925 0.6546947 1 0 1
0.2084063 -0.07722745 0.654025 1 0 1
0.2113186 -0.07665657 0.6533449 1 0 1
0.2142279 -0.07607961 0.6526543 1 0 1
0.2171342 -0.0754967 0.6519533 1 0 1
0.2192324 -0.07440858 0.6483954 1 0 1
0.2221216 -0.07381589 0.6476762 1 0 1
0.2258341 -0.07371207 0.6497878 1 0 1
0.2278901 -0.07261287 0.6462069 1 0 1
0.2302036 -0.07167566 0.6435664 1 0 1
0.2330725 -0.07106084 0.6428078 1 0 1
0.2365184 -0.07076367 0.6439252 1 0 1
0.2373309 -0.0690085 0.6365485 1 0 1
0.2398741 -0.06821971 0.6348227 1 0 1
0.1468189 -0.09089035 0.6652738 1 0 1
0.1497868 -0.09044464 0.6648138 1 0 1
0.1527525 -0.08999283 0.6643434 1 0 1
0.1557161 -0.08953512 0.6638626 1 0 1
0.1954359 -0.08409541 0.6623924 1 0 1
0.1969517 -0.08249324 0.656031 1 0 1
0.1998773 -0.08194516 0.6553931 1 0 1
0.2010743 -0.08016896 0.6480721 1 0 1
0.2057199 -0.08083102 0.6540863 1 0 1
0.2078751 -0.07974537 0.6505623 1 0 1
0.2115506 -0.07969292 0.6527377 1 0 1
0.2144616 -0.07911474 0.6520478 1 0 1
0.2173693 -0.07853086 0.6513475 1 0 1
0.2194683 -0.07743003 0.6477924 1 0 1
0.2231756 -0.07734478 0.6499155 1 0 1
0.2266258 -0.07708023 0.6510765 1 0 1
0.2295283 -0.07647071 0.6503327 1 0 1
0.231861 -0.07552079 0.6476896 1 0 1
0.2347496 -0.07490093 0.6469269 1 0 1
0.2382159 -0.0746062 0.6480385 1 0 1
0.239046 -0.07281903 0.6406628 1 0 1
0.2410129 -0.07169321 0.6370527 1 0 1
0.1440441 -0.0943857 0.6650907 1 0 1
0.1461353 -0.09299291 0.659813 1 0 1
0.149266 -0.09273902 0.6603217 1 0 1
0.1529527 -0.09304585 0.6637125 1 0 1
0.1566672 -0.09334219 0.6670882 1 0 1
0.1956601 -0.08715787 0.6617646 1 0 1
0.1971757 -0.08553179 0.6554086 1 0 1
0.2001028 -0.08498257 0.6547714 1 0 1
0.2012994 -0.0831784 0.6474563 1 0 1
0.2059485 -0.08386628 0.6534657 1 0 1
0.2088669 -0.08329907 0.6527973 1 0 1
0.2117824 -0.08272593 0.6521184 1 0 1
0.2146948 -0.08214677 0.6514291 1 0 1
0.2181346 -0.08191118 0.6526258 1 0 1
0.2197037 -0.08044831 0.6471773 1 0 1
0.2234136 -0.08037317 0.6492988 1 0 1
0.226866 -0.08011515 0.6504589 1 0 1
0.2297699 -0.0795045 0.6497157 1 0 1
0.2321036 -0.07854573 0.6470749 1 0 1
0.2341323 -0.07741399 0.643485 1 0 1
0.2370081 -0.07678919 0.6427153 1 0 1
0.2375248 -0.07480957 0.6344101 1 0 1
0.2394705 -0.07367591 0.630809 1 0 1
0.1421084 -0.09885027 0.6697146 1 0 1
0.1442396 -0.09743797 0.6644464 1 0 1
0.1472128 -0.09699653 0.6639978 1 0 1
0.1501839 -0.09654912 0.6635389 1 0 1
0.1538882 -0.09686827 0.6669247 1 0 1
0.1812914 -0.09305515 0.6650793 1 0 1
0.1842626 -0.09253654 0.6645003 1 0 1
0.187231 -0.09201188 0.6639107 1 0 1
0.195176 -0.089664 0.6582624 1 0 1
0.1973995 -0.08856682 0.6547739 1 0 1
0.2003282 -0.08801659 0.6541374 1 0 1
0.2007831 -0.08563781 0.6439734 1 0 1
0.2051738 -0.08617199 0.6490294 1 0 1
0.2090969 -0.08632983 0.6521651 1 0 1
0.2120139 -0.08575551 0.6514869 1 0 1
0.214928 -0.08517525 0.6507983 1 0 1
0.2191664 -0.0854822 0.6548364 1 0 1
0.2207467 -0.08399664 0.6493898 1 0 1
0.224197 -0.08375264 0.6505613 1 0 1
0.2271058 -0.08314677 0.6498292 1 0 1
0.2308519 -0.08306168 0.6519179 1 0 1
0.2314944 -0.08104286 0.6436197 1 0 1
0.2338001 -0.08007493 0.6409776 1 0 1
0.2372525 -0.07979696 0.6420923 1 0 1
0.2383577 -0.07813055 0.6356739 1 0 1
0.2406097 -0.07715417 0.6330127 1 0 1
0.1451264 -0.1012818 0.6676485 1 0 1
0.1474099 -0.1000446 0.6633416 1 0 1
0.1511039 -0.1003866 0.6667375 1 0 1
0.195399 -0.09270828 0.6576127 1 0 1
0.1976231 -0.09159848 0.6541272 1 0 1
0.2005535 -0.09104726 0.6534912 1 0 1
0.2024913 -0.08974553 0.6490414 1 0 1
0.2054009 -0.08918504 0.6483879 1 0 1
0.2093268 -0.0893572 0.651521 1 0 1
0.2122452 -0.08878184 0.6508433 1 0 1
0.2151608 -0.08820038 0.6501554 1 0 1
0.2188707 -0.08816028 0.6522968 1 0 1
0.2215216 -0.08738288 0.6506397 1 0 1
0.2345768 -0.08583588 0.6524032 1 0 1
0.2354809 -0.08396199 0.6450485 1 0 1
0.2383707 -0.08333252 0.6442775 1 0 1
0.2403719 -0.08216819 0.6406788 1 0 1
0.2426465 -0.08117822 0.6380138 1 0 1
0.1453229 -0.1043427 0.6669763 1 0 1
0.147607 -0.1030894 0.6626735 1 0 1
0.1513036 -0.1034459 0.6660664 1 0 1
0.1936048 -0.09706204 0.6613805 1 0 1
0.1956218 -0.09574913 0.6569507 1 0 1
0.1978467 -0.09462678 0.6534685 1 0 1
0.1988266 -0.09254959 0.6452262 1 0 1
0.200983 -0.09142711 0.6417369 1 0 1
0.2038683 -0.09087053 0.6410898 1 0 1
0.207771 -0.09106182 0.644226 1 0 1
0.2114414 -0.09105372 0.6463975 1 0 1
0.2153934 -0.0912221 0.6495004 1 0 1
0.2183073 -0.09063353 0.6488026 1 0 1
0.2212182 -0.09003893 0.6480945 1 0 1
0.2254931 -0.09036208 0.652096 1 0 1
0.2342516 -0.08851249 0.6498641 1 0 1
0.2363003 -0.08733878 0.6462787 1 0 1
0.2386153 -0.08634473 0.6436279 1 0 1
0.240617 -0.08516796 0.6400324 1 0 1
0.2428924 -0.08416912 0.6373698 1 0 1
0.1485125 -0.1069539 0.665843 1 0 1
0.1700114 -0.1042639 0.6652789 1 0 1
0.1967918 -0.0995697 0.6600832 1 0 1
0.19807 -0.09765167 0.6527976 1 0 1
0.1980723 -0.09476501 0.6407626 1 0 1
0.2012062 -0.09440783 0.6410765 1 0 1
0.204093 -0.09385016 0.64043 1 0 1
0.2087644 -0.09463247 0.6464062 1 0 1
0.2116712 -0.09405775 0.6457332 1 0 1
0.2156258 -0.09424037 0.6488333 1 0 1
0.2185412 -0.09365059 0.6481362 1 0 1
0.2214535 -0.0930549 0.6474288 1 0 1
0.2249101 -0.09283017 0.6485973 1 0 1
0.2278234 -0.09222086 0.6478672 1 0 1
0.2307335 -0.0916054 0.6471268 1 0 1
0.2330707 -0.09061146 0.6444951 1 0 1
0.2345249 -0.08905831 0.6390391 1 0 1
0.2365231 -0.08787642 0.6354591 1 0 1
0.2393833 -0.08724486 0.6346869 1 0 1
0.2425394 -0.0867904 0.6348409 1 0 1
0.1992566 -0.1014687 0.6559145 1 0 1
0.1992717 -0.09853249 0.6438873 1 0 1
0.202174 -0.09797767 0.6432493 1 0 1
0.2043176 -0.09682628 0.6397586 1 0 1
0.2079698 -0.09684985 0.6419425 1 0 1
0.2111227 -0.09647232 0.6422195 1 0 1
0.215858 -0.09725501 0.6481542 1 0 1
0.2187749 -0.09666419 0.6474577 1 0 1
0.2224997 -0.09664664 0.6495806 1 0 1
0.2254214 -0.09604141 0.6488607 1 0 1
0.2288953 -0.09581326 0.6500131 1 0 1
0.2318178 -0.09519438 0.6492705 1 0 1
0.2338819 -0.09399927 0.6456991 1 0 1
0.2367867 -0.09337054 0.6449386 1 0 1
0.2391035 -0.09235891 0.6422927 1 0 1
0.2425863 -0.09209496 0.6433865 1 0 1
0.245481 -0.09144811 0.6425949 1 0 1
0.1674397 -0.1108696 0.6644008 1 0 1
0.1985163 -0.1036907 0.6514198 1 0 1
0.1985146 -0.1007105 0.6394069 1 0 1
0.1996639 -0.0987481 0.6321405 1 0 1
0.2010107 -0.09699018 0.625822 1 0 1
0.2046135 -0.09703426 0.6280158 1 0 1
0.2071972 -0.09627131 0.6264147 1 0 1
0.2116136 -0.09689299 0.6314136 1 0 1
0.2163383 -0.09769747 0.6373352 1 0 1
0.2200288 -0.09769771 0.639465 1 0 1
0.2248356 -0.09847207 0.6453447 1 0 1
0.2277444 -0.09786188 0.6446179 1 0 1
0.2312135 -0.0976349 0.6457597 1 0 1
0.2341231 -0.09701106 0.6450104 1 0 1
0.2364514 -0.0959951 0.6423751 1 0 1
0.239347 -0.09536067 0.6416069 1 0 1
0.2422393 -0.09472023 0.6408284 1 0 1
0.2451281 -0.09407374 0.6400394 1 0 1
0.1676479 -0.1139217 0.6636811 1 0 1
0.2016769 -0.1061483 0.65008 1 0 1
0.2018748 -0.103329 0.6390243 1 0 1
0.2029984 -0.1013371 0.6317595 1 0 1
0.2076543 -0.1022012 0.6377249 1 0 1
0.2089801 -0.1004105 0.6313956 1 0 1
0.2136855 -0.1012516 0.6373279 1 0 1
0.2181722 -0.1018748 0.6422954 1 0 1
0.222158 -0.1020815 0.6453593 1 0 1
0.2239729 -0.1006764 0.6408814 1 0 1
0.2279818 -0.100865 0.6439174 1 0 1
0.2308889 -0.1002474 0.6431808 1 0 1
0.2337927 -0.09962398 0.6424339 1 0 1
0.2366931 -0.09899451 0.6416768 1 0 1
0.2395902 -0.09835884 0.6409091 1 0 1
0.2415939 -0.09713155 0.6373268 1 0 1
0.2444733 -0.09648636 0.6365416 1 0 1
0.1738427 -0.1159744 0.661894 1 0 1
0.1768323 -0.1154673 0.6613504 1 0 1
0.2026372 -0.1097869 0.6522011 1 0 1
0.2048374 -0.108594 0.648719 1 0 1
0.2067595 -0.1071913 0.6442865 1 0 1
0.2107011 -0.1074481 0.6474026 1 0 1
0.2118071 -0.1054187 0.6401268 1 0 1
0.2165528 -0.1062779 0.6460447 1 0 1
0.2194741 -0.1056835 0.6453503 1 0 1
0.223206 -0.1056967 0.6474671 1 0 1
0.2253072 -0.1044768 0.6439304 1 0 1
0.2290548 -0.1044731 0.6460209 1 0 1
0.2311274 -0.1032456 0.6424691 1 0 1
0.2328888 -0.1018154 0.6379755 1 0 1
0.235776 -0.1011878 0.6372228 1 0 1
0.239833 -0.1013534 0.6401995 1 0 1
0.242728 -0.1007105 0.6394224 1 0 1
0.2456197 -0.1000616 0.6386349 1 0 1
0.174054 -0.1190172 0.6611512 1 0 1
0.1770449 -0.1185091 0.6606083 1 0 1
0.2068084 -0.1130881 0.6546025 1 0 1
0.2097691 -0.112512 0.6539444 1 0 1
0.2116997 -0.1110847 0.6495035 1 0 1
0.2128162 -0.1090253 0.6422321 1 0 1
0.216784 -0.1092783 0.6453177 1 0 1
0.2197067 -0.1086827 0.6446239 1 0 1
0.2226262 -0.1080813 0.6439196 1 0 1
0.2263683 -0.1080963 0.6460213 1 0 1
0.2301292 -0.1081004 0.6481071 1 0 1
0.2322135 -0.1068581 0.6445559 1 0 1
0.2351311 -0.1062299 0.6438076 1 0 1
0.2380454 -0.1055955 0.6430488 1 0 1
0.2409563 -0.1049551 0.6422799 1 0 1
0.2429719 -0.1037002 0.6387014 1 0 1
0.245865 -0.1030501 0.6379146 1 0 1
0.1736391 -0.1213845 0.6575405 1 0 1
0.1757708 -0.119984 0.6531948 1 0 1
0.21487 -0.1135084 0.6480852 1 0 1
0.2170148 -0.1122749 0.6445785 1 0 1
0.2199389 -0.1116784 0.6438854 1 0 1
0.2236755 -0.1117119 0.645998 1 0 1
0.2257777 -0.1104669 0.6424681 1 0 1
0.2295299 -0.1104836 0.6445546 1 0 1
0.2324523 -0.1098603 0.6438174 1 0 1
0.236231 -0.1098577 0.6458747 1 0 1
0.2382869 -0.1085953 0.6423118 1 0 1
0.2403175 -0.1073315 0.6387442 1 0 1
0.2432154 -0.1066862 0.6379685 1 0 1
0.2461098 -0.1060347 0.6371824 1 0 1
0.1768321 -0.1239003 0.6562368 1 0 1
0.2247262 -0.1153615 0.6480587 1 0 1
0.2260124 -0.1134564 0.6417191 1 0 1
0.2289284 -0.1128404 0.6409957 1 0 1
0.2318411 -0.1122181 0.6402618 1 0 1
0.2364717 -0.1128663 0.6451221 1 0 1
0.2423244 -0.1115818 0.6435914 1 0 1
0.2452457 -0.1109302 0.6428105 1 0 1
0.2469573 -0.1094348 0.6382986 1 0 1
0.176192 -0.1259961 0.6516639 1 0 1
0.1836656 -0.1265717 0.6571957 1 0 1
0.1955998 -0.1244155 0.6548424 1 0 1
0.224961 -0.118371 0.6472912 1 0 1
0.2270753 -0.1170988 0.6437658 1 0 1
0.2291643 -0.115825 0.6402354 1 0 1
0.2320783 -0.1152016 0.6395022 1 0 1
0.2358506 -0.1152216 0.6415582 1 0 1
0.2396416 -0.1152306 0.643598 1 0 1
0.241684 -0.1139395 0.6400347 1 0 1
0.245192 -0.1137173 0.6411179 1 0 1
0.2465982 -0.1119931 0.6356823 1 0 1
0.2017739 -0.1263187 0.6528174 1 0 1
0.2192978 -0.1225921 0.6479151 1 0 1
0.2222483 -0.1219876 0.6472186 1 0 1
0.2235592 -0.1200364 0.6408972 1 0 1
0.2264811 -0.1194241 0.6401852 1 0 1
0.2282793 -0.1179184 0.6357273 1 0 1
0.2323151 -0.1181813 0.6387308 1 0 1
0.2360898 -0.1182113 0.6407844 1 0 1
0.2428103 -0.1175826 0.642053 1 0 1
0.2454357 -0.1167108 0.6403443 1 0 1
0.2468419 -0.1149666 0.6349144 1 0 1
0.1774667 -0.132947 0.6538748 1 0 1
0.1804512 -0.1324296 0.6533262 1 0 1
0.1983019 -0.1291951 0.6498166 1 0 1
0.2012673 -0.1286343 0.6491953 1 0 1
0.2049711 -0.1287642 0.6513858 1 0 1
0.2079419 -0.1281889 0.6507413 1 0 1
0.2227505 -0.1252186 0.6473624 1 0 1
0.2237916 -0.1230158 0.6401116 1 0 1
0.2256079 -0.1214969 0.6356649 1 0 1
0.2285133 -0.1208804 0.6349472 1 0 1
0.2325517 -0.1211571 0.6379475 1 0 1
0.2371918 -0.1218692 0.6427923 1 0 1
0.2479925 -0.1185984 0.6369164 1 0 1
0.180664 -0.1354365 0.6525155 1 0 1
0.1925809 -0.1333009 0.6502198 1 0 1
0.198523 -0.1321957 0.6490094 1 0 1
0.2240237 -0.1259913 0.6393144 1 0 1
0.2277793 -0.1260672 0.6414027 1 0 1
0.2298698 -0.1247559 0.6378832 1 0 1
0.2327878 -0.124129 0.6371523 1 0 1
0.2365669 -0.1241792 0.6392013 1 0 1
0.2403645 -0.1242183 0.6412345 1 0 1
0.2424084 -0.1228896 0.6376821 1 0 1
0.2462212 -0.1229116 0.6396887 1 0 1
0.2473278 -0.1209021 0.6333429 1 0 1
0.1719074 -0.1399786 0.6533038 1 0 1
0.1778893 -0.1389588 0.6522403 1 0 1
0.1800056 -0.1374579 0.6479144 1 0 1
0.1838612 -0.1379139 0.6511351 1 0 1
0.2261709 -0.1306057 0.6450347 1 0 1
0.2320712 -0.1293569 0.6435924 1 0 1
0.2338776 -0.127794 0.6391354 1 0 1
0.2376699 -0.1278518 0.6411792 1 0 1
0.2406048 -0.1272065 0.6404227 1 0 1
0.2417619 -0.1251757 0.6340926 1 0 1
0.2446677 -0.1245229 0.6333211 1 0 1
0.2475702 -0.1238639 0.6325395 1 0 1
0.1781006 -0.1419589 0.6514053 1 0 1
0.1802171 -0.1404419 0.6470841 1 0 1
0.2293575 -0.1329771 0.6434911 1 0 1
0.2437773 -0.1295379 0.6388327 1 0 1
0.2458075 -0.1281805 0.6352807 1 0 1
0.2478121 -0.126822 0.6317241 1 0 1
0.1783116 -0.144955 0.6505584 1 0 1
0.1804284 -0.143422 0.6462418 1 0 1
0.1902555 -0.1428321 0.6483112 1 0 1
0.2255408 -0.135621 0.6396436 1 0 1
0.2284805 -0.1350004 0.6389326 1 0 1
0.2325432 -0.1353361 0.6419268 1 0 1
0.2489646 -0.1304831 0.6336665 1 0 1
0.1785226 -0.147947 0.6496995 1 0 1
0.1806396 -0.1463981 0.645388 1 0 1
0.2268706 -0.1395755 0.6425143 1 0 1
0.2298262 -0.1389507 0.6418004 1 0 1
0.2327786 -0.1383196 0.641076 1 0 1
0.2501185 -0.1341625 0.6355907 1 0 1
0.1817259 -0.1504119 0.6482837 1 0 1
0.1451566 -0.1581828 0.6494634 1 0 1
0.1481611 -0.1577304 0.6490353 1 0 1
0.2243737 -0.1461562 0.641477 1 0 1
0.2273352 -0.1455352 0.6407746 1 0 1
0.2291784 -0.1438978 0.6363559 1 0 1
0.2332485 -0.1442746 0.6393391 1 0 1
0.1462218 -0.1625344 0.6532949 1 0 1
0.1492466 -0.1620783 0.6528648 1 0 1
0.1990972 -0.1520343 0.6392919 1 0 1
0.2060138 -0.1519442 0.641784 1 0 1
0.2119512 -0.1507738 0.6404997 1 0 1
0.2216383 -0.1497468 0.6412799 1 0 1
0.2227027 -0.1473261 0.6340982 1 0 1
0.2264656 -0.1474807 0.6361817 1 0 1
0.2285731 -0.1460866 0.632697 1 0 1
0.2315035 -0.1454574 0.6319811 1 0 1
0.23529 -0.145586 0.6340259 1 0 1
0.2382248 -0.1449421 0.6332868 1 0 1
0.2420377 -0.145051 0.6353025 1 0 1
0.1464181 -0.1655242 0.6523817 1 0 1
0.1494443 -0.1650672 0.6519521 1 0 1
0.2240187 -0.151317 0.6369103 1 0 1
0.236671 -0.1495707 0.636823 1 0 1
0.2393314 -0.1486648 0.6351593 1 0 1
0.242275 -0.1480107 0.6344077 1 0 1
0.1457422 -0.1670957 0.6467409 1 0 1
0.1487506 -0.1666408 0.6463144 1 0 1
0.1506646 -0.1644895 0.6402251 1 0 1
0.1547612 -0.1657118 0.6454304 1 0 1
0.1577631 -0.1652378 0.6449729 1 0 1
0.1607628 -0.1647575 0.6445052 1 0 1
0.1647463 -0.165667 0.6487258 1 0 1
0.1677602 -0.1651708 0.6482342 1 0 1
0.2005031 -0.1590224 0.6412115 1 0 1
0.2024971 -0.1573686 0.6368734 1 0 1
0.2054578 -0.1567935 0.6362512 1 0 1
0.20943 -0.1572884 0.6393351 1 0 1
0.2113703 -0.1556246 0.6349758 1 0 1
0.2143221 -0.1550307 0.6343228 1 0 1
0.2183299 -0.1554977 0.637366 1 0 1
0.2202163 -0.153824 0.6329858 1 0 1
0.2220698 -0.1521503 0.6286023 1 0 1
0.226098 -0.1525923 0.6316079 1 0 1
0.2298731 -0.1527582 0.6336733 1 0 1
0.2319669 -0.1513355 0.6301892 1 0 1
0.2348965 -0.1506978 0.6294644 1 0 1
0.2386948 -0.1508376 0.6314906 1 0 1
0.2407454 -0.1494035 0.6279842 1 0 1
0.2436648 -0.148747 0.6272289 1 0 1
0.2465807 -0.1480843 0.6264633 1 0 1
0.249493 -0.1474152 0.6256874 1 0 1
0.1459374 -0.1700584 0.6458099 1 0 1
0.1489472 -0.1696026 0.6453839 1 0 1
0.1508608 -0.167428 0.6393021 1 0 1
0.1549602 -0.1686718 0.644501 1 0 1
0.1579634 -0.168197 0.644044 1 0 1
0.1609644 -0.1677157 0.6435769 1 0 1
0.1679657 -0.1681459 0.6473011 1 0 1
0.1917656 -0.1636627 0.6420674 1 0 1
0.1947539 -0.163109 0.641484 1 0 1
0.1967836 -0.1614462 0.6371657 1 0 1
0.1997513 -0.1608827 0.6365647 1 0 1
0.2027161 -0.1603128 0.6359533 1 0 1
0.2044272 -0.1583692 0.6306878 1 0 1
0.208637 -0.1591542 0.6346997 1 0 1
0.2103048 -0.1572053 0.6294217 1 0 1
0.2132392 -0.156614 0.6287735 1 0 1
0.2174959 -0.1573691 0.6327425 1 0 1
0.2204427 -0.1567615 0.6320695 1 0 1
0.2222963 -0.1550717 0.6276913 1 0 1
0.2263268 -0.1555274 0.630693 1 0 1
0.2301039 -0.1557033 0.6327555 1 0 1
0.2321981 -0.1542683 0.6292756 1 0 1
0.2359909 -0.1544267 0.6313122 1 0 1
0.2400935 -0.1548391 0.6342522 1 0 1
0.2409802 -0.1523325 0.6270728 1 0 1
0.2439007 -0.1516748 0.6263182 1 0 1
0.2468178 -0.1510108 0.6255533 1 0 1
0.2497313 -0.1503406 0.6247782 1 0 1
0.2009407 -0.1649385 0.6393488 1 0 1
0.2029349 -0.1632528 0.6350214 1 0 1
0.205898 -0.1626756 0.6344004 1 0 1
0.2088582 -0.162092 0.6337692 1 0 1
0.2118154 -0.1615022 0.6331276 1 0 1
0.2147696 -0.160906 0.6324758 1 0 1
0.2187822 -0.1614004 0.6355112 1 0 1
0.221745 -0.1607886 0.6348355 1 0 1
0.2236136 -0.1590797 0.6304591 1 0 1
0.2071206 -0.1667339 0.6371631 1 0 1
0.2100969 -0.1661462 0.6365293 1 0 1
0.2160406 -0.164952 0.6352308 1 0 1
0.2464644 -0.1594128 0.6308671 1 0 1
0.2073412 -0.169679 0.6362037 1 0 1
0.2103187 -0.1690903 0.6355706 1 0 1
0.2132932 -0.1684952 0.6349272 1 0 1
0.2467011 -0.1623537 0.6299132 1 0 1
0.2215693 -0.1713848 0.6273135 1 0 1
0.2256146 -0.1719148 0.6303049 1 0 1
0.2450736 -0.16625 0.6215903 1 0 1
0.2489072 -0.1664224 0.6235605 1 0 1
0.2518376 -0.1657433 0.6227862 1 0 1
0.1419115 -0.1901973 0.6454725 1 0 1
0.2228757 -0.175464 0.6299971 1 0 1
0.2258412 -0.1748399 0.6293146 1 0 1
0.244455 -0.1718208 0.6277382 1 0 1
0.2462074 -0.1700081 0.6233405 1 0 1
0.2491424 -0.1693341 0.6225771 1 0 1
0.2533042 -0.1697885 0.6254367 1 0 1
0.1424433 -0.1937773 0.6463214 1 0 1
0.2231007 -0.1783857 0.6289945 1 0 1
0.2260673 -0.1777606 0.6283127 1 0 1
0.231991 -0.1764911 0.6269184 1 0 1
0.1414544 -0.1945108 0.6387557 1 0 1
0.1456883 -0.196279 0.6448826 1 0 1
0.225194 -0.1794829 0.6236432 1 0 1
0.2072892 -0.2004442 0.6293271 1 0 1
0.254488 -0.1949582 0.6133385 1 0 1
0.2348814 -0.2035259 0.6200996 1 0 1
0.2378588 -0.2028683 0.619391 1 0 1
0.249128 -0.1995292 0.6146603 1 0 1
0.2534773 -0.196546 0.6086594 1 0 1
0.239014 -0.202789 0.6112652 1 0 1
0.2440314 -0.2044122 0.6168255 1 0 1
0.2449017 -0.2014505 0.6098112 1 0 1
0.2496607 -0.2027236 0.6144428 1 0 1
0.2537071 -0.1993944 0.6075547 1 0 1
0.2376288 -0.1960535 0.5863147 1 0 1
0.2511364 -0.1992935 0.5984081 1 0 1
-0.02389097 -0.2787894 0.6241328 1 0 1
-0.02965775 -0.2788484 0.6161003 1 0 1
-0.221327 -0.2754441 0.5812422 1 0 1
-0.2173528 -0.2790967 0.5889023 1 0 1
-0.2034537 -0.277489 0.5859936 1 0 1
-0.2004635 -0.2778059 0.5867516 1 0 1
-0.1974702 -0.2781158 0.5875 1 0 1
-0.2112475 -0.2826101 0.5891458 1 0 1
-0.2049557 -0.2828458 0.5898392 1 0 1
-0.199184 -0.2839051 0.592223 1 0 1
-0.1591044 -0.2953785 0.5961231 1 0 1
-0.1562509 -0.2960372 0.5976118 1 0 1
-0.2360635 -0.3105451 0.5003061 1 0 1
-0.2355543 -0.3144282 0.5068133 1 0 1
-0.2349894 -0.3183124 0.5133277 1 0 1
-0.237211 -0.3266517 0.5271347 1 0 1
-0.2346282 -0.3275701 0.5288087 1 0 1
-0.2367325 -0.3096293 0.4931382 1 0 1
-0.2343127 -0.3105565 0.4947999 1 0 1
-0.2338205 -0.3144609 0.5012868 1 0 1
-0.233592 -0.3188643 0.5085874 1 0 1
-0.2342472 -0.3247646 0.5183198 1 0 1
-0.2329451 -0.3276774 0.5232159 1 0 1
0.1254205 -0.1133911 0.2015225 1 0 1
-0.2343473 -0.3041777 0.4787928 1 0 1
-0.2329811 -0.3066041 0.4828448 1 0 1
-0.2315816 -0.3090287 0.4868976 1 0 1
-0.2311177 -0.3129528 0.4933609 1 0 1
-0.2290018 -0.314373 0.4958093 1 0 1
-0.2284449 -0.3182968 0.5022814 1 0 1
-0.226897 -0.3207152 0.5063402 1 0 1
0.1219692 -0.1094447 0.1917531 1 0 1
-0.2362353 -0.3096003 0.4821179 1 0 1
-0.2328643 -0.3090287 0.4813747 1 0 1
-0.2311371 -0.3109642 0.4846189 1 0 1
-0.2300296 -0.3139042 0.4894638 1 0 1
-0.2285623 -0.316339 0.4935092 1 0 1
-0.2283229 -0.3207912 0.5007689 1 0 1
-0.2295783 -0.3277729 0.5120606 1 0 1
0.121415 -0.1096694 0.1894076 1 0 1
-0.2341141 -0.3089925 0.4758605 1 0 1
-0.2324156 -0.3109412 0.4790983 1 0 1
-0.2303649 -0.3123805 0.4815367 1 0 1
0.1179524 -0.1078289 0.1832898 1 0 1
0.119891 -0.1084527 0.1846098 1 0 1
0.1176924 -0.1107272 0.1853615 1 0 1
0.118679 -0.1099211 0.1842288 1 0 1
0.1196564 -0.109114 0.1830937 1 0 1
0.1180965 -0.1123518 0.185471 1 0 1
0.1184474 -0.1105759 0.1827089 1 0 1
0.1197444 -0.1102475 0.1823916 1 0 1
0.1181846 -0.1134933 0.1847576 1 0 1
0.1191746 -0.1126788 0.1836288 1 0 1
0.1198319 -0.1113782 0.1816851 1 0 1
0.1189051 -0.115612 0.1856642 1 0 1
0.1192623 -0.1138136 0.1829134 1 0 1
0.1202431 -0.1129941 0.1817846 1 0 1
0.1186765 -0.1162609 0.1841275 1 0 1
0.11967 -0.1154378 0.1830027 1 0 1
0.1203303 -0.1141222 0.1810671 1 0 1
0.1140043 -0.1122527 0.1748101 1 0 1
0.1184471 -0.1169002 0.1825903 1 0 1
0.1200778 -0.1170656 0.1830834 1 0 1
0.1207416 -0.115742 0.1811514 1 0 1
0.1125219 -0.1108472 0.1700646 1 0 1
0.1178998 -0.1170305 0.1802468 1 0 1
0.1204859 -0.1186969 0.1831554 1 0 1
0.1208284 -0.1168674 0.1804228 1 0 1
0.1154471 -0.114127 0.1730837 1 0 1
0.1199309 -0.1188254 0.1808096 1 0 1
0.1209149 -0.11799 0.1796898 1 0 1
0.1107671 -0.1076257 0.1603372 1 0 1
0.1187319 -0.1179277 0.1768659 1 0 1
0.1200258 -0.1175966 0.1765523 1 0 1
0.1156144 -0.1163074 0.1716409 1 0 1
0.1197817 -0.1205605 0.1785263 1 0 1
0.1207616 -0.1197185 0.1774125 1 0 1
0.1156311 -0.1221466 0.1779015 1 0 1
0.1144228 -0.1177135 0.1712122 1 0 1
0.1153795 -0.1168806 0.1701155 1 0 1
0.1198671 -0.1216745 0.1777796 1 0 1
0.1211724 -0.1213394 0.1774641 1 0 1
0.115022 -0.1246153 0.1790446 1 0 1
0.1167076 -0.1224139 0.1760535 1 0 1
0.1180087 -0.1220864 0.1757486 1 0 1
0.1202743 -0.1233004 0.177823 1 0 1
0.1225608 -0.1245053 0.1798877 1 0 1
0.1166433 -0.1283373 0.1822645 1 0 1
0.1182887 -0.1285289 0.1827566 1 0 1
0.1183659 -0.126116 0.179272 1 0 1
0.1193672 -0.1252644 0.1781699 1 0 1
0.1206817 -0.1249294 0.1778576 1 0 1
0.1216685 -0.1240743 0.1767496 1 0 1
0.1158063 -0.1278885 0.1791089 1 0 1
0.1174407 -0.1280855 0.1796017 1 0 1
0.1178209 -0.1261853 0.1769209 1 0 1
0.1197709 -0.1268982 0.1781962 1 0 1
0.1204441 -0.1255194 0.1763031 1 0 1
0.1217533 -0.1251818 0.1759879 1 0 1
0.1151744 -0.1303841 0.1802163 1 0 1
0.1155832 -0.1284737 0.177545 1 0 1
0.1172142 -0.1286743 0.1780369 1 0 1
0.1172746 -0.1262388 0.1745741 1 0 1
0.1192176 -0.1269594 0.1758472 1 0 1
0.1202057 -0.1261001 0.1747487 1 0 1
0.1215113 -0.1257629 0.1744347 1 0 1
0.1145263 -0.1328907 0.1813087 1 0 1
0.1149549 -0.1309689 0.1786445 1 0 1
0.1156674 -0.1295807 0.1767703 1 0 1
0.116675 -0.1287234 0.1756836 1 0 1
0.1176736 -0.1278648 0.1745943 1 0 1
0.1189823 -0.1275333 0.1742893 1 0 1
0.1199666 -0.1266713 0.1731942 1 0 1
0.1209416 -0.125808 0.1720967 1 0 1
0.1174257 -0.1418539 0.1918598 1 0 1
0.1140098 -0.1329389 0.1789404 1 0 1
0.1144302 -0.131009 0.1762849 1 0 1
0.1154429 -0.1301503 0.1752042 1 0 1
0.1167586 -0.1298237 0.1749071 1 0 1
0.1171255 -0.1278964 0.1722499 1 0 1
0.1184267 -0.1275663 0.171947 1 0 1
0.1190799 -0.1261719 0.1700727 1 0 1
0.1193896 -0.1242487 0.1674152 1 0 1
0.1163248 -0.1408547 0.1878837 1 0 1
0.1143949 -0.1345895 0.1789358 1 0 1
0.1145136 -0.1321103 0.175501 1 0 1
0.1149092 -0.1301728 0.1728534 1 0 1
0.1165297 -0.1303842 0.1733423 1 0 1
0.116892 -0.1284479 0.1706931 1 0 1
0.1175501 -0.1270489 0.168827 1 0 1
0.1181916 -0.1256506 0.1669603 1 0 1
0.1188166 -0.1242532 0.165093 1 0 1
0.114479 -0.1357006 0.1781383 1 0 1
0.1149018 -0.13375 0.1754962 1 0 1
0.1149917 -0.131261 0.1720723 1 0 1
0.1159874 -0.1303956 0.170996 1 0 1
0.1166579 -0.1289901 0.1691364 1 0 1
0.1166717 -0.1265097 0.1657161 1 0 1
0.1173015 -0.1251075 0.163857 1 0 1
0.1179149 -0.1237062 0.1619972 1 0 1
0.1130556 -0.1340804 0.1734266 1 0 1
0.113764 -0.1326692 0.1715769 1 0 1
0.1144559 -0.1312585 0.1697263 1 0 1
0.1157566 -0.1309342 0.1694338 1 0 1
0.1164229 -0.1295229 0.16758 1 0 1
0.1164321 -0.1270305 0.16417 1 0 1
0.1170577 -0.1256225 0.1623166 1 0 1
0.1176668 -0.1242155 0.1604626 1 0 1
0.1149479 -0.1384619 0.1773096 1 0 1
0.1147622 -0.135395 0.1731234 1 0 1
0.1154649 -0.1339749 0.1712753 1 0 1
0.116464 -0.1331013 0.1702034 1 0 1
0.1168206 -0.1311364 0.1675765 1 0 1
0.1168326 -0.12863 0.1641751 1 0 1
0.1174615 -0.1272144 0.1623257 1 0 1
0.1177459 -0.1252576 0.1597022 1 0 1
0.1163728 -0.1392381 0.176205 1 0 1
0.1164751 -0.1367066 0.1728062 1 0 1
0.1174852 -0.1358266 0.1717345 1 0 1
0.1181693 -0.1343972 0.1698863 1 0 1
0.1181954 -0.1318741 0.166491 1 0 1
0.1185143 -0.1299018 0.1638707 1 0 1
0.1194656 -0.1290226 0.1627945 1 0 1
0.116456 -0.1403388 0.175388 1 0 1
0.1171765 -0.1389006 0.1735457 1 0 1
0.1175672 -0.1369109 0.1709298 1 0 1
0.1185679 -0.1360259 0.1698583 1 0 1
0.1192387 -0.1345895 0.1680134 1 0 1
0.1195683 -0.1326045 0.1653979 1 0 1
0.1205306 -0.1317188 0.1643216 1 0 1
0.1194283 -0.1438845 0.1781273 1 0 1
0.1198444 -0.1418784 0.1755128 1 0 1
0.1211887 -0.1415374 0.1752075 1 0 1
0.1215679 -0.1395334 0.1725921 1 0 1
0.1222479 -0.1380842 0.1707454 1 0 1
0.1229112 -0.1366357 0.168898 1 0 1
0.1214969 -0.145769 0.1785232 1 0 1
0.1228599 -0.1454228 0.178214 1 0 1
0.1238999 -0.1445169 0.1771342 1 0 1
0.1252559 -0.144165 0.1768171 1 0 1
0.1259525 -0.1427011 0.1749668 1 0 1
0.1232615 -0.1470939 0.1781337 1 0 1
0.1255916 -0.1484211 0.1801115 1 0 1
0.1272917 -0.1486223 0.1805536 1 0 1
0.1286685 -0.1482608 0.1802274 1 0 1
0.1293298 -0.1531128 0.1842576 1 0 1
0.1303997 -0.1521843 0.1831666 1 0 1
0.1323479 -0.1593298 0.190204 1 0 1
0.1331216 -0.1578253 0.1883504 1 0 1
0.1338679 -0.1601118 0.1889612 1 0 1
-0.2698576 -0.31345 0.3418956 1 0 1
-0.2599555 -0.3261218 0.3588439 1 0 1
-0.2555718 -0.32374 0.3562444 1 0 1
0.1359348 -0.1646851 0.1925689 1 0 1
-0.2887009 -0.3222159 0.3471452 1 0 1
-0.2769612 -0.31419 0.3381942 1 0 1
-0.2751327 -0.3153644 0.3398417 1 0 1
-0.2719826 -0.3147923 0.339424 1 0 1
-0.2714419 -0.3177007 0.3431244 1 0 1
-0.2682906 -0.317115 0.3426898 1 0 1
-0.254335 -0.3163929 0.3431139 1 0 1
-0.2524559 -0.3175177 0.3447043 1 0 1
-0.2501611 -0.3180497 0.3455905 1 0 1
-0.2470604 -0.3173969 0.3450671 1 0 1
-0.2305788 -0.3162602 0.3452129 1 0 1
-0.2312912 -0.3214974 0.351716 1 0 1
0.1446895 -0.1840217 0.2152725 1 0 1
0.1383343 -0.1698635 0.1968938 1 0 1
-0.2849413 -0.3195397 0.3401474 1 0 1
-0.2839941 -0.3218973 0.3431748 1 0 1
-0.2781416 -0.3178538 0.3387066 1 0 1
-0.2749819 -0.3172863 0.3383059 1 0 1
-0.2713957 -0.3161255 0.3372077 1 0 1
-0.2704245 -0.3184612 0.3402101 1 0 1
-0.2668513 -0.3172831 0.3390891 1 0 1
-0.2649989 -0.3184396 0.3407083 1 0 1
-0.2622907 -0.3184173 0.3409427 1 0 1
-0.2600044 -0.3189754 0.3418589 1 0 1
-0.2556385 -0.3165823 0.3393018 1 0 1
-0.2529507 -0.3165345 0.3395023 1 0 1
-0.2494503 -0.3152976 0.3383009 1 0 1
-0.2475849 -0.3164161 0.339874 1 0 1
-0.2445064 -0.3157532 0.3393465 1 0 1
-0.2434242 -0.3180475 0.3423078 1 0 1
-0.240349 -0.3173704 0.3417622 1 0 1
-0.2384542 -0.3184688 0.3433131 1 0 1
-0.235776 -0.3183716 0.3434511 1 0 1
-0.2338666 -0.3194598 0.3449907 1 0 1
-0.2308095 -0.3187521 0.3444052 1 0 1
-0.2307658 -0.3228192 0.3494733 1 0 1
-0.2838863 -0.3203075 0.3372376 1 0 1
-0.2820515 -0.3215053 0.3388986 1 0 1
-0.2788753 -0.3209443 0.3385179 1 0 1
-0.2761488 -0.3209594 0.3388049 1 0 1
-0.2725526 -0.3197934 0.3377175 1 0 1
-0.2715701 -0.3221418 0.3407163 1 0 1
-0.2671285 -0.3197813 0.3382359 1 0 1
-0.2644211 -0.3197637 0.3384802 1 0 1
-0.2617166 -0.3197384 0.3387148 1 0 1
-0.2581784 -0.3185229 0.3375604 1 0 1
-0.2546578 -0.3172965 0.3363907 1 0 1
-0.2519773 -0.3172448 0.33659 1 0 1
-0.2484848 -0.3159981 0.3353923 1 0 1
-0.2466264 -0.3171189 0.3369596 1 0 1
-0.2443565 -0.31764 0.3378263 1 0 1
-0.242083 -0.3181553 0.3386862 1 0 1
-0.2401988 -0.3192618 0.3402382 1 0 1
-0.2383038 -0.3203641 0.341786 1 0 1
-0.2356258 -0.3202647 0.3419257 1 0 1
-0.2337161 -0.3213568 0.3434623 1 0 1
-0.2306595 -0.3206439 0.3428809 1 0 1
-0.2823801 -0.3204711 0.3336562 1 0 1
-0.2810024 -0.3222569 0.3359847 1 0 1
-0.2778337 -0.3216891 0.3356049 1 0 1
-0.2755541 -0.3222892 0.3365689 1 0 1
-0.2728343 -0.3222937 0.336846 1 0 1
-0.2709824 -0.3234716 0.3384758 1 0 1
-0.2669746 -0.3216877 0.3366879 1 0 1
-0.2638419 -0.3210756 0.3362496 1 0 1
-0.2607194 -0.320454 0.3357987 1 0 1
-0.2576074 -0.3198231 0.3353351 1 0 1
-0.2532617 -0.3173976 0.3327934 1 0 1
-0.2505922 -0.3173412 0.3329903 1 0 1
-0.2483336 -0.3178741 0.3338687 1 0 1
-0.246475 -0.3189987 0.3354329 1 0 1
-0.2446053 -0.3201191 0.3369929 1 0 1
-0.2423281 -0.3206361 0.3378534 1 0 1
-0.24044 -0.3217472 0.3394036 1 0 1
-0.2381517 -0.3222532 0.3402516 1 0 1
-0.2350883 -0.32155 0.3396936 1 0 1
-0.2327999 -0.3220427 0.3405249 1 0 1
-0.2312648 -0.3237358 0.3427534 1 0 1
-0.2300865 -0.3260301 0.3456835 1 0 1
-0.2799737 -0.3194329 0.3287392 1 0 1
-0.278613 -0.3212207 0.3310543 1 0 1
-0.2767912 -0.3224158 0.3326942 1 0 1
-0.2745187 -0.323015 0.3336544 1 0 1
-0.2718062 -0.3230155 0.3339301 1 0 1
-0.2699612 -0.3241956 0.3355538 1 0 1
-0.2663901 -0.3229934 0.3344522 1 0 1
-0.2632614 -0.3223754 0.3340166 1 0 1
-0.2605647 -0.3223442 0.3342514 1 0 1
-0.256617 -0.3205139 0.3324227 1 0 1
-0.2526941 -0.3186707 0.3305757 1 0 1
-0.2504393 -0.3192102 0.3314602 1 0 1
-0.2477734 -0.3191442 0.3316491 1 0 1
-0.2455146 -0.3196712 0.3325184 1 0 1
-0.2436519 -0.3207939 0.3340726 1 0 1
-0.2409855 -0.3207077 0.3342366 1 0 1
-0.2391082 -0.3218203 0.3357797 1 0 1
-0.2368307 -0.3223247 0.3366228 1 0 1
-0.2345496 -0.3228233 0.3374591 1 0 1
-0.2318829 -0.3227105 0.33759 1 0 1
-0.2314894 -0.3262274 0.3419092 1 0 1
-0.2784674 -0.3195425 0.325177 1 0 1
-0.2780092 -0.3225201 0.3288228 1 0 1
-0.2761905 -0.323718 0.3304579 1 0 1
-0.2730434 -0.3231279 0.3300689 1 0 1
-0.2707773 -0.3237194 0.3310168 1 0 1
-0.2680751 -0.3237083 0.3312814 1 0 1
-0.2636621 -0.3212997 0.3288247 1 0 1
-0.2601304 -0.3200729 0.3277052 1 0 1
-0.2578802 -0.3206327 0.3286124 1 0 1
-0.2547906 -0.3199864 0.3281485 1 0 1
-0.2504688 -0.3175277 0.3256212 1 0 1
-0.2490531 -0.3192675 0.327868 1 0 1
-0.2468052 -0.3197995 0.3287407 1 0 1
-0.2437468 -0.3191186 0.3282311 1 0 1
-0.2418983 -0.3202417 0.3297765 1 0 1
-0.2396427 -0.3207555 0.3306274 1 0 1
-0.238561 -0.3230813 0.3335469 1 0 1
-0.2362872 -0.3235857 0.334388 1 0 1
-0.2355508 -0.3265148 0.3380004 1 0 1
-0.2336368 -0.3276189 0.3395288 1 0 1
-0.2351138 -0.3342013 0.3473274 1 0 1
-0.2778596 -0.3208179 0.3229551 1 0 1
-0.276512 -0.3226158 0.3252529 1 0 1
-0.2742614 -0.3232181 0.3262107 1 0 1
-0.2728843 -0.3250097 0.3285036 1 0 1
-0.2706183 -0.3256022 0.3294508 1 0 1
-0.2670527 -0.3243901 0.3283691 1 0 1
-0.2635045 -0.3231667 0.3272718 1 0 1
-0.259549 -0.3213307 0.3254821 1 0 1
-0.2564602 -0.320686 0.3250305 1 0 1
-0.2529643 -0.319429 0.3238867 1 0 1
-0.2498998 -0.3187647 0.3234086 1 0 1
-0.2472563 -0.318696 0.3236007 1 0 1
-0.2454295 -0.3198312 0.3251511 1 0 1
-0.2427855 -0.3197492 0.3253268 1 0 1
-0.2405445 -0.3202671 0.3261796 1 0 1
-0.2382999 -0.3207792 0.3270257 1 0 1
-0.2364438 -0.3218943 0.3285542 1 0 1
-0.2341881 -0.3223955 0.3293879 1 0 1
-0.2323138 -0.3235015 0.3309069 1 0 1
-0.2311914 -0.3258259 0.3338084 1 0 1
-0.2750044 -0.3190926 0.317411 1 0 1
-0.2736775 -0.3208914 0.3196939 1 0 1
-0.271006 -0.3208894 0.3199748 1 0 1
-0.2696532 -0.3226813 0.3222516 1 0 1
-0.2669769 -0.3226666 0.3225175 1 0 1
-0.2643036 -0.3226442 0.3227736 1 0 1
-0.2607775 -0.3214074 0.3216741 1 0 1
-0.2581176 -0.3213679 0.3219079 1 0 1
-0.2546192 -0.3201105 0.3207804 1 0 1
-0.2519728 -0.3200538 0.320992 1 0 1
-0.2485025 -0.318776 0.3198366 1 0 1
-0.24628 -0.3193105 0.3207063 1 0 1
-0.2444602 -0.3204476 0.3222507 1 0 1
-0.2414208 -0.3197524 0.3217425 1 0 1
-0.2387915 -0.3196583 0.3219063 1 0 1
-0.2373525 -0.32139 0.3241173 1 0 1
-0.2347194 -0.3212835 0.3242662 1 0 1
-0.2317015 -0.3205568 0.3237173 1 0 1
-0.2298487 -0.3216617 0.325225 1 0 1
-0.2283664 -0.3233768 0.3274196 1 0 1
-0.2734974 -0.3191278 0.3138739 1 0 1
-0.2721806 -0.3209306 0.3161465 1 0 1
-0.2704037 -0.3221288 0.3177537 1 0 1
-0.2677389 -0.3221161 0.318025 1 0 1
-0.2655119 -0.3227001 0.3189542 1 0 1
-0.2632808 -0.3232783 0.3198766 1 0 1
-0.2593349 -0.3214256 0.3181104 1 0 1
-0.256686 -0.3213812 0.3183416 1 0 1
-0.2536196 -0.3207212 0.3178897 1 0 1
-0.2513977 -0.3212698 0.3187748 1 0 1
-0.2479317 -0.3199831 0.3176248 1 0 1
-0.2457128 -0.3205175 0.3184923 1 0 1
-0.2434902 -0.3210461 0.319353 1 0 1
-0.2404587 -0.3203441 0.3188463 1 0 1
-0.2374378 -0.319633 0.3183275 1 0 1
-0.2360092 -0.321369 0.3205287 1 0 1
-0.2333873 -0.3212579 0.3206753 1 0 1
-0.231157 -0.3217551 0.3214982 1 0 1
-0.2293078 -0.3228629 0.3230014 1 0 1
-0.2285903 -0.3258184 0.3265659 1 0 1
-0.2724389 -0.3197429 0.3110036 1 0 1
-0.2702383 -0.3203415 0.3119462 1 0 1
-0.2689169 -0.3221453 0.3142062 1 0 1
-0.266701 -0.3227341 0.3151383 1 0 1
-0.2644812 -0.3233172 0.3160637 1 0 1
-0.2613953 -0.3226779 0.3156493 1 0 1
-0.2574647 -0.3208107 0.3138865 1 0 1
-0.2539825 -0.3195405 0.3127746 1 0 1
-0.2509382 -0.3188702 0.3123184 1 0 1
-0.2479043 -0.3181906 0.3118497 1 0 1
-0.2440548 -0.3162763 0.3100215 1 0 1
-0.2430969 -0.3186445 0.3129009 1 0 1
-0.2408959 -0.3191688 0.3137525 1 0 1
-0.2386912 -0.3196873 0.3145975 1 0 1
-0.236084 -0.3195839 0.3147566 1 0 1
-0.2346658 -0.3213241 0.316948 1 0 1
-0.2316635 -0.3205906 0.3164105 1 0 1
-0.2298357 -0.321704 0.3179106 1 0 1
-0.2283814 -0.3234326 0.3200913 1 0 1
-0.2291927 -0.3288797 0.3263859 1 0 1
-0.2691373 -0.3173078 0.3048535 1 0 1
-0.2669615 -0.3179006 0.3057846 1 0 1
-0.2661058 -0.3203129 0.3086879 1 0 1
-0.2634734 -0.3202877 0.3089492 1 0 1
-0.262147 -0.3220856 0.3111886 1 0 1
-0.2595102 -0.3220479 0.3114351 1 0 1
-0.2555949 -0.3201664 0.3096755 1 0 1
-0.2525514 -0.3194977 0.3092316 1 0 1
-0.2495184 -0.3188197 0.3087752 1 0 1
-0.2464959 -0.3181325 0.3083066 1 0 1
-0.2430709 -0.3168204 0.3071544 1 0 1
-0.2421196 -0.3191965 0.3100228 1 0 1
-0.2395201 -0.3191025 0.310197 1 0 1
-0.2377284 -0.3202375 0.3117124 1 0 1
-0.2351287 -0.3201303 0.3118706 1 0 1
-0.2337173 -0.3218755 0.3140536 1 0 1
-0.2299403 -0.3198939 0.3121588 1 0 1
-0.2285145 -0.3216292 0.3143311 1 0 1
-0.2247666 -0.3196279 0.3124096 1 0 1
-0.266734 -0.3160447 0.3000394 1 0 1
-0.2650206 -0.3172439 0.3016178 1 0 1
-0.263296 -0.3184393 0.3031926 1 0 1
-0.2606852 -0.3184065 0.3034467 1 0 1
-0.2593797 -0.3202056 0.3056714 1 0 1
-0.2571949 -0.3207744 0.3065723 1 0 1
-0.2528716 -0.3182626 0.3041518 1 0 1
-0.2511202 -0.3194312 0.3056966 1 0 1
-0.2485183 -0.3193625 0.3059062 1 0 1
-0.2455035 -0.3186685 0.3054389 1 0 1
-0.2416739 -0.3167281 0.303622 1 0 1
-0.2411417 -0.3197306 0.3071479 1 0 1
-0.2381443 -0.3190126 0.3066497 1 0 1
-0.236765 -0.3207699 0.3088306 1 0 1
-0.2341729 -0.3206589 0.3089878 1 0 1
-0.2331629 -0.3230319 0.3118379 1 0 1
-0.2297816 -0.3216622 0.3106279 1 0 1
-0.2283553 -0.3234041 0.3127946 1 0 1
-0.2656755 -0.3165833 0.2971984 1 0 1
-0.2639689 -0.3177844 0.2987704 1 0 1
-0.2631329 -0.32021 0.301648 1 0 1
-0.2600851 -0.3195601 0.3012477 1 0 1
-0.2583488 -0.3207488 0.3028075 1 0 1
-0.2561713 -0.3213167 0.3037047 1 0 1
-0.2518565 -0.3187894 0.3012932 1 0 1
-0.2492659 -0.3187225 0.3015081 1 0 1
-0.2466785 -0.3186481 0.3017136 1 0 1
-0.2432627 -0.317325 0.3005802 1 0 1
-0.2402769 -0.3166124 0.300098 1 0 1
-0.2397544 -0.3196247 0.3036088 1 0 1
-0.2367684 -0.318899 0.3031106 1 0 1
-0.2353995 -0.3206604 0.3052816 1 0 1
-0.2336145 -0.3217947 0.30678 1 0 1
-0.2314243 -0.3222991 0.3076012 1 0 1
-0.2284492 -0.3215446 0.3070672 1 0 1
-0.2270333 -0.3232908 0.3092241 1 0 1
-0.2655115 -0.3183344 0.2956587 1 0 1
-0.2629165 -0.3183072 0.2959262 1 0 1
-0.2616463 -0.3201234 0.2981404 1 0 1
-0.2581727 -0.3188478 0.2970864 1 0 1
-0.2560169 -0.3194176 0.2979821 1 0 1
-0.2534272 -0.3193618 0.2982146 1 0 1
-0.249988 -0.3180571 0.297122 1 0 1
-0.2478348 -0.3186061 0.2979923 1 0 1
-0.2448393 -0.3179044 0.2975345 1 0 1
-0.2414386 -0.3165699 0.2964022 1 0 1
-0.2384678 -0.315849 0.2959188 1 0 1
-0.2379587 -0.3188701 0.2994131 1 0 1
-0.2341779 -0.3168838 0.297581 1 0 1
-0.2328301 -0.3186467 0.2997379 1 0 1
-0.2310666 -0.3197795 0.3012247 1 0 1
-0.2296863 -0.321537 0.3033781 1 0 1
-0.2259454 -0.3195154 0.3014994 1 0 1
-0.2249377 -0.3218934 0.3043157 1 0 1
-0.2653459 -0.3200795 0.2941122 1 0 1
-0.2614197 -0.3181934 0.2924375 1 0 1
-0.259279 -0.3187735 0.2933424 1 0 1
-0.2566975 -0.3187272 0.2935897 1 0 1
-0.2545524 -0.3192951 0.2944801 1 0 1
-0.2519738 -0.3192345 0.29471 1 0 1
-0.2498245 -0.3197901 0.295586 1 0 1
-0.2472488 -0.3197155 0.2957987 1 0 1
-0.2442576 -0.319008 0.2953438 1 0 1
-0.2412767 -0.3182912 0.2948766 1 0 1
-0.2383066 -0.3175652 0.2943974 1 0 1
-0.2373882 -0.3199706 0.2972184 1 0 1
-0.2332076 -0.3173438 0.2947306 1 0 1
-0.2322676 -0.3197413 0.2975441 1 0 1
-0.2301101 -0.3202463 0.2983596 1 0 1
-0.2291305 -0.3226401 0.3011725 1 0 1
-0.2253942 -0.320607 0.299302 1 0 1
-0.2247761 -0.3236267 0.3027791 1 0 1
-0.2651785 -0.3218183 0.292559 1 0 1
-0.2612535 -0.3199217 0.2908936 1 0 1
-0.2591129 -0.3205028 0.2917977 1 0 1
-0.2560953 -0.3198307 0.2913983 1 0 1
-0.2535209 -0.3197738 0.2916365 1 0 1
-0.2518085 -0.3209605 0.2931681 1 0 1
-0.2496593 -0.3215171 0.2940432 1 0 1
-0.2470841 -0.3214404 0.2942577 1 0 1
-0.2440934 -0.320728 0.2938071 1 0 1
