ply
format ascii 1.0
Comment Generated by Floating Hands
element vertex 1254
property double x
property double y
property double z
property uchar red
property uchar green
property uchar blue
end_header
0.1134191 -0.03241291 0.1519231 1 0 1
0.1147647 -0.03255184 0.1525202 1 0 1
0.1164373 -0.03303087 0.1539942 1 0 1
0.1174744 -0.03281848 0.1536976 1 0 1
0.1188385 -0.03294615 0.1542777 1 0 1
0.1212042 -0.03409459 0.1574902 1 0 1
0.1239336 -0.0355753 0.1615685 1 0 1
0.1263593 -0.03670586 0.1647551 1 0 1
0.12847 -0.03748854 0.167053 1 0 1
0.1302547 -0.03792562 0.1684655 1 0 1
0.131352 -0.03768204 0.1681224 1 0 1
0.1324478 -0.03743603 0.1677754 1 0 1
0.1331845 -0.03685174 0.1665534 1 0 1
0.1346348 -0.03693684 0.1670703 1 0 1
0.09840059 -0.03694814 0.1571833 1 0 1
0.09997666 -0.03749154 0.1587407 1 0 1
0.1010371 -0.0373144 0.1585003 1 0 1
0.1020964 -0.03713498 0.1582562 1 0 1
0.1031546 -0.0369533 0.1580086 1 0 1
0.1039356 -0.0364134 0.1568646 1 0 1
0.1049878 -0.03622781 0.1566108 1 0 1
0.1060388 -0.03603992 0.1563533 1 0 1
0.1070887 -0.03584979 0.1560923 1 0 1
0.1078462 -0.03530414 0.1549387 1 0 1
0.10889 -0.03511014 0.1546715 1 0 1
0.1096339 -0.03456207 0.1535137 1 0 1
0.1103692 -0.03401317 0.1523543 1 0 1
0.1114018 -0.0338138 0.1520785 1 0 1
0.1127431 -0.03396187 0.1526834 1 0 1
0.1134635 -0.03340843 0.1515164 1 0 1
0.1148096 -0.03355053 0.1521123 1 0 1
0.1161619 -0.03368896 0.1527025 1 0 1
0.1171956 -0.03347689 0.1524071 1 0 1
0.1185564 -0.0336085 0.1529871 1 0 1
0.1209195 -0.03477166 0.156195 1 0 1
0.1229749 -0.03558195 0.1585139 1 0 1
0.1257299 -0.03707233 0.1625738 1 0 1
0.1281772 -0.03820963 0.1657443 1 0 1
0.1303057 -0.03899618 0.1680288 1 0 1
0.1317538 -0.03909324 0.1685581 1 0 1
0.1324995 -0.03850565 0.1673392 1 0 1
0.1332362 -0.0379173 0.1661188 1 0 1
0.1346871 -0.0380055 0.1666346 1 0 1
0.09949446 -0.03778071 0.1565318 1 0 1
0.1008126 -0.03796593 0.1571871 1 0 1
0.1021373 -0.03814766 0.1578372 1 0 1
0.1034683 -0.03832578 0.158482 1 0 1
0.1042532 -0.03778126 0.1573388 1 0 1
0.1053095 -0.03759462 0.1570842 1 0 1
0.1060808 -0.03704755 0.1559366 1 0 1
0.107131 -0.03685701 0.1556758 1 0 1
0.1078887 -0.03630741 0.1545238 1 0 1
0.1089328 -0.03611306 0.1542569 1 0 1
0.1099757 -0.03591641 0.1539864 1 0 1
0.1107148 -0.03536282 0.1528277 1 0 1
0.1114453 -0.03480839 0.1516674 1 0 1
0.112477 -0.03460643 0.1513884 1 0 1
0.1135075 -0.03440221 0.1511058 1 0 1
0.1148541 -0.03454753 0.1517004 1 0 1
0.116528 -0.0350401 0.1531689 1 0 1
0.1175657 -0.03482689 0.1528727 1 0 1
0.1186022 -0.03461142 0.152573 1 0 1
0.1206339 -0.03543977 0.1548988 1 0 1
0.1223506 -0.03591327 0.1563392 1 0 1
0.1247598 -0.03707552 0.1595201 1 0 1
0.1275404 -0.0385754 0.1635614 1 0 1
0.1296623 -0.03937384 0.1658439 1 0 1
0.1314542 -0.03982032 0.1672451 1 0 1
0.1325506 -0.03957339 0.1668987 1 0 1
0.1336455 -0.03932402 0.1665485 1 0 1
0.1347389 -0.03907227 0.1661946 1 0 1
0.09822731 -0.0369566 0.1516449 1 0 1
0.1000574 -0.0378784 0.1540881 1 0 1
0.10164 -0.03842968 0.155631 1 0 1
0.1032367 -0.03897614 0.1571669 1 0 1
0.1042944 -0.03879144 0.1569161 1 0 1
0.105351 -0.03860443 0.1566617 1 0 1
0.1064065 -0.03841518 0.1564038 1 0 1
0.1074607 -0.0382236 0.1561423 1 0 1
0.1082223 -0.03766934 0.1549911 1 0 1
0.1092705 -0.03747388 0.1547234 1 0 1
0.1100185 -0.03691717 0.153568 1 0 1
0.1107578 -0.03635962 0.152411 1 0 1
0.1114884 -0.03580125 0.1512525 1 0 1
0.1125204 -0.03559887 0.1509736 1 0 1
0.1135512 -0.03539426 0.1506912 1 0 1
0.1145807 -0.03518742 0.1504054 1 0 1
0.1162515 -0.0356875 0.1518723 1 0 1
0.1172859 -0.03547463 0.1515773 1 0 1
0.1186476 -0.03561256 0.1521548 1 0 1
0.1200154 -0.03574669 0.1527266 1 0 1
0.1217253 -0.03622847 0.1541665 1 0 1
0.1237883 -0.03705549 0.1564712 1 0 1
0.1269024 -0.03892508 0.1613802 1 0 1
0.1293649 -0.04008444 0.1645312 1 0 1
0.1318554 -0.04123494 0.1676694 1 0 1
0.1329558 -0.04098668 0.1673221 1 0 1
0.1340547 -0.04073601 0.1669711 1 0 1
0.1351521 -0.04048295 0.1666163 1 0 1
0.09695852 -0.03609481 0.1467693 1 0 1
0.09983146 -0.03850484 0.1527761 1 0 1
0.101411 -0.03906361 0.154317 1 0 1
0.1032773 -0.03998487 0.1567401 1 0 1
0.1043353 -0.03979982 0.1564895 1 0 1
0.1053922 -0.03961247 0.1562353 1 0 1
0.106448 -0.03942284 0.1559776 1 0 1
0.1075025 -0.03923088 0.1557163 1 0 1
0.1085559 -0.03903666 0.1554514 1 0 1
0.1093128 -0.03847687 0.1542993 1 0 1
0.1100609 -0.0379162 0.1531456 1 0 1
0.1108004 -0.03735464 0.1519904 1 0 1
0.1115311 -0.03679232 0.1508336 1 0 1
0.1125634 -0.03658956 0.1505549 1 0 1
0.1135945 -0.03638453 0.1502728 1 0 1
0.1146244 -0.03617731 0.1499872 1 0 1
0.1162958 -0.03668414 0.1514512 1 0 1
0.1173304 -0.03647087 0.1511565 1 0 1
0.1183637 -0.03625531 0.1508583 1 0 1
0.1197283 -0.03639339 0.1514299 1 0 1
0.1217713 -0.0372377 0.1537404 1 0 1
0.1231553 -0.03736648 0.1542984 1 0 1
0.1259197 -0.03890513 0.1583308 1 0 1
0.1287195 -0.0404334 0.1623484 1 0 1
0.1312036 -0.04159931 0.1654831 1 0 1
0.1326517 -0.0417032 0.1660051 1 0 1
0.1337472 -0.04145291 0.1656554 1 0 1
0.1348412 -0.04120021 0.1653021 1 0 1
0.08721165 -0.02452949 0.116286 1 0 1
0.0964729 -0.03631403 0.1445759 1 0 1
0.09987041 -0.03949454 0.1523525 1 0 1
0.1014505 -0.04006016 0.1538906 1 0 1
0.1033176 -0.04099184 0.1563093 1 0 1
0.1043759 -0.04080642 0.1560589 1 0 1
0.1054331 -0.04061871 0.1558049 1 0 1
0.1064892 -0.04042872 0.1555474 1 0 1
0.107832 -0.04060467 0.1561703 1 0 1
0.1088895 -0.04040936 0.1559047 1 0 1
0.1096502 -0.0398449 0.1547534 1 0 1
0.1104022 -0.03927955 0.1536005 1 0 1
0.1111456 -0.03871334 0.1524459 1 0 1
0.1118802 -0.03814629 0.1512899 1 0 1
0.1126061 -0.03757846 0.1501323 1 0 1
0.1139517 -0.03773631 0.1507275 1 0 1
0.1146676 -0.03716543 0.149565 1 0 1
0.1160181 -0.03731726 0.1501512 1 0 1
0.1173746 -0.03746532 0.1507318 1 0 1
0.1184082 -0.03724937 0.1504337 1 0 1
0.1197732 -0.03739056 0.1510041 1 0 1
0.1211443 -0.03752788 0.1515687 1 0 1
0.1221812 -0.03730359 0.151258 1 0 1
0.1245919 -0.03850502 0.1544179 1 0 1
0.1273781 -0.04005387 0.1584327 1 0 1
0.1305507 -0.04194755 0.1632987 1 0 1
0.1327015 -0.04276528 0.1655519 1 0 1
0.1341558 -0.04286823 0.1660666 1 0 1
0.1352538 -0.04261418 0.1657123 1 0 1
0.09572469 -0.03614073 0.1414962 1 0 1
0.09964357 -0.04010669 0.1510374 1 0 1
0.1014898 -0.0410549 0.1534603 1 0 1
0.1030845 -0.04162246 0.1549885 1 0 1
0.1044162 -0.04181122 0.1556244 1 0 1
0.1054737 -0.04162314 0.1553706 1 0 1
0.1062456 -0.04106027 0.1542299 1 0 1
0.1075852 -0.04124008 0.1548523 1 0 1
0.1089311 -0.04141625 0.1554694 1 0 1
0.109692 -0.04084783 0.1543198 1 0 1
0.1107436 -0.04064827 0.1540483 1 0 1
0.1114908 -0.04007739 0.1528945 1 0 1
0.1119224 -0.03913739 0.1508616 1 0 1
0.1126485 -0.03856562 0.1497058 1 0 1
0.1136802 -0.03835981 0.1494242 1 0 1
0.1147106 -0.03815176 0.1491389 1 0 1
0.1160614 -0.03830677 0.1497238 1 0 1
0.1174184 -0.03845796 0.1503031 1 0 1
0.1184523 -0.0382416 0.1500053 1 0 1
0.1194849 -0.03802297 0.149704 1 0 1
0.1208527 -0.03816426 0.1502685 1 0 1
0.1218863 -0.0379403 0.1499591 1 0 1
0.1232623 -0.03807462 0.1505132 1 0 1
0.1260349 -0.03964404 0.1545251 1 0 1
0.1291942 -0.04156185 0.1593868 1 0 1
0.131331 -0.04239309 0.1616403 1 0 1
0.1331298 -0.04285966 0.1630207 1 0 1
0.1345794 -0.0429641 0.1635315 1 0 1
0.09471346 -0.03556421 0.137535 1 0 1
0.09941608 -0.04070987 0.1497213 1 0 1
0.1012592 -0.04166915 0.1521407 1 0 1
0.1031239 -0.04262223 0.1545514 1 0 1
0.1044561 -0.04281418 0.1551859 1 0 1
0.1052332 -0.04224901 0.1540495 1 0 1
0.1065706 -0.04243501 0.1546751 1 0 1
0.1079143 -0.04261737 0.1552953 1 0 1
0.1086803 -0.04204661 0.1541502 1 0 1
0.1097334 -0.04184895 0.1538824 1 0 1
0.1104858 -0.04127571 0.152733 1 0 1
0.1112294 -0.04070165 0.151582 1 0 1
0.1119643 -0.04012669 0.1504295 1 0 1
0.1126905 -0.03955095 0.1492754 1 0 1
0.1137224 -0.03934476 0.148994 1 0 1
0.1147531 -0.03913632 0.148709 1 0 1
0.1157825 -0.03892562 0.1484206 1 0 1
0.1171362 -0.03908073 0.1489996 1 0 1
0.1181667 -0.03886476 0.1487031 1 0 1
0.1191959 -0.0386465 0.1484032 1 0 1
0.1205604 -0.03879168 0.1489674 1 0 1
0.1215906 -0.03856811 0.1486594 1 0 1
0.1229634 -0.03870635 0.1492133 1 0 1
0.1253856 -0.03993054 0.1523545 1 0 1
0.1285387 -0.04187083 0.1572094 1 0 1
0.1306691 -0.04271389 0.1594609 1 0 1
0.1328199 -0.04354955 0.1617017 1 0 1
0.1342663 -0.04365789 0.1622124 1 0 1
0.09160443 -0.03188871 0.1264984 1 0 1
0.09812472 -0.03977234 0.1448659 1 0 1
0.1012978 -0.04265671 0.1517042 1 0 1
0.1028898 -0.04323849 0.1532273 1 0 1
0.1044958 -0.04381531 0.1547434 1 0 1
0.105273 -0.04324621 0.1536089 1 0 1
0.1066108 -0.0434354 0.1542331 1 0 1
0.1076666 -0.04324202 0.1539726 1 0 1
0.1087211 -0.04304629 0.1537085 1 0 1
0.1094786 -0.04247067 0.1525635 1 0 1
0.110527 -0.04227108 0.1522934 1 0 1
0.1112707 -0.04169304 0.1511442 1 0 1
0.1120058 -0.04111416 0.1499934 1 0 1
0.113043 -0.04090913 0.1497146 1 0 1
0.114079 -0.0407018 0.1494324 1 0 1
0.1147953 -0.04011908 0.1482752 1 0 1
0.115825 -0.03990796 0.147987 1 0 1
0.1171791 -0.04006622 0.1485647 1 0 1
0.1182099 -0.0398498 0.1482684 1 0 1
0.1192393 -0.03963114 0.1479687 1 0 1
0.1202674 -0.03941021 0.1476655 1 0 1
0.1212942 -0.039187 0.1473588 1 0 1
0.1223195 -0.03896152 0.1470487 1 0 1
0.1243873 -0.03983426 0.1493234 1 0 1
0.1268274 -0.04106575 0.1524493 1 0 1
0.130006 -0.04301864 0.1572836 1 0 1
0.1321504 -0.0438661 0.1595223 1 0 1
0.1343151 -0.04470611 0.1617504 1 0 1
0.04436571 -0.02194007 0.09691003 1 0 1
0.04562541 -0.02392347 0.1014007 1 0 1
0.04608919 -0.02223896 0.09770779 1 0 1
0.04652152 -0.02055483 0.09401439 1 0 1
0.08324807 -0.02038291 0.09781736 1 0 1
0.09629977 -0.03802433 0.1382563 1 0 1
0.100257 -0.042099 0.1477348 1 0 1
0.1026551 -0.04384578 0.1519025 1 0 1
0.1045352 -0.04481459 0.154297 1 0 1
0.1053125 -0.04424158 0.1531643 1 0 1
0.1066507 -0.04443397 0.1537871 1 0 1
0.1077068 -0.04424019 0.1535268 1 0 1
0.1087616 -0.0440441 0.153263 1 0 1
0.1095192 -0.04346459 0.1521198 1 0 1
0.1105679 -0.04326456 0.1518498 1 0 1
0.1113118 -0.04268261 0.1507024 1 0 1
0.1120469 -0.0420998 0.1495535 1 0 1
0.1127734 -0.04151618 0.148403 1 0 1
0.1138059 -0.04130921 0.148122 1 0 1
0.1148371 -0.04109998 0.1478375 1 0 1
0.1158671 -0.04088848 0.1475495 1 0 1
0.1168958 -0.04067471 0.147258 1 0 1
0.1182527 -0.04083305 0.1478298 1 0 1
0.1192824 -0.04061396 0.1475304 1 0 1
0.1203108 -0.04039259 0.1472274 1 0 1
0.1213378 -0.04016898 0.146921 1 0 1
0.122019 -0.03957191 0.1457487 1 0 1
0.1237358 -0.04008529 0.1471589 1 0 1
0.1258176 -0.04096259 0.1494211 1 0 1
0.128631 -0.04257 0.1533907 1 0 1
0.1318388 -0.04453449 0.1582029 1 0 1
0.1343634 -0.0457524 0.1612842 1 0 1
0.04215508 -0.02407585 0.09944062 1 0 1
0.04406419 -0.02979028 0.112107 1 0 1
0.04567685 -0.03343919 0.1202249 1 0 1
0.04693444 -0.03502594 0.1237975 1 0 1
0.04804511 -0.03578684 0.1255504 1 0 1
0.04879978 -0.03490203 0.1236708 1 0 1
0.04963524 -0.03442667 0.1226961 1 0 1
0.05046254 -0.03394984 0.1217188 1 0 1
0.05107269 -0.03265196 0.1189268 1 0 1
0.05111699 -0.02930629 0.1116043 1 0 1
0.0504248 -0.02350835 0.09885129 1 0 1
0.09021489 -0.02998373 0.1175614 1 0 1
0.09840514 -0.04034279 0.1411325 1 0 1
0.1021461 -0.04405538 0.1496973 1 0 1
0.1040193 -0.04503581 0.152089 1 0 1
0.1053516 -0.04523507 0.1527157 1 0 1
0.1066903 -0.04543067 0.1533372 1 0 1
0.1074579 -0.04485048 0.152201 1 0 1
0.1085093 -0.0446547 0.1519383 1 0 1
0.1092632 -0.04407199 0.1507978 1 0 1
0.1103084 -0.04387232 0.1505291 1 0 1
0.1110487 -0.04328714 0.1493845 1 0 1
0.1120877 -0.0430836 0.1491096 1 0 1
0.1128143 -0.04249606 0.147961 1 0 1
0.1138471 -0.04228872 0.1476802 1 0 1
0.1148786 -0.04207908 0.1473959 1 0 1
0.1155864 -0.04148772 0.1462409 1 0 1
0.1166117 -0.04127431 0.1459508 1 0 1
0.1176355 -0.04105866 0.1456571 1 0 1
0.1186581 -0.04084072 0.1453601 1 0 1
0.1196794 -0.04062055 0.1450595 1 0 1
0.1206992 -0.04039811 0.1447555 1 0 1
0.1217178 -0.04017338 0.1444481 1 0 1
0.1230831 -0.04032035 0.1449968 1 0 1
0.1248065 -0.0408364 0.1463983 1 0 1
0.1272543 -0.04209127 0.1495064 1 0 1
0.1304486 -0.04407977 0.154314 1 0 1
0.1333224 -0.04568524 0.158249 1 0 1
0.04071197 -0.02617619 0.1018984 1 0 1
0.0423168 -0.03070297 0.1118322 1 0 1
0.04400743 -0.03522307 0.1217586 1 0 1
0.0453973 -0.03765999 0.1271451 1 0 1
0.04667138 -0.03926206 0.1307134 1 0 1
0.04780621 -0.04003055 0.1324647 1 0 1
0.04886734 -0.04038147 0.1333061 1 0 1
0.04975014 -0.03990122 0.1323328 1 0 1
0.05072158 -0.03983341 0.1322621 1 0 1
0.05169267 -0.03976347 0.1321881 1 0 1
0.0526634 -0.0396914 0.1321109 1 0 1
0.05341673 -0.038791 0.130222 1 0 1
0.05415408 -0.03788977 0.1283313 1 0 1
0.05406135 -0.03410041 0.1201142 1 0 1
0.05269624 -0.0261933 0.1028688 1 0 1
0.08225983 -0.01902292 0.09077828 1 0 1
0.09682114 -0.03892805 0.135428 1 0 1
0.1016362 -0.04424895 0.1474946 1 0 1
0.1037802 -0.04563263 0.1507607 1 0 1
0.1051091 -0.04583575 0.1513869 1 0 1
0.1067296 -0.04642548 0.1528833 1 0 1
0.1074973 -0.04584138 0.1517489 1 0 1
0.1082563 -0.04525637 0.1506129 1 0 1
0.109303 -0.04505861 0.1503478 1 0 1
0.1100484 -0.0444711 0.1492076 1 0 1
0.1110889 -0.04426947 0.1489365 1 0 1
0.1118206 -0.04367954 0.1477922 1 0 1
0.1128549 -0.0434741 0.1475151 1 0 1
0.1138879 -0.04326633 0.1472345 1 0 1
0.1146009 -0.04267256 0.1460838 1 0 1
0.1156277 -0.04246103 0.1457974 1 0 1
0.1166531 -0.0422472 0.1455074 1 0 1
0.1180072 -0.04241259 0.1460776 1 0 1
0.1187001 -0.04181282 0.1449172 1 0 1
0.1197216 -0.04159221 0.1446169 1 0 1
0.1210828 -0.04174839 0.1451734 1 0 1
0.1221053 -0.04152247 0.1448651 1 0 1
0.1231264 -0.04129428 0.1445533 1 0 1
0.1244981 -0.04144036 0.145095 1 0 1
0.1269432 -0.04270967 0.1481981 1 0 1
0.1297756 -0.04434478 0.152143 1 0 1
0.1326432 -0.04596902 0.1560726 1 0 1
0.03968328 -0.03165112 0.11158 1 0 1
0.04099969 -0.03454457 0.1178812 1 0 1
0.04230503 -0.03701378 0.1232715 1 0 1
0.04358751 -0.03905915 0.1277513 1 0 1
0.04490883 -0.04110027 0.1322259 1 0 1
0.04611422 -0.04229937 0.1348857 1 0 1
0.04726151 -0.04307635 0.1366363 1 0 1
0.04833892 -0.04343184 0.1374782 1 0 1
0.04942382 -0.04378465 0.1383165 1 0 1
0.05023722 -0.04288136 0.1364396 1 0 1
0.05132533 -0.04322956 0.137271 1 0 1
0.05232008 -0.0431578 0.1371953 1 0 1
0.05341917 -0.04350084 0.1380192 1 0 1
0.05441705 -0.04342442 0.1379365 1 0 1
0.05552703 -0.04376221 0.1387528 1 0 1
0.05641156 -0.04326508 0.1377614 1 0 1
0.05704732 -0.04193499 0.1349643 1 0 1
0.05616914 -0.03562003 0.1213526 1 0 1
0.05402123 -0.02557775 0.09964269 1 0 1
0.0941546 -0.03588308 0.1262299 1 0 1
0.1011255 -0.04442652 0.1452947 1 0 1
0.1035405 -0.04622051 0.1494318 1 0 1
0.1051475 -0.04682199 0.1509323 1 0 1
0.1064833 -0.0470246 0.1515517 1 0 1
0.1072474 -0.04643729 0.1504201 1 0 1
0.1082955 -0.04624148 0.1501588 1 0 1
0.1093425 -0.04604337 0.149894 1 0 1
0.1103882 -0.04584292 0.1496256 1 0 1
0.1114328 -0.0456402 0.1493538 1 0 1
0.1121683 -0.04504563 0.1482103 1 0 1
0.1125836 -0.04406146 0.1461983 1 0 1
0.1136132 -0.04385405 0.1459189 1 0 1
0.1146415 -0.04364444 0.1456362 1 0 1
0.1153459 -0.04304597 0.1444859 1 0 1
0.1166943 -0.04321826 0.1450602 1 0 1
0.1180488 -0.04338673 0.145629 1 0 1
0.1187418 -0.04278304 0.1444704 1 0 1
0.1197635 -0.04256202 0.1441704 1 0 1
0.1207839 -0.04233875 0.1438669 1 0 1
0.1214581 -0.04173148 0.1427024 1 0 1
0.122472 -0.04150451 0.1423932 1 0 1
0.124189 -0.04203543 0.143791 1 0 1
0.1262754 -0.04293992 0.146035 1 0 1
0.1287419 -0.04421544 0.1491214 1 0 1
0.1315995 -0.04585931 0.1530468 1 0 1
0.04074343 -0.04008141 0.1274755 1 0 1
0.04188383 -0.04130323 0.1301464 1 0 1
0.04298174 -0.04209869 0.1319094 1 0 1
0.04416471 -0.04331402 0.1345719 1 0 1
0.04522379 -0.04368064 0.1354233 1 0 1
0.04636788 -0.04446704 0.1371741 1 0 1
0.04744595 -0.0448282 0.1380179 1 0 1
0.04853152 -0.04518664 0.1388578 1 0 1
0.0495354 -0.04512077 0.1387916 1 0 1
0.05044585 -0.04463131 0.1378199 1 0 1
0.05163912 -0.04540354 0.1395509 1 0 1
0.05254494 -0.04490998 0.1385729 1 0 1
0.05375697 -0.04567638 0.1402957 1 0 1
0.05487551 -0.04601919 0.1411131 1 0 1
0.056114 -0.0467791 0.142827 1 0 1
0.0571347 -0.0466963 0.1427358 1 0 1
0.05839568 -0.04744985 0.1444408 1 0 1
0.05892612 -0.04568608 0.1407442 1 0 1
0.05955313 -0.04434144 0.1379464 1 0 1
0.05936401 -0.0404871 0.1297555 1 0 1
0.05624972 -0.02786099 0.1027053 1 0 1
0.09121479 -0.03236564 0.1161853 1 0 1
0.1003399 -0.04418871 0.1422226 1 0 1
0.1030223 -0.04640072 0.1472283 1 0 1
0.104904 -0.04740828 0.1496005 1 0 1
0.1062364 -0.04761477 0.1502196 1 0 1
0.1069968 -0.04702425 0.1490907 1 0 1
0.1080415 -0.04682878 0.1488305 1 0 1
0.1090849 -0.04663098 0.1485669 1 0 1
0.1101272 -0.0464309 0.1482997 1 0 1
0.1111682 -0.0462285 0.148029 1 0 1
0.1119002 -0.04563079 0.1468885 1 0 1
0.1126233 -0.04503223 0.1457464 1 0 1
0.1133378 -0.04443291 0.1446028 1 0 1
0.1143627 -0.04422358 0.1443213 1 0 1
0.1153862 -0.04401205 0.1440363 1 0 1
0.116735 -0.04418745 0.1446092 1 0 1
0.1180899 -0.04435903 0.1451766 1 0 1
0.118783 -0.0437514 0.1440199 1 0 1
0.119805 -0.04352997 0.1437201 1 0 1
0.1208256 -0.04330627 0.1434169 1 0 1
0.1218449 -0.04308031 0.1431102 1 0 1
0.1228628 -0.0428521 0.1428 1 0 1
0.1242317 -0.04300517 0.1433401 1 0 1
0.1259627 -0.04353701 0.1447269 1 0 1
0.1280666 -0.04444503 0.146957 1 0 1
0.130918 -0.04610769 0.1508769 1 0 1
0.0409947 -0.04266022 0.1306738 1 0 1
0.04208934 -0.04346506 0.1324369 1 0 1
0.04319941 -0.04426695 0.134196 1 0 1
0.04432487 -0.04506584 0.1359511 1 0 1
0.04539213 -0.04543549 0.1368005 1 0 1
0.04638936 -0.04537655 0.1367447 1 0 1
0.04746776 -0.04574114 0.1375868 1 0 1
0.04846831 -0.0456776 0.1375242 1 0 1
0.04955782 -0.04603706 0.138359 1 0 1
0.0505616 -0.04596887 0.1382895 1 0 1
0.05175922 -0.04674783 0.1400169 1 0 1
0.0527701 -0.04667467 0.1399402 1 0 1
0.05388549 -0.04702338 0.1407596 1 0 1
0.05500824 -0.04736932 0.1415751 1 0 1
0.05625111 -0.0481359 0.1432854 1 0 1
0.05739253 -0.0484758 0.1440924 1 0 1
0.05866176 -0.04923565 0.1457935 1 0 1
0.05969734 -0.04914691 0.145694 1 0 1
0.06086072 -0.04947808 0.1464886 1 0 1
0.06176705 -0.04896259 0.1454849 1 0 1
0.06212094 -0.04675974 0.1408924 1 0 1
0.1027813 -0.04696718 0.1458999 1 0 1
0.1049416 -0.04838719 0.1491397 1 0 1
0.1062744 -0.04859682 0.1497573 1 0 1
0.1070349 -0.04800242 0.1486303 1 0 1
0.1080798 -0.04780659 0.1483704 1 0 1
0.1094204 -0.04800719 0.1489746 1 0 1
0.1101661 -0.04740796 0.1478399 1 0 1
0.1109031 -0.04680791 0.1467037 1 0 1
0.1119394 -0.04660358 0.1464308 1 0 1
0.1123509 -0.04560532 0.1444268 1 0 1
0.1130617 -0.04500284 0.1432861 1 0 1
0.1144024 -0.0451882 0.1438676 1 0 1
0.1154261 -0.04497625 0.1435829 1 0 1
0.1164487 -0.044762 0.1432947 1 0 1
0.1178002 -0.04493745 0.1438617 1 0 1
0.1188238 -0.0447179 0.1435656 1 0 1
0.1198461 -0.04449605 0.143266 1 0 1
0.1212085 -0.0446615 0.1438184 1 0 1
0.1222317 -0.04443426 0.1435108 1 0 1
0.1232535 -0.0442048 0.1431998 1 0 1
0.1246265 -0.04436009 0.1437373 1 0 1
0.1260054 -0.04451144 0.1442692 1 0 1
0.1273903 -0.04465878 0.1447952 1 0 1
0.1295082 -0.0455711 0.1470125 1 0 1
0.04004303 -0.04359025 0.1302906 1 0 1
0.04113047 -0.04440467 0.1320538 1 0 1
0.04229532 -0.04564653 0.1347137 1 0 1
0.04341754 -0.04645485 0.1364689 1 0 1
0.04455516 -0.04726011 0.1382201 1 0 1
0.04563446 -0.04763258 0.1390672 1 0 1
0.04664369 -0.04757283 0.1390109 1 0 1
0.04765262 -0.04751085 0.1389511 1 0 1
0.04857578 -0.04701768 0.1379889 1 0 1
0.04958018 -0.04695156 0.1379228 1 0 1
0.05058422 -0.04688324 0.1378534 1 0 1
0.05178227 -0.04766921 0.1395775 1 0 1
0.05279339 -0.04759591 0.1395009 1 0 1
0.05390912 -0.04794804 0.1403187 1 0 1
0.05492335 -0.04787004 0.140235 1 0 1
0.05616276 -0.04864389 0.1419424 1 0 1
0.05730063 -0.04898753 0.1427481 1 0 1
0.05868697 -0.05018107 0.1453427 1 0 1
0.0598473 -0.05051821 0.1461395 1 0 1
0.06127163 -0.05170389 0.1487235 1 0 1
0.06271876 -0.05288513 0.1513016 1 0 1
0.06378032 -0.0527869 0.1511891 1 0 1
0.06428123 -0.05098774 0.1474953 1 0 1
0.0646066 -0.04876497 0.1429074 1 0 1
0.1017054 -0.0463075 0.1419591 1 0 1
0.1044151 -0.04855406 0.1469356 1 0 1
0.1063121 -0.04957698 0.1492912 1 0 1
0.1073622 -0.04938237 0.149034 1 0 1
0.1081179 -0.04878249 0.1479063 1 0 1
0.1094588 -0.04898621 0.1485091 1 0 1
0.109904 -0.04798161 0.1465113 1 0 1
0.1109418 -0.04777915 0.146242 1 0 1
0.1116701 -0.04717439 0.1451062 1 0 1
0.1123898 -0.0465688 0.1439689 1 0 1
0.1131007 -0.04596243 0.1428301 1 0 1
0.1144417 -0.04615091 0.1434102 1 0 1
0.1154657 -0.04593856 0.1431257 1 0 1
0.1164885 -0.04572392 0.1428377 1 0 1
0.1178405 -0.04590246 0.1434033 1 0 1
0.1188643 -0.0456825 0.1431074 1 0 1
0.1198868 -0.04546022 0.1428081 1 0 1
0.1212496 -0.04562872 0.143359 1 0 1
0.1226184 -0.04579332 0.1439043 1 0 1
0.1236441 -0.04556256 0.1435924 1 0 1
0.1246685 -0.04532955 0.1432772 1 0 1
0.1260478 -0.04548393 0.1438076 1 0 1
0.1267129 -0.04485661 0.1426361 1 0 1
0.1284604 -0.04539271 0.1440042 1 0 1
0.03919131 -0.04538563 0.1316991 1 0 1
0.04027933 -0.0462092 0.1334622 1 0 1
0.04132467 -0.04659575 0.1343224 1 0 1
0.04243968 -0.04741367 0.1360779 1 0 1
0.04357013 -0.04822856 0.1378294 1 0 1
0.04464614 -0.04860689 0.1386784 1 0 1
0.04565588 -0.04854926 0.1386254 1 0 1
0.04666534 -0.04848943 0.1385692 1 0 1
0.04767452 -0.04842737 0.1385095 1 0 1
0.04868339 -0.04836309 0.1384466 1 0 1
0.04969193 -0.04829659 0.1383803 1 0 1
0.05079347 -0.04865995 0.1392077 1 0 1
0.05190249 -0.04902054 0.1400312 1 0 1
0.05291779 -0.04894684 0.1399543 1 0 1
0.05403777 -0.04930213 0.1407702 1 0 1
0.05505614 -0.04922368 0.1406863 1 0 1
0.05629986 -0.05000417 0.14239 1 0 1
0.05732523 -0.04992059 0.1422987 1 0 1
0.05859142 -0.05069466 0.1439934 1 0 1
0.0597482 -0.05103554 0.144789 1 0 1
0.06116917 -0.05223199 0.1473683 1 0 1
0.06248063 -0.05299516 0.1490482 1 0 1
0.06367089 -0.05332603 0.1498299 1 0 1
0.06500851 -0.054082 0.1514999 1 0 1
0.0665051 -0.055262 0.1540571 1 0 1
0.102854 -0.04889185 0.1449797 1 0 1
0.1052979 -0.05074782 0.1490746 1 0 1
0.106921 -0.05137092 0.1505554 1 0 1
0.1076893 -0.05076741 0.1494305 1 0 1
0.1087422 -0.05056941 0.1491691 1 0 1
0.1094969 -0.04996334 0.1480398 1 0 1
0.1102428 -0.04935633 0.1469089 1 0 1
0.1112846 -0.04915282 0.1466389 1 0 1
0.1120169 -0.04854343 0.145504 1 0 1
0.1127404 -0.04793321 0.1443676 1 0 1
0.1134551 -0.0473222 0.1432298 1 0 1
0.1144807 -0.04711173 0.1429489 1 0 1
0.115505 -0.04689895 0.1426646 1 0 1
0.1165279 -0.04668394 0.1423769 1 0 1
0.1178803 -0.04686554 0.1429411 1 0 1
0.1189044 -0.04664515 0.1426454 1 0 1
0.1199271 -0.0464225 0.1423464 1 0 1
0.1212903 -0.04659408 0.1428959 1 0 1
0.1219684 -0.04597032 0.1417379 1 0 1
0.1229871 -0.04574079 0.1414285 1 0 1
0.1243572 -0.04590305 0.1419645 1 0 1
0.1253766 -0.04566814 0.1416471 1 0 1
0.1263947 -0.04543096 0.1413263 1 0 1
0.1281391 -0.0459744 0.1426924 1 0 1
0.03795185 -0.0436863 0.1259131 1 0 1
0.03921059 -0.04627269 0.1312672 1 0 1
0.04029901 -0.04710329 0.1330269 1 0 1
0.04134467 -0.04749326 0.1338855 1 0 1
0.04246008 -0.0483182 0.1356376 1 0 1
0.04359096 -0.04914011 0.1373857 1 0 1
0.04466726 -0.0495219 0.138233 1 0 1
0.04567725 -0.04946417 0.1381801 1 0 1
0.04668694 -0.04940423 0.1381239 1 0 1
0.04769639 -0.04934205 0.1380643 1 0 1
0.04861986 -0.04884155 0.1371056 1 0 1
0.04971428 -0.04921106 0.1379352 1 0 1
0.05081614 -0.04957784 0.138761 1 0 1
0.05192548 -0.04994185 0.1395828 1 0 1
0.05304229 -0.05030306 0.1404007 1 0 1
0.05406133 -0.05022673 0.1403203 1 0 1
0.05507997 -0.05014808 0.1402365 1 0 1
0.05621117 -0.05050139 0.141043 1 0 1
0.05723285 -0.050418 0.1409522 1 0 1
0.05837485 -0.05076583 0.1417509 1 0 1
0.05952417 -0.05111076 0.1425456 1 0 1
0.06080933 -0.05188556 0.1442284 1 0 1
0.06210956 -0.05265668 0.1459062 1 0 1
0.06342484 -0.05342408 0.1475789 1 0 1
0.06489533 -0.05461942 0.1501375 1 0 1
0.06653274 -0.05624154 0.1535806 1 0 1
0.1056168 -0.0521365 0.1494669 1 0 1
0.1069583 -0.05235421 0.1500782 1 0 1
0.1077267 -0.05174679 0.1489551 1 0 1
0.1084864 -0.05113846 0.1478303 1 0 1
0.1095347 -0.0509385 0.1475666 1 0 1
0.1102807 -0.05032765 0.1464377 1 0 1
0.1113227 -0.05012372 0.1461679 1 0 1
0.1123635 -0.04991751 0.1458946 1 0 1
0.1130908 -0.04930268 0.1447592 1 0 1
0.1138094 -0.04868701 0.1436222 1 0 1
0.114839 -0.04847538 0.1433406 1 0 1
0.1155438 -0.04785746 0.1421998 1 0 1
0.116567 -0.04764202 0.1419124 1 0 1
0.1175889 -0.04742431 0.1416215 1 0 1
0.1186096 -0.04720429 0.1413271 1 0 1
0.119967 -0.04738284 0.1418808 1 0 1
0.1209886 -0.04715748 0.1415786 1 0 1
0.1220088 -0.04692982 0.1412729 1 0 1
0.1230277 -0.04669988 0.1409638 1 0 1
0.1240452 -0.04646765 0.1406513 1 0 1
0.1250612 -0.04623317 0.1403353 1 0 1
0.1257154 -0.04560059 0.1391712 1 0 1
0.127453 -0.04615228 0.1405367 1 0 1
0.03943173 -0.04892438 0.1344151 1 0 1
0.04042744 -0.04887843 0.1343794 1 0 1
0.04136466 -0.04838902 0.133445 1 0 1
0.04248048 -0.04922094 0.1351937 1 0 1
0.04361172 -0.05004986 0.1369384 1 0 1
0.04468835 -0.05043508 0.137784 1 0 1
0.04577253 -0.05081766 0.138626 1 0 1
0.0468643 -0.05119754 0.1394641 1 0 1
0.04779999 -0.05069485 0.1385099 1 0 1
0.04872755 -0.05019043 0.1375527 1 0 1
0.04982619 -0.05056313 0.1383804 1 0 1
0.05083878 -0.05049391 0.1383107 1 0 1
0.05194842 -0.0508613 0.1391308 1 0 1
0.05306555 -0.05122594 0.1399471 1 0 1
0.05419009 -0.05158772 0.1407594 1 0 1
0.05521287 -0.05150867 0.1406754 1 0 1
0.05623523 -0.05142738 0.1405879 1 0 1
0.05725716 -0.05134383 0.1404971 1 0 1
0.0583995 -0.05169505 0.1412943 1 0 1
0.05954915 -0.05204335 0.1420873 1 0 1
0.06083475 -0.05282504 0.1437667 1 0 1
0.06213543 -0.05360304 0.1454411 1 0 1
0.06358754 -0.05481296 0.1480002 1 0 1
0.06506248 -0.05601835 0.1505532 1 0 1
0.0667044 -0.05765403 0.1539891 1 0 1
0.06837679 -0.05928424 0.1574178 1 0 1
0.07068752 -0.06264527 0.1643911 1 0 1
0.07290387 -0.06556375 0.1704658 1 0 1
0.1027143 -0.05224496 0.1468853 1 0 1
0.1034825 -0.05164137 0.1457755 1 0 1
0.106218 -0.0539458 0.1507166 1 0 1
0.1075674 -0.05416524 0.1513246 1 0 1
0.1083434 -0.05355257 0.1502016 1 0 1
0.1088172 -0.05252552 0.148215 1 0 1
0.1095721 -0.0519117 0.1470896 1 0 1
0.1103182 -0.051297 0.1459626 1 0 1
0.1113605 -0.05109271 0.145693 1 0 1
0.1120929 -0.05047556 0.144562 1 0 1
0.1131289 -0.05026736 0.1442865 1 0 1
0.1141637 -0.0500569 0.1440075 1 0 1
0.1148774 -0.04943584 0.1428701 1 0 1
0.1155823 -0.04881404 0.1417313 1 0 1
0.1166057 -0.04859821 0.141444 1 0 1
0.1176279 -0.04838006 0.1411534 1 0 1
0.1186487 -0.04815968 0.1408593 1 0 1
0.1196682 -0.04793697 0.1405618 1 0 1
0.1210284 -0.04811549 0.1411095 1 0 1
0.1220488 -0.04788738 0.1408041 1 0 1
0.1230679 -0.04765702 0.1404952 1 0 1
0.1240856 -0.0474244 0.140183 1 0 1
0.1251018 -0.04718946 0.1398673 1 0 1
0.1257561 -0.04655299 0.1387052 1 0 1
0.1267659 -0.04631438 0.1383839 1 0 1
-0.2124597 -0.2737192 0.5825796 1 0 1
-0.2115798 -0.2771778 0.5893637 1 0 1
-0.1886289 -0.2773424 0.5887463 1 0 1
0.03955239 -0.05071231 0.1357573 1 0 1
0.04055616 -0.05066589 0.1357214 1 0 1
0.04150139 -0.05017251 0.1347885 1 0 1
0.04262543 -0.05101102 0.1365334 1 0 1
0.0436987 -0.05140213 0.1373809 1 0 1
0.04477957 -0.0517906 0.1382246 1 0 1
0.04579394 -0.05173244 0.1381717 1 0 1
0.04696397 -0.05255942 0.1399009 1 0 1
0.04798558 -0.05249633 0.1398408 1 0 1
0.04900692 -0.05243094 0.1397774 1 0 1
0.05002789 -0.05236335 0.1397105 1 0 1
0.05104856 -0.05229345 0.1396403 1 0 1
0.05216637 -0.05266372 0.1404583 1 0 1
0.05319018 -0.05258905 0.1403811 1 0 1
0.05431895 -0.05295395 0.1411914 1 0 1
0.05523662 -0.05243295 0.1402165 1 0 1
0.05625923 -0.0523515 0.1401292 1 0 1
0.05728139 -0.0522678 0.1400384 1 0 1
0.05842403 -0.0526224 0.1408339 1 0 1
0.05957401 -0.05297406 0.1416253 1 0 1
0.0607313 -0.05332277 0.1424125 1 0 1
0.06216117 -0.05454753 0.1449723 1 0 1
0.06334077 -0.0548895 0.1457503 1 0 1
0.06494889 -0.05654483 0.1491867 1 0 1
0.06644323 -0.05775638 0.151729 1 0 1
0.06825667 -0.05983925 0.1560384 1 0 1
0.06965216 -0.06060299 0.1576811 1 0 1
0.07137442 -0.06223708 0.1610897 1 0 1
0.103518 -0.05260398 0.1452987 1 0 1
0.1056897 -0.05409086 0.1485038 1 0 1
0.1070319 -0.05431482 0.1491122 1 0 1
0.1080905 -0.05411736 0.148854 1 0 1
0.1088542 -0.05350059 0.1477322 1 0 1
0.1096091 -0.05288294 0.1466087 1 0 1
0.1106566 -0.05267987 0.1463419 1 0 1
0.1117028 -0.05247448 0.1460717 1 0 1
0.1124391 -0.05185273 0.1449416 1 0 1
0.1134791 -0.0516434 0.1446653 1 0 1
0.1142016 -0.05101924 0.1435312 1 0 1
0.1149154 -0.05039433 0.1423958 1 0 1
0.1152968 -0.04935772 0.1404066 1 0 1
0.1163167 -0.04914227 0.1401207 1 0 1
0.1173353 -0.04892451 0.1398313 1 0 1
0.1186875 -0.0491131 0.1403877 1 0 1
0.1197071 -0.04889 0.1400905 1 0 1
0.1207255 -0.04866459 0.1397898 1 0 1
0.1217425 -0.04843692 0.1394857 1 0 1
0.1227581 -0.04820698 0.1391782 1 0 1
0.1237723 -0.04797475 0.1388674 1 0 1
0.1247851 -0.04774024 0.1385531 1 0 1
0.1254358 -0.04710072 0.1373941 1 0 1
0.126442 -0.04686252 0.1370742 1 0 1
0.03962274 -0.05206382 0.1361967 1 0 1
0.04063066 -0.05201719 0.1361607 1 0 1
0.04157996 -0.05152002 0.1352295 1 0 1
0.04270831 -0.05236527 0.1369707 1 0 1
0.04371951 -0.0523117 0.1369247 1 0 1
0.04480067 -0.05270362 0.1377667 1 0 1
0.04581528 -0.05264534 0.1377138 1 0 1
0.04690767 -0.05303207 0.1385486 1 0 1
0.04800756 -0.05341609 0.1393796 1 0 1
0.04902914 -0.05335061 0.1393162 1 0 1
0.05005036 -0.05328285 0.1392494 1 0 1
0.05116493 -0.05365905 0.1400693 1 0 1
0.05218934 -0.05358651 0.1399955 1 0 1
0.05321341 -0.05351172 0.1399184 1 0 1
0.05434248 -0.05387999 0.140727 1 0 1
0.05526032 -0.05335533 0.139754 1 0 1
0.05628312 -0.05327374 0.1396668 1 0 1
0.05742266 -0.0536343 0.1404643 1 0 1
0.05832744 -0.05310379 0.1394822 1 0 1
0.05947386 -0.05345915 0.1402723 1 0 1
0.06062756 -0.05381154 0.1410582 1 0 1
0.06192131 -0.05460399 0.1427266 1 0 1
0.06309348 -0.05495008 0.1435037 1 0 1
0.06455392 -0.05617771 0.1460482 1 0 1
0.06603711 -0.05740076 0.1485867 1 0 1
0.06769136 -0.05906067 0.1520039 1 0 1
0.06937608 -0.06071505 0.1554139 1 0 1
0.07046702 -0.06060089 0.1552806 1 0 1
0.100585 -0.05078468 0.1390204 1 0 1
0.103832 -0.05398781 0.1456803 1 0 1
0.1054432 -0.05464253 0.1471554 1 0 1
0.1070682 -0.05529213 0.1486233 1 0 1
0.1078369 -0.05467318 0.147506 1 0 1
0.1088908 -0.05447371 0.1472455 1 0 1
0.1096458 -0.05385219 0.146124 1 0 1
0.1106936 -0.05364874 0.1458575 1 0 1
0.11174 -0.05344297 0.1455874 1 0 1
0.1124763 -0.05281737 0.1444593 1 0 1
0.113204 -0.05219089 0.1433297 1 0 1
0.1139228 -0.05156368 0.1421986 1 0 1
0.114633 -0.05093569 0.1410661 1 0 1
0.1153343 -0.05030692 0.1399322 1 0 1
0.116027 -0.04967745 0.138797 1 0 1
0.1170421 -0.04946012 0.138509 1 0 1
0.1183909 -0.04965251 0.1390649 1 0 1
0.1194071 -0.04942983 0.138769 1 0 1
0.1204219 -0.04920483 0.1384697 1 0 1
0.1214354 -0.04897758 0.138167 1 0 1
0.1227973 -0.04915676 0.1387039 1 0 1
0.1234583 -0.04851621 0.1375514 1 0 1
0.1244676 -0.04828214 0.1372385 1 0 1
0.1254755 -0.04804579 0.1369223 1 0 1
0.126482 -0.04780713 0.1366026 1 0 1
0.03969324 -0.05342058 0.136629 1 0 1
0.04075995 -0.05382564 0.1374833 1 0 1
0.04165867 -0.05287268 0.1356634 1 0 1
0.04279133 -0.05372472 0.1374009 1 0 1
0.04387305 -0.05412226 0.1382446 1 0 1
0.04489207 -0.05406595 0.1381949 1 0 1
0.04591081 -0.05400737 0.1381418 1 0 1
0.04708554 -0.05484802 0.1398639 1 0 1
0.04819359 -0.05523494 0.1406927 1 0 1
0.04922323 -0.05516882 0.1406289 1 0 1
0.05025249 -0.05510048 0.1405617 1 0 1
0.0512814 -0.05502981 0.1404911 1 0 1
0.05230998 -0.05495685 0.1404171 1 0 1
0.05333815 -0.05488164 0.1403398 1 0 1
0.05436596 -0.05480416 0.1402591 1 0 1
0.0552839 -0.05427584 0.1392879 1 0 1
0.05630696 -0.05419413 0.1392008 1 0 1
0.05732957 -0.05411011 0.1391103 1 0 1
0.05835172 -0.05402384 0.1390164 1 0 1
0.05949845 -0.05438254 0.1398048 1 0 1
0.06065247 -0.05473829 0.140589 1 0 1
0.06194662 -0.05553763 0.142254 1 0 1
0.06311911 -0.05588701 0.1430294 1 0 1
0.06443944 -0.0566792 0.1446847 1 0 1
0.06591928 -0.05791295 0.1472183 1 0 1
0.0674219 -0.05914206 0.1497459 1 0 1
0.0689472 -0.06036643 0.1522672 1 0 1
0.07080751 -0.06247444 0.1565465 1 0 1
0.103867 -0.05494995 0.1451942 1 0 1
0.1057613 -0.05603724 0.1475254 1 0 1
0.1071042 -0.05626743 0.1481306 1 0 1
0.107873 -0.05564462 0.1470153 1 0 1
0.1089271 -0.05544481 0.1467551 1 0 1
0.1099799 -0.05524257 0.1464912 1 0 1
0.1107301 -0.05461562 0.1453692 1 0 1
0.1117768 -0.05440946 0.1450994 1 0 1
0.1125132 -0.05378001 0.1439732 1 0 1
0.1132409 -0.05314975 0.1428456 1 0 1
0.1139599 -0.05251864 0.1417165 1 0 1
0.1146701 -0.05188678 0.140586 1 0 1
0.1153715 -0.05125417 0.1394541 1 0 1
0.116392 -0.05103792 0.1391686 1 0 1
0.1170796 -0.05040312 0.1380331 1 0 1
0.1180937 -0.0501831 0.1377419 1 0 1
0.1191064 -0.04996078 0.1374473 1 0 1
0.1201177 -0.04973624 0.1371494 1 0 1
0.1214739 -0.04992236 0.1376904 1 0 1
0.1224863 -0.04969241 0.1373845 1 0 1
0.1234972 -0.04946017 0.1370752 1 0 1
0.1245067 -0.04922565 0.1367627 1 0 1
0.1255148 -0.04898885 0.1364467 1 0 1
0.1265215 -0.0487498 0.1361273 1 0 1
0.03898171 -0.05710672 0.1415309 1 0 1
0.03961159 -0.05341538 0.134388 1 0 1
0.04083482 -0.05519077 0.1379065 1 0 1
0.04179614 -0.05468587 0.1369785 1 0 1
0.04287449 -0.05508929 0.137824 1 0 1
0.04396044 -0.05549006 0.1386657 1 0 1
0.04505396 -0.05588814 0.1395038 1 0 1
0.04608078 -0.055829 0.1394504 1 0 1
0.04726372 -0.05667609 0.1411685 1 0 1
0.04829779 -0.05661193 0.1411079 1 0 1
0.04933155 -0.05654548 0.1410439 1 0 1
0.05036493 -0.05647669 0.1409765 1 0 1
0.05139798 -0.05640566 0.1409058 1 0 1
0.0524307 -0.05633232 0.1408316 1 0 1
0.05336132 -0.05580404 0.1398682 1 0 1
0.05438933 -0.05572639 0.1397875 1 0 1
0.0553074 -0.05519445 0.1388182 1 0 1
0.05633069 -0.05511256 0.1387312 1 0 1
0.05735352 -0.0550284 0.1386407 1 0 1
0.0583759 -0.05494199 0.138547 1 0 1
0.05952293 -0.05530407 0.1393337 1 0 1
0.06067727 -0.05566315 0.1401162 1 0 1
0.06183889 -0.05601923 0.1408946 1 0 1
0.06300782 -0.05637233 0.1416688 1 0 1
0.06418396 -0.0567224 0.1424388 1 0 1
0.06551193 -0.05751831 0.1440863 1 0 1
0.06700339 -0.05875891 0.1466099 1 0 1
0.06851757 -0.05999476 0.1491273 1 0 1
0.07021067 -0.06167358 0.1525188 1 0 1
0.07225449 -0.0642413 0.1576628 1 0 1
0.1047388 -0.05720052 0.14728 1 0 1
0.1060794 -0.05743685 0.1478881 1 0 1
0.1071398 -0.05724066 0.1476341 1 0 1
0.1081991 -0.05704212 0.1473766 1 0 1
0.108963 -0.05641387 0.1462608 1 0 1
0.1100161 -0.05621131 0.1459972 1 0 1
0.111068 -0.05600637 0.1457301 1 0 1
0.1115079 -0.0549488 0.1437555 1 0 1
0.1125498 -0.05474066 0.1434834 1 0 1
0.1132775 -0.05410653 0.1423578 1 0 1
0.11368 -0.05304873 0.1403816 1 0 1
0.1143865 -0.0524138 0.1392541 1 0 1
0.1157325 -0.05262079 0.1398193 1 0 1
0.1161012 -0.05156228 0.1378411 1 0 1
0.1171168 -0.05134415 0.1375535 1 0 1
0.118131 -0.05112371 0.1372625 1 0 1
0.1191439 -0.050901 0.1369682 1 0 1
0.1201555 -0.05067604 0.1366705 1 0 1
0.121512 -0.05086519 0.13721 1 0 1
0.1225245 -0.05063485 0.1369044 1 0 1
0.1235357 -0.05040216 0.1365955 1 0 1
0.1245454 -0.0501672 0.1362831 1 0 1
0.1255537 -0.04992999 0.1359674 1 0 1
0.1261958 -0.04927833 0.1348134 1 0 1
0.03973302 -0.05523106 0.1356983 1 0 1
0.04080032 -0.05564304 0.1365491 1 0 1
0.04181653 -0.05559353 0.1365097 1 0 1
0.04295779 -0.05645898 0.1382398 1 0 1
0.04404795 -0.05686297 0.1390797 1 0 1
0.04507524 -0.05680601 0.1390297 1 0 1
0.04617665 -0.05720479 0.1398622 1 0 1
0.04728561 -0.05760076 0.1406909 1 0 1
0.04831989 -0.05753652 0.1406304 1 0 1
0.04935385 -0.05746992 0.1405665 1 0 1
0.05038746 -0.05740106 0.1404992 1 0 1
0.05142074 -0.05732987 0.1404285 1 0 1
0.05245367 -0.05725642 0.1403544 1 0 1
0.0533844 -0.05672452 0.1393929 1 0 1
0.05430694 -0.05619089 0.1384286 1 0 1
0.05533086 -0.05611113 0.138345 1 0 1
0.05624081 -0.05557387 0.1373749 1 0 1
0.05714255 -0.05503498 0.1364021 1 0 1
0.05827864 -0.05540365 0.1371915 1 0 1
0.05929689 -0.05531514 0.1370949 1 0 1
0.06057283 -0.05613216 0.1387581 1 0 1
0.06173088 -0.05649195 0.1395352 1 0 1
0.06275929 -0.05639555 0.1394273 1 0 1
0.06406876 -0.05720247 0.1410768 1 0 1
0.06539328 -0.05800556 0.1427212 1 0 1
0.06673274 -0.05880479 0.1443605 1 0 1
0.06839214 -0.06050339 0.1477526 1 0 1
0.06992564 -0.06174515 0.1502589 1 0 1
0.0719625 -0.06433441 0.1553931 1 0 1
0.07338881 -0.06511471 0.1570074 1 0 1
0.1042153 -0.05730178 0.1450674 1 0 1
0.1055487 -0.0575426 0.1456758 1 0 1
0.1068884 -0.05777968 0.1462788 1 0 1
0.1079441 -0.05758147 0.1460225 1 0 1
0.1089986 -0.05738091 0.1457627 1 0 1
0.1100519 -0.05717797 0.1454993 1 0 1
0.111104 -0.05697267 0.1452325 1 0 1
0.1115438 -0.0559078 0.1432616 1 0 1
0.112586 -0.05569927 0.1429897 1 0 1
0.1133138 -0.05506133 0.1418661 1 0 1
0.1137162 -0.05399624 0.1398937 1 0 1
0.1144228 -0.05335748 0.1387682 1 0 1
0.1151207 -0.05271799 0.1376414 1 0 1
0.1161377 -0.05250173 0.1373575 1 0 1
0.1171535 -0.05228317 0.1370702 1 0 1
0.1181679 -0.05206236 0.1367795 1 0 1
0.119181 -0.05183924 0.1364854 1 0 1
0.1201928 -0.05161386 0.136188 1 0 1
0.1215497 -0.05180604 0.1367259 1 0 1
0.1222122 -0.05115622 0.1355829 1 0 1
0.1232199 -0.05092398 0.1352753 1 0 1
0.1245836 -0.05110678 0.1357998 1 0 1
0.125231 -0.05045265 0.1346501 1 0 1
0.1262344 -0.05021361 0.1343324 1 0 1
0.0408753 -0.05701134 0.1369616 1 0 1
0.04183691 -0.05649926 0.1360374 1 0 1
0.04297853 -0.05737165 0.1377639 1 0 1
0.04406898 -0.05777903 0.1386019 1 0 1
0.04516702 -0.0581837 0.1394363 1 0 1
0.04627265 -0.05858561 0.1402669 1 0 1
0.04738582 -0.05898474 0.1410936 1 0 1
0.04842423 -0.05892015 0.1410329 1 0 1
0.0493761 -0.05839244 0.1400855 1 0 1
0.05031981 -0.05786299 0.1391352 1 0 1
0.05134939 -0.05779195 0.1390648 1 0 1
0.05228061 -0.05725872 0.1381086 1 0 1
0.05320369 -0.05672374 0.1371495 1 0 1
0.0542243 -0.05664646 0.1370697 1 0 1
0.05524449 -0.05656687 0.1369864 1 0 1
0.05626429 -0.05648499 0.1368999 1 0 1
0.05728364 -0.05640088 0.13681 1 0 1
0.05818111 -0.05585639 0.1358361 1 0 1
0.05919564 -0.05576808 0.1357399 1 0 1
0.06046811 -0.05659224 0.1374001 1 0 1
0.06148945 -0.05649869 0.1372964 1 0 1
0.06264728 -0.05685952 0.1380684 1 0 1
0.06381235 -0.05721731 0.1388362 1 0 1
0.06512949 -0.05802796 0.140478 1 0 1
0.06646159 -0.05883478 0.1421146 1 0 1
0.06811382 -0.06054791 0.1455006 1 0 1
0.06979648 -0.0622554 0.1488792 1 0 1
0.07166994 -0.06441153 0.1531269 1 0 1
0.07341737 -0.06610715 0.1564903 1 0 1
0.07586749 -0.06961051 0.1633472 1 0 1
0.07579933 -0.06630963 0.1570704 1 0 1
0.1007184 -0.05451166 0.1371094 1 0 1
0.1039702 -0.05782428 0.1437133 1 0 1
0.1058662 -0.05894161 0.1460291 1 0 1
0.1072101 -0.0591811 0.1466296 1 0 1
0.1079792 -0.05854685 0.1455203 1 0 1
0.1090339 -0.05834591 0.1452607 1 0 1
0.1100874 -0.0581426 0.1449976 1 0 1
0.1108378 -0.05750413 0.1438816 1 0 1
0.1112738 -0.05643274 0.1419155 1 0 1
0.1123124 -0.0562246 0.1416448 1 0 1
0.1130366 -0.05558356 0.1405242 1 0 1
0.113752 -0.05494174 0.1394022 1 0 1
0.1144587 -0.05429916 0.1382787 1 0 1
0.115481 -0.05408403 0.1379974 1 0 1
0.1161739 -0.05343919 0.1368702 1 0 1
0.1171898 -0.05322026 0.1365832 1 0 1
0.1182045 -0.05299902 0.1362927 1 0 1
0.1192178 -0.0527755 0.1359989 1 0 1
0.1198868 -0.05212556 0.1348635 1 0 1
0.1212403 -0.05232159 0.1354011 1 0 1
0.1225998 -0.05251368 0.1359331 1 0 1
0.1236114 -0.05228015 0.1356247 1 0 1
0.1246215 -0.05204437 0.1353129 1 0 1
0.1256302 -0.05180628 0.1349977 1 0 1
0.1262724 -0.05114687 0.1338477 1 0 1
0.04111524 -0.05978277 0.1400161 1 0 1
0.04191612 -0.05786889 0.1364444 1 0 1
0.04306202 -0.05874798 0.1381671 1 0 1
0.04415669 -0.05915855 0.1390032 1 0 1
0.04518831 -0.0591012 0.1389532 1 0 1
0.04629423 -0.05950651 0.139782 1 0 1
0.04740768 -0.05990902 0.1406069 1 0 1
0.04844629 -0.05984431 0.1405464 1 0 1
0.0494846 -0.05977723 0.1404823 1 0 1
0.05043233 -0.05924392 0.1395337 1 0 1
0.05146604 -0.05917249 0.1394631 1 0 1
0.05240133 -0.05863535 0.1385085 1 0 1
0.05332838 -0.05809648 0.1375511 1 0 1
0.05435312 -0.05801874 0.137471 1 0 1
0.05526769 -0.05747621 0.1365078 1 0 1
0.05628767 -0.0573942 0.1364214 1 0 1
0.05730722 -0.05730991 0.1363315 1 0 1
0.05832631 -0.05722336 0.1362384 1 0 1
0.05934494 -0.05713455 0.1361419 1 0 1
0.06049237 -0.0575043 0.13692 1 0 1
0.06151394 -0.05741059 0.1368165 1 0 1
0.06267206 -0.05777473 0.1375868 1 0 1
0.06383743 -0.05813582 0.1383529 1 0 1
0.06515495 -0.05895326 0.1399911 1 0 1
0.0663387 -0.05930783 0.1407483 1 0 1
0.0679876 -0.06103506 0.1441275 1 0 1
0.06966698 -0.0627567 0.1474994 1 0 1
0.07169771 -0.06538815 0.152613 1 0 1
0.07344575 -0.06709743 0.1559692 1 0 1
0.07572871 -0.07017147 0.1619381 1 0 1
0.0780652 -0.07323684 0.1678961 1 0 1
0.1007509 -0.05543848 0.1366224 1 0 1
0.1037245 -0.05833777 0.1423589 1 0 1
0.1056174 -0.05946581 0.1446704 1 0 1
0.1072447 -0.0601482 0.1461217 1 0 1
0.1080139 -0.05951015 0.1450144 1 0 1
0.1087743 -0.05887114 0.1439054 1 0 1
0.1098243 -0.05866819 0.1436435 1 0 1
0.110571 -0.05802665 0.1425304 1 0 1
0.111309 -0.05738426 0.1414159 1 0 1
0.1123477 -0.05717572 0.1411455 1 0 1
0.113072 -0.05653087 0.1400269 1 0 1
0.1141045 -0.05631842 0.1397506 1 0 1
0.114815 -0.05567124 0.1386282 1 0 1
0.1158411 -0.05545494 0.1383461 1 0 1
0.1165378 -0.05480548 0.1372199 1 0 1
0.1175577 -0.05458533 0.136932 1 0 1
0.1185763 -0.05436288 0.1366408 1 0 1
0.1195934 -0.05413816 0.1363461 1 0 1
0.1202663 -0.05348355 0.1352118 1 0 1
0.121277 -0.05325501 0.1349114 1 0 1
0.1222865 -0.05302421 0.1346077 1 0 1
0.1232945 -0.05279113 0.1343007 1 0 1
0.1243011 -0.05255576 0.1339903 1 0 1
0.1256678 -0.05274141 0.1345073 1 0 1
0.1266753 -0.05250059 0.134189 1 0 1
0.04170081 -0.05689711 0.1324388 1 0 1
0.04295707 -0.05872203 0.1359203 1 0 1
0.04404419 -0.05913641 0.136755 1 0 1
0.04513887 -0.05954807 0.137586 1 0 1
0.04624115 -0.059957 0.1384132 1 0 1
0.04735097 -0.06036314 0.1392366 1 0 1
0.04838585 -0.06029854 0.1391763 1 0 1
0.04942046 -0.0602316 0.1391126 1 0 1
0.05045468 -0.06016238 0.1390455 1 0 1
0.05139437 -0.05962368 0.1380959 1 0 1
0.05232584 -0.05908321 0.1371435 1 0 1
0.05324915 -0.05854102 0.1361883 1 0 1
0.05427014 -0.05846344 0.1361086 1 0 1
0.05529075 -0.05838357 0.1360256 1 0 1
0.05631095 -0.05830143 0.1359392 1 0 1
0.05721302 -0.05775164 0.1349722 1 0 1
0.05822839 -0.05766529 0.1348795 1 0 1
0.05924333 -0.05757663 0.1347835 1 0 1
0.06038717 -0.05795005 0.1355603 1 0 1
0.06140501 -0.05785653 0.1354573 1 0 1
0.06242233 -0.05776071 0.1353509 1 0 1
0.06358021 -0.05812587 0.1361161 1 0 1
0.06489033 -0.05895084 0.1377516 1 0 1
0.06606658 -0.05930947 0.1385079 1 0 1
0.06770828 -0.0610512 0.1418808 1 0 1
0.06938053 -0.06278732 0.1452464 1 0 1
0.07108319 -0.06451779 0.1486048 1 0 1
0.07265186 -0.06578165 0.1510836 1 0 1
0.07457974 -0.06796117 0.1552991 1 0 1
0.07585698 -0.06829417 0.1560213 1 0 1
0.1020809 -0.05662267 0.1367477 1 0 1
0.1045181 -0.05865132 0.1407602 1 0 1
0.1067049 -0.06022814 0.1439108 1 0 1
0.1077575 -0.06002953 0.143656 1 0 1
0.1085142 -0.05938747 0.1425501 1 0 1
0.1095606 -0.05918485 0.1422893 1 0 1
0.1103036 -0.05854027 0.1411792 1 0 1
0.1110379 -0.05789479 0.1400676 1 0 1
0.1120731 -0.05768663 0.1397984 1 0 1
0.113107 -0.05747613 0.1395258 1 0 1
0.1138226 -0.0568267 0.1384079 1 0 1
0.1145294 -0.05617648 0.1372885 1 0 1
0.115552 -0.05596054 0.1370077 1 0 1
0.1165734 -0.05574233 0.1367234 1 0 1
0.1175934 -0.05552179 0.1364358 1 0 1
0.1186121 -0.05529894 0.1361448 1 0 1
0.1196295 -0.05507378 0.1358504 1 0 1
0.1203024 -0.05441535 0.1347181 1 0 1
0.1213134 -0.05418642 0.1344181 1 0 1
0.122323 -0.05395519 0.1341146 1 0 1
0.1229769 -0.05329324 0.1329766 1 0 1
0.12398 -0.05305832 0.1326676 1 0 1
0.1253434 -0.05324782 0.1331842 1 0 1
0.125982 -0.05258165 0.1320396 1 0 1
0.0408258 -0.05878181 0.1337588 1 0 1
0.04160288 -0.05684107 0.130203 1 0 1
0.04285182 -0.05868025 0.1336774 1 0 1
0.04399819 -0.05957078 0.1353895 1 0 1
0.04501845 -0.05951389 0.1353402 1 0 1
0.04618786 -0.06039854 0.1370445 1 0 1
0.04737267 -0.06127999 0.1387446 1 0 1
0.04840774 -0.06121528 0.1386844 1 0 1
0.04944252 -0.06114823 0.1386207 1 0 1
0.05038659 -0.06060798 0.1376762 1 0 1
0.05132248 -0.06006593 0.1367288 1 0 1
0.05225014 -0.05952213 0.1357786 1 0 1
0.05327174 -0.05944675 0.1357024 1 0 1
0.05429295 -0.059369 0.1356227 1 0 1
0.0552038 -0.05881954 0.1346637 1 0 1
0.05622026 -0.05873756 0.1345777 1 0 1
0.05723631 -0.0586533 0.1344885 1 0 1
0.05825188 -0.05856677 0.1343959 1 0 1
0.059267 -0.05847799 0.1343 1 0 1
0.06028163 -0.05838694 0.1342008 1 0 1
0.06129578 -0.05829359 0.1340982 1 0 1
0.06244669 -0.05866504 0.1348658 1 0 1
0.06360485 -0.05903351 0.1356293 1 0 1
0.06491534 -0.0598652 0.1372612 1 0 1
0.06624085 -0.06069306 0.138888 1 0 1
0.06773419 -0.06198252 0.1413813 1 0 1
0.06925026 -0.0632672 0.1438684 1 0 1
0.07094961 -0.06501169 0.14722 1 0 1
0.0725149 -0.06628614 0.1496938 1 0 1
0.07460798 -0.06894702 0.1547704 1 0 1
0.07657463 -0.07113674 0.158968 1 0 1
0.07734627 -0.07007898 0.1570755 1 0 1
0.09943601 -0.05504582 0.1313858 1 0 1
0.1035113 -0.05978544 0.1404994 1 0 1
0.1054014 -0.06093409 0.1428013 1 0 1
0.1067387 -0.06118422 0.1433989 1 0 1
0.1075004 -0.06054 0.1422975 1 0 1
0.1085482 -0.06033939 0.1420404 1 0 1
0.1095947 -0.06013643 0.1417799 1 0 1
0.1103378 -0.05948804 0.1406719 1 0 1
0.1110722 -0.05883875 0.1395624 1 0 1
0.1121075 -0.05863022 0.1392934 1 0 1
0.1131417 -0.05841933 0.139021 1 0 1
0.1138573 -0.05776612 0.1379052 1 0 1
0.1148852 -0.05755133 0.137627 1 0 1
0.115587 -0.05689575 0.1365073 1 0 1
0.1166085 -0.05667714 0.1362233 1 0 1
0.1176288 -0.05645619 0.1359359 1 0 1
0.1186477 -0.05623295 0.1356452 1 0 1
0.1200048 -0.0564426 0.1361849 1 0 1
0.1206814 -0.05577951 0.1350535 1 0 1
0.1213493 -0.05511582 0.133921 1 0 1
0.1223591 -0.05488416 0.1336178 1 0 1
0.123013 -0.0542184 0.132482 1 0 1
0.1240163 -0.05398304 0.1321732 1 0 1
0.1250182 -0.05374539 0.1318612 1 0 1
0.1263842 -0.05393469 0.1323717 1 0 1
0.040901 -0.06015281 0.1341516 1 0 1
0.04168187 -0.05819796 0.1306032 1 0 1
0.04287222 -0.05957466 0.1331929 1 0 1
0.043952 -0.05999623 0.1340243 1 0 1
0.04511028 -0.06089068 0.1357288 1 0 1
0.04620915 -0.06130656 0.1365526 1 0 1
0.04739432 -0.06219482 0.138249 1 0 1
0.0484296 -0.06213 0.1381888 1 0 1
0.04946456 -0.06206286 0.1381253 1 0 1
0.05040874 -0.06151901 0.1371827 1 0 1
0.05134473 -0.06097338 0.1362373 1 0 1
0.0522725 -0.06042601 0.135289 1 0 1
0.05329429 -0.06035046 0.1352128 1 0 1
0.05431571 -0.06027261 0.1351333 1 0 1
0.05522665 -0.05971952 0.1341762 1 0 1
0.05624331 -0.05963742 0.1340904 1 0 1
0.05737737 -0.06002533 0.1348748 1 0 1
0.05827527 -0.05946634 0.1339087 1 0 1
0.05929058 -0.0593774 0.1338129 1 0 1
0.06043499 -0.05975743 0.1345862 1 0 1
0.06131971 -0.05919264 0.1336113 1 0 1
0.06233352 -0.05909686 0.1335055 1 0 1
0.06362937 -0.05993913 0.1351388 1 0 1
0.06479507 -0.06030782 0.1358964 1 0 1
0.06596798 -0.0606734 0.1366497 1 0 1
0.067454 -0.06197384 0.1391384 1 0 1
0.06911961 -0.06373807 0.1424904 1 0 1
0.07065495 -0.06502844 0.1449662 1 0 1
0.07221298 -0.0663139 0.1474355 1 0 1
0.07429906 -0.06899614 0.1525021 1 0 1
0.07625867 -0.0712038 0.1566915 1 0 1
0.07772753 -0.07200529 0.1582714 1 0 1
0.07975152 -0.07420016 0.1624443 1 0 1
0.1032641 -0.06027566 0.139143 1 0 1
0.1045839 -0.0605347 0.1397469 1 0 1
0.1061975 -0.0612394 0.1411914 1 0 1
0.1072428 -0.06104152 0.140939 1 0 1
0.108287 -0.06084128 0.140683 1 0 1
0.1093299 -0.06063867 0.1404237 1 0 1
0.1100693 -0.05998721 0.1393187 1 0 1
0.1111061 -0.05978065 0.1390534 1 0 1
0.1121417 -0.05957173 0.1387846 1 0 1
0.1128624 -0.05891627 0.1376733 1 0 1
0.1138917 -0.05870345 0.1373987 1 0 1
0.1149197 -0.0584883 0.1371208 1 0 1
0.1159464 -0.05827082 0.1368394 1 0 1
0.1166433 -0.05760991 0.1357195 1 0 1
0.1176637 -0.05738857 0.1354324 1 0 1
0.1183468 -0.05672546 0.1343088 1 0 1
0.1197005 -0.05693896 0.134848 1 0 1
0.1200301 -0.05583509 0.1328889 1 0 1
0.1210377 -0.05560619 0.1325905 1 0 1
0.1220439 -0.05537498 0.1322888 1 0 1
0.1230488 -0.05514149 0.1319836 1 0 1
0.1240523 -0.0549057 0.1316752 1 0 1
0.1254162 -0.05510113 0.1321886 1 0 1
0.1264205 -0.05485991 0.1318724 1 0 1
0.04164269 -0.05860044 0.1292453 1 0 1
0.04282953 -0.05998764 0.1318295 1 0 1
0.04390565 -0.06041277 0.1326592 1 0 1
0.04498938 -0.06083521 0.1334853 1 0 1
0.04615555 -0.06173376 0.1351824 1 0 1
0.04733716 -0.06262904 0.1368753 1 0 1
0.04845143 -0.06304272 0.1376897 1 0 1
0.04948657 -0.06297545 0.1376262 1 0 1
0.05052137 -0.06290586 0.1375594 1 0 1
0.05146139 -0.0623564 0.1366156 1 0 1
0.05229479 -0.06132788 0.1347959 1 0 1
0.05331677 -0.06125221 0.1347198 1 0 1
0.05433834 -0.0611742 0.1346403 1 0 1
0.0552494 -0.06061754 0.1336853 1 0 1
0.05626623 -0.06053529 0.1335995 1 0 1
0.05740059 -0.06092649 0.1343821 1 0 1
0.05829857 -0.06036392 0.133418 1 0 1
0.05931408 -0.06027482 0.1333223 1 0 1
