ply
format ascii 1.0
Comment Generated by Floating Hands
element vertex 1205
property double x
property double y
property double z
property uchar red
property uchar green
property uchar blue
end_header
-0.07127563 0.0142331 0.1045914 1 0 1
-0.06664411 0.01589297 0.09700362 1 0 1
-0.06375832 0.01674553 0.0929197 1 0 1
-0.062159 0.01698786 0.09147275 1 0 1
-0.06098647 0.01702758 0.09090357 1 0 1
-0.05940877 0.01727854 0.08944117 1 0 1
-0.05865828 0.01711645 0.08974869 1 0 1
-0.05750269 0.01716559 0.08916306 1 0 1
-0.05635279 0.01721782 0.08857202 1 0 1
-0.05520862 0.01727311 0.0879756 1 0 1
-0.05485674 0.01690788 0.08916327 1 0 1
-0.05371709 0.01696785 0.08855894 1 0 1
-0.05335564 0.01660439 0.08974417 1 0 1
-0.05222057 0.01666901 0.08913194 1 0 1
-0.05147048 0.016522 0.08941458 1 0 1
-0.05071916 0.01637658 0.0896946 1 0 1
-0.04996667 0.0162328 0.08997206 1 0 1
-0.04958145 0.01587394 0.09115097 1 0 1
-0.04882303 0.0157327 0.09142449 1 0 1
-0.04806344 0.01559308 0.09169545 1 0 1
-0.04766046 0.01523644 0.09287161 1 0 1
-0.04724919 0.01488018 0.09404766 1 0 1
-0.04682958 0.01452426 0.09522354 1 0 1
-0.04640168 0.01416875 0.09639919 1 0 1
-0.04596547 0.01381364 0.09757464 1 0 1
-0.04518108 0.01368071 0.09783581 1 0 1
-0.04439555 0.01354945 0.09809428 1 0 1
-0.04360894 0.01341987 0.09835005 1 0 1
-0.04282122 0.01329192 0.09860313 1 0 1
-0.04203242 0.01316567 0.09885351 1 0 1
-0.04124254 0.0130411 0.09910116 1 0 1
-0.04013344 0.01314343 0.09842519 1 0 1
-0.03903056 0.01324853 0.09774432 1 0 1
-0.03793392 0.01335642 0.0970585 1 0 1
-0.03622906 0.01392081 0.09451944 1 0 1
-0.03333072 0.01539972 0.0882702 1 0 1
-0.03168229 0.01597582 0.08570877 1 0 1
-0.03014898 0.01441709 0.09119299 1 0 1
-0.02854362 0.01500767 0.08860533 1 0 1
0.03947886 -0.001206194 0.1505645 1 0 1
0.0401653 0.0005443126 0.14375 1 0 1
0.04079787 0.002294112 0.136934 1 0 1
0.0413244 0.004285611 0.129148 1 0 1
0.04195743 0.005548538 0.1242669 1 0 1
0.04297089 0.005116105 0.1261632 1 0 1
0.04412688 0.004202626 0.1299921 1 0 1
0.04524582 0.0035346 0.1328482 1 0 1
0.04631621 0.003111411 0.1347322 1 0 1
0.04747686 0.002449941 0.1375795 1 0 1
0.04850225 0.002273835 0.1384876 1 0 1
0.04953504 0.002100258 0.1393918 1 0 1
0.0505752 0.001929176 0.1402923 1 0 1
0.05180372 0.001280484 0.1431219 1 0 1
0.05286625 0.001115161 0.1440141 1 0 1
0.05403426 0.0007129211 0.1458682 1 0 1
0.05521723 0.0003139915 0.1477176 1 0 1
0.05630933 0.0001571923 0.148597 1 0 1
0.05740873 3.109353E-06 0.1494724 1 0 1
0.05851536 -0.0001482537 0.1503436 1 0 1
0.05962922 -0.0002968579 0.1512106 1 0 1
0.06075027 -0.0004426902 0.1520734 1 0 1
0.06187855 -0.0005857308 0.1529319 1 0 1
0.0628853 -0.0004891458 0.1528232 1 0 1
0.06389157 -0.000390478 0.1527109 1 0 1
0.06503367 -0.0005257179 0.1535573 1 0 1
0.06604277 -0.0004224525 0.1534376 1 0 1
0.06690743 -8.186837E-05 0.1523531 1 0 1
0.06805942 -0.0002096263 0.1531876 1 0 1
0.06891543 0.0001343708 0.1520972 1 0 1
0.07022927 -0.0002223747 0.1538834 1 0 1
0.0712395 -0.0001081255 0.1537457 1 0 1
0.07224911 8.18814E-06 0.1536045 1 0 1
0.07325814 0.0001266591 0.1534597 1 0 1
0.07460759 -0.0002172437 0.1552266 1 0 1
0.07527433 0.0003698871 0.1531596 1 0 1
0.07628145 0.0004946611 0.1530044 1 0 1
0.07728793 0.0006215719 0.1528456 1 0 1
0.07829376 0.0007505825 0.1526833 1 0 1
0.07892001 0.001341392 0.1506082 1 0 1
0.0801101 0.001244287 0.1513941 1 0 1
0.08130704 0.001150274 0.1521752 1 0 1
-0.1058386 0.01145732 0.1246694 1 0 1
-0.1034533 0.01176977 0.1226023 1 0 1
-0.1025744 0.01151816 0.1230628 1 0 1
-0.1012006 0.01146 0.1226715 1 0 1
-0.09983163 0.01140568 0.1222737 1 0 1
-0.09895355 0.01116183 0.1227216 1 0 1
-0.09807357 0.01091992 0.1231664 1 0 1
-0.09719171 0.01067994 0.1236081 1 0 1
-0.09630798 0.01044192 0.1240468 1 0 1
-0.09494964 0.0104029 0.1236234 1 0 1
-0.09406555 0.01016967 0.1240542 1 0 1
-0.0927137 0.0101372 0.1236198 1 0 1
-0.09182939 0.009908766 0.1240428 1 0 1
-0.09094324 0.009682248 0.1244628 1 0 1
-0.09005533 0.009457715 0.1248796 1 0 1
-0.08961804 0.009032879 0.1261619 1 0 1
-0.08917213 0.00860829 0.1274444 1 0 1
-0.08827212 0.008387943 0.1278551 1 0 1
-0.086044 0.008783812 0.1256428 1 0 1
-0.08251872 0.009803303 0.1207938 1 0 1
-0.07772733 0.01145375 0.1132943 1 0 1
-0.0721328 0.01353502 0.1040088 1 0 1
-0.06789768 0.01501172 0.09732541 1 0 1
-0.0645662 0.0160853 0.09237711 1 0 1
-0.06253909 0.01654125 0.09005527 1 0 1
-0.06136731 0.01658283 0.08948962 1 0 1
-0.06020113 0.01662756 0.08891845 1 0 1
-0.05904058 0.01667544 0.08834179 1 0 1
-0.05829316 0.01651381 0.08864779 1 0 1
-0.05714046 0.01656719 0.08806166 1 0 1
-0.05599348 0.0166237 0.08747015 1 0 1
-0.05485224 0.01668326 0.08687329 1 0 1
-0.05450364 0.01631468 0.08805849 1 0 1
-0.05336692 0.01637889 0.08745375 1 0 1
-0.05300879 0.01601207 0.08863658 1 0 1
-0.05225953 0.0158632 0.08892174 1 0 1
-0.05150902 0.01571592 0.08920431 1 0 1
-0.05038154 0.01578935 0.08858387 1 0 1
-0.05000442 0.0154262 0.08976171 1 0 1
-0.04925032 0.01528376 0.09003653 1 0 1
-0.04886015 0.01492183 0.09121307 1 0 1
-0.04773862 0.01500373 0.09057838 1 0 1
-0.04769693 0.01442128 0.09265912 1 0 1
-0.04693104 0.01428403 0.09292602 1 0 1
-0.04686557 0.01370099 0.09500897 1 0 1
-0.04609022 0.01356575 0.09527306 1 0 1
-0.04565732 0.0132072 0.09644624 1 0 1
-0.04521613 0.0128491 0.09761915 1 0 1
-0.0444302 0.01271761 0.09787761 1 0 1
-0.04364315 0.0125878 0.09813336 1 0 1
-0.04285501 0.01245967 0.09838639 1 0 1
-0.04206579 0.0123332 0.09863672 1 0 1
-0.04127548 0.01220839 0.09888436 1 0 1
-0.03984753 0.01254338 0.09728951 1 0 1
-0.03906238 0.01242307 0.09752948 1 0 1
-0.03765414 0.01276473 0.09592253 1 0 1
-0.03533732 0.01380233 0.09153899 1 0 1
-0.0314104 0.01543491 0.08458246 1 0 1
-0.03275002 0.01370467 0.09127787 1 0 1
-0.0316954 0.01383123 0.09056592 1 0 1
-0.03151447 0.01326048 0.09263465 1 0 1
-0.0310325 0.01292314 0.09377537 1 0 1
-0.02969706 0.01328932 0.0921241 1 0 1
-0.02865349 0.01342427 0.09139768 1 0 1
-0.02679329 0.0142675 0.08786948 1 0 1
-0.0255031 0.01464463 0.08619771 1 0 1
0.03434434 -0.0006865083 0.1436365 1 0 1
0.03768972 -0.003781349 0.1561741 1 0 1
0.03871152 -0.00373469 0.1561491 1 0 1
0.03969247 -0.003438867 0.1551524 1 0 1
0.04053198 -0.002400853 0.1512484 1 0 1
0.04143739 -0.001855575 0.1492778 1 0 1
0.04227507 -0.001062635 0.1463365 1 0 1
0.04314562 -0.0005150877 0.1443604 1 0 1
0.04412041 -0.0004583789 0.1443164 1 0 1
0.04528625 -0.001136869 0.1471707 1 0 1
0.04627214 -0.001075395 0.1471194 1 0 1
0.04740062 -0.001502386 0.1489984 1 0 1
0.04846897 -0.001681276 0.1499064 1 0 1
0.04946563 -0.001612877 0.1498441 1 0 1
0.05037913 -0.001297884 0.1488124 1 0 1
0.05145813 -0.001469799 0.1497094 1 0 1
0.05245394 -0.001395164 0.1496368 1 0 1
0.05354382 -0.001562063 0.1505261 1 0 1
0.05464101 -0.001726296 0.1514113 1 0 1
0.05584759 -0.002130785 0.1532571 1 0 1
0.05685732 -0.002046597 0.1531694 1 0 1
0.05786667 -0.001960262 0.1530783 1 0 1
0.05887565 -0.001871843 0.1529837 1 0 1
0.05988419 -0.00178133 0.1528855 1 0 1
0.06089231 -0.001688699 0.1527839 1 0 1
0.0619 -0.001593989 0.1526788 1 0 1
0.06290726 -0.001497131 0.1525702 1 0 1
0.0637814 -0.001158 0.1514966 1 0 1
0.06478389 -0.001057318 0.1513814 1 0 1
0.06578589 -0.0009545863 0.1512628 1 0 1
0.06664332 -0.0006106885 0.1501805 1 0 1
0.06778828 -0.000742801 0.1510152 1 0 1
0.06878873 -0.0006337494 0.1508862 1 0 1
0.07009947 -0.0009982372 0.1526712 1 0 1
0.07094714 -0.000646773 0.151576 1 0 1
0.0721127 -0.0007679471 0.1523937 1 0 1
0.07328526 -0.0008861514 0.1532069 1 0 1
0.07446481 -0.001001297 0.1540155 1 0 1
0.07530244 -0.0006422852 0.1529073 1 0 1
0.07648829 -0.0007522859 0.1537077 1 0 1
0.07749904 -0.0006245979 0.1535485 1 0 1
0.07850912 -0.0004947695 0.1533858 1 0 1
0.079329 -0.0001291957 0.1522659 1 0 1
0.08072059 -0.0004619072 0.1540029 1 0 1
0.08173237 -0.0003252093 0.153829 1 0 1
0.0829443 -0.0004184732 0.1546032 1 0 1
-0.1054012 0.01064625 0.1235609 1 0 1
-0.103018 0.01097041 0.1214949 1 0 1
-0.1021419 0.01071931 0.1219535 1 0 1
-0.1007708 0.01066541 0.1215614 1 0 1
-0.09989415 0.01041915 0.1220121 1 0 1
-0.09901559 0.01017486 0.1224599 1 0 1
-0.09813513 0.009932483 0.1229046 1 0 1
-0.0972528 0.009692088 0.1233462 1 0 1
-0.0963686 0.009453653 0.1237847 1 0 1
-0.09500954 0.009417944 0.1233622 1 0 1
-0.094125 0.009184286 0.1237929 1 0 1
-0.09230621 0.009357719 0.1224981 1 0 1
-0.09188763 0.008926308 0.1237823 1 0 1
-0.09100103 0.00869943 0.1242021 1 0 1
-0.09011263 0.00847449 0.1246188 1 0 1
-0.08967507 0.008045481 0.1259001 1 0 1
-0.08877973 0.007823613 0.1263122 1 0 1
-0.08743688 0.007811335 0.1258505 1 0 1
-0.08388752 0.008845408 0.1210212 1 0 1
-0.07949992 0.01031001 0.1144227 1 0 1
-0.07385942 0.0124201 0.1051709 1 0 1
-0.0691572 0.0141279 0.09763636 1 0 1
-0.06580129 0.01521658 0.09270711 1 0 1
-0.06291053 0.01610391 0.08863713 1 0 1
-0.06173953 0.01614732 0.08807498 1 0 1
-0.06057408 0.01619391 0.08750732 1 0 1
-0.05982891 0.01602877 0.0878184 1 0 1
-0.0582601 0.01629659 0.08635556 1 0 1
-0.05792694 0.01591976 0.08754576 1 0 1
-0.05677714 0.0159774 0.08695916 1 0 1
-0.05603373 0.01582018 0.08725714 1 0 1
-0.05489191 0.01588329 0.08666119 1 0 1
-0.05414949 0.01573002 0.08695265 1 0 1
-0.05340581 0.01557837 0.08724153 1 0 1
-0.0526609 0.01542834 0.08752787 1 0 1
-0.05191475 0.01527987 0.08781163 1 0 1
-0.05116741 0.01513305 0.08809282 1 0 1
-0.05041885 0.01498779 0.08837146 1 0 1
-0.0496691 0.01484419 0.08864751 1 0 1
-0.04891817 0.01470215 0.08892098 1 0 1
-0.04853132 0.01433683 0.0900952 1 0 1
-0.04777448 0.01419738 0.09036476 1 0 1
-0.04737461 0.01383331 0.09153759 1 0 1
-0.04696642 0.01346958 0.09271032 1 0 1
-0.04654993 0.01310621 0.0938829 1 0 1
-0.04612511 0.01274323 0.09505524 1 0 1
-0.04569198 0.01238064 0.09622741 1 0 1
-0.04525052 0.01201852 0.09739926 1 0 1
-0.04446417 0.01188679 0.09765769 1 0 1
-0.04367672 0.01175674 0.09791344 1 0 1
-0.04288815 0.01162836 0.09816641 1 0 1
-0.04209851 0.01150169 0.09841674 1 0 1
-0.04130779 0.01137668 0.09866434 1 0 1
-0.03987913 0.01171909 0.09707148 1 0 1
-0.03846394 0.01206544 0.09547142 1 0 1
-0.03643995 0.01288361 0.09202209 1 0 1
-0.03382907 0.01417681 0.08671705 1 0 1
-0.03353936 0.01301778 0.09084976 1 0 1
-0.03366771 0.01220145 0.09384392 1 0 1
-0.03377313 0.01138364 0.09684172 1 0 1
-0.03385558 0.01056442 0.09984298 1 0 1
-0.03362951 0.009981501 0.1019192 1 0 1
-0.03254215 0.01011264 0.1012084 1 0 1
-0.03229582 0.009530689 0.1032841 1 0 1
-0.03121029 0.009665711 0.1025668 1 0 1
-0.0293188 0.01052196 0.09904771 1 0 1
-0.02718882 0.01162355 0.09458493 1 0 1
-0.02509499 0.01273133 0.09011013 1 0 1
0.03250354 -0.00349152 0.1501766 1 0 1
0.03350315 -0.003456121 0.1501695 1 0 1
0.03452425 -0.003670355 0.1511266 1 0 1
0.03560369 -0.004385292 0.1540151 1 0 1
0.03664773 -0.004594404 0.1549649 1 0 1
0.03769935 -0.004801067 0.155911 1 0 1
0.03872167 -0.004754231 0.1558862 1 0 1
0.0397031 -0.004454428 0.1548907 1 0 1
0.04067674 -0.004152862 0.153892 1 0 1
0.0415941 -0.003599156 0.151923 1 0 1
0.04260045 -0.003544686 0.1518847 1 0 1
0.04355055 -0.003238049 0.1508764 1 0 1
0.04461265 -0.003429412 0.1517978 1 0 1
0.04568224 -0.003618204 0.1527153 1 0 1
0.04669169 -0.003555068 0.152663 1 0 1
0.04770089 -0.003489873 0.1526071 1 0 1
0.04870979 -0.003422569 0.1525479 1 0 1
0.0497185 -0.003353124 0.152485 1 0 1
0.05072687 -0.00328161 0.1524188 1 0 1
0.05173497 -0.003208001 0.152349 1 0 1
0.05274276 -0.00313228 0.1522758 1 0 1
0.05375024 -0.003054435 0.1521991 1 0 1
0.05485567 -0.003221653 0.1530829 1 0 1
0.05586627 -0.003139285 0.1529989 1 0 1
0.05687652 -0.003054857 0.1529114 1 0 1
0.05799613 -0.003214486 0.1537835 1 0 1
0.05900943 -0.003125483 0.1536887 1 0 1
0.05990488 -0.002788874 0.1526281 1 0 1
0.0607923 -0.002450858 0.1515648 1 0 1
0.06192169 -0.002601014 0.1524218 1 0 1
0.06280056 -0.002259522 0.1513523 1 0 1
0.06367132 -0.001916648 0.1502802 1 0 1
0.06480698 -0.002059783 0.1511259 1 0 1
0.06566914 -0.001713502 0.1500477 1 0 1
0.06666728 -0.001608754 0.1499263 1 0 1
0.06766493 -0.001501954 0.1498014 1 0 1
0.06866203 -0.00139304 0.1496731 1 0 1
0.06981414 -0.001523673 0.1504991 1 0 1
0.07097327 -0.001651299 0.1513206 1 0 1
0.07197629 -0.001535265 0.1511809 1 0 1
0.07314562 -0.001657402 0.1519938 1 0 1
0.07432199 -0.001776521 0.1528023 1 0 1
0.07515621 -0.001413823 0.1516958 1 0 1
0.07633887 -0.00152781 0.152496 1 0 1
0.07752845 -0.001638667 0.1532916 1 0 1
0.07853901 -0.00150853 0.1531291 1 0 1
0.07954894 -0.001376258 0.1529631 1 0 1
0.08094504 -0.001715721 0.1546977 1 0 1
0.08196107 -0.001578172 0.1545234 1 0 1
0.08297636 -0.001438486 0.1543455 1 0 1
0.08419572 -0.00153202 0.1551142 1 0 1
0.08479618 -0.0009178348 0.1530298 1 0 1
0.08495616 0.0001649556 0.1490471 1 0 1
0.08594957 0.0003104769 0.1488587 1 0 1
-0.1049624 0.009843912 0.1224505 1 0 1
-0.1030812 0.0099827 0.1212289 1 0 1
-0.1022046 0.009731148 0.1216874 1 0 1
-0.1008328 0.009680544 0.1212961 1 0 1
-0.09995568 0.009433845 0.1217468 1 0 1
-0.09907667 0.009189077 0.1221944 1 0 1
-0.098679 0.008744497 0.1234908 1 0 1
-0.0973129 0.00870548 0.1230804 1 0 1
-0.09642823 0.008466599 0.1235188 1 0 1
-0.09554168 0.008229682 0.1239541 1 0 1
-0.09418345 0.008200163 0.1235277 1 0 1
-0.09329659 0.007968061 0.1239552 1 0 1
-0.09240795 0.00773794 0.1243796 1 0 1
-0.09151748 0.00750975 0.1248009 1 0 1
-0.0906252 0.007283541 0.1252192 1 0 1
-0.08973117 0.007059287 0.1256343 1 0 1
-0.08838597 0.007047624 0.1251782 1 0 1
-0.08570795 0.007673983 0.1221067 1 0 1
-0.08128552 0.009158215 0.1155347 1 0 1
-0.07603823 0.01108379 0.1071894 1 0 1
-0.07085826 0.01302761 0.09881075 1 0 1
-0.06661013 0.01455992 0.09215058 1 0 1
-0.0641308 0.01524466 0.08897301 1 0 1
-0.06210309 0.01572102 0.08665973 1 0 1
-0.06093842 0.01576948 0.08609558 1 0 1
-0.06019766 0.01560319 0.08640769 1 0 1
-0.05904075 0.01565723 0.08583404 1 0 1
-0.05788947 0.0157144 0.08525493 1 0 1
-0.05755961 0.01533426 0.08644262 1 0 1
-0.05641275 0.01539614 0.08585556 1 0 1
-0.05567246 0.01523943 0.08615205 1 0 1
-0.05453355 0.01530673 0.08555567 1 0 1
-0.05379426 0.01515393 0.08584568 1 0 1
-0.05305373 0.01500273 0.08613316 1 0 1
-0.05231195 0.01485314 0.08641808 1 0 1
-0.05156895 0.01470514 0.08670043 1 0 1
-0.05082474 0.0145587 0.08698026 1 0 1
-0.05007935 0.01441394 0.08725753 1 0 1
-0.04970532 0.01404333 0.08843194 1 0 1
-0.04895399 0.01390108 0.08870537 1 0 1
-0.04856692 0.01353171 0.0898785 1 0 1
-0.04780968 0.013392 0.09014804 1 0 1
-0.04740959 0.01302391 0.0913198 1 0 1
-0.04700116 0.01265611 0.09249146 1 0 1
-0.04658443 0.01228871 0.09366298 1 0 1
-0.04581185 0.01215363 0.09392577 1 0 1
-0.04572596 0.01155506 0.09600537 1 0 1
-0.04528426 0.01118888 0.0971762 1 0 1
-0.0444975 0.01105695 0.09743458 1 0 1
-0.04370962 0.01092669 0.09769025 1 0 1
-0.04325012 0.01056314 0.09885772 1 0 1
-0.04213059 0.01067118 0.09819353 1 0 1
-0.04133946 0.01054596 0.0984411 1 0 1
-0.04022867 0.01065912 0.0977681 1 0 1
-0.03817924 0.01148679 0.09433324 1 0 1
-0.03584662 0.01255836 0.08996682 1 0 1
-0.03354948 0.01363702 0.08558688 1 0 1
-0.03493598 0.01185613 0.09226042 1 0 1
-0.03566964 0.01054821 0.0970997 1 0 1
-0.03636573 0.009236728 0.1019468 1 0 1
-0.0361451 0.008643075 0.1040255 1 0 1
-0.03561947 0.00829009 0.1051791 1 0 1
-0.0350855 0.007937823 0.1063319 1 0 1
-0.03397921 0.008070161 0.1056271 1 0 1
-0.03315766 0.007962812 0.1058468 1 0 1
-0.03233513 0.007857172 0.1060638 1 0 1
-0.03096982 0.008239999 0.1044153 1 0 1
-0.02961838 0.008626368 0.1027602 1 0 1
-0.02801733 0.009260526 0.1001654 1 0 1
-0.02591795 0.01038845 0.09569395 1 0 1
0.02626752 0.01020074 0.09381346 1 0 1
0.03050435 -0.004296482 0.1489519 1 0 1
0.0315307 -0.00503304 0.1518518 1 0 1
0.03253855 -0.004999332 0.1518482 1 0 1
0.03354635 -0.00496352 0.1518412 1 0 1
0.03457566 -0.005181173 0.1527973 1 0 1
0.0356126 -0.005396394 0.1537499 1 0 1
0.03665718 -0.005609186 0.1546988 1 0 1
0.03767626 -0.005564488 0.1546777 1 0 1
0.03869523 -0.005517674 0.1546532 1 0 1
0.03967329 -0.005214059 0.1536589 1 0 1
0.04064352 -0.00490873 0.1526614 1 0 1
0.04160593 -0.004601683 0.1516607 1 0 1
0.04266513 -0.004801085 0.1525883 1 0 1
0.04367569 -0.004744091 0.1525465 1 0 1
0.04474603 -0.004938616 0.1534667 1 0 1
0.04576 -0.004877203 0.1534178 1 0 1
0.04677378 -0.004813629 0.1533654 1 0 1
0.04778729 -0.004747966 0.1533095 1 0 1
0.0488006 -0.004680191 0.1532501 1 0 1
0.04973439 -0.004357936 0.1522229 1 0 1
0.0508263 -0.004538307 0.1531209 1 0 1
0.05183875 -0.00446417 0.1530511 1 0 1
0.05285086 -0.004387964 0.1529777 1 0 1
0.05386265 -0.004309617 0.1529009 1 0 1
0.05497251 -0.004480089 0.1537836 1 0 1
0.05598743 -0.004397207 0.1536995 1 0 1
0.05689595 -0.004061931 0.1526495 1 0 1
0.05790633 -0.003975121 0.1525587 1 0 1
0.05880261 -0.003636554 0.1515028 1 0 1
0.05969082 -0.003296567 0.1504441 1 0 1
0.06069231 -0.003204151 0.1503437 1 0 1
0.0618185 -0.003358225 0.1512002 1 0 1
0.06269392 -0.003013038 0.1501323 1 0 1
0.06369405 -0.002914297 0.1500215 1 0 1
0.06483031 -0.003060963 0.1508664 1 0 1
0.06569285 -0.002710588 0.1497894 1 0 1
0.06654729 -0.002358926 0.1487099 1 0 1
0.06768964 -0.002498486 0.1495435 1 0 1
0.0686872 -0.002389287 0.1494154 1 0 1
0.06968426 -0.002278016 0.1492838 1 0 1
0.07084017 -0.002409602 0.150105 1 0 1
0.0716766 -0.002049185 0.1490102 1 0 1
0.07283897 -0.002175721 0.1498235 1 0 1
0.0740083 -0.002299216 0.1506322 1 0 1
0.07500996 -0.002176529 0.1504822 1 0 1
0.07601096 -0.002051767 0.1503287 1 0 1
0.0771936 -0.002167046 0.1511247 1 0 1
0.07838308 -0.002279301 0.151916 1 0 1
0.07938968 -0.002147189 0.1517509 1 0 1
0.08058915 -0.002253681 0.1525333 1 0 1
0.08159809 -0.002116815 0.1523605 1 0 1
0.08260634 -0.00197781 0.1521842 1 0 1
0.08381873 -0.002075859 0.1529535 1 0 1
0.08462058 -0.001693428 0.151821 1 0 1
0.08541412 -0.001309942 0.1506864 1 0 1
0.08663171 -0.001400499 0.1514438 1 0 1
0.08741613 -0.001013902 0.1503036 1 0 1
0.08819223 -0.0006262679 0.1491614 1 0 1
0.08941492 -0.0007093486 0.1499068 1 0 1
-0.1040185 0.009250179 0.1204977 1 0 1
-0.1026432 0.009197044 0.1201168 1 0 1
-0.1017695 0.008946018 0.1205735 1 0 1
-0.1008938 0.00869691 0.1210271 1 0 1
-0.1000162 0.008449744 0.1214776 1 0 1
-0.09913674 0.008204568 0.1219251 1 0 1
-0.09825533 0.007961333 0.1223695 1 0 1
-0.09737203 0.007720072 0.1228108 1 0 1
-0.09648688 0.007480769 0.123249 1 0 1
-0.09559987 0.007243445 0.1236842 1 0 1
-0.09471101 0.007008063 0.1241163 1 0 1
-0.09335364 0.006984727 0.1236861 1 0 1
-0.09246452 0.00675419 0.1241104 1 0 1
-0.09157358 0.006525611 0.1245316 1 0 1
-0.09068085 0.00629898 0.1249497 1 0 1
-0.0893333 0.00628785 0.1244992 1 0 1
-0.08664202 0.00692356 0.1214411 1 0 1
-0.08308409 0.007998423 0.11663 1 0 1
-0.07779469 0.009949462 0.1083164 1 0 1
-0.07213315 0.01213584 0.09909729 1 0 1
-0.06785344 0.01368897 0.09246164 1 0 1
-0.06449227 0.01481976 0.08754867 1 0 1
-0.06288695 0.01508457 0.08612025 1 0 1
-0.06129411 0.01535423 0.08468331 1 0 1
-0.06055778 0.01518685 0.08499639 1 0 1
-0.05940161 0.01524275 0.08442625 1 0 1
-0.05866612 0.01507935 0.08473284 1 0 1
-0.05751778 0.01514077 0.08415327 1 0 1
-0.05719119 0.01475731 0.08533841 1 0 1
-0.05604726 0.01482344 0.08475091 1 0 1
-0.05531009 0.01466718 0.08504596 1 0 1
-0.05457167 0.0145125 0.08533841 1 0 1
-0.05383197 0.01435943 0.08562838 1 0 1
-0.0527006 0.01443563 0.08502378 1 0 1
-0.05234887 0.01405809 0.08620064 1 0 1
-0.05122212 0.01413894 0.08558825 1 0 1
-0.05086091 0.01376319 0.08676272 1 0 1
-0.05011512 0.01361812 0.08703991 1 0 1
-0.04936814 0.01347469 0.08731456 1 0 1
-0.04898915 0.01310098 0.08848663 1 0 1
-0.04823625 0.01296009 0.08875743 1 0 1
-0.04784423 0.01258764 0.0899282 1 0 1
-0.04744389 0.01221548 0.09109889 1 0 1
-0.04668036 0.01207815 0.09136441 1 0 1
-0.04626699 0.01170734 0.09253363 1 0 1
-0.04584526 0.01133692 0.09370262 1 0 1
-0.0457593 0.01073053 0.09578014 1 0 1
-0.04531733 0.01036031 0.09694988 1 0 1
-0.04453015 0.01022815 0.09720823 1 0 1
-0.04407512 0.009859451 0.09837615 1 0 1
-0.04361175 0.009491311 0.09954371 1 0 1
-0.04281403 0.009363023 0.09979624 1 0 1
-0.04169285 0.009476366 0.09913035 1 0 1
-0.04025914 0.009833018 0.09754268 1 0 1
-0.03789366 0.01091678 0.09319402 1 0 1
-0.03649795 0.01128294 0.09158877 1 0 1
-0.03727039 0.009957843 0.0964174 1 0 1
-0.03861357 0.008143662 0.1030965 1 0 1
-0.03900308 0.007053354 0.1070211 1 0 1
-0.03847184 0.006691868 0.1081813 1 0 1
-0.03793222 0.006331065 0.1093408 1 0 1
-0.03680529 0.006460529 0.1086487 1 0 1
-0.03597053 0.006347558 0.1088781 1 0 1
-0.03485265 0.006482039 0.1081773 1 0 1
-0.03429802 0.00612682 0.1093284 1 0 1
-0.03346032 0.006019156 0.1095493 1 0 1
-0.03235063 0.006160375 0.108837 1 0 1
-0.03098004 0.006551923 0.1071887 1 0 1
-0.02962334 0.006947062 0.1055338 1 0 1
-0.02750077 0.008091304 0.1010732 1 0 1
-0.02310837 0.0114822 0.08819449 1 0 1
0.02753665 -0.004588981 0.1457698 1 0 1
0.02851886 -0.005084314 0.1477112 1 0 1
0.0295165 -0.005577196 0.1496492 1 0 1
0.03052335 -0.005807673 0.1506184 1 0 1
0.0315379 -0.006035833 0.1515841 1 0 1
0.03256012 -0.006261603 0.1525463 1 0 1
0.03359003 -0.006485016 0.1535049 1 0 1
0.03458437 -0.006187386 0.152529 1 0 1
0.03562186 -0.006406258 0.1534806 1 0 1
0.0366377 -0.006363728 0.1534633 1 0 1
0.0376534 -0.006319024 0.1534424 1 0 1
0.03866903 -0.006272236 0.1534181 1 0 1
0.03964373 -0.00596482 0.1524251 1 0 1
0.04065524 -0.005913979 0.1523939 1 0 1
0.04161813 -0.005602916 0.1513943 1 0 1
0.0426255 -0.005548079 0.1513563 1 0 1
0.04363267 -0.005491123 0.1513149 1 0 1
0.04469974 -0.005689504 0.1522344 1 0 1
0.0457104 -0.005628109 0.1521858 1 0 1
0.04678856 -0.005821558 0.1530978 1 0 1
0.04780258 -0.005755709 0.1530421 1 0 1
0.04881635 -0.005687748 0.1529829 1 0 1
0.04982984 -0.005617693 0.1529202 1 0 1
0.05084307 -0.005545457 0.152854 1 0 1
0.05176907 -0.005215467 0.1518214 1 0 1
0.05277784 -0.005139299 0.1517485 1 0 1
0.05378631 -0.005061046 0.1516722 1 0 1
0.05489285 -0.005235418 0.1525543 1 0 1
0.05590446 -0.005152627 0.1524707 1 0 1
0.0568096 -0.004813577 0.1514223 1 0 1
0.0578166 -0.00472685 0.151332 1 0 1
0.05882322 -0.004638032 0.1512382 1 0 1
0.05959429 -0.004040919 0.1492205 1 0 1
0.06059242 -0.00394858 0.1491206 1 0 1
0.06171537 -0.004106544 0.1499767 1 0 1
0.06258736 -0.003757661 0.1489105 1 0 1
0.06358416 -0.00365906 0.1488002 1 0 1
0.06471716 -0.00380961 0.1496448 1 0 1
0.06571681 -0.003706434 0.1495272 1 0 1
0.06657159 -0.003350715 0.1484488 1 0 1
0.06771451 -0.003493792 0.1492817 1 0 1
0.06871258 -0.003384318 0.1491537 1 0 1
0.06971008 -0.003272763 0.1490223 1 0 1
0.07070705 -0.003159068 0.1488875 1 0 1
0.07170341 -0.003043287 0.1487492 1 0 1
0.0726992 -0.002925433 0.1486074 1 0 1
0.07386532 -0.003052907 0.1494159 1 0 1
0.07503842 -0.003177332 0.1502198 1 0 1
0.07603992 -0.003052222 0.1500666 1 0 1
0.07740543 -0.003417041 0.1518138 1 0 1
0.07841321 -0.003286717 0.1516523 1 0 1
0.07923037 -0.002909262 0.1505366 1 0 1
0.08042664 -0.003019713 0.151319 1 0 1
0.08162978 -0.003127012 0.1520965 1 0 1
0.08263852 -0.002987668 0.1519204 1 0 1
0.08364646 -0.002846215 0.1517408 1 0 1
0.08486248 -0.002944986 0.1525051 1 0 1
0.08566011 -0.002556848 0.1513711 1 0 1
0.08666577 -0.00240896 0.1511809 1 0 1
0.08701036 -0.001536708 0.1481514 1 0 1
0.08800311 -0.001386254 0.1479564 1 0 1
0.08899505 -0.001233713 0.147758 1 0 1
0.08998614 -0.001079088 0.1475562 1 0 1
0.09027106 -0.0002070709 0.1445241 1 0 1
0.09148811 -0.0002877946 0.1452591 1 0 1
0.09101348 0.00129519 0.1394044 1 0 1
0.09024675 0.00310946 0.1326162 1 0 1
-0.1040801 0.008265429 0.1202242 1 0 1
-0.1027041 0.008215548 0.1198443 1 0 1
-0.1018299 0.007964046 0.1203007 1 0 1
-0.10046 0.007921017 0.1199094 1 0 1
-0.1000758 0.007466922 0.1212046 1 0 1
-0.09870873 0.007429664 0.1208037 1 0 1
-0.09831396 0.00697765 0.1220962 1 0 1
-0.09743021 0.006735934 0.1225374 1 0 1
-0.09654459 0.006496212 0.1229755 1 0 1
-0.0956571 0.006258466 0.1234105 1 0 1
-0.09476778 0.006022652 0.1238425 1 0 1
-0.09387662 0.005788832 0.1242714 1 0 1
-0.09298363 0.005557006 0.1246972 1 0 1
-0.09208881 0.005327126 0.1251198 1 0 1
-0.09073554 0.00531566 0.1246765 1 0 1
-0.08848087 0.005742456 0.1224979 1 0 1
-0.08489554 0.006830784 0.1177085 1 0 1
-0.0800105 0.008588137 0.1102945 1 0 1
-0.07429974 0.01080208 0.1011111 1 0 1
-0.06910262 0.01281544 0.09276187 1 0 1
-0.06571713 0.01396111 0.0878683 1 0 1
-0.06366946 0.01445138 0.08557523 1 0 1
-0.06207028 0.01472506 0.08414583 1 0 1
-0.06090927 0.01477965 0.08358464 1 0 1
-0.05975388 0.01483744 0.083018 1 0 1
-0.05902279 0.01467289 0.08332559 1 0 1
-0.05829039 0.01450995 0.08363064 1 0 1
-0.05714498 0.01457562 0.08305062 1 0 1
-0.0568217 0.01418889 0.0842332 1 0 1
-0.05608544 0.01403076 0.08453071 1 0 1
-0.05534788 0.01387424 0.08482564 1 0 1
-0.05460906 0.01371928 0.08511809 1 0 1
-0.05386899 0.01356592 0.08540799 1 0 1
-0.0531277 0.01341421 0.08569533 1 0 1
-0.05238515 0.01326407 0.08598015 1 0 1
-0.05125782 0.01334843 0.08536873 1 0 1
-0.05089641 0.01296862 0.08654211 1 0 1
-0.0501502 0.01282332 0.08681925 1 0 1
-0.04940285 0.01267961 0.08709385 1 0 1
-0.04902365 0.01230188 0.08826483 1 0 1
-0.04863612 0.01192443 0.08943578 1 0 1
-0.0478781 0.01178426 0.0897052 1 0 1
-0.04711892 0.01164569 0.08997208 1 0 1
-0.04671361 0.01127049 0.0911403 1 0 1
-0.04629998 0.01089566 0.09230843 1 0 1
-0.04587803 0.0105212 0.09347637 1 0 1
-0.04579197 0.009907003 0.09555172 1 0 1
-0.04534974 0.009532754 0.09672038 1 0 1
-0.04489918 0.009158983 0.09788873 1 0 1
-0.04444026 0.00878571 0.09905673 1 0 1
-0.04397298 0.008412899 0.1002243 1 0 1
-0.04349738 0.008040673 0.1013915 1 0 1
-0.04204587 0.008400152 0.09981428 1 0 1
-0.04124558 0.008275067 0.1000614 1 0 1
-0.03981377 0.008641386 0.09847192 1 0 1
-0.04088814 0.007048329 0.1042192 1 0 1
-0.0416097 0.005696393 0.1090578 1 0 1
-0.04107659 0.005326805 0.1102237 1 0 1
-0.0405351 0.004957929 0.1113889 1 0 1
-0.03998519 0.004589811 0.1125532 1 0 1
-0.03913366 0.004470484 0.1127935 1 0 1
-0.03741229 0.005098698 0.110258 1 0 1
-0.03656974 0.004984503 0.1104894 1 0 1
-0.03572618 0.004872108 0.110718 1 0 1
-0.03488163 0.004761509 0.1109437 1 0 1
-0.03403612 0.004652662 0.1111665 1 0 1
-0.03318965 0.004545637 0.1113864 1 0 1
-0.03207476 0.004691835 0.1106733 1 0 1
-0.0307026 0.005092609 0.1090243 1 0 1
-0.02908433 0.005749336 0.1064366 1 0 1
-0.02569309 0.008179794 0.09730995 1 0 1
0.02554478 -0.006140148 0.147402 1 0 1
0.02653808 -0.006119151 0.1474191 1 0 1
0.0275261 -0.006360096 0.1483975 1 0 1
0.02852187 -0.00659877 0.1493724 1 0 1
0.02952301 -0.00657133 0.1493794 1 0 1
0.03053038 -0.006805507 0.1503477 1 0 1
0.03155551 -0.007300948 0.152277 1 0 1
0.03258214 -0.007530272 0.1532383 1 0 1
0.03359862 -0.007493916 0.1532315 1 0 1
0.03461509 -0.007455458 0.1532212 1 0 1
0.03563149 -0.007414873 0.1532075 1 0 1
0.03664779 -0.007372168 0.1531902 1 0 1
0.03766403 -0.007327321 0.1531696 1 0 1
0.03868016 -0.007280368 0.1531453 1 0 1
0.03965528 -0.006968982 0.1521536 1 0 1
0.0406226 -0.006655856 0.1511585 1 0 1
0.04163063 -0.006602902 0.1511241 1 0 1
0.04258606 -0.006286183 0.1501225 1 0 1
0.0435899 -0.006229277 0.1500814 1 0 1
0.04465367 -0.006431514 0.1510002 1 0 1
0.04566094 -0.006370175 0.1509519 1 0 1
0.04673583 -0.006567523 0.1518633 1 0 1
0.0477465 -0.006501719 0.1518079 1 0 1
0.04875693 -0.00643377 0.1517491 1 0 1
0.0498464 -0.006623767 0.1526491 1 0 1
0.05086011 -0.006551349 0.1525831 1 0 1
0.05178653 -0.006217316 0.1515517 1 0 1
0.05279579 -0.006140966 0.1514791 1 0 1
0.05380476 -0.006062442 0.1514028 1 0 1
0.05481336 -0.005981836 0.1513232 1 0 1
0.05582161 -0.005899113 0.15124 1 0 1
0.05682949 -0.005814295 0.1511534 1 0 1
0.05772698 -0.005469742 0.1501033 1 0 1
0.05873027 -0.005381011 0.1500102 1 0 1
0.05949779 -0.004776376 0.147995 1 0 1
0.0604926 -0.004684131 0.1478957 1 0 1
0.06161227 -0.004846019 0.1487514 1 0 1
0.06273914 -0.005005084 0.1496028 1 0 1
0.06360725 -0.004650389 0.1485347 1 0 1
0.06474084 -0.004804472 0.1493784 1 0 1
0.06574093 -0.004701035 0.149261 1 0 1
0.06659614 -0.004341234 0.1481839 1 0 1
0.06759138 -0.004233979 0.1480601 1 0 1
0.06873816 -0.004378071 0.1488882 1 0 1
0.06973616 -0.004266197 0.148757 1 0 1
0.07073357 -0.004152251 0.1486223 1 0 1
0.07156695 -0.00378407 0.1475304 1 0 1
0.07272668 -0.003918004 0.1483426 1 0 1
0.0737223 -0.00379774 0.1481977 1 0 1
0.07489219 -0.003926107 0.1490013 1 0 1
0.07589036 -0.003801187 0.1488489 1 0 1
0.07707034 -0.003923893 0.1496439 1 0 1
0.07825723 -0.004043533 0.1504342 1 0 1
0.079261 -0.003911299 0.1502701 1 0 1
0.08026406 -0.003776895 0.1501026 1 0 1
0.08146401 -0.003888135 0.15088 1 0 1
0.0824694 -0.003748989 0.1507048 1 0 1
0.08326893 -0.003360951 0.1495789 1 0 1
0.084478 -0.003464276 0.1503439 1 0 1
0.08526842 -0.003073077 0.1492124 1 0 1
0.08605058 -0.002680891 0.1480789 1 0 1
0.08704458 -0.002532194 0.1478877 1 0 1
0.08803782 -0.002381377 0.147693 1 0 1
0.08903022 -0.002228492 0.1474949 1 0 1
0.08979031 -0.001830692 0.1463513 1 0 1
0.09077727 -0.001674148 0.146147 1 0 1
0.09200239 -0.001757077 0.1468797 1 0 1
0.09274862 -0.00135477 0.145728 1 0 1
0.09274702 -0.0002305063 0.1417579 1 0 1
-0.1041407 0.007281925 0.1199469 1 0 1
-0.1027641 0.007235331 0.1195679 1 0 1
-0.1018894 0.006983386 0.1200242 1 0 1
-0.1005188 0.006943587 0.1196338 1 0 1
-0.1001344 0.006485344 0.1209278 1 0 1
-0.09925392 0.006239249 0.1213749 1 0 1
-0.0983716 0.005995169 0.1218191 1 0 1
-0.0974874 0.005753055 0.1222601 1 0 1
-0.09660131 0.005512886 0.1226981 1 0 1
-0.09571338 0.005274708 0.123133 1 0 1
-0.09482358 0.005038496 0.1235648 1 0 1
-0.09393197 0.004804268 0.1239936 1 0 1
-0.0930385 0.004571996 0.1244193 1 0 1
-0.09168296 0.00456103 0.1239815 1 0 1
-0.08987559 0.004773964 0.1226757 1 0 1
-0.08671981 0.005655397 0.1187701 1 0 1
-0.0817965 0.007434925 0.1113856 1 0 1
-0.07604009 0.009677068 0.1022369 1 0 1
-0.07080079 0.01171591 0.0939193 1 0 1
-0.06650823 0.01332432 0.08730759 1 0 1
-0.06445063 0.01382143 0.08502473 1 0 1
-0.06327793 0.01387305 0.0844756 1 0 1
-0.06211076 0.01392789 0.08392093 1 0 1
-0.06052334 0.01421358 0.08248509 1 0 1
-0.05937084 0.01427561 0.08191793 1 0 1
-0.05822398 0.01434078 0.08134534 1 0 1
-0.0574982 0.01417914 0.08164742 1 0 1
-0.0563592 0.01424983 0.08106551 1 0 1
-0.05604275 0.01386059 0.08224412 1 0 1
-0.05571802 0.01347137 0.08342307 1 0 1
-0.05498359 0.01331528 0.08371657 1 0 1
-0.05424792 0.01316082 0.08400755 1 0 1
-0.05351099 0.01300794 0.08429597 1 0 1
-0.05277285 0.01285666 0.08458192 1 0 1
-0.05203345 0.01270698 0.0848653 1 0 1
-0.05129285 0.01255892 0.08514615 1 0 1
-0.05055103 0.01241242 0.08542448 1 0 1
-0.04980805 0.01226756 0.08570027 1 0 1
-0.04906384 0.01212427 0.08597351 1 0 1
-0.04868798 0.01174321 0.08714204 1 0 1
-0.04830379 0.01136239 0.08831062 1 0 1
-0.04791131 0.01098186 0.08947916 1 0 1
-0.04751049 0.01060166 0.09064764 1 0 1
-0.04674619 0.01046386 0.09091308 1 0 1
-0.04668391 0.009842313 0.09298424 1 0 1
-0.04591012 0.009706529 0.09324692 1 0 1
-0.04582397 0.009084512 0.09532011 1 0 1
-0.04538149 0.008706256 0.09648764 1 0 1
-0.04493067 0.008328451 0.09765491 1 0 1
-0.04447148 0.007951139 0.0988218 1 0 1
-0.04433386 0.007327961 0.1008996 1 0 1
-0.04385434 0.00695113 0.1020669 1 0 1
-0.04304383 0.006822383 0.10232 1 0 1
-0.0428702 0.006199161 0.1043998 1 0 1
-0.04268093 0.00557544 0.1064814 1 0 1
-0.04309941 0.004452814 0.1103982 1 0 1
-0.04287146 0.003827143 0.112485 1 0 1
-0.04201901 0.00370166 0.1127351 1 0 1
-0.04146622 0.003327203 0.1139023 1 0 1
-0.0403109 0.003456191 0.1132264 1 0 1
-0.03945525 0.00333617 0.1134677 1 0 1
-0.03801913 0.003722698 0.1118597 1 0 1
-0.03716877 0.003607334 0.1120931 1 0 1
-0.03631742 0.003493761 0.1123237 1 0 1
-0.03546508 0.003381996 0.1125513 1 0 1
-0.0348867 0.003017724 0.1137032 1 0 1
-0.03402872 0.002909114 0.1139261 1 0 1
-0.03290218 0.003057549 0.1132168 1 0 1
-0.03204599 0.002953056 0.1134329 1 0 1
-0.03014825 0.003874952 0.109922 1 0 1
-0.02751002 0.005571895 0.1036054 1 0 1
-0.02290123 0.009332718 0.08981106 1 0 1
0.02352092 -0.007698146 0.1490114 1 0 1
0.02448854 -0.008217223 0.1509622 1 0 1
0.02549764 -0.008197878 0.1509832 1 0 1
0.02651598 -0.007908551 0.1500374 1 0 1
0.02752139 -0.00788509 0.1500515 1 0 1
0.02852682 -0.00785951 0.1500621 1 0 1
0.0295323 -0.007831847 0.1500693 1 0 1
0.03053779 -0.007802072 0.150073 1 0 1
0.03155336 -0.008037608 0.1510369 1 0 1
0.03257666 -0.008270783 0.1519973 1 0 1
0.03358979 -0.008234428 0.1519906 1 0 1
0.03462455 -0.008462953 0.152944 1 0 1
0.03561594 -0.008155385 0.151967 1 0 1
0.0366289 -0.008112698 0.15195 1 0 1
0.03764177 -0.008067856 0.1519294 1 0 1
0.03865455 -0.00802092 0.1519055 1 0 1
0.03962626 -0.007705737 0.150915 1 0 1
0.04063492 -0.007654755 0.1508842 1 0 1
0.04164346 -0.00760165 0.1508499 1 0 1
0.04265179 -0.00754645 0.1508122 1 0 1
0.04365999 -0.007489152 0.1507711 1 0 1
0.04472813 -0.007694791 0.1516888 1 0 1
0.04573974 -0.007633032 0.1516406 1 0 1
0.04675116 -0.007569137 0.1515888 1 0 1
0.04776232 -0.00750311 0.1515336 1 0 1
0.04877322 -0.007434988 0.151475 1 0 1
0.04978388 -0.00736474 0.1514128 1 0 1
0.05079421 -0.007292382 0.1513472 1 0 1
0.05171721 -0.006954614 0.1503173 1 0 1
0.05281402 -0.007141298 0.1512056 1 0 1
0.05372874 -0.006799905 0.1501693 1 0 1
0.05473397 -0.006719376 0.1500901 1 0 1
0.05573889 -0.006636732 0.1500075 1 0 1
0.05674339 -0.006551976 0.1499213 1 0 1
0.05774754 -0.006465139 0.1498318 1 0 1
0.05863741 -0.006115107 0.1487802 1 0 1
0.05951917 -0.005763665 0.1477259 1 0 1
0.06051442 -0.0056712 0.1476267 1 0 1
0.06176006 -0.006096596 0.149439 1 0 1
0.0627621 -0.005999191 0.1493321 1 0 1
0.06376365 -0.005899686 0.1492218 1 0 1
0.06490159 -0.006056941 0.1500643 1 0 1
0.06604667 -0.006211252 0.1509024 1 0 1
0.06676538 -0.005588527 0.1488703 1 0 1
0.06776494 -0.005480588 0.1487462 1 0 1
0.06876395 -0.005370517 0.1486186 1 0 1
0.06976241 -0.005258383 0.1484876 1 0 1
0.07060054 -0.004887776 0.1473999 1 0 1
0.07159407 -0.004771845 0.1472626 1 0 1
0.07258698 -0.004653827 0.1471217 1 0 1
0.07357927 -0.004533717 0.1469775 1 0 1
0.07474595 -0.00466604 0.147781 1 0 1
0.07574076 -0.004541239 0.1476293 1 0 1
0.07691753 -0.004667944 0.1484241 1 0 1
0.0781012 -0.004791534 0.1492142 1 0 1
0.07891153 -0.004406853 0.1481023 1 0 1
0.07990748 -0.004273141 0.1479362 1 0 1
0.08129814 -0.004640411 0.1496615 1 0 1
0.08230023 -0.004501434 0.1494872 1 0 1
0.08330159 -0.004360351 0.1493094 1 0 1
0.08430219 -0.00421709 0.1491281 1 0 1
0.08551484 -0.004321151 0.1498881 1 0 1
0.08630106 -0.003924269 0.1487551 1 0 1
0.08729932 -0.003774656 0.1485634 1 0 1
0.08829676 -0.003622912 0.1483683 1 0 1
0.08929336 -0.003469077 0.1481696 1 0 1
0.09005757 -0.003066534 0.1470265 1 0 1
0.09104872 -0.002909038 0.1468216 1 0 1
0.09227819 -0.002994738 0.1475528 1 0 1
0.09302849 -0.002587679 0.1464016 1 0 1
0.09401705 -0.002423817 0.1461864 1 0 1
0.09425358 -0.00152743 0.1431566 1 0 1
0.09446677 -0.0006327201 0.1401285 1 0 1
-0.1036961 0.00651073 0.1188285 1 0 1
-0.1023221 0.006468405 0.1184485 1 0 1
-0.1014504 0.006216971 0.118903 1 0 1
-0.1005766 0.005967456 0.1193544 1 0 1
-0.09970103 0.005719931 0.1198028 1 0 1
-0.09931105 0.005258523 0.1210942 1 0 1
-0.09842826 0.00501399 0.1215381 1 0 1
-0.09754363 0.004771444 0.1219791 1 0 1
-0.09665707 0.00453082 0.1224169 1 0 1
-0.09576869 0.00429221 0.1228517 1 0 1
-0.09487843 0.004055618 0.1232834 1 0 1
-0.09351905 0.004042231 0.122856 1 0 1
-0.09262855 0.00381045 0.12328 1 0 1
-0.09081528 0.004026748 0.1219824 1 0 1
-0.08809979 0.004696312 0.1189538 1 0 1
-0.08359534 0.006273896 0.11246 1 0 1
-0.07779337 0.008544009 0.1033461 1 0 1
-0.07206526 0.0108346 0.09419511 1 0 1
-0.06818457 0.01223616 0.08847542 1 0 1
-0.06523041 0.01319482 0.08446871 1 0 1
-0.06405507 0.01324739 0.08392465 1 0 1
-0.06288526 0.01330325 0.08337501 1 0 1
-0.061721 0.01336233 0.08281984 1 0 1
-0.06013631 0.01365602 0.08138457 1 0 1
-0.0594093 0.01349014 0.08169303 1 0 1
-0.05784282 0.01379179 0.08024389 1 0 1
-0.05712014 0.0136306 0.08054444 1 0 1
-0.0559841 0.01370556 0.07996208 1 0 1
-0.05567096 0.01331301 0.08113813 1 0 1
-0.05494445 0.01315656 0.08143124 1 0 1
-0.05461825 0.01276491 0.08260656 1 0 1
-0.05388572 0.0126109 0.08289606 1 0 1
-0.05354646 0.01222022 0.08407053 1 0 1
-0.05280793 0.01206867 0.0843564 1 0 1
-0.05168074 0.01215844 0.08374954 1 0 1
-0.05094331 0.01201081 0.084029 1 0 1
-0.05020467 0.01186478 0.08430594 1 0 1
-0.04946484 0.01172034 0.08458035 1 0 1
-0.04872385 0.0115775 0.08485223 1 0 1
-0.04872096 0.01094991 0.08691511 1 0 1
-0.04833657 0.01056506 0.08808256 1 0 1
-0.04794385 0.01018052 0.08924997 1 0 1
-0.04754281 0.009796296 0.09041733 1 0 1
-0.04713345 0.009412403 0.09158459 1 0 1
-0.04671574 0.009028909 0.0927517 1 0 1
-0.04628969 0.008645759 0.09391861 1 0 1
-0.04619982 0.008015332 0.09599081 1 0 1
-0.04575348 0.007632431 0.09715844 1 0 1
-0.04529879 0.007250004 0.09832574 1 0 1
-0.04516939 0.00661851 0.1004018 1 0 1
-0.04535442 0.005736217 0.1033899 1 0 1
-0.04551658 0.004852124 0.1063822 1 0 1
-0.04565577 0.003966315 0.1093785 1 0 1
-0.0454529 0.003330728 0.1114651 1 0 1
-0.0449188 0.002947166 0.1126386 1 0 1
-0.04437631 0.002564256 0.1138114 1 0 1
-0.04351721 0.002435693 0.1140664 1 0 1
-0.04235249 0.002563013 0.1134006 1 0 1
-0.04149486 0.00243863 0.1136488 1 0 1
-0.04063615 0.002316067 0.113894 1 0 1
-0.03977641 0.002195336 0.1141364 1 0 1
-0.03862579 0.002332604 0.1134536 1 0 1
-0.03776764 0.002216059 0.1136891 1 0 1
-0.03662601 0.002358455 0.1129974 1 0 1
-0.03604832 0.001988392 0.1141512 1 0 1
-0.03518717 0.001877324 0.1143779 1 0 1
-0.03432503 0.001768061 0.1146016 1 0 1
-0.03346193 0.001660629 0.1148225 1 0 1
-0.0325979 0.001555072 0.1150404 1 0 1
-0.03121241 0.001971189 0.1133955 1 0 1
-0.02907125 0.003172102 0.1089517 1 0 1
-0.02595514 0.005422389 0.1007692 1 0 1
0.02232652 0.006508984 0.09478284 1 0 1
0.02254812 -0.008433488 0.1477434 1 0 1
0.02348389 -0.009234368 0.1506573 1 0 1
0.02449339 -0.009217037 0.1506819 1 0 1
0.025503 -0.0091976 0.150703 1 0 1
0.02651268 -0.009176075 0.1507207 1 0 1
0.02752244 -0.009152414 0.1507349 1 0 1
0.02853362 -0.008855084 0.1497833 1 0 1
0.02953959 -0.00882728 0.1497906 1 0 1
0.03054556 -0.008797397 0.1497945 1 0 1
0.03156168 -0.009036619 0.1507574 1 0 1
0.03257148 -0.009002391 0.1507544 1 0 1
0.03359909 -0.009236999 0.1517104 1 0 1
0.03463438 -0.009469175 0.1526628 1 0 1
0.03562623 -0.009157648 0.151687 1 0 1
0.03663968 -0.009114799 0.1516701 1 0 1
0.03765302 -0.009069819 0.1516497 1 0 1
0.03866627 -0.009022727 0.1516259 1 0 1
0.03963847 -0.008703526 0.1506366 1 0 1
0.04069244 -0.008922131 0.1515678 1 0 1
0.04170528 -0.008868667 0.1515336 1 0 1
0.04271795 -0.008813094 0.1514959 1 0 1
0.04373048 -0.008755356 0.1514548 1 0 1
0.04474277 -0.008695524 0.1514101 1 0 1
0.04575489 -0.008633561 0.151362 1 0 1
0.0468347 -0.008837863 0.1522713 1 0 1
0.04777842 -0.008503256 0.1512554 1 0 1
0.0488654 -0.008702829 0.1521573 1 0 1
0.04988037 -0.008632108 0.1520951 1 0 1
0.05089505 -0.008559255 0.1520294 1 0 1
0.05182231 -0.008217201 0.1510005 1 0 1
0.05292353 -0.008407142 0.1518876 1 0 1
0.05384244 -0.008061429 0.1508523 1 0 1
0.05485204 -0.007980354 0.150773 1 0 1
0.05575874 -0.00763133 0.1497316 1 0 1
0.05676375 -0.007546344 0.1496457 1 0 1
0.0576582 -0.007194061 0.1485984 1 0 1
0.05865861 -0.007105189 0.1485059 1 0 1
0.05965861 -0.007014216 0.14841 1 0 1
0.06065815 -0.006921133 0.1483106 1 0 1
0.06178276 -0.007089719 0.1491642 1 0 1
0.06278528 -0.006992053 0.1490576 1 0 1
0.06378729 -0.006892258 0.1489475 1 0 1
0.0649258 -0.007053015 0.1497891 1 0 1
0.06607146 -0.00721085 0.1506263 1 0 1
0.06693503 -0.006842106 0.1495507 1 0 1
0.06793886 -0.006733476 0.1494264 1 0 1
0.06894215 -0.006622734 0.1492985 1 0 1
0.06994489 -0.006509859 0.1491672 1 0 1
0.07078721 -0.006134706 0.1480802 1 0 1
0.07178497 -0.006018071 0.1479425 1 0 1
0.07261468 -0.00564007 0.1468502 1 0 1
0.07360746 -0.005519647 0.1467061 1 0 1
0.07477468 -0.005655416 0.1475088 1 0 1
0.07559113 -0.005272513 0.1464078 1 0 1
0.07676466 -0.005403106 0.1472024 1 0 1
0.07794511 -0.005530659 0.1479924 1 0 1
0.07875197 -0.005142383 0.1468823 1 0 1
0.07974458 -0.005008862 0.146717 1 0 1
0.08093437 -0.005128551 0.1474948 1 0 1
0.08213097 -0.00524507 0.1482677 1 0 1
0.083129 -0.005104135 0.1480909 1 0 1
0.08433544 -0.005214801 0.1488549 1 0 1
0.08554866 -0.005322292 0.1496141 1 0 1
0.08633525 -0.004921238 0.1484824 1 0 1
0.08733395 -0.004771296 0.1482909 1 0 1
0.08855612 -0.004870678 0.1490375 1 0 1
0.08932892 -0.004464971 0.1478976 1 0 1
0.0900934 -0.004058315 0.1467557 1 0 1
0.09108502 -0.003900441 0.1465511 1 0 1
0.09255437 -0.004238614 0.14822 1 0 1
0.09355177 -0.004075263 0.1480069 1 0 1
0.0943015 -0.003661936 0.1468535 1 0 1
0.09554385 -0.003742175 0.1475703 1 0 1
0.09603001 -0.00307922 0.1454764 1 0 1
-0.1032501 0.005748299 0.1177083 1 0 1
-0.1023798 0.005494418 0.1181656 1 0 1
-0.1015076 0.005242532 0.1186199 1 0 1
-0.1006335 0.004992576 0.1190712 1 0 1
-0.1002485 0.004526 0.1203627 1 0 1
-0.09936719 0.004279042 0.1208096 1 0 1
-0.09896833 0.003813626 0.1221001 1 0 1
-0.09807987 0.003569682 0.1225425 1 0 1
-0.09671187 0.003550075 0.1221319 1 0 1
-0.09534875 0.003534268 0.1217149 1 0 1
-0.09446144 0.003298115 0.1221449 1 0 1
-0.09357228 0.003063906 0.1225717 1 0 1
-0.09175317 0.003283527 0.1212825 1 0 1
-0.08948521 0.003735423 0.1191257 1 0 1
-0.08586422 0.004877508 0.1143771 1 0 1
-0.08001336 0.007174499 0.1053001 1 0 1
-0.07423626 0.009492243 0.09618556 1 0 1
-0.06942703 0.01137001 0.08876275 1 0 1
-0.06600878 0.01257142 0.08390728 1 0 1
-0.06395068 0.01308881 0.08163325 1 0 1
-0.06322177 0.01291457 0.08195464 1 0 1
-0.0624915 0.01274196 0.08227352 1 0 1
-0.06090045 0.01303966 0.0808458 1 0 1
-0.05974818 0.01310703 0.08028316 1 0 1
-0.05902428 0.01294163 0.08059006 1 0 1
-0.05787981 0.01301453 0.08001805 1 0 1
-0.05674103 0.0130906 0.07944062 1 0 1
-0.05602019 0.01293149 0.0797372 1 0 1
-0.05529811 0.01277397 0.08003129 1 0 1
-0.05457475 0.01261801 0.08032291 1 0 1
-0.05425187 0.01222307 0.08149566 1 0 1
-0.0535225 0.01206954 0.08178372 1 0 1
-0.05318656 0.01167554 0.08295565 1 0 1
-0.05284234 0.01128169 0.08412783 1 0 1
-0.05171461 0.01137497 0.08352202 1 0 1
-0.05097681 0.01122706 0.08380143 1 0 1
-0.0502378 0.01108079 0.0840783 1 0 1
-0.0494976 0.0109361 0.08435262 1 0 1
-0.04875622 0.01079301 0.08462446 1 0 1
-0.04875329 0.0101576 0.08668513 1 0 1
-0.04836867 0.009768736 0.08785143 1 0 1
-0.04797572 0.009380197 0.08901769 1 0 1
-0.04757445 0.008991926 0.09018391 1 0 1
-0.04752031 0.008354429 0.09225077 1 0 1
-0.04709878 0.007966257 0.09341797 1 0 1
-0.04632061 0.007829357 0.09368178 1 0 1
-0.04623064 0.007191135 0.09575173 1 0 1
-0.04612508 0.006552072 0.09782383 1 0 1
-0.04634137 0.005659581 0.1008048 1 0 1
-0.0465348 0.004765151 0.10379 1 0 1
-0.0470355 0.003614953 0.1076886 1 0 1
-0.04783256 0.0022073 0.1125039 1 0 1
-0.04762336 0.001560923 0.1145934 1 0 1
-0.04739845 0.0009141376 0.1166845 1 0 1
-0.04621095 0.001035636 0.1160362 1 0 1
-0.0450296 0.001160118 0.1153828 1 0 1
-0.04416276 0.001030217 0.11564 1 0 1
-0.04299018 0.001160073 0.1149774 1 0 1
-0.04212479 0.001034378 0.1152277 1 0 1
-0.04125832 0.0009105806 0.115475 1 0 1
-0.04039078 0.0007886016 0.1157194 1 0 1
-0.03923225 0.0009284473 0.1150398 1 0 1
-0.03808006 0.001071173 0.1143552 1 0 1
-0.03693419 0.001216681 0.1136656 1 0 1
-0.03635249 0.0008421767 0.1148193 1 0 1
-0.03521203 0.000992331 0.1141219 1 0 1
-0.03462094 0.0006205153 0.1152716 1 0 1
-0.03375371 0.000512466 0.1154934 1 0 1
-0.03288553 0.0004062553 0.1157122 1 0 1
-0.0314957 0.0008294158 0.1140705 1 0 1
-0.02986317 0.001520337 0.1114924 1 0 1
-0.02774627 0.002744892 0.107045 1 0 1
-0.0244198 0.005300758 0.09792825 1 0 1
0.02247878 -0.01024829 0.1503448 1 0 1
0.02344734 -0.01078455 0.152295 1 0 1
0.02448187 -0.01049129 0.1513588 1 0 1
0.02549582 -0.01047167 0.1513801 1 0 1
0.02651895 -0.01017437 0.1504367 1 0 1
0.02752916 -0.01015063 0.1504511 1 0 1
0.02854083 -0.00984937 0.1495007 1 0 1
0.0295497 -0.01009671 0.1504695 1 0 1
0.03056004 -0.01006659 0.1504735 1 0 1
0.03157033 -0.01003434 0.150474 1 0 1
0.03258064 -0.009999963 0.1504712 1 0 1
0.03360877 -0.01023826 0.1514262 1 0 1
0.03462286 -0.01019949 0.1514164 1 0 1
0.03563687 -0.01015858 0.1514031 1 0 1
0.03662134 -0.009841323 0.1504251 1 0 1
0.03763134 -0.009796342 0.1504049 1 0 1
0.03864124 -0.009749271 0.1503814 1 0 1
0.039651 -0.009700064 0.1503543 1 0 1
0.04070548 -0.009922297 0.1512846 1 0 1
0.04176753 -0.01014198 0.1522112 1 0 1
0.04278456 -0.01008601 0.1521735 1 0 1
0.04380139 -0.01002788 0.1521323 1 0 1
0.04481804 -0.009967646 0.1520877 1 0 1
0.04583447 -0.009905233 0.1520396 1 0 1
0.04685067 -0.009840712 0.151988 1 0 1
0.04786665 -0.009774056 0.1519328 1 0 1
0.04895803 -0.009976945 0.1528337 1 0 1
0.04997733 -0.009905752 0.1527714 1 0 1
0.05091297 -0.009561233 0.1517467 1 0 1
0.05192783 -0.009486027 0.1516777 1 0 1
0.0529424 -0.00940871 0.1516051 1 0 1
0.05386171 -0.009058971 0.1505711 1 0 1
0.05487177 -0.008977684 0.1504919 1 0 1
0.05588142 -0.008894289 0.1504093 1 0 1
0.05678435 -0.008539384 0.1493661 1 0 1
0.05778942 -0.008452062 0.1492769 1 0 1
0.05879413 -0.008362596 0.1491842 1 0 1
0.05968051 -0.008002765 0.148132 1 0 1
0.06068052 -0.007909412 0.1480328 1 0 1
0.06180569 -0.008081527 0.1488855 1 0 1
0.06280866 -0.007983583 0.1487791 1 0 1
0.06381116 -0.007883557 0.1486692 1 0 1
0.06495023 -0.008047815 0.1495099 1 0 1
0.06609645 -0.008209161 0.1503462 1 0 1
0.06696037 -0.007836361 0.1492719 1 0 1
0.06811318 -0.007992628 0.1501004 1 0 1
0.06912077 -0.007881154 0.1499723 1 0 1
0.07012781 -0.00776757 0.1498407 1 0 1
0.07097428 -0.007387959 0.1487545 1 0 1
0.07181254 -0.00700707 0.1476658 1 0 1
0.07264262 -0.006624989 0.1465748 1 0 1
0.07380722 -0.00676679 0.1473805 1 0 1
0.07480362 -0.006643516 0.1472327 1 0 1
0.07562042 -0.00625649 0.146133 1 0 1
0.07679452 -0.006390559 0.1469268 1 0 1
0.07797554 -0.006521544 0.1477159 1 0 1
0.07878274 -0.00612917 0.146607 1 0 1
0.07977584 -0.005995325 0.146442 1 0 1
0.08096614 -0.006118436 0.1472189 1 0 1
0.08216331 -0.006238367 0.1479911 1 0 1
0.0831618 -0.006097133 0.1478144 1 0 1
0.08436883 -0.006211195 0.1485776 1 0 1
0.08558264 -0.006322075 0.149336 1 0 1
0.08636954 -0.005916932 0.1482056 1 0 1
0.08736868 -0.005766616 0.1480144 1 0 1
0.08836705 -0.005614149 0.1478197 1 0 1
0.08913643 -0.005204906 0.1466818 1 0 1
0.09012937 -0.005048769 0.146481 1 0 1
0.09112143 -0.004890532 0.1462766 1 0 1
0.09235208 -0.00498298 0.1470062 1 0 1
0.09334617 -0.00481985 0.1467942 1 0 1
0.09409247 -0.004402998 0.1456429 1 0 1
0.09533167 -0.004487216 0.1463598 1 0 1
0.09632303 -0.004317703 0.1461373 1 0 1
-0.1028026 0.004994547 0.1165866 1 0 1
-0.1014339 0.004960674 0.116205 1 0 1
-0.1010659 0.004489821 0.1174944 1 0 1
-0.1001947 0.004240396 0.1179439 1 0 1
-0.09981282 0.003770599 0.1192323 1 0 1
-0.09942236 0.003300878 0.1205213 1 0 1
-0.09853868 0.003055461 0.120965 1 0 1
-0.09765311 0.002812032 0.1214056 1 0 1
-0.09676567 0.00257059 0.1218432 1 0 1
-0.09540192 0.002558064 0.1214271 1 0 1
-0.09451414 0.002321506 0.1218569 1 0 1
-0.09268922 0.002544413 0.1205761 1 0 1
-0.0904118 0.003002487 0.1184303 1 0 1
-0.08677044 0.00415941 0.1137008 1 0 1
-0.08225346 0.005791514 0.107232 1 0 1
-0.07597344 0.008368374 0.0972941 1 0 1
-0.07067523 0.01050142 0.08903918 1 0 1
-0.06723288 0.0117174 0.08420367 1 0 1
-0.06471775 0.01247552 0.08107669 1 0 1
-0.06354962 0.01253504 0.0805341 1 0 1
-0.06282381 0.01236136 0.08085386 1 0 1
-0.06209661 0.01218922 0.08117113 1 0 1
-0.06093821 0.01225682 0.080615 1 0 1
-0.05978539 0.01232762 0.08005338 1 0 1
-0.05906114 0.01216193 0.08036021 1 0 1
-0.05749669 0.01247879 0.07891386 1 0 1
-0.0567768 0.01231784 0.07921282 1 0 1
-0.05564317 0.01240049 0.07863106 1 0 1
-0.05533315 0.01200064 0.07980335 1 0 1
-0.05460945 0.01184442 0.08009489 1 0 1
-0.05388448 0.01168976 0.08038398 1 0 1
-0.05355663 0.01129162 0.08155447 1 0 1
-0.05322051 0.01089362 0.08272522 1 0 1
-0.05287607 0.01049574 0.08389622 1 0 1
-0.0517478 0.0105925 0.08329145 1 0 1
-0.05100964 0.01044436 0.08357079 1 0 1
-0.05027027 0.01029782 0.08384763 1 0 1
-0.0495297 0.01015287 0.08412191 1 0 1
-0.04841443 0.01025959 0.08350039 1 0 1
-0.04878496 0.009366356 0.08645208 1 0 1
-0.04876647 0.008722067 0.08851307 1 0 1
-0.04836973 0.008328823 0.08967946 1 0 1
-0.04796464 0.007935913 0.09084578 1 0 1
