ply
format ascii 1.0
comment Created by Open3D
element vertex 1293
property double x
property double y
property double z
property uchar red
property uchar green
property uchar blue
end_header
0.15531 -0.245671 -0.593 173 115 104
0.160143 -0.244429 -0.59 209 151 147
0.16296 -0.2436 -0.588 206 149 142
0.1677 -0.242357 -0.585 190 133 122
0.1764 -0.2436 -0.588 177 115 102
0.17752 -0.2436 -0.588 172 110 97
0.184867 -0.244429 -0.59 197 134 125
0.187919 -0.244014 -0.589 205 146 142
0.45582 -0.2059 -0.497 192 148 121
0.467185 -0.205486 -0.496 185 139 115
0.496886 -0.211286 -0.51 157 112 93
-0.0842381 -0.253876 -0.61 62 63 68
-0.081679 -0.25679 -0.617 60 59 65
-0.07866 -0.258454 -0.621 62 61 67
-0.0514048 -0.264281 -0.635 75 74 82
-0.0443562 -0.26553 -0.638 73 72 80
-0.03852 -0.267194 -0.642 72 71 77
0.1342 -0.253876 -0.61 200 140 139
0.136783 -0.252211 -0.606 177 114 107
0.161565 -0.244304 -0.587 205 146 142
0.1761 -0.244304 -0.587 174 112 97
0.180066 -0.245136 -0.589 159 96 81
0.194775 -0.243888 -0.586 197 138 130
0.197344 -0.244304 -0.587 189 130 122
0.206833 -0.247633 -0.595 162 104 93
0.210506 -0.249298 -0.599 158 100 89
0.212353 -0.25013 -0.601 153 95 84
0.221264 -0.255125 -0.613 133 82 81
0.450257 -0.212257 -0.51 188 145 128
0.449617 -0.210592 -0.506 188 145 126
0.44969 -0.210176 -0.505 187 144 125
0.44976 -0.20976 -0.504 188 145 126
0.458682 -0.20643 -0.496 190 146 121
0.476657 -0.207263 -0.498 176 126 103
0.48816 -0.20976 -0.504 158 116 94
0.500785 -0.21309 -0.512 155 114 96
-0.12139 -0.270508 -0.647 112 113 115
-0.0892657 -0.249603 -0.597 69 70 74
-0.0807648 -0.258801 -0.619 59 58 64
-0.0798429 -0.259637 -0.621 60 59 65
-0.0595886 -0.264236 -0.632 76 75 83
-0.0408381 -0.267581 -0.64 72 71 77
-0.039681 -0.267999 -0.641 73 72 78
-0.03852 -0.268417 -0.642 72 71 77
-0.0301933 -0.270508 -0.647 73 72 78
0.133256 -0.255456 -0.611 204 145 147
0.144571 -0.250857 -0.6 208 148 148
0.145471 -0.250439 -0.599 204 146 144
0.147651 -0.248349 -0.594 202 149 145
0.168526 -0.244168 -0.584 184 127 110
0.189194 -0.245004 -0.586 205 147 143
0.20026 -0.246258 -0.589 184 126 115
0.450952 -0.209048 -0.5 190 148 126
0.452943 -0.208211 -0.498 192 147 126
0.4653 -0.206957 -0.495 188 142 116
0.466243 -0.206957 -0.495 187 141 115
0.495905 -0.212392 -0.508 154 116 97
-0.09352 -0.24696 -0.588 89 90 94
-0.07106 -0.26334 -0.627 71 70 76
-0.0664943 -0.26418 -0.629 72 71 79
-0.0607924 -0.26544 -0.632 76 75 83
-0.0595886 -0.26544 -0.632 76 75 83
-0.0584771 -0.26586 -0.633 76 75 83
-0.0526143 -0.2667 -0.635 75 74 82
-0.0432086 -0.26838 -0.639 73 72 78
-0.0409019 -0.26922 -0.641 73 72 78
-0.0326076 -0.27132 -0.646 73 72 78
0.1338 -0.2646 -0.63 211 152 154
0.134696 -0.25494 -0.607 191 131 123
0.135405 -0.2541 -0.605 187 127 119
0.136557 -0.2541 -0.605 173 109 107
0.14652 -0.24948 -0.594 207 148 144
0.166016 -0.24486 -0.583 193 135 121
0.167413 -0.24528 -0.584 192 134 120
0.188549 -0.24528 -0.584 204 144 136
0.203535 -0.24864 -0.592 171 113 102
0.232569 -0.26502 -0.631 110 68 78
0.474411 -0.23016 -0.548 176 138 129
0.467647 -0.22638 -0.539 180 141 126
0.459643 -0.2079 -0.495 191 143 120
0.460586 -0.2079 -0.495 186 138 115
0.466242 -0.20748 -0.494 187 139 116
0.483333 -0.21 -0.5 159 118 96
-0.116719 -0.26791 -0.635 107 108 110
-0.104833 -0.251033 -0.595 106 107 111
-0.0997286 -0.246814 -0.585 106 105 110
-0.0943181 -0.247236 -0.586 97 98 100
-0.0854 -0.257362 -0.61 65 66 71
-0.0837571 -0.259471 -0.615 63 62 68
-0.0828543 -0.260315 -0.617 63 62 68
-0.0769086 -0.264112 -0.626 60 59 65
-0.0655038 -0.266222 -0.631 72 71 79
0.132738 -0.26369 -0.625 207 151 152
0.147154 -0.249768 -0.592 203 145 141
0.150029 -0.248924 -0.59 186 129 122
0.155974 -0.247658 -0.587 201 144 137
0.159627 -0.246392 -0.584 201 143 132
0.179149 -0.247236 -0.586 205 145 134
0.203535 -0.249768 -0.592 166 108 97
0.209365 -0.252721 -0.599 154 97 90
0.213413 -0.25483 -0.604 143 88 85
0.217857 -0.257362 -0.61 121 72 76
0.477874 -0.232891 -0.552 177 137 127
0.45436 -0.218547 -0.518 187 146 126
0.460586 -0.208843 -0.495 189 143 119
0.462478 -0.208421 -0.494 179 131 108
0.468124 -0.208421 -0.494 188 141 115
0.484286 -0.210952 -0.5 159 118 96
0.495894 -0.213906 -0.507 152 114 95
0.49882 -0.21475 -0.509 152 114 95
-0.104657 -0.251743 -0.594 102 103 107
-0.0678 -0.267 -0.63 69 68 74
-0.0644038 -0.267848 -0.632 72 71 79
-0.0526971 -0.269543 -0.636 76 75 83
-0.0467867 -0.27039 -0.638 74 73 81
-0.0421229 -0.271662 -0.641 72 71 77
-0.0361867 -0.272933 -0.644 73 72 78
-0.03024 -0.274629 -0.648 72 71 79
0.147781 -0.250048 -0.59 195 137 133
0.148652 -0.249624 -0.589 192 134 130
0.15288 -0.2492 -0.588 208 149 145
0.153738 -0.248776 -0.587 207 148 144
0.159353 -0.247081 -0.583 199 141 130
0.172975 -0.247505 -0.584 166 107 93
0.184894 -0.247081 -0.583 203 145 134
0.187903 -0.246657 -0.582 194 135 127
0.203879 -0.251319 -0.593 162 103 97
0.223069 -0.261914 -0.618 118 76 88
0.450784 -0.213176 -0.503 191 148 129
0.45298 -0.210633 -0.497 195 149 126
0.453958 -0.21021 -0.496 192 146 122
0.454903 -0.21021 -0.496 191 145 121
0.461537 -0.209362 -0.494 182 136 112
-0.0949457 -0.248191 -0.583 96 97 99
-0.0909267 -0.252449 -0.593 78 79 83
-0.0901 -0.2533 -0.595 82 83 87
-0.0894152 -0.254577 -0.598 80 81 85
-0.0831229 -0.263517 -0.619 64 63 68
-0.03024 -0.275863 -0.648 72 71 79
0.137027 -0.25628 -0.602 177 121 108
0.144014 -0.252449 -0.593 210 152 148
0.144899 -0.252023 -0.592 204 146 142
0.14578 -0.251597 -0.591 200 141 137
0.178231 -0.248191 -0.583 209 151 140
0.19012 -0.247766 -0.582 195 137 126
0.210064 -0.255854 -0.601 150 92 91
0.22379 -0.263943 -0.62 108 70 83
0.232467 -0.269903 -0.634 221 207 220
0.235517 -0.272031 -0.639 222 208 221
0.242537 -0.275863 -0.648 219 215 232
0.454468 -0.220094 -0.517 188 146 134
0.449888 -0.213709 -0.502 192 149 130
0.451001 -0.212431 -0.499 192 150 128
0.452943 -0.212006 -0.498 194 149 128
0.454903 -0.211154 -0.496 190 144 121
0.461542 -0.209877 -0.493 186 140 116
0.462481 -0.209877 -0.493 186 140 116
0.466237 -0.209877 -0.493 187 141 117
0.4949 -0.214986 -0.505 153 112 94
0.509611 -0.219669 -0.516 155 114 94
-0.0849286 -0.262986 -0.615 69 70 75
-0.0668114 -0.270255 -0.632 68 67 75
-0.0656076 -0.270255 -0.632 68 67 75
-0.0314257 -0.27667 -0.647 73 72 80
0.140437 -0.255289 -0.597 206 149 142
0.146409 -0.251868 -0.589 203 144 138
0.162127 -0.248447 -0.581 192 134 122
0.163233 -0.248447 -0.581 193 135 121
0.16434 -0.248447 -0.581 188 130 116
0.166553 -0.248447 -0.581 180 123 106
0.180143 -0.248874 -0.582 208 145 138
0.186152 -0.248019 -0.58 196 137 131
0.187257 -0.248019 -0.58 198 139 133
0.19411 -0.24973 -0.584 184 122 109
0.236623 -0.274531 -0.642 247 240 248
0.456114 -0.222362 -0.52 183 146 130
0.44976 -0.21552 -0.504 187 150 131
0.455871 -0.211671 -0.495 189 144 121
0.457757 -0.211671 -0.495 189 144 121
0.468103 -0.210389 -0.492 185 137 115
0.469993 -0.210816 -0.493 183 135 113
0.477557 -0.211671 -0.495 171 126 103
0.495862 -0.215948 -0.505 155 112 93
-0.0902514 -0.255996 -0.596 85 86 90
-0.0872924 -0.260721 -0.607 80 79 84
-0.08582 -0.263298 -0.613 74 75 80
-0.0832571 -0.266305 -0.62 65 64 69
-0.0772771 -0.27017 -0.629 57 56 61
-0.0314743 -0.278331 -0.648 73 72 80
0.1305 -0.26158 -0.609 204 147 140
0.1393 -0.256426 -0.597 202 145 138
0.14616 -0.25256 -0.588 212 153 145
0.153537 -0.249983 -0.582 198 140 136
0.175407 -0.249553 -0.581 205 145 137
0.178727 -0.249553 -0.581 207 144 137
0.191229 -0.249983 -0.582 189 127 114
0.210763 -0.259003 -0.603 141 89 91
0.23736 -0.276613 -0.644 255 250 255
0.47389 -0.23409 -0.545 177 141 127
0.462867 -0.227648 -0.53 180 143 125
0.449826 -0.21605 -0.503 191 149 133
0.449946 -0.215191 -0.501 191 149 133
0.456832 -0.212185 -0.494 190 145 124
0.458725 -0.211755 -0.493 192 145 125
0.463417 -0.211326 -0.492 189 142 122
0.467166 -0.211326 -0.492 190 142 122
0.475651 -0.212185 -0.494 173 127 103
-0.08582 -0.264466 -0.613 75 76 80
-0.0795467 -0.270937 -0.628 58 57 63
-0.0669171 -0.273094 -0.633 66 65 71
-0.0634 -0.273526 -0.634 72 71 77
-0.0598714 -0.273957 -0.635 73 72 78
-0.0539933 -0.27482 -0.637 75 74 82
-0.0397429 -0.276977 -0.642 74 73 81
0.130774 -0.270506 -0.627 208 152 153
0.130795 -0.261014 -0.605 195 138 129
0.133365 -0.259289 -0.601 194 137 128
0.146779 -0.252817 -0.586 203 144 136
0.15301 -0.250229 -0.58 198 141 134
0.183309 -0.249366 -0.578 206 145 142
0.192998 -0.251954 -0.584 177 115 102
0.195891 -0.252817 -0.586 168 106 93
0.19768 -0.25368 -0.588 166 106 95
0.208919 -0.259289 -0.601 143 94 97
0.450506 -0.218734 -0.507 185 146 129
0.44976 -0.21744 -0.504 189 148 130
0.453986 -0.213557 -0.495 189 146 127
0.46248 -0.212263 -0.492 190 143 123
0.464346 -0.211831 -0.491 189 142 122
0.466229 -0.212263 -0.492 189 142 122
0.4785 -0.213557 -0.495 171 125 102
-0.106501 -0.259133 -0.598 96 97 101
-0.101957 -0.2535 -0.585 94 98 101
-0.0888667 -0.260867 -0.602 86 87 91
-0.0883029 -0.2626 -0.606 82 83 87
-0.0816781 -0.271267 -0.626 61 60 65
-0.0774 -0.273 -0.63 56 55 60
-0.0587543 -0.2756 -0.636 72 71 77
-0.0528629 -0.276467 -0.638 75 74 82
-0.0409657 -0.2782 -0.642 74 73 81
-0.0350143 -0.2795 -0.645 72 71 77
0.129864 -0.267367 -0.617 201 148 142
0.131293 -0.260867 -0.602 189 126 117
0.136344 -0.259567 -0.599 197 144 138
0.177496 -0.250033 -0.577 204 141 132
0.213669 -0.263467 -0.608 124 82 86
0.221071 -0.268233 -0.619 102 77 80
0.453789 -0.222733 -0.514 182 144 135
0.449888 -0.217533 -0.502 190 149 131
0.461543 -0.2132 -0.492 191 146 125
0.47375 -0.213633 -0.493 176 130 107
0.495814 -0.217967 -0.503 155 112 95
-0.114513 -0.271153 -0.623 98 99 104
-0.0977714 -0.252438 -0.58 91 94 99
-0.0844381 -0.269848 -0.62 76 76 78
-0.0827381 -0.272024 -0.625 69 68 73
-0.0647095 -0.276376 -0.635 68 67 73
-0.0599657 -0.276811 -0.636 72 71 77
-0.0492943 -0.278117 -0.639 74 73 81
0.133365 -0.261578 -0.601 208 151 144
0.156614 -0.251132 -0.577 195 137 126
0.165693 -0.251568 -0.578 168 111 94
0.172001 -0.251132 -0.577 201 141 133
0.178286 -0.250697 -0.576 194 134 126
0.225482 -0.27333 -0.628 233 220 227
0.474057 -0.23677 -0.544 180 141 124
0.457984 -0.226759 -0.521 181 141 131
0.455452 -0.225018 -0.517 182 142 132
0.452998 -0.222842 -0.512 185 146 129
0.453986 -0.215443 -0.495 191 146 127
0.460605 -0.213702 -0.491 188 145 126
0.46154 -0.213702 -0.491 185 142 123
0.472789 -0.214137 -0.492 176 129 109
0.482301 -0.215878 -0.496 162 117 98
0.48902 -0.217184 -0.499 161 116 95
-0.119513 -0.27846 -0.637 97 100 105
-0.100326 -0.254417 -0.582 93 96 101
-0.0914352 -0.257477 -0.589 84 85 89
-0.0869876 -0.267969 -0.613 82 81 86
-0.0764419 -0.276274 -0.632 55 54 59
-0.06006 -0.27846 -0.637 71 70 76
-0.0517286 -0.279334 -0.639 74 73 81
-0.0505114 -0.279334 -0.639 74 73 81
0.146633 -0.25398 -0.581 205 146 138
0.149437 -0.253106 -0.579 203 144 136
0.15028 -0.252669 -0.578 204 145 137
0.158537 -0.251794 -0.576 191 133 121
0.168704 -0.252231 -0.577 211 149 138
0.174994 -0.251794 -0.576 193 133 123
0.449888 -0.219446 -0.502 190 148 132
0.450097 -0.217697 -0.498 191 148 132
0.456847 -0.215511 -0.493 189 146 129
0.477506 -0.215511 -0.493 170 125 104
-0.10782 -0.26299 -0.599 94 98 101
-0.0904029 -0.262111 -0.597 95 96 101
-0.0799267 -0.277039 -0.631 62 61 66
-0.0577238 -0.280112 -0.638 71 70 78
-0.0410295 -0.282308 -0.643 76 75 83
0.129643 -0.265624 -0.605 203 144 138
0.135661 -0.261672 -0.596 202 143 137
0.139677 -0.258599 -0.589 208 149 143
0.14056 -0.25816 -0.588 206 147 139
0.149179 -0.25377 -0.578 198 138 128
0.160731 -0.252891 -0.576 194 136 124
0.166506 -0.25333 -0.577 203 143 133
0.170606 -0.252891 -0.576 203 141 130
0.171703 -0.252891 -0.576 199 137 126
0.181577 -0.252891 -0.576 201 141 131
0.182674 -0.252891 -0.576 196 136 126
0.18409 -0.25333 -0.577 192 132 122
0.196226 -0.257721 -0.587 168 109 101
0.21286 -0.26738 -0.609 118 81 88
0.449946 -0.219963 -0.501 191 149 133
0.453043 -0.217329 -0.495 188 145 128
0.461533 -0.215133 -0.49 187 142 123
0.4634 -0.215133 -0.49 188 143 124
0.465267 -0.215133 -0.49 185 140 121
-0.101609 -0.257075 -0.583 97 98 102
-0.0914352 -0.259721 -0.589 89 92 97
-0.0898638 -0.265012 -0.601 94 95 100
-0.0877238 -0.268981 -0.61 86 87 92
-0.085481 -0.27295 -0.619 79 80 85
-0.0847105 -0.274272 -0.622 79 78 83
-0.0777686 -0.279123 -0.633 56 55 60
-0.0718533 -0.279564 -0.634 53 52 58
-0.0624867 -0.280887 -0.637 68 67 73
-0.0505905 -0.28221 -0.64 74 73 81
-0.0457857 -0.28265 -0.641 75 74 80
-0.0446343 -0.283091 -0.642 74 73 79
0.141829 -0.257516 -0.584 202 144 133
0.144171 -0.255752 -0.58 201 141 131
0.146977 -0.25487 -0.578 198 138 127
0.153613 -0.253107 -0.574 196 139 122
0.165929 -0.253548 -0.575 199 139 129
0.175786 -0.253548 -0.575 192 133 119
0.21942 -0.273831 -0.621 194 171 181
0.463131 -0.232823 -0.528 181 141 131
0.457214 -0.228854 -0.519 178 140 129
0.45403 -0.21739 -0.493 189 146 127
0.469 -0.216067 -0.49 175 130 109
0.501633 -0.222681 -0.505 153 111 89
-0.0947829 -0.257743 -0.582 81 82 87
-0.0878676 -0.270586 -0.611 88 89 94
-0.0848467 -0.2759 -0.623 80 79 84
-0.0778914 -0.280771 -0.634 56 55 60
-0.073061 -0.280771 -0.634 52 51 56
-0.0624867 -0.2821 -0.637 65 64 70
0.132477 -0.264386 -0.597 205 146 138
0.135206 -0.263057 -0.594 203 146 139
0.170013 -0.2542 -0.574 198 139 125
0.17876 -0.2542 -0.574 195 137 125
0.21942 -0.275014 -0.621 194 171 181
0.235131 -0.286971 -0.648 246 248 255
0.458095 -0.230286 -0.52 178 140 129
0.453087 -0.2263 -0.511 180 145 126
0.449888 -0.222314 -0.502 189 148 130
0.461523 -0.216557 -0.489 184 139 118
0.4662 -0.217 -0.49 185 140 119
0.467133 -0.217 -0.49 184 139 118
0.469 -0.217 -0.49 176 130 107
0.476537 -0.217886 -0.492 172 127 106
0.499647 -0.222757 -0.503 151 108 89
-0.100153 -0.258407 -0.581 97 100 105
-0.0968333 -0.258407 -0.581 96 101 105
-0.0823305 -0.280645 -0.631 71 71 71
-0.0672343 -0.282869 -0.636 52 51 57
-0.0625848 -0.283758 -0.638 63 62 68
-0.0602486 -0.284203 -0.639 67 66 72
-0.0590314 -0.284203 -0.639 70 69 75
0.142573 -0.257072 -0.578 200 140 130
0.148147 -0.255293 -0.574 191 131 120
0.150071 -0.254849 -0.573 194 136 125
0.157711 -0.254849 -0.573 201 141 130
0.188362 -0.257962 -0.58 171 112 106
0.189793 -0.258407 -0.581 171 112 106
0.20298 -0.265523 -0.597 134 90 91
0.45401 -0.219712 -0.494 189 147 125
0.458734 -0.218378 -0.491 191 146 125
0.460591 -0.217489 -0.489 188 143 122
0.470867 -0.217933 -0.49 174 128 105
0.474633 -0.218378 -0.491 175 128 108
-0.0939962 -0.260853 -0.584 69 68 73
-0.0835324 -0.281847 -0.631 76 76 76
-0.0602486 -0.28542 -0.639 68 67 73
0.130437 -0.287207 -0.643 191 138 130
0.130024 -0.283633 -0.635 203 150 142
0.12818 -0.27202 -0.609 205 148 139
0.133623 -0.264427 -0.592 204 145 137
0.141472 -0.258173 -0.578 196 136 126
0.150071 -0.25594 -0.573 196 136 125
0.163973 -0.255493 -0.572 199 140 126
0.167242 -0.255493 -0.572 192 134 122
0.168331 -0.255493 -0.572 188 130 118
0.178449 -0.25594 -0.573 193 135 124
0.181262 -0.256833 -0.575 183 125 113
0.182674 -0.25728 -0.576 176 118 107
0.196894 -0.263087 -0.589 159 101 99
0.452283 -0.227353 -0.509 180 144 128
0.451124 -0.221547 -0.496 193 150 131
0.455908 -0.220207 -0.493 187 145 123
0.4718 -0.218867 -0.49 175 127 104
0.475569 -0.219313 -0.491 176 128 105
0.487929 -0.2211 -0.495 164 116 94
-0.10472 -0.26376 -0.588 101 102 106
-0.0987057 -0.259723 -0.579 102 101 106
-0.0939962 -0.261966 -0.584 69 68 73
-0.08874 -0.27318 -0.609 94 93 98
-0.0731762 -0.284843 -0.635 50 49 54
-0.0696571 -0.285291 -0.636 51 50 56
-0.0684457 -0.285291 -0.636 54 53 59
-0.0554667 -0.287086 -0.64 71 70 78
0.128066 -0.270489 -0.603 202 143 135
0.131811 -0.266451 -0.594 199 142 133
0.135386 -0.262414 -0.585 202 142 131
0.162599 -0.256134 -0.571 200 141 127
0.169125 -0.256134 -0.571 182 123 109
0.170212 -0.256134 -0.571 185 126 112
0.179853 -0.25748 -0.574 186 128 116
0.186934 -0.259723 -0.579 167 109 98
0.467517 -0.239089 -0.533 176 136 126
0.453087 -0.22922 -0.511 178 142 126
0.45014 -0.22294 -0.497 189 148 130
0.453069 -0.221594 -0.494 189 148 126
0.454969 -0.221146 -0.493 191 148 129
0.463368 -0.218903 -0.488 184 137 117
0.478411 -0.220697 -0.492 178 128 103
0.485061 -0.221594 -0.494 170 122 99
0.49274 -0.22294 -0.497 160 113 95
-0.117074 -0.281097 -0.624 100 101 106
-0.08056 -0.286503 -0.636 65 66 68
-0.0793486 -0.286503 -0.636 59 60 64
-0.0708686 -0.286503 -0.636 46 47 52
0.136673 -0.261727 -0.581 201 141 133
0.137543 -0.261276 -0.58 205 145 137
0.156886 -0.256771 -0.57 206 147 133
0.16695 -0.257222 -0.571 188 126 113
0.173779 -0.257672 -0.572 191 131 120
0.179853 -0.258573 -0.574 181 123 112
0.182674 -0.259474 -0.576 176 118 107
0.188687 -0.261727 -0.581 167 109 108
0.195772 -0.26533 -0.589 151 95 94
0.45005 -0.224788 -0.499 190 149 131
0.452069 -0.223436 -0.496 193 151 129
0.45966 -0.220283 -0.489 191 146 123
0.464297 -0.219832 -0.488 183 137 113
0.466156 -0.219832 -0.488 180 132 109
0.480286 -0.221634 -0.492 177 126 105
0.48314 -0.222085 -0.493 172 121 100
0.486002 -0.222535 -0.494 169 119 96
0.486943 -0.222535 -0.494 168 118 95
-0.0958914 -0.263286 -0.582 94 93 99
-0.093361 -0.265548 -0.587 72 71 77
-0.0881552 -0.27731 -0.613 94 93 98
-0.0781371 -0.287714 -0.636 49 50 54
-0.0649133 -0.288167 -0.637 52 51 57
0.127338 -0.27369 -0.605 197 142 135
0.127641 -0.271881 -0.601 196 141 134
0.14268 -0.259667 -0.574 180 121 107
0.152543 -0.257857 -0.57 191 132 118
0.156886 -0.257857 -0.57 204 145 131
0.159862 -0.257405 -0.569 204 142 131
0.160946 -0.257405 -0.569 202 140 129
0.176266 -0.259214 -0.573 199 137 126
0.179853 -0.259667 -0.574 181 123 112
0.18441 -0.261476 -0.578 172 113 105
0.256951 -0.29269 -0.647 171 110 118
0.450784 -0.227548 -0.503 188 147 129
0.452069 -0.224381 -0.496 193 151 129
0.4521 -0.223929 -0.495 191 149 127
0.454983 -0.222571 -0.492 190 145 124
0.462438 -0.220762 -0.488 185 139 116
0.478374 -0.222119 -0.491 176 128 106
0.485018 -0.223024 -0.493 168 120 97
-0.121749 -0.288926 -0.636 96 101 107
-0.0912333 -0.2703 -0.595 109 108 114
-0.0855276 -0.285291 -0.628 87 88 90
-0.0848686 -0.287109 -0.632 83 84 86
-0.0672343 -0.288926 -0.636 45 44 50
0.12859 -0.285291 -0.628 198 146 135
0.141587 -0.26076 -0.574 191 129 116
0.143523 -0.260306 -0.573 180 118 105
0.152275 -0.258489 -0.569 197 135 122
0.160946 -0.258489 -0.569 206 144 133
0.16203 -0.258489 -0.569 199 137 126
0.174869 -0.259851 -0.572 192 132 121
0.259843 -0.293014 -0.645 145 94 103
0.451545 -0.229869 -0.506 183 148 126
0.45 -0.227143 -0.5 188 147 129
0.452069 -0.225326 -0.496 193 151 129
0.45965 -0.221691 -0.488 193 146 126
0.484034 -0.223509 -0.492 169 121 99
0.488825 -0.224417 -0.494 160 119 97
-0.108779 -0.272802 -0.598 108 111 118
-0.104542 -0.267784 -0.587 107 110 117
-0.0829829 -0.290137 -0.636 77 78 82
-0.07826 -0.290593 -0.637 53 54 58
0.126917 -0.275083 -0.603 196 144 133
0.131376 -0.267784 -0.587 197 143 133
0.147114 -0.260029 -0.57 192 130 119
0.149024 -0.259572 -0.569 197 135 122
0.156335 -0.259116 -0.568 205 143 130
0.165281 -0.259572 -0.569 179 117 104
0.170212 -0.260485 -0.571 183 120 111
0.189336 -0.265959 -0.583 166 108 106
0.208904 -0.278732 -0.611 181 166 187
0.454058 -0.22399 -0.491 190 145 126
0.45965 -0.222621 -0.488 192 147 126
0.460579 -0.222621 -0.488 191 146 125
0.497526 -0.227183 -0.498 157 116 96
0.504437 -0.229464 -0.503 150 109 89
-0.0881229 -0.284477 -0.621 96 95 101
-0.0840619 -0.29089 -0.635 84 85 89
0.165281 -0.260656 -0.569 179 117 104
0.184729 -0.265237 -0.579 163 104 96
0.250976 -0.29089 -0.635 156 105 104
0.456633 -0.235919 -0.515 181 143 130
0.465201 -0.223092 -0.487 185 140 117
0.470804 -0.22355 -0.488 180 130 107
0.481133 -0.224467 -0.49 171 123 100
-0.0977714 -0.2668 -0.58 110 110 118
-0.0951086 -0.26864 -0.584 78 77 85
-0.0890314 -0.28106 -0.611 102 101 109
-0.0731762 -0.2921 -0.635 60 61 66
-0.0707571 -0.2921 -0.635 52 52 60
-0.0695476 -0.2921 -0.635 50 51 56
-0.0672343 -0.29256 -0.636 50 49 55
0.127216 -0.27554 -0.599 190 138 125
0.128894 -0.27186 -0.591 200 146 134
0.137691 -0.26496 -0.576 192 134 122
0.1394 -0.26404 -0.574 192 134 122
0.148762 -0.26128 -0.568 197 137 126
0.149844 -0.26128 -0.568 198 138 127
0.156335 -0.26128 -0.568 200 138 127
0.167449 -0.26174 -0.569 180 118 107
0.199569 -0.27462 -0.597 127 79 79
0.20205 -0.27646 -0.601 116 80 94
0.451001 -0.22954 -0.499 190 149 131
0.4521 -0.2277 -0.495 194 151 134
0.453109 -0.22632 -0.492 186 143 124
0.457797 -0.22494 -0.489 190 148 126
0.46149 -0.22402 -0.487 189 144 123
0.467086 -0.22448 -0.488 187 137 112
0.481133 -0.2254 -0.49 172 125 99
0.487783 -0.22632 -0.492 169 122 102
0.500426 -0.22954 -0.499 156 115 95
-0.113843 -0.283148 -0.613 96 99 106
-0.0852714 -0.29331 -0.635 91 94 99
-0.0731762 -0.29331 -0.635 47 48 53
0.130258 -0.271138 -0.587 197 140 129
0.1485 -0.2619 -0.567 200 138 127
0.14958 -0.2619 -0.567 199 137 126
0.15282 -0.2619 -0.567 198 136 123
0.158499 -0.262362 -0.568 207 145 134
0.160663 -0.262362 -0.568 197 135 124
0.163909 -0.262362 -0.568 179 117 106
0.175958 -0.26421 -0.572 174 114 104
0.245817 -0.290076 -0.628 167 113 113
0.249406 -0.290076 -0.628 140 95 92
0.253001 -0.291462 -0.631 136 93 102
0.451124 -0.229105 -0.496 190 149 131
0.452069 -0.229105 -0.496 193 152 134
0.452128 -0.228181 -0.494 192 149 132
0.465201 -0.224948 -0.487 186 141 120
0.468945 -0.22541 -0.488 183 136 110
0.482067 -0.226333 -0.49 173 126 100
0.49842 -0.229567 -0.497 156 113 94
0.127203 -0.293591 -0.633 193 139 129
0.126791 -0.276894 -0.597 182 125 114
0.128458 -0.273184 -0.589 199 141 130
0.143605 -0.263908 -0.569 189 129 118
0.15066 -0.26298 -0.567 204 142 129
0.15282 -0.26298 -0.567 198 136 123
0.158499 -0.263444 -0.568 207 145 134
0.169616 -0.263908 -0.569 176 113 104
0.193857 -0.273648 -0.59 141 85 86
0.24544 -0.289417 -0.624 167 112 117
0.467031 -0.245355 -0.529 175 136 129
0.46018 -0.240717 -0.519 184 142 130
0.451087 -0.230513 -0.497 189 147 131
0.454067 -0.227267 -0.49 189 146 127
0.455 -0.227267 -0.49 188 145 126
0.455931 -0.226339 -0.488 191 148 129
0.463346 -0.225875 -0.487 184 137 117
0.470804 -0.226339 -0.488 179 132 106
0.500371 -0.230977 -0.498 156 114 92
-0.1206 -0.2934 -0.63 90 93 100
-0.116324 -0.288743 -0.62 88 91 98
-0.0990467 -0.27058 -0.581 95 95 103
-0.09464 -0.27384 -0.588 65 63 76
-0.0918467 -0.278963 -0.599 216 215 223
-0.0913114 -0.280826 -0.603 206 205 213
0.12824 -0.27384 -0.588 197 140 131
0.131366 -0.271046 -0.582 190 133 124
0.143605 -0.264991 -0.569 191 129 118
0.145516 -0.264526 -0.568 197 135 124
0.158499 -0.264526 -0.568 198 136 125
0.173171 -0.265457 -0.57 172 109 100
0.204068 -0.282689 -0.607 116 103 131
0.243719 -0.295729 -0.635 161 111 110
0.451854 -0.233323 -0.501 187 145 129
0.462418 -0.226803 -0.487 187 140 120
0.47731 -0.227269 -0.488 179 132 106
0.483933 -0.2282 -0.49 171 126 103
-0.100326 -0.272154 -0.582 88 91 98
-0.094801 -0.275428 -0.589 69 67 80
-0.092 -0.280571 -0.6 223 222 230
-0.0914629 -0.282442 -0.604 217 216 224
-0.0896143 -0.287586 -0.615 180 181 176
-0.08778 -0.293197 -0.627 155 156 151
-0.0693286 -0.296003 -0.633 38 37 43
0.130481 -0.272622 -0.583 188 131 120
0.132665 -0.270284 -0.578 186 128 117
0.1344 -0.269349 -0.576 194 134 124
0.137213 -0.268413 -0.574 186 126 116
0.168532 -0.266075 -0.569 172 108 99
0.194514 -0.27683 -0.592 131 84 90
0.241903 -0.288989 -0.618 181 127 127
0.261894 -0.299744 -0.641 167 148 168
0.48875 -0.259996 -0.556 167 134 127
0.478357 -0.253917 -0.543 167 134 127
0.451905 -0.23381 -0.5 190 149 131
0.488662 -0.229601 -0.491 164 122 98
0.490594 -0.230069 -0.492 162 120 96
0.49347 -0.230536 -0.493 159 117 95
0.125997 -0.294391 -0.627 193 136 127
0.131791 -0.271854 -0.579 188 130 119
0.13612 -0.269507 -0.574 187 127 117
0.16038 -0.26622 -0.567 183 119 110
0.16362 -0.26622 -0.567 174 110 101
0.250996 -0.293922 -0.626 135 89 91
0.264347 -0.302373 -0.644 139 133 159
0.467154 -0.247909 -0.528 171 139 128
0.453538 -0.23711 -0.505 187 145 129
0.451124 -0.232884 -0.496 190 149 129
0.476332 -0.228658 -0.487 180 133 105
0.47726 -0.228658 -0.487 180 133 105
0.505238 -0.234762 -0.5 154 116 97
-0.118452 -0.294643 -0.625 82 85 92
0.125595 -0.294643 -0.625 186 129 120
0.128022 -0.276729 -0.587 192 133 125
0.1593 -0.2673 -0.567 177 113 104
0.16499 -0.267771 -0.568 169 104 98
0.174563 -0.269186 -0.571 167 104 99
0.183626 -0.272957 -0.579 164 101 96
0.240337 -0.289457 -0.614 188 130 128
0.243862 -0.290871 -0.617 164 111 107
0.4527 -0.237129 -0.503 186 147 130
0.451994 -0.234771 -0.498 187 149 130
0.465171 -0.229114 -0.486 187 141 117
0.472622 -0.229586 -0.487 184 138 112
0.474477 -0.229586 -0.487 181 136 107
0.475405 -0.229586 -0.487 180 133 105
0.476332 -0.229586 -0.487 180 133 105
0.481958 -0.230057 -0.488 174 127 99
-0.10782 -0.283527 -0.599 79 79 87
-0.0987829 -0.277373 -0.586 78 78 86
-0.0931429 -0.284 -0.6 202 200 211
0.125351 -0.284473 -0.601 185 126 118
0.126429 -0.279267 -0.59 193 134 126
0.12712 -0.27832 -0.588 194 135 127
0.133071 -0.272167 -0.575 190 130 120
0.169616 -0.269327 -0.569 177 112 106
0.175958 -0.270747 -0.572 161 96 92
0.478509 -0.256547 -0.542 165 137 126
0.453123 -0.232407 -0.491 191 150 128
0.462394 -0.23004 -0.486 190 146 121
0.479115 -0.230513 -0.487 178 131 101
-0.108 -0.285143 -0.6 75 75 83
-0.098 -0.27944 -0.588 74 74 82
0.125023 -0.282291 -0.594 187 130 123
0.125517 -0.280866 -0.591 188 131 124
0.127586 -0.278014 -0.585 189 130 122
0.131336 -0.274212 -0.577 192 133 125
0.141189 -0.269935 -0.568 186 126 116
0.14526 -0.26946 -0.567 190 130 120
0.168236 -0.269935 -0.568 174 109 103
0.45698 -0.242847 -0.511 184 142 126
0.451994 -0.236669 -0.498 189 148 130
0.471651 -0.230966 -0.486 183 137 111
0.47355 -0.231441 -0.487 183 138 109
0.476332 -0.231441 -0.487 181 134 106
0.498234 -0.234768 -0.494 160 120 95
-0.117074 -0.297737 -0.624 76 79 84
-0.10024 -0.28056 -0.588 76 77 82
-0.0891619 -0.295829 -0.62 221 223 222
0.124791 -0.302031 -0.633 183 128 121
0.1431 -0.27054 -0.567 189 131 120
0.180793 -0.275311 -0.577 156 95 92
0.239169 -0.304894 -0.639 172 111 116
0.237752 -0.301554 -0.632 180 115 119
0.25742 -0.302031 -0.633 137 114 120
0.451157 -0.236186 -0.495 190 147 128
0.45407 -0.232369 -0.487 190 148 124
0.455914 -0.231891 -0.486 190 148 124
0.461443 -0.231414 -0.485 190 146 121
0.479115 -0.232369 -0.487 176 131 102
-0.100581 -0.282638 -0.59 75 76 81
-0.0994571 -0.282638 -0.59 73 73 81
-0.0864476 -0.299884 -0.626 163 163 163
0.15498 -0.27162 -0.567 169 106 99
0.167154 -0.272099 -0.568 180 117 112
0.168236 -0.272099 -0.568 175 112 107
0.176266 -0.274494 -0.573 154 93 88
0.235285 -0.290782 -0.607 199 139 139
0.479541 -0.259644 -0.542 168 139 131
0.457874 -0.245272 -0.512 183 141 125
0.455914 -0.232817 -0.486 191 149 127
0.459595 -0.232338 -0.485 189 144 121
0.475354 -0.232817 -0.486 179 133 107
0.488465 -0.233775 -0.488 166 124 99
0.490397 -0.234254 -0.489 166 124 99
-0.103874 -0.286648 -0.596 75 76 81
0.124149 -0.294343 -0.612 187 133 123
0.124309 -0.286648 -0.596 189 132 123
0.139025 -0.273181 -0.568 186 127 119
0.160663 -0.273181 -0.568 172 109 104
0.174869 -0.275105 -0.572 152 91 88
0.18984 -0.2828 -0.588 146 88 86
0.193387 -0.284724 -0.592 136 85 81
0.234041 -0.29771 -0.619 189 127 128
0.245414 -0.295786 -0.615 146 97 93
0.250577 -0.299152 -0.622 130 92 91
0.253381 -0.301076 -0.626 130 92 91
0.452171 -0.236629 -0.492 191 150 130
0.469757 -0.233262 -0.485 182 138 113
0.474376 -0.233262 -0.485 178 134 109
0.501057 -0.23759 -0.494 157 115 93
-0.0999629 -0.286334 -0.593 77 78 83
-0.0978686 -0.286817 -0.594 71 72 77
-0.0951105 -0.288749 -0.598 71 72 77
-0.0904905 -0.295991 -0.613 228 227 232
0.16499 -0.274263 -0.568 182 117 111
0.169318 -0.274263 -0.568 153 92 87
0.238753 -0.293094 -0.607 177 117 106
0.4554 -0.244326 -0.506 180 143 127
0.452209 -0.236117 -0.489 190 149 127
0.470681 -0.234186 -0.485 180 135 112
0.471605 -0.234186 -0.485 183 139 114
0.488465 -0.235634 -0.488 166 124 100
-0.113962 -0.300552 -0.62 79 83 86
-0.106595 -0.293281 -0.605 77 78 83
-0.0887305 -0.299098 -0.617 205 206 208
0.125092 -0.285525 -0.589 187 130 123
0.126255 -0.283101 -0.584 188 131 122
0.12782 -0.281647 -0.581 193 134 126
0.130881 -0.278738 -0.575 194 137 128
0.132609 -0.277769 -0.573 188 129 121
0.133467 -0.277284 -0.572 185 126 118
0.153629 -0.274375 -0.566 162 99 92
0.177667 -0.278253 -0.574 148 89 85
0.186005 -0.282616 -0.583 148 93 90
0.19161 -0.28601 -0.59 137 89 87
0.242654 -0.29619 -0.611 157 99 88
0.244616 -0.297159 -0.613 145 91 89
0.255387 -0.30443 -0.628 119 94 98
0.263924 -0.310248 -0.64 223 213 222
0.479687 -0.262256 -0.541 170 137 128
0.461451 -0.250137 -0.516 177 139 126
0.453143 -0.236564 -0.488 189 148 126
0.45407 -0.236079 -0.487 191 149 127
0.454976 -0.23511 -0.485 189 148 126
0.457748 -0.23511 -0.485 191 149 125
0.475242 -0.234625 -0.484 180 136 111
-0.0903429 -0.29784 -0.612 227 228 230
0.123337 -0.295893 -0.608 188 133 126
0.143926 -0.275453 -0.566 193 134 126
0.145004 -0.275453 -0.566 190 131 123
0.14716 -0.275453 -0.566 188 129 121
0.148238 -0.275453 -0.566 189 124 118
0.179383 -0.28032 -0.576 147 92 89
0.232431 -0.30222 -0.621 189 128 123
0.236814 -0.294433 -0.605 177 117 109
0.244616 -0.298327 -0.613 144 90 90
0.249369 -0.301247 -0.619 131 89 93
0.45456 -0.24528 -0.504 179 143 127
0.452902 -0.242847 -0.499 185 146 129
0.454052 -0.236033 -0.485 191 149 127
0.484611 -0.23652 -0.486 172 126 102
0.123173 -0.291189 -0.596 185 130 123
0.130426 -0.279951 -0.573 197 140 133
0.151472 -0.276531 -0.566 172 109 102
0.15714 -0.27702 -0.567 181 118 111
0.171 -0.278486 -0.57 147 92 87
0.182523 -0.282883 -0.579 146 93 89
0.18426 -0.28386 -0.581 149 94 91
0.231309 -0.301937 -0.618 186 127 123
0.2299 -0.295586 -0.605 193 132 129
0.254573 -0.305846 -0.626 115 89 92
0.458927 -0.24966 -0.511 175 142 127
0.4572 -0.248194 -0.508 175 142 127
0.455462 -0.246729 -0.505 177 141 127
0.453763 -0.244774 -0.501 182 145 127
0.454063 -0.237446 -0.486 190 148 126
0.4623 -0.23598 -0.483 190 145 124
0.478008 -0.236469 -0.484 177 133 108
0.487389 -0.237446 -0.486 171 126 103
-0.0968933 -0.295267 -0.602 84 84 92
-0.0884429 -0.301643 -0.615 84 85 87
0.124668 -0.28791 -0.587 190 133 126
0.156863 -0.27761 -0.566 181 121 113
0.161175 -0.27761 -0.566 172 112 102
0.16686 -0.2781 -0.567 155 100 95
0.189517 -0.28791 -0.587 138 80 78
0.202088 -0.29821 -0.608 116 109 142
0.229852 -0.299681 -0.611 188 131 124
0.236423 -0.296248 -0.604 179 116 109
0.48944 -0.270743 -0.552 171 138 129
0.458927 -0.250633 -0.511 178 142 128
0.4572 -0.249162 -0.508 177 141 127
0.453763 -0.245729 -0.501 182 145 129
0.452213 -0.239352 -0.488 188 145 126
0.454063 -0.238371 -0.486 189 147 125
0.4559 -0.237881 -0.485 189 147 125
0.462335 -0.23739 -0.484 189 144 121
0.46782 -0.2369 -0.483 190 145 124
0.47334 -0.2369 -0.483 185 138 118
0.47518 -0.2369 -0.483 183 136 116
0.4761 -0.2369 -0.483 179 132 112
0.47702 -0.2369 -0.483 177 133 108
-0.0983657 -0.297398 -0.604 92 93 97
-0.0874133 -0.303307 -0.616 69 69 71
-0.08638 -0.303799 -0.617 59 59 61
0.122812 -0.303799 -0.617 187 136 132
0.147976 -0.278195 -0.565 177 118 110
0.15255 -0.278688 -0.566 174 114 104
0.157941 -0.278688 -0.566 175 116 108
0.189517 -0.289028 -0.587 142 87 84
0.228724 -0.299368 -0.608 189 130 124
0.481606 -0.26687 -0.542 169 139 131
0.454616 -0.247668 -0.503 181 143 130
0.453763 -0.246683 -0.501 182 145 129
0.4522 -0.241267 -0.49 192 150 128
0.457726 -0.238312 -0.484 192 150 128
0.46138 -0.23782 -0.483 189 144 121
-0.0988543 -0.300031 -0.607 95 96 100
0.128467 -0.28372 -0.574 196 139 132
0.141519 -0.279271 -0.565 190 130 122
0.157941 -0.279766 -0.566 171 112 104
0.16578 -0.28026 -0.567 153 94 86
0.168236 -0.280754 -0.568 145 90 85
0.174869 -0.282731 -0.572 139 86 82
0.195829 -0.294594 -0.596 118 87 93
0.232569 -0.311894 -0.631 179 117 120
0.243818 -0.302009 -0.611 137 81 82
0.259831 -0.312883 -0.633 192 182 193
0.453143 -0.241211 -0.488 188 147 127
0.468688 -0.238246 -0.482 190 144 118
0.469606 -0.238246 -0.482 188 142 116
0.47886 -0.23874 -0.483 177 131 107
0.500733 -0.2422 -0.49 165 122 105
-0.106187 -0.305653 -0.616 98 99 104
-0.0958571 -0.302676 -0.61 95 96 101
-0.0936867 -0.303172 -0.611 91 92 96
0.154433 -0.280348 -0.565 174 115 107
0.162253 -0.280844 -0.566 164 104 94
0.16578 -0.28134 -0.567 156 96 88
0.185686 -0.288783 -0.582 137 86 83
0.1955 -0.295233 -0.595 128 96 101
0.198286 -0.297714 -0.6 126 94 99
0.241463 -0.301684 -0.608 137 80 73
0.453133 -0.243133 -0.49 191 148 129
0.453142 -0.241645 -0.487 187 146 126
0.454063 -0.241149 -0.486 192 149 130
0.46414 -0.23966 -0.483 190 146 121
0.470524 -0.239164 -0.482 187 141 115
0.471442 -0.239164 -0.482 186 140 114
0.474196 -0.239164 -0.482 183 137 111
0.48254 -0.23966 -0.483 176 130 106
0.487227 -0.240156 -0.484 174 128 105
0.49869 -0.242141 -0.488 160 119 101
0.504651 -0.244126 -0.492 153 112 92
-0.0973371 -0.304834 -0.612 101 102 106
-0.0951609 -0.305332 -0.613 99 100 104
-0.0904905 -0.305332 -0.613 82 83 87
-0.0884429 -0.306329 -0.615 70 71 76
-0.0874133 -0.306827 -0.616 68 69 74
0.123129 -0.291386 -0.585 192 137 132
0.12672 -0.286903 -0.576 190 133 126
0.128243 -0.285409 -0.573 198 141 134
0.134697 -0.282918 -0.568 187 128 122
0.19096 -0.29288 -0.588 144 92 94
0.563263 -0.317785 -0.638 164 134 124
0.45298 -0.247553 -0.497 182 143 126
0.457726 -0.241078 -0.484 194 150 125
0.45954 -0.24058 -0.483 194 150 125
0.465015 -0.240082 -0.482 192 147 118
0.476032 -0.240082 -0.482 187 140 114
0.5026 -0.244067 -0.49 154 117 101
-0.0989857 -0.3075 -0.615 104 105 107
-0.0978143 -0.3075 -0.615 104 105 107
-0.0885867 -0.308 -0.616 78 79 83
-0.0875552 -0.3085 -0.617 74 75 80
0.120822 -0.3035 -0.607 191 132 128
0.123606 -0.291 -0.582 192 135 128
0.13662 -0.2835 -0.567 191 132 124
0.16578 -0.2835 -0.567 153 93 82
0.177667 -0.287 -0.574 134 85 81
0.231259 -0.317 -0.634 180 124 125
0.228146 -0.3095 -0.619 194 137 130
0.226857 -0.3 -0.6 194 129 127
0.228 -0.3 -0.6 186 122 122
0.239514 -0.303 -0.606 151 90 89
0.241463 -0.304 -0.608 150 89 88
0.254167 -0.3125 -0.625 107 86 105
0.452188 -0.2455 -0.491 191 146 125
0.45314 -0.2445 -0.489 191 149 127
0.46046 -0.2415 -0.483 196 150 124
0.468688 -0.241 -0.482 189 144 115
0.503533 -0.245 -0.49 158 119 102
0.134697 -0.285082 -0.568 191 134 125
0.1377 -0.28458 -0.567 188 129 121
0.144748 -0.283576 -0.565 179 119 109
0.150937 -0.283074 -0.564 178 118 108
0.160097 -0.284078 -0.566 164 104 93
0.182208 -0.290101 -0.578 135 85 84
0.228146 -0.310679 -0.619 194 137 130
0.226035 -0.304656 -0.607 199 140 134
0.229902 -0.300641 -0.599 170 114 113
0.232571 -0.301143 -0.6 171 111 100
0.45298 -0.249447 -0.497 186 144 128
0.452188 -0.246435 -0.491 190 145 122
0.4522 -0.245933 -0.49 192 147 124
0.45678 -0.24242 -0.483 193 149 122
0.4577 -0.24242 -0.483 193 149 120
0.45954 -0.24242 -0.483 194 150 121
0.462261 -0.241918 -0.482 193 148 119
-0.0984505 -0.311858 -0.619 113 114 116
-0.0890181 -0.311858 -0.619 95 95 97
-0.0878391 -0.311858 -0.619 92 92 94
0.120257 -0.307324 -0.61 190 129 126
0.120026 -0.303797 -0.603 193 132 129
0.120497 -0.299263 -0.594 195 138 131
0.141519 -0.284652 -0.565 180 120 110
0.1469 -0.284652 -0.565 173 113 103
0.208267 -0.310347 -0.616 93 73 85
0.452943 -0.250897 -0.498 183 144 127
0.453043 -0.249386 -0.495 186 145 127
0.452188 -0.24737 -0.491 189 144 121
0.4522 -0.246867 -0.49 192 147 124
0.47138 -0.242332 -0.481 189 142 112
0.498497 -0.244851 -0.486 165 119 103
0.685991 -0.325461 -0.646 215 215 215
0.119666 -0.306969 -0.607 194 135 131
0.121313 -0.296854 -0.587 194 136 132
0.12693 -0.289269 -0.572 189 132 125
0.131683 -0.287751 -0.569 188 131 122
0.138535 -0.286234 -0.566 183 124 116
0.144748 -0.285729 -0.565 176 116 108
0.174869 -0.289269 -0.572 137 86 82
0.188549 -0.295337 -0.584 148 98 97
0.19031 -0.296349 -0.586 146 98 94
0.224509 -0.306463 -0.606 201 143 132
0.225338 -0.302923 -0.599 199 136 129
0.244217 -0.309497 -0.612 125 84 80
0.484563 -0.274603 -0.543 165 135 133
0.459971 -0.257914 -0.51 173 139 130
0.45309 -0.249317 -0.493 188 145 126
0.45862 -0.24426 -0.483 192 148 121
0.45954 -0.24426 -0.483 192 148 121
0.462261 -0.243754 -0.482 192 148 121
0.468631 -0.243249 -0.481 191 146 117
0.469486 -0.242743 -0.48 190 143 115
0.472229 -0.242743 -0.48 187 140 112
0.482374 -0.243249 -0.481 180 132 109
0.487968 -0.243754 -0.482 176 128 105
0.11903 -0.303556 -0.598 191 132 128
0.119889 -0.300003 -0.591 196 138 134
0.124526 -0.292389 -0.576 194 137 130
0.13338 -0.28782 -0.567 189 130 122
0.150937 -0.286297 -0.564 178 119 111
0.152011 -0.286297 -0.564 180 121 113
0.15416 -0.286297 -0.564 177 118 110
0.16441 -0.287312 -0.566 160 102 91
0.2255 -0.312186 -0.615 195 136 132
0.223429 -0.304571 -0.6 199 140 132
0.236031 -0.306094 -0.603 141 85 86
0.453069 -0.250764 -0.494 188 145 126
0.454063 -0.246703 -0.486 194 149 128
0.474057 -0.243657 -0.48 184 139 110
0.485123 -0.244165 -0.481 179 133 107
0.119069 -0.316924 -0.622 190 141 134
0.118707 -0.312848 -0.614 187 134 126
0.120195 -0.29909 -0.587 191 133 129
0.128431 -0.289919 -0.569 190 131 125
0.135301 -0.28839 -0.566 184 125 117
0.138535 -0.28839 -0.566 179 120 112
0.147976 -0.287881 -0.565 178 119 111
0.155234 -0.287371 -0.564 171 112 104
0.156309 -0.287371 -0.564 172 113 105
0.17876 -0.292467 -0.574 144 93 90
0.232959 -0.306224 -0.601 163 103 95
0.242257 -0.31081 -0.61 122 78 79
0.249771 -0.315905 -0.62 101 81 93
0.461775 -0.260876 -0.512 173 139 129
0.45494 -0.2461 -0.483 189 144 121
0.474057 -0.244571 -0.48 185 139 113
0.11999 -0.299697 -0.586 191 134 127
0.12431 -0.294071 -0.575 192 133 127
0.124969 -0.293049 -0.573 193 134 128
0.13122 -0.28998 -0.567 186 128 117
0.158457 -0.288446 -0.564 173 115 104
0.171784 -0.291003 -0.569 138 89 84
0.187903 -0.297651 -0.582 143 92 89
0.242654 -0.312483 -0.611 122 78 79
0.453143 -0.249577 -0.488 191 148 129
0.468571 -0.245486 -0.48 191 143 121
0.4704 -0.245486 -0.48 188 140 118
0.11792 -0.316213 -0.616 193 139 137
0.155234 -0.28952 -0.564 172 112 102
0.156309 -0.28952 -0.564 172 114 103
0.16089 -0.290033 -0.565 165 107 95
0.161967 -0.290033 -0.565 159 101 89
0.224512 -0.319293 -0.622 180 124 123
0.22421 -0.305947 -0.596 185 124 123
0.229518 -0.306973 -0.598 169 105 96
0.453143 -0.250507 -0.488 189 146 127
0.454063 -0.24948 -0.486 192 147 128
0.45496 -0.248453 -0.484 190 148 126
0.461302 -0.246913 -0.481 192 146 123
0.476719 -0.245887 -0.479 183 135 113
0.49726 -0.24794 -0.483 166 125 103
0.152814 -0.290079 -0.563 175 115 105
0.156309 -0.290594 -0.564 169 111 100
0.16441 -0.291625 -0.566 163 105 93
0.172868 -0.29317 -0.569 144 94 87
0.182991 -0.297292 -0.577 138 87 83
0.479462 -0.275652 -0.535 169 134 128
0.454803 -0.257104 -0.499 181 141 129
0.453109 -0.253497 -0.492 189 146 129
0.454052 -0.24989 -0.485 190 148 126
0.45767 -0.248345 -0.482 188 143 120
0.460425 -0.248345 -0.482 186 140 117
0.465829 -0.247314 -0.48 191 145 121
0.469486 -0.247314 -0.48 188 142 118
0.470332 -0.246799 -0.479 187 141 115
0.482193 -0.246799 -0.479 180 134 110
0.116771 -0.315457 -0.61 189 138 134
0.144491 -0.291669 -0.564 187 127 116
0.155234 -0.291669 -0.564 169 109 98
0.16089 -0.292186 -0.565 169 111 100
0.165488 -0.292703 -0.566 162 104 93
0.181577 -0.297874 -0.576 140 89 85
0.20421 -0.312354 -0.604 120 72 72
0.214689 -0.321146 -0.621 88 68 93
0.220833 -0.323214 -0.625 145 102 109
0.220037 -0.308734 -0.597 197 136 131
0.228379 -0.309251 -0.598 163 100 93
0.231429 -0.310286 -0.6 149 92 85
0.4698 -0.269949 -0.522 171 137 128
0.453986 -0.255986 -0.495 182 140 124
0.45314 -0.252883 -0.489 188 145 126
0.45586 -0.24978 -0.483 190 145 122
0.455834 -0.249263 -0.482 190 145 122
0.46942 -0.247711 -0.479 187 141 115
0.484018 -0.247711 -0.479 181 135 111
0.485843 -0.247711 -0.479 176 130 106
0.498067 -0.249263 -0.482 165 124 106
0.116362 -0.309352 -0.596 191 141 132
0.116709 -0.307276 -0.592 191 139 128
0.139367 -0.293262 -0.565 178 118 107
0.150937 -0.292743 -0.564 179 119 108
0.15416 -0.292743 -0.564 170 110 100
0.161967 -0.293262 -0.565 164 105 97
0.163043 -0.293262 -0.565 163 104 96
0.169318 -0.294819 -0.568 145 92 84
0.186152 -0.301048 -0.58 139 88 84
0.1989 -0.308833 -0.595 131 81 80
0.223833 -0.308833 -0.595 179 110 103
0.225345 -0.309352 -0.596 175 106 99
0.24701 -0.32129 -0.619 109 91 103
0.252591 -0.325443 -0.627 107 107 133
0.472911 -0.247586 -0.477 186 140 114
0.478363 -0.247586 -0.477 184 138 112
0.490405 -0.248624 -0.479 172 125 105
0.1157 -0.324553 -0.623 193 145 135
0.115623 -0.314655 -0.604 189 139 130
0.116511 -0.307883 -0.591 192 140 127
0.12518 -0.296422 -0.569 193 136 125
0.133145 -0.294859 -0.566 188 131 120
0.134223 -0.294859 -0.566 188 131 120
0.13829 -0.294338 -0.565 184 126 114
0.142343 -0.293817 -0.564 184 124 113
0.14664 -0.293817 -0.564 185 125 114
0.149863 -0.293817 -0.564 185 125 115
0.153086 -0.293817 -0.564 171 111 101
0.172868 -0.296422 -0.569 143 90 84
0.189336 -0.303715 -0.583 141 90 86
0.198566 -0.309446 -0.594 131 80 77
0.216947 -0.319865 -0.614 164 112 116
0.217406 -0.318823 -0.612 173 121 125
0.221194 -0.309446 -0.594 187 120 111
0.228379 -0.31153 -0.598 155 91 82
0.2322 -0.313613 -0.602 137 78 70
0.23838 -0.31726 -0.609 121 80 78
0.326238 -0.338619 -0.65 174 178 207
0.338619 -0.338619 -0.65 176 190 219
0.45484 -0.259434 -0.498 179 142 124
0.453123 -0.255788 -0.491 185 147 128
0.45314 -0.254746 -0.489 185 144 124
0.453142 -0.253704 -0.487 186 145 123
0.454052 -0.252662 -0.485 190 148 124
0.46935 -0.249015 -0.478 187 141 115
0.482906 -0.248494 -0.477 180 134 110
0.490291 -0.249015 -0.478 172 126 110
0.498866 -0.250578 -0.481 162 123 106
0.130989 -0.295937 -0.566 188 130 119
0.138046 -0.294891 -0.564 186 128 117
0.145308 -0.294369 -0.563 188 128 117
0.166566 -0.295937 -0.566 152 99 91
0.177048 -0.299074 -0.572 147 96 92
0.196105 -0.308486 -0.59 134 85 81
0.222326 -0.310577 -0.594 177 109 100
0.460343 -0.250971 -0.48 190 144 120
0.466683 -0.250449 -0.479 190 144 118
0.478363 -0.249403 -0.477 185 139 115
0.490291 -0.249926 -0.478 170 127 110
0.120137 -0.302263 -0.576 192 135 126
0.121694 -0.300689 -0.573 191 134 125
0.142343 -0.295966 -0.564 184 125 117
0.153086 -0.295966 -0.564 174 114 106
0.163043 -0.29649 -0.565 166 108 97
0.178449 -0.300689 -0.573 145 95 88
0.179853 -0.301213 -0.574 144 93 89
0.189011 -0.305411 -0.582 141 92 88
0.314126 -0.340046 -0.648 250 248 255
0.339334 -0.34057 -0.649 184 196 234
0.34057 -0.34057 -0.649 195 207 245
0.347286 -0.341095 -0.65 187 196 229
0.486631 -0.284946 -0.543 167 137 127
0.46899 -0.272876 -0.52 172 140 127
0.454889 -0.25241 -0.481 191 149 124
0.459429 -0.251886 -0.48 191 147 120
0.461257 -0.251886 -0.48 190 146 121
0.479173 -0.249787 -0.476 186 140 114
0.493933 -0.250836 -0.478 160 123 107
0.113778 -0.326007 -0.619 188 131 124
0.115526 -0.308627 -0.586 191 137 127
0.117657 -0.305467 -0.58 192 135 128
0.119247 -0.303887 -0.577 195 138 131
0.136971 -0.29704 -0.564 184 126 115
0.140194 -0.29704 -0.564 184 126 115
0.149863 -0.29704 -0.564 181 121 113
0.158457 -0.29704 -0.564 167 109 98
0.187257 -0.305467 -0.58 142 89 85
0.190773 -0.307573 -0.584 141 88 84
0.20812 -0.317053 -0.602 147 93 91
0.212077 -0.31442 -0.597 190 131 125
0.220822 -0.312313 -0.593 176 112 103
0.326469 -0.34128 -0.648 215 214 230
0.46107 -0.267547 -0.508 174 141 126
0.457537 -0.264387 -0.502 177 141 125
0.453109 -0.25912 -0.492 182 144 123
0.453142 -0.256487 -0.487 184 147 121
0.454038 -0.254907 -0.484 191 149 124
0.463033 -0.252273 -0.479 191 147 120
0.463946 -0.252273 -0.479 193 149 120
0.471094 -0.25122 -0.477 189 143 117
0.472827 -0.250693 -0.476 180 134 108
0.476453 -0.250693 -0.476 191 145 119
0.47736 -0.250693 -0.476 188 142 116
0.481893 -0.250693 -0.476 183 139 110
0.486427 -0.250693 -0.476 172 129 112
0.684787 -0.336013 -0.638 217 213 212
0.113525 -0.316614 -0.599 192 144 130
0.122357 -0.301814 -0.571 186 127 119
0.123229 -0.301286 -0.57 185 127 116
0.142343 -0.298114 -0.564 180 120 110
0.148525 -0.297586 -0.563 183 125 114
0.159531 -0.298114 -0.564 171 108 101
0.17565 -0.301814 -0.571 145 92 86
0.220822 -0.313443 -0.593 172 109 102
0.22762 -0.316614 -0.599 134 83 80
0.229143 -0.317143 -0.6 134 83 80
0.337577 -0.342514 -0.648 202 208 242
0.344983 -0.342514 -0.648 179 195 228
0.360905 -0.343571 -0.65 193 198 220
0.362143 -0.343571 -0.65 192 198 224
0.378238 -0.343571 -0.65 226 229 246
0.565693 -0.337229 -0.638 164 136 135
0.477 -0.280143 -0.53 170 138 127
0.455805 -0.254243 -0.481 190 148 124
0.458471 -0.253186 -0.479 192 148 121
0.479071 -0.251071 -0.475 185 139 115
0.48631 -0.251071 -0.475 171 129 107
0.683851 -0.336171 -0.636 217 218 220
0.112914 -0.32253 -0.608 190 141 127
0.117454 -0.307146 -0.579 192 135 126
0.118352 -0.306615 -0.578 191 136 129
0.120603 -0.303963 -0.573 185 128 121
0.190447 -0.309268 -0.583 135 84 83
0.208397 -0.314572 -0.593 185 121 119
0.219322 -0.314042 -0.592 173 109 99
0.231821 -0.320408 -0.604 120 79 77
0.318078 -0.342688 -0.646 190 195 224
0.333359 -0.343218 -0.647 193 199 233
0.338289 -0.343218 -0.647 212 233 252
0.351154 -0.343749 -0.648 251 253 250
0.353623 -0.343749 -0.648 249 250 252
0.356641 -0.344279 -0.649 254 253 251
0.365294 -0.344279 -0.649 202 212 248
0.371475 -0.344279 -0.649 224 231 247
0.379476 -0.34481 -0.65 205 211 235
0.380714 -0.34481 -0.65 194 203 236
0.454916 -0.25569 -0.482 190 150 125
0.458471 -0.254098 -0.479 191 147 120
0.471013 -0.252507 -0.476 189 143 117
0.116552 -0.308781 -0.58 186 132 122
0.123878 -0.302392 -0.568 182 124 113
0.136729 -0.29973 -0.563 186 126 118
0.139946 -0.29973 -0.563 193 133 125
0.141018 -0.29973 -0.563 187 127 119
0.149597 -0.29973 -0.563 179 116 107
0.15067 -0.29973 -0.563 176 113 104
0.163043 -0.300795 -0.565 168 103 97
0.16902 -0.30186 -0.567 150 95 88
0.179853 -0.305587 -0.574 147 94 88
0.181262 -0.306119 -0.575 144 91 85
0.198016 -0.313572 -0.589 110 59 56
0.20959 -0.314105 -0.59 183 125 121
0.217826 -0.314637 -0.591 171 107 97
0.34938 -0.34445 -0.647 242 248 255
0.425286 -0.346048 -0.65 112 125 160
0.454929 -0.263529 -0.495 182 143 126
0.454857 -0.255543 -0.48 191 149 124
0.488897 -0.252349 -0.474 165 124 106
0.490833 -0.252881 -0.475 163 124 107
0.492643 -0.252881 -0.475 161 123 110
0.119511 -0.306146 -0.573 187 130 119
0.130526 -0.301337 -0.564 192 132 122
0.137801 -0.300803 -0.563 186 126 116
0.138873 -0.300803 -0.563 188 128 118
0.14638 -0.300803 -0.563 183 123 115
0.191886 -0.312023 -0.584 134 83 80
0.196226 -0.313626 -0.587 117 66 62
0.20587 -0.314694 -0.589 183 120 115
0.208113 -0.314694 -0.589 180 121 115
0.224586 -0.318969 -0.597 139 86 78
0.226479 -0.320037 -0.599 137 84 76
0.230289 -0.322174 -0.603 124 79 74
0.369669 -0.346217 -0.648 226 236 255
0.381952 -0.347286 -0.65 157 170 205
0.388782 -0.346751 -0.649 233 236 251
0.397435 -0.346751 -0.649 173 189 222
0.401762 -0.347286 -0.65 162 180 218
0.50097 -0.298666 -0.559 165 135 127
0.4824 -0.286377 -0.536 167 134 125
0.458471 -0.255923 -0.479 191 147 122
0.470024 -0.253786 -0.475 188 142 116
0.472646 -0.253251 -0.474 188 142 118
0.493548 -0.253786 -0.475 160 122 109
0.112369 -0.314744 -0.587 189 135 123
0.12452 -0.303484 -0.566 186 127 113
0.1316 -0.302411 -0.564 192 132 121
0.141018 -0.301875 -0.563 193 133 123
0.164119 -0.302948 -0.565 158 95 90
0.16794 -0.30402 -0.567 154 97 88
0.1704 -0.304556 -0.568 149 92 85
0.21224 -0.31528 -0.588 174 109 107
0.340929 -0.345843 -0.645 191 209 247
0.343386 -0.345843 -0.645 188 200 242
0.344614 -0.345843 -0.645 183 195 233
0.370903 -0.347451 -0.648 205 221 255
0.407325 -0.347988 -0.649 155 179 223
0.408561 -0.347988 -0.649 142 160 196
0.414742 -0.347988 -0.649 220 221 241
0.421571 -0.348524 -0.65 209 213 240
0.424048 -0.348524 -0.65 167 179 217
0.455 -0.348524 -0.65 203 207 232
0.464905 -0.348524 -0.65 140 172 221
0.462948 -0.272921 -0.509 172 139 124
0.459407 -0.269704 -0.503 177 141 125
0.454058 -0.26327 -0.491 186 145 125
0.460246 -0.256299 -0.478 193 149 124
0.469034 -0.254154 -0.474 190 144 118
0.474351 -0.253618 -0.473 193 147 123
0.480658 -0.253618 -0.473 184 138 114
0.486965 -0.253618 -0.473 169 127 111
0.49926 -0.255763 -0.477 154 118 106
0.111258 -0.31909 -0.593 188 135 127
0.119303 -0.30779 -0.572 189 130 122
0.143163 -0.302948 -0.563 184 124 113
0.182674 -0.309943 -0.576 137 81 80
0.195891 -0.315324 -0.586 106 55 52
0.202934 -0.315862 -0.587 175 110 108
0.238773 -0.331467 -0.616 110 83 90
0.337243 -0.347071 -0.645 197 216 248
0.338471 -0.347071 -0.645 186 205 237
0.371563 -0.348148 -0.647 160 177 223
0.389417 -0.348686 -0.648 234 236 249
0.399291 -0.348686 -0.648 146 166 203
0.413506 -0.349224 -0.649 223 225 250
0.458009 -0.349224 -0.649 165 170 189
0.459245 -0.349224 -0.649 115 142 187
