ply
format ascii 1.0
comment Created by Open3D
element vertex 1306
property double x
property double y
property double z
property uchar red
property uchar green
property uchar blue
end_header
0.447707 -0.327638 -0.412 26 24 29
0.448186 -0.326843 -0.411 24 22 27
0.448969 -0.326843 -0.411 27 25 30
0.464971 -0.327638 -0.412 32 30 35
0.470465 -0.327638 -0.412 28 23 29
0.475903 -0.329229 -0.414 30 28 33
0.032479 -0.405746 -0.509 205 160 131
0.0402352 -0.405746 -0.509 198 151 121
0.0460524 -0.405746 -0.509 200 153 123
0.0471143 -0.406543 -0.51 201 151 124
0.0538086 -0.405746 -0.509 195 145 120
0.0646 -0.406543 -0.51 196 149 121
0.0676467 -0.40734 -0.511 198 153 124
0.0845229 -0.413717 -0.519 172 123 106
0.118296 -0.444009 -0.557 95 86 89
0.15543 -0.444009 -0.557 89 119 169
0.157551 -0.444009 -0.557 97 132 190
0.184075 -0.444009 -0.557 230 236 252
0.223731 -0.444806 -0.558 108 143 183
0.228391 -0.445603 -0.559 97 135 198
0.374131 -0.447994 -0.562 222 226 238
0.375202 -0.447994 -0.562 220 227 237
0.401607 -0.448791 -0.563 221 224 229
0.452261 -0.451183 -0.566 177 189 205
0.489994 -0.451183 -0.566 28 76 140
0.49734 -0.45198 -0.567 49 85 145
0.428775 -0.365091 -0.458 33 23 31
0.427625 -0.361903 -0.454 32 25 32
0.427286 -0.358714 -0.45 27 22 26
0.42739 -0.353134 -0.443 27 20 27
0.427848 -0.350743 -0.44 29 22 29
0.427711 -0.349946 -0.439 27 20 27
0.429289 -0.345163 -0.433 24 17 24
0.4335 -0.338786 -0.425 30 25 31
0.433288 -0.337989 -0.424 24 19 25
0.433877 -0.337191 -0.423 27 22 28
0.439099 -0.333206 -0.418 26 19 26
0.438843 -0.332409 -0.417 28 21 28
0.44096 -0.331611 -0.416 30 25 31
0.446922 -0.328423 -0.412 31 26 32
0.457248 -0.326829 -0.41 27 22 28
0.458029 -0.326829 -0.41 33 28 34
0.478633 -0.330814 -0.415 27 27 29
0.052839 -0.406715 -0.509 197 147 120
0.120418 -0.44507 -0.557 119 116 123
0.12276 -0.445869 -0.558 135 135 145
0.13421 -0.44507 -0.557 126 129 146
0.140576 -0.44507 -0.557 198 201 208
0.141637 -0.44507 -0.557 207 207 215
0.154369 -0.44507 -0.557 104 134 184
0.161505 -0.44427 -0.556 86 117 171
0.169222 -0.44507 -0.557 77 112 176
0.183014 -0.44507 -0.557 227 230 245
0.193971 -0.445869 -0.558 204 210 226
0.196097 -0.445869 -0.558 182 188 204
0.196807 -0.44507 -0.557 167 173 189
0.197868 -0.44507 -0.557 174 180 196
0.198929 -0.44507 -0.557 197 203 219
0.270982 -0.446668 -0.559 226 229 244
0.424127 -0.449864 -0.563 65 100 166
0.428416 -0.449864 -0.563 73 110 178
0.440994 -0.450663 -0.564 197 199 198
0.470589 -0.452261 -0.566 194 198 197
0.472745 -0.452261 -0.566 187 195 197
0.483526 -0.452261 -0.566 57 97 169
0.425929 -0.355576 -0.445 29 22 29
0.42739 -0.353978 -0.443 28 21 28
0.42811 -0.348385 -0.436 25 18 25
0.431669 -0.341992 -0.428 30 23 30
0.435835 -0.336399 -0.421 32 25 32
0.4372 -0.3356 -0.42 28 21 28
0.439637 -0.333203 -0.417 29 22 29
0.447707 -0.329208 -0.412 30 25 31
0.456467 -0.32761 -0.41 38 36 41
0.0241733 -0.414893 -0.518 192 153 124
0.0276857 -0.408486 -0.51 199 156 124
0.0295705 -0.407685 -0.509 201 158 126
0.0440267 -0.406884 -0.508 200 153 123
0.0605952 -0.407685 -0.509 199 152 124
0.0675143 -0.408486 -0.51 198 151 123
0.0737743 -0.410889 -0.513 195 148 120
0.07912 -0.413291 -0.516 184 137 111
0.087 -0.418097 -0.522 175 127 107
0.0954 -0.424505 -0.53 151 107 94
0.1147 -0.444529 -0.555 97 81 84
0.165741 -0.44533 -0.556 79 113 174
0.187981 -0.44533 -0.556 236 240 252
0.18904 -0.44533 -0.556 237 241 253
0.239674 -0.446931 -0.558 105 141 191
0.247114 -0.446931 -0.558 235 241 255
0.258806 -0.446931 -0.558 197 205 216
0.376671 -0.449334 -0.561 201 201 201
0.403034 -0.450135 -0.562 216 216 214
0.407316 -0.450135 -0.562 221 219 222
0.413739 -0.450135 -0.562 86 125 182
0.436995 -0.450936 -0.563 211 215 224
0.503119 -0.452538 -0.565 127 127 127
0.42714 -0.35322 -0.441 29 22 29
0.427848 -0.352419 -0.44 28 21 28
0.43186 -0.343609 -0.429 28 21 28
0.434459 -0.338002 -0.422 28 21 28
0.446922 -0.329992 -0.412 26 21 27
0.451781 -0.32839 -0.41 31 26 32
0.4674 -0.32839 -0.41 26 21 28
0.03048 -0.407851 -0.508 200 155 126
0.0324152 -0.407851 -0.508 198 153 124
0.0362857 -0.407851 -0.508 201 154 124
0.0391886 -0.407851 -0.508 199 153 120
0.0488648 -0.407851 -0.508 201 154 124
0.0575733 -0.407851 -0.508 201 151 124
0.0604762 -0.407851 -0.508 198 151 123
0.0856762 -0.417486 -0.52 176 128 106
0.09558 -0.426317 -0.531 149 107 95
0.126556 -0.446389 -0.556 165 168 177
0.135029 -0.446389 -0.556 194 197 204
0.138206 -0.446389 -0.556 200 203 210
0.195394 -0.446389 -0.556 206 209 224
0.202808 -0.446389 -0.556 232 238 250
0.203867 -0.446389 -0.556 240 246 255
0.23394 -0.447191 -0.557 78 116 178
0.27156 -0.447994 -0.558 235 237 252
0.386289 -0.450403 -0.561 221 225 234
0.411598 -0.451206 -0.562 109 128 160
0.419091 -0.451206 -0.562 68 107 174
0.430867 -0.451206 -0.562 75 112 167
0.438068 -0.452009 -0.563 215 219 228
0.452811 -0.452811 -0.564 192 200 213
0.465198 -0.454417 -0.566 206 210 213
0.478367 -0.453614 -0.565 75 101 128
0.486976 -0.453614 -0.565 30 67 137
0.505451 -0.452811 -0.564 180 183 188
0.428837 -0.368511 -0.459 23 18 22
0.42676 -0.364497 -0.454 28 21 29
0.42811 -0.350046 -0.436 28 21 28
0.43059 -0.346031 -0.431 28 23 29
0.434683 -0.339609 -0.423 29 22 29
0.434459 -0.338806 -0.422 27 20 27
0.4356 -0.3372 -0.42 28 23 29
0.439637 -0.334791 -0.417 30 23 30
0.451781 -0.329171 -0.41 32 27 33
0.473604 -0.330777 -0.412 32 27 34
0.0488648 -0.408819 -0.508 198 151 121
0.0556381 -0.408819 -0.508 199 149 122
0.0624114 -0.408819 -0.508 198 151 121
0.0881629 -0.42089 -0.523 172 125 107
0.117025 -0.447448 -0.556 106 96 104
0.187643 -0.446643 -0.555 237 241 252
0.228225 -0.447448 -0.556 94 134 193
0.25622 -0.448252 -0.557 219 222 231
0.257281 -0.448252 -0.557 232 235 244
0.261525 -0.448252 -0.557 218 224 236
0.264708 -0.448252 -0.557 231 235 246
0.404454 -0.451471 -0.561 220 222 234
0.406591 -0.451471 -0.561 191 191 203
0.41514 -0.451471 -0.561 147 179 220
0.423373 -0.452276 -0.562 62 106 171
0.44343 -0.453081 -0.563 214 215 220
0.482671 -0.45469 -0.565 95 130 186
0.494709 -0.453886 -0.564 76 118 176
0.428837 -0.369386 -0.459 26 21 27
0.425387 -0.360533 -0.448 24 22 27
0.425929 -0.358119 -0.445 27 20 27
0.428941 -0.350876 -0.436 26 21 27
0.428627 -0.349267 -0.434 28 21 28
0.429289 -0.348462 -0.433 27 20 27
0.43186 -0.345243 -0.429 27 20 27
0.431881 -0.342024 -0.425 31 21 29
0.4348 -0.338 -0.42 28 23 29
0.438843 -0.335586 -0.417 23 17 21
0.444073 -0.332367 -0.413 25 20 26
0.445352 -0.331562 -0.412 27 22 28
0.446922 -0.331562 -0.412 21 16 22
0.448657 -0.329952 -0.41 28 23 29
0.454574 -0.329148 -0.409 28 23 30
0.460807 -0.329148 -0.409 29 24 31
0.461586 -0.329148 -0.409 24 19 26
0.0212952 -0.419467 -0.52 193 149 124
0.04394 -0.40898 -0.507 198 151 121
0.0478029 -0.40898 -0.507 201 154 124
0.0526314 -0.40898 -0.507 197 150 122
0.0614438 -0.409787 -0.508 198 151 121
0.09558 -0.42834 -0.531 143 105 94
0.113233 -0.446087 -0.553 71 67 81
0.114493 -0.446893 -0.554 65 61 75
0.125271 -0.4477 -0.555 170 164 168
0.137957 -0.4477 -0.555 208 208 216
0.1443 -0.4477 -0.555 211 217 231
0.1887 -0.4477 -0.555 238 242 251
0.2109 -0.4477 -0.555 233 240 255
0.228225 -0.448507 -0.556 120 157 212
0.229284 -0.448507 -0.556 150 187 242
0.235638 -0.448507 -0.556 183 212 254
0.243051 -0.448507 -0.556 176 187 215
0.394133 -0.451733 -0.56 223 227 238
0.441571 -0.453347 -0.562 211 214 223
0.502229 -0.45496 -0.564 170 173 180
0.428895 -0.371067 -0.46 29 26 35
0.426875 -0.354127 -0.439 27 21 25
0.429289 -0.349287 -0.433 17 15 20
0.430113 -0.349287 -0.433 25 23 28
0.431229 -0.346867 -0.43 26 21 27
0.44069 -0.334767 -0.415 29 24 30
0.445352 -0.332347 -0.412 26 21 27
0.44662 -0.33154 -0.411 31 26 32
0.463144 -0.329927 -0.409 26 21 28
0.0211724 -0.418031 -0.517 194 149 126
0.0219857 -0.414797 -0.513 197 152 129
0.0342152 -0.409137 -0.506 200 156 127
0.0352486 -0.409946 -0.507 201 157 128
0.0410429 -0.409946 -0.507 199 155 126
0.0419257 -0.409137 -0.506 202 157 128
0.0478029 -0.409946 -0.507 198 151 123
0.0593914 -0.409946 -0.507 197 152 121
0.0603571 -0.409946 -0.507 196 151 120
0.0846857 -0.420457 -0.52 170 125 106
0.124214 -0.448757 -0.555 171 165 169
0.127156 -0.447949 -0.554 184 180 181
0.137709 -0.447949 -0.554 207 209 221
0.171476 -0.447949 -0.554 210 221 241
0.182029 -0.447949 -0.554 227 234 250
0.183084 -0.447949 -0.554 235 242 255
0.252583 -0.449566 -0.556 215 216 221
0.26635 -0.449566 -0.556 234 240 254
0.26741 -0.449566 -0.556 234 240 252
0.367875 -0.451991 -0.559 168 184 209
0.374264 -0.451991 -0.559 211 218 237
0.400533 -0.4528 -0.56 224 230 242
0.4016 -0.4528 -0.56 221 227 239
0.403733 -0.4528 -0.56 217 222 241
0.406933 -0.4528 -0.56 157 163 187
0.418667 -0.4528 -0.56 115 161 213
0.433306 -0.453609 -0.561 150 166 191
0.441571 -0.454417 -0.562 214 216 228
0.45737 -0.455226 -0.563 211 211 219
0.471074 -0.456034 -0.564 170 173 182
0.476446 -0.456034 -0.564 89 112 146
0.489542 -0.455226 -0.563 67 111 176
0.427711 -0.354963 -0.439 27 22 28
0.42826 -0.353346 -0.437 24 22 27
0.429943 -0.349303 -0.432 25 20 26
0.43269 -0.343643 -0.425 30 23 30
0.4425 -0.33394 -0.413 29 22 29
0.462789 -0.329897 -0.408 24 19 26
0.0184648 -0.42469 -0.524 187 145 120
0.0193143 -0.421448 -0.52 188 146 121
0.03036 -0.410101 -0.506 199 154 125
0.0448171 -0.410101 -0.506 198 153 124
0.0516657 -0.410911 -0.507 197 150 120
0.0563829 -0.410101 -0.506 198 151 121
0.05746 -0.410911 -0.507 199 154 123
0.0593914 -0.410911 -0.507 198 153 122
0.0613229 -0.410911 -0.507 196 151 120
0.0643467 -0.411722 -0.508 201 154 126
0.111977 -0.447383 -0.552 94 78 81
0.122935 -0.449004 -0.554 166 161 167
0.131377 -0.449004 -0.554 192 191 187
0.137709 -0.449004 -0.554 206 208 221
0.147206 -0.449004 -0.554 161 174 208
0.15326 -0.448193 -0.553 218 229 249
0.15958 -0.448193 -0.553 135 163 202
0.163793 -0.448193 -0.553 126 161 199
0.16906 -0.448193 -0.553 179 202 234
0.174327 -0.448193 -0.553 231 238 255
0.180973 -0.449004 -0.554 200 220 247
0.183084 -0.449004 -0.554 227 238 255
0.18625 -0.449004 -0.554 241 244 251
0.194691 -0.449004 -0.554 239 243 255
0.206299 -0.449004 -0.554 236 244 255
0.211575 -0.449004 -0.554 200 210 235
0.229929 -0.449814 -0.555 160 198 245
0.236271 -0.449814 -0.555 206 221 244
0.237329 -0.449814 -0.555 218 233 255
0.2479 -0.449814 -0.555 232 239 255
0.325182 -0.451435 -0.557 231 234 243
0.3913 -0.453056 -0.559 232 227 234
0.401948 -0.453056 -0.559 220 227 245
0.4301 -0.454677 -0.561 197 210 229
0.452009 -0.456298 -0.563 211 214 223
0.471311 -0.456298 -0.563 167 171 183
0.477746 -0.456298 -0.563 181 197 220
0.482035 -0.456298 -0.563 142 175 218
0.425289 -0.362283 -0.447 26 27 32
0.424971 -0.359851 -0.444 26 25 33
0.429614 -0.352557 -0.435 27 22 28
0.43248 -0.343642 -0.424 26 21 27
0.434459 -0.342021 -0.422 24 19 25
0.434563 -0.33959 -0.419 26 21 27
0.443783 -0.333916 -0.412 31 25 29
0.458903 -0.330674 -0.408 24 19 26
0.0390343 -0.411065 -0.506 200 155 124
0.0409619 -0.411065 -0.506 201 156 125
0.0496362 -0.411065 -0.506 197 152 121
0.0825457 -0.421626 -0.519 173 128 107
0.0918486 -0.428125 -0.527 154 108 95
0.0971371 -0.433811 -0.534 121 98 90
0.116604 -0.450059 -0.554 87 86 104
0.118929 -0.450871 -0.555 131 132 150
0.122935 -0.450059 -0.554 168 163 170
0.155367 -0.449247 -0.553 208 215 241
0.198912 -0.450059 -0.554 242 243 248
0.218962 -0.450059 -0.554 233 243 255
0.266929 -0.450871 -0.555 234 238 249
0.2701 -0.450871 -0.555 234 240 252
0.370406 -0.453309 -0.558 131 145 171
0.398753 -0.454121 -0.559 227 227 237
0.429333 -0.454933 -0.56 202 211 228
0.4304 -0.454933 -0.56 210 219 236
0.435733 -0.454933 -0.56 129 143 170
0.459515 -0.45737 -0.563 206 209 218
0.473456 -0.45737 -0.563 116 130 156
0.475827 -0.456558 -0.562 167 184 210
0.48225 -0.456558 -0.562 112 142 180
0.486531 -0.456558 -0.562 75 114 171
0.500448 -0.456558 -0.562 107 130 161
0.498343 -0.438686 -0.54 33 33 41
0.424714 -0.365571 -0.45 23 26 33
0.425817 -0.360697 -0.444 22 22 30
0.426171 -0.357448 -0.44 22 22 30
0.426875 -0.356635 -0.439 21 20 28
0.43059 -0.350136 -0.431 22 20 25
0.4348 -0.3412 -0.42 26 21 27
0.434871 -0.338763 -0.417 24 19 25
0.440417 -0.336326 -0.414 29 22 29
0.441713 -0.335513 -0.413 29 22 29
0.4425 -0.335513 -0.413 30 23 30
0.443489 -0.333889 -0.411 28 21 28
0.444752 -0.333076 -0.41 26 19 26
0.446784 -0.332264 -0.409 29 24 31
0.451909 -0.331451 -0.408 27 22 29
0.453127 -0.330639 -0.407 26 21 28
0.463205 -0.330639 -0.407 29 24 31
0.0190914 -0.418543 -0.514 189 148 120
0.0437667 -0.411214 -0.505 198 155 123
0.045781 -0.412029 -0.506 197 153 124
0.0495381 -0.411214 -0.505 196 151 120
0.09594 -0.434014 -0.533 131 99 88
0.116604 -0.451114 -0.554 71 72 93
0.154313 -0.4503 -0.553 216 222 238
0.160343 -0.449486 -0.552 143 169 204
0.161394 -0.449486 -0.552 156 182 217
0.163497 -0.449486 -0.552 138 171 204
0.182753 -0.4503 -0.553 201 220 252
0.183807 -0.4503 -0.553 231 238 248
0.18486 -0.4503 -0.553 238 245 255
0.199607 -0.4503 -0.553 243 244 249
0.2133 -0.4503 -0.553 154 172 196
0.249564 -0.451114 -0.554 215 210 217
0.321421 -0.452743 -0.556 229 233 244
0.428267 -0.456 -0.56 175 201 234
0.44506 -0.456814 -0.561 213 216 223
0.449065 -0.457629 -0.562 213 215 227
0.46191 -0.457629 -0.562 204 207 216
0.487602 -0.457629 -0.562 84 123 178
0.489743 -0.457629 -0.562 85 127 175
0.501919 -0.443786 -0.545 43 43 53
0.42582 -0.368871 -0.453 27 27 35
0.425583 -0.359914 -0.442 23 23 31
0.4263 -0.3591 -0.441 23 23 31
0.427711 -0.357471 -0.439 25 24 32
0.432851 -0.343629 -0.422 25 20 27
0.435118 -0.340371 -0.418 31 26 33
0.43779 -0.338743 -0.416 28 23 30
0.437529 -0.337929 -0.415 26 21 28
0.438319 -0.337929 -0.415 26 19 27
0.442706 -0.334671 -0.411 28 21 28
0.445533 -0.333857 -0.41 26 19 26
0.451576 -0.331414 -0.407 29 24 31
0.452351 -0.331414 -0.407 29 24 31
0.467081 -0.331414 -0.407 29 24 31
0.478312 -0.335486 -0.412 36 31 38
0.02832 -0.41136 -0.504 195 153 128
0.0379952 -0.412176 -0.505 198 154 125
0.0389571 -0.412176 -0.505 198 154 125
0.0476143 -0.412176 -0.505 196 153 121
0.0524238 -0.412176 -0.505 199 154 125
0.0736305 -0.41789 -0.512 186 141 112
0.111977 -0.450537 -0.552 75 64 70
0.113233 -0.451353 -0.553 47 44 61
0.116604 -0.45217 -0.554 58 59 80
0.12482 -0.451353 -0.553 126 122 123
0.171909 -0.450537 -0.552 226 237 255
0.179269 -0.450537 -0.552 131 156 187
0.189783 -0.450537 -0.552 231 244 253
0.197143 -0.450537 -0.552 237 243 255
0.221727 -0.451353 -0.553 175 190 213
0.380351 -0.454618 -0.557 228 226 237
0.381412 -0.454618 -0.557 234 232 243
0.437867 -0.457067 -0.56 104 126 163
0.442133 -0.457067 -0.56 211 212 230
0.453609 -0.457883 -0.561 196 198 210
0.468333 -0.458699 -0.562 134 149 172
0.481391 -0.457883 -0.561 111 134 166
0.42582 -0.369734 -0.453 27 26 34
0.424233 -0.363205 -0.445 22 21 29
0.430226 -0.350146 -0.429 22 19 26
0.43066 -0.348513 -0.427 23 20 27
0.434871 -0.340351 -0.417 23 18 25
0.455452 -0.33219 -0.407 25 20 27
0.456228 -0.33219 -0.407 26 21 28
0.477151 -0.335454 -0.411 37 32 39
0.0136029 -0.432772 -0.529 191 149 125
0.0198362 -0.415592 -0.508 191 149 124
0.0264 -0.41232 -0.504 192 148 119
0.03216 -0.41232 -0.504 196 152 123
0.03312 -0.41232 -0.504 197 153 124
0.03888 -0.41232 -0.504 199 154 125
0.0504 -0.41232 -0.504 197 153 124
0.069321 -0.41641 -0.509 186 140 114
0.0920229 -0.431954 -0.528 142 98 87
0.0933809 -0.43359 -0.53 142 98 87
0.114287 -0.452407 -0.553 54 53 67
0.116393 -0.452407 -0.553 51 53 74
0.120607 -0.452407 -0.553 162 163 181
0.155854 -0.45077 -0.551 177 193 219
0.16425 -0.45077 -0.551 159 182 214
0.201349 -0.451589 -0.552 234 241 251
0.317671 -0.454043 -0.555 228 228 240
0.330357 -0.454043 -0.555 231 234 249
0.397327 -0.455679 -0.557 229 228 236
0.40051 -0.455679 -0.557 123 142 174
0.40157 -0.455679 -0.557 112 131 163
0.404753 -0.455679 -0.557 187 203 228
0.417171 -0.456497 -0.558 129 158 198
0.421423 -0.456497 -0.558 118 150 189
0.430989 -0.456497 -0.558 178 181 188
0.456814 -0.458951 -0.561 207 210 219
0.457883 -0.458951 -0.561 208 211 220
0.464294 -0.458951 -0.561 205 209 221
0.465363 -0.458951 -0.561 199 203 215
0.480323 -0.458951 -0.561 127 148 177
0.483529 -0.458951 -0.561 100 138 177
0.490133 -0.458133 -0.56 94 119 159
0.4912 -0.458133 -0.56 101 126 166
0.498667 -0.458133 -0.56 142 159 185
0.428786 -0.355871 -0.435 22 21 27
0.428297 -0.353417 -0.432 28 25 32
0.430038 -0.350145 -0.428 22 19 26
0.429847 -0.349327 -0.427 22 19 26
0.434 -0.3436 -0.42 23 20 27
0.433765 -0.342782 -0.419 22 19 26
0.446925 -0.332965 -0.407 27 22 29
0.459747 -0.332147 -0.406 25 20 27
0.0162171 -0.42312 -0.516 189 147 122
0.0253895 -0.41246 -0.503 193 149 122
0.040719 -0.41246 -0.503 196 151 122
0.0503 -0.41246 -0.503 200 155 124
0.0602381 -0.41492 -0.506 194 149 118
0.0702905 -0.41738 -0.509 188 144 117
0.0757286 -0.42066 -0.513 183 135 112
0.07912 -0.42312 -0.516 174 128 102
0.0836952 -0.4264 -0.52 163 121 96
0.0848486 -0.42722 -0.521 156 115 95
0.0933809 -0.4346 -0.53 139 98 92
0.120607 -0.45346 -0.553 159 162 181
0.178944 -0.45182 -0.551 189 205 230
0.179993 -0.45182 -0.551 160 176 201
0.183142 -0.45182 -0.551 204 211 227
0.192588 -0.45182 -0.551 220 227 237
0.228686 -0.45264 -0.552 162 189 218
0.262807 -0.45346 -0.553 225 231 247
0.271233 -0.45346 -0.553 194 203 220
0.383905 -0.45592 -0.556 223 225 237
0.415363 -0.45674 -0.557 121 151 189
0.423549 -0.45756 -0.558 123 152 186
0.428863 -0.45756 -0.558 173 188 207
0.430989 -0.45756 -0.558 213 217 226
0.458951 -0.46002 -0.561 204 207 216
0.4656 -0.4592 -0.56 127 143 169
0.474133 -0.4592 -0.56 180 181 186
0.479467 -0.4592 -0.56 130 150 177
0.480533 -0.4592 -0.56 110 130 157
0.482667 -0.4592 -0.56 99 135 171
0.424626 -0.36818 -0.449 24 23 31
0.424126 -0.36408 -0.444 22 22 30
0.42701 -0.3608 -0.44 24 23 31
0.427571 -0.35916 -0.438 24 23 29
0.428627 -0.35588 -0.434 23 22 28
0.429223 -0.35096 -0.428 22 21 27
0.4332 -0.3444 -0.42 20 17 24
0.433526 -0.34276 -0.418 25 22 29
0.434322 -0.34276 -0.418 24 21 28
0.478717 -0.33702 -0.411 34 31 38
0.0253895 -0.413418 -0.503 194 149 120
0.0263476 -0.413418 -0.503 196 150 124
0.0282076 -0.412596 -0.502 197 151 125
0.0512581 -0.413418 -0.503 200 155 126
0.0767057 -0.421637 -0.513 179 133 109
0.0908448 -0.433144 -0.527 141 102 87
0.114287 -0.454513 -0.553 99 97 108
0.120389 -0.453691 -0.552 152 157 179
0.130903 -0.453691 -0.552 169 176 192
0.131715 -0.45287 -0.551 189 196 222
0.13881 -0.452048 -0.55 197 203 217
0.158714 -0.452048 -0.55 161 184 216
0.174746 -0.45287 -0.551 236 240 251
0.20833 -0.45287 -0.551 176 190 217
0.320265 -0.455335 -0.554 215 220 239
0.331872 -0.455335 -0.554 216 223 242
0.370529 -0.456157 -0.555 199 207 226
0.406145 -0.456979 -0.556 225 225 237
0.429926 -0.458623 -0.558 214 223 232
0.430216 -0.457801 -0.557 216 225 234
0.438429 -0.458623 -0.558 99 113 148
0.440554 -0.458623 -0.558 169 179 206
0.453867 -0.460267 -0.56 148 150 163
0.458133 -0.460267 -0.56 202 204 216
0.4592 -0.460267 -0.56 201 203 215
0.4624 -0.460267 -0.56 203 205 218
0.463467 -0.460267 -0.56 202 204 219
0.467733 -0.460267 -0.56 105 122 150
0.4688 -0.460267 -0.56 139 156 184
0.493517 -0.459445 -0.559 177 179 200
0.497776 -0.459445 -0.559 184 186 201
0.498841 -0.459445 -0.559 181 183 198
0.500189 -0.445472 -0.542 37 37 45
0.445727 -0.395336 -0.481 31 29 42
0.424626 -0.369035 -0.449 25 24 32
0.424971 -0.364926 -0.444 23 22 30
0.429289 -0.355885 -0.433 20 19 25
0.428771 -0.353419 -0.43 21 20 26
0.434322 -0.343556 -0.418 23 21 26
0.437263 -0.340269 -0.414 26 21 28
0.453214 -0.332871 -0.405 27 24 31
0.455529 -0.332871 -0.405 27 22 29
0.0133714 -0.428381 -0.52 192 150 125
0.0329886 -0.413552 -0.502 198 153 124
0.0464676 -0.414376 -0.503 201 156 127
0.05712 -0.4152 -0.504 200 155 126
0.05808 -0.4152 -0.504 197 152 123
0.061081 -0.416024 -0.505 194 149 120
0.0620429 -0.416024 -0.505 195 150 121
0.069321 -0.419319 -0.509 188 144 117
0.07912 -0.425086 -0.516 172 128 103
0.0873333 -0.431676 -0.524 146 109 91
0.116183 -0.454743 -0.552 114 119 138
0.118286 -0.454743 -0.552 72 79 108
0.149286 -0.453095 -0.55 226 229 238
0.190143 -0.453095 -0.55 222 233 251
0.199571 -0.453095 -0.55 210 215 237
0.218826 -0.453919 -0.551 215 223 236
0.226172 -0.453919 -0.551 199 216 244
0.259177 -0.454743 -0.552 192 203 225
0.267589 -0.454743 -0.552 200 215 244
0.383214 -0.457214 -0.555 220 226 242
0.385329 -0.457214 -0.555 198 197 211
0.42279 -0.458862 -0.557 137 168 196
0.435521 -0.458862 -0.557 217 215 228
0.437643 -0.458862 -0.557 174 182 201
0.44268 -0.459686 -0.558 198 206 227
0.458133 -0.461333 -0.56 199 202 221
0.46051 -0.46051 -0.559 186 194 205
0.48287 -0.46051 -0.559 117 147 185
0.491388 -0.46051 -0.559 134 142 161
0.427957 -0.358357 -0.435 23 22 28
0.428771 -0.354238 -0.43 22 21 27
0.43273 -0.344352 -0.418 21 19 24
0.435686 -0.341057 -0.414 21 18 25
0.439286 -0.337762 -0.41 25 20 27
0.440551 -0.336938 -0.409 26 21 28
0.445374 -0.33529 -0.407 23 20 27
0.449357 -0.333643 -0.405 21 18 25
0.453214 -0.333643 -0.405 29 26 33
0.0177952 -0.416986 -0.505 191 147 120
0.0205581 -0.414509 -0.502 198 154 127
0.0215143 -0.414509 -0.502 198 154 127
0.02338 -0.413683 -0.501 195 151 122
0.0310143 -0.413683 -0.501 200 155 126
0.0329886 -0.414509 -0.502 198 154 125
0.0464676 -0.415334 -0.503 202 157 128
0.0560486 -0.415334 -0.503 196 151 122
0.0640933 -0.417811 -0.506 194 148 122
0.0723714 -0.421114 -0.51 184 140 113
0.0778343 -0.424417 -0.514 172 128 103
0.0910171 -0.435977 -0.528 137 100 84
0.0923714 -0.437629 -0.53 128 99 91
0.123319 -0.454969 -0.551 138 140 165
0.124369 -0.454969 -0.551 152 154 179
0.129381 -0.454143 -0.55 147 161 187
0.13881 -0.454143 -0.55 89 108 140
0.139857 -0.454143 -0.55 133 146 178
0.141952 -0.454143 -0.55 211 216 235
0.143 -0.454143 -0.55 216 221 240
0.146923 -0.453317 -0.549 220 226 242
0.151106 -0.453317 -0.549 218 225 233
0.169929 -0.453317 -0.549 218 226 249
0.177249 -0.453317 -0.549 233 239 251
0.183857 -0.454143 -0.55 149 165 190
0.209 -0.454143 -0.55 236 238 251
0.228271 -0.454969 -0.551 195 215 242
0.238767 -0.454969 -0.551 240 242 255
0.244014 -0.454969 -0.551 234 241 255
0.36564 -0.457446 -0.554 226 229 234
0.389557 -0.458271 -0.555 210 221 241
0.402243 -0.458271 -0.555 220 229 244
0.405414 -0.458271 -0.555 223 227 238
0.406471 -0.458271 -0.555 218 222 233
0.426267 -0.459097 -0.556 179 202 218
0.433399 -0.459923 -0.557 218 221 236
0.436582 -0.459923 -0.557 215 218 227
0.439765 -0.459923 -0.557 139 155 178
0.448797 -0.461574 -0.559 189 197 218
0.454121 -0.461574 -0.559 175 188 205
0.457315 -0.461574 -0.559 184 191 210
0.461811 -0.460749 -0.558 128 148 175
0.462874 -0.460749 -0.558 115 135 162
0.483934 -0.461574 -0.559 132 161 195
0.490323 -0.461574 -0.559 100 123 155
0.42582 -0.374049 -0.453 20 24 33
0.424437 -0.369094 -0.447 26 23 32
0.426737 -0.361663 -0.438 25 24 30
0.428464 -0.357534 -0.433 22 21 27
0.42959 -0.355057 -0.43 23 22 28
0.42884 -0.351754 -0.426 21 20 26
0.436993 -0.34102 -0.413 24 21 28
0.441029 -0.336891 -0.408 26 23 30
0.442273 -0.336066 -0.407 30 27 34
0.455943 -0.333589 -0.404 32 27 34
0.46056 -0.333589 -0.404 27 22 29
0.0224257 -0.414637 -0.501 197 153 124
0.0271971 -0.414637 -0.501 197 153 124
0.0540248 -0.415465 -0.502 197 152 121
0.0650571 -0.418775 -0.506 191 147 120
0.0723714 -0.422086 -0.51 182 138 111
0.0814 -0.428707 -0.518 162 120 96
0.119121 -0.456018 -0.551 55 73 121
0.140649 -0.454363 -0.549 208 222 251
0.15006 -0.454363 -0.549 220 229 238
0.160225 -0.453535 -0.548 204 219 242
0.162312 -0.453535 -0.548 169 182 199
0.173066 -0.454363 -0.549 236 239 248
0.174111 -0.454363 -0.549 235 240 246
0.176203 -0.454363 -0.549 233 241 252
0.205857 -0.45519 -0.55 223 234 255
0.258708 -0.456018 -0.551 151 171 198
0.353393 -0.457673 -0.553 183 203 238
0.38569 -0.458501 -0.554 149 166 194
0.394843 -0.459329 -0.555 130 155 186
0.4033 -0.459329 -0.555 221 228 236
0.419912 -0.460156 -0.556 183 203 236
0.451183 -0.461811 -0.558 168 183 206
0.453309 -0.461811 -0.558 176 191 214
0.473503 -0.461811 -0.558 196 199 204
0.476691 -0.461811 -0.558 175 185 197
0.493697 -0.461811 -0.558 181 187 201
0.498117 -0.460984 -0.557 179 181 193
0.424495 -0.364152 -0.44 21 20 28
0.431137 -0.345945 -0.418 22 21 27
0.434109 -0.342634 -0.414 22 19 26
0.436443 -0.340151 -0.411 25 22 29
0.439286 -0.339324 -0.41 26 23 30
0.440251 -0.337669 -0.408 28 23 30
0.4466 -0.336013 -0.406 26 21 28
0.448248 -0.334358 -0.404 28 23 30
0.45979 -0.334358 -0.404 23 20 27
0.462869 -0.334358 -0.404 27 24 31
0.470573 -0.336013 -0.406 30 29 35
0.0242857 -0.414762 -0.5 199 154 125
0.0252381 -0.414762 -0.5 201 156 127
0.0271971 -0.415591 -0.501 198 154 125
0.0329229 -0.415591 -0.501 197 153 124
0.0376943 -0.415591 -0.501 201 156 125
0.0396029 -0.415591 -0.501 198 153 122
0.0510543 -0.415591 -0.501 194 149 118
0.0779857 -0.427205 -0.515 168 126 102
0.0814 -0.429693 -0.518 160 118 94
0.0848486 -0.432182 -0.521 148 110 91
0.112824 -0.457068 -0.551 122 122 130
0.118905 -0.456238 -0.55 55 77 127
0.121826 -0.455409 -0.549 84 104 154
0.141436 -0.454579 -0.548 215 217 230
0.143524 -0.454579 -0.548 218 226 237
0.184569 -0.455409 -0.549 136 160 196
0.19398 -0.455409 -0.549 174 198 232
0.20862 -0.455409 -0.549 238 238 248
0.254048 -0.456238 -0.55 203 226 255
0.267104 -0.457068 -0.551 109 143 189
0.36498 -0.458727 -0.553 225 229 230
0.372353 -0.458727 -0.553 218 218 228
0.373407 -0.458727 -0.553 183 208 239
0.393076 -0.459556 -0.554 122 151 191
0.405739 -0.459556 -0.554 180 184 183
0.424149 -0.461215 -0.556 120 153 184
0.440034 -0.461215 -0.556 144 156 180
0.442948 -0.462045 -0.557 87 114 157
0.44613 -0.462045 -0.557 158 178 213
0.456497 -0.462874 -0.558 173 184 212
0.476691 -0.462874 -0.558 170 177 187
0.47988 -0.462874 -0.558 102 132 168
0.489446 -0.462874 -0.558 97 121 159
0.439185 -0.391535 -0.472 26 25 33
0.425903 -0.363331 -0.438 24 23 31
0.426737 -0.363331 -0.438 25 24 32
0.428591 -0.355866 -0.429 19 18 26
0.431137 -0.346741 -0.418 23 23 31
0.439286 -0.340105 -0.41 26 23 30
0.447043 -0.335957 -0.405 24 22 27
0.454047 -0.334298 -0.403 26 21 28
0.461723 -0.334298 -0.403 26 23 30
0.464408 -0.335128 -0.404 24 21 28
0.00752857 -0.438163 -0.527 189 148 120
0.0140029 -0.421534 -0.507 191 147 120
0.0252381 -0.415714 -0.5 201 156 125
0.0261905 -0.415714 -0.5 199 155 126
0.0309524 -0.415714 -0.5 200 155 126
0.0443743 -0.416546 -0.501 186 141 110
0.0472371 -0.416546 -0.501 196 151 122
0.0481914 -0.416546 -0.501 198 153 124
0.0491457 -0.416546 -0.501 197 152 123
0.06192 -0.41904 -0.504 191 145 119
0.0746057 -0.425691 -0.512 178 133 112
0.124963 -0.456454 -0.549 119 134 165
0.130191 -0.456454 -0.549 156 180 224
0.135173 -0.455623 -0.548 72 113 165
0.150555 -0.454791 -0.547 220 228 239
0.163058 -0.454791 -0.547 169 195 222
0.185276 -0.455623 -0.548 132 157 198
0.197802 -0.455623 -0.548 155 184 224
0.266619 -0.457286 -0.55 94 132 179
0.366033 -0.45978 -0.553 225 226 228
0.369193 -0.45978 -0.553 205 204 209
0.370247 -0.45978 -0.553 226 225 230
0.373407 -0.45978 -0.553 166 187 218
0.464167 -0.463106 -0.557 186 195 212
0.46735 -0.463106 -0.557 163 164 168
0.487508 -0.463106 -0.557 122 146 184
0.49069 -0.463106 -0.557 93 118 158
0.495105 -0.462274 -0.556 183 190 198
0.424233 -0.369986 -0.445 25 24 32
0.424014 -0.368323 -0.443 24 23 31
0.42462 -0.36666 -0.441 25 24 32
0.42728 -0.362503 -0.436 22 21 27
0.428591 -0.356683 -0.429 19 19 27
0.431205 -0.345043 -0.415 21 20 28
0.434366 -0.342549 -0.412 25 22 29
0.436162 -0.340886 -0.41 24 21 28
0.438993 -0.340054 -0.409 24 21 28
0.438697 -0.339223 -0.408 31 28 35
0.468643 -0.336729 -0.405 29 26 33
0.474058 -0.338391 -0.407 29 26 33
0.0185714 -0.416667 -0.5 198 154 125
0.0223362 -0.415833 -0.499 198 154 125
0.0251876 -0.415833 -0.499 200 157 125
0.0328571 -0.416667 -0.5 196 151 122
0.0424657 -0.4175 -0.501 192 148 119
0.0501 -0.4175 -0.501 198 153 124
0.066021 -0.421667 -0.506 189 145 118
0.0757286 -0.4275 -0.513 170 128 104
0.0873333 -0.436667 -0.524 135 99 85
0.109476 -0.458333 -0.55 104 90 90
0.111571 -0.458333 -0.55 123 115 112
0.122648 -0.456667 -0.548 75 97 146
0.148471 -0.455833 -0.547 227 227 235
0.167226 -0.455833 -0.547 138 163 203
0.168268 -0.455833 -0.547 165 190 230
0.182145 -0.456667 -0.548 142 166 204
0.197802 -0.456667 -0.548 119 152 197
0.205109 -0.456667 -0.548 220 227 246
0.332174 -0.459167 -0.551 122 159 211
0.359063 -0.46 -0.552 135 161 196
0.37168 -0.46 -0.552 207 210 217
0.388153 -0.460833 -0.553 158 190 231
0.394473 -0.460833 -0.553 89 132 183
0.410273 -0.460833 -0.553 130 162 203
0.422623 -0.461667 -0.554 111 145 190
0.424733 -0.461667 -0.554 150 185 215
0.435014 -0.4625 -0.555 212 221 226
0.455679 -0.464167 -0.557 134 158 202
0.456979 -0.463333 -0.556 90 118 165
0.484325 -0.464167 -0.557 162 178 203
0.424714 -0.375 -0.45 22 22 34
0.424626 -0.374167 -0.449 22 22 34
0.42462 -0.3675 -0.441 24 23 31
0.428464 -0.360833 -0.433 19 19 27
0.430572 -0.349167 -0.419 23 24 29
0.435381 -0.341667 -0.41 23 20 27
0.438397 -0.339167 -0.407 26 23 30
0.440871 -0.3375 -0.405 24 23 29
0.447138 -0.335833 -0.403 22 23 28
0.454451 -0.335 -0.402 27 24 31
0.0232867 -0.416784 -0.499 200 157 125
0.028039 -0.416784 -0.499 198 153 122
0.0309524 -0.417619 -0.5 197 152 121
0.0366667 -0.417619 -0.5 200 156 127
0.0480952 -0.417619 -0.5 197 153 124
0.0509524 -0.417619 -0.5 194 149 120
0.066021 -0.42263 -0.506 188 144 117
0.0768552 -0.429312 -0.514 172 126 100
0.10348 -0.45604 -0.546 99 81 81
0.105947 -0.45771 -0.548 101 81 82
0.112414 -0.458546 -0.549 135 130 134
0.145346 -0.456875 -0.547 221 227 241
0.15548 -0.45604 -0.546 132 167 209
0.15964 -0.45604 -0.546 197 216 246
0.195357 -0.456875 -0.547 119 154 208
0.23016 -0.45771 -0.548 130 165 207
0.270317 -0.458546 -0.549 229 232 247
0.346868 -0.460216 -0.551 145 169 205
0.358011 -0.461051 -0.552 129 159 197
0.389207 -0.461887 -0.553 97 136 191
0.391657 -0.461051 -0.552 84 127 180
0.392709 -0.461051 -0.552 76 120 167
0.436071 -0.463557 -0.555 216 220 223
0.44533 -0.464392 -0.556 83 115 172
0.486632 -0.464392 -0.556 103 128 168
0.48875 -0.464392 -0.556 86 115 157
0.494214 -0.463557 -0.555 181 189 192
0.42871 -0.381704 -0.457 24 22 36
0.426683 -0.378363 -0.453 25 22 39
0.424233 -0.371681 -0.445 26 25 33
0.424126 -0.370846 -0.444 24 23 31
0.424014 -0.37001 -0.443 25 24 32
0.425763 -0.364999 -0.437 22 21 27
0.42884 -0.355811 -0.426 19 19 27
0.430341 -0.34913 -0.418 24 23 31
0.431743 -0.345789 -0.414 21 20 28
0.432273 -0.344953 -0.413 25 24 29
0.432796 -0.344118 -0.412 20 19 24
0.438397 -0.339942 -0.407 24 23 29
0.441322 -0.337436 -0.404 25 24 30
0.442091 -0.337436 -0.404 24 23 29
0.00928286 -0.429454 -0.513 191 152 121
0.0289895 -0.417734 -0.499 195 150 119
0.0375438 -0.417734 -0.499 196 153 121
0.042381 -0.418571 -0.5 195 150 121
0.0480952 -0.418571 -0.5 194 150 121
0.102252 -0.456243 -0.545 100 84 85
0.111369 -0.459591 -0.549 131 127 126
0.11346 -0.459591 -0.549 152 145 153
0.116385 -0.458754 -0.548 115 128 145
0.117429 -0.458754 -0.548 95 108 125
0.118472 -0.458754 -0.548 69 93 137
0.15652 -0.45708 -0.546 138 163 204
0.169 -0.45708 -0.546 203 209 231
0.17212 -0.45708 -0.546 237 239 254
0.1742 -0.45708 -0.546 233 239 251
0.17732 -0.45708 -0.546 235 239 251
0.183896 -0.457917 -0.547 112 145 188
0.20265 -0.457917 -0.547 191 208 238
0.217237 -0.457917 -0.547 137 160 191
0.223897 -0.458754 -0.548 130 159 201
0.232248 -0.458754 -0.548 127 161 209
0.236423 -0.458754 -0.548 231 239 250
0.241642 -0.458754 -0.548 235 239 250
0.247905 -0.458754 -0.548 116 152 186
0.33681 -0.460429 -0.55 226 228 240
0.356313 -0.461266 -0.551 139 172 213
0.40112 -0.462103 -0.552 216 216 214
0.402171 -0.462103 -0.552 217 217 215
0.409531 -0.462103 -0.552 118 150 191
0.410583 -0.462103 -0.552 125 157 198
0.417647 -0.46294 -0.553 118 155 200
0.431065 -0.463777 -0.554 219 219 221
0.464614 -0.464614 -0.555 165 169 170
0.4699 -0.464614 -0.555 201 207 207
0.472865 -0.465451 -0.556 189 189 197
0.4847 -0.464614 -0.555 117 144 174
0.485757 -0.464614 -0.555 90 117 162
0.490869 -0.465451 -0.556 93 122 162
0.423899 -0.370017 -0.442 24 23 31
0.424495 -0.368343 -0.44 24 23 31
0.428029 -0.356623 -0.426 22 22 30
0.42925 -0.354949 -0.424 23 23 31
0.434094 -0.344066 -0.411 24 23 29
0.448673 -0.337369 -0.403 22 23 28
0.449441 -0.337369 -0.403 23 24 29
0.45292 -0.336531 -0.402 25 24 30
0.454451 -0.336531 -0.402 24 23 29
0.462109 -0.336531 -0.402 30 29 35
0.468255 -0.338206 -0.404 31 30 36
0.475609 -0.340717 -0.407 30 29 34
0.479504 -0.342391 -0.409 34 33 38
0.00738571 -0.433788 -0.517 190 147 115
0.0083219 -0.43127 -0.514 191 148 116
0.0403952 -0.418685 -0.499 195 150 119
0.0588057 -0.421202 -0.502 194 147 119
0.0649286 -0.423719 -0.505 189 143 117
0.0690486 -0.425397 -0.507 181 136 113
0.0734867 -0.428753 -0.511 169 127 103
0.0746057 -0.429592 -0.512 169 127 103
0.116385 -0.459798 -0.548 132 145 162
0.12948 -0.45812 -0.546 59 91 150
0.133395 -0.457281 -0.545 123 159 209
0.145852 -0.457281 -0.545 222 230 241
0.154157 -0.457281 -0.545 143 175 214
0.155195 -0.457281 -0.545 130 162 201
0.156233 -0.457281 -0.545 129 158 202
0.15831 -0.457281 -0.545 136 169 210
0.159348 -0.457281 -0.545 147 180 221
0.160386 -0.457281 -0.545 154 187 228
0.18252 -0.45812 -0.546 170 190 215
0.18564 -0.45812 -0.546 81 116 170
0.18876 -0.45812 -0.546 88 124 182
0.195 -0.45812 -0.546 83 122 179
0.20124 -0.45812 -0.546 185 221 247
0.220363 -0.458959 -0.547 134 178 227
0.234335 -0.459798 -0.548 205 226 253
0.25208 -0.459798 -0.548 93 132 187
0.262518 -0.459798 -0.548 79 120 176
0.264606 -0.459798 -0.548 147 187 238
0.334714 -0.461476 -0.55 221 230 237
0.451929 -0.465671 -0.555 59 108 167
0.489986 -0.465671 -0.555 81 114 157
0.424233 -0.373376 -0.445 25 24 32
0.423899 -0.370859 -0.442 24 23 31
0.427639 -0.363308 -0.433 22 21 29
0.428029 -0.357434 -0.426 22 21 29
0.428442 -0.355756 -0.424 21 21 29
0.4346 -0.34401 -0.41 24 23 29
0.434319 -0.34317 -0.409 24 23 29
0.43732 -0.340653 -0.406 25 24 30
0.441322 -0.338975 -0.404 26 25 31
0.440997 -0.338136 -0.403 23 22 28
0.476384 -0.341492 -0.407 33 32 38
0.481457 -0.34401 -0.41 34 33 39
0.00734286 -0.43225 -0.514 191 147 118
0.01104 -0.42384 -0.504 194 153 123
0.0222467 -0.417953 -0.497 199 156 124
0.0355714 -0.418794 -0.498 198 153 122
0.03652 -0.418794 -0.498 196 151 120
0.0470486 -0.419635 -0.499 198 153 124
0.0538095 -0.420476 -0.5 195 151 122
0.0648 -0.42384 -0.504 185 141 114
0.0734867 -0.429727 -0.511 167 125 101
0.11908 -0.45916 -0.546 95 121 154
0.143512 -0.457478 -0.544 222 226 238
0.20644 -0.45916 -0.546 235 236 254
0.20748 -0.45916 -0.546 237 239 254
0.221405 -0.460001 -0.547 116 159 210
0.22453 -0.460001 -0.547 99 150 205
0.225572 -0.460001 -0.547 102 153 208
0.240159 -0.460001 -0.547 233 240 250
0.255788 -0.460001 -0.547 77 117 178
0.361561 -0.463365 -0.551 202 212 222
0.370333 -0.462524 -0.55 185 187 199
0.390948 -0.463365 -0.551 126 170 231
0.393047 -0.463365 -0.551 188 213 244
0.394096 -0.463365 -0.551 211 221 230
0.398294 -0.463365 -0.551 180 180 178
0.412988 -0.463365 -0.551 99 145 195
0.427127 -0.465047 -0.553 167 205 241
0.429233 -0.465047 -0.553 216 225 230
0.443728 -0.465888 -0.554 78 114 176
0.459329 -0.466729 -0.555 144 171 200
0.464832 -0.465888 -0.554 205 204 209
0.483643 -0.466729 -0.555 103 137 182
0.430586 -0.385997 -0.459 20 23 30
0.424014 -0.372542 -0.443 24 23 31
0.427133 -0.36161 -0.43 23 22 30
0.427592 -0.359928 -0.428 23 22 30
0.430414 -0.348995 -0.415 23 22 30
0.433038 -0.34479 -0.41 24 23 29
0.449091 -0.338063 -0.402 21 20 26
0.45103 -0.337222 -0.401 22 21 27
0.4725 -0.340586 -0.405 26 25 31
0.473271 -0.340586 -0.405 29 28 34
0.0119286 -0.422271 -0.501 191 150 120
0.0137819 -0.420586 -0.499 192 151 121
0.02698 -0.4189 -0.497 195 150 119
0.0279267 -0.4189 -0.497 196 151 120
0.0460057 -0.419743 -0.498 198 153 122
0.0489495 -0.420586 -0.499 195 151 122
0.0538095 -0.421429 -0.5 194 150 121
0.0577343 -0.422271 -0.501 192 147 116
0.0627552 -0.423957 -0.503 187 143 114
0.0648 -0.4248 -0.504 182 138 111
0.0827048 -0.438286 -0.52 141 106 87
0.106795 -0.461043 -0.547 104 93 89
0.107837 -0.461043 -0.547 107 103 104
0.109921 -0.461043 -0.547 127 128 133
0.111166 -0.461886 -0.548 135 135 135
0.11513 -0.461043 -0.547 157 162 165
0.12509 -0.459357 -0.545 43 78 146
0.128205 -0.459357 -0.545 63 94 148
0.130281 -0.459357 -0.545 54 89 143
0.133395 -0.459357 -0.545 146 177 224
0.150766 -0.458514 -0.544 138 156 178
0.15491 -0.458514 -0.544 117 154 199
0.164236 -0.458514 -0.544 116 152 202
0.166309 -0.458514 -0.544 123 159 207
0.191529 -0.459357 -0.545 75 115 174
0.197757 -0.459357 -0.545 154 186 225
0.21476 -0.4602 -0.546 181 187 209
0.23036 -0.4602 -0.546 113 159 208
0.235991 -0.461043 -0.547 233 236 253
0.250578 -0.461043 -0.547 96 130 178
0.316796 -0.461886 -0.548 69 109 171
0.31784 -0.461886 -0.548 76 116 178
0.345609 -0.462729 -0.549 118 162 209
0.35502 -0.462729 -0.549 120 154 199
0.357762 -0.463571 -0.55 117 156 197
0.360905 -0.463571 -0.55 209 221 235
0.390948 -0.464414 -0.551 129 174 239
0.418994 -0.465257 -0.552 90 140 201
0.421097 -0.465257 -0.552 102 147 204
0.4232 -0.465257 -0.552 98 140 200
0.425303 -0.465257 -0.552 123 162 203
0.458501 -0.466943 -0.554 167 186 201
0.463777 -0.466943 -0.554 205 209 210
0.493487 -0.4661 -0.553 173 177 180
0.427634 -0.357371 -0.424 21 21 29
0.429377 -0.348943 -0.414 23 22 30
0.430166 -0.348943 -0.414 20 19 27
0.433257 -0.343886 -0.408 25 24 30
0.435589 -0.343886 -0.408 28 27 32
0.436071 -0.343043 -0.407 25 24 29
0.436547 -0.3422 -0.406 26 25 31
0.43732 -0.3422 -0.406 23 22 28
0.437474 -0.340514 -0.404 24 23 29
0.44023 -0.339671 -0.403 25 24 30
0.443391 -0.337986 -0.401 28 27 33
0.44756 -0.338829 -0.402 25 24 30
0.448326 -0.338829 -0.402 23 22 28
0.452557 -0.337986 -0.401 30 27 34
0.479109 -0.343886 -0.408 29 28 36
0.0489495 -0.421536 -0.499 194 150 121
0.0577343 -0.423226 -0.501 192 147 116
0.0586886 -0.423226 -0.501 190 147 115
0.0804133 -0.437587 -0.518 148 110 89
0.101029 -0.459551 -0.544 95 81 78
0.1199 -0.460395 -0.545 57 95 160
0.12509 -0.460395 -0.545 40 77 148
0.131078 -0.459551 -0.544 96 127 181
0.135223 -0.459551 -0.544 202 217 248
0.138331 -0.459551 -0.544 209 213 224
0.140404 -0.459551 -0.544 213 217 228
0.14144 -0.459551 -0.544 217 224 234
0.184262 -0.460395 -0.545 141 167 200
0.209176 -0.460395 -0.545 230 236 248
0.213329 -0.460395 -0.545 197 202 224
0.337243 -0.463774 -0.549 191 187 186
0.35502 -0.463774 -0.549 118 158 207
0.360905 -0.464619 -0.55 207 220 239
0.364431 -0.463774 -0.549 228 229 234
0.36966 -0.463774 -0.549 218 224 236
0.38919 -0.464619 -0.55 95 140 207
0.392333 -0.464619 -0.55 195 217 241
0.401762 -0.464619 -0.55 228 223 230
0.414037 -0.465464 -0.551 83 129 188
0.417186 -0.465464 -0.551 76 127 190
0.449004 -0.467998 -0.554 41 80 149
0.460833 -0.467153 -0.553 172 176 179
0.46294 -0.467153 -0.553 200 204 205
0.4661 -0.467153 -0.553 198 204 200
0.467153 -0.467153 -0.553 200 206 202
0.47433 -0.467998 -0.554 79 116 158
0.47644 -0.467998 -0.554 71 108 163
0.488048 -0.467998 -0.554 71 108 161
0.427625 -0.383522 -0.454 20 20 28
0.426602 -0.381832 -0.452 23 20 27
0.423057 -0.373385 -0.442 24 23 31
0.426957 -0.362403 -0.429 21 21 29
0.4284 -0.3548 -0.42 27 26 34
0.428517 -0.352266 -0.417 24 23 31
0.449502 -0.33875 -0.401 22 21 27
0.449905 -0.337905 -0.4 21 20 26
0.472103 -0.341284 -0.404 28 25 32
0.00149143 -0.44196 -0.522 183 149 124
0.00536381 -0.433493 -0.512 187 146 116
0.011881 -0.422487 -0.499 192 151 121
0.0373933 -0.420793 -0.497 197 154 122
0.0402333 -0.420793 -0.497 193 150 118
0.0566667 -0.423333 -0.5 190 147 115
0.0690486 -0.42926 -0.507 175 131 104
0.0815571 -0.43942 -0.519 141 103 84
0.117824 -0.461433 -0.545 115 141 176
0.121976 -0.461433 -0.545 36 76 148
0.134974 -0.45974 -0.543 193 213 240
0.140146 -0.45974 -0.543 204 210 222
0.14118 -0.45974 -0.543 214 220 234
0.142214 -0.45974 -0.543 218 224 238
0.160831 -0.45974 -0.543 99 147 213
0.166003 -0.45974 -0.543 134 172 221
0.175634 -0.460587 -0.544 202 213 233
0.17667 -0.460587 -0.544 200 216 239
0.187032 -0.460587 -0.544 69 110 176
0.33976 -0.463973 -0.548 222 226 237
0.352286 -0.463973 -0.548 118 163 218
0.413286 -0.465667 -0.55 78 126 188
0.418235 -0.466513 -0.551 89 142 208
0.44082 -0.468207 -0.553 189 205 221
0.460833 -0.468207 -0.553 193 192 200
0.461887 -0.468207 -0.553 196 196 204
0.4661 -0.468207 -0.553 198 206 208
0.473473 -0.468207 -0.553 79 113 159
0.477687 -0.468207 -0.553 71 108 161
0.426602 -0.382693 -0.452 24 21 28
0.4234 -0.37084 -0.438 25 24 32
0.423128 -0.369147 -0.436 23 22 28
0.428029 -0.36068 -0.426 16 19 26
0.427952 -0.353907 -0.418 24 23 31
0.429657 -0.348827 -0.412 24 23 31
0.431703 -0.34544 -0.408 22 21 27
0.441434 -0.34036 -0.402 25 24 30
0.4411 -0.339513 -0.401 27 26 32
0.460571 -0.338667 -0.4 22 21 27
0.462095 -0.338667 -0.4 21 20 28
0.464014 -0.339513 -0.401 22 21 29
0.474814 -0.3429 -0.405 30 29 35
0.475586 -0.3429 -0.405 28 27 35
0.47871 -0.344593 -0.407 27 26 34
0.000497143 -0.442954 -0.522 183 147 121
0.00438857 -0.434469 -0.512 183 149 122
0.0109305 -0.423437 -0.499 190 151 120
0.0155886 -0.420891 -0.496 195 154 124
0.0174781 -0.420891 -0.496 196 155 123
0.0184229 -0.420891 -0.496 195 154 122
0.0193676 -0.420891 -0.496 197 156 124
0.0240914 -0.420891 -0.496 196 153 119
0.0478067 -0.42174 -0.497 195 150 119
0.0507486 -0.422589 -0.498 194 149 120
0.0516971 -0.422589 -0.498 195 150 121
0.0792733 -0.438711 -0.517 146 107 90
0.0804133 -0.43956 -0.518 142 105 87
0.102252 -0.462471 -0.545 93 79 76
0.111595 -0.462471 -0.545 110 117 143
0.113671 -0.462471 -0.545 112 127 158
0.132906 -0.460774 -0.543 137 164 207
0.136009 -0.460774 -0.543 160 184 212
0.151523 -0.460774 -0.543 96 135 192
0.15566 -0.460774 -0.543 74 119 187
0.164969 -0.460774 -0.543 110 151 203
0.175311 -0.460774 -0.543 166 181 202
0.178414 -0.460774 -0.543 158 189 235
0.179449 -0.460774 -0.543 155 186 232
0.212937 -0.461623 -0.544 191 205 231
0.226824 -0.462471 -0.545 89 142 208
0.23409 -0.462471 -0.545 206 214 237
0.238243 -0.462471 -0.545 224 236 250
0.239281 -0.462471 -0.545 199 211 225
0.329763 -0.464169 -0.547 171 195 229
0.338716 -0.465017 -0.548 220 226 238
0.33976 -0.465017 -0.548 222 228 240
0.367943 -0.465017 -0.548 183 195 211
0.379425 -0.465017 -0.548 59 102 170
0.400714 -0.466714 -0.55 215 222 238
0.409397 -0.465866 -0.549 86 137 200
0.434766 -0.468411 -0.552 199 202 211
0.440023 -0.468411 -0.552 179 195 218
0.4503 -0.46926 -0.553 45 85 155
0.457673 -0.46926 -0.553 130 137 143
0.464206 -0.468411 -0.552 202 206 207
0.465257 -0.468411 -0.552 200 208 211
0.473473 -0.46926 -0.553 79 109 159
0.48506 -0.46926 -0.553 63 105 177
0.441882 -0.400526 -0.472 15 20 26
0.423057 -0.375069 -0.442 23 22 30
0.425495 -0.364886 -0.43 19 19 27
0.426593 -0.36234 -0.427 20 20 28
0.426929 -0.353854 -0.417 23 22 30
0.428043 -0.352157 -0.415 24 23 31
0.438371 -0.341126 -0.402 21 20 26
0.441864 -0.340277 -0.401 25 24 30
0.463619 -0.339429 -0.4 21 21 29
0.00245714 -0.438846 -0.516 182 147 119
0.0221571 -0.420986 -0.495 192 149 117
0.02976 -0.421836 -0.496 198 153 122
0.0516971 -0.423537 -0.498 196 153 121
0.0526457 -0.423537 -0.498 196 153 121
0.0537019 -0.424388 -0.499 195 152 120
0.0723714 -0.433743 -0.51 167 122 101
0.0998086 -0.461809 -0.543 94 79 76
0.110354 -0.462659 -0.544 65 67 90
0.132906 -0.461809 -0.543 90 118 168
0.150211 -0.460958 -0.542 119 146 176
0.163632 -0.460958 -0.542 91 132 184
0.18462 -0.461809 -0.543 72 110 175
0.188757 -0.461809 -0.543 84 118 179
0.19186 -0.461809 -0.543 102 138 200
0.195997 -0.461809 -0.543 87 127 196
0.202203 -0.461809 -0.543 152 181 223
0.229938 -0.46351 -0.545 101 142 198
0.238243 -0.46351 -0.545 191 209 223
0.257967 -0.46351 -0.545 65 104 171
0.32084 -0.46436 -0.546 70 107 177
0.340182 -0.46521 -0.547 169 184 205
0.385688 -0.466061 -0.548 56 95 162
0.390574 -0.466911 -0.549 97 137 196
0.39894 -0.466911 -0.549 202 210 229
0.424532 -0.468612 -0.551 117 167 220
0.44528 -0.469463 -0.552 45 81 157
0.451353 -0.470313 -0.553 45 83 156
0.456846 -0.469463 -0.552 107 125 139
0.464206 -0.469463 -0.552 183 196 204
0.468411 -0.469463 -0.552 175 185 197
0.470514 -0.469463 -0.552 159 167 190
0.43146 -0.390369 -0.459 25 28 37
0.423266 -0.371658 -0.437 22 21 29
0.428614 -0.349546 -0.411 26 25 33
0.439137 -0.341891 -0.402 21 20 26
-0.000495238 -0.443238 -0.52 186 150 118
0.00996 -0.424486 -0.498 189 150 119
0.013699 -0.422781 -0.496 190 151 120
0.0231 -0.421929 -0.495 195 151 122
0.0354286 -0.422781 -0.496 198 153 122
0.0373181 -0.422781 -0.496 199 154 125
0.0478067 -0.423633 -0.497 195 150 119
0.0516971 -0.424486 -0.498 195 152 120
0.0627552 -0.428748 -0.503 184 139 110
0.0680829 -0.432157 -0.507 176 132 107
0.0984105 -0.461138 -0.541 95 80 77
0.111186 -0.462843 -0.543 42 66 104
0.127499 -0.46199 -0.542 41 79 141
0.128531 -0.46199 -0.542 48 86 148
0.141952 -0.46199 -0.542 183 201 225
0.186345 -0.46199 -0.542 80 111 176
0.19186 -0.462843 -0.543 81 122 188
0.203237 -0.462843 -0.543 102 143 195
0.204271 -0.462843 -0.543 115 144 178
0.209443 -0.462843 -0.543 159 171 185
0.219786 -0.462843 -0.543 73 129 190
0.235733 -0.463695 -0.544 203 219 232
0.238842 -0.463695 -0.544 146 165 180
0.244023 -0.463695 -0.544 90 123 190
0.253349 -0.463695 -0.544 67 107 177
0.343308 -0.466252 -0.547 104 130 165
0.379774 -0.466252 -0.547 58 101 169
0.386731 -0.467105 -0.548 60 95 163
0.387775 -0.467105 -0.548 61 98 166
0.414626 -0.467957 -0.549 59 110 176
0.418809 -0.467957 -0.549 50 105 169
0.476823 -0.470514 -0.552 28 82 146
0.48396 -0.441533 -0.518 18 27 42
0.42294 -0.3759 -0.441 25 24 32
0.42434 -0.369081 -0.433 23 22 30
0.425006 -0.368229 -0.432 23 22 30
0.42578 -0.363967 -0.427 23 22 30
0.426827 -0.36141 -0.424 25 24 32
0.431907 -0.346067 -0.406 28 28 36
0.436705 -0.344362 -0.404 20 19 25
0.45258 -0.3401 -0.399 20 19 24
0.46018 -0.3401 -0.399 21 22 27
0.463619 -0.340952 -0.4 23 23 31
-0.00148571 -0.444229 -0.52 184 145 116
0.0192895 -0.422017 -0.494 192 151 121
0.0258762 -0.422017 -0.494 194 149 118
0.0315857 -0.422871 -0.495 196 151 120
0.0325286 -0.422871 -0.495 197 152 121
0.0373181 -0.423726 -0.496 197 152 123
0.0546524 -0.426289 -0.499 193 148 119
0.0828638 -0.445083 -0.521 123 97 84
0.101029 -0.464731 -0.544 91 80 78
0.117175 -0.463023 -0.542 40 75 139
0.120272 -0.463023 -0.542 38 76 138
0.133693 -0.463023 -0.542 93 124 171
0.134726 -0.463023 -0.542 101 137 189
0.135758 -0.463023 -0.542 98 134 186
0.13963 -0.462169 -0.541 140 164 202
0.144782 -0.462169 -0.541 169 182 199
0.155087 -0.462169 -0.541 84 132 198
0.159209 -0.462169 -0.541 89 133 194
0.192539 -0.463023 -0.542 69 107 172
0.197701 -0.463023 -0.542 97 139 197
0.200798 -0.463023 -0.542 98 149 212
0.218751 -0.463877 -0.543 81 132 187
0.219786 -0.463877 -0.543 88 139 194
0.223923 -0.463877 -0.543 80 131 197
0.247131 -0.464731 -0.544 84 127 180
0.264747 -0.464731 -0.544 96 147 204
0.283398 -0.464731 -0.544 78 127 186
0.320252 -0.465586 -0.545 60 104 167
0.343308 -0.467294 -0.547 123 154 182
0.346433 -0.467294 -0.547 98 145 199
0.368313 -0.467294 -0.547 77 120 165
0.415671 -0.469003 -0.549 75 123 187
0.442374 -0.470711 -0.551 58 98 157
0.443667 -0.469857 -0.55 41 81 153
0.464414 -0.470711 -0.551 158 174 190
0.469662 -0.470711 -0.551 106 123 149
0.470711 -0.470711 -0.551 67 97 147
0.42353 -0.375031 -0.439 23 22 30
0.423266 -0.373323 -0.437 24 23 31
0.42434 -0.369906 -0.433 24 23 31
0.425594 -0.363926 -0.426 21 20 28
0.437281 -0.342569 -0.401 23 22 28
0.449171 -0.340006 -0.398 19 18 23
0.44993 -0.340006 -0.398 22 21 26
0.454478 -0.340006 -0.398 21 22 26
0.00430286 -0.429808 -0.502 193 152 122
0.0052381 -0.428095 -0.5 194 153 123
0.0155257 -0.422958 -0.494 195 154 122
0.0258762 -0.422958 -0.494 197 152 121
0.0400714 -0.423814 -0.495 199 154 125
0.0410143 -0.423814 -0.495 199 154 123
0.0565533 -0.427239 -0.499 187 143 116
0.0596429 -0.428951 -0.501 186 142 115
0.114078 -0.464055 -0.542 88 114 151
0.121305 -0.464055 -0.542 38 76 141
0.14066 -0.463199 -0.541 204 216 232
0.192539 -0.464055 -0.542 77 108 175
0.198733 -0.464055 -0.542 137 175 220
0.20596 -0.464055 -0.542 213 224 246
0.216284 -0.464055 -0.542 118 164 214
0.22082 -0.464911 -0.543 81 133 191
0.244609 -0.464911 -0.543 140 171 218
0.245643 -0.464911 -0.543 123 160 213
0.247711 -0.464911 -0.543 85 130 195
0.260123 -0.464911 -0.543 95 140 205
0.261157 -0.464911 -0.543 123 160 213
0.32129 -0.466624 -0.545 59 96 166
0.328557 -0.466624 -0.545 151 187 223
0.33228 -0.46748 -0.546 147 168 189
0.34372 -0.46748 -0.546 112 156 203
0.37492 -0.46748 -0.546 76 118 178
0.39195 -0.469192 -0.548 129 163 208
0.397487 -0.468336 -0.547 188 201 218
0.40999 -0.468336 -0.547 80 127 179
