ply
format ascii 1.0
comment Created by Open3D
element vertex 1319
property double x
property double y
property double z
property uchar red
property uchar green
property uchar blue
end_header
-0.00707143 -0.427586 -0.495 191 150 118
-0.00516476 -0.425858 -0.493 189 148 116
-0.00421714 -0.424994 -0.492 191 151 116
-0.0023381 -0.42413 -0.491 187 147 112
0.00888476 -0.42413 -0.491 193 150 118
0.0154314 -0.42413 -0.491 200 155 122
0.0173019 -0.42413 -0.491 198 153 120
0.0266543 -0.42413 -0.491 199 155 120
0.0332686 -0.424994 -0.492 194 147 117
0.0448762 -0.42845 -0.496 188 143 114
0.0488514 -0.430177 -0.498 181 137 110
0.0581952 -0.436224 -0.505 164 121 102
0.07308 -0.450909 -0.522 102 88 79
0.09 -0.466457 -0.54 113 107 111
0.328721 -0.472504 -0.547 194 197 202
0.331847 -0.472504 -0.547 190 194 197
0.350837 -0.474231 -0.549 182 186 187
0.354619 -0.475095 -0.55 179 180 184
0.360249 -0.474231 -0.549 178 179 184
0.367569 -0.474231 -0.549 166 170 171
0.370706 -0.474231 -0.549 166 170 173
0.379071 -0.474231 -0.549 152 160 162
0.389898 -0.475959 -0.551 149 152 157
0.390948 -0.475959 -0.551 149 152 157
0.396524 -0.475095 -0.55 141 145 146
0.397571 -0.475095 -0.55 137 142 145
0.409839 -0.475959 -0.551 133 137 138
0.421097 -0.476823 -0.552 121 122 126
0.424251 -0.476823 -0.552 124 126 123
0.428457 -0.476823 -0.552 120 122 121
0.43134 -0.477687 -0.553 118 120 119
0.441617 -0.47855 -0.554 116 114 117
0.444783 -0.47855 -0.554 114 114 116
0.467126 -0.482006 -0.558 105 103 104
0.473503 -0.482006 -0.558 102 98 97
0.46041 -0.46041 -0.533 97 78 71
0.4575 -0.4535 -0.525 113 90 82
0.458625 -0.452636 -0.524 113 89 79
0.457214 -0.448317 -0.519 124 90 78
0.456437 -0.44659 -0.517 132 93 76
0.456537 -0.445726 -0.516 135 96 79
0.456232 -0.438815 -0.508 153 107 83
0.460406 -0.433632 -0.502 165 118 88
0.463357 -0.431041 -0.499 159 110 80
0.468129 -0.427586 -0.495 178 129 97
0.469065 -0.426722 -0.494 178 129 97
0.4719 -0.427586 -0.495 173 127 94
0.475671 -0.427586 -0.495 175 126 96
0.4785 -0.427586 -0.495 174 125 95
0.484157 -0.427586 -0.495 166 117 87
0.504286 -0.431905 -0.5 161 117 90
0.51312 -0.43536 -0.504 157 112 81
0.539359 -0.450045 -0.521 146 111 83
0.546539 -0.454364 -0.526 148 109 80
0.833209 -0.500146 -0.579 117 120 113
0.838723 -0.500146 -0.579 115 118 111
0.884186 -0.505329 -0.585 86 87 82
0.000466667 -0.4242 -0.49 197 156 124
0.00233333 -0.4242 -0.49 198 155 123
0.00326667 -0.4242 -0.49 196 153 121
0.00512286 -0.423334 -0.489 190 147 115
0.007 -0.4242 -0.49 193 150 118
0.0182371 -0.425066 -0.491 199 154 121
0.0219781 -0.425066 -0.491 199 154 121
0.0361533 -0.426797 -0.493 198 152 119
0.0370924 -0.426797 -0.493 201 154 124
0.0439314 -0.429394 -0.496 188 143 114
0.0478067 -0.43026 -0.497 183 137 111
0.0520086 -0.433723 -0.501 175 130 107
0.0529629 -0.433723 -0.501 177 132 109
0.05712 -0.43632 -0.504 170 124 100
0.0581952 -0.437186 -0.505 167 121 97
0.0659571 -0.444111 -0.513 129 100 86
0.0670648 -0.444977 -0.514 128 99 85
0.0694257 -0.447574 -0.517 118 91 80
0.0706829 -0.449306 -0.519 114 91 83
0.0857267 -0.46662 -0.539 94 80 80
0.329322 -0.474411 -0.548 195 198 203
0.351476 -0.476143 -0.55 186 187 189
0.356714 -0.476143 -0.55 178 179 181
0.377667 -0.476143 -0.55 158 162 163
0.3857 -0.477009 -0.551 155 153 154
0.394811 -0.477874 -0.552 143 144 146
0.397245 -0.477009 -0.551 144 145 147
0.409531 -0.477874 -0.552 131 137 137
0.411634 -0.477874 -0.552 134 135 137
0.41584 -0.477874 -0.552 130 130 132
0.416891 -0.477874 -0.552 129 129 131
0.420046 -0.477874 -0.552 127 127 129
0.43134 -0.47874 -0.553 120 118 119
0.432393 -0.47874 -0.553 121 119 122
0.440562 -0.479606 -0.554 118 116 119
0.449814 -0.480471 -0.555 116 114 115
0.451929 -0.480471 -0.555 112 110 111
0.459838 -0.458829 -0.53 101 82 76
0.458371 -0.455366 -0.526 110 90 83
0.457627 -0.453634 -0.524 113 89 79
0.458746 -0.452769 -0.523 110 90 83
0.456633 -0.445843 -0.515 136 93 76
0.456726 -0.444977 -0.514 139 96 79
0.456814 -0.444111 -0.513 142 97 76
0.456899 -0.443246 -0.512 142 97 76
0.456161 -0.440649 -0.509 148 102 79
0.45945 -0.434589 -0.502 163 116 88
0.467186 -0.428529 -0.495 176 127 95
0.469065 -0.427663 -0.494 177 128 96
0.483214 -0.428529 -0.495 163 114 84
0.49558 -0.43026 -0.497 169 122 94
0.523058 -0.440649 -0.509 155 111 84
0.536253 -0.44844 -0.518 152 110 85
0.539314 -0.450171 -0.52 151 111 85
0.836087 -0.50298 -0.581 118 120 115
0.841276 -0.502114 -0.58 106 108 105
0.860806 -0.503846 -0.582 108 109 104
0.865616 -0.504711 -0.583 100 102 99
0.874109 -0.503846 -0.582 103 105 100
0.877831 -0.504711 -0.583 93 96 89
0.88045 -0.505577 -0.584 79 82 75
-0.0109305 -0.432942 -0.499 188 149 118
0.00886667 -0.425133 -0.49 195 150 119
0.0419571 -0.429471 -0.495 190 145 116
0.0429 -0.429471 -0.495 189 144 115
0.0459133 -0.431207 -0.497 184 138 112
0.0488514 -0.432074 -0.498 180 135 112
0.0549809 -0.435545 -0.502 168 123 100
0.295338 -0.472852 -0.545 211 210 215
0.31876 -0.47372 -0.546 204 205 209
0.332014 -0.476323 -0.549 196 196 198
0.344143 -0.47719 -0.55 187 187 185
0.346238 -0.47719 -0.55 186 187 181
0.359462 -0.478058 -0.551 171 176 170
0.360511 -0.478058 -0.551 170 175 169
0.361561 -0.478058 -0.551 174 179 172
0.36261 -0.478058 -0.551 174 179 172
0.368908 -0.478058 -0.551 167 167 169
0.375205 -0.478058 -0.551 164 163 159
0.39658 -0.479793 -0.553 143 143 143
0.397966 -0.478926 -0.552 141 143 142
0.407429 -0.478926 -0.552 130 136 136
0.41554 -0.479793 -0.553 129 129 131
0.43134 -0.479793 -0.553 117 115 116
0.443728 -0.480661 -0.554 110 114 113
0.451684 -0.482396 -0.556 109 108 113
0.466192 -0.487602 -0.562 105 105 105
0.467263 -0.487602 -0.562 105 105 105
0.472986 -0.490205 -0.565 102 102 102
0.474062 -0.490205 -0.565 100 100 100
0.480109 -0.487602 -0.562 91 92 94
0.459978 -0.45897 -0.529 103 84 77
0.458746 -0.453765 -0.523 123 90 75
0.456899 -0.444221 -0.512 139 98 78
0.457057 -0.442486 -0.51 144 102 80
0.460406 -0.435545 -0.502 166 117 85
0.465295 -0.430339 -0.496 167 120 90
0.479415 -0.428604 -0.494 175 126 94
0.483179 -0.428604 -0.494 167 118 86
0.499367 -0.431207 -0.497 166 119 89
0.502269 -0.432074 -0.498 164 117 89
0.506129 -0.432942 -0.499 164 119 90
0.542336 -0.45203 -0.521 151 111 85
0.836417 -0.504954 -0.582 118 120 117
0.855263 -0.504954 -0.582 90 93 86
0.858589 -0.504954 -0.582 101 103 98
0.870058 -0.505822 -0.583 98 98 96
0.87339 -0.505822 -0.583 125 127 122
0.877112 -0.50669 -0.584 102 104 99
-0.0172667 -0.450413 -0.518 188 149 118
-0.0119524 -0.436501 -0.502 190 149 117
-0.00702857 -0.427806 -0.492 189 148 116
-0.00139714 -0.425197 -0.489 194 151 119
0.0172667 -0.426067 -0.49 196 151 118
0.0200667 -0.426067 -0.49 197 152 119
0.0284667 -0.426067 -0.49 197 152 119
0.0303952 -0.426936 -0.491 193 148 115
0.033201 -0.426936 -0.491 193 148 117
0.0671952 -0.447805 -0.515 123 95 83
0.068441 -0.449544 -0.517 117 93 83
0.0720857 -0.453891 -0.522 104 86 76
0.0835181 -0.467804 -0.538 96 80 80
0.290148 -0.47389 -0.545 218 218 220
0.31252 -0.47476 -0.546 212 212 214
0.324103 -0.476499 -0.548 205 203 204
0.327831 -0.477369 -0.549 202 202 202
0.33681 -0.478238 -0.55 194 192 193
0.338905 -0.478238 -0.55 192 190 191
0.344769 -0.479108 -0.551 186 184 185
0.37446 -0.480847 -0.553 159 160 162
0.375513 -0.480847 -0.553 158 159 161
0.378673 -0.480847 -0.553 155 156 158
0.382887 -0.480847 -0.553 149 150 152
0.391313 -0.480847 -0.553 140 142 141
0.400793 -0.480847 -0.553 133 135 134
0.411327 -0.480847 -0.553 123 123 123
0.429729 -0.482586 -0.555 113 113 113
0.45756 -0.485194 -0.558 96 94 97
0.471667 -0.49215 -0.566 91 91 91
0.460848 -0.460848 -0.53 103 83 76
0.458863 -0.453891 -0.522 120 88 73
0.458291 -0.439979 -0.506 154 108 82
0.459255 -0.439979 -0.506 156 110 84
0.46624 -0.431284 -0.496 172 123 91
0.469993 -0.428675 -0.493 176 130 97
0.480356 -0.429545 -0.494 171 125 92
0.4917 -0.430414 -0.495 171 122 92
0.511974 -0.435631 -0.501 158 113 82
0.5505 -0.4565 -0.525 139 111 87
0.836744 -0.506932 -0.583 92 97 93
0.84162 -0.505193 -0.581 112 114 111
0.855622 -0.506932 -0.583 66 69 62
0.864506 -0.506932 -0.583 101 103 98
0.867101 -0.507802 -0.584 100 102 97
0.883465 -0.509541 -0.586 73 75 70
-0.0182533 -0.4514 -0.518 188 149 118
-0.0150276 -0.443557 -0.509 185 146 115
-0.0119048 -0.435714 -0.5 192 151 119
0.00139429 -0.425257 -0.488 198 155 121
0.00791714 -0.426129 -0.489 195 150 117
0.00978 -0.426129 -0.489 196 151 118
0.0125743 -0.426129 -0.489 199 154 123
0.0135057 -0.426129 -0.489 198 153 122
0.0154 -0.427 -0.49 191 146 115
0.0284667 -0.427 -0.49 198 155 123
0.0341362 -0.427871 -0.491 193 148 117
0.0459133 -0.4331 -0.497 181 137 112
0.0855676 -0.468829 -0.538 92 78 78
0.0888067 -0.4697 -0.539 117 107 106
0.277181 -0.474057 -0.544 216 216 216
0.285995 -0.474929 -0.545 214 214 214
0.30524 -0.4758 -0.546 205 203 204
0.313092 -0.476671 -0.547 201 199 200
0.315176 -0.476671 -0.547 201 199 200
0.318884 -0.477543 -0.548 199 197 198
0.319928 -0.477543 -0.548 197 195 196
0.332174 -0.480157 -0.551 188 186 189
0.347073 -0.4819 -0.553 178 178 180
0.352977 -0.482771 -0.554 171 171 173
0.3589 -0.483643 -0.555 163 163 165
0.376871 -0.483643 -0.555 141 141 143
0.384964 -0.484514 -0.556 134 134 136
0.396266 -0.485386 -0.557 123 123 125
0.40085 -0.484514 -0.556 116 116 118
0.413126 -0.482771 -0.554 105 105 107
0.433957 -0.483643 -0.555 90 90 92
0.451183 -0.486257 -0.558 80 80 82
0.46002 -0.488871 -0.561 77 75 80
0.478846 -0.498457 -0.572 73 73 75
0.457874 -0.446171 -0.512 138 97 77
0.4581 -0.443557 -0.509 142 100 78
0.458168 -0.442686 -0.508 148 103 80
0.462381 -0.435714 -0.5 161 116 87
0.466243 -0.431357 -0.495 172 123 91
0.467183 -0.430486 -0.494 173 124 92
0.479384 -0.429614 -0.493 170 124 91
0.486002 -0.430486 -0.494 174 125 95
0.498362 -0.432229 -0.496 168 119 87
0.521903 -0.440943 -0.506 153 112 84
0.8383 -0.5063 -0.581 116 121 117
0.842727 -0.5063 -0.581 111 113 110
0.846047 -0.5063 -0.581 99 105 101
0.85229 -0.508043 -0.583 73 75 72
0.865965 -0.511529 -0.587 103 106 99
0.867083 -0.511529 -0.587 108 111 104
-0.0181829 -0.45064 -0.516 185 146 115
0.00139143 -0.425313 -0.487 198 155 121
0.0060419 -0.426187 -0.488 195 150 119
0.0191333 -0.427933 -0.49 193 150 118
0.0238 -0.427933 -0.49 194 151 119
0.0266 -0.427933 -0.49 199 156 124
0.0360067 -0.428807 -0.491 192 148 119
0.0370171 -0.42968 -0.492 193 147 121
0.0478067 -0.434047 -0.497 177 132 109
0.0638781 -0.447147 -0.512 131 97 85
0.0660857 -0.448893 -0.514 125 97 86
0.0876171 -0.469853 -0.538 90 80 79
0.247711 -0.47422 -0.543 218 218 220
0.251849 -0.47422 -0.543 216 216 216
0.253917 -0.47422 -0.543 215 215 217
0.262674 -0.475093 -0.544 209 209 211
0.273036 -0.475093 -0.544 207 205 206
0.287045 -0.477713 -0.547 201 199 202
0.288087 -0.477713 -0.547 201 199 202
0.296964 -0.478587 -0.548 197 197 199
0.317374 -0.47946 -0.549 189 187 190
0.332777 -0.48208 -0.552 175 173 176
0.344535 -0.483827 -0.554 161 159 162
0.348329 -0.4847 -0.555 158 158 160
0.354251 -0.485573 -0.556 147 147 149
0.358071 -0.486447 -0.557 144 144 146
0.361254 -0.486447 -0.557 140 140 142
0.36762 -0.486447 -0.557 130 130 132
0.370406 -0.48732 -0.558 125 125 127
0.37572 -0.48732 -0.558 123 123 125
0.378909 -0.48732 -0.558 118 118 120
0.394494 -0.488193 -0.559 102 101 106
0.401948 -0.488193 -0.559 94 93 98
0.407606 -0.48732 -0.558 87 87 89
0.417794 -0.485573 -0.556 80 79 84
0.426267 -0.485573 -0.556 75 74 80
0.463554 -0.49256 -0.564 61 58 65
0.463357 -0.435793 -0.499 162 117 88
0.465295 -0.433173 -0.496 169 122 92
0.468115 -0.430553 -0.493 177 128 96
0.495471 -0.4323 -0.495 168 122 89
0.496414 -0.4323 -0.495 166 120 87
0.514837 -0.43754 -0.501 155 114 86
0.539033 -0.449767 -0.515 156 111 88
0.5545 -0.4585 -0.525 92 74 60
0.854865 -0.510027 -0.584 58 60 57
0.8652 -0.51352 -0.588 96 98 93
-0.0170333 -0.447247 -0.511 184 145 114
-0.00793333 -0.428867 -0.49 194 151 117
0.011619 -0.427116 -0.488 198 155 123
0.0144371 -0.427991 -0.489 190 147 115
0.0181629 -0.427991 -0.489 198 155 123
0.0274771 -0.427991 -0.489 199 155 126
0.0284086 -0.427991 -0.489 196 152 123
0.0322 -0.428867 -0.49 193 149 120
0.0340667 -0.428867 -0.49 191 147 118
0.0369419 -0.429742 -0.491 191 145 119
0.0438429 -0.433243 -0.495 182 138 111
0.0499 -0.436744 -0.499 171 129 105
0.0698286 -0.455124 -0.52 103 83 76
0.08778 -0.471753 -0.539 96 86 85
0.216915 -0.473504 -0.541 217 217 219
0.22351 -0.474379 -0.542 217 215 216
0.230737 -0.474379 -0.542 215 215 213
0.240471 -0.475254 -0.543 210 210 210
0.249204 -0.47613 -0.544 206 206 206
0.253349 -0.47613 -0.544 205 203 204
0.254385 -0.47613 -0.544 204 202 203
0.259566 -0.47613 -0.544 201 199 200
0.30119 -0.481381 -0.55 179 178 183
0.314332 -0.482256 -0.551 168 168 170
0.32016 -0.483131 -0.552 161 159 164
0.325541 -0.484882 -0.554 155 153 158
0.342771 -0.488383 -0.558 133 132 137
0.3504 -0.490133 -0.56 125 125 127
0.356369 -0.491009 -0.561 116 116 118
0.364917 -0.491009 -0.561 105 104 109
0.37092 -0.491884 -0.562 98 98 100
0.373061 -0.491884 -0.562 96 96 98
0.379484 -0.491884 -0.562 89 88 93
0.380554 -0.491884 -0.562 88 87 92
0.3934 -0.491884 -0.562 77 76 81
0.396611 -0.491884 -0.562 76 75 81
0.40232 -0.493634 -0.564 73 72 77
0.405175 -0.491884 -0.562 70 69 74
0.413241 -0.487508 -0.557 65 64 69
0.415363 -0.487508 -0.557 63 62 67
0.436303 -0.488383 -0.558 62 61 67
0.442409 -0.489258 -0.559 60 59 64
0.448533 -0.490133 -0.56 60 59 64
0.4496 -0.490133 -0.56 62 61 66
0.454417 -0.491884 -0.562 61 60 65
0.456558 -0.491884 -0.562 59 58 63
0.457629 -0.491884 -0.562 58 57 62
0.484079 -0.431492 -0.493 176 127 97
0.504975 -0.434118 -0.496 162 117 86
-0.0169333 -0.445589 -0.508 186 147 116
0.00695714 -0.427169 -0.487 194 150 115
0.0106676 -0.427169 -0.487 199 154 123
0.011619 -0.428046 -0.488 197 152 121
0.0256143 -0.428923 -0.489 195 152 118
0.0274771 -0.428923 -0.489 197 154 122
0.0312029 -0.428923 -0.489 192 147 116
0.035 -0.4298 -0.49 190 144 118
0.0499 -0.437694 -0.499 169 127 103
0.0584257 -0.444711 -0.507 152 109 92
0.0662143 -0.451729 -0.515 119 92 83
0.0685733 -0.45436 -0.518 106 85 80
0.201086 -0.473657 -0.54 215 215 213
0.206229 -0.473657 -0.54 216 216 216
0.209314 -0.473657 -0.54 212 212 212
0.216915 -0.474534 -0.541 211 211 213
0.232197 -0.476289 -0.543 204 202 203
0.23677 -0.477166 -0.544 203 201 202
0.244023 -0.477166 -0.544 199 197 200
0.245059 -0.477166 -0.544 199 197 200
0.264123 -0.479797 -0.547 191 186 190
0.269332 -0.479797 -0.547 182 179 186
0.279729 -0.481551 -0.549 174 172 177
0.295977 -0.484183 -0.552 156 155 161
0.299673 -0.48506 -0.553 154 153 159
0.303887 -0.48506 -0.553 145 144 150
0.311823 -0.485937 -0.554 136 135 140
0.314989 -0.485937 -0.554 130 129 134
0.323539 -0.487691 -0.556 120 119 124
0.332143 -0.489446 -0.558 107 106 111
0.3376 -0.4912 -0.56 101 100 105
0.361701 -0.496463 -0.566 82 81 86
0.370326 -0.496463 -0.566 76 75 80
0.375962 -0.498217 -0.568 71 72 76
0.38178 -0.49734 -0.567 71 70 76
0.410186 -0.493831 -0.563 62 61 66
0.412669 -0.492954 -0.562 63 62 68
0.413003 -0.492077 -0.561 62 61 67
0.41579 -0.490323 -0.559 62 61 67
0.423549 -0.489446 -0.558 61 60 66
0.425372 -0.490323 -0.559 62 61 67
0.4304 -0.4912 -0.56 61 60 66
0.46576 -0.498217 -0.568 58 57 63
0.471483 -0.500849 -0.571 57 56 62
0.49278 -0.502603 -0.573 49 49 57
0.463131 -0.463131 -0.528 107 80 71
0.462379 -0.461377 -0.526 110 83 74
0.460851 -0.457869 -0.522 119 87 74
0.461846 -0.457869 -0.522 119 87 74
0.461169 -0.455237 -0.519 121 88 73
0.459746 -0.449974 -0.513 131 96 77
0.460103 -0.445589 -0.508 145 103 79
0.462351 -0.439449 -0.501 154 108 84
0.463306 -0.439449 -0.501 155 109 83
0.466243 -0.434186 -0.495 168 121 93
0.467186 -0.434186 -0.495 169 120 90
0.48216 -0.431554 -0.492 173 124 94
0.49253 -0.432431 -0.493 169 123 90
0.506865 -0.435063 -0.496 161 116 85
0.513732 -0.437694 -0.499 156 112 83
0.519689 -0.440326 -0.502 152 111 83
0.526722 -0.443834 -0.506 154 113 85
0.54612 -0.45436 -0.518 141 111 85
-0.0116905 -0.431612 -0.491 190 151 118
-0.00417429 -0.428096 -0.487 193 152 120
0.0171962 -0.428975 -0.488 197 152 121
0.0331333 -0.430733 -0.49 189 144 115
0.0378771 -0.431612 -0.491 190 144 118
0.0408486 -0.43337 -0.493 186 142 113
0.0925686 -0.472049 -0.537 148 147 143
0.109957 -0.472049 -0.537 202 202 200
0.11098 -0.472049 -0.537 196 197 189
0.126323 -0.472049 -0.537 210 211 205
0.17402 -0.473807 -0.539 211 216 210
0.187714 -0.474686 -0.54 208 206 207
0.188743 -0.474686 -0.54 208 206 207
0.201458 -0.475565 -0.541 208 208 208
0.207641 -0.475565 -0.541 206 206 206
0.216284 -0.476444 -0.542 202 201 206
0.223299 -0.478202 -0.544 200 198 201
0.225371 -0.478202 -0.544 199 197 200
0.234697 -0.478202 -0.544 193 191 194
0.25428 -0.47996 -0.546 177 175 180
0.25532 -0.47996 -0.546 177 175 180
0.264606 -0.481718 -0.548 164 162 167
0.280238 -0.483476 -0.55 144 142 147
0.288617 -0.485234 -0.552 130 129 134
0.293884 -0.486992 -0.554 123 122 127
0.307653 -0.48875 -0.556 103 102 107
0.308712 -0.48875 -0.556 102 101 106
0.345995 -0.496662 -0.565 72 71 79
0.353242 -0.499299 -0.568 69 68 74
0.379271 -0.503694 -0.573 65 66 71
0.383637 -0.503694 -0.573 63 64 69
0.393053 -0.504573 -0.574 63 64 69
0.406098 -0.50721 -0.577 61 61 69
0.418765 -0.494904 -0.563 60 61 66
0.464143 -0.501057 -0.57 53 52 60
0.472867 -0.504573 -0.574 50 48 59
0.46128 -0.44304 -0.504 152 108 83
0.463306 -0.440403 -0.501 155 109 83
0.463333 -0.439524 -0.5 158 112 86
0.468115 -0.43337 -0.493 169 122 94
0.470914 -0.432491 -0.492 174 125 95
0.473726 -0.432491 -0.492 162 113 83
0.4756 -0.432491 -0.492 168 119 89
0.477474 -0.432491 -0.492 171 122 92
0.485909 -0.432491 -0.492 169 120 88
0.486846 -0.432491 -0.492 168 119 89
0.494409 -0.43337 -0.493 168 121 91
0.515633 -0.438645 -0.499 156 112 83
0.534771 -0.448314 -0.51 160 116 87
0.537844 -0.450072 -0.512 155 111 82
0.561568 -0.462379 -0.526 18 17 13
-0.0167333 -0.442238 -0.502 191 152 121
-0.0116667 -0.431667 -0.49 190 151 118
-0.00883048 -0.429905 -0.488 191 150 118
-0.00416571 -0.428143 -0.486 194 153 121
-0.00231429 -0.428143 -0.486 192 151 119
0.00138571 -0.427262 -0.485 195 154 122
0.0106676 -0.429024 -0.487 196 151 120
0.0199438 -0.429024 -0.487 193 148 119
0.0359333 -0.431667 -0.49 190 144 118
0.0530686 -0.442238 -0.502 157 116 94
0.0552 -0.444 -0.504 153 112 92
0.0663429 -0.454571 -0.516 115 87 84
0.0675867 -0.456333 -0.518 113 85 82
0.0896667 -0.473952 -0.538 137 131 131
0.0935914 -0.473071 -0.537 158 157 153
0.0946143 -0.473071 -0.537 163 162 158
0.09648 -0.47219 -0.536 173 172 168
0.0995429 -0.47219 -0.536 183 182 180
0.105038 -0.473952 -0.538 192 193 188
0.107088 -0.473952 -0.538 194 194 192
0.108112 -0.473952 -0.538 196 196 194
0.111187 -0.473952 -0.538 200 199 195
0.113236 -0.473952 -0.538 203 202 200
0.120186 -0.473071 -0.537 204 205 207
0.122231 -0.473071 -0.537 207 206 204
0.124277 -0.473071 -0.537 209 206 201
0.129391 -0.473071 -0.537 208 209 204
0.13783 -0.473952 -0.538 214 215 217
0.158326 -0.473952 -0.538 214 211 206
0.160375 -0.473952 -0.538 213 208 212
0.168887 -0.474833 -0.539 214 209 213
0.195275 -0.476595 -0.541 207 205 208
0.199766 -0.477476 -0.542 204 202 205
0.200798 -0.477476 -0.542 204 202 205
0.21358 -0.478357 -0.543 197 195 200
0.269203 -0.485405 -0.551 120 119 124
0.272846 -0.486286 -0.552 115 114 119
0.27966 -0.487167 -0.553 105 103 108
0.28965 -0.48981 -0.556 94 91 98
0.292292 -0.49069 -0.557 91 88 95
0.297601 -0.492452 -0.559 90 89 95
0.306146 -0.494214 -0.561 82 81 86
0.318526 -0.496857 -0.564 73 72 77
0.392066 -0.510071 -0.579 61 60 68
0.396057 -0.510952 -0.58 61 60 68
0.42671 -0.497738 -0.565 52 52 60
0.469587 -0.505667 -0.574 32 32 42
0.475338 -0.50831 -0.577 32 30 43
0.462157 -0.457214 -0.519 123 85 72
0.46107 -0.447524 -0.508 143 101 79
0.467183 -0.43519 -0.494 166 119 91
0.468115 -0.43431 -0.493 167 120 92
0.469977 -0.433429 -0.492 170 123 93
0.473726 -0.433429 -0.492 160 113 83
0.474663 -0.433429 -0.492 162 115 85
0.481223 -0.433429 -0.492 172 123 93
0.515549 -0.438714 -0.498 157 113 86
0.558365 -0.460738 -0.523 18 13 9
-0.0166333 -0.440546 -0.499 190 151 120
-0.000461905 -0.428186 -0.485 195 154 122
0.000461905 -0.428186 -0.485 195 154 122
0.00323333 -0.428186 -0.485 196 153 121
0.00786857 -0.429069 -0.486 197 154 122
0.0115952 -0.429951 -0.487 196 151 120
0.017161 -0.429951 -0.487 196 151 120
0.0255619 -0.430834 -0.488 197 151 125
0.027421 -0.430834 -0.488 193 147 121
0.031139 -0.430834 -0.488 192 146 120
0.0321343 -0.431717 -0.489 192 146 120
0.0369419 -0.433483 -0.491 192 146 120
0.0418724 -0.436131 -0.494 181 137 110
0.0499 -0.440546 -0.499 165 123 99
0.0520086 -0.442311 -0.501 161 119 97
0.0595086 -0.448491 -0.508 140 104 88
0.0663429 -0.455554 -0.516 114 86 82
0.0675867 -0.45732 -0.518 111 83 79
0.0801448 -0.473211 -0.536 91 76 71
0.0869143 -0.476743 -0.54 106 96 94
0.0888067 -0.47586 -0.539 127 122 119
0.100751 -0.474094 -0.537 185 184 180
0.101774 -0.474094 -0.537 186 185 181
0.108112 -0.474977 -0.538 195 194 190
0.112211 -0.474977 -0.538 199 198 194
0.11631 -0.474977 -0.538 205 204 202
0.123254 -0.474094 -0.537 212 211 207
0.125533 -0.474977 -0.538 211 210 205
0.13783 -0.474977 -0.538 213 212 210
0.14193 -0.474977 -0.538 212 212 212
0.143979 -0.474977 -0.538 212 211 209
0.151433 -0.47586 -0.539 213 212 210
0.15246 -0.47586 -0.539 212 210 211
0.153487 -0.47586 -0.539 212 210 211
0.179118 -0.478509 -0.542 193 191 194
0.18497 -0.477626 -0.541 184 182 187
0.18841 -0.478509 -0.542 181 179 184
0.1991 -0.479391 -0.543 192 190 195
0.203237 -0.479391 -0.543 185 182 189
0.205306 -0.479391 -0.543 183 180 187
0.208409 -0.479391 -0.543 179 177 182
0.225572 -0.482923 -0.547 160 155 159
0.226614 -0.482923 -0.547 158 153 157
0.227656 -0.482923 -0.547 155 150 154
0.232248 -0.483806 -0.548 147 142 149
0.267503 -0.489103 -0.554 89 90 94
0.274329 -0.489986 -0.555 83 82 87
0.284314 -0.492634 -0.558 80 78 83
0.298114 -0.497931 -0.564 75 72 81
0.300795 -0.498814 -0.565 75 72 79
0.301871 -0.498814 -0.565 75 72 79
0.424049 -0.511174 -0.579 40 38 49
0.42573 -0.501463 -0.568 32 30 41
0.427893 -0.501463 -0.568 31 31 41
0.428975 -0.501463 -0.568 30 30 40
0.463048 -0.459086 -0.52 117 87 76
0.461183 -0.446726 -0.506 148 98 75
0.462195 -0.445843 -0.505 153 103 80
0.464286 -0.441429 -0.5 162 112 87
0.472789 -0.434366 -0.492 167 117 90
0.474633 -0.433483 -0.491 168 118 91
0.487783 -0.434366 -0.492 170 121 91
0.490594 -0.434366 -0.492 168 122 89
0.499029 -0.434366 -0.492 160 115 84
0.499966 -0.434366 -0.492 162 117 86
0.517446 -0.439663 -0.498 157 113 84
0.521429 -0.441429 -0.5 160 115 86
0.54999 -0.456437 -0.517 96 74 53
-0.0186829 -0.445035 -0.503 191 152 121
-0.0166 -0.440611 -0.498 191 152 121
-0.00974 -0.430879 -0.487 190 149 117
-0.00322667 -0.428225 -0.484 196 152 123
0.00785238 -0.42911 -0.485 197 152 123
0.00972 -0.429994 -0.486 201 156 127
0.0106457 -0.429994 -0.486 197 152 121
0.0115714 -0.429994 -0.486 196 151 120
0.02928 -0.431764 -0.488 190 144 118
0.0339971 -0.432649 -0.489 192 146 120
0.0349286 -0.432649 -0.489 193 147 121
0.0359333 -0.433533 -0.49 192 146 120
0.0447857 -0.437957 -0.495 173 129 104
0.0488514 -0.440611 -0.498 167 125 103
0.0562714 -0.446805 -0.505 145 104 84
0.09086 -0.476887 -0.539 139 135 134
0.100939 -0.476002 -0.538 183 182 178
0.124509 -0.476002 -0.538 209 208 204
0.1309 -0.476887 -0.539 209 208 206
0.136033 -0.476887 -0.539 210 209 207
0.150686 -0.477771 -0.54 200 198 199
0.164361 -0.478656 -0.541 187 182 186
0.170544 -0.478656 -0.541 174 172 177
0.172924 -0.479541 -0.542 172 170 175
0.173956 -0.479541 -0.542 171 169 174
0.178414 -0.480426 -0.543 165 163 168
0.180483 -0.480426 -0.543 162 160 165
0.190141 -0.481311 -0.544 144 141 148
0.195997 -0.480426 -0.543 172 171 176
0.197394 -0.481311 -0.544 171 170 175
0.199467 -0.481311 -0.544 167 166 171
0.220766 -0.48485 -0.548 133 131 136
0.22181 -0.48485 -0.548 130 128 133
0.228905 -0.486619 -0.55 114 113 119
0.235618 -0.487504 -0.551 104 101 108
0.24806 -0.489273 -0.553 96 94 99
0.270012 -0.492812 -0.557 83 82 90
0.273686 -0.493697 -0.558 82 81 89
0.278435 -0.494582 -0.559 80 79 87
0.325303 -0.509623 -0.576 72 73 78
0.328634 -0.511392 -0.578 72 71 76
0.426595 -0.508738 -0.575 15 15 25
0.462946 -0.460961 -0.521 113 85 74
0.461129 -0.448574 -0.507 145 99 75
0.466233 -0.439727 -0.497 161 114 86
0.469054 -0.436188 -0.493 166 116 89
0.470914 -0.435303 -0.492 167 118 88
0.470892 -0.434418 -0.491 167 118 88
0.478374 -0.434418 -0.491 170 121 89
0.491468 -0.434418 -0.491 170 124 90
0.494273 -0.434418 -0.491 165 119 85
-0.0239867 -0.455747 -0.514 189 150 117
-0.00972 -0.43092 -0.486 190 149 117
-0.00230476 -0.429147 -0.484 197 153 126
-0.00138286 -0.429147 -0.484 197 153 126
0.000460952 -0.429147 -0.484 198 154 125
0.0115714 -0.43092 -0.486 196 151 120
0.0255095 -0.431807 -0.487 195 149 123
0.0447857 -0.4389 -0.495 172 127 104
0.0541324 -0.445993 -0.503 152 111 91
0.0888067 -0.477913 -0.539 120 116 117
0.112629 -0.4788 -0.54 185 184 182
0.1155 -0.477913 -0.539 184 183 181
0.127029 -0.4788 -0.54 201 200 198
0.1332 -0.4788 -0.54 199 195 196
0.144514 -0.4788 -0.54 181 179 184
0.149657 -0.4788 -0.54 178 176 181
0.15847 -0.480573 -0.542 165 162 169
0.17149 -0.482347 -0.544 142 139 146
0.175957 -0.483233 -0.545 132 129 136
0.18044 -0.48412 -0.546 126 121 128
0.18148 -0.48412 -0.546 121 118 125
0.18876 -0.48412 -0.546 110 107 114
0.216333 -0.487667 -0.55 104 101 108
0.220925 -0.488553 -0.551 97 94 101
0.223024 -0.488553 -0.551 95 92 99
0.230789 -0.48944 -0.552 92 91 97
0.233943 -0.48944 -0.552 91 90 96
0.240067 -0.491213 -0.554 90 89 95
0.254098 -0.493873 -0.557 85 84 92
0.270883 -0.49742 -0.561 83 82 90
0.278283 -0.499193 -0.563 79 78 84
0.282 -0.50008 -0.564 78 77 83
0.283074 -0.50008 -0.564 78 77 83
0.29106 -0.50274 -0.567 79 78 84
0.294254 -0.504513 -0.569 76 77 82
0.375533 -0.533773 -0.602 48 47 55
0.384319 -0.536433 -0.605 38 38 46
0.429133 -0.508947 -0.574 10 8 19
0.46426 -0.44422 -0.501 155 109 85
0.465214 -0.44422 -0.501 158 110 87
0.466233 -0.440673 -0.497 159 112 86
0.469054 -0.437127 -0.493 165 116 86
0.470914 -0.43624 -0.492 164 115 85
0.478374 -0.435353 -0.491 170 121 89
0.48118 -0.435353 -0.491 169 120 88
0.483986 -0.435353 -0.491 169 120 87
0.484921 -0.435353 -0.491 170 121 88
0.516312 -0.439787 -0.496 158 115 83
0.53954 -0.451313 -0.509 149 110 77
-0.0174429 -0.439843 -0.495 191 152 121
-0.0144667 -0.4354 -0.49 191 150 118
-0.0097 -0.430957 -0.485 191 150 118
0.0124971 -0.431846 -0.486 196 151 120
0.0236057 -0.431846 -0.486 196 151 122
0.0330657 -0.434511 -0.489 191 146 117
0.0349286 -0.434511 -0.489 191 146 117
0.0388124 -0.436289 -0.491 185 139 113
0.0664714 -0.459391 -0.517 107 83 81
0.0836733 -0.47894 -0.539 82 71 69
0.0937657 -0.478051 -0.538 144 142 145
0.102343 -0.479829 -0.54 156 154 157
0.111807 -0.480717 -0.541 159 157 158
0.114686 -0.479829 -0.54 159 157 158
0.121434 -0.478051 -0.538 181 179 180
0.147114 -0.481606 -0.542 148 145 152
0.159348 -0.484271 -0.545 123 120 127
0.17797 -0.486937 -0.548 98 95 102
0.179013 -0.486937 -0.548 97 94 101
0.185276 -0.486937 -0.548 94 91 98
0.191889 -0.487826 -0.549 94 93 99
0.192934 -0.487826 -0.549 93 92 98
0.197802 -0.486937 -0.548 99 96 103
0.21712 -0.490491 -0.552 92 89 96
0.219223 -0.490491 -0.552 90 87 94
0.240306 -0.494934 -0.557 82 81 89
0.241367 -0.494934 -0.557 82 81 89
0.248622 -0.496711 -0.559 83 82 90
0.280754 -0.504709 -0.568 81 80 86
0.281836 -0.504709 -0.568 80 79 85
0.2845 -0.505597 -0.569 78 77 83
0.291448 -0.508263 -0.572 76 75 81
0.293049 -0.509151 -0.573 76 75 81
0.297357 -0.510929 -0.575 74 75 80
0.30059 -0.512706 -0.577 74 74 82
0.386967 -0.542917 -0.611 19 19 27
0.404729 -0.546471 -0.615 15 14 22
0.4136 -0.54736 -0.616 14 14 24
0.415271 -0.546471 -0.615 15 15 25
0.464315 -0.459391 -0.517 125 89 73
0.463579 -0.456726 -0.514 133 92 74
0.462094 -0.450506 -0.507 142 100 76
0.468124 -0.438954 -0.494 163 116 86
0.481133 -0.4354 -0.49 169 120 88
0.488662 -0.436289 -0.491 172 123 91
0.4942 -0.4354 -0.49 167 121 88
0.503626 -0.436289 -0.491 164 119 86
0.510372 -0.438066 -0.493 158 115 83
0.525238 -0.444286 -0.5 143 109 82
0.54458 -0.45406 -0.511 137 109 87
0.549735 -0.456726 -0.514 97 75 62
-0.0238 -0.454143 -0.51 185 149 117
-0.0216429 -0.44969 -0.505 183 148 116
-0.0205581 -0.447019 -0.502 185 149 113
-0.0124971 -0.432771 -0.486 191 150 118
-0.0087581 -0.43099 -0.484 192 151 119
-0.00783619 -0.43099 -0.484 190 149 117
0.00046 -0.4301 -0.483 193 153 118
0.0143486 -0.432771 -0.486 194 149 120
0.0329981 -0.434552 -0.488 188 142 116
0.0378771 -0.437224 -0.491 184 138 112
0.0488514 -0.443457 -0.498 162 119 100
0.0520086 -0.446129 -0.501 157 114 97
0.0789762 -0.476405 -0.535 85 70 67
0.0826467 -0.479967 -0.539 84 69 66
0.0858857 -0.480857 -0.54 73 63 61
0.0972 -0.480857 -0.54 120 118 123
0.100471 -0.481748 -0.541 128 126 131
0.105173 -0.484419 -0.544 127 125 130
0.109318 -0.484419 -0.544 125 123 128
0.113046 -0.482638 -0.542 117 115 118
0.119829 -0.480857 -0.54 110 108 111
0.12166 -0.479967 -0.539 150 148 149
0.139368 -0.484419 -0.544 118 115 122
0.140404 -0.484419 -0.544 117 114 121
0.1417 -0.48531 -0.545 116 113 120
0.147929 -0.48531 -0.545 107 104 111
0.166791 -0.488871 -0.549 96 93 100
0.169929 -0.488871 -0.549 96 93 100
0.174429 -0.489762 -0.55 96 93 100
0.204503 -0.491543 -0.552 90 89 95
0.220811 -0.495105 -0.556 85 84 90
0.2431 -0.499557 -0.561 84 83 91
0.245674 -0.500448 -0.562 83 82 90
0.250401 -0.501338 -0.563 82 80 91
0.26298 -0.5049 -0.567 80 79 87
0.267159 -0.506681 -0.569 80 79 87
0.271971 -0.507571 -0.57 77 76 84
0.276799 -0.508462 -0.571 74 73 81
0.278373 -0.509352 -0.572 74 73 81
0.280552 -0.509352 -0.572 72 71 79
0.387241 -0.549424 -0.617 14 14 22
0.399108 -0.551205 -0.619 12 12 20
0.402645 -0.551205 -0.619 15 15 23
0.419323 -0.552986 -0.621 13 13 23
0.421689 -0.552986 -0.621 12 12 22
0.434913 -0.554767 -0.623 9 12 19
0.4361 -0.554767 -0.623 9 12 19
0.44726 -0.558329 -0.627 12 12 20
0.455991 -0.552986 -0.621 14 14 24
0.464931 -0.463938 -0.521 112 84 73
0.464119 -0.44969 -0.505 141 99 77
0.469977 -0.438114 -0.492 162 113 83
0.492333 -0.436333 -0.49 168 122 88
0.495133 -0.436333 -0.49 166 120 86
0.497849 -0.435443 -0.489 167 121 87
0.545553 -0.455033 -0.511 145 111 86
-0.0163333 -0.437267 -0.49 189 150 117
-0.0124714 -0.432805 -0.485 192 151 119
-0.00504952 -0.430128 -0.482 193 153 118
0.000459048 -0.430128 -0.482 197 154 120
0.00506 -0.43102 -0.483 196 154 116
0.0069 -0.43102 -0.483 195 153 115
0.0087581 -0.431912 -0.484 194 152 114
0.0106019 -0.431912 -0.484 195 152 117
0.0115238 -0.431912 -0.484 194 149 118
0.0133952 -0.432805 -0.485 194 149 120
0.0189381 -0.432805 -0.485 195 150 121
0.0359333 -0.437267 -0.49 189 143 119
0.0479029 -0.444406 -0.498 164 122 100
0.0489495 -0.445298 -0.499 163 120 101
0.058541 -0.45333 -0.508 129 96 77
0.0596257 -0.454222 -0.509 129 93 77
0.0664714 -0.461361 -0.517 102 81 78
0.0826467 -0.480993 -0.539 81 67 66
0.0901667 -0.482778 -0.541 74 68 68
0.117175 -0.48367 -0.542 94 89 93
0.1326 -0.48724 -0.546 99 97 102
0.155289 -0.489917 -0.549 95 92 99
0.158426 -0.489917 -0.549 94 91 98
0.162151 -0.491702 -0.551 93 90 97
0.167703 -0.492594 -0.552 92 89 96
0.183414 -0.495271 -0.555 89 88 93
0.189757 -0.495271 -0.555 86 85 91
0.207044 -0.496164 -0.556 90 89 95
0.21128 -0.496164 -0.556 87 86 94
0.224934 -0.500626 -0.561 86 85 93
0.233243 -0.50241 -0.563 82 81 89
0.240103 -0.503303 -0.564 81 80 88
0.241177 -0.503303 -0.564 81 80 88
0.266389 -0.510442 -0.572 59 58 66
0.306841 -0.525612 -0.589 20 20 30
0.327917 -0.538106 -0.603 17 16 24
0.337533 -0.544352 -0.61 16 16 24
0.344986 -0.548814 -0.615 10 10 18
0.3502 -0.551491 -0.618 9 9 17
0.357238 -0.553276 -0.62 11 11 19
0.363143 -0.553276 -0.62 12 13 18
0.392823 -0.556846 -0.624 11 14 21
0.398214 -0.557738 -0.625 11 14 23
0.400595 -0.557738 -0.625 13 16 25
0.404813 -0.55863 -0.626 11 14 23
0.409583 -0.55863 -0.626 10 13 22
0.450113 -0.563092 -0.631 10 13 20
0.45203 -0.563985 -0.632 11 14 21
0.462132 -0.563092 -0.631 12 12 22
0.465123 -0.463146 -0.519 113 84 70
0.463917 -0.454222 -0.509 137 99 76
0.465238 -0.44619 -0.5 153 108 79
0.466209 -0.445298 -0.499 154 107 79
0.46718 -0.443513 -0.497 157 110 80
0.469065 -0.440836 -0.494 167 118 86
0.483933 -0.437267 -0.49 172 123 90
0.489533 -0.437267 -0.49 170 124 90
0.499711 -0.436374 -0.489 167 121 88
0.501574 -0.436374 -0.489 166 121 88
0.528095 -0.44619 -0.5 149 113 81
-0.0267667 -0.45698 -0.511 190 147 113
-0.0133952 -0.433729 -0.485 189 148 116
-0.00688571 -0.431046 -0.482 196 156 121
0.0069 -0.43194 -0.483 195 153 115
0.00874 -0.43194 -0.483 194 151 116
0.0133676 -0.432834 -0.484 194 149 118
0.0273086 -0.434623 -0.486 189 144 115
0.0329981 -0.436411 -0.488 187 141 117
0.0368667 -0.4382 -0.49 179 137 113
0.0378771 -0.439094 -0.491 176 134 110
0.0407657 -0.439989 -0.492 174 132 108
0.0530686 -0.448931 -0.502 150 111 94
0.0641276 -0.459663 -0.514 108 83 78
0.0925686 -0.485597 -0.543 65 61 62
0.0965276 -0.484703 -0.542 73 68 72
0.107381 -0.491857 -0.55 92 87 93
0.110524 -0.491857 -0.55 88 83 89
0.11346 -0.490963 -0.549 87 82 88
0.120494 -0.485597 -0.543 88 83 89
0.126129 -0.487386 -0.545 96 91 95
0.132283 -0.490963 -0.549 94 92 97
0.134619 -0.491857 -0.55 92 90 95
0.15958 -0.49454 -0.553 90 89 95
0.175588 -0.498117 -0.557 89 88 94
0.198933 -0.5008 -0.56 82 81 89
0.201426 -0.501694 -0.561 80 80 88
0.206031 -0.499906 -0.559 86 87 92
0.207096 -0.499906 -0.559 86 87 92
0.214933 -0.5008 -0.56 86 86 94
0.219983 -0.502589 -0.562 81 80 88
0.23598 -0.50706 -0.567 64 64 72
0.246567 -0.508849 -0.569 48 46 57
0.253959 -0.510637 -0.571 38 36 47
0.255047 -0.510637 -0.571 38 36 47
0.258762 -0.511531 -0.572 31 29 40
0.261853 -0.51332 -0.574 27 25 36
0.276266 -0.517791 -0.579 22 20 31
0.279574 -0.517791 -0.579 20 18 29
0.293112 -0.522263 -0.584 12 12 22
0.30399 -0.527629 -0.59 8 8 18
0.3267 -0.541043 -0.605 15 15 23
0.330636 -0.543726 -0.608 15 15 25
0.34661 -0.554457 -0.62 8 8 16
0.361888 -0.559823 -0.626 9 10 15
0.36369 -0.558929 -0.625 8 9 14
0.367262 -0.558929 -0.625 9 10 15
0.371427 -0.559823 -0.626 9 9 17
0.372024 -0.558929 -0.625 10 10 18
0.373214 -0.558929 -0.625 10 10 18
0.394772 -0.562506 -0.629 12 12 22
0.399565 -0.562506 -0.629 10 13 22
0.412854 -0.564294 -0.631 10 13 22
0.414056 -0.564294 -0.631 9 12 21
0.419528 -0.565189 -0.632 9 12 21
0.423139 -0.565189 -0.632 8 11 20
0.424343 -0.565189 -0.632 12 12 22
0.427954 -0.565189 -0.632 11 11 19
0.433454 -0.566083 -0.633 9 12 19
0.435347 -0.566977 -0.634 10 13 20
0.440177 -0.566977 -0.634 8 11 18
0.441385 -0.566977 -0.634 9 12 19
0.446215 -0.566977 -0.634 10 13 20
0.460689 -0.571449 -0.639 10 13 20
0.46661 -0.468606 -0.524 96 77 70
0.466715 -0.467711 -0.523 101 79 68
0.4662 -0.46324 -0.518 112 86 71
0.464631 -0.458769 -0.513 127 90 71
0.463917 -0.455191 -0.509 136 98 77
0.466169 -0.448037 -0.501 150 106 79
0.46904 -0.439989 -0.492 163 114 82
0.471828 -0.439094 -0.491 164 115 85
0.4802 -0.4382 -0.49 171 122 89
0.486671 -0.437306 -0.489 172 123 90
0.489466 -0.437306 -0.489 171 125 89
0.49878 -0.437306 -0.489 168 122 89
0.500643 -0.437306 -0.489 167 121 88
0.504369 -0.437306 -0.489 164 117 87
0.507267 -0.4382 -0.49 162 115 85
0.513086 -0.439989 -0.492 160 115 84
0.537224 -0.451614 -0.505 155 114 82
-0.0255914 -0.454369 -0.507 186 145 113
-0.0212571 -0.44451 -0.496 188 149 120
-0.0191724 -0.44003 -0.491 194 151 119
-0.0133676 -0.433756 -0.484 188 147 115
-0.00688571 -0.431964 -0.482 200 157 123
-0.00596762 -0.431964 -0.482 199 156 122
0.00504952 -0.431964 -0.482 194 151 116
0.00966 -0.43286 -0.483 192 149 114
0.0115238 -0.433756 -0.484 194 151 117
0.0398286 -0.440926 -0.492 180 135 112
0.0407657 -0.440926 -0.492 174 129 106
0.0427267 -0.441822 -0.493 172 127 106
0.045821 -0.44451 -0.496 167 120 100
0.0509524 -0.448095 -0.5 154 112 96
0.0552 -0.45168 -0.504 137 101 85
0.0765067 -0.476773 -0.532 88 73 66
0.0872362 -0.485735 -0.542 49 47 52
0.0927391 -0.487528 -0.544 62 57 63
0.0939476 -0.488424 -0.545 64 59 65
0.0981 -0.488424 -0.545 73 68 74
0.113233 -0.495593 -0.553 85 83 86
0.138764 -0.49649 -0.554 89 87 92
0.148261 -0.49649 -0.554 90 89 95
0.154871 -0.497386 -0.555 87 86 92
0.158328 -0.498282 -0.556 91 90 98
0.166635 -0.50097 -0.559 89 86 93
0.1712 -0.501867 -0.56 86 85 91
0.194637 -0.504555 -0.563 49 48 56
0.197854 -0.504555 -0.563 46 45 53
0.22518 -0.50814 -0.567 44 43 51
0.236143 -0.510829 -0.57 29 29 39
0.244598 -0.512621 -0.572 23 23 35
0.249391 -0.513517 -0.573 24 24 34
0.272793 -0.520687 -0.581 20 20 30
0.281506 -0.522479 -0.583 16 16 26
0.284213 -0.523375 -0.584 15 15 25
0.312669 -0.535922 -0.598 11 11 21
0.32886 -0.54578 -0.609 13 13 21
0.351156 -0.561015 -0.626 5 5 15
0.397859 -0.566392 -0.632 10 13 22
0.399063 -0.566392 -0.632 9 12 21
0.4009 -0.567289 -0.633 8 11 20
0.410546 -0.567289 -0.633 9 12 19
0.42327 -0.568185 -0.634 9 12 21
0.425148 -0.569081 -0.635 9 12 21
0.429986 -0.569081 -0.635 9 12 21
0.44903 -0.57177 -0.638 9 12 19
0.46839 -0.471396 -0.526 96 76 69
0.466019 -0.466019 -0.52 104 78 65
0.464701 -0.45885 -0.512 126 89 70
0.464991 -0.454369 -0.507 134 98 76
0.465038 -0.453472 -0.506 134 98 76
0.466113 -0.450784 -0.503 145 104 76
0.467171 -0.446303 -0.498 155 110 81
0.46718 -0.445407 -0.497 157 112 81
0.469054 -0.441822 -0.493 164 115 83
0.470892 -0.44003 -0.491 161 112 80
0.486671 -0.438237 -0.489 169 123 89
0.487603 -0.438237 -0.489 170 124 90
0.494042 -0.437341 -0.488 165 120 89
0.509133 -0.439133 -0.49 163 117 84
0.512043 -0.44003 -0.491 159 116 84
0.51496 -0.440926 -0.492 155 112 80
0.542249 -0.454369 -0.507 143 108 80
-0.03078 -0.460723 -0.513 181 144 118
-0.01334 -0.43378 -0.483 188 147 115
-0.00412286 -0.431984 -0.481 197 154 119
0.00688571 -0.432882 -0.482 196 153 119
0.00966 -0.43378 -0.483 191 148 113
0.0161333 -0.434678 -0.484 194 149 116
0.0179771 -0.434678 -0.484 196 151 120
0.019821 -0.434678 -0.484 196 151 120
0.0254048 -0.435576 -0.485 192 147 118
0.0437543 -0.443659 -0.494 168 123 102
0.0630257 -0.460723 -0.513 110 83 74
0.0918714 -0.489462 -0.545 56 51 58
0.09308 -0.49036 -0.546 58 53 60
0.101095 -0.493952 -0.55 78 72 82
0.118071 -0.49485 -0.551 85 82 89
0.136332 -0.500239 -0.557 93 90 97
0.154133 -0.502933 -0.56 90 91 96
0.161889 -0.503831 -0.561 76 76 84
0.16753 -0.50473 -0.562 68 67 75
0.175646 -0.506526 -0.564 55 54 62
0.185643 -0.507424 -0.565 37 36 44
0.198909 -0.508322 -0.566 28 28 38
0.20142 -0.50922 -0.567 28 28 38
0.20969 -0.508322 -0.566 28 26 37
0.2187 -0.50922 -0.567 25 23 34
0.2378 -0.515507 -0.574 18 18 28
0.24108 -0.515507 -0.574 18 18 28
0.2496 -0.517303 -0.576 17 17 29
0.283437 -0.527182 -0.587 16 16 26
0.304811 -0.535265 -0.596 8 8 16
0.309769 -0.537959 -0.599 8 8 18
0.313092 -0.539755 -0.601 8 8 16
0.337251 -0.555023 -0.618 13 13 21
0.3522 -0.5658 -0.63 7 7 15
0.353961 -0.566698 -0.631 6 6 14
0.371929 -0.57029 -0.635 7 8 13
0.376767 -0.57029 -0.635 6 7 12
0.399166 -0.571189 -0.636 8 11 18
0.41678 -0.572087 -0.637 7 10 17
0.425273 -0.572087 -0.637 10 10 20
0.43878 -0.573883 -0.639 9 12 21
0.448 -0.574781 -0.64 11 11 19
0.449219 -0.574781 -0.64 11 11 19
0.45796 -0.576577 -0.642 11 11 19
0.469281 -0.473296 -0.527 91 76 71
0.465038 -0.454436 -0.506 140 98 74
0.466169 -0.449946 -0.501 144 105 76
0.468129 -0.444557 -0.495 154 109 78
0.476467 -0.440067 -0.49 160 113 83
0.489394 -0.43827 -0.488 169 123 89
0.506126 -0.43827 -0.488 165 119 85
0.509026 -0.439169 -0.489 161 116 83
0.511 -0.440067 -0.49 158 114 85
0.515897 -0.441863 -0.492 152 111 79
-0.0316952 -0.4608 -0.512 176 143 124
-0.0142305 -0.4338 -0.482 189 148 116
-0.0123686 -0.4329 -0.481 191 151 116
-0.00778762 -0.4329 -0.481 197 154 120
-0.00229048 -0.4329 -0.481 196 153 118
0.00137429 -0.4329 -0.481 195 153 115
0.00320667 -0.4329 -0.481 195 152 117
0.00964 -0.4338 -0.482 191 148 113
0.0105581 -0.4338 -0.482 195 152 117
0.0114762 -0.4338 -0.482 195 152 117
0.0152114 -0.4356 -0.484 193 150 116
0.0417029 -0.4428 -0.492 173 128 107
0.0488514 -0.4482 -0.498 161 114 98
0.0499 -0.4491 -0.499 159 113 98
0.10023 -0.4959 -0.551 70 67 78
0.109529 -0.5049 -0.561 86 83 94
0.113136 -0.5067 -0.563 77 74 85
0.114006 -0.5058 -0.562 71 68 77
0.114871 -0.5049 -0.561 68 65 74
0.115733 -0.504 -0.56 65 63 74
0.118714 -0.4986 -0.554 61 59 70
0.128211 -0.4986 -0.554 87 86 94
0.130792 -0.5004 -0.556 85 84 92
0.137556 -0.5058 -0.562 83 82 90
0.14638 -0.5067 -0.563 66 65 71
0.15416 -0.5076 -0.564 46 46 54
0.18771 -0.5112 -0.568 32 32 42
0.194544 -0.5121 -0.569 26 26 36
0.199963 -0.5121 -0.569 26 26 36
0.210823 -0.5148 -0.572 25 25 33
0.212969 -0.5121 -0.569 26 26 34
0.215514 -0.513 -0.57 25 25 33
0.218771 -0.513 -0.57 24 22 33
0.235337 -0.5184 -0.576 20 23 32
0.246063 -0.5202 -0.578 17 19 32
0.247164 -0.5202 -0.578 17 19 32
0.255087 -0.5229 -0.581 16 18 30
0.256193 -0.5229 -0.581 16 18 30
0.267986 -0.5265 -0.585 14 18 30
0.273374 -0.5283 -0.587 16 19 28
0.2772 -0.5292 -0.588 18 21 30
0.288746 -0.5319 -0.591 17 20 29
0.297 -0.5346 -0.594 14 14 24
0.299767 -0.5355 -0.595 11 11 19
0.316329 -0.5445 -0.605 12 12 20
0.324121 -0.5499 -0.611 13 13 21
0.338889 -0.5589 -0.621 14 14 24
0.359753 -0.5733 -0.637 9 9 17
0.365751 -0.5751 -0.639 9 9 17
0.379762 -0.5742 -0.638 7 10 15
0.380977 -0.5742 -0.638 7 10 17
0.385838 -0.5742 -0.638 9 12 19
0.391311 -0.5751 -0.639 9 12 19
0.412003 -0.5751 -0.639 12 13 18
0.414437 -0.5751 -0.639 11 11 19
0.430933 -0.576 -0.64 12 12 20
0.442595 -0.5769 -0.641 11 11 19
0.464505 -0.5814 -0.646 9 12 19
0.47952 -0.5832 -0.648 12 12 20
0.47927 -0.5814 -0.646 12 12 20
0.468606 -0.4716 -0.524 91 74 67
0.465676 -0.4608 -0.512 126 91 69
0.465909 -0.4572 -0.508 137 96 74
0.46813 -0.4464 -0.496 154 111 79
0.469065 -0.4446 -0.494 157 113 84
0.469993 -0.4437 -0.493 161 114 84
0.479267 -0.441 -0.49 163 116 86
0.481083 -0.4401 -0.489 166 120 87
0.481958 -0.4392 -0.488 168 122 89
0.49303 -0.4383 -0.487 168 122 88
0.50045 -0.4383 -0.487 169 124 91
0.501378 -0.4383 -0.487 169 124 91
0.506126 -0.4392 -0.488 166 120 86
0.507055 -0.4392 -0.488 163 118 85
0.543107 -0.4554 -0.506 148 109 80
-0.0293962 -0.456364 -0.506 181 141 115
-0.02414 -0.448247 -0.497 177 138 109
-0.0161333 -0.436522 -0.484 188 149 116
-0.00594286 -0.432914 -0.48 197 154 119
0.00320667 -0.433816 -0.481 195 152 117
0.00596762 -0.434718 -0.482 193 150 116
0.00780381 -0.434718 -0.482 193 150 115
0.00964 -0.434718 -0.482 192 149 114
0.0105581 -0.434718 -0.482 195 152 117
0.0291 -0.437424 -0.485 190 144 118
0.0457286 -0.446443 -0.495 166 119 101
0.0509524 -0.450952 -0.5 156 110 95
0.08996 -0.49244 -0.546 41 38 49
0.09972 -0.499655 -0.554 42 40 53
0.113739 -0.510478 -0.566 32 30 41
0.121043 -0.500557 -0.555 20 19 33
0.1221 -0.500557 -0.555 19 18 32
0.123157 -0.500557 -0.555 19 18 32
0.126784 -0.502361 -0.557 17 16 30
0.142521 -0.513184 -0.569 35 33 44
0.148762 -0.512282 -0.568 32 32 42
0.154171 -0.512282 -0.568 32 32 42
0.173171 -0.514086 -0.57 28 28 38
0.180001 -0.514988 -0.571 28 28 40
0.182176 -0.514988 -0.571 29 29 41
0.203551 -0.516791 -0.573 23 26 33
0.205734 -0.516791 -0.573 21 24 31
0.206826 -0.516791 -0.573 24 24 32
0.21156 -0.517693 -0.574 22 25 32
0.21774 -0.516791 -0.573 24 24 34
0.228754 -0.519497 -0.576 23 23 33
0.23135 -0.520399 -0.577 22 22 32
0.25398 -0.524007 -0.581 15 17 29
0.268444 -0.528516 -0.586 14 16 28
0.27002 -0.529418 -0.587 15 17 29
0.285369 -0.533026 -0.591 20 20 28
0.28762 -0.533026 -0.591 17 20 29
0.32074 -0.54926 -0.609 12 12 22
0.327517 -0.552868 -0.613 13 13 23
0.337706 -0.560083 -0.621 15 15 25
0.349153 -0.569102 -0.631 14 14 22
0.366246 -0.579023 -0.642 9 9 17
0.368117 -0.578121 -0.641 9 9 17
0.378514 -0.577219 -0.64 10 11 16
0.380952 -0.577219 -0.64 8 11 16
0.38339 -0.577219 -0.64 8 11 18
0.385829 -0.577219 -0.64 9 12 19
0.391924 -0.577219 -0.64 11 11 19
0.394362 -0.577219 -0.64 12 12 20
0.405333 -0.577219 -0.64 10 13 20
0.407771 -0.577219 -0.64 10 13 20
0.423619 -0.577219 -0.64 12 12 20
0.424838 -0.577219 -0.64 11 11 19
0.426723 -0.578121 -0.641 11 11 19
0.431607 -0.578121 -0.641 11 11 19
0.439617 -0.579023 -0.642 10 10 18
0.441527 -0.579925 -0.643 11 11 19
0.453253 -0.580827 -0.644 9 12 19
0.456414 -0.581729 -0.645 9 12 19
0.460813 -0.582631 -0.646 9 12 19
0.466366 -0.465383 -0.516 114 87 68
0.466713 -0.460873 -0.511 128 91 72
0.467005 -0.455462 -0.505 144 104 79
0.46704 -0.45456 -0.504 144 104 79
0.475533 -0.441933 -0.49 160 115 84
0.481083 -0.441031 -0.489 167 120 90
0.490247 -0.439228 -0.487 167 123 88
0.491174 -0.439228 -0.487 166 122 87
0.502306 -0.439228 -0.487 171 125 92
0.508914 -0.44013 -0.488 160 117 85
0.516719 -0.442835 -0.491 155 114 82
0.518709 -0.443737 -0.492 155 114 84
0.5247 -0.446443 -0.495 153 114 85
0.531791 -0.45005 -0.499 148 109 80
0.552367 -0.460873 -0.511 120 95 75
-0.0303 -0.456424 -0.505 178 141 114
-0.0249352 -0.446482 -0.494 167 134 101
-0.0161 -0.43654 -0.483 190 150 115
-0.014201 -0.434732 -0.481 190 150 115
-0.0132848 -0.434732 -0.481 192 152 117
-0.0123686 -0.434732 -0.481 193 153 118
-0.0050181 -0.432925 -0.479 195 152 117
0.0032 -0.433829 -0.48 195 152 118
0.00595524 -0.434732 -0.481 193 150 115
0.0105581 -0.435636 -0.482 195 152 117
0.0207 -0.43654 -0.483 199 154 123
0.0417029 -0.444674 -0.492 168 123 102
0.0427267 -0.445578 -0.493 166 121 100
0.0811657 -0.484442 -0.536 78 64 64
0.0902895 -0.495288 -0.548 19 17 30
0.099199 -0.503422 -0.557 17 15 29
0.104557 -0.508845 -0.563 17 15 29
0.108731 -0.513364 -0.568 16 15 29
0.137102 -0.514268 -0.569 32 32 44
0.142431 -0.517883 -0.573 31 31 43
0.157161 -0.516075 -0.571 26 26 38
0.162599 -0.516075 -0.571 29 29 41
0.168331 -0.516979 -0.572 27 29 41
0.172991 -0.517883 -0.573 25 27 39
0.187833 -0.51969 -0.575 23 25 38
0.19844 -0.518787 -0.574 25 28 37
0.204643 -0.517883 -0.573 23 23 31
0.207187 -0.518787 -0.574 24 24 34
0.211929 -0.51969 -0.575 22 25 34
0.219213 -0.518787 -0.574 23 26 35
0.224366 -0.520594 -0.576 22 25 34
0.225463 -0.520594 -0.576 23 23 33
0.22656 -0.520594 -0.576 23 23 33
0.227657 -0.520594 -0.576 22 22 32
0.232851 -0.522402 -0.578 21 21 31
0.24581 -0.52421 -0.58 16 18 30
0.259296 -0.526921 -0.583 14 18 27
0.260853 -0.527825 -0.584 14 18 27
0.268902 -0.530536 -0.587 14 16 28
0.290852 -0.535959 -0.593 16 19 28
0.299637 -0.539574 -0.597 15 15 23
0.315697 -0.547709 -0.606 8 11 20
0.317897 -0.549516 -0.608 9 12 21
0.321267 -0.551324 -0.61 9 12 21
0.34565 -0.568496 -0.629 10 13 20
0.35026 -0.572111 -0.633 12 15 22
0.37352 -0.582053 -0.644 9 10 15
0.376614 -0.58115 -0.643 10 11 16
0.377839 -0.58115 -0.643 10 11 16
0.379064 -0.58115 -0.643 10 11 16
0.380289 -0.58115 -0.643 10 11 16
0.383366 -0.580246 -0.642 8 11 18
0.390094 -0.579342 -0.641 10 10 18
0.391315 -0.579342 -0.641 10 10 18
0.393757 -0.579342 -0.641 11 11 19
0.404114 -0.578438 -0.64 11 14 21
0.418743 -0.578438 -0.64 11 11 19
0.464709 -0.585669 -0.648 12 12 20
0.467005 -0.456424 -0.505 140 100 75
0.467143 -0.451905 -0.5 145 103 78
0.469054 -0.445578 -0.493 156 111 82
0.470914 -0.444674 -0.492 159 114 85
0.4746 -0.442867 -0.49 160 115 84
0.481083 -0.441963 -0.489 166 119 89
0.484681 -0.440155 -0.487 167 121 88
0.494885 -0.440155 -0.487 167 121 87
0.499423 -0.439251 -0.486 172 126 93
0.501274 -0.439251 -0.486 172 126 93
0.505089 -0.440155 -0.487 165 120 87
0.512751 -0.441963 -0.489 159 116 84
0.534762 -0.451905 -0.5 149 110 81
0.545034 -0.457328 -0.506 149 112 85
-0.0290476 -0.452857 -0.5 178 142 116
-0.0208286 -0.440177 -0.486 186 148 111
-0.01794 -0.43746 -0.483 191 148 114
-0.00775524 -0.433837 -0.479 198 155 121
-0.00228095 -0.433837 -0.479 194 151 116
0.00228571 -0.434743 -0.48 194 151 117
0.00687143 -0.435649 -0.481 196 154 116
0.0105362 -0.435649 -0.481 196 153 118
0.01794 -0.43746 -0.483 195 152 118
0.01978 -0.43746 -0.483 198 155 121
0.02346 -0.43746 -0.483 192 147 116
0.0244305 -0.438366 -0.484 190 145 114
0.0377229 -0.442894 -0.489 176 130 107
0.0447857 -0.448329 -0.495 164 119 100
0.0540248 -0.454669 -0.502 136 98 85
0.0552 -0.45648 -0.504 132 94 81
0.0640029 -0.464631 -0.513 103 78 73
0.0773743 -0.480934 -0.531 84 68 69
0.0890829 -0.495426 -0.547 11 9 23
0.0904543 -0.497237 -0.549 11 10 24
0.109497 -0.518069 -0.572 10 12 27
0.135171 -0.516257 -0.57 17 17 29
0.136496 -0.517163 -0.571 26 26 38
0.138066 -0.518974 -0.573 33 33 45
0.1394 -0.51988 -0.574 32 32 44
0.143426 -0.522597 -0.577 29 29 41
0.150857 -0.521691 -0.576 26 26 38
0.161267 -0.51988 -0.574 21 23 35
0.177189 -0.521691 -0.576 23 25 37
0.211929 -0.520786 -0.575 24 24 34
0.22069 -0.520786 -0.575 24 27 36
0.249983 -0.527126 -0.582 16 18 30
0.277489 -0.535277 -0.591 13 16 25
0.304571 -0.543429 -0.6 12 12 20
