ply
format ascii 1.0
comment Created by Open3D
element vertex 1295
property double x
property double y
property double z
property uchar red
property uchar green
property uchar blue
end_header
0.0521124 -0.420246 -0.502 192 148 119
0.0798029 -0.441174 -0.527 117 93 91
0.0960238 -0.456243 -0.545 111 99 101
0.432393 -0.46294 -0.553 17 41 77
0.435553 -0.46294 -0.553 20 39 71
0.444783 -0.463777 -0.554 35 56 83
0.4503 -0.46294 -0.553 47 53 75
0.447574 -0.432803 -0.517 154 102 81
0.453252 -0.426106 -0.509 172 121 92
0.45333 -0.425269 -0.508 171 120 91
0.46224 -0.42192 -0.504 175 126 94
0.462281 -0.421083 -0.503 177 128 96
0.469946 -0.421083 -0.503 173 124 94
0.474736 -0.421083 -0.503 170 125 92
0.476652 -0.421083 -0.503 171 126 93
0.494929 -0.424431 -0.507 165 120 91
0.501743 -0.426943 -0.51 161 114 86
0.542611 -0.450383 -0.538 159 121 102
0.79662 -0.469637 -0.561 194 196 183
0.804463 -0.470474 -0.562 194 196 183
0.818069 -0.472149 -0.564 192 194 181
0.82198 -0.471311 -0.563 190 192 181
0.824125 -0.471311 -0.563 189 191 180
0.831357 -0.472986 -0.565 176 178 165
0.835662 -0.472986 -0.565 175 177 164
0.836738 -0.472986 -0.565 173 175 162
0.852234 -0.473823 -0.566 171 171 159
0.855469 -0.473823 -0.566 171 171 159
0.855033 -0.472986 -0.565 171 171 159
0.859338 -0.472986 -0.565 166 166 154
0.000482857 -0.425397 -0.507 191 150 122
0.00429429 -0.420363 -0.501 189 145 116
0.0165667 -0.417007 -0.497 196 151 120
0.0222467 -0.417007 -0.497 199 156 122
0.0260857 -0.417846 -0.498 198 153 120
0.0289314 -0.417846 -0.498 200 155 122
0.0374686 -0.417846 -0.498 195 150 119
0.0491457 -0.420363 -0.501 195 151 122
0.0521124 -0.421202 -0.502 192 148 119
0.0583105 -0.424558 -0.506 185 138 110
0.0614438 -0.426236 -0.508 172 128 103
0.0798029 -0.442178 -0.527 114 93 92
0.0981 -0.457281 -0.545 132 133 135
0.418994 -0.463154 -0.552 95 107 119
0.424251 -0.463154 -0.552 36 57 86
0.425303 -0.463154 -0.552 36 57 86
0.43766 -0.463993 -0.553 22 38 72
0.442927 -0.463993 -0.553 28 44 70
0.44889 -0.44889 -0.535 119 88 70
0.446349 -0.441339 -0.526 143 98 79
0.44806 -0.437144 -0.521 152 100 79
0.457386 -0.423719 -0.505 173 124 92
0.458348 -0.423719 -0.505 174 125 93
0.469968 -0.421202 -0.502 172 126 93
0.478569 -0.422041 -0.503 167 122 91
0.482401 -0.422041 -0.503 170 125 94
0.515533 -0.434627 -0.518 158 116 91
0.518514 -0.436305 -0.52 159 117 92
0.543636 -0.451408 -0.538 158 120 97
0.806251 -0.473223 -0.564 184 184 174
0.817367 -0.474062 -0.565 180 180 170
0.823824 -0.474062 -0.565 179 179 169
0.825589 -0.473223 -0.564 178 178 168
0.83175 -0.474901 -0.566 156 158 145
0.864983 -0.476579 -0.568 144 144 136
-0.00647524 -0.439818 -0.523 187 148 119
0.00239048 -0.422158 -0.502 190 149 121
0.00994 -0.417953 -0.497 196 153 121
0.01846 -0.417953 -0.497 199 154 123
0.0279829 -0.418794 -0.498 201 156 123
0.0393657 -0.418794 -0.498 198 153 122
0.0441971 -0.419635 -0.499 197 152 121
0.0491457 -0.421317 -0.501 194 150 121
0.0521124 -0.422158 -0.502 191 147 118
0.0583105 -0.425522 -0.506 183 138 109
0.0760629 -0.438977 -0.522 127 97 86
0.436607 -0.465047 -0.553 19 37 73
0.451048 -0.430568 -0.512 164 113 86
0.45114 -0.429727 -0.511 167 113 85
0.45333 -0.427204 -0.508 172 121 92
0.45936 -0.42384 -0.504 175 126 93
0.46032 -0.42384 -0.504 175 126 93
0.468055 -0.422158 -0.502 175 126 93
0.470924 -0.422158 -0.502 175 126 93
0.473792 -0.422158 -0.502 172 126 92
0.482401 -0.422999 -0.503 169 123 90
0.483359 -0.422999 -0.503 168 122 89
0.492014 -0.424681 -0.505 165 120 89
0.499775 -0.427204 -0.508 160 119 91
0.537569 -0.448228 -0.533 158 117 89
0.806605 -0.475138 -0.565 162 162 154
0.810189 -0.475979 -0.566 161 161 153
0.82026 -0.47682 -0.567 163 163 153
0.82242 -0.47682 -0.567 162 162 152
0.82566 -0.47682 -0.567 158 158 150
0.82674 -0.47682 -0.567 158 158 150
0.845913 -0.478502 -0.569 136 138 127
0.8535 -0.478502 -0.569 136 138 127
0.857835 -0.478502 -0.569 131 133 120
0.858919 -0.478502 -0.569 130 132 119
0.861087 -0.478502 -0.569 134 134 122
0.866943 -0.479343 -0.57 129 129 117
0.872164 -0.481025 -0.572 127 130 123
-0.00748571 -0.441657 -0.524 185 146 115
-0.00441429 -0.434071 -0.515 191 150 122
0.00238095 -0.421429 -0.5 191 150 122
0.00332667 -0.420586 -0.499 194 153 125
0.0127543 -0.418057 -0.496 193 149 120
0.0364467 -0.4189 -0.497 195 150 117
0.0412629 -0.419743 -0.498 193 148 117
0.0422114 -0.419743 -0.498 192 147 116
0.04316 -0.419743 -0.498 197 152 121
0.0552 -0.4248 -0.504 183 139 110
0.0646 -0.429857 -0.51 166 124 102
0.0668038 -0.431543 -0.512 158 115 98
0.0999924 -0.458514 -0.544 155 156 161
0.418235 -0.464414 -0.551 116 123 139
0.424532 -0.464414 -0.551 67 85 107
0.442126 -0.465257 -0.552 43 60 88
0.444229 -0.465257 -0.552 70 88 108
0.449486 -0.465257 -0.552 78 90 104
0.448569 -0.447557 -0.531 120 88 73
0.4475 -0.4425 -0.525 137 96 78
0.449767 -0.434071 -0.515 161 113 90
0.45114 -0.4307 -0.511 165 114 85
0.452113 -0.4307 -0.511 167 118 88
0.4522 -0.429857 -0.51 170 119 90
0.4554 -0.426486 -0.506 170 121 91
0.455462 -0.425643 -0.505 170 121 91
0.456424 -0.425643 -0.505 171 122 92
0.457386 -0.425643 -0.505 173 124 92
0.46128 -0.4248 -0.504 174 125 92
0.463274 -0.423114 -0.502 176 127 94
0.46426 -0.422271 -0.501 175 126 93
0.466169 -0.422271 -0.501 172 126 92
0.467123 -0.422271 -0.501 177 128 95
0.469031 -0.422271 -0.501 174 128 95
0.493938 -0.425643 -0.505 163 118 89
0.828572 -0.479586 -0.569 137 138 132
0.848887 -0.481271 -0.571 121 123 112
0.8565 -0.481271 -0.571 123 125 114
0.863026 -0.481271 -0.571 121 121 111
0.871074 -0.482114 -0.572 120 120 108
0.881986 -0.486329 -0.577 118 118 110
-0.00438857 -0.432518 -0.512 191 150 122
0.00708571 -0.419002 -0.496 197 153 124
0.0174781 -0.419002 -0.496 200 157 125
0.0288733 -0.419847 -0.497 191 146 113
0.0336067 -0.419847 -0.497 199 154 123
0.0422114 -0.420691 -0.498 196 151 120
0.04316 -0.420691 -0.498 197 152 121
0.0480952 -0.422381 -0.5 191 146 115
0.0530686 -0.42407 -0.502 186 142 113
0.0552 -0.42576 -0.504 181 137 108
0.0760629 -0.440966 -0.522 120 93 82
0.42978 -0.465464 -0.551 63 79 102
0.44528 -0.466309 -0.552 98 115 133
0.447383 -0.466309 -0.552 92 106 115
0.448434 -0.466309 -0.552 97 106 113
0.44958 -0.448569 -0.531 124 89 70
0.448201 -0.44519 -0.527 129 91 72
0.448784 -0.44181 -0.523 138 96 74
0.44819 -0.439276 -0.52 142 100 78
0.450851 -0.434208 -0.514 161 114 88
0.450951 -0.433363 -0.513 160 113 83
0.452113 -0.431673 -0.511 167 118 88
0.453171 -0.430829 -0.51 169 120 90
0.454369 -0.428294 -0.507 170 120 93
0.466169 -0.423226 -0.501 173 127 94
0.481442 -0.42407 -0.502 169 123 90
0.48815 -0.424915 -0.503 165 120 89
0.503646 -0.429139 -0.508 160 116 87
0.817 -0.481514 -0.57 120 122 117
0.819171 -0.481514 -0.57 122 122 112
0.828222 -0.482359 -0.571 124 124 116
0.85186 -0.484049 -0.573 117 118 110
-0.00536381 -0.433493 -0.512 189 149 124
0.000475238 -0.422487 -0.499 196 155 127
0.00519619 -0.419947 -0.496 199 155 126
0.00801429 -0.4191 -0.495 197 153 124
0.0108429 -0.4191 -0.495 197 153 124
0.0222019 -0.419947 -0.496 201 156 125
0.0240914 -0.419947 -0.496 196 151 120
0.0250362 -0.419947 -0.496 197 152 121
0.02976 -0.419947 -0.496 191 146 115
0.0402333 -0.420793 -0.497 198 153 122
0.0450571 -0.42164 -0.498 194 149 118
0.0490476 -0.423333 -0.5 191 148 116
0.0602381 -0.428413 -0.506 175 131 102
0.0624114 -0.430107 -0.508 170 126 101
0.43083 -0.466513 -0.551 43 60 90
0.444229 -0.46736 -0.552 85 102 118
0.449743 -0.448733 -0.53 120 87 70
0.452998 -0.433493 -0.512 165 115 88
0.463306 -0.42418 -0.501 175 126 94
0.468095 -0.423333 -0.5 176 130 97
0.476666 -0.42418 -0.501 170 124 90
0.479529 -0.42418 -0.501 169 123 90
0.49294 -0.425873 -0.503 164 119 88
0.528491 -0.443653 -0.524 153 112 84
0.53151 -0.445347 -0.526 154 113 85
0.824225 -0.484293 -0.572 121 122 114
0.83658 -0.48514 -0.573 116 117 111
0.840227 -0.485987 -0.574 117 118 112
0.85116 -0.485987 -0.574 116 117 111
-0.00633905 -0.434469 -0.512 189 149 123
0.00331333 -0.42174 -0.497 196 155 125
0.00614095 -0.420891 -0.496 195 154 124
0.00707143 -0.420043 -0.495 193 152 122
0.0108429 -0.420043 -0.495 198 154 125
0.0193676 -0.420891 -0.496 194 150 121
0.0441086 -0.422589 -0.498 198 153 122
0.07252 -0.43956 -0.518 134 98 86
0.0737905 -0.441257 -0.52 131 95 83
0.0786495 -0.446349 -0.526 106 86 85
0.0903333 -0.459926 -0.542 103 85 85
0.0967057 -0.460774 -0.543 147 142 149
0.396849 -0.465866 -0.549 72 98 135
0.39894 -0.465866 -0.549 61 93 134
0.424532 -0.467563 -0.551 122 131 146
0.42873 -0.467563 -0.551 79 94 115
0.431879 -0.467563 -0.551 31 46 77
0.435817 -0.468411 -0.552 25 43 79
0.443177 -0.468411 -0.552 61 78 108
0.45144 -0.45144 -0.532 114 85 69
0.449354 -0.446349 -0.526 127 91 77
0.453087 -0.43362 -0.511 161 114 86
0.455462 -0.428529 -0.505 167 118 88
0.45744 -0.42768 -0.504 167 120 90
0.46426 -0.425134 -0.501 177 128 96
0.469048 -0.424286 -0.5 178 132 99
0.471905 -0.424286 -0.5 174 128 95
0.493898 -0.426831 -0.503 166 117 84
0.536557 -0.448894 -0.529 155 109 86
0.84096 -0.488777 -0.576 120 121 115
0.844251 -0.488777 -0.576 121 122 117
0.846446 -0.488777 -0.576 122 123 118
0.850834 -0.488777 -0.576 118 119 113
0.85632 -0.488777 -0.576 113 114 108
0.859611 -0.488777 -0.576 116 117 109
0.865097 -0.488777 -0.576 117 120 113
-0.00837048 -0.439696 -0.517 189 148 118
0.000473333 -0.422687 -0.497 196 155 123
0.0023619 -0.421836 -0.496 193 152 120
0.00707143 -0.420986 -0.495 196 153 121
0.00801429 -0.420986 -0.495 199 156 124
0.0099 -0.420986 -0.495 200 157 125
0.010821 -0.420135 -0.494 198 155 123
0.0155571 -0.420986 -0.495 198 155 123
0.0325286 -0.420986 -0.495 193 148 117
0.07266 -0.441397 -0.519 129 97 86
0.09756 -0.460958 -0.542 152 144 157
0.407306 -0.466911 -0.549 65 94 128
0.409397 -0.466911 -0.549 66 90 116
0.42873 -0.468612 -0.551 80 91 109
0.431611 -0.469463 -0.552 39 53 79
0.447383 -0.469463 -0.552 114 121 131
0.451603 -0.451603 -0.531 113 84 70
0.450171 -0.442248 -0.52 144 99 78
0.451283 -0.441397 -0.519 147 102 81
0.45648 -0.42864 -0.504 166 119 89
0.488117 -0.426089 -0.501 171 122 89
0.493872 -0.426939 -0.502 167 117 84
0.496772 -0.42779 -0.503 165 116 84
0.509514 -0.433743 -0.51 158 113 84
0.51944 -0.438846 -0.516 146 106 81
0.536536 -0.448201 -0.527 158 114 89
0.53958 -0.449902 -0.529 157 113 88
0.546714 -0.454154 -0.534 158 122 98
0.830331 -0.490725 -0.577 120 119 114
0.832183 -0.489874 -0.576 124 123 118
0.841321 -0.490725 -0.577 122 121 117
0.843519 -0.490725 -0.577 121 122 117
0.847915 -0.490725 -0.577 121 122 117
0.851212 -0.490725 -0.577 115 116 111
0.857091 -0.491575 -0.578 110 111 105
0.859293 -0.491575 -0.578 107 108 102
0.863697 -0.491575 -0.578 107 108 100
0.868797 -0.490725 -0.577 118 121 114
0.884086 -0.494977 -0.582 117 118 110
0.894627 -0.498379 -0.586 117 119 108
-0.0114343 -0.444943 -0.522 188 152 120
0.00705714 -0.421076 -0.494 198 155 123
0.0136438 -0.421076 -0.494 196 151 118
0.030581 -0.421076 -0.494 197 152 121
0.0401524 -0.422781 -0.496 197 154 122
0.0410971 -0.422781 -0.496 196 151 120
0.0421267 -0.423633 -0.497 196 151 120
0.0737905 -0.443238 -0.52 125 93 82
0.0934305 -0.46199 -0.542 120 116 117
0.0984105 -0.461138 -0.541 126 133 152
0.347475 -0.466252 -0.547 165 191 218
0.402077 -0.467957 -0.549 42 71 105
0.403123 -0.467957 -0.549 45 74 106
0.405214 -0.467957 -0.549 61 90 122
0.407306 -0.467957 -0.549 64 91 120
0.418524 -0.46881 -0.55 131 140 145
0.422433 -0.469662 -0.551 130 134 145
0.45264 -0.470514 -0.552 115 118 123
0.452606 -0.439829 -0.516 150 104 81
0.45281 -0.438124 -0.514 153 105 82
0.455265 -0.43301 -0.508 165 118 88
0.456364 -0.431305 -0.506 166 117 85
0.45744 -0.4296 -0.504 168 119 87
0.460406 -0.427895 -0.502 170 120 87
0.463333 -0.42619 -0.5 175 126 94
0.467159 -0.425338 -0.499 176 127 94
0.476667 -0.42619 -0.5 173 124 91
0.479524 -0.42619 -0.5 174 125 92
0.483333 -0.42619 -0.5 170 121 89
0.49968 -0.4296 -0.504 163 118 87
0.505551 -0.432157 -0.507 156 111 82
0.8299 -0.493529 -0.579 80 76 75
0.833971 -0.492676 -0.578 118 117 112
0.850854 -0.493529 -0.579 115 116 111
0.898085 -0.502052 -0.589 108 111 102
-0.00237143 -0.425434 -0.498 192 151 119
0.00892095 -0.421163 -0.493 201 156 125
0.02964 -0.422017 -0.494 196 151 120
0.0392076 -0.423726 -0.496 195 152 120
0.0963495 -0.462169 -0.541 92 103 121
0.369355 -0.467294 -0.547 46 78 129
0.380816 -0.467294 -0.547 155 166 170
0.39894 -0.469003 -0.549 87 108 129
0.435817 -0.471566 -0.552 92 98 110
0.45346 -0.47242 -0.553 105 108 113
0.452771 -0.452771 -0.53 117 89 77
0.450909 -0.445937 -0.522 138 96 80
0.452498 -0.441666 -0.517 149 101 79
0.4554 -0.432269 -0.506 164 117 87
0.464286 -0.427143 -0.5 172 123 91
0.476664 -0.426289 -0.499 173 127 93
0.485238 -0.427143 -0.5 170 121 89
0.487143 -0.427143 -0.5 169 120 88
0.488095 -0.427143 -0.5 169 120 88
0.491934 -0.427997 -0.501 170 121 88
0.5016 -0.43056 -0.504 159 113 80
0.508484 -0.433977 -0.508 156 111 80
0.514407 -0.43654 -0.511 152 107 78
0.833543 -0.495486 -0.58 106 107 102
0.842031 -0.494631 -0.579 123 122 118
0.843134 -0.494631 -0.579 116 115 111
0.844237 -0.494631 -0.579 114 113 109
0.847546 -0.494631 -0.579 108 107 105
0.862267 -0.495486 -0.58 99 101 98
0.86779 -0.495486 -0.58 99 101 96
0.868895 -0.495486 -0.58 101 103 98
0.870706 -0.494631 -0.579 121 124 117
0.875117 -0.494631 -0.579 103 104 99
-0.0113467 -0.443507 -0.518 187 148 119
0.00141143 -0.422958 -0.494 197 154 122
0.0154943 -0.422102 -0.493 194 149 118
0.0164333 -0.422102 -0.493 195 152 120
0.0173724 -0.422102 -0.493 196 153 121
0.0192895 -0.422958 -0.494 195 152 120
0.0334038 -0.422958 -0.494 200 155 124
0.0353571 -0.423814 -0.495 194 149 118
0.0381857 -0.423814 -0.495 196 151 120
0.0400714 -0.423814 -0.495 194 149 118
0.0450571 -0.426383 -0.498 193 148 117
0.05616 -0.43152 -0.504 174 130 103
0.0647267 -0.437513 -0.511 155 113 88
0.0715333 -0.443507 -0.518 126 97 83
0.0739324 -0.446075 -0.521 117 89 78
0.0932581 -0.463199 -0.541 124 119 125
0.0942886 -0.463199 -0.541 98 107 122
0.34435 -0.468336 -0.547 96 125 155
0.348517 -0.468336 -0.547 170 184 197
0.349559 -0.468336 -0.547 173 187 200
0.3836 -0.469192 -0.548 137 144 152
0.39894 -0.470049 -0.549 119 133 146
0.402077 -0.470049 -0.549 110 124 137
0.415381 -0.470905 -0.55 119 123 134
0.418524 -0.470905 -0.55 121 124 133
0.422433 -0.471761 -0.551 116 120 129
0.435553 -0.473473 -0.553 106 109 118
0.449247 -0.473473 -0.553 105 106 111
0.454513 -0.473473 -0.553 105 106 110
0.45978 -0.473473 -0.553 99 100 104
0.461051 -0.472617 -0.552 105 101 102
0.451903 -0.446931 -0.522 136 94 78
0.452271 -0.444363 -0.519 144 99 80
0.454222 -0.435801 -0.509 159 112 84
0.459407 -0.430664 -0.503 165 118 88
0.49 -0.428095 -0.5 171 122 90
0.837193 -0.497447 -0.581 118 119 113
0.836857 -0.49659 -0.58 119 118 114
0.836517 -0.495734 -0.579 121 120 116
0.856007 -0.497447 -0.581 102 103 98
0.87 -0.49659 -0.58 108 113 107
0.873314 -0.49659 -0.58 108 111 104
0.879247 -0.497447 -0.581 90 92 87
0.915614 -0.512858 -0.599 104 109 103
0.00516476 -0.423041 -0.493 198 155 121
0.00796571 -0.422183 -0.492 200 157 123
0.0126771 -0.423041 -0.493 194 151 119
0.0173724 -0.423041 -0.493 198 155 123
0.0267629 -0.423041 -0.493 197 152 121
0.0323971 -0.423041 -0.493 195 150 119
0.0352857 -0.423899 -0.494 194 149 118
0.05 -0.429048 -0.5 185 140 111
0.0550905 -0.431622 -0.503 177 133 106
0.05616 -0.43248 -0.504 174 130 103
0.0704105 -0.443635 -0.517 126 98 86
0.324405 -0.467662 -0.545 185 186 190
0.331671 -0.467662 -0.545 129 145 168
0.33436 -0.46852 -0.546 129 146 172
0.33852 -0.46852 -0.546 119 139 164
0.367943 -0.470236 -0.548 142 149 157
0.378381 -0.470236 -0.548 144 148 159
0.386731 -0.470236 -0.548 147 146 152
0.392666 -0.471094 -0.549 136 139 146
0.397571 -0.471952 -0.55 133 138 144
0.404905 -0.471952 -0.55 125 130 136
0.41119 -0.471952 -0.55 119 124 130
0.413286 -0.471952 -0.55 122 127 131
0.417476 -0.471952 -0.55 117 122 126
0.43056 -0.473669 -0.552 112 115 120
0.448193 -0.474527 -0.553 105 104 109
0.458501 -0.475385 -0.554 102 103 108
0.463154 -0.473669 -0.552 100 91 92
0.453362 -0.451358 -0.526 128 92 78
0.453589 -0.442777 -0.516 145 100 77
0.455114 -0.437629 -0.51 158 111 83
0.456364 -0.434196 -0.506 161 114 86
0.4584 -0.43248 -0.504 166 119 89
0.45936 -0.43248 -0.504 165 118 88
0.484268 -0.42819 -0.499 170 121 89
0.518339 -0.439345 -0.512 154 113 85
0.546657 -0.45479 -0.53 154 116 93
0.847905 -0.497695 -0.58 102 104 99
0.856007 -0.498553 -0.581 100 101 96
0.864131 -0.499411 -0.582 101 101 99
0.87482 -0.498553 -0.581 100 102 97
0.875927 -0.498553 -0.581 102 104 99
0.876629 -0.497695 -0.58 83 85 80
-0.00520667 -0.42742 -0.497 189 153 121
-0.0033 -0.4257 -0.495 193 150 118
0.00890286 -0.42312 -0.492 196 153 119
0.0201895 -0.42398 -0.493 198 153 122
0.0323971 -0.42398 -0.493 194 149 118
0.0419571 -0.4257 -0.495 191 146 117
0.0603571 -0.43602 -0.507 166 121 98
0.0624114 -0.43688 -0.508 159 117 95
0.08778 -0.46354 -0.539 96 81 84
0.324405 -0.4687 -0.545 183 183 185
0.327519 -0.4687 -0.545 178 183 187
0.330633 -0.4687 -0.545 174 181 187
0.3354 -0.46956 -0.546 176 181 187
0.33852 -0.46956 -0.546 173 178 184
0.34435 -0.47042 -0.547 179 180 175
0.346433 -0.47042 -0.547 179 179 177
0.365855 -0.47128 -0.548 157 161 160
0.373843 -0.47214 -0.549 154 155 157
0.3843 -0.47214 -0.549 145 150 153
0.404905 -0.473 -0.55 131 132 136
0.409839 -0.47386 -0.551 129 130 134
0.416136 -0.47386 -0.551 121 125 128
0.417186 -0.47386 -0.551 121 125 128
0.421384 -0.47386 -0.551 117 118 122
0.432663 -0.47472 -0.552 113 113 115
0.449004 -0.47644 -0.554 109 108 113
0.452152 -0.4472 -0.52 137 95 79
0.457328 -0.43516 -0.506 160 113 85
0.458348 -0.4343 -0.505 164 117 87
0.471913 -0.42742 -0.497 173 127 93
0.485194 -0.42828 -0.498 171 122 90
0.48997 -0.42914 -0.499 169 123 90
0.491905 -0.43 -0.5 168 122 89
0.51038 -0.43602 -0.507 154 113 85
0.840171 -0.4988 -0.58 124 126 121
0.847905 -0.4988 -0.58 101 102 97
0.8549 -0.49966 -0.581 88 89 83
0.858589 -0.50052 -0.582 102 103 98
0.868948 -0.50138 -0.583 98 98 96
0.871169 -0.50138 -0.583 100 100 98
0.873 -0.50052 -0.582 111 116 110
0.873713 -0.49966 -0.581 118 120 115
0.889046 -0.50396 -0.586 72 73 67
0.891681 -0.50482 -0.587 98 99 93
0.0220676 -0.424919 -0.493 198 153 120
0.02958 -0.424919 -0.493 194 149 116
0.0592743 -0.436124 -0.506 168 121 103
0.0624114 -0.437848 -0.508 158 113 94
0.0670648 -0.443019 -0.514 138 102 86
0.0930857 -0.465429 -0.54 130 131 136
0.283911 -0.468014 -0.543 186 189 196
0.28598 -0.468014 -0.543 193 194 199
0.294796 -0.468876 -0.544 197 198 202
0.30205 -0.468876 -0.544 198 206 209
0.310339 -0.468876 -0.544 204 203 209
0.338098 -0.471462 -0.547 183 187 190
0.371074 -0.472324 -0.548 156 159 168
0.385346 -0.473186 -0.549 145 149 150
0.387437 -0.473186 -0.549 143 148 151
0.393381 -0.474048 -0.55 137 142 146
0.394429 -0.474048 -0.55 134 139 143
0.397245 -0.47491 -0.551 136 140 143
0.398294 -0.47491 -0.551 136 137 141
0.411938 -0.47491 -0.551 126 127 129
0.412988 -0.47491 -0.551 124 125 127
0.416891 -0.475771 -0.552 124 126 125
0.428457 -0.475771 -0.552 118 118 118
0.433447 -0.476633 -0.553 115 115 113
0.439507 -0.477495 -0.554 115 114 112
0.44082 -0.476633 -0.553 112 112 112
0.441873 -0.476633 -0.553 112 112 112
0.457214 -0.478357 -0.555 108 108 110
0.46735 -0.480081 -0.557 105 99 99
0.46757 -0.479219 -0.556 105 99 99
0.453634 -0.451638 -0.524 127 91 79
0.454249 -0.447329 -0.519 139 96 79
0.455191 -0.43871 -0.509 156 109 81
0.459407 -0.433538 -0.503 163 116 86
0.461397 -0.431814 -0.501 170 121 91
0.463333 -0.430952 -0.5 174 125 95
0.463357 -0.43009 -0.499 173 124 92
0.469069 -0.429229 -0.498 173 127 93
0.473807 -0.428367 -0.497 172 128 93
0.477606 -0.429229 -0.498 172 128 93
0.48997 -0.43009 -0.499 170 124 91
0.496667 -0.430952 -0.5 166 121 90
0.508367 -0.435262 -0.505 157 113 86
0.52122 -0.440433 -0.511 150 111 82
0.539437 -0.450776 -0.523 153 109 84
0.841843 -0.504214 -0.585 111 112 107
0.841186 -0.50249 -0.583 121 122 117
0.856371 -0.501629 -0.582 75 76 70
0.874888 -0.503352 -0.584 99 104 98
-0.01008 -0.43536 -0.504 189 148 116
-0.00807905 -0.431041 -0.499 197 152 121
0.007 -0.423267 -0.49 196 153 119
0.00794952 -0.42413 -0.491 196 153 119
0.00982 -0.42413 -0.491 195 152 118
0.0144962 -0.42413 -0.491 198 155 121
0.0323314 -0.424994 -0.492 195 150 117
0.0409314 -0.426722 -0.494 192 147 114
0.0499 -0.431041 -0.499 183 139 112
0.0614438 -0.438815 -0.508 160 114 98
0.0658286 -0.44227 -0.512 140 104 90
0.0949667 -0.465593 -0.539 133 143 153
0.281843 -0.469049 -0.543 209 214 220
0.292724 -0.469912 -0.544 214 215 217
0.29376 -0.469912 -0.544 214 215 217
0.296323 -0.469049 -0.543 218 214 213
0.301013 -0.469912 -0.544 210 215 219
0.317138 -0.470776 -0.545 200 204 205
0.325595 -0.472504 -0.547 200 201 203
0.337672 -0.473368 -0.548 189 193 194
0.360905 -0.475095 -0.55 175 173 174
0.361952 -0.475095 -0.55 175 173 174
0.368614 -0.474231 -0.549 157 161 162
0.393047 -0.475959 -0.551 139 143 144
0.395146 -0.475959 -0.551 135 139 140
0.400393 -0.475959 -0.551 135 136 140
0.404591 -0.475959 -0.551 130 134 135
0.411634 -0.476823 -0.552 129 130 132
0.41584 -0.476823 -0.552 126 126 126
0.418994 -0.476823 -0.552 124 124 124
0.432393 -0.477687 -0.553 114 114 112
0.435286 -0.47855 -0.554 115 115 115
0.449814 -0.479414 -0.555 111 109 110
0.451929 -0.479414 -0.555 109 107 108
0.467963 -0.48287 -0.559 103 101 102
0.455124 -0.449181 -0.52 135 93 79
0.455033 -0.441407 -0.511 148 102 78
0.464308 -0.431041 -0.499 172 125 95
0.47286 -0.429313 -0.497 170 126 91
0.473807 -0.429313 -0.497 170 126 91
0.511301 -0.437088 -0.506 157 113 86
0.511252 -0.436224 -0.505 157 113 86
0.84162 -0.501873 -0.581 122 124 121
0.863764 -0.504465 -0.584 104 105 99
0.869326 -0.504465 -0.584 101 101 99
-0.0152638 -0.447574 -0.517 181 146 116
-0.0120952 -0.439783 -0.508 186 147 118
-0.00517524 -0.427663 -0.494 187 146 116
-0.00422571 -0.426797 -0.493 189 148 116
0.0042 -0.4242 -0.49 192 152 117
0.00982 -0.425066 -0.491 194 151 117
0.0126257 -0.425066 -0.491 194 151 117
0.0163667 -0.425066 -0.491 198 155 121
0.0219781 -0.425066 -0.491 201 156 125
0.0238486 -0.425066 -0.491 201 156 125
0.0323314 -0.425931 -0.492 195 150 117
0.0419571 -0.428529 -0.495 192 147 114
0.0560486 -0.435454 -0.503 170 125 102
0.0603571 -0.438917 -0.507 160 113 93
0.0647267 -0.44238 -0.511 142 100 84
0.0658286 -0.443246 -0.512 135 101 89
0.0670648 -0.444977 -0.514 130 96 84
0.07294 -0.451037 -0.521 105 87 87
0.08778 -0.46662 -0.539 95 80 83
0.0918867 -0.46662 -0.539 134 134 134
0.295832 -0.470949 -0.544 217 212 216
0.320386 -0.473546 -0.547 205 205 207
0.337243 -0.475277 -0.549 194 194 192
0.346654 -0.475277 -0.549 184 182 183
0.371381 -0.476143 -0.55 157 161 162
0.396914 -0.477874 -0.552 135 135 137
0.398687 -0.47874 -0.553 135 135 137
0.407429 -0.477874 -0.552 127 127 129
0.41238 -0.47874 -0.553 125 125 127
0.414789 -0.477874 -0.552 122 122 124
0.42502 -0.47874 -0.553 116 116 116
0.431065 -0.479606 -0.554 113 113 113
0.437129 -0.480471 -0.555 109 109 111
0.453802 -0.481337 -0.556 102 100 101
0.462639 -0.483934 -0.559 96 97 99
0.474756 -0.486531 -0.562 89 85 84
0.475827 -0.486531 -0.562 90 80 78
0.466061 -0.474411 -0.548 88 77 75
0.454761 -0.452769 -0.523 127 91 77
0.454014 -0.451037 -0.521 130 94 80
0.455347 -0.44844 -0.518 139 96 80
0.45744 -0.43632 -0.504 159 113 87
0.464326 -0.431126 -0.498 169 122 92
0.499524 -0.432857 -0.5 162 118 89
0.500476 -0.432857 -0.5 162 118 91
0.507311 -0.435454 -0.503 159 115 88
0.513176 -0.437186 -0.505 154 110 85
0.52015 -0.440649 -0.509 154 109 86
0.85709 -0.505577 -0.584 46 47 39
0.862257 -0.507309 -0.586 67 68 60
0.876768 -0.507309 -0.586 101 103 100
-0.00998 -0.432942 -0.499 190 149 117
-0.00707143 -0.429471 -0.495 192 151 121
-0.00421714 -0.426869 -0.492 189 148 116
-0.00327333 -0.426001 -0.491 190 149 117
0.00512286 -0.424266 -0.489 191 148 114
0.0173019 -0.426001 -0.491 196 153 119
0.0182371 -0.426001 -0.491 200 155 122
0.0275895 -0.426001 -0.491 198 153 120
0.0322657 -0.426001 -0.491 195 150 117
0.0419571 -0.429471 -0.495 190 145 112
0.0581952 -0.438148 -0.505 166 121 102
0.0855676 -0.466779 -0.538 95 79 82
0.242677 -0.469382 -0.541 215 219 222
0.244738 -0.469382 -0.541 211 211 211
0.250921 -0.469382 -0.541 216 215 223
0.255043 -0.469382 -0.541 211 216 219
0.260676 -0.47025 -0.542 213 215 214
0.262741 -0.47025 -0.542 216 217 222
0.268935 -0.47025 -0.542 214 210 211
0.269968 -0.47025 -0.542 219 215 216
0.273569 -0.471117 -0.543 215 213 214
0.282362 -0.471985 -0.544 208 212 215
0.283398 -0.471985 -0.544 209 213 216
0.293262 -0.472852 -0.545 205 214 213
0.297414 -0.472852 -0.545 211 209 214
0.30836 -0.47372 -0.546 213 211 214
0.31148 -0.47372 -0.546 211 210 208
0.319344 -0.474588 -0.547 200 202 199
0.327831 -0.476323 -0.549 197 195 198
0.33306 -0.476323 -0.549 185 191 191
0.334106 -0.476323 -0.549 190 191 193
0.34519 -0.47719 -0.55 172 178 178
0.360511 -0.478058 -0.551 161 167 165
0.37904 -0.478926 -0.552 145 145 147
0.382887 -0.479793 -0.553 139 138 143
0.386047 -0.479793 -0.553 137 138 140
0.3871 -0.479793 -0.553 136 138 137
0.388153 -0.479793 -0.553 138 140 139
0.418402 -0.480661 -0.554 111 111 109
0.442152 -0.482396 -0.556 92 91 96
0.446389 -0.482396 -0.556 87 88 93
0.453557 -0.483264 -0.557 83 82 87
0.455554 -0.447691 -0.516 137 94 77
0.468127 -0.431207 -0.497 175 126 96
0.476647 -0.431207 -0.497 171 126 93
0.482327 -0.431207 -0.497 165 119 86
0.51216 -0.43728 -0.504 156 111 82
0.518106 -0.439883 -0.507 156 112 85
0.540305 -0.451162 -0.52 153 113 88
-0.00420857 -0.426936 -0.491 190 149 117
0.00326 -0.425197 -0.489 196 156 121
0.00605429 -0.425197 -0.489 192 149 115
0.0351429 -0.427806 -0.492 195 150 119
0.04686 -0.432153 -0.497 181 135 109
0.0625343 -0.442588 -0.509 150 107 88
0.0647267 -0.444327 -0.511 139 100 83
0.0694257 -0.449544 -0.517 119 91 80
0.218571 -0.469543 -0.54 219 220 224
0.220629 -0.469543 -0.54 219 220 224
0.228857 -0.469543 -0.54 218 219 221
0.236494 -0.470412 -0.541 216 220 221
0.255514 -0.471282 -0.542 217 221 222
0.258611 -0.471282 -0.542 218 222 223
0.263226 -0.472151 -0.543 217 221 222
0.278217 -0.473021 -0.544 217 219 218
0.279253 -0.473021 -0.544 217 219 218
0.282881 -0.47389 -0.545 218 218 218
0.30004 -0.47476 -0.546 211 211 211
0.30108 -0.47476 -0.546 210 210 210
0.307883 -0.47563 -0.547 205 205 205
0.331571 -0.478238 -0.55 185 185 187
0.360364 -0.481716 -0.554 156 156 158
0.367357 -0.482586 -0.555 149 149 151
0.368414 -0.482586 -0.555 147 147 149
0.370916 -0.481716 -0.554 140 140 142
0.373027 -0.481716 -0.554 139 138 143
0.400129 -0.482586 -0.555 110 109 114
0.402243 -0.482586 -0.555 108 107 112
0.404357 -0.482586 -0.555 105 104 109
0.405414 -0.482586 -0.555 106 105 110
0.4255 -0.482586 -0.555 85 85 87
0.4329 -0.482586 -0.555 82 82 84
0.434739 -0.483455 -0.556 79 79 81
0.460267 -0.486933 -0.56 65 64 69
0.466777 -0.490411 -0.564 64 63 68
0.480291 -0.49215 -0.566 59 59 59
0.456007 -0.444327 -0.511 146 101 80
0.4572 -0.441718 -0.508 150 106 81
0.462407 -0.433892 -0.499 150 105 76
0.472853 -0.431284 -0.496 170 124 91
0.477577 -0.431284 -0.496 171 125 92
0.495629 -0.433023 -0.498 166 120 87
0.503277 -0.433892 -0.499 168 119 86
0.505238 -0.434762 -0.5 166 117 84
0.562907 -0.462587 -0.532 22 20 23
-0.0119762 -0.438329 -0.503 189 150 117
-0.00893905 -0.430486 -0.494 192 153 120
-0.00139714 -0.426129 -0.489 191 150 118
0.000464762 -0.425257 -0.488 194 153 121
0.0126 -0.427 -0.49 196 153 119
0.0135333 -0.427 -0.49 196 153 119
0.0163333 -0.427 -0.49 192 149 117
0.033201 -0.427871 -0.491 195 150 119
0.0459133 -0.4331 -0.497 184 140 113
0.04686 -0.4331 -0.497 181 137 112
0.0549809 -0.437457 -0.502 166 121 100
0.0560486 -0.438329 -0.503 163 118 97
0.0603571 -0.441814 -0.507 153 111 89
0.0694257 -0.450529 -0.517 116 89 80
0.0855676 -0.468829 -0.538 94 78 81
0.092741 -0.468829 -0.538 150 150 148
0.1253 -0.467957 -0.537 203 199 196
0.216514 -0.470571 -0.54 216 217 219
0.220007 -0.471443 -0.541 219 221 220
0.221037 -0.471443 -0.541 218 220 219
0.262191 -0.473186 -0.543 215 216 218
0.265783 -0.474057 -0.544 214 216 215
0.269928 -0.474057 -0.544 212 212 212
0.296422 -0.476671 -0.547 199 199 199
0.315283 -0.478414 -0.549 190 188 191
0.322143 -0.479286 -0.55 183 183 185
0.326927 -0.480157 -0.551 179 179 181
0.33654 -0.4819 -0.553 165 165 167
0.35701 -0.485386 -0.557 138 137 142
0.367217 -0.486257 -0.558 124 123 128
0.373594 -0.486257 -0.558 115 114 119
0.377846 -0.486257 -0.558 110 109 114
0.381034 -0.486257 -0.558 106 105 110
0.385976 -0.487129 -0.559 102 101 106
0.387041 -0.487129 -0.559 100 99 104
0.388106 -0.487129 -0.559 98 97 102
0.401249 -0.488871 -0.561 85 84 89
0.41144 -0.484514 -0.556 74 73 78
0.415676 -0.484514 -0.556 70 70 72
0.417794 -0.484514 -0.556 68 68 70
0.424149 -0.484514 -0.556 66 66 68
0.427326 -0.484514 -0.556 66 66 68
0.432621 -0.484514 -0.556 65 65 67
0.436582 -0.485386 -0.557 66 66 68
0.445603 -0.487129 -0.559 61 60 65
0.445869 -0.486257 -0.558 62 61 66
0.446931 -0.486257 -0.558 62 61 66
0.449057 -0.486257 -0.558 61 60 65
0.453056 -0.487129 -0.559 62 61 66
0.458951 -0.488871 -0.561 60 59 64
0.462732 -0.490614 -0.563 60 59 64
0.456753 -0.455757 -0.523 122 87 68
0.460365 -0.438329 -0.503 161 114 84
0.462381 -0.435714 -0.5 156 109 81
0.463377 -0.433971 -0.498 163 116 88
0.464326 -0.433971 -0.498 164 117 89
0.472853 -0.432229 -0.496 171 122 90
0.476632 -0.432229 -0.496 172 126 93
0.498474 -0.433971 -0.498 168 119 86
0.504228 -0.434843 -0.499 169 119 86
0.521003 -0.441814 -0.507 151 110 82
0.533091 -0.447914 -0.514 152 112 86
-0.0119048 -0.436667 -0.5 193 152 120
0.0060419 -0.426187 -0.488 194 151 117
0.0135333 -0.427933 -0.49 198 155 121
0.0154 -0.427933 -0.49 189 146 114
0.0429 -0.4323 -0.495 187 143 114
0.0438429 -0.4323 -0.495 185 141 112
0.0935914 -0.46898 -0.537 127 128 123
0.1253 -0.46898 -0.537 193 202 207
0.200057 -0.4716 -0.54 217 217 217
0.20174 -0.470727 -0.539 217 217 217
0.202767 -0.470727 -0.539 217 217 217
0.206873 -0.470727 -0.539 217 217 217
0.217946 -0.472473 -0.541 217 219 218
0.220413 -0.473347 -0.542 219 219 219
0.23177 -0.473347 -0.542 217 217 217
0.258054 -0.47422 -0.543 204 204 206
0.260602 -0.475093 -0.544 206 206 208
0.261638 -0.475093 -0.544 205 203 206
0.262674 -0.475093 -0.544 205 203 206
0.268348 -0.475967 -0.545 202 200 201
0.276652 -0.475967 -0.545 201 199 202
0.300643 -0.47946 -0.549 188 186 189
0.331872 -0.483827 -0.554 147 145 150
0.364267 -0.489067 -0.56 100 99 104
0.367054 -0.48994 -0.561 97 96 101
0.3948 -0.49256 -0.564 71 70 76
0.409457 -0.490813 -0.562 65 64 70
0.417171 -0.48732 -0.558 64 63 68
0.421113 -0.488193 -0.559 62 61 66
0.422178 -0.488193 -0.559 61 60 65
0.426737 -0.48732 -0.558 61 61 63
0.458699 -0.490813 -0.562 59 58 63
0.466276 -0.494307 -0.566 57 56 61
0.476667 -0.499547 -0.572 57 58 62
0.48222 -0.49518 -0.567 56 55 60
0.47242 -0.482953 -0.553 58 57 62
0.457627 -0.457627 -0.524 118 85 66
0.456874 -0.45588 -0.522 121 88 69
0.45732 -0.452387 -0.518 129 92 73
0.45931 -0.441033 -0.505 156 109 83
0.459407 -0.439287 -0.503 161 111 84
0.461362 -0.438413 -0.502 161 111 84
0.465274 -0.43492 -0.498 167 120 90
0.466233 -0.434047 -0.497 167 120 90
0.46813 -0.433173 -0.496 171 124 94
0.482271 -0.4323 -0.495 165 119 85
0.490804 -0.433173 -0.496 170 121 89
0.491749 -0.433173 -0.496 168 119 87
0.496527 -0.434047 -0.497 170 121 88
0.497473 -0.434047 -0.497 171 121 88
0.520939 -0.441907 -0.506 151 110 82
0.554442 -0.457627 -0.524 31 26 23
-0.0149686 -0.443746 -0.507 187 146 116
-0.0108429 -0.433243 -0.495 192 151 119
-0.007 -0.428867 -0.49 190 151 118
0.00139143 -0.426241 -0.487 196 155 123
0.0284086 -0.427991 -0.489 199 154 123
0.0322 -0.428867 -0.49 194 149 118
0.0331333 -0.428867 -0.49 194 149 118
0.0438429 -0.433243 -0.495 184 140 111
0.0540248 -0.43937 -0.502 165 120 99
0.0581952 -0.441995 -0.505 153 112 94
0.0865924 -0.470878 -0.538 94 75 77
0.0886419 -0.470878 -0.538 101 87 87
0.0896667 -0.470878 -0.538 114 105 106
0.095459 -0.469128 -0.536 160 159 155
0.09648 -0.469128 -0.536 165 164 160
0.10669 -0.469128 -0.536 193 192 187
0.110773 -0.469128 -0.536 197 198 192
0.120983 -0.469128 -0.536 207 205 206
0.1253 -0.470003 -0.537 209 209 217
0.126323 -0.470003 -0.537 210 210 218
0.13246 -0.470003 -0.537 213 214 216
0.142689 -0.470003 -0.537 211 212 214
0.154963 -0.470003 -0.537 218 220 219
0.167549 -0.470878 -0.538 217 217 219
0.176771 -0.470878 -0.538 215 215 213
0.181895 -0.470878 -0.538 219 219 217
0.18942 -0.471753 -0.539 218 218 218
0.220413 -0.474379 -0.542 214 214 214
0.231163 -0.475254 -0.543 211 209 210
0.2353 -0.475254 -0.543 207 205 206
0.26572 -0.47788 -0.546 196 192 193
0.2678 -0.47788 -0.546 193 189 190
0.2735 -0.478755 -0.547 185 183 186
0.279219 -0.47963 -0.548 182 180 185
0.284957 -0.480506 -0.549 176 176 176
0.293342 -0.482256 -0.551 168 166 169
0.299131 -0.483131 -0.552 161 159 164
0.338062 -0.489258 -0.559 99 98 103
0.362138 -0.49451 -0.565 77 76 81
0.366013 -0.495385 -0.566 75 74 79
0.401551 -0.49801 -0.569 64 65 69
0.408027 -0.500636 -0.572 63 64 69
0.411665 -0.497135 -0.568 63 62 68
0.415548 -0.492759 -0.563 61 60 66
0.418346 -0.491009 -0.561 61 60 65
0.431467 -0.490133 -0.56 59 59 61
0.437867 -0.490133 -0.56 59 58 64
0.474488 -0.500636 -0.572 54 55 60
0.456333 -0.453373 -0.518 127 92 72
0.457953 -0.447247 -0.511 143 101 79
0.458291 -0.44287 -0.506 152 106 82
0.459407 -0.440245 -0.503 160 110 83
0.476614 -0.433243 -0.495 170 124 91
0.481329 -0.433243 -0.495 165 119 85
0.4917 -0.433243 -0.495 169 120 88
0.499307 -0.434118 -0.496 171 122 89
0.511974 -0.438494 -0.501 160 117 85
0.529914 -0.446371 -0.51 150 110 84
0.544147 -0.453373 -0.518 128 102 85
-0.00511238 -0.428046 -0.488 191 150 120
0.0106895 -0.428046 -0.488 198 155 123
0.0125743 -0.428923 -0.489 197 154 122
0.0153686 -0.428923 -0.489 194 151 119
0.0163 -0.428923 -0.489 195 152 120
0.0274771 -0.428923 -0.489 200 155 124
0.0378771 -0.430677 -0.491 192 147 116
0.0438429 -0.434186 -0.495 184 139 110
0.0540248 -0.440326 -0.502 165 120 99
0.097501 -0.470149 -0.536 168 167 165
0.0985219 -0.470149 -0.536 170 169 167
0.104843 -0.471026 -0.537 190 187 194
0.112003 -0.471026 -0.537 194 200 198
0.123254 -0.471026 -0.537 205 207 202
0.124277 -0.471026 -0.537 206 208 203
0.127346 -0.471026 -0.537 209 211 210
0.128369 -0.471026 -0.537 212 214 213
0.129391 -0.471026 -0.537 212 214 213
0.130414 -0.471026 -0.537 211 213 212
0.133483 -0.471026 -0.537 212 211 207
0.137574 -0.471026 -0.537 214 215 217
0.141666 -0.471026 -0.537 213 218 221
0.149849 -0.471026 -0.537 215 216 220
0.150871 -0.471026 -0.537 219 220 224
0.158326 -0.471903 -0.538 218 219 211
0.15935 -0.471903 -0.538 220 221 213
0.171648 -0.471903 -0.538 216 218 217
0.174722 -0.471903 -0.538 219 218 213
0.18018 -0.47278 -0.539 216 215 213
0.1925 -0.47278 -0.539 218 217 215
0.194553 -0.47278 -0.539 216 216 216
0.199029 -0.473657 -0.54 216 216 216
0.210732 -0.474534 -0.541 209 209 211
0.218751 -0.476289 -0.543 205 205 207
0.235733 -0.477166 -0.544 200 196 197
0.240319 -0.478043 -0.545 197 193 194
0.24551 -0.478043 -0.545 193 189 190
0.25636 -0.47892 -0.546 184 182 185
0.271363 -0.481551 -0.549 164 162 167
0.273454 -0.481551 -0.549 162 160 165
0.2745 -0.481551 -0.549 161 159 164
0.276591 -0.481551 -0.549 157 155 160
0.27919 -0.482429 -0.55 153 150 157
0.298105 -0.485937 -0.554 128 125 132
0.303417 -0.487691 -0.556 120 117 124
0.304476 -0.487691 -0.556 116 115 120
0.308157 -0.486814 -0.555 108 107 112
0.309214 -0.486814 -0.555 105 104 109
0.313511 -0.488569 -0.557 96 95 100
0.329067 -0.4912 -0.56 81 80 85
0.330723 -0.492077 -0.561 80 79 84
0.331791 -0.492077 -0.561 78 77 82
0.357115 -0.499094 -0.569 72 73 78
0.425199 -0.493831 -0.563 59 58 63
0.428416 -0.493831 -0.563 57 56 61
0.43729 -0.492954 -0.562 55 54 60
0.490004 -0.512251 -0.584 32 31 37
0.489626 -0.506111 -0.577 29 28 34
0.481595 -0.495586 -0.565 29 28 34
0.457705 -0.450851 -0.514 134 92 70
0.458029 -0.447343 -0.51 146 101 78
0.45931 -0.442957 -0.505 155 108 80
0.46718 -0.43594 -0.497 164 119 86
0.467185 -0.435063 -0.496 167 122 89
0.476614 -0.434186 -0.495 167 121 88
0.477557 -0.434186 -0.495 166 120 87
0.480356 -0.433309 -0.494 167 121 87
0.481297 -0.433309 -0.494 167 121 87
0.483179 -0.433309 -0.494 172 126 92
0.490757 -0.434186 -0.495 169 120 88
0.493586 -0.434186 -0.495 168 119 87
0.496472 -0.435063 -0.496 166 117 85
0.497357 -0.434186 -0.495 169 120 88
0.501196 -0.435063 -0.496 169 120 88
0.50796 -0.436817 -0.498 162 117 86
0.52383 -0.443834 -0.506 154 115 86
0.538966 -0.450851 -0.514 153 116 89
-0.0190914 -0.45183 -0.514 186 149 120
-0.000462857 -0.427217 -0.486 195 154 124
0.0051019 -0.428096 -0.487 195 152 120
0.0106895 -0.428975 -0.488 196 153 121
0.0218886 -0.429854 -0.489 193 148 117
0.027421 -0.428975 -0.488 197 152 123
0.0321343 -0.429854 -0.489 190 145 116
0.035 -0.430733 -0.49 191 146 117
0.0398286 -0.432491 -0.492 188 145 113
0.0478067 -0.436887 -0.497 173 129 104
0.0604762 -0.446556 -0.508 143 101 87
0.0810143 -0.47029 -0.535 88 76 76
0.0906914 -0.472928 -0.538 132 128 127
0.0946143 -0.472049 -0.537 161 158 153
0.097501 -0.47117 -0.536 174 168 170
0.104843 -0.472049 -0.537 190 191 183
0.11098 -0.472049 -0.537 197 193 190
0.122231 -0.472049 -0.537 210 206 203
0.140643 -0.472049 -0.537 214 218 221
0.150128 -0.472928 -0.538 218 217 222
0.16345 -0.472928 -0.538 219 215 216
0.164474 -0.472928 -0.538 219 215 214
0.171967 -0.473807 -0.539 210 212 209
0.1771 -0.473807 -0.539 211 209 212
0.182571 -0.474686 -0.54 209 207 210
0.1836 -0.474686 -0.54 209 207 210
0.186686 -0.474686 -0.54 208 203 207
0.191153 -0.475565 -0.541 208 203 209
0.195943 -0.474686 -0.54 209 207 210
0.200798 -0.476444 -0.542 207 205 208
0.21358 -0.477323 -0.543 201 198 205
0.215649 -0.477323 -0.543 200 198 203
0.227862 -0.479081 -0.545 194 189 195
0.235129 -0.479081 -0.545 185 180 184
0.239281 -0.479081 -0.545 180 175 179
0.24076 -0.47996 -0.546 179 174 178
0.24908 -0.47996 -0.546 166 164 167
0.25162 -0.480839 -0.547 162 160 163
0.261951 -0.482597 -0.549 147 142 148
0.268226 -0.482597 -0.549 135 133 138
0.27445 -0.484355 -0.551 121 118 125
0.28598 -0.486113 -0.553 101 100 105
0.293886 -0.48875 -0.556 91 90 95
0.297597 -0.48963 -0.557 87 86 92
0.345193 -0.500178 -0.569 65 66 71
0.346886 -0.501057 -0.57 66 65 71
0.35916 -0.504573 -0.574 65 66 71
0.363533 -0.504573 -0.574 66 67 72
0.375067 -0.509848 -0.58 64 64 72
0.376171 -0.509848 -0.58 64 64 72
0.423566 -0.499299 -0.568 51 50 56
0.424648 -0.499299 -0.568 51 50 56
0.458029 -0.448314 -0.51 142 100 78
0.460271 -0.443919 -0.505 154 108 82
0.469071 -0.435129 -0.495 170 125 92
0.470014 -0.435129 -0.495 169 124 91
0.483179 -0.43425 -0.494 171 125 91
0.486002 -0.43425 -0.494 170 121 88
0.501196 -0.436008 -0.496 165 119 86
0.503086 -0.436008 -0.496 164 117 87
0.525758 -0.444798 -0.506 154 110 85
0.540924 -0.45183 -0.514 147 110 84
-0.0127286 -0.436071 -0.495 190 151 120
-0.00324 -0.428143 -0.486 194 153 121
0.000462857 -0.428143 -0.486 196 155 123
0.035 -0.431667 -0.49 190 145 116
0.0550905 -0.443119 -0.503 154 111 94
0.05616 -0.444 -0.504 152 109 92
0.0604762 -0.447524 -0.508 138 101 82
0.0673257 -0.454571 -0.516 114 87 80
0.0798457 -0.470429 -0.534 90 74 75
0.122459 -0.473952 -0.538 207 207 195
0.132707 -0.473952 -0.538 211 211 209
0.13988 -0.473952 -0.538 213 214 216
0.145004 -0.473952 -0.538 214 214 206
0.151152 -0.473952 -0.538 215 213 216
0.15862 -0.474833 -0.539 211 210 205
0.166114 -0.475714 -0.54 212 206 206
0.167143 -0.475714 -0.54 212 206 208
0.180849 -0.476595 -0.541 203 201 206
0.191507 -0.477476 -0.542 193 188 195
0.192184 -0.476595 -0.541 208 203 209
0.197701 -0.477476 -0.542 204 202 207
0.20634 -0.478357 -0.543 196 194 199
0.208409 -0.478357 -0.543 193 191 196
0.213973 -0.479238 -0.544 188 185 192
0.218519 -0.480119 -0.545 180 178 183
0.221 -0.481 -0.546 177 174 181
0.23556 -0.481 -0.546 158 153 159
0.244773 -0.482762 -0.548 140 138 143
0.246861 -0.482762 -0.548 138 136 141
0.251494 -0.483643 -0.549 129 127 132
0.254048 -0.484524 -0.55 123 121 126
0.263383 -0.486286 -0.552 102 99 106
0.264434 -0.486286 -0.552 102 99 106
0.266537 -0.486286 -0.552 100 97 104
0.271233 -0.487167 -0.553 94 93 99
0.275945 -0.488048 -0.554 84 83 89
0.279614 -0.488929 -0.555 83 82 88
0.282236 -0.48981 -0.556 80 79 85
0.301875 -0.495976 -0.563 78 75 82
0.458307 -0.456333 -0.518 120 91 73
0.461362 -0.442238 -0.502 152 107 78
0.463357 -0.439595 -0.499 161 116 85
0.466233 -0.437833 -0.497 164 117 87
0.477533 -0.43519 -0.494 167 121 87
0.48412 -0.43519 -0.494 173 124 92
0.485061 -0.43519 -0.494 171 122 90
0.491648 -0.43519 -0.494 172 123 91
0.498234 -0.43519 -0.494 163 117 83
0.537767 -0.450167 -0.511 151 110 82
0.543861 -0.45281 -0.514 82 64 54
-0.0107552 -0.433483 -0.491 191 152 121
-0.00695714 -0.429951 -0.487 187 146 116
-0.00601714 -0.429069 -0.486 187 146 116
-0.000461905 -0.428186 -0.485 196 155 123
0.00138571 -0.428186 -0.485 195 154 122
0.00323333 -0.428186 -0.485 193 152 120
0.00508095 -0.428186 -0.485 192 151 119
0.00972 -0.429069 -0.486 198 155 123
0.0162667 -0.430834 -0.488 198 155 123
0.0227733 -0.430834 -0.488 198 153 124
0.0321343 -0.431717 -0.489 189 145 116
0.0457286 -0.437014 -0.495 174 128 105
0.0540248 -0.443194 -0.502 159 113 97
0.0550905 -0.444077 -0.503 154 111 94
0.0898333 -0.47586 -0.539 130 125 121
0.0906914 -0.474977 -0.538 138 133 129
0.102989 -0.474977 -0.538 186 185 183
0.112211 -0.474977 -0.538 197 196 194
0.11631 -0.474977 -0.538 203 202 200
0.121434 -0.474977 -0.538 209 208 206
0.127583 -0.474977 -0.538 212 211 209
0.129632 -0.474977 -0.538 213 212 210
0.145273 -0.47586 -0.539 214 212 213
0.155829 -0.476743 -0.54 212 207 211
0.156857 -0.476743 -0.54 213 208 212
0.160971 -0.476743 -0.54 209 204 208
0.162 -0.476743 -0.54 207 202 206
0.168483 -0.477626 -0.541 200 195 201
0.171574 -0.477626 -0.541 198 193 199
0.173635 -0.477626 -0.541 196 191 197
0.19186 -0.479391 -0.543 168 166 171
0.21229 -0.481157 -0.545 163 161 164
0.226397 -0.484689 -0.549 138 133 139
0.237286 -0.485571 -0.55 115 110 116
0.241476 -0.485571 -0.55 106 104 109
0.245064 -0.486454 -0.551 98 96 101
0.247163 -0.486454 -0.551 95 93 98
0.255433 -0.48822 -0.553 88 85 92
0.275317 -0.491751 -0.557 73 72 78
0.279 -0.492634 -0.558 76 75 81
0.28163 -0.493517 -0.559 76 75 81
0.285333 -0.4944 -0.56 74 73 79
0.306714 -0.503229 -0.57 71 68 75
0.430277 -0.509409 -0.577 8 6 17
0.468014 -0.479391 -0.543 43 34 39
0.461377 -0.464383 -0.526 112 84 73
0.460621 -0.462617 -0.524 114 86 75
0.459197 -0.447609 -0.507 150 104 78
0.462351 -0.442311 -0.501 156 112 83
0.463377 -0.439663 -0.498 163 118 87
0.475651 -0.436131 -0.494 166 117 87
0.481262 -0.435249 -0.493 172 123 91
0.485957 -0.435249 -0.493 165 118 88
0.506865 -0.437897 -0.496 159 116 84
0.50781 -0.437897 -0.496 161 116 87
0.511754 -0.439663 -0.498 156 112 83
0.518654 -0.442311 -0.501 158 117 89
0.541745 -0.452023 -0.512 123 100 84
0.54378 -0.452906 -0.513 92 69 53
-0.00976 -0.431764 -0.488 190 149 119
0.00692857 -0.42911 -0.485 194 151 119
0.0115952 -0.430879 -0.487 197 154 122
0.0245819 -0.430879 -0.487 196 151 122
0.0407657 -0.435303 -0.492 186 140 116
0.0550905 -0.445035 -0.503 154 111 94
0.0583105 -0.44769 -0.506 145 107 88
0.0593914 -0.448574 -0.507 141 104 88
0.0616857 -0.451229 -0.51 131 97 85
0.06498 -0.453883 -0.513 120 90 80
0.078681 -0.471578 -0.533 90 74 74
0.0847 -0.476887 -0.539 85 71 71
0.0888067 -0.476887 -0.539 119 111 109
0.10626 -0.476887 -0.539 190 186 187
0.117335 -0.476002 -0.538 201 200 198
0.131927 -0.476887 -0.539 209 208 206
0.139113 -0.476887 -0.539 208 207 205
0.153771 -0.477771 -0.54 195 190 194
0.159209 -0.478656 -0.541 190 185 191
0.1623 -0.478656 -0.541 184 179 185
0.165697 -0.479541 -0.542 181 176 182
0.16673 -0.479541 -0.542 179 174 180
0.167762 -0.479541 -0.542 177 172 178
0.168794 -0.479541 -0.542 174 169 175
0.17738 -0.480426 -0.543 158 153 160
0.185996 -0.481311 -0.544 142 139 146
0.19396 -0.48308 -0.546 122 119 126
0.20332 -0.48308 -0.546 149 147 152
0.20786 -0.483965 -0.547 139 137 142
0.23184 -0.488389 -0.552 98 97 103
0.234994 -0.488389 -0.552 96 93 100
0.23858 -0.489273 -0.553 91 88 95
0.244288 -0.490158 -0.554 91 88 95
0.252129 -0.491043 -0.555 86 85 91
0.256819 -0.491928 -0.556 85 84 90
0.260464 -0.492812 -0.557 85 84 90
0.2704 -0.495467 -0.56 84 81 88
0.271467 -0.495467 -0.56 82 80 85
0.279431 -0.496351 -0.561 81 80 85
0.295338 -0.50343 -0.569 77 76 81
0.300164 -0.506084 -0.572 77 76 81
0.302871 -0.506969 -0.573 78 77 82
0.450257 -0.546783 -0.618 13 13 23
0.459293 -0.458307 -0.518 119 91 79
0.460039 -0.450344 -0.509 146 102 75
0.469065 -0.437072 -0.494 169 120 88
0.498165 -0.436188 -0.493 160 113 83
0.501998 -0.437072 -0.494 166 121 90
0.502939 -0.437072 -0.494 166 121 90
0.505843 -0.437957 -0.495 162 117 88
0.513651 -0.440611 -0.498 159 115 88
0.523514 -0.44415 -0.502 151 114 87
0.536631 -0.450344 -0.509 151 112 83
0.543695 -0.452998 -0.512 91 74 64
0.0199438 -0.431807 -0.487 196 151 122
0.0245819 -0.431807 -0.487 196 151 122
0.0398286 -0.43624 -0.492 184 140 113
0.0417876 -0.437127 -0.493 182 136 112
0.0467657 -0.439787 -0.496 171 126 105
0.0947905 -0.477027 -0.538 163 159 160
0.0988895 -0.477027 -0.538 178 174 175
0.101964 -0.477027 -0.538 181 177 178
0.112629 -0.4788 -0.54 184 182 183
0.136538 -0.479687 -0.541 190 188 191
0.138599 -0.479687 -0.541 188 186 189
0.142721 -0.479687 -0.541 184 182 185
0.145812 -0.479687 -0.541 182 177 183
0.149934 -0.479687 -0.541 175 170 176
0.156117 -0.479687 -0.541 169 164 170
0.15847 -0.480573 -0.542 162 157 164
0.160831 -0.48146 -0.543 158 153 160
0.1629 -0.48146 -0.543 152 147 154
0.172843 -0.483233 -0.545 131 128 135
0.17524 -0.48412 -0.546 124 121 128
0.192231 -0.485007 -0.547 98 95 104
0.20862 -0.48678 -0.549 102 99 106
0.212143 -0.487667 -0.55 96 93 100
0.217776 -0.488553 -0.551 96 93 100
0.219223 -0.48944 -0.552 94 91 98
0.228459 -0.491213 -0.554 90 87 94
0.229514 -0.491213 -0.554 89 88 94
0.232043 -0.4921 -0.555 89 88 94
0.24561 -0.493873 -0.557 87 84 93
0.256533 -0.496533 -0.56 85 84 90
0.261266 -0.49742 -0.561 83 82 88
0.268631 -0.499193 -0.563 79 76 83
0.283 -0.501853 -0.566 80 79 85
0.286164 -0.503627 -0.568 81 80 86
0.287751 -0.504513 -0.569 79 78 84
0.295231 -0.50806 -0.573 79 78 84
0.47386 -0.488553 -0.551 9 11 23
0.460851 -0.46284 -0.522 114 86 75
0.460039 -0.451313 -0.509 145 101 76
0.460219 -0.448653 -0.506 149 101 79
0.460271 -0.447767 -0.505 150 102 80
0.46032 -0.44688 -0.504 149 103 79
0.46718 -0.440673 -0.497 167 118 86
0.468129 -0.4389 -0.495 165 116 84
0.472829 -0.438013 -0.494 165 116 86
0.47375 -0.437127 -0.493 165 116 86
0.490594 -0.43624 -0.492 169 122 92
0.491531 -0.43624 -0.492 169 122 92
0.497154 -0.43624 -0.492 163 118 87
0.515549 -0.44156 -0.498 159 115 90
0.52848 -0.44688 -0.504 148 108 82
-0.0207629 -0.450506 -0.507 191 147 120
-0.011619 -0.433623 -0.488 190 151 120
0.00322667 -0.430069 -0.484 193 150 118
0.0162333 -0.432734 -0.487 195 151 122
0.017161 -0.432734 -0.487 194 150 121
0.0180886 -0.432734 -0.487 195 150 121
0.021799 -0.432734 -0.487 200 155 126
0.0255095 -0.432734 -0.487 193 148 119
0.02922 -0.432734 -0.487 186 141 112
0.0329981 -0.433623 -0.488 192 146 120
0.0349286 -0.434511 -0.489 189 145 118
0.0388124 -0.436289 -0.491 188 142 116
0.0478067 -0.44162 -0.497 168 123 102
0.05616 -0.44784 -0.504 152 109 93
0.0572333 -0.448729 -0.505 145 107 96
0.0605952 -0.452283 -0.509 131 95 83
0.0858857 -0.479829 -0.54 78 68 66
0.0929133 -0.47894 -0.539 141 135 137
0.101127 -0.47894 -0.539 160 156 157
0.135758 -0.481606 -0.542 163 160 167
0.153591 -0.482494 -0.543 124 122 127
0.160386 -0.484271 -0.545 114 111 118
0.173794 -0.486937 -0.548 98 95 102
0.176926 -0.486937 -0.548 96 93 100
0.19119 -0.488714 -0.55 94 91 100
0.196429 -0.488714 -0.55 90 87 96
0.197476 -0.488714 -0.55 89 86 95
0.227166 -0.494046 -0.556 88 85 94
0.229696 -0.494934 -0.557 89 86 95
0.258366 -0.501154 -0.564 83 82 88
0.264672 -0.502931 -0.566 82 81 87
0.272099 -0.504709 -0.568 80 79 85
0.2774 -0.506486 -0.57 79 78 84
0.286 -0.508263 -0.572 75 74 82
0.29028 -0.51004 -0.574 68 68 76
0.291881 -0.510929 -0.575 66 66 74
0.309743 -0.520703 -0.586 49 49 57
0.377786 -0.546471 -0.615 15 13 24
0.417113 -0.55358 -0.623 12 12 22
0.419998 -0.552691 -0.622 12 12 22
0.431046 -0.556246 -0.626 12 12 22
0.43343 -0.556246 -0.626 11 11 21
0.437208 -0.558023 -0.628 12 12 22
0.461433 -0.564243 -0.635 13 11 22
0.469382 -0.480717 -0.541 40 37 44
0.461067 -0.462057 -0.52 114 87 76
0.459971 -0.453171 -0.51 142 100 76
0.466233 -0.44162 -0.497 163 116 86
0.472829 -0.438954 -0.494 163 114 82
