ply
format ascii 1.0
comment Created by Open3D
element vertex 1284
property double x
property double y
property double z
property uchar red
property uchar green
property uchar blue
end_header
0.453056 -0.110203 -0.559 179 129 118
0.300845 -0.121618 -0.611 175 147 159
0.312107 -0.121021 -0.608 182 156 165
0.330703 -0.120623 -0.606 199 171 183
0.338224 -0.120424 -0.605 195 167 179
0.365881 -0.120424 -0.605 175 149 160
0.368186 -0.120424 -0.605 181 158 168
0.387383 -0.121021 -0.608 182 159 169
0.40392 -0.121817 -0.612 171 148 154
0.40435 -0.116244 -0.584 204 160 159
0.404758 -0.113855 -0.572 189 141 131
0.4066 -0.113457 -0.57 185 137 127
0.407337 -0.113059 -0.568 192 144 134
0.429155 -0.11087 -0.557 204 158 145
0.44613 -0.11087 -0.557 194 144 137
0.3055 -0.122782 -0.611 185 155 163
0.3103 -0.12238 -0.609 182 151 159
0.324931 -0.121777 -0.606 189 163 174
0.334166 -0.121777 -0.606 195 169 178
0.363576 -0.121576 -0.605 184 158 169
0.364729 -0.121576 -0.605 177 151 162
0.405086 -0.122983 -0.612 165 138 145
0.41233 -0.113136 -0.563 188 140 130
0.41514 -0.112734 -0.561 189 141 131
0.416209 -0.112734 -0.561 189 141 131
0.428094 -0.11193 -0.557 203 157 144
0.464877 -0.113136 -0.563 177 125 112
0.303202 -0.129423 -0.638 109 88 93
0.307324 -0.123743 -0.61 186 156 164
0.39382 -0.12354 -0.609 180 154 163
0.39614 -0.12354 -0.609 182 156 165
0.406751 -0.123946 -0.611 157 126 134
0.409079 -0.123946 -0.611 143 110 117
0.406255 -0.115223 -0.568 187 139 129
0.409113 -0.114209 -0.563 189 141 131
0.418667 -0.1136 -0.56 193 145 135
0.426267 -0.112789 -0.556 204 156 144
0.429444 -0.112789 -0.556 206 160 147
0.430786 -0.112586 -0.555 207 161 148
0.462157 -0.113803 -0.561 176 124 111
0.347443 -0.123471 -0.603 199 173 184
0.34974 -0.123471 -0.603 203 175 187
0.363523 -0.123471 -0.603 177 151 162
0.36582 -0.123471 -0.603 172 149 159
0.37333 -0.123676 -0.604 178 152 163
0.38559 -0.12429 -0.607 185 159 170
0.388541 -0.124495 -0.608 182 156 167
0.40379 -0.118762 -0.58 199 155 152
0.418984 -0.114462 -0.559 197 149 139
0.431843 -0.113643 -0.555 202 156 141
0.437396 -0.113438 -0.554 200 152 138
0.467263 -0.115076 -0.562 177 128 113
0.300123 -0.129993 -0.629 87 73 88
0.304834 -0.12648 -0.612 74 55 61
0.313265 -0.125653 -0.608 194 167 176
0.31916 -0.12524 -0.606 193 166 175
0.353186 -0.12462 -0.603 201 173 185
0.356631 -0.12462 -0.603 186 160 171
0.361226 -0.12462 -0.603 184 158 169
0.39962 -0.12586 -0.609 183 157 166
0.40774 -0.12586 -0.609 146 113 122
0.40662 -0.11718 -0.567 192 144 134
0.411934 -0.11594 -0.561 193 145 135
0.421423 -0.11532 -0.558 199 151 139
0.424149 -0.114907 -0.556 202 154 140
0.4345 -0.114287 -0.553 206 160 145
0.304834 -0.127646 -0.612 88 69 75
0.323777 -0.126394 -0.606 191 165 176
0.3267 -0.126186 -0.605 190 164 175
0.330762 -0.125977 -0.604 187 161 170
0.393173 -0.126811 -0.608 179 151 163
0.405173 -0.118469 -0.568 185 137 127
0.408041 -0.117426 -0.563 194 146 136
0.427614 -0.115757 -0.555 202 156 141
0.431065 -0.115549 -0.554 205 159 144
0.441074 -0.115131 -0.552 199 151 137
0.44714 -0.11534 -0.553 194 145 128
0.463704 -0.116591 -0.559 174 124 113
0.299633 -0.131127 -0.623 55 42 51
0.31081 -0.12839 -0.61 78 59 65
0.334213 -0.127128 -0.604 189 161 173
0.344573 -0.126707 -0.602 198 172 183
0.34572 -0.126707 -0.602 194 168 177
0.3698 -0.126707 -0.602 173 145 157
0.375009 -0.126917 -0.603 173 145 157
0.379082 -0.127128 -0.604 183 155 167
0.384954 -0.127549 -0.606 183 155 167
0.392015 -0.12797 -0.608 179 151 163
0.402438 -0.12797 -0.608 174 144 152
0.40707 -0.12797 -0.608 148 110 121
0.402966 -0.122497 -0.582 205 161 158
0.404758 -0.120392 -0.572 189 141 131
0.405903 -0.11913 -0.566 190 142 132
0.418234 -0.117446 -0.558 196 148 136
0.42036 -0.117446 -0.558 196 148 136
0.427614 -0.116814 -0.555 200 154 141
0.441325 -0.115972 -0.551 199 150 136
0.442374 -0.115972 -0.551 197 148 134
0.308835 -0.13019 -0.613 108 95 104
0.3161 -0.12934 -0.609 73 52 57
0.334213 -0.128278 -0.604 195 167 179
0.34629 -0.127641 -0.601 195 169 178
0.347435 -0.127641 -0.601 198 172 183
0.353159 -0.127641 -0.601 200 174 185
0.355449 -0.127641 -0.601 175 149 160
0.365751 -0.127641 -0.601 173 147 158
0.380862 -0.12849 -0.605 185 159 170
0.393683 -0.128915 -0.607 182 156 167
0.40062 -0.128915 -0.607 176 149 158
0.405245 -0.128915 -0.607 152 119 128
0.406401 -0.128915 -0.607 149 112 120
0.408713 -0.128915 -0.607 135 101 102
0.402893 -0.121907 -0.574 187 143 134
0.408387 -0.119358 -0.562 197 149 139
0.4112 -0.118933 -0.56 195 147 137
0.4144 -0.118933 -0.56 194 146 136
0.426844 -0.117659 -0.554 204 158 145
0.440275 -0.117022 -0.551 202 154 140
0.458271 -0.117871 -0.555 173 122 105
0.463937 -0.118509 -0.558 172 121 117
0.473686 -0.119358 -0.562 171 123 111
0.307142 -0.132643 -0.619 50 40 49
0.311014 -0.131786 -0.615 103 91 95
0.3161 -0.1305 -0.609 80 63 69
0.329005 -0.129643 -0.605 193 163 171
0.332462 -0.129643 -0.605 194 168 177
0.338254 -0.129214 -0.603 212 186 195
0.339403 -0.129214 -0.603 208 182 191
0.339987 -0.129 -0.602 208 182 191
0.348 -0.128571 -0.6 201 175 184
0.352571 -0.128571 -0.6 206 180 191
0.356 -0.128571 -0.6 183 155 167
0.363462 -0.128786 -0.601 177 146 161
0.393034 -0.129857 -0.606 188 161 168
0.405245 -0.130071 -0.607 149 118 124
0.406886 -0.129857 -0.606 140 109 115
0.40401 -0.126429 -0.59 208 167 171
0.402398 -0.123857 -0.578 198 157 155
0.406617 -0.120857 -0.564 197 149 137
0.408041 -0.120643 -0.563 197 149 135
0.417171 -0.119571 -0.558 196 148 138
0.437381 -0.117857 -0.55 205 157 143
0.440524 -0.117857 -0.55 207 158 143
0.44681 -0.117857 -0.55 191 142 125
0.451589 -0.118286 -0.552 187 138 121
0.476673 -0.120643 -0.563 172 124 112
0.479443 -0.121071 -0.565 172 125 115
0.321371 -0.131444 -0.608 78 59 65
0.335364 -0.130579 -0.604 178 152 161
0.335957 -0.130363 -0.603 179 156 164
0.338254 -0.130363 -0.603 195 172 180
0.380232 -0.130579 -0.604 184 156 168
0.393538 -0.130795 -0.605 183 156 165
0.39996 -0.131011 -0.606 175 145 153
0.405731 -0.131011 -0.606 145 112 119
0.407367 -0.130795 -0.605 136 100 102
0.406963 -0.12993 -0.601 129 93 97
0.401167 -0.125607 -0.581 203 161 163
0.420971 -0.120202 -0.556 201 153 141
0.42818 -0.119553 -0.553 205 157 143
0.431611 -0.119337 -0.552 206 158 144
0.433978 -0.119121 -0.551 206 158 144
0.436333 -0.118905 -0.55 206 158 144
0.30806 -0.138054 -0.633 85 76 93
0.324311 -0.132384 -0.607 80 57 63
0.326086 -0.132166 -0.606 82 61 66
0.34228 -0.131293 -0.602 208 182 191
0.374387 -0.131293 -0.602 183 155 167
0.406493 -0.131293 -0.602 134 95 100
0.401437 -0.12715 -0.583 206 162 163
0.399909 -0.125623 -0.576 195 150 145
0.404825 -0.123442 -0.566 195 147 137
0.412595 -0.121915 -0.559 192 144 132
0.416109 -0.121697 -0.558 198 150 138
0.43554 -0.119734 -0.549 204 156 142
0.436586 -0.119734 -0.549 202 154 140
0.448905 -0.119952 -0.55 184 137 121
0.465671 -0.121043 -0.555 172 124 110
0.47244 -0.121697 -0.558 174 126 112
0.31122 -0.14014 -0.637 77 68 87
0.326624 -0.13354 -0.607 83 62 67
0.343427 -0.13244 -0.602 194 168 179
0.380751 -0.13266 -0.603 190 162 174
0.387643 -0.13266 -0.603 186 160 171
0.388791 -0.13266 -0.603 184 158 169
0.403242 -0.13288 -0.604 150 118 123
0.404392 -0.13288 -0.604 145 113 118
0.405609 -0.13178 -0.599 123 86 93
0.407316 -0.12364 -0.562 192 144 134
0.41153 -0.12298 -0.559 192 144 132
0.439966 -0.12056 -0.548 203 157 144
0.334166 -0.134474 -0.606 79 60 64
0.335919 -0.134252 -0.605 81 60 65
0.338815 -0.13403 -0.604 104 81 89
0.34228 -0.133587 -0.602 140 117 125
0.354266 -0.132921 -0.599 193 167 178
0.363393 -0.132921 -0.599 184 158 169
0.391089 -0.133809 -0.603 182 155 164
0.402091 -0.13403 -0.604 158 126 131
0.404254 -0.132477 -0.597 157 117 125
0.413983 -0.123823 -0.558 198 150 138
0.421568 -0.122935 -0.554 202 154 144
0.427681 -0.12227 -0.551 203 155 143
0.427952 -0.122048 -0.55 206 158 146
0.43319 -0.122048 -0.55 207 159 145
0.436586 -0.121826 -0.549 204 156 142
0.440205 -0.121382 -0.547 203 157 142
0.467998 -0.122935 -0.554 170 122 110
0.482035 -0.124932 -0.563 166 120 107
0.315847 -0.145252 -0.649 77 69 92
0.320117 -0.141671 -0.633 84 77 93
0.320666 -0.140329 -0.627 57 46 63
0.322329 -0.138986 -0.621 51 40 54
0.335873 -0.135852 -0.607 76 57 61
0.338224 -0.135405 -0.605 75 54 59
0.354813 -0.133838 -0.598 192 166 177
0.367957 -0.134062 -0.599 188 160 172
0.372 -0.134286 -0.6 190 162 174
0.376054 -0.13451 -0.601 187 159 171
0.403529 -0.13451 -0.601 138 106 111
0.402675 -0.132719 -0.593 200 159 165
0.400468 -0.127348 -0.569 193 144 137
0.408336 -0.12511 -0.559 197 149 139
0.41292 -0.124886 -0.558 200 152 142
0.413983 -0.124886 -0.558 201 153 143
0.430311 -0.122871 -0.549 205 157 143
0.433449 -0.122871 -0.549 204 156 142
0.436834 -0.122648 -0.548 201 153 139
0.449582 -0.122424 -0.547 186 137 120
0.324405 -0.141071 -0.625 50 42 57
0.327186 -0.139717 -0.619 49 41 54
0.328586 -0.138814 -0.615 53 41 53
0.33048 -0.138137 -0.612 70 56 69
0.338186 -0.137009 -0.607 80 59 64
0.338783 -0.136783 -0.606 81 60 65
0.343997 -0.136106 -0.603 78 57 64
0.348013 -0.13588 -0.602 164 138 147
0.352014 -0.135654 -0.601 198 172 181
0.35937 -0.134977 -0.598 187 159 171
0.374286 -0.135429 -0.6 188 160 172
0.381778 -0.135654 -0.601 190 162 174
0.395027 -0.13588 -0.602 175 145 153
0.402574 -0.136106 -0.603 154 121 128
0.400154 -0.132269 -0.586 202 158 157
0.414302 -0.125723 -0.557 198 150 140
0.42481 -0.124143 -0.55 201 153 141
0.43579 -0.123691 -0.548 204 156 142
0.436037 -0.123466 -0.547 202 154 140
0.456667 -0.123691 -0.548 175 128 112
0.327679 -0.143172 -0.629 54 45 62
0.33083 -0.140441 -0.617 47 36 52
0.33273 -0.139758 -0.614 54 43 57
0.352014 -0.136799 -0.601 191 166 172
0.361648 -0.136116 -0.598 185 157 169
0.363317 -0.135889 -0.597 186 158 170
0.37138 -0.136344 -0.599 189 161 173
0.384571 -0.136571 -0.6 184 157 166
0.39732 -0.137027 -0.602 174 143 149
0.398467 -0.137027 -0.602 170 139 147
0.398221 -0.130198 -0.572 196 147 140
0.398612 -0.12997 -0.571 197 146 142
0.407271 -0.127239 -0.559 195 147 137
0.422433 -0.125418 -0.551 200 152 138
0.42481 -0.12519 -0.55 200 152 140
0.426905 -0.12519 -0.55 203 155 143
0.45084 -0.12428 -0.546 181 134 118
0.464619 -0.12519 -0.55 169 122 106
0.471367 -0.125873 -0.553 168 120 106
0.475186 -0.126329 -0.555 171 123 111
0.477959 -0.126784 -0.557 172 124 112
0.329662 -0.148502 -0.647 57 49 70
0.336786 -0.141157 -0.615 57 47 56
0.3434 -0.139091 -0.606 80 61 65
0.374803 -0.137485 -0.599 184 157 166
0.382286 -0.137714 -0.6 183 153 161
0.398467 -0.138173 -0.602 169 137 142
0.401307 -0.136796 -0.596 170 125 128
0.403034 -0.128992 -0.562 196 147 140
0.411119 -0.127845 -0.557 201 153 143
0.437557 -0.12509 -0.545 199 153 140
0.440899 -0.124861 -0.544 199 151 137
0.451052 -0.12509 -0.545 176 128 114
0.469662 -0.126468 -0.551 170 122 110
0.333557 -0.149271 -0.645 54 46 61
0.333748 -0.148809 -0.643 55 47 62
0.341529 -0.141866 -0.613 61 50 58
0.34917 -0.139783 -0.604 79 56 62
0.357091 -0.138394 -0.598 192 166 175
0.35823 -0.138394 -0.598 191 165 174
0.361648 -0.138394 -0.598 193 167 178
0.376455 -0.138394 -0.598 175 148 157
0.391429 -0.138857 -0.6 168 137 145
0.395515 -0.139089 -0.601 166 135 141
0.39996 -0.137469 -0.594 212 168 169
0.3976 -0.131451 -0.568 201 151 144
0.414181 -0.128211 -0.554 197 149 137
0.416891 -0.127749 -0.552 197 149 137
0.431615 -0.126823 -0.548 199 151 137
0.43628 -0.12636 -0.546 199 151 137
0.44526 -0.125666 -0.543 194 146 132
0.470711 -0.127517 -0.551 171 121 110
0.336143 -0.151667 -0.65 51 44 60
0.337593 -0.149567 -0.641 52 43 60
0.338814 -0.149567 -0.641 52 43 60
0.339409 -0.1477 -0.633 57 49 64
0.355449 -0.140233 -0.601 98 79 85
0.356548 -0.139767 -0.599 174 153 158
0.359906 -0.1393 -0.597 191 165 174
0.377594 -0.139533 -0.598 174 147 156
0.381011 -0.139533 -0.598 178 151 160
0.388494 -0.139767 -0.599 167 138 143
0.396 -0.14 -0.6 168 137 143
0.394551 -0.1337 -0.573 203 155 151
0.394262 -0.133233 -0.571 201 153 149
0.399462 -0.131367 -0.563 198 149 142
0.400893 -0.131133 -0.562 201 152 145
0.409322 -0.129733 -0.556 200 152 142
0.429528 -0.127867 -0.548 200 152 138
0.451466 -0.1267 -0.543 176 128 114
0.46521 -0.127633 -0.547 172 123 109
0.343546 -0.151258 -0.643 55 46 63
0.343162 -0.150552 -0.64 51 42 59
0.346108 -0.145142 -0.617 50 42 53
0.357143 -0.141143 -0.6 102 81 86
0.35883 -0.140908 -0.599 173 151 154
0.363317 -0.140437 -0.597 176 149 158
0.381511 -0.140437 -0.597 178 151 160
0.393571 -0.134086 -0.57 197 149 145
0.40018 -0.131969 -0.561 198 149 142
0.404753 -0.131028 -0.557 197 149 139
0.41207 -0.130322 -0.554 198 150 140
0.41238 -0.130087 -0.553 198 150 140
0.434443 -0.128205 -0.545 197 150 134
0.441343 -0.127499 -0.542 198 150 136
0.455603 -0.127734 -0.543 174 125 111
0.462471 -0.128205 -0.545 173 121 107
0.349534 -0.147266 -0.621 57 46 62
0.358286 -0.142286 -0.6 79 58 63
0.37179 -0.141337 -0.596 172 145 154
0.39563 -0.141337 -0.596 163 132 137
0.3961 -0.1411 -0.595 156 125 130
0.393053 -0.13612 -0.574 201 156 151
0.396576 -0.133986 -0.565 200 151 144
0.398752 -0.133274 -0.562 201 152 145
0.40785 -0.131377 -0.554 197 150 140
0.44259 -0.128294 -0.541 200 152 138
-0.100594 -0.154903 -0.648 196 193 186
0.352759 -0.150839 -0.631 57 46 62
0.353695 -0.14821 -0.62 55 51 68
0.353781 -0.146775 -0.614 48 45 62
0.358883 -0.143668 -0.601 76 55 62
0.360028 -0.143668 -0.601 77 56 63
0.368385 -0.142472 -0.596 182 155 164
0.376833 -0.142233 -0.595 178 148 156
0.39336 -0.142472 -0.596 165 133 138
0.39258 -0.13554 -0.567 201 154 148
0.403354 -0.133389 -0.558 195 147 137
0.406471 -0.132671 -0.555 201 153 143
0.40922 -0.132193 -0.553 200 153 143
0.414333 -0.131476 -0.55 195 149 136
0.415671 -0.131237 -0.549 191 143 131
0.435951 -0.129803 -0.543 193 147 131
0.44031 -0.129564 -0.542 197 150 134
0.445886 -0.129086 -0.54 191 143 129
0.452894 -0.129325 -0.541 182 131 114
0.463695 -0.130042 -0.544 176 123 107
0.46852 -0.13052 -0.546 173 120 102
0.47042 -0.130759 -0.547 173 120 104
-0.104297 -0.156137 -0.648 193 192 187
-0.102904 -0.155896 -0.647 194 194 186
0.356571 -0.15421 -0.64 47 40 56
0.357206 -0.149872 -0.622 52 48 63
0.35729 -0.147945 -0.614 48 40 53
0.357875 -0.147704 -0.613 53 45 58
0.362787 -0.14409 -0.598 105 82 88
0.363926 -0.14409 -0.598 155 128 137
0.380233 -0.143367 -0.595 178 148 156
0.383633 -0.143367 -0.595 166 136 144
0.396245 -0.135656 -0.563 197 149 139
0.407429 -0.133006 -0.552 199 153 140
0.409531 -0.133006 -0.552 198 150 138
0.438246 -0.130596 -0.542 193 145 131
0.444857 -0.130114 -0.54 196 148 134
0.445886 -0.130114 -0.54 195 147 133
0.458047 -0.130355 -0.541 179 126 112
0.460958 -0.130596 -0.542 176 123 109
0.467662 -0.131319 -0.545 174 118 103
0.471462 -0.131801 -0.547 172 116 103
0.472504 -0.131801 -0.547 180 120 109
-0.105369 -0.157129 -0.647 191 191 183
-0.104136 -0.157129 -0.647 193 193 185
-0.102904 -0.157129 -0.647 194 194 186
-0.097041 -0.157614 -0.649 198 195 186
0.356672 -0.154943 -0.638 55 48 64
0.35693 -0.153486 -0.632 54 45 62
0.35729 -0.149114 -0.614 48 40 53
0.360627 -0.1462 -0.602 78 57 66
0.371167 -0.1445 -0.595 183 156 165
0.371674 -0.144257 -0.594 179 149 157
0.372806 -0.144257 -0.594 178 148 156
0.377331 -0.144257 -0.594 180 150 158
0.39204 -0.144257 -0.594 171 136 142
0.393437 -0.143529 -0.591 172 137 141
0.391548 -0.139643 -0.575 210 166 163
0.3955 -0.137214 -0.565 196 149 141
0.399467 -0.136 -0.56 201 153 143
0.400883 -0.135757 -0.559 194 146 136
0.403354 -0.135514 -0.558 196 148 138
0.417283 -0.132843 -0.547 190 142 128
0.42484 -0.1326 -0.546 191 145 130
0.432367 -0.132357 -0.545 196 149 133
0.437213 -0.131629 -0.542 194 148 133
-0.106436 -0.158116 -0.646 191 191 183
0.361354 -0.157137 -0.642 51 47 62
0.3604 -0.155669 -0.636 56 48 63
0.361172 -0.154445 -0.631 59 48 64
0.360651 -0.15371 -0.628 59 48 64
0.360695 -0.153221 -0.626 58 47 63
0.360771 -0.149305 -0.61 60 54 68
0.377331 -0.145389 -0.594 182 152 160
0.378463 -0.145389 -0.594 178 148 156
0.382989 -0.145389 -0.594 171 140 148
0.391186 -0.144654 -0.591 167 132 136
0.392106 -0.144165 -0.589 208 169 174
0.3948 -0.138046 -0.564 197 149 139
0.399467 -0.137067 -0.56 201 153 143
0.405414 -0.135843 -0.555 200 152 140
0.40606 -0.135353 -0.553 201 153 141
0.43261 -0.13315 -0.544 194 148 132
0.435376 -0.132416 -0.541 194 148 133
0.44506 -0.131927 -0.539 193 145 131
0.447113 -0.131927 -0.539 194 147 131
0.466804 -0.13315 -0.544 173 117 104
0.364619 -0.160333 -0.65 52 45 63
0.36369 -0.154167 -0.625 55 51 65
0.36312 -0.15096 -0.612 59 49 60
0.367866 -0.14726 -0.597 104 87 95
0.380085 -0.146273 -0.593 168 137 152
0.388465 -0.146027 -0.592 171 134 142
0.390557 -0.1443 -0.585 206 167 160
0.390332 -0.143807 -0.583 206 165 161
0.3901 -0.143313 -0.581 209 168 164
0.389357 -0.141833 -0.575 210 166 165
0.41119 -0.135667 -0.55 201 153 139
0.415199 -0.134927 -0.547 195 147 133
0.427429 -0.134187 -0.544 197 150 134
0.43078 -0.13394 -0.543 199 150 135
0.432051 -0.133693 -0.542 196 148 134
0.461138 -0.133447 -0.541 176 125 108
0.464055 -0.133693 -0.542 172 120 106
0.46698 -0.13394 -0.543 167 115 102
0.479286 -0.135667 -0.55 172 118 106
0.48208 -0.13616 -0.552 171 117 105
-0.113819 -0.160577 -0.646 188 188 180
-0.112589 -0.160577 -0.646 189 189 181
0.366087 -0.153369 -0.617 59 51 64
0.369003 -0.148397 -0.597 81 62 68
0.379444 -0.147154 -0.592 170 136 150
0.382827 -0.147154 -0.592 169 136 147
0.388276 -0.146657 -0.59 195 156 159
0.39447 -0.139697 -0.562 198 151 141
0.3984 -0.1392 -0.56 198 151 141
0.412827 -0.136217 -0.548 191 143 129
0.414157 -0.135969 -0.547 193 145 131
0.42068 -0.13572 -0.546 191 144 128
0.426138 -0.135471 -0.545 195 148 132
0.436847 -0.13398 -0.539 194 147 131
0.437873 -0.13398 -0.539 195 148 132
0.446477 -0.133483 -0.537 195 144 127
0.463199 -0.134477 -0.541 174 121 107
0.46612 -0.134726 -0.542 171 118 104
-0.11628 -0.161808 -0.646 187 187 179
-0.10856 -0.161307 -0.644 191 193 182
-0.103814 -0.161557 -0.645 194 194 186
-0.101671 -0.162058 -0.647 198 195 188
0.368452 -0.155045 -0.619 60 53 69
0.38742 -0.14703 -0.587 215 174 178
0.388086 -0.144775 -0.578 209 168 164
0.387736 -0.143022 -0.571 210 165 160
0.393726 -0.141269 -0.564 201 152 145
0.39447 -0.140768 -0.562 200 152 142
0.400166 -0.139766 -0.558 201 153 143
0.409095 -0.137762 -0.55 198 150 138
0.426392 -0.136259 -0.544 199 152 136
0.432051 -0.135758 -0.542 199 152 136
0.434346 -0.135508 -0.541 198 149 132
0.462343 -0.135257 -0.54 176 123 107
0.4758 -0.13676 -0.546 175 122 108
-0.109787 -0.162533 -0.644 191 193 182
0.3772 -0.162533 -0.644 55 51 68
0.38248 -0.1484 -0.588 201 165 167
0.3861 -0.147643 -0.585 216 174 176
0.395906 -0.141586 -0.561 198 151 143
0.397333 -0.141333 -0.56 197 150 142
0.409695 -0.138305 -0.548 195 146 132
0.42172 -0.1378 -0.546 191 142 127
0.426392 -0.137295 -0.544 197 150 134
0.432285 -0.136538 -0.541 199 152 134
0.450086 -0.134771 -0.534 187 138 121
0.370239 -0.152317 -0.599 47 26 33
0.386378 -0.144689 -0.569 207 160 154
0.38826 -0.14418 -0.567 202 155 149
0.390503 -0.143417 -0.564 202 153 146
0.391577 -0.143417 -0.564 202 153 146
0.394837 -0.142654 -0.561 202 154 144
0.395906 -0.142654 -0.561 200 151 144
0.4033 -0.141129 -0.555 196 146 137
0.413115 -0.139094 -0.547 191 142 127
0.414157 -0.139094 -0.547 192 143 128
0.418871 -0.138586 -0.545 193 141 127
0.423284 -0.138331 -0.544 199 147 133
0.425356 -0.138331 -0.544 198 147 130
0.426392 -0.138331 -0.544 198 149 132
0.447034 -0.135789 -0.534 194 147 127
0.453986 -0.136043 -0.535 189 141 121
0.458751 -0.136551 -0.537 180 129 110
0.473186 -0.138077 -0.543 171 119 105
0.384429 -0.166524 -0.65 56 52 67
0.377991 -0.160631 -0.627 59 52 68
0.37178 -0.15602 -0.609 52 34 46
0.370947 -0.154227 -0.602 45 24 33
0.372178 -0.151921 -0.593 202 166 166
0.375914 -0.151152 -0.59 205 166 167
0.386781 -0.145516 -0.568 202 155 149
0.397333 -0.143467 -0.56 199 151 141
0.40051 -0.142698 -0.557 198 148 137
0.402968 -0.142442 -0.556 194 144 133
0.404357 -0.142186 -0.555 195 145 134
0.405952 -0.140905 -0.55 189 140 126
0.413115 -0.140136 -0.547 194 142 128
0.41991 -0.139624 -0.545 195 144 127
0.433543 -0.138343 -0.54 200 151 134
0.436249 -0.137574 -0.537 200 151 134
0.444167 -0.13655 -0.533 194 147 129
0.45212 -0.136806 -0.534 189 141 118
0.457897 -0.137318 -0.536 183 135 113
0.460797 -0.137574 -0.537 177 126 109
0.465593 -0.138087 -0.539 180 128 114
0.470412 -0.138599 -0.541 171 119 105
-0.104136 -0.166988 -0.647 195 195 185
0.387546 -0.167504 -0.649 55 48 64
0.378947 -0.151244 -0.586 215 174 172
0.382559 -0.15047 -0.583 218 175 169
0.385971 -0.147114 -0.57 207 160 154
0.387575 -0.146082 -0.566 199 150 143
0.390503 -0.145566 -0.564 200 150 139
0.392651 -0.145566 -0.564 201 151 140
0.396267 -0.144533 -0.56 200 150 139
0.418871 -0.140662 -0.545 194 143 126
0.423284 -0.140404 -0.544 196 147 130
0.42432 -0.140404 -0.544 199 148 131
0.456024 -0.138081 -0.535 191 143 121
0.459939 -0.138339 -0.536 176 128 108
0.469543 -0.139371 -0.54 174 121 107
0.381449 -0.15158 -0.583 217 174 168
0.382581 -0.15028 -0.578 208 157 153
0.385294 -0.14794 -0.569 208 161 155
0.40157 -0.14482 -0.557 196 147 133
0.406377 -0.14352 -0.552 186 134 120
0.412073 -0.14222 -0.547 187 135 121
0.433987 -0.13988 -0.538 206 155 138
0.453304 -0.13858 -0.533 185 137 117
0.470571 -0.1404 -0.54 171 119 105
-0.118006 -0.168143 -0.642 187 187 177
-0.105206 -0.16919 -0.646 195 192 183
0.388862 -0.168405 -0.643 48 42 56
0.380966 -0.163952 -0.626 136 104 105
0.381919 -0.151119 -0.577 208 159 154
0.384473 -0.149548 -0.571 208 160 150
0.385699 -0.148762 -0.568 201 153 143
0.38718 -0.1485 -0.567 200 150 141
0.393769 -0.146929 -0.561 201 151 142
0.397689 -0.146405 -0.559 202 150 137
0.411783 -0.143524 -0.548 183 131 117
0.429193 -0.14169 -0.541 198 145 129
0.430224 -0.14169 -0.541 198 145 129
0.443511 -0.139071 -0.531 193 145 123
0.467804 -0.140905 -0.538 175 122 108
-0.121485 -0.169102 -0.641 186 186 176
-0.108729 -0.170157 -0.645 192 192 182
0.369919 -0.156439 -0.593 206 162 163
0.37128 -0.15512 -0.588 218 170 170
0.378577 -0.153537 -0.582 214 169 166
0.3838 -0.150371 -0.57 209 159 152
0.390883 -0.148525 -0.563 204 154 145
0.396267 -0.147733 -0.56 198 146 135
0.400166 -0.147206 -0.558 198 146 135
0.40157 -0.146942 -0.557 196 144 133
0.402631 -0.146942 -0.557 196 144 133
0.40879 -0.145359 -0.551 183 131 118
0.409095 -0.145095 -0.55 181 129 116
0.429193 -0.142721 -0.541 198 145 127
0.440293 -0.140347 -0.532 200 149 130
0.444695 -0.139819 -0.53 193 145 123
0.477476 -0.142985 -0.542 171 119 105
-0.125343 -0.170589 -0.642 186 183 174
-0.11329 -0.170854 -0.643 191 191 183
0.37076 -0.158897 -0.598 209 165 164
0.370295 -0.156771 -0.59 215 167 167
0.371767 -0.155974 -0.587 215 170 167
0.381037 -0.153849 -0.579 200 151 146
0.390503 -0.149863 -0.564 201 151 142
0.3934 -0.149331 -0.562 195 145 136
0.401229 -0.148269 -0.558 194 144 133
0.40606 -0.14694 -0.553 182 130 119
0.410443 -0.145877 -0.549 178 124 112
0.4186 -0.14508 -0.546 185 134 117
0.428711 -0.144283 -0.543 198 145 127
0.430687 -0.14322 -0.539 200 148 127
0.432157 -0.142689 -0.537 203 152 133
0.433394 -0.142423 -0.536 204 153 134
0.433605 -0.142157 -0.535 205 154 135
0.436863 -0.141891 -0.534 203 152 133
0.445705 -0.140829 -0.53 195 147 127
0.462291 -0.141891 -0.534 177 126 109
0.463309 -0.141891 -0.534 173 122 105
-0.272129 -0.172614 -0.645 252 253 247
-0.269671 -0.172614 -0.645 250 251 245
-0.123733 -0.171276 -0.64 186 183 174
-0.111186 -0.172614 -0.645 192 192 184
-0.107833 -0.17315 -0.647 195 192 183
0.37128 -0.15736 -0.588 214 169 166
0.3941 -0.15067 -0.563 196 144 133
0.397333 -0.149867 -0.56 191 141 130
0.405086 -0.148796 -0.556 189 137 124
0.405414 -0.148529 -0.555 187 135 122
0.411489 -0.146923 -0.549 169 117 103
0.455649 -0.142106 -0.531 182 136 112
0.466214 -0.143176 -0.535 172 121 104
0.474833 -0.144247 -0.539 172 120 106
-0.274895 -0.172495 -0.64 251 252 246
-0.271238 -0.172495 -0.64 252 253 247
-0.13289 -0.174921 -0.649 180 177 170
-0.12354 -0.172226 -0.639 186 183 174
-0.113467 -0.173573 -0.644 191 191 181
0.392513 -0.174382 -0.647 150 125 131
0.382738 -0.168452 -0.625 193 155 152
0.37076 -0.161175 -0.598 211 167 166
0.370295 -0.159019 -0.59 213 168 165
0.379934 -0.156054 -0.579 195 145 138
0.381919 -0.155515 -0.577 197 147 138
0.384729 -0.154437 -0.573 194 140 128
0.386378 -0.153359 -0.569 192 140 129
0.390119 -0.152281 -0.565 193 141 130
0.393726 -0.152011 -0.564 193 141 130
0.396611 -0.151472 -0.562 188 136 125
0.396974 -0.151203 -0.561 187 135 124
0.399818 -0.150664 -0.559 187 135 124
0.405814 -0.150125 -0.557 186 132 120
0.406145 -0.149855 -0.556 182 128 116
0.415958 -0.147699 -0.548 177 125 111
0.427677 -0.146351 -0.543 194 141 127
0.428954 -0.146082 -0.542 196 145 128
0.432157 -0.144734 -0.537 204 153 134
0.433605 -0.144195 -0.535 206 155 136
0.441667 -0.142848 -0.53 194 146 124
0.457671 -0.143117 -0.531 178 132 106
-0.2881 -0.175071 -0.645 252 253 248
-0.262303 -0.174257 -0.642 253 254 249
-0.258184 -0.175614 -0.647 252 253 248
-0.109066 -0.175614 -0.647 192 192 184
0.369797 -0.160414 -0.591 207 157 156
0.372091 -0.158514 -0.584 202 159 153
0.403354 -0.151457 -0.558 176 122 110
0.406145 -0.150914 -0.556 178 124 112
0.416241 -0.148471 -0.547 174 122 108
0.429429 -0.146571 -0.54 199 148 129
0.42966 -0.1463 -0.539 199 148 129
0.447887 -0.143586 -0.529 192 146 122
0.47117 -0.145486 -0.536 170 117 103
-0.119889 -0.17466 -0.639 190 187 178
-0.111358 -0.176573 -0.646 193 190 181
0.373411 -0.16564 -0.606 204 163 159
0.408263 -0.151973 -0.556 177 125 112
0.408586 -0.1517 -0.555 177 125 114
0.416717 -0.15006 -0.549 173 120 106
0.45494 -0.144593 -0.529 185 139 113
0.455948 -0.144593 -0.529 182 136 110
0.47219 -0.146507 -0.536 171 118 102
0.480717 -0.147873 -0.541 173 121 107
-0.283313 -0.175327 -0.637 241 244 237
-0.254487 -0.178079 -0.647 255 255 251
-0.133093 -0.177253 -0.644 180 180 170
-0.122323 -0.175877 -0.639 188 185 176
-0.108167 -0.17863 -0.649 194 191 182
-0.107095 -0.178905 -0.65 195 192 183
0.369797 -0.162666 -0.591 202 144 142
0.371133 -0.16129 -0.586 200 147 143
0.371614 -0.161014 -0.585 200 147 143
0.377469 -0.160189 -0.582 192 139 133
0.392966 -0.155785 -0.566 178 124 112
0.398023 -0.155234 -0.564 177 123 111
0.400893 -0.154684 -0.562 172 120 107
0.406875 -0.153308 -0.557 174 122 111
0.409643 -0.152757 -0.555 175 123 112
0.416429 -0.151381 -0.55 170 117 103
0.432794 -0.146977 -0.534 201 150 129
0.43624 -0.146427 -0.532 205 154 133
0.437443 -0.146151 -0.531 204 153 132
0.438638 -0.145876 -0.53 194 146 124
0.453074 -0.145326 -0.528 195 147 125
0.467517 -0.146702 -0.533 172 119 103
0.480857 -0.148629 -0.54 177 124 108
0.379629 -0.171274 -0.618 199 151 147
0.383905 -0.160743 -0.58 182 130 119
0.389094 -0.158803 -0.573 177 125 114
0.399097 -0.156309 -0.564 171 123 111
0.404454 -0.155477 -0.561 168 118 107
0.407606 -0.154646 -0.558 174 122 109
0.408997 -0.154369 -0.557 172 120 107
0.41207 -0.153537 -0.554 169 117 104
0.425609 -0.150489 -0.543 188 135 119
0.428163 -0.149934 -0.541 193 140 122
0.42966 -0.14938 -0.539 200 144 127
0.438638 -0.146886 -0.53 196 148 126
0.442849 -0.146609 -0.529 200 149 130
0.45408 -0.146331 -0.528 190 139 120
0.457963 -0.146609 -0.529 185 133 112
0.470429 -0.147994 -0.534 164 115 98
0.481886 -0.149657 -0.54 177 130 114
0.486631 -0.150489 -0.543 181 128 110
-0.286503 -0.177474 -0.636 237 240 233
-0.285291 -0.177474 -0.636 199 202 195
-0.256189 -0.179149 -0.642 248 249 243
-0.113819 -0.180265 -0.646 192 189 180
0.375876 -0.170219 -0.61 194 145 141
0.37079 -0.164359 -0.589 195 141 141
0.375429 -0.162964 -0.584 191 136 129
0.38367 -0.162685 -0.583 176 124 113
0.385673 -0.162127 -0.581 178 126 115
0.390186 -0.159894 -0.573 172 118 108
0.426392 -0.151802 -0.544 185 132 116
0.437443 -0.148174 -0.531 202 151 130
0.439648 -0.147895 -0.53 199 148 127
0.45322 -0.147058 -0.527 193 142 121
0.456091 -0.147337 -0.528 190 139 118
0.462867 -0.147895 -0.53 172 121 100
0.484839 -0.150965 -0.541 178 128 105
0.486768 -0.151244 -0.542 173 130 113
0.4878 -0.151244 -0.542 173 130 113
-0.280771 -0.178124 -0.634 155 156 150
-0.278356 -0.178124 -0.634 149 150 144
-0.262687 -0.178967 -0.637 125 126 121
-0.254966 -0.180371 -0.642 251 252 246
-0.25079 -0.181776 -0.647 252 253 247
-0.249476 -0.182619 -0.65 252 253 247
-0.12922 -0.178967 -0.637 185 182 173
-0.127806 -0.178686 -0.636 186 183 174
-0.12558 -0.178967 -0.637 187 184 175
-0.117147 -0.180933 -0.644 191 189 177
-0.110639 -0.182338 -0.649 192 190 178
0.394354 -0.182057 -0.648 169 123 123
0.374566 -0.170257 -0.606 201 143 141
0.371899 -0.16801 -0.598 195 136 132
0.371049 -0.166605 -0.593 187 131 130
0.382757 -0.164357 -0.585 174 120 110
0.38544 -0.164076 -0.584 173 119 109
0.396829 -0.160143 -0.57 167 113 101
0.40014 -0.1593 -0.567 171 117 105
0.421384 -0.154805 -0.551 170 116 104
0.436431 -0.149186 -0.531 204 152 131
0.437629 -0.148905 -0.53 202 150 128
0.461993 -0.148624 -0.529 173 125 103
-0.285602 -0.179331 -0.634 152 155 148
-0.25579 -0.181311 -0.641 255 255 251
-0.122514 -0.181029 -0.64 188 185 176
-0.121485 -0.181311 -0.641 189 187 175
0.395571 -0.183857 -0.65 164 118 118
0.384528 -0.165754 -0.586 169 115 105
0.38676 -0.165754 -0.586 166 112 102
0.405903 -0.160097 -0.566 162 110 99
0.410866 -0.158683 -0.561 165 112 104
0.420807 -0.15642 -0.553 169 115 103
0.423762 -0.155571 -0.55 172 120 107
0.4284 -0.152743 -0.54 192 139 121
0.430912 -0.152177 -0.538 194 141 123
0.432999 -0.150763 -0.533 201 149 128
0.434213 -0.15048 -0.532 204 152 131
0.438638 -0.149914 -0.53 201 151 128
0.454364 -0.148783 -0.526 193 145 122
0.457235 -0.149066 -0.527 185 139 115
0.481126 -0.152177 -0.538 169 124 101
0.487029 -0.152743 -0.54 175 129 114
-0.296081 -0.182532 -0.641 251 252 247
-0.287563 -0.180254 -0.633 168 171 164
-0.281534 -0.180254 -0.633 157 158 152
-0.25661 -0.182248 -0.64 225 226 221
-0.25208 -0.183387 -0.644 253 254 249
-0.124562 -0.181678 -0.638 187 184 175
-0.121485 -0.182532 -0.641 189 187 175
0.380711 -0.167155 -0.587 172 117 110
0.391638 -0.165162 -0.58 161 107 95
0.401928 -0.161745 -0.568 163 111 98
0.4023 -0.16146 -0.567 164 112 99
0.405903 -0.161175 -0.566 162 110 99
0.413003 -0.159751 -0.561 161 108 100
0.419607 -0.158612 -0.557 164 110 100
0.427677 -0.154626 -0.543 185 132 116
0.432373 -0.152632 -0.536 193 140 122
0.432794 -0.152063 -0.534 196 143 125
0.435227 -0.151493 -0.532 203 151 130
0.43542 -0.151209 -0.531 203 153 130
0.446193 -0.15007 -0.527 205 153 129
0.459243 -0.15007 -0.527 180 136 111
-0.283946 -0.18146 -0.633 146 149 142
-0.28274 -0.18146 -0.633 156 157 151
-0.25579 -0.183753 -0.641 235 236 231
-0.250014 -0.1849 -0.645 253 254 249
-0.137786 -0.184327 -0.643 179 179 169
-0.13144 -0.18232 -0.636 185 183 171
-0.119414 -0.184327 -0.643 190 188 176
-0.112048 -0.186333 -0.65 190 188 176
0.373937 -0.17028 -0.594 174 123 119
0.373806 -0.169707 -0.592 174 123 119
0.38584 -0.16856 -0.588 165 111 101
0.409137 -0.162253 -0.566 158 105 97
0.413003 -0.16082 -0.561 161 108 100
0.414071 -0.16082 -0.561 161 108 100
0.416209 -0.16082 -0.561 161 109 98
0.420214 -0.1591 -0.555 166 112 102
0.422329 -0.1591 -0.555 165 111 101
0.446034 -0.15136 -0.528 206 156 133
0.4555 -0.1505 -0.525 185 137 114
0.469809 -0.15222 -0.531 167 120 100
0.49193 -0.155373 -0.542 168 125 108
-0.284701 -0.182377 -0.632 145 146 140
-0.135499 -0.184109 -0.638 181 181 169
-0.134073 -0.18382 -0.637 184 182 170
-0.118557 -0.186129 -0.645 190 188 176
-0.11751 -0.186417 -0.646 190 188 176
-0.115406 -0.186994 -0.648 191 189 177
-0.113111 -0.187283 -0.649 190 188 175
0.385119 -0.180357 -0.625 177 126 123
0.375533 -0.17372 -0.602 179 121 119
0.377189 -0.170834 -0.592 172 118 108
0.391648 -0.170257 -0.59 160 107 99
0.396564 -0.168526 -0.584 148 98 87
0.399095 -0.166794 -0.578 148 100 88
0.404374 -0.165351 -0.573 152 102 91
0.41202 -0.16362 -0.567 152 102 93
0.424443 -0.160157 -0.555 163 109 99
0.428954 -0.156406 -0.542 188 135 119
0.434213 -0.15352 -0.532 200 148 127
0.437629 -0.152943 -0.53 202 152 129
0.444023 -0.152366 -0.528 206 154 132
-0.29591 -0.185324 -0.638 251 254 247
-0.248786 -0.187357 -0.645 252 253 247
0.377199 -0.174576 -0.601 163 112 111
0.381857 -0.172543 -0.594 158 107 103
0.388167 -0.172833 -0.595 153 102 98
0.390433 -0.172833 -0.595 155 104 100
0.400327 -0.169348 -0.583 144 97 89
0.4039 -0.167605 -0.577 148 101 91
0.406173 -0.166733 -0.574 145 97 87
0.406557 -0.166443 -0.573 145 97 87
0.409116 -0.166152 -0.572 145 97 87
0.412029 -0.165571 -0.57 150 100 91
0.417024 -0.164119 -0.565 148 98 89
0.419509 -0.163829 -0.564 153 103 94
0.427614 -0.161214 -0.555 162 110 99
0.429 -0.159762 -0.55 173 119 107
0.431134 -0.155986 -0.537 193 138 118
0.441006 -0.153371 -0.528 206 154 132
0.445029 -0.153371 -0.528 206 154 132
0.446034 -0.153371 -0.528 205 153 131
0.4535 -0.1525 -0.525 197 147 124
0.4545 -0.1525 -0.525 192 142 119
-0.301147 -0.188293 -0.644 251 254 247
-0.24624 -0.189463 -0.648 252 253 247
-0.245762 -0.190048 -0.65 252 253 247
-0.122706 -0.187416 -0.641 190 188 176
0.380508 -0.175136 -0.599 155 105 104
0.382649 -0.174551 -0.597 155 106 102
0.396958 -0.174844 -0.598 153 104 99
0.398097 -0.174844 -0.598 151 102 97
0.402814 -0.171043 -0.585 144 97 91
0.405593 -0.169873 -0.581 144 97 89
0.418156 -0.166072 -0.568 143 95 85
0.422405 -0.165195 -0.565 147 99 89
0.425826 -0.164026 -0.561 146 100 87
0.432373 -0.156716 -0.536 194 139 119
0.441006 -0.154377 -0.528 206 154 133
0.4575 -0.1535 -0.525 192 140 118
0.459373 -0.153792 -0.526 185 133 111
0.469933 -0.154962 -0.53 165 120 99
-0.286944 -0.185106 -0.629 147 150 143
-0.285746 -0.185106 -0.629 144 147 140
-0.124952 -0.188343 -0.64 188 186 174
-0.121864 -0.189226 -0.643 190 188 176
0.401907 -0.17716 -0.602 153 103 94
0.40921 -0.171569 -0.583 141 96 90
0.416013 -0.16892 -0.574 142 95 89
0.423228 -0.167449 -0.569 143 93 84
0.42671 -0.166271 -0.565 136 89 79
0.429177 -0.165977 -0.564 145 97 85
0.431019 -0.159503 -0.542 185 132 114
0.432373 -0.157737 -0.536 186 134 113
0.434213 -0.15656 -0.532 197 145 124
0.435227 -0.15656 -0.532 199 147 126
0.438994 -0.155383 -0.528 201 150 129
0.44519 -0.155089 -0.527 204 152 131
0.4515 -0.1545 -0.525 202 147 126
0.462379 -0.154794 -0.526 182 134 112
-0.305957 -0.192228 -0.649 252 254 249
-0.24548 -0.191339 -0.646 252 253 248
-0.132026 -0.187489 -0.633 186 184 172
0.392386 -0.179195 -0.605 149 101 97
0.408787 -0.178307 -0.602 146 103 96
0.422929 -0.169717 -0.573 139 92 84
0.431879 -0.163201 -0.551 169 120 106
0.431937 -0.15935 -0.538 188 135 119
0.441006 -0.156389 -0.528 203 153 130
0.482634 -0.158166 -0.534 165 122 105
-0.139145 -0.190185 -0.638 186 184 172
-0.12412 -0.191377 -0.642 190 188 176
0.400276 -0.181838 -0.61 147 107 105
0.401438 -0.181838 -0.61 146 108 105
0.433703 -0.163356 -0.548 171 119 105
0.43274 -0.160673 -0.539 185 134 117
0.434213 -0.158587 -0.532 192 141 122
0.441174 -0.157096 -0.527 204 152 130
0.451638 -0.156202 -0.524 197 145 123
0.459623 -0.156202 -0.524 183 135 115
0.477787 -0.158587 -0.532 165 119 103
0.483651 -0.159183 -0.534 163 120 103
-0.288142 -0.1887 -0.629 154 159 152
-0.285746 -0.1887 -0.629 132 137 131
-0.248851 -0.1926 -0.642 253 254 248
0.393517 -0.1881 -0.627 145 109 111
0.407733 -0.1848 -0.616 136 107 109
0.40957 -0.1851 -0.617 141 112 114
0.418591 -0.1839 -0.613 135 97 96
0.418429 -0.1818 -0.606 134 94 92
0.433167 -0.1725 -0.575 131 91 83
0.434262 -0.1725 -0.575 129 89 81
0.438209 -0.1719 -0.573 130 92 83
0.444345 -0.1578 -0.526 204 152 131
0.45064 -0.1572 -0.524 200 148 127
0.484669 -0.1602 -0.534 161 118 99
0.487614 -0.1605 -0.535 162 116 100
-0.293128 -0.190804 -0.632 251 253 248
-0.250514 -0.193219 -0.64 255 255 251
0.39858 -0.192313 -0.637 143 108 114
0.405657 -0.187181 -0.62 112 90 93
0.423693 -0.181747 -0.602 137 96 94
0.4233 -0.179633 -0.595 138 98 96
0.435829 -0.175105 -0.58 128 88 80
0.440402 -0.170878 -0.566 142 99 90
0.434014 -0.160915 -0.533 193 142 123
0.439167 -0.159104 -0.527 201 149 127
0.442341 -0.158802 -0.526 205 154 133
0.444345 -0.158802 -0.526 204 153 132
0.466387 -0.158802 -0.526 177 130 112
0.487614 -0.161519 -0.535 160 117 100
-0.252557 -0.194134 -0.639 251 252 247
-0.12739 -0.194438 -0.64 188 185 176
-0.126369 -0.194742 -0.641 190 187 178
-0.12139 -0.196565 -0.647 190 188 176
0.403605 -0.196565 -0.647 135 102 111
0.402674 -0.192008 -0.632 127 102 108
0.404357 -0.191096 -0.629 128 102 115
0.434 -0.17864 -0.588 133 92 86
0.441059 -0.177425 -0.584 127 86 80
0.434203 -0.163146 -0.537 186 135 118
0.434415 -0.162842 -0.536 192 141 124
0.437159 -0.160108 -0.527 201 150 129
0.4475 -0.1595 -0.525 203 152 131
0.4655 -0.1595 -0.525 178 130 110
0.467389 -0.159804 -0.526 176 128 108
-0.301434 -0.196269 -0.642 253 253 251
-0.285746 -0.192294 -0.629 127 132 128
-0.245006 -0.198103 -0.648 250 253 246
-0.125538 -0.196574 -0.643 190 187 178
-0.119292 -0.198409 -0.649 190 188 176
0.414163 -0.193517 -0.633 57 47 58
0.420971 -0.194434 -0.636 56 46 57
0.439208 -0.180983 -0.592 135 96 91
0.44856 -0.17976 -0.588 127 88 81
0.439767 -0.16906 -0.553 163 117 104
0.435376 -0.165391 -0.541 178 126 112
0.434203 -0.164169 -0.537 184 133 116
0.43503 -0.162946 -0.533 191 140 121
0.435227 -0.16264 -0.532 192 141 122
0.437159 -0.161111 -0.527 201 150 129
0.4455 -0.1605 -0.525 206 156 133
0.4495 -0.1605 -0.525 204 152 131
0.453765 -0.159889 -0.523 195 143 119
-0.290538 -0.193492 -0.629 253 253 251
-0.28934 -0.193492 -0.629 247 252 246
-0.247173 -0.198107 -0.644 252 253 247
-0.141797 -0.196569 -0.639 184 184 176
-0.13465 -0.19503 -0.634 186 186 176
0.41032 -0.198107 -0.644 108 94 111
0.411491 -0.197491 -0.642 117 105 119
0.44252 -0.183956 -0.598 134 96 93
0.453504 -0.182418 -0.593 132 93 88
0.454633 -0.182418 -0.593 134 95 90
0.434829 -0.164269 -0.534 192 141 124
0.43561 -0.163038 -0.53 195 144 127
0.439335 -0.161808 -0.526 198 150 130
0.45064 -0.161192 -0.524 205 153 131
-0.285746 -0.19469 -0.629 142 147 141
-0.28335 -0.19469 -0.629 123 125 122
-0.12861 -0.198095 -0.64 186 186 176
-0.1247 -0.199643 -0.645 188 188 178
-0.119476 -0.20119 -0.65 186 186 174
0.442665 -0.190048 -0.614 142 103 106
0.449261 -0.186952 -0.604 133 94 95
0.450814 -0.186643 -0.603 140 100 100
0.457332 -0.186024 -0.601 134 99 95
0.460745 -0.185095 -0.598 131 93 90
0.445853 -0.173952 -0.562 155 107 97
0.435151 -0.163119 -0.527 198 146 125
0.437331 -0.16281 -0.526 198 147 128
0.438333 -0.16281 -0.526 200 149 130
0.4415 -0.1625 -0.525 199 151 131
0.45588 -0.161571 -0.522 194 142 121
0.46661 -0.16219 -0.524 181 130 109
-0.147725 -0.202117 -0.649 180 181 173
-0.120529 -0.202117 -0.649 187 187 175
0.454143 -0.180006 -0.578 143 99 98
0.4346 -0.165057 -0.53 191 140 121
0.4734 -0.163811 -0.526 165 118 98
-0.299276 -0.200533 -0.64 253 253 251
-0.249685 -0.200847 -0.641 255 255 251
-0.13849 -0.198967 -0.635 188 185 178
-0.132443 -0.198967 -0.635 186 186 176
-0.13144 -0.19928 -0.636 186 186 174
0.46028 -0.194893 -0.622 132 96 98
0.463089 -0.19458 -0.621 130 96 97
0.44101 -0.171707 -0.548 170 124 109
0.439633 -0.170767 -0.545 173 127 112
0.4395 -0.1645 -0.525 199 153 130
0.439661 -0.164187 -0.524 199 153 130
0.440659 -0.164187 -0.524 199 153 130
0.458976 -0.163247 -0.521 190 139 118
-0.305957 -0.20459 -0.649 253 253 251
-0.2898 -0.1986 -0.63 252 255 250
-0.286944 -0.198285 -0.629 254 255 250
-0.257429 -0.200491 -0.636 239 238 236
-0.129626 -0.201437 -0.639 188 188 176
-0.122811 -0.204274 -0.648 191 189 177
-0.0177867 -0.203013 -0.644 75 73 86
0.470546 -0.198915 -0.631 131 95 97
0.455999 -0.164239 -0.521 199 148 127
0.460961 -0.164239 -0.521 190 140 117
0.481234 -0.166446 -0.528 162 113 96
-0.294055 -0.201069 -0.634 253 253 251
-0.2874 -0.1998 -0.63 254 255 251
-0.285 -0.1998 -0.63 251 253 248
-0.255407 -0.20202 -0.637 255 255 251
-0.143462 -0.203289 -0.641 186 186 178
-0.126124 -0.204874 -0.646 191 188 179
0.43542 -0.168403 -0.531 191 143 123
0.435977 -0.167451 -0.528 196 148 126
0.449052 -0.165231 -0.521 202 151 132
0.455124 -0.164914 -0.52 200 149 128
0.463938 -0.165231 -0.521 183 133 108
0.4707 -0.165866 -0.523 168 117 98
0.472598 -0.166183 -0.524 165 114 95
0.4765 -0.1665 -0.525 166 117 100
0.490771 -0.169354 -0.534 162 113 98
-0.301147 -0.205467 -0.644 253 253 251
-0.292848 -0.202276 -0.634 253 253 251
-0.280645 -0.201319 -0.631 222 224 219
-0.274635 -0.201319 -0.631 139 139 137
-0.24586 -0.206424 -0.647 251 254 247
-0.141353 -0.203233 -0.637 189 186 177
-0.126319 -0.206424 -0.647 191 189 177
-0.0214667 -0.205467 -0.644 70 68 82
0.459951 -0.18409 -0.577 157 109 107
0.465923 -0.166224 -0.521 180 129 110
0.467908 -0.166224 -0.521 176 125 106
0.479411 -0.167819 -0.526 166 115 98
-0.298989 -0.206051 -0.642 253 253 251
-0.285452 -0.202521 -0.631 253 254 249
-0.257833 -0.204447 -0.637 167 167 165
-0.254171 -0.20541 -0.64 255 255 251
-0.247092 -0.207656 -0.647 251 254 247
-0.137065 -0.203484 -0.634 190 187 178
-0.135857 -0.203484 -0.634 190 187 178
-0.0278571 -0.208619 -0.65 68 66 79
-0.0251467 -0.206693 -0.644 70 68 81
-0.0238829 -0.206372 -0.643 67 65 78
0.43633 -0.168821 -0.526 193 147 121
0.445937 -0.167537 -0.522 202 154 132
0.446075 -0.167216 -0.521 203 155 133
0.447068 -0.167216 -0.521 204 156 134
0.452271 -0.166574 -0.519 201 151 128
0.457214 -0.166574 -0.519 193 145 123
0.46018 -0.166574 -0.519 184 136 113
0.470794 -0.167537 -0.522 173 120 102
-0.28425 -0.203723 -0.631 253 254 249
-0.275837 -0.203723 -0.631 249 250 245
-0.263865 -0.204691 -0.634 254 255 250
-0.25539 -0.206629 -0.64 244 245 240
-0.253348 -0.206951 -0.641 254 255 250
-0.141353 -0.20566 -0.637 189 187 175
-0.130031 -0.206951 -0.641 191 189 177
0.442748 -0.175957 -0.545 174 130 117
0.444943 -0.168531 -0.522 202 154 131
0.451162 -0.167886 -0.52 203 153 130
0.455237 -0.167563 -0.519 195 147 125
-0.298693 -0.209147 -0.644 253 253 251
-0.284701 -0.20525 -0.632 253 254 249
-0.145586 -0.209471 -0.645 189 187 175
-0.131853 -0.207198 -0.638 191 189 177
-0.0274714 -0.208172 -0.641 68 68 80
-0.0237343 -0.207523 -0.639 70 70 82
0.438499 -0.174072 -0.536 182 136 121
0.442106 -0.169201 -0.521 195 147 124
0.44409 -0.169201 -0.521 198 150 128
0.44621 -0.168876 -0.52 200 152 130
0.45436 -0.168227 -0.518 196 146 123
0.470885 -0.169201 -0.521 173 120 102
0.476677 -0.16985 -0.523 166 114 100
-0.270255 -0.206453 -0.632 251 252 247
-0.25661 -0.209067 -0.64 181 181 181
-0.252913 -0.210047 -0.643 255 255 253
-0.147952 -0.212333 -0.65 185 184 179
-0.143238 -0.209067 -0.64 190 188 176
-0.127354 -0.211027 -0.646 193 191 178
0.4446 -0.17836 -0.546 178 134 123
0.43633 -0.171827 -0.526 195 145 122
0.440966 -0.17052 -0.522 195 147 124
0.44196 -0.17052 -0.522 196 148 125
0.455347 -0.169213 -0.518 197 147 124
0.46028 -0.169213 -0.518 191 141 118
0.462253 -0.169213 -0.518 176 126 103
0.4671 -0.16954 -0.519 174 123 104
-0.288926 -0.208971 -0.636 253 253 251
-0.268271 -0.207986 -0.633 252 252 250
-0.26628 -0.208314 -0.634 254 254 252
-0.260669 -0.209629 -0.638 248 250 247
-0.259453 -0.209629 -0.638 243 245 242
-0.25539 -0.210286 -0.64 163 163 161
-0.254569 -0.210614 -0.641 198 198 196
-0.0248733 -0.2093 -0.637 71 70 84
0.443238 -0.170857 -0.52 198 147 126
0.446467 -0.1702 -0.518 205 154 133
0.456437 -0.169871 -0.517 193 143 120
0.468089 -0.170529 -0.519 169 121 101
0.4815 -0.1725 -0.525 163 116 98
-0.279123 -0.209191 -0.633 252 252 250
-0.27111 -0.209522 -0.634 251 253 250
-0.259048 -0.211505 -0.64 252 252 250
-0.14014 -0.210513 -0.637 190 187 178
-0.131853 -0.210844 -0.638 194 192 180
-0.124429 -0.21481 -0.65 194 190 179
0.438663 -0.17317 -0.524 193 145 123
0.443374 -0.171517 -0.519 196 145 124
0.452498 -0.170856 -0.517 203 153 130
-0.2743 -0.210397 -0.633 253 253 251
-0.254487 -0.21505 -0.647 189 189 187
-0.13286 -0.211727 -0.637 194 191 182
-0.0189543 -0.213389 -0.642 74 73 89
-0.0177867 -0.214053 -0.644 75 74 90
0.456558 -0.186798 -0.562 164 126 117
0.44116 -0.178821 -0.538 179 134 115
0.443374 -0.172506 -0.519 193 145 122
0.44548 -0.172173 -0.518 203 153 130
0.453589 -0.171509 -0.516 201 151 128
0.458503 -0.171509 -0.516 192 142 119
0.4653 -0.171841 -0.517 173 125 105
0.466285 -0.171841 -0.517 171 123 103
0.472043 -0.172506 -0.519 168 120 100
-0.286637 -0.213609 -0.639 253 253 251
-0.283313 -0.21294 -0.637 254 254 252
-0.261486 -0.213943 -0.64 255 255 255
-0.260673 -0.214277 -0.641 253 253 253
-0.254429 -0.217286 -0.65 176 178 175
-0.130234 -0.214611 -0.642 197 193 182
-0.12528 -0.216617 -0.648 196 192 181
-0.0400524 -0.216283 -0.647 68 66 80
-0.0332095 -0.211937 -0.634 60 59 75
-0.0154524 -0.216951 -0.649 77 76 92
0.462782 -0.190877 -0.571 159 121 118
0.451114 -0.185194 -0.554 166 128 119
0.44116 -0.179846 -0.538 179 134 115
0.43781 -0.176837 -0.529 189 145 120
0.438663 -0.175166 -0.524 193 147 123
0.440267 -0.173829 -0.52 195 147 124
0.448559 -0.172826 -0.517 202 154 131
0.448674 -0.172491 -0.516 201 153 130
0.452606 -0.172491 -0.516 199 151 128
0.462434 -0.172491 -0.516 183 132 111
-0.290557 -0.216843 -0.645 253 254 249
-0.280112 -0.21449 -0.638 253 253 251
-0.271606 -0.21449 -0.638 253 253 253
-0.124429 -0.218524 -0.65 194 190 179
-0.03834 -0.214826 -0.639 68 67 81
-0.0371229 -0.214826 -0.639 68 67 83
-0.0235857 -0.213481 -0.635 71 70 86
0.441363 -0.180534 -0.537 181 138 119
0.4644 -0.173474 -0.516 176 128 106
0.467349 -0.173474 -0.516 174 126 106
0.470224 -0.17381 -0.517 172 121 100
-0.28143 -0.216719 -0.641 253 253 251
-0.276114 -0.216381 -0.64 253 253 253
-0.259416 -0.218748 -0.647 253 253 251
-0.142241 -0.216719 -0.641 191 188 179
-0.131853 -0.215705 -0.638 197 194 179
-0.0331048 -0.213676 -0.632 59 61 76
-0.0247562 -0.214352 -0.634 70 69 85
0.442386 -0.175471 -0.519 196 148 125
0.446709 -0.174457 -0.516 203 155 132
0.455652 -0.174119 -0.515 194 146 124
-0.271707 -0.21896 -0.644 253 253 253
-0.261881 -0.21998 -0.647 252 252 252
-0.144805 -0.21998 -0.647 203 203 195
-0.133069 -0.21692 -0.638 195 193 181
-0.045121 -0.22066 -0.649 72 71 77
-0.0436143 -0.2193 -0.645 75 74 80
-0.0294 -0.2142 -0.63 69 68 82
-0.0213333 -0.2176 -0.64 74 73 89
0.44265 -0.17578 -0.517 198 148 125
0.444743 -0.17544 -0.516 201 150 129
0.461621 -0.17476 -0.514 180 128 107
0.467349 -0.17544 -0.516 175 124 107
0.475009 -0.17646 -0.519 168 120 98
-0.281599 -0.221212 -0.647 253 253 251
-0.277472 -0.22087 -0.646 253 253 253
-0.12881 -0.219161 -0.641 199 192 182
-0.0463571 -0.221896 -0.649 75 74 82
-0.0432762 -0.218819 -0.64 70 68 79
-0.0354 -0.2154 -0.63 66 63 80
-0.0329476 -0.215058 -0.629 68 65 86
-0.0178419 -0.22087 -0.646 74 73 89
0.44854 -0.187022 -0.547 169 131 118
0.459663 -0.175739 -0.514 191 136 116
0.464481 -0.176081 -0.515 178 125 107
-0.281233 -0.223132 -0.649 253 253 253
-0.277525 -0.223132 -0.649 253 253 253
-0.270524 -0.223476 -0.65 252 252 252
-0.143794 -0.222789 -0.648 217 218 212
-0.134862 -0.218319 -0.635 193 193 185
-0.123001 -0.223132 -0.649 196 192 181
-0.0444952 -0.220038 -0.64 73 71 84
-0.0430057 -0.218663 -0.636 70 68 81
-0.0247562 -0.217975 -0.634 71 70 84
0.4385 -0.1805 -0.525 191 145 122
0.437826 -0.179812 -0.523 192 146 123
0.438822 -0.179812 -0.523 195 149 126
0.44265 -0.17775 -0.517 192 144 122
0.443881 -0.177062 -0.515 203 152 131
0.444862 -0.177062 -0.515 202 154 132
0.446824 -0.177062 -0.515 201 153 131
0.457705 -0.176718 -0.514 190 139 118
0.464481 -0.177062 -0.515 179 128 107
0.466443 -0.177062 -0.515 177 126 105
-0.120529 -0.224369 -0.649 193 189 177
-0.0270857 -0.218491 -0.632 69 69 81
-0.0247952 -0.219529 -0.635 70 69 83
0.45346 -0.19118 -0.553 167 131 119
0.447938 -0.188414 -0.545 172 136 124
0.444857 -0.186686 -0.54 175 136 119
0.438994 -0.182537 -0.528 189 141 121
0.448786 -0.178043 -0.515 196 148 126
0.460723 -0.177351 -0.513 184 137 111
0.482726 -0.180463 -0.522 163 115 95
-0.133442 -0.22039 -0.634 194 191 182
0.450404 -0.190495 -0.548 170 134 122
0.439276 -0.180762 -0.52 200 152 132
0.444977 -0.178676 -0.514 198 147 128
0.458769 -0.178329 -0.513 187 140 114
-0.13082 -0.221249 -0.633 197 194 185
-0.0560733 -0.226142 -0.647 126 124 129
-0.0475505 -0.220899 -0.632 72 70 84
-0.0294 -0.2202 -0.63 70 70 82
-0.0202086 -0.224744 -0.643 76 74 88
0.454949 -0.178956 -0.512 193 143 120
0.46275 -0.178956 -0.512 182 135 109
0.471348 -0.180005 -0.515 171 122 105
-0.121485 -0.225266 -0.641 199 195 184
-0.114524 -0.228429 -0.65 222 216 202
-0.0597705 -0.227374 -0.647 187 183 184
-0.0540781 -0.224211 -0.638 71 70 78
-0.0410057 -0.219291 -0.624 68 66 79
-0.035119 -0.219643 -0.625 71 69 80
0.443604 -0.188366 -0.536 181 135 119
0.452906 -0.180283 -0.513 195 144 123
0.4608 -0.179931 -0.512 184 136 113
0.46275 -0.179931 -0.512 183 135 112
0.465609 -0.180283 -0.513 180 132 110
