ply
format ascii 1.0
comment Created by Open3D
element vertex 1286
property double x
property double y
property double z
property uchar red
property uchar green
property uchar blue
end_header
0.317753 -0.140896 -0.619 101 84 92
0.326243 -0.139986 -0.615 163 140 148
0.328051 -0.139758 -0.614 137 111 120
0.328685 -0.13953 -0.613 111 85 94
0.336309 -0.139303 -0.612 92 62 70
0.34799 -0.138848 -0.61 169 139 149
0.362527 -0.139075 -0.611 164 134 144
0.373001 -0.139075 -0.611 169 136 143
0.384814 -0.139986 -0.615 163 137 148
0.333355 -0.140698 -0.613 96 67 71
0.349152 -0.14001 -0.61 172 139 150
0.357286 -0.14001 -0.61 171 141 151
0.364257 -0.14001 -0.61 168 135 146
0.373001 -0.140239 -0.611 165 135 147
0.387241 -0.141616 -0.617 162 132 142
0.310695 -0.149503 -0.646 48 40 53
0.315081 -0.146957 -0.635 41 33 46
0.317589 -0.145337 -0.628 41 35 49
0.318277 -0.145106 -0.627 40 34 48
0.338087 -0.141403 -0.611 80 55 59
0.383019 -0.142097 -0.614 156 133 141
0.314873 -0.150967 -0.647 48 42 56
0.319 -0.148867 -0.638 43 35 48
0.329011 -0.1442 -0.618 86 75 83
0.334523 -0.143033 -0.613 161 140 145
0.354956 -0.141867 -0.608 174 144 154
0.36946 -0.1421 -0.609 168 136 147
0.387869 -0.1442 -0.618 167 140 149
0.317829 -0.152434 -0.648 42 38 53
0.321934 -0.150317 -0.639 44 38 50
0.325877 -0.146083 -0.621 44 36 49
0.326533 -0.145848 -0.62 44 36 49
0.33318 -0.145142 -0.617 102 89 98
0.342181 -0.143495 -0.61 83 58 64
0.356685 -0.14279 -0.607 172 142 152
0.368853 -0.143025 -0.608 162 132 142
0.372328 -0.143025 -0.608 177 149 161
0.3741 -0.14326 -0.609 160 137 147
0.38544 -0.144907 -0.616 166 136 146
0.322268 -0.153431 -0.647 44 40 54
0.324669 -0.152246 -0.642 41 35 47
0.32578 -0.15106 -0.637 42 36 46
0.332438 -0.147029 -0.62 52 44 55
0.337408 -0.145606 -0.614 165 148 154
0.339193 -0.145369 -0.613 167 150 156
0.34685 -0.144183 -0.608 77 50 55
0.354372 -0.143946 -0.607 172 142 152
0.359589 -0.144183 -0.608 175 145 155
0.325736 -0.155142 -0.649 44 40 54
0.329076 -0.151556 -0.634 40 36 50
0.335439 -0.14797 -0.619 46 40 52
0.338577 -0.146775 -0.614 94 81 90
0.340361 -0.146536 -0.613 152 136 146
0.340971 -0.146297 -0.612 165 150 157
0.350904 -0.145102 -0.607 130 103 112
0.37117 -0.145341 -0.608 225 199 210
0.3741 -0.14558 -0.609 193 172 181
0.332006 -0.154691 -0.642 33 30 41
0.332174 -0.152523 -0.633 37 33 47
0.337162 -0.14939 -0.62 37 33 47
0.342086 -0.147945 -0.614 97 86 94
0.351482 -0.146499 -0.608 74 48 57
0.354372 -0.146258 -0.607 171 145 154
0.355529 -0.146258 -0.607 176 150 159
0.363622 -0.146258 -0.607 165 138 147
0.388569 -0.149631 -0.621 153 127 136
0.332014 -0.154214 -0.635 38 35 46
0.337065 -0.151057 -0.622 39 35 49
0.340853 -0.1496 -0.616 82 70 82
0.341471 -0.149357 -0.615 81 69 81
0.342086 -0.149114 -0.614 97 86 94
0.34974 -0.1479 -0.609 78 62 63
0.365934 -0.147414 -0.607 166 136 146
0.333667 -0.159095 -0.65 33 30 41
0.334629 -0.156648 -0.64 38 35 46
0.336171 -0.155669 -0.636 35 32 43
0.339232 -0.153221 -0.626 36 32 47
0.340783 -0.151263 -0.618 43 35 50
0.347397 -0.14955 -0.611 146 131 136
0.355529 -0.14857 -0.607 131 105 114
0.365331 -0.148326 -0.606 168 138 148
0.337766 -0.159347 -0.646 42 36 50
0.339806 -0.15688 -0.636 39 37 50
0.342353 -0.153673 -0.623 40 37 48
0.344314 -0.15244 -0.618 48 42 52
0.353798 -0.149973 -0.608 77 63 63
0.354956 -0.149973 -0.608 74 60 60
0.369403 -0.149727 -0.607 170 145 151
0.38006 -0.151207 -0.613 164 137 146
0.343546 -0.159831 -0.643 40 38 52
0.35087 -0.152374 -0.613 67 59 70
0.351463 -0.152126 -0.612 78 71 79
0.3538 -0.151629 -0.61 124 112 114
0.358997 -0.150883 -0.607 84 65 69
0.370559 -0.150883 -0.607 169 144 150
0.347493 -0.157299 -0.628 40 38 51
0.347579 -0.156798 -0.626 41 39 52
0.347657 -0.156297 -0.624 41 39 52
0.353205 -0.153542 -0.613 73 70 81
0.35843 -0.15229 -0.608 88 71 77
0.360153 -0.152039 -0.607 65 49 52
0.370559 -0.152039 -0.607 173 146 153
0.371715 -0.152039 -0.607 173 146 153
0.350757 -0.162786 -0.645 42 40 54
0.354334 -0.155719 -0.617 44 42 55
0.355529 -0.155214 -0.615 60 57 64
0.37951 -0.154962 -0.614 167 137 147
-0.12319 -0.165286 -0.65 198 197 193
0.354169 -0.165031 -0.649 39 38 54
0.35431 -0.164523 -0.647 40 39 55
0.354443 -0.164014 -0.645 41 40 54
0.35467 -0.159691 -0.628 39 38 52
0.354789 -0.158674 -0.624 44 42 55
0.356057 -0.157657 -0.62 39 37 50
0.358457 -0.155623 -0.612 64 61 68
0.375329 -0.155369 -0.611 170 143 152
-0.130418 -0.166268 -0.649 194 193 188
-0.12528 -0.166011 -0.648 199 195 192
-0.120529 -0.166268 -0.649 201 198 193
0.358059 -0.162425 -0.634 41 39 52
0.359617 -0.158326 -0.618 42 42 54
0.36366 -0.15602 -0.609 70 55 62
0.365379 -0.155764 -0.608 78 63 68
0.368853 -0.155764 -0.608 109 97 99
0.37062 -0.15602 -0.609 188 167 174
0.373552 -0.156276 -0.61 177 156 163
0.375943 -0.156789 -0.612 169 146 154
0.38626 -0.159607 -0.623 126 100 109
-0.126124 -0.16673 -0.646 200 197 192
-0.123854 -0.166988 -0.647 199 196 191
-0.119109 -0.167246 -0.648 203 200 195
-0.11664 -0.167246 -0.648 203 200 195
0.360905 -0.167762 -0.65 41 40 54
0.361888 -0.161568 -0.626 37 39 54
0.364854 -0.157696 -0.611 64 54 63
0.36714 -0.15718 -0.609 65 54 62
0.392422 -0.162858 -0.631 77 56 63
-0.131867 -0.16744 -0.644 194 193 189
-0.114348 -0.16874 -0.649 204 201 196
-0.111875 -0.16874 -0.649 203 200 193
0.365401 -0.16822 -0.647 36 32 46
0.365023 -0.16692 -0.642 41 37 51
0.364324 -0.1612 -0.62 43 40 57
0.365476 -0.15964 -0.614 36 33 44
0.37539 -0.15938 -0.613 80 68 72
-0.141762 -0.170238 -0.65 189 188 184
-0.136773 -0.168667 -0.644 195 192 187
-0.128187 -0.168667 -0.644 195 194 189
-0.125733 -0.168667 -0.644 197 196 191
-0.121202 -0.16919 -0.646 200 199 194
0.369003 -0.169976 -0.649 44 42 55
0.369914 -0.168143 -0.642 44 42 53
-0.140524 -0.171476 -0.65 190 189 185
-0.131662 -0.16963 -0.643 194 193 188
-0.119971 -0.170421 -0.646 201 200 195
-0.113111 -0.171212 -0.649 204 201 196
0.370211 -0.163034 -0.618 42 40 53
-0.137571 -0.170589 -0.642 194 191 186
-0.130234 -0.170589 -0.642 196 196 188
-0.115406 -0.172183 -0.648 203 200 195
0.374937 -0.168994 -0.636 43 41 55
0.3738 -0.1674 -0.63 44 42 56
0.373191 -0.165009 -0.621 44 42 56
0.376706 -0.164477 -0.619 141 135 145
0.385119 -0.166071 -0.625 187 177 186
0.388164 -0.166869 -0.628 163 152 160
-0.133486 -0.171276 -0.64 194 194 186
-0.124313 -0.172079 -0.643 199 199 191
-0.121014 -0.172614 -0.645 200 199 194
-0.119971 -0.172882 -0.646 201 200 195
-0.112048 -0.173952 -0.65 205 202 197
0.376786 -0.169403 -0.633 48 44 59
0.376202 -0.168065 -0.628 58 54 69
-0.142907 -0.173573 -0.644 192 188 185
-0.135499 -0.171956 -0.638 193 192 187
-0.126566 -0.173034 -0.642 198 198 190
0.378581 -0.168722 -0.626 57 53 67
-0.137713 -0.1729 -0.637 194 191 186
-0.120157 -0.175614 -0.647 201 201 193
0.383366 -0.174257 -0.642 48 46 59
-0.147813 -0.176027 -0.644 186 183 178
-0.144231 -0.17466 -0.639 188 187 182
-0.134284 -0.174387 -0.638 194 194 186
-0.131853 -0.174387 -0.638 194 194 186
0.386949 -0.17712 -0.648 50 46 60
0.386386 -0.1763 -0.645 53 49 63
0.385811 -0.17548 -0.642 54 50 64
0.384629 -0.17384 -0.636 55 53 67
-0.141353 -0.175327 -0.637 192 189 182
-0.122432 -0.177804 -0.646 199 199 191
-0.13206 -0.177094 -0.639 195 195 187
-0.129212 -0.178203 -0.643 197 197 189
-0.118238 -0.180143 -0.65 203 200 193
-0.126124 -0.180265 -0.646 199 199 191
-0.121577 -0.180823 -0.648 200 199 194
-0.150082 -0.179248 -0.638 186 186 178
-0.1484 -0.178686 -0.636 187 187 179
-0.121765 -0.182338 -0.649 200 200 192
-0.135499 -0.180463 -0.638 194 194 184
-0.132473 -0.181311 -0.641 195 195 187
-0.15984 -0.184526 -0.648 183 180 173
-0.145289 -0.180254 -0.633 189 189 181
-0.133486 -0.182248 -0.64 197 194 185
-0.130437 -0.183102 -0.643 198 195 186
-0.152764 -0.181747 -0.634 187 184 177
-0.14867 -0.181173 -0.632 187 187 177
-0.136714 -0.182893 -0.638 196 193 184
-0.134705 -0.184686 -0.64 196 193 184
-0.149874 -0.183581 -0.632 188 185 176
-0.157594 -0.18537 -0.634 184 181 174
-0.149874 -0.184785 -0.632 187 187 177
-0.145289 -0.185077 -0.633 189 191 180
-0.139145 -0.186539 -0.638 195 192 185
-0.12671 -0.189755 -0.649 195 195 185
-0.146494 -0.186283 -0.633 190 190 180
-0.134111 -0.189226 -0.643 193 193 183
-0.132887 -0.189226 -0.643 196 193 184
-0.141353 -0.188673 -0.637 192 192 184
-0.139145 -0.18897 -0.638 193 193 185
-0.165439 -0.191079 -0.641 178 178 170
-0.1542 -0.1878 -0.63 185 185 177
-0.149637 -0.188098 -0.631 187 187 179
-0.144538 -0.18929 -0.635 190 191 183
-0.131046 -0.19257 -0.646 193 193 181
-0.1518 -0.189 -0.63 187 187 179
-0.146726 -0.1902 -0.634 188 189 181
-0.143554 -0.1908 -0.636 194 191 184
-0.142567 -0.1911 -0.637 194 191 184
-0.307193 -0.195936 -0.649 252 253 248
-0.304721 -0.195936 -0.649 252 253 248
-0.1542 -0.1902 -0.63 187 187 179
-0.136561 -0.194125 -0.643 194 191 182
-0.313156 -0.196261 -0.646 252 253 248
-0.304827 -0.195653 -0.644 252 253 248
-0.302373 -0.195653 -0.644 252 253 248
-0.301614 -0.195957 -0.645 252 253 248
-0.29808 -0.196869 -0.648 252 253 248
-0.296068 -0.197172 -0.649 252 253 248
-0.1651 -0.192919 -0.635 180 180 172
-0.156351 -0.191096 -0.629 184 185 179
-0.137571 -0.195046 -0.642 193 190 181
-0.314151 -0.196574 -0.643 254 255 250
-0.309511 -0.195963 -0.641 254 255 250
-0.297005 -0.196574 -0.643 255 255 250
-0.1542 -0.1926 -0.63 185 185 177
-0.150839 -0.192906 -0.631 188 188 180
-0.130619 -0.198714 -0.65 192 190 178
-0.30758 -0.195953 -0.637 253 255 249
-0.301513 -0.195953 -0.637 253 254 248
-0.3003 -0.195953 -0.637 251 252 246
-0.292418 -0.197184 -0.641 253 254 249
-0.28944 -0.199337 -0.648 250 253 246
-0.158748 -0.193492 -0.629 184 184 174
-0.156351 -0.193492 -0.629 184 184 174
-0.140017 -0.197491 -0.642 190 190 178
-0.13392 -0.199337 -0.648 190 190 180
-0.13289 -0.199645 -0.649 189 189 179
-0.131654 -0.199645 -0.649 188 188 178
-0.294519 -0.196548 -0.635 254 255 250
-0.1542 -0.195 -0.63 186 186 176
-0.14102 -0.198405 -0.641 190 190 178
-0.297943 -0.196823 -0.632 250 251 246
-0.290137 -0.198069 -0.636 254 255 250
-0.284942 -0.202117 -0.649 251 254 247
-0.165 -0.1962 -0.63 181 181 171
-0.135154 -0.201806 -0.648 189 189 179
-0.134127 -0.202117 -0.649 190 187 178
-0.133095 -0.202429 -0.65 189 186 177
-0.0401762 -0.202117 -0.649 93 92 98
-0.3018 -0.1974 -0.63 229 230 225
-0.298673 -0.197713 -0.631 236 237 232
-0.294331 -0.198027 -0.632 251 252 247
-0.290432 -0.198653 -0.634 250 251 246
-0.286953 -0.199593 -0.637 251 252 247
-0.169938 -0.198967 -0.635 181 181 171
-0.16328 -0.196773 -0.628 182 182 170
-0.324369 -0.201437 -0.639 252 253 247
-0.321634 -0.200491 -0.636 252 253 247
-0.3165 -0.199546 -0.633 249 250 244
-0.3018 -0.1986 -0.63 165 166 161
-0.3006 -0.1986 -0.63 165 166 161
-0.293128 -0.19923 -0.632 242 243 238
-0.292386 -0.199546 -0.633 246 247 242
-0.289225 -0.199861 -0.634 251 252 246
-0.281667 -0.204905 -0.65 250 251 245
-0.158495 -0.19797 -0.628 183 183 173
-0.156351 -0.198285 -0.629 184 184 174
-0.1484 -0.200491 -0.636 188 188 178
-0.304915 -0.199483 -0.629 141 141 139
-0.302519 -0.199483 -0.629 138 138 136
-0.300123 -0.199483 -0.629 140 140 138
-0.292664 -0.200117 -0.631 205 205 203
-0.282986 -0.202654 -0.639 252 253 247
-0.280367 -0.205191 -0.647 251 252 246
-0.151556 -0.201069 -0.634 187 187 177
-0.147651 -0.202337 -0.638 187 187 177
-0.0464286 -0.206143 -0.65 77 76 81
-0.0401143 -0.205509 -0.648 89 86 93
-0.319611 -0.201638 -0.632 250 251 245
-0.317904 -0.201319 -0.631 252 253 247
-0.306823 -0.200362 -0.628 141 141 139
-0.288312 -0.201638 -0.632 244 245 240
-0.286052 -0.202595 -0.635 252 253 248
-0.284843 -0.202595 -0.635 250 251 246
-0.281769 -0.203871 -0.639 252 253 247
-0.280646 -0.204829 -0.642 252 253 247
-0.166869 -0.200362 -0.628 182 182 170
-0.161568 -0.199724 -0.626 182 182 170
-0.159437 -0.200043 -0.627 184 184 172
-0.154445 -0.201319 -0.631 186 186 174
-0.152523 -0.201957 -0.633 185 185 173
-0.148633 -0.203233 -0.637 186 186 176
-0.140671 -0.205786 -0.645 189 187 175
-0.138643 -0.206424 -0.647 188 186 174
-0.323038 -0.203484 -0.634 246 249 240
-0.320815 -0.202842 -0.632 250 253 244
-0.3186 -0.2022 -0.63 246 249 240
-0.308019 -0.201558 -0.628 147 149 144
-0.161568 -0.200916 -0.626 184 184 172
-0.149847 -0.204447 -0.637 186 186 174
-0.147883 -0.205089 -0.639 188 188 176
-0.145904 -0.20573 -0.641 187 187 175
-0.13681 -0.208619 -0.65 185 183 171
-0.322019 -0.204046 -0.632 248 251 242
-0.3145 -0.203077 -0.629 162 163 157
-0.284394 -0.204691 -0.634 255 255 251
-0.150823 -0.205337 -0.636 188 186 174
-0.139071 -0.209534 -0.649 186 184 172
-0.137835 -0.209534 -0.649 186 184 172
-0.0487543 -0.209211 -0.648 73 71 76
-0.041221 -0.208566 -0.646 83 82 88
-0.326146 -0.205574 -0.633 254 255 248
-0.315196 -0.20395 -0.628 158 161 154
-0.306334 -0.203626 -0.627 147 149 144
-0.287856 -0.204925 -0.631 145 144 142
-0.279334 -0.207523 -0.639 251 252 246
-0.278552 -0.207848 -0.64 250 253 246
-0.168065 -0.20395 -0.628 182 182 172
-0.165409 -0.203626 -0.627 182 182 170
-0.1625 -0.202976 -0.625 184 184 172
-0.043479 -0.208822 -0.643 80 79 87
-0.317083 -0.20482 -0.627 166 169 162
-0.315889 -0.20482 -0.627 158 161 154
-0.312306 -0.20482 -0.627 159 160 155
-0.283187 -0.207107 -0.634 252 253 248
-0.276977 -0.20972 -0.642 251 252 247
-0.276613 -0.210373 -0.644 251 252 247
-0.178354 -0.21168 -0.648 178 179 171
-0.145134 -0.210047 -0.643 187 187 175
-0.0401143 -0.21168 -0.648 85 84 92
-0.338996 -0.212257 -0.646 251 252 244
-0.315385 -0.205686 -0.626 151 153 148
-0.314192 -0.205686 -0.626 153 155 150
-0.285905 -0.207657 -0.632 183 179 176
-0.1698 -0.207 -0.63 183 183 173
-0.163952 -0.205686 -0.626 184 184 174
-0.16276 -0.205686 -0.626 184 184 174
-0.161826 -0.206014 -0.627 184 184 174
-0.157097 -0.207657 -0.632 186 186 174
-0.153971 -0.208314 -0.634 186 186 174
-0.14536 -0.2116 -0.644 186 186 174
-0.0512229 -0.212914 -0.648 69 68 74
-0.0423857 -0.211929 -0.645 84 81 90
-0.329076 -0.209522 -0.634 252 255 248
-0.32186 -0.207209 -0.627 251 254 247
-0.276546 -0.211835 -0.641 251 252 247
-0.165409 -0.207209 -0.627 185 185 175
-0.16276 -0.206878 -0.626 184 184 174
-0.148346 -0.211835 -0.641 188 186 174
-0.147354 -0.212166 -0.642 188 186 174
-0.144357 -0.213157 -0.645 188 186 173
-0.330805 -0.211062 -0.635 251 252 244
-0.324766 -0.208735 -0.628 247 250 243
-0.318962 -0.20807 -0.626 165 168 161
-0.317262 -0.207738 -0.625 148 150 145
-0.31369 -0.207738 -0.625 146 147 142
-0.274205 -0.21505 -0.647 252 253 248
-0.166337 -0.20807 -0.626 184 184 174
-0.153487 -0.211727 -0.637 187 187 175
-0.148577 -0.213389 -0.642 188 186 174
-0.14234 -0.21505 -0.647 184 182 169
-0.0494486 -0.213056 -0.641 69 68 76
-0.27846 -0.21294 -0.637 253 254 249
-0.175602 -0.213274 -0.638 181 182 174
-0.161144 -0.210266 -0.629 186 186 174
-0.154457 -0.212606 -0.636 186 186 174
-0.152512 -0.213274 -0.638 186 186 174
-0.148577 -0.214611 -0.642 185 185 173
-0.145586 -0.215614 -0.645 185 186 172
-0.144581 -0.215949 -0.646 185 186 172
-0.0412848 -0.216283 -0.647 82 79 88
-0.276467 -0.21449 -0.638 255 253 248
-0.275683 -0.214826 -0.639 254 255 250
-0.0517286 -0.214826 -0.639 65 65 73
-0.04914 -0.214153 -0.637 68 67 75
-0.0434114 -0.215834 -0.642 79 76 83
-0.0401762 -0.218188 -0.649 81 78 89
-0.322697 -0.210971 -0.624 254 255 250
-0.31369 -0.21131 -0.625 140 142 137
-0.274895 -0.216381 -0.64 252 253 248
-0.167797 -0.211986 -0.627 185 186 178
-0.157594 -0.214352 -0.634 186 186 176
-0.143794 -0.219086 -0.648 180 181 167
-0.141544 -0.219424 -0.649 180 181 167
-0.0543324 -0.216719 -0.641 69 67 78
-0.0514857 -0.215029 -0.636 70 69 77
-0.317943 -0.21216 -0.624 139 144 137
-0.315566 -0.21216 -0.624 134 136 131
-0.176817 -0.21692 -0.638 183 184 176
-0.158802 -0.21556 -0.634 187 187 177
-0.153969 -0.21726 -0.639 188 188 176
-0.145811 -0.21964 -0.646 183 183 171
-0.14278 -0.22066 -0.649 179 180 166
-0.0513238 -0.21556 -0.634 70 69 77
-0.04232 -0.21896 -0.644 80 79 85
-0.343918 -0.22087 -0.646 252 253 247
-0.333224 -0.21711 -0.635 252 253 247
-0.317943 -0.213349 -0.624 140 145 138
-0.316754 -0.213349 -0.624 137 140 133
-0.315566 -0.213349 -0.624 131 134 127
-0.278795 -0.21711 -0.635 251 254 247
-0.27416 -0.220187 -0.644 250 251 246
-0.273357 -0.220529 -0.645 250 251 246
-0.1722 -0.2154 -0.63 183 184 176
-0.152246 -0.219503 -0.642 188 188 178
-0.0612857 -0.222238 -0.65 71 68 75
-0.0501162 -0.216768 -0.634 71 70 78
-0.0444257 -0.218477 -0.639 77 74 81
-0.04232 -0.220187 -0.644 80 79 85
-0.0401762 -0.221896 -0.649 79 78 86
-0.341096 -0.22107 -0.643 252 253 247
-0.338286 -0.220038 -0.64 252 253 247
-0.314377 -0.214537 -0.624 129 131 126
-0.27416 -0.221413 -0.644 250 251 246
-0.1722 -0.2166 -0.63 183 184 176
-0.170457 -0.215912 -0.628 184 185 177
-0.149271 -0.221757 -0.645 188 186 174
-0.147042 -0.222101 -0.646 185 183 171
-0.0500371 -0.217631 -0.633 72 71 79
-0.0476257 -0.217631 -0.633 74 71 78
-0.0434114 -0.220726 -0.642 79 76 83
-0.04232 -0.221413 -0.644 81 78 85
-0.346217 -0.224023 -0.648 252 253 247
-0.335487 -0.22022 -0.637 252 253 247
-0.321509 -0.215726 -0.624 247 252 245
-0.316754 -0.215726 -0.624 132 135 128
-0.314377 -0.215726 -0.624 126 128 123
-0.273 -0.224714 -0.65 250 251 246
-0.17887 -0.221603 -0.641 184 185 177
-0.174226 -0.218837 -0.633 184 185 177
-0.152483 -0.222294 -0.643 190 188 176
-0.0487543 -0.218491 -0.632 73 70 79
-0.0464933 -0.219183 -0.634 76 73 80
-0.0455 -0.22022 -0.637 76 73 80
-0.0412848 -0.223677 -0.647 79 78 86
-0.338286 -0.222476 -0.64 252 253 247
-0.324924 -0.21761 -0.626 252 255 248
-0.317433 -0.216567 -0.623 153 156 149
-0.312 -0.216914 -0.624 120 120 118
-0.17887 -0.222824 -0.641 185 186 178
-0.165409 -0.217957 -0.627 187 187 177
-0.164214 -0.217957 -0.627 188 188 178
-0.161656 -0.219348 -0.631 188 188 178
-0.152483 -0.223519 -0.643 190 188 175
-0.1505 -0.224214 -0.645 189 187 174
-0.0588467 -0.221433 -0.637 61 58 67
-0.0475505 -0.219695 -0.632 74 73 81
-0.0401762 -0.225605 -0.649 79 78 86
-0.346217 -0.226491 -0.648 252 253 248
-0.32032 -0.218103 -0.624 236 239 232
-0.315566 -0.218103 -0.624 128 131 124
-0.312 -0.218103 -0.624 122 122 120
-0.275683 -0.223346 -0.639 252 253 248
-0.182619 -0.22719 -0.65 186 186 178
-0.165409 -0.219151 -0.627 188 188 178
-0.0647 -0.226142 -0.647 71 69 74
-0.0572714 -0.221249 -0.633 67 66 74
-0.049879 -0.22055 -0.631 74 73 78
-0.346217 -0.227726 -0.648 252 253 248
-0.340566 -0.225617 -0.642 251 252 247
-0.335487 -0.22386 -0.637 252 253 248
-0.322697 -0.219291 -0.624 247 252 245
-0.281214 -0.223157 -0.635 255 254 249
-0.27846 -0.22386 -0.637 253 252 247
-0.15834 -0.22386 -0.637 191 189 177
-0.155671 -0.225266 -0.641 190 187 178
-0.149503 -0.227023 -0.646 187 185 172
-0.147497 -0.227726 -0.648 186 184 172
-0.143 -0.228429 -0.65 182 180 168
-0.0674762 -0.228429 -0.65 74 72 77
-0.0412848 -0.227374 -0.647 80 79 87
-0.343918 -0.228253 -0.646 251 252 247
-0.336013 -0.225427 -0.638 252 253 248
-0.323214 -0.220833 -0.625 250 253 246
-0.316754 -0.22048 -0.624 191 196 190
-0.281979 -0.224013 -0.634 251 252 247
-0.276467 -0.225427 -0.638 250 251 245
-0.169261 -0.221893 -0.628 190 190 178
-0.160963 -0.22366 -0.633 192 189 180
-0.160262 -0.224367 -0.635 192 190 178
-0.0669571 -0.2279 -0.645 71 70 76
-0.0637 -0.225073 -0.637 67 64 73
-0.050919 -0.222247 -0.629 71 70 78
-0.0433438 -0.226487 -0.641 76 75 83
-0.343918 -0.229484 -0.646 251 252 246
-0.316754 -0.221669 -0.624 220 222 217
-0.315566 -0.221669 -0.624 195 197 192
-0.274629 -0.230194 -0.648 252 253 247
-0.174226 -0.224866 -0.633 186 186 176
-0.169261 -0.22309 -0.628 188 188 176
-0.160963 -0.224866 -0.633 191 188 179
-0.156892 -0.227708 -0.641 192 190 178
-0.148502 -0.229839 -0.647 186 184 172
-0.0619962 -0.22451 -0.632 69 66 75
-0.0580152 -0.22309 -0.628 69 68 76
-0.0554457 -0.222379 -0.626 70 68 79
-0.333749 -0.227143 -0.636 251 252 247
-0.330969 -0.226071 -0.633 252 253 248
-0.317943 -0.222857 -0.624 248 250 245
-0.307738 -0.223214 -0.625 124 129 123
-0.284394 -0.226429 -0.634 255 255 251
-0.277682 -0.227857 -0.638 251 254 247
-0.2769 -0.228214 -0.639 250 253 246
-0.174501 -0.226429 -0.634 186 186 176
-0.170729 -0.224643 -0.629 186 186 176
-0.1626 -0.225 -0.63 191 191 179
-0.153947 -0.23 -0.644 191 189 177
-0.151729 -0.230357 -0.645 189 187 175
-0.0720943 -0.231071 -0.647 69 67 70
-0.0704238 -0.229643 -0.643 78 75 82
-0.0578305 -0.223571 -0.626 69 66 75
-0.053061 -0.223571 -0.626 70 68 79
-0.047701 -0.226429 -0.634 73 72 80
-0.310119 -0.224405 -0.625 173 178 172
-0.275476 -0.233381 -0.65 252 253 247
-0.174501 -0.227636 -0.634 187 187 177
-0.1626 -0.2262 -0.63 190 190 178
-0.160963 -0.227277 -0.633 193 190 181
-0.148502 -0.232304 -0.647 186 184 172
-0.143 -0.233381 -0.65 210 208 195
-0.0761429 -0.233381 -0.65 138 138 138
-0.0542533 -0.224764 -0.626 72 69 80
-0.04232 -0.231227 -0.644 78 75 86
-0.324249 -0.226317 -0.627 253 254 249
-0.320833 -0.225595 -0.625 253 255 250
-0.31131 -0.225595 -0.625 239 241 236
-0.308929 -0.225595 -0.625 207 209 204
-0.283187 -0.228844 -0.634 252 253 248
-0.282424 -0.229205 -0.635 252 253 248
-0.279673 -0.229927 -0.637 252 255 248
-0.278897 -0.230288 -0.638 252 255 248
-0.167134 -0.227039 -0.629 188 188 178
-0.165672 -0.226678 -0.628 188 188 178
-0.160963 -0.228483 -0.633 193 190 181
-0.160262 -0.229205 -0.635 193 190 181
-0.15762 -0.230649 -0.639 193 190 181
-0.15272 -0.232453 -0.644 191 189 177
-0.149503 -0.233175 -0.646 187 185 173
-0.144016 -0.234258 -0.649 211 207 195
-0.143 -0.234619 -0.65 217 213 201
-0.0444952 -0.23101 -0.64 75 72 83
-0.332537 -0.230777 -0.636 253 254 249
-0.329242 -0.229326 -0.632 253 254 249
-0.324766 -0.227874 -0.628 254 255 250
-0.316071 -0.226786 -0.625 253 254 249
-0.279334 -0.231866 -0.639 251 254 247
-0.160963 -0.229689 -0.633 192 189 180
-0.158589 -0.231503 -0.638 195 192 183
-0.15272 -0.23368 -0.644 191 189 177
-0.05874 -0.22606 -0.623 71 69 80
-0.0521171 -0.228237 -0.629 70 68 79
-0.0411571 -0.234043 -0.645 76 74 85
-0.341457 -0.235636 -0.646 252 253 248
-0.316071 -0.227976 -0.625 252 253 248
-0.31369 -0.227976 -0.625 255 255 253
-0.285602 -0.231259 -0.634 159 161 158
-0.283313 -0.232353 -0.637 243 244 239
-0.278988 -0.233812 -0.641 253 254 248
-0.179034 -0.235636 -0.646 198 199 191
-0.1626 -0.2298 -0.63 195 193 181
-0.16001 -0.231259 -0.634 194 191 182
-0.159303 -0.231989 -0.636 195 192 183
-0.154691 -0.234177 -0.642 193 191 179
-0.144016 -0.23673 -0.649 232 228 216
-0.0848095 -0.237095 -0.65 232 228 216
-0.0552686 -0.227611 -0.624 70 68 79
-0.0499581 -0.23053 -0.632 72 72 82
-0.0477762 -0.231624 -0.635 74 72 83
-0.314881 -0.229167 -0.625 252 253 248
-0.311808 -0.229533 -0.626 252 253 248
-0.306334 -0.2299 -0.627 251 252 247
-0.285291 -0.2332 -0.636 168 170 165
-0.0859152 -0.237967 -0.649 222 219 210
-0.0814467 -0.235767 -0.643 108 107 105
-0.072139 -0.229533 -0.626 67 65 78
-0.0532305 -0.230267 -0.628 70 68 79
-0.0455714 -0.233933 -0.638 74 72 83
-0.335674 -0.236623 -0.642 251 252 247
-0.332889 -0.235517 -0.639 251 252 247
-0.32563 -0.232937 -0.632 252 253 247
-0.318962 -0.230726 -0.626 252 253 247
-0.300842 -0.231463 -0.628 252 253 248
-0.166603 -0.231094 -0.627 188 188 180
-0.165409 -0.231094 -0.627 189 189 181
-0.162342 -0.231831 -0.629 188 188 176
-0.159757 -0.233306 -0.633 194 191 182
-0.156403 -0.235517 -0.639 195 192 183
-0.152483 -0.236991 -0.643 190 187 178
-0.144805 -0.238466 -0.647 231 223 212
-0.14256 -0.238834 -0.648 215 207 196
-0.138048 -0.239571 -0.65 214 206 193
-0.0690857 -0.228514 -0.62 62 60 73
-0.05434 -0.231094 -0.627 69 67 78
-0.0500371 -0.233306 -0.633 72 70 81
-0.0478514 -0.234411 -0.636 73 73 85
-0.314694 -0.232289 -0.627 252 253 247
-0.311111 -0.232289 -0.627 253 254 249
-0.302519 -0.23303 -0.629 252 253 248
-0.298925 -0.23303 -0.629 253 254 249
-0.297 -0.2334 -0.63 253 254 249
-0.295068 -0.23377 -0.631 253 254 249
-0.293128 -0.234141 -0.632 253 254 249
-0.287714 -0.235623 -0.636 237 239 236
-0.282747 -0.238587 -0.644 224 224 222
-0.153469 -0.237846 -0.642 194 191 182
-0.151258 -0.238216 -0.643 191 188 179
-0.147042 -0.239328 -0.646 191 188 179
-0.0862114 -0.237846 -0.642 164 164 166
-0.0665086 -0.228954 -0.618 71 68 79
-0.0410933 -0.238587 -0.644 77 76 84
-0.0399905 -0.239328 -0.646 79 78 86
-0.33271 -0.238696 -0.641 251 252 246
-0.323734 -0.235717 -0.633 251 252 246
-0.3198 -0.2346 -0.63 252 253 247
-0.304915 -0.234228 -0.629 253 254 249
-0.2994 -0.2346 -0.63 253 254 249
-0.292386 -0.235717 -0.633 252 253 248
-0.290432 -0.23609 -0.634 252 254 249
-0.285867 -0.238324 -0.64 139 139 137
-0.282831 -0.24093 -0.647 202 202 200
-0.281667 -0.242048 -0.65 204 204 202
-0.16276 -0.23311 -0.626 190 190 180
-0.156633 -0.236462 -0.635 197 194 185
-0.14335 -0.240558 -0.646 220 212 201
-0.0748695 -0.230504 -0.619 69 68 76
-0.0522829 -0.234972 -0.631 72 70 81
-0.0511619 -0.235345 -0.632 73 71 82
-0.332006 -0.240291 -0.642 251 252 246
-0.323038 -0.237297 -0.634 251 252 246
-0.319106 -0.236174 -0.631 251 252 247
-0.306113 -0.235426 -0.629 253 254 249
-0.284757 -0.240666 -0.643 121 121 119
-0.283625 -0.241789 -0.646 229 229 227
-0.167797 -0.234677 -0.627 196 196 188
-0.166071 -0.233929 -0.625 193 193 183
-0.147813 -0.24104 -0.644 193 190 181
-0.145586 -0.241414 -0.645 221 213 200
-0.137835 -0.242911 -0.649 219 211 198
-0.131857 -0.243286 -0.65 225 217 204
-0.0911029 -0.240291 -0.642 191 192 187
-0.0733333 -0.23056 -0.616 70 69 77
-0.0674667 -0.23056 -0.616 69 68 76
-0.0619 -0.231683 -0.619 70 69 77
-0.0555343 -0.234677 -0.627 72 70 81
-0.0534 -0.2358 -0.63 72 70 81
-0.0421886 -0.240291 -0.642 76 74 85
-0.03876 -0.241789 -0.646 78 76 87
-0.326291 -0.24001 -0.638 252 253 248
-0.321129 -0.238881 -0.635 251 252 247
-0.3126 -0.237 -0.63 252 253 248
-0.303481 -0.237376 -0.631 252 252 250
-0.30035 -0.237752 -0.632 252 252 250
-0.298414 -0.238129 -0.633 253 253 251
-0.294519 -0.238881 -0.635 253 253 251
-0.156849 -0.237376 -0.631 200 197 188
-0.143129 -0.242643 -0.645 221 215 201
-0.137623 -0.243771 -0.648 220 212 199
-0.08876 -0.238505 -0.634 79 80 82
-0.0871381 -0.237376 -0.631 69 70 72
-0.0444257 -0.240386 -0.639 73 71 82
-0.0364676 -0.244148 -0.649 79 78 86
-0.338619 -0.245762 -0.65 252 253 248
-0.332329 -0.243871 -0.645 252 253 247
-0.330073 -0.243115 -0.643 252 253 247
-0.302031 -0.239334 -0.633 252 252 250
-0.296194 -0.240469 -0.636 252 252 250
-0.290743 -0.241981 -0.64 254 255 253
-0.288431 -0.243115 -0.643 250 252 249
-0.146131 -0.242737 -0.642 212 209 200
-0.134127 -0.245384 -0.649 224 219 200
-0.0958448 -0.242359 -0.641 198 198 196
-0.0911752 -0.239712 -0.634 80 79 84
-0.0845743 -0.234797 -0.621 76 74 85
-0.0818114 -0.233663 -0.618 75 74 82
-0.0777733 -0.23215 -0.614 70 69 77
-0.0718086 -0.231772 -0.613 69 68 76
-0.0684171 -0.23215 -0.614 68 68 76
-0.0662933 -0.232907 -0.616 69 68 76
-0.063181 -0.234419 -0.62 69 68 76
-0.0511619 -0.238956 -0.632 70 68 79
-0.0500371 -0.239334 -0.633 71 69 80
-0.0410295 -0.243115 -0.643 75 75 85
-0.317287 -0.24206 -0.637 253 254 248
-0.313871 -0.2413 -0.635 253 254 248
-0.298617 -0.24168 -0.636 252 252 250
-0.293181 -0.2432 -0.64 254 255 255
-0.1542 -0.2394 -0.63 201 198 189
-0.148633 -0.24206 -0.637 194 191 182
-0.146666 -0.24282 -0.639 205 202 193
-0.123001 -0.24662 -0.649 235 228 210
-0.109403 -0.24662 -0.649 244 238 224
-0.105206 -0.24548 -0.646 249 243 227
-0.0685286 -0.2337 -0.615 69 69 77
-0.0673571 -0.2337 -0.615 70 68 79
-0.0557114 -0.23902 -0.629 70 68 79
-0.0534 -0.2394 -0.63 71 69 80
-0.0501162 -0.24092 -0.634 72 70 81
-0.0467133 -0.24206 -0.637 72 72 82
-0.330383 -0.24671 -0.646 253 254 248
-0.31657 -0.243655 -0.638 253 254 249
-0.31486 -0.243273 -0.637 253 254 249
-0.313647 -0.243273 -0.637 253 254 249
-0.302727 -0.243273 -0.637 253 253 251
-0.301987 -0.243655 -0.638 253 253 251
-0.29532 -0.245183 -0.642 253 255 252
-0.291786 -0.246329 -0.645 251 253 250
-0.16198 -0.237927 -0.623 217 218 212
-0.158838 -0.236781 -0.62 202 201 196
-0.157233 -0.237927 -0.623 200 197 188
-0.152757 -0.240218 -0.629 203 200 191
-0.147189 -0.242891 -0.636 197 194 185
-0.137786 -0.245565 -0.643 223 216 200
-0.13432 -0.245947 -0.644 226 219 203
-0.115406 -0.247474 -0.648 241 235 221
-0.114171 -0.247474 -0.648 242 236 222
-0.0910714 -0.23869 -0.625 71 70 78
-0.0798514 -0.233726 -0.612 71 71 79
-0.06864 -0.235253 -0.616 70 70 80
-0.0654371 -0.236399 -0.619 71 70 78
-0.0467133 -0.243273 -0.637 72 72 82
-0.0455714 -0.243655 -0.638 74 74 84
-0.0444257 -0.244037 -0.639 75 75 85
-0.0398667 -0.245947 -0.644 74 74 84
-0.331406 -0.248709 -0.648 253 254 248
-0.309278 -0.24487 -0.638 253 254 249
-0.302933 -0.245638 -0.64 253 254 249
-0.294243 -0.247557 -0.645 252 254 251
-0.16224 -0.239497 -0.624 235 236 231
-0.152271 -0.240649 -0.627 209 206 197
-0.14378 -0.244487 -0.637 226 219 200
-0.137357 -0.246022 -0.641 229 224 205
-0.128187 -0.247173 -0.644 237 232 213
-0.111013 -0.247173 -0.644 245 241 230
-0.109616 -0.24679 -0.643 246 242 231
-0.108223 -0.246406 -0.642 247 243 232
-0.104066 -0.245254 -0.639 215 215 207
-0.0727381 -0.234508 -0.611 72 70 83
-0.0697 -0.236043 -0.615 71 71 83
-0.0633848 -0.23873 -0.622 72 70 81
-0.0432762 -0.245638 -0.64 77 75 86
-0.0387 -0.247557 -0.645 76 74 85
-0.0340476 -0.249476 -0.65 78 76 87
-0.327197 -0.249557 -0.647 253 254 249
-0.32423 -0.249171 -0.646 252 253 248
-0.3225 -0.248786 -0.645 252 253 248
-0.295611 -0.249943 -0.648 253 255 252
-0.29281 -0.250714 -0.65 253 255 252
-0.144083 -0.244157 -0.633 223 221 209
-0.143103 -0.244543 -0.634 224 219 200
-0.119414 -0.248014 -0.643 240 237 222
-0.11819 -0.248014 -0.643 242 238 227
-0.1002 -0.243 -0.63 73 72 78
-0.0970238 -0.241071 -0.625 80 79 85
-0.0613095 -0.241071 -0.625 70 70 78
0.184223 -0.241457 -0.626 175 125 114
0.189577 -0.240686 -0.624 169 114 117
0.191377 -0.241457 -0.626 173 118 121
-0.329952 -0.251952 -0.65 252 253 247
-0.328209 -0.251565 -0.649 252 253 247
-0.3235 -0.25079 -0.647 252 253 248
-0.152933 -0.240324 -0.62 222 223 217
-0.128208 -0.247301 -0.638 228 226 213
-0.118857 -0.248076 -0.64 241 237 225
-0.112233 -0.246913 -0.637 240 237 232
-0.0990867 -0.241487 -0.623 81 80 88
-0.0903429 -0.237223 -0.612 76 75 83
-0.08526 -0.23606 -0.609 75 74 82
-0.0841 -0.23606 -0.609 75 74 82
-0.0783 -0.23606 -0.609 72 71 79
-0.0569095 -0.243812 -0.629 71 71 81
-0.0478514 -0.246526 -0.636 73 73 81
-0.0398667 -0.249627 -0.644 76 75 83
0.180691 -0.239549 -0.618 175 124 120
-0.321035 -0.252022 -0.647 252 253 247
-0.316848 -0.251632 -0.646 252 253 247
-0.311443 -0.251243 -0.645 253 254 249
-0.308986 -0.251243 -0.645 253 254 249
-0.150329 -0.241115 -0.619 235 236 231
-0.136632 -0.246179 -0.632 225 223 211
-0.133231 -0.246569 -0.633 228 225 216
-0.127191 -0.248906 -0.639 229 225 213
-0.11448 -0.247737 -0.636 234 233 228
-0.0996295 -0.241115 -0.619 81 80 88
-0.0925229 -0.237999 -0.611 77 76 84
-0.0862781 -0.23683 -0.608 76 75 83
-0.0828038 -0.23683 -0.608 74 73 81
-0.0816457 -0.23683 -0.608 75 74 82
-0.0730952 -0.239168 -0.614 72 70 81
-0.0689743 -0.241115 -0.619 73 71 82
-0.0455714 -0.248516 -0.638 73 73 83
-0.0432762 -0.249295 -0.64 74 72 83
0.176013 -0.239168 -0.614 184 139 134
-0.322028 -0.254037 -0.649 253 254 248
-0.313641 -0.253254 -0.647 253 254 249
-0.30672 -0.253646 -0.648 253 253 251
-0.303485 -0.254037 -0.649 253 253 251
-0.302714 -0.254429 -0.65 253 253 251
-0.1602 -0.2466 -0.63 190 191 193
-0.148668 -0.241511 -0.617 243 242 238
-0.144667 -0.242686 -0.62 241 240 235
-0.143717 -0.243077 -0.621 240 239 234
-0.121174 -0.247774 -0.633 244 244 236
-0.115984 -0.246991 -0.631 225 224 220
-0.08498 -0.237597 -0.607 76 75 83
-0.0679048 -0.242686 -0.62 71 71 81
-0.0535695 -0.247383 -0.632 72 72 80
-0.0490629 -0.248949 -0.636 70 73 82
-0.0398667 -0.25208 -0.644 74 74 82
-0.0340476 -0.254429 -0.65 76 74 85
0.174293 -0.237989 -0.608 187 140 134
0.176306 -0.236031 -0.603 182 124 120
0.178603 -0.236031 -0.603 167 112 105
0.18235 -0.236423 -0.604 181 131 122
0.185494 -0.236031 -0.603 190 143 137
0.201086 -0.239554 -0.612 175 126 122
0.226841 -0.254037 -0.649 162 116 116
-0.310902 -0.255273 -0.649 253 254 249
-0.306429 -0.255667 -0.65 253 253 251
-0.148186 -0.2419 -0.615 231 231 229
-0.14608 -0.242293 -0.616 237 236 234
-0.141124 -0.243867 -0.62 242 241 237
-0.140169 -0.24426 -0.621 240 239 235
-0.13295 -0.246227 -0.626 235 236 231
-0.129 -0.2478 -0.63 242 241 236
-0.110953 -0.245047 -0.623 76 77 81
-0.0957 -0.23954 -0.609 75 74 80
-0.08498 -0.238753 -0.607 76 75 81
-0.0723943 -0.24308 -0.618 72 72 80
-0.0680143 -0.24426 -0.621 71 71 79
-0.066939 -0.244653 -0.622 71 71 79
-0.0635886 -0.24544 -0.624 71 71 81
-0.0614076 -0.246227 -0.626 71 71 81
-0.0524486 -0.24898 -0.633 71 74 83
-0.0501952 -0.249767 -0.635 71 74 83
-0.0456429 -0.25134 -0.639 70 73 80
0.180841 -0.235607 -0.599 190 140 131
0.182817 -0.235213 -0.598 194 147 139
0.191237 -0.23718 -0.603 185 134 130
0.192067 -0.236787 -0.602 181 130 126
0.195831 -0.23718 -0.603 180 129 125
0.199114 -0.23836 -0.606 174 123 120
0.22896 -0.25488 -0.648 156 108 108
-0.147945 -0.242676 -0.614 189 189 191
-0.141387 -0.243467 -0.616 217 217 217
-0.135219 -0.245048 -0.62 217 215 216
-0.120833 -0.247024 -0.625 148 148 146
-0.115514 -0.245838 -0.622 71 70 75
-0.0952286 -0.239514 -0.606 78 77 83
-0.0881571 -0.239119 -0.605 76 75 81
-0.0766038 -0.242676 -0.614 73 74 79
-0.0691971 -0.245443 -0.621 68 71 78
-0.06586 -0.246233 -0.623 71 71 79
-0.0421886 -0.253743 -0.642 72 75 82
0.17653 -0.235562 -0.596 176 121 114
0.190967 -0.235167 -0.595 184 133 130
0.221598 -0.250581 -0.634 149 103 106
-0.147945 -0.243846 -0.614 108 109 113
-0.134254 -0.246626 -0.621 215 213 214
-0.0986914 -0.240669 -0.606 77 76 82
-0.0962238 -0.240271 -0.605 78 77 83
-0.0939191 -0.240271 -0.605 76 75 81
-0.0582 -0.2502 -0.63 71 74 81
-0.0524486 -0.251391 -0.633 74 74 84
-0.0375876 -0.256951 -0.647 76 76 86
0.16801 -0.237491 -0.598 187 138 131
0.17653 -0.236697 -0.596 176 121 114
0.184677 -0.235506 -0.593 185 136 131
0.191454 -0.235506 -0.593 183 132 129
0.21538 -0.24742 -0.623 144 99 102
0.229286 -0.254966 -0.642 145 99 101
-0.150329 -0.24701 -0.619 100 101 103
-0.148668 -0.246212 -0.617 106 107 111
-0.135806 -0.244217 -0.612 96 96 98
-0.125929 -0.245414 -0.615 75 74 79
-0.112124 -0.243419 -0.61 63 62 68
-0.108282 -0.242621 -0.608 64 63 68
-0.100667 -0.241025 -0.604 74 73 79
-0.0983657 -0.241025 -0.604 78 77 83
-0.0960648 -0.241025 -0.604 76 75 81
-0.0893095 -0.241424 -0.605 78 77 85
-0.0883029 -0.241823 -0.606 77 76 84
-0.0811495 -0.244616 -0.613 74 75 80
-0.0715629 -0.247809 -0.621 73 73 81
-0.0604076 -0.250602 -0.628 71 74 81
-0.0536543 -0.252597 -0.633 73 73 83
-0.0513238 -0.252996 -0.634 70 70 80
-0.0421886 -0.256189 -0.642 74 74 82
0.164042 -0.237832 -0.596 196 149 139
0.169433 -0.237433 -0.595 183 135 125
0.180677 -0.235837 -0.591 191 142 135
0.218452 -0.249405 -0.625 138 96 98
-0.147492 -0.247388 -0.617 108 109 111
-0.13746 -0.24418 -0.609 98 99 103
-0.1247 -0.24418 -0.609 72 71 77
-0.122179 -0.243779 -0.608 70 69 75
-0.112357 -0.242576 -0.605 65 65 73
-0.102627 -0.241373 -0.602 76 76 84
-0.10148 -0.241373 -0.602 76 76 84
-0.0937638 -0.242175 -0.604 78 77 83
-0.0927667 -0.242576 -0.605 77 76 82
-0.0884486 -0.243378 -0.607 77 76 82
-0.0833486 -0.245383 -0.612 77 76 82
-0.0823171 -0.245784 -0.613 77 76 82
-0.0627 -0.251397 -0.627 72 71 79
-0.0559771 -0.253402 -0.632 78 78 86
-0.0502743 -0.255006 -0.636 93 93 101
-0.0457143 -0.25661 -0.64 73 71 82
0.163453 -0.23977 -0.598 200 153 143
0.17309 -0.237364 -0.592 180 123 114
0.177 -0.236562 -0.59 195 145 138
0.17976 -0.23576 -0.588 196 146 137
0.18473 -0.234958 -0.586 189 142 136
-0.150836 -0.252189 -0.626 114 115 117
-0.144671 -0.247757 -0.615 108 107 112
-0.14001 -0.245743 -0.61 104 103 108
-0.123881 -0.243729 -0.605 68 67 73
-0.115049 -0.242117 -0.601 65 65 73
-0.113904 -0.242117 -0.601 64 64 72
-0.112759 -0.242117 -0.601 63 63 71
-0.0991867 -0.24252 -0.602 76 75 81
-0.09292 -0.244131 -0.606 77 76 82
-0.08874 -0.24534 -0.609 77 76 82
-0.0792 -0.24816 -0.616 76 75 83
-0.0617019 -0.253397 -0.629 73 71 82
-0.0594 -0.2538 -0.63 75 74 82
-0.05486 -0.255009 -0.633 112 112 122
-0.04914 -0.25662 -0.637 87 87 97
0.160024 -0.246146 -0.611 192 148 137
0.160839 -0.242117 -0.601 194 151 142
0.162043 -0.240506 -0.597 192 148 139
0.167169 -0.238089 -0.591 181 125 112
0.171671 -0.238089 -0.591 176 118 107
0.188078 -0.236074 -0.586 183 126 119
0.19096 -0.23688 -0.588 181 121 113
0.239203 -0.261454 -0.649 142 91 96
-0.134474 -0.245286 -0.606 93 94 98
-0.1331 -0.244881 -0.605 84 85 89
-0.131948 -0.244881 -0.605 74 75 80
-0.124207 -0.243262 -0.601 65 65 73
-0.0793286 -0.249738 -0.617 76 75 83
-0.06942 -0.252167 -0.623 74 73 81
-0.0639962 -0.25419 -0.628 75 73 84
-0.0606 -0.255 -0.63 75 73 84
-0.04686 -0.258643 -0.639 76 74 85
-0.0445648 -0.259452 -0.641 74 72 83
-0.03876 -0.261476 -0.646 74 72 83
0.160686 -0.239619 -0.592 195 147 137
0.166603 -0.238405 -0.589 180 120 109
0.184894 -0.235976 -0.583 189 136 130
0.190635 -0.237595 -0.587 175 114 109
0.195972 -0.240024 -0.593 166 107 103
0.20604 -0.245286 -0.606 140 93 99
-0.137009 -0.246847 -0.607 99 100 104
-0.114453 -0.240747 -0.592 63 63 71
-0.101143 -0.244 -0.6 73 73 81
-0.083621 -0.249693 -0.614 76 75 81
-0.0815467 -0.250507 -0.616 77 76 82
-0.0728629 -0.252947 -0.622 75 74 82
-0.0683429 -0.25376 -0.624 74 73 81
-0.057181 -0.257013 -0.632 105 104 112
-0.05486 -0.25742 -0.633 77 75 86
-0.04686 -0.25986 -0.639 76 74 85
-0.0364676 -0.263927 -0.649 74 73 81
0.155381 -0.264333 -0.65 206 167 162
0.155414 -0.2623 -0.645 207 168 163
0.155719 -0.250913 -0.617 200 157 150
0.17601 -0.237087 -0.583 197 147 140
0.179034 -0.23668 -0.582 194 141 135
0.187757 -0.2379 -0.585 173 118 113
0.190635 -0.238713 -0.587 173 114 108
0.2238 -0.2562 -0.63 131 89 93
-0.129498 -0.244734 -0.599 72 73 78
-0.125233 -0.2431 -0.595 73 74 79
-0.120091 -0.241874 -0.592 78 77 85
-0.117438 -0.241057 -0.59 77 76 84
-0.111819 -0.241057 -0.59 61 62 67
-0.110695 -0.241057 -0.59 57 58 63
-0.109571 -0.241057 -0.59 56 57 62
-0.105789 -0.242691 -0.594 66 67 72
-0.09338 -0.24882 -0.609 78 77 83
-0.091359 -0.249637 -0.611 79 78 84
-0.0837571 -0.251271 -0.615 78 77 83
-0.0739286 -0.253723 -0.621 74 73 81
-0.0639962 -0.256583 -0.628 72 72 80
-0.0618 -0.2574 -0.63 71 71 79
-0.0560657 -0.258626 -0.633 129 128 136
0.155914 -0.262303 -0.642 205 166 161
0.153952 -0.249229 -0.61 201 158 151
0.155048 -0.241874 -0.592 199 155 144
0.162406 -0.239423 -0.586 180 124 109
0.169391 -0.239831 -0.587 201 147 135
0.172157 -0.239014 -0.585 201 148 142
0.17762 -0.23738 -0.581 195 140 135
0.182047 -0.23738 -0.581 189 134 127
0.183469 -0.237789 -0.582 184 129 122
0.196303 -0.242691 -0.594 159 101 97
0.213306 -0.252089 -0.617 128 81 89
0.221893 -0.256583 -0.628 132 85 93
0.232229 -0.261486 -0.64 131 79 92
0.233812 -0.261894 -0.641 134 82 95
-0.139758 -0.252032 -0.614 106 105 110
-0.123266 -0.242591 -0.591 79 80 85
-0.117959 -0.24095 -0.587 79 78 86
-0.116642 -0.240539 -0.586 76 75 83
-0.10656 -0.243002 -0.592 61 62 67
-0.10561 -0.243412 -0.593 64 65 70
-0.0986914 -0.248749 -0.606 74 73 78
-0.0946952 -0.25039 -0.61 76 75 81
-0.0893229 -0.251622 -0.613 79 78 84
-0.0794571 -0.253674 -0.618 76 75 83
-0.07298 -0.255727 -0.623 75 74 82
-0.0640981 -0.25819 -0.629 73 72 78
-0.0514857 -0.261063 -0.636 84 84 92
-0.0503533 -0.261473 -0.637 76 76 84
-0.0492171 -0.261884 -0.638 75 75 83
0.152534 -0.242591 -0.591 195 154 148
0.154 -0.24136 -0.588 196 148 138
0.158786 -0.240129 -0.585 189 135 123
0.164638 -0.240539 -0.586 174 117 106
0.165754 -0.240539 -0.586 178 121 110
0.168814 -0.240129 -0.585 203 150 142
0.189194 -0.240539 -0.586 167 110 101
0.200237 -0.245875 -0.599 142 91 90
0.20672 -0.24957 -0.608 130 83 91
0.208904 -0.250801 -0.611 123 76 84
0.232591 -0.263115 -0.641 128 78 90
-0.155381 -0.268048 -0.65 124 126 125
-0.104833 -0.245367 -0.595 63 62 68
-0.102115 -0.247016 -0.599 67 66 72
-0.099681 -0.24949 -0.605 72 71 77
-0.0795857 -0.255264 -0.619 76 75 83
-0.0651924 -0.258975 -0.628 73 72 80
-0.0526971 -0.262274 -0.636 67 67 75
0.150839 -0.260212 -0.631 201 162 157
0.15176 -0.24248 -0.588 191 151 143
0.15629 -0.24083 -0.584 190 138 125
0.168526 -0.24083 -0.584 202 149 143
0.174803 -0.238769 -0.579 199 144 139
0.179524 -0.239181 -0.58 185 130 123
0.187757 -0.241243 -0.585 169 112 103
0.19096 -0.24248 -0.588 163 102 99
0.194514 -0.24413 -0.592 156 98 96
0.198764 -0.246604 -0.598 142 90 92
0.202723 -0.248666 -0.603 135 86 92
0.20706 -0.25114 -0.609 128 78 89
0.2275 -0.262687 -0.637 119 76 83
0.23137 -0.264336 -0.641 119 71 83
-0.14742 -0.2639 -0.637 111 115 114
-0.103874 -0.246914 -0.596 62 61 67
-0.0939933 -0.253957 -0.613 75 74 82
-0.0652962 -0.260586 -0.629 73 72 80
-0.0504324 -0.264314 -0.638 70 70 80
-0.0365238 -0.269286 -0.65 75 74 82
0.145811 -0.267629 -0.646 193 160 153
0.148451 -0.259343 -0.626 198 161 155
0.148449 -0.257271 -0.621 197 158 151
0.200906 -0.248986 -0.601 137 85 89
0.23015 -0.265557 -0.641 117 69 81
0.240439 -0.268871 -0.649 121 73 85
-0.152434 -0.269691 -0.648 116 120 121
-0.13508 -0.255541 -0.614 107 111 112
-0.128571 -0.249714 -0.6 100 103 108
-0.116244 -0.243055 -0.584 100 103 110
-0.1092 -0.24472 -0.588 58 58 66
-0.10656 -0.246385 -0.592 57 56 64
-0.103874 -0.24805 -0.596 61 60 68
-0.103084 -0.248882 -0.598 62 61 69
-0.102286 -0.249714 -0.6 63 62 70
-0.101311 -0.25013 -0.601 63 62 70
-0.0929771 -0.255541 -0.614 75 74 82
-0.0798429 -0.258454 -0.621 77 76 84
-0.0764171 -0.25887 -0.622 75 74 82
-0.0697543 -0.260535 -0.626 75 74 82
-0.0664943 -0.261784 -0.629 75 74 82
0.147102 -0.25013 -0.601 197 159 150
0.148652 -0.245136 -0.589 195 152 143
0.15158 -0.242639 -0.583 196 147 132
0.1734 -0.240558 -0.578 198 141 134
0.194843 -0.246801 -0.593 147 93 93
0.215726 -0.259703 -0.624 114 72 82
0.220899 -0.263032 -0.632 119 77 87
-0.129 -0.251693 -0.602 125 129 132
-0.126791 -0.249603 -0.597 126 130 133
-0.118671 -0.244586 -0.585 121 124 129
-0.0983419 -0.255456 -0.611 69 68 76
-0.0973371 -0.255874 -0.612 71 70 78
-0.0941467 -0.25671 -0.614 75 74 82
-0.0919571 -0.257129 -0.615 75 74 82
-0.0820762 -0.259219 -0.62 78 77 85
-0.0753533 -0.260473 -0.623 74 73 81
-0.0709467 -0.261728 -0.626 75 74 82
-0.05512 -0.265909 -0.636 73 72 80
-0.05278 -0.266327 -0.637 74 73 81
-0.0435467 -0.269253 -0.644 71 70 78
-0.03888 -0.270926 -0.648 74 73 81
0.14212 -0.27009 -0.646 207 167 168
0.14442 -0.25462 -0.609 204 160 149
0.145878 -0.249185 -0.596 191 152 147
0.146273 -0.24793 -0.593 191 152 147
0.146657 -0.246676 -0.59 189 150 145
0.148757 -0.244586 -0.585 193 145 133
0.167083 -0.242077 -0.579 203 148 143
0.167895 -0.241659 -0.578 198 143 138
0.168996 -0.241659 -0.578 197 140 131
0.169803 -0.241241 -0.577 198 141 132
0.176397 -0.241241 -0.577 181 124 113
0.216763 -0.262146 -0.627 110 73 81
0.237095 -0.271762 -0.65 117 71 84
-0.148272 -0.27132 -0.646 112 116 119
-0.100667 -0.25368 -0.604 62 61 69
-0.0993429 -0.2562 -0.61 66 65 73
-0.0876971 -0.25956 -0.618 78 77 85
-0.085481 -0.25998 -0.619 77 76 84
-0.0732143 -0.2625 -0.625 75 74 82
-0.0539933 -0.26754 -0.637 73 72 80
-0.0482276 -0.26922 -0.641 74 73 79
-0.0459286 -0.27006 -0.643 72 71 77
-0.0435467 -0.27048 -0.644 71 70 76
-0.0365238 -0.273 -0.65 73 72 78
0.145287 -0.24738 -0.589 190 140 129
0.145911 -0.24654 -0.587 197 147 136
0.146779 -0.24612 -0.586 196 147 133
0.155487 -0.24402 -0.581 187 131 118
0.167605 -0.24234 -0.577 196 142 132
0.171703 -0.24192 -0.576 200 141 135
0.174994 -0.24192 -0.576 188 128 117
0.180317 -0.24318 -0.579 174 115 101
0.186643 -0.2457 -0.585 161 107 97
0.197625 -0.25116 -0.598 141 86 91
0.2279 -0.2709 -0.645 110 73 80
-0.13772 -0.264112 -0.626 119 122 127
-0.1209 -0.246814 -0.585 118 121 126
-0.119581 -0.246392 -0.584 118 121 126
-0.116552 -0.244705 -0.58 116 119 124
-0.115448 -0.244705 -0.58 114 117 122
-0.110682 -0.246392 -0.584 90 91 96
-0.10001 -0.256096 -0.607 62 61 69
-0.09328 -0.259893 -0.616 73 72 80
-0.0822086 -0.262003 -0.621 78 77 85
-0.0643019 -0.266222 -0.631 76 75 83
-0.0493714 -0.270019 -0.64 72 71 77
-0.04708 -0.270863 -0.642 74 73 79
-0.0435467 -0.271707 -0.644 72 71 77
0.140477 -0.256096 -0.607 206 157 150
0.141574 -0.251877 -0.597 198 151 141
0.161569 -0.244283 -0.579 210 153 144
0.168119 -0.242595 -0.575 196 142 132
0.213007 -0.262847 -0.623 219 188 203
0.229313 -0.273816 -0.649 103 82 101
-0.124391 -0.250471 -0.591 114 117 124
-0.116351 -0.245386 -0.579 115 118 125
-0.10808 -0.2492 -0.588 63 63 71
-0.102456 -0.25471 -0.601 63 62 70
-0.0956267 -0.261067 -0.616 68 67 75
-0.0868 -0.262762 -0.62 76 75 83
-0.0733314 -0.265305 -0.626 74 73 81
-0.0666 -0.267 -0.63 76 75 83
-0.0619962 -0.267848 -0.632 75 74 82
-0.0447733 -0.272933 -0.644 73 72 78
-0.041221 -0.273781 -0.646 73 72 78
0.140626 -0.251319 -0.593 197 149 139
0.15826 -0.245386 -0.579 196 139 128
0.16211 -0.244538 -0.577 204 150 140
0.163209 -0.244538 -0.577 200 146 136
0.165929 -0.24369 -0.575 202 147 140
0.167827 -0.243267 -0.574 196 141 134
0.176397 -0.244538 -0.577 179 121 109
0.216944 -0.267424 -0.631 246 228 252
0.22022 -0.269967 -0.637 234 216 240
0.223171 -0.272086 -0.642 187 180 211
0.228077 -0.275052 -0.649 160 159 191
-0.126367 -0.2533 -0.595 114 117 124
-0.120487 -0.248191 -0.583 115 118 127
-0.118967 -0.24734 -0.581 115 118 127
-0.11505 -0.246063 -0.578 111 114 123
-0.114146 -0.246489 -0.579 110 113 122
-0.108643 -0.249043 -0.585 63 63 71
-0.107896 -0.249894 -0.587 64 64 72
-0.100175 -0.258834 -0.608 59 58 66
-0.0979733 -0.26224 -0.616 63 62 70
-0.0835257 -0.264794 -0.622 77 76 84
-0.0722543 -0.266923 -0.627 74 73 81
-0.0711733 -0.267349 -0.628 74 73 81
-0.0643019 -0.268626 -0.631 76 75 83
-0.0586619 -0.270329 -0.635 74 73 81
-0.0563314 -0.270754 -0.636 73 72 80
-0.05512 -0.270754 -0.636 73 72 80
-0.03888 -0.275863 -0.648 73 72 78
-0.0365238 -0.276714 -0.65 73 72 78
0.1362 -0.2682 -0.63 197 156 152
0.13746 -0.25926 -0.609 200 153 145
0.137482 -0.257131 -0.604 201 152 147
0.138367 -0.252449 -0.593 198 148 139
0.139677 -0.250746 -0.589 198 148 139
0.155785 -0.246063 -0.578 185 127 115
0.159088 -0.246063 -0.578 203 146 135
0.167534 -0.243934 -0.573 197 143 133
0.1722 -0.24436 -0.574 186 128 116
0.176091 -0.245211 -0.576 172 114 102
0.18872 -0.25032 -0.588 150 101 97
0.190486 -0.251171 -0.59 148 99 95
0.192584 -0.252449 -0.593 144 93 92
0.199277 -0.256706 -0.603 127 84 93
0.206757 -0.261814 -0.615 109 73 85
0.209619 -0.263943 -0.62 102 66 78
0.226491 -0.275863 -0.648 168 171 206
-0.122223 -0.250585 -0.586 116 116 126
-0.113949 -0.247164 -0.578 108 108 118
-0.107896 -0.251012 -0.587 66 66 74
-0.0959371 -0.264269 -0.618 64 63 71
-0.0767857 -0.267262 -0.625 76 75 83
-0.0711733 -0.268545 -0.628 75 74 82
-0.0667057 -0.269828 -0.631 74 73 81
-0.0505905 -0.273676 -0.64 74 73 81
-0.0447733 -0.275387 -0.644 73 72 80
0.140857 -0.248019 -0.58 192 140 127
0.148663 -0.246309 -0.576 196 143 129
0.150857 -0.246309 -0.576 185 127 113
0.151954 -0.246309 -0.576 179 121 107
0.155515 -0.246736 -0.577 194 136 122
0.165351 -0.245026 -0.573 200 146 136
0.1722 -0.245453 -0.574 182 124 110
0.178905 -0.247164 -0.578 170 111 103
0.180317 -0.247591 -0.579 169 110 102
-0.142019 -0.274895 -0.64 114 114 122
-0.102154 -0.260291 -0.606 63 62 70
-0.0996686 -0.262869 -0.612 60 59 67
-0.0979733 -0.264587 -0.616 61 60 68
-0.0814171 -0.268023 -0.624 76 75 83
-0.0791667 -0.268452 -0.625 76 75 83
-0.0779762 -0.268452 -0.625 76 75 83
-0.0711733 -0.269741 -0.628 75 74 82
-0.0644038 -0.271459 -0.632 73 72 77
-0.0598714 -0.272748 -0.635 72 71 77
-0.0587543 -0.273177 -0.636 73 72 78
-0.046 -0.276613 -0.644 72 71 79
0.134733 -0.258573 -0.602 203 151 140
0.148405 -0.246976 -0.575 191 135 120
0.157987 -0.246547 -0.574 202 146 131
0.15908 -0.246547 -0.574 198 142 129
-0.105967 -0.2567 -0.595 70 70 78
-0.0826057 -0.269211 -0.624 75 74 79
-0.0814171 -0.269211 -0.624 75 74 79
-0.069 -0.2718 -0.63 75 74 82
-0.05642 -0.27482 -0.637 71 72 77
-0.0529457 -0.275683 -0.639 71 72 77
-0.0436819 -0.278703 -0.646 71 71 79
0.13473 -0.253249 -0.587 199 140 134
0.140738 -0.248071 -0.575 192 138 126
0.144867 -0.24764 -0.574 198 140 128
0.159615 -0.246777 -0.572 189 133 120
0.185846 -0.252817 -0.586 150 100 101
0.224023 -0.279566 -0.648 199 192 225
-0.142019 -0.277333 -0.64 111 111 121
-0.121597 -0.252633 -0.583 108 108 118
-0.108829 -0.253933 -0.586 75 76 81
-0.103946 -0.2613 -0.603 69 68 76
-0.0884067 -0.269967 -0.623 70 69 77
-0.0735657 -0.272133 -0.628 76 75 81
-0.0644038 -0.273867 -0.632 74 74 82
0.132481 -0.280367 -0.647 198 159 152
0.131758 -0.271267 -0.626 197 143 131
0.138307 -0.248733 -0.574 193 139 129
0.14898 -0.2483 -0.573 186 128 116
0.1716 -0.247867 -0.572 175 121 109
0.173293 -0.248733 -0.574 172 118 106
