ply
format ascii 1.0
comment Created by Open3D
element vertex 1291
property double x
property double y
property double z
property uchar red
property uchar green
property uchar blue
end_header
1.11066 -0.380987 -0.628 204 207 190
1.13694 -0.379773 -0.626 202 204 190
0.10223 -0.342017 -0.562 196 141 134
0.121479 -0.338974 -0.557 194 137 128
0.129137 -0.339583 -0.558 179 123 110
0.142343 -0.343234 -0.564 155 100 95
0.164877 -0.352363 -0.579 128 85 79
0.170166 -0.354189 -0.582 123 82 78
0.176916 -0.356623 -0.586 124 80 77
0.232806 -0.378531 -0.622 163 159 182
0.237545 -0.378531 -0.622 173 174 194
0.473478 -0.311589 -0.512 164 128 114
0.467133 -0.2982 -0.49 180 138 114
0.468015 -0.296983 -0.488 180 138 116
0.481893 -0.28968 -0.476 186 139 119
0.503949 -0.290897 -0.478 162 121 101
0.89534 -0.37914 -0.623 212 214 201
0.939566 -0.379749 -0.624 211 213 199
0.955017 -0.379749 -0.624 210 212 198
0.96654 -0.37914 -0.623 210 212 198
1.02247 -0.380966 -0.626 206 209 192
1.02724 -0.380966 -0.626 207 210 193
1.05108 -0.380966 -0.626 205 207 193
1.05347 -0.380966 -0.626 205 208 191
1.08686 -0.380966 -0.626 205 208 191
1.09401 -0.380966 -0.626 205 208 191
1.09815 -0.381574 -0.627 204 207 190
1.13869 -0.380357 -0.625 202 204 190
1.13925 -0.379749 -0.624 202 204 190
0.0949514 -0.364454 -0.597 197 149 139
0.105254 -0.342477 -0.561 197 142 135
0.111268 -0.341256 -0.559 192 138 128
0.112332 -0.341256 -0.559 192 135 128
0.120418 -0.340035 -0.557 196 139 128
0.12254 -0.340035 -0.557 193 137 124
0.123601 -0.340035 -0.557 189 133 120
0.170458 -0.355908 -0.583 124 83 79
0.172975 -0.356518 -0.584 122 83 76
0.182619 -0.360181 -0.59 124 79 73
0.1978 -0.367507 -0.602 117 79 78
0.477117 -0.315616 -0.517 160 126 116
0.4726 -0.311343 -0.51 167 131 119
0.47334 -0.29486 -0.483 185 141 116
0.495357 -0.289976 -0.475 171 129 105
0.518863 -0.296691 -0.486 151 114 95
0.92738 -0.380327 -0.623 210 212 198
0.928567 -0.380327 -0.623 211 213 199
0.953487 -0.380327 -0.623 210 212 198
0.96298 -0.380327 -0.623 209 211 197
0.9776 -0.380937 -0.624 210 213 196
0.991863 -0.380937 -0.624 208 211 194
1.01488 -0.381548 -0.625 208 211 192
1.03201 -0.382158 -0.626 207 210 193
1.0487 -0.382158 -0.626 207 209 195
1.05108 -0.382158 -0.626 206 209 192
1.05466 -0.382158 -0.626 206 209 192
1.05585 -0.382158 -0.626 206 209 192
1.05943 -0.382158 -0.626 206 209 192
1.08566 -0.382158 -0.626 204 206 192
1.11786 -0.382158 -0.626 204 206 192
1.12024 -0.382158 -0.626 204 206 192
0.112131 -0.341709 -0.558 189 132 125
0.140194 -0.345383 -0.564 153 98 91
0.142848 -0.346608 -0.566 153 98 93
0.150899 -0.350282 -0.572 136 91 88
0.163774 -0.354569 -0.579 124 83 79
0.173271 -0.358243 -0.585 120 85 81
0.17864 -0.36008 -0.588 123 79 76
0.193391 -0.366816 -0.599 122 85 77
0.195182 -0.368041 -0.601 122 85 77
0.480737 -0.319663 -0.522 160 126 114
0.47804 -0.317213 -0.518 161 127 115
0.475328 -0.314764 -0.514 165 129 117
0.46989 -0.309252 -0.505 167 131 117
0.4662 -0.300067 -0.49 180 138 116
0.477714 -0.293943 -0.48 184 138 112
0.518719 -0.297005 -0.485 151 114 95
0.923522 -0.380901 -0.622 212 214 201
0.954673 -0.381513 -0.623 210 212 198
0.964167 -0.381513 -0.623 209 211 198
0.96654 -0.381513 -0.623 210 212 199
0.971287 -0.381513 -0.623 210 212 198
0.972473 -0.381513 -0.623 210 212 198
0.974847 -0.381513 -0.623 210 212 198
0.976033 -0.381513 -0.623 210 212 198
0.979593 -0.381513 -0.623 209 211 197
0.986713 -0.381513 -0.623 208 211 194
0.997393 -0.381513 -0.623 208 211 194
1.00214 -0.381513 -0.623 209 212 195
1.00731 -0.382126 -0.624 207 210 193
1.03703 -0.382126 -0.624 206 209 192
1.07202 -0.382738 -0.625 205 207 193
1.07321 -0.382738 -0.625 205 207 193
1.09997 -0.38335 -0.626 203 205 191
0.0941571 -0.359357 -0.585 197 147 136
0.0941314 -0.355057 -0.578 196 146 139
0.0988429 -0.344614 -0.561 196 143 135
0.111069 -0.342771 -0.558 188 134 122
0.115966 -0.341543 -0.556 194 140 130
0.121261 -0.341543 -0.556 187 133 121
0.132563 -0.343386 -0.559 168 115 99
0.158812 -0.354443 -0.577 125 84 80
0.171043 -0.359357 -0.585 123 83 81
0.177822 -0.361814 -0.589 124 83 79
0.236781 -0.380857 -0.62 155 161 187
0.543849 -0.370414 -0.603 150 126 122
0.52622 -0.3569 -0.581 152 123 115
0.492287 -0.3311 -0.539 158 126 115
0.46618 -0.300386 -0.489 182 140 118
0.468874 -0.298543 -0.486 183 138 115
0.474196 -0.296086 -0.482 186 141 112
0.4768 -0.294857 -0.48 185 140 111
0.48269 -0.291786 -0.475 187 141 118
0.50184 -0.2924 -0.476 160 122 99
0.931815 -0.382086 -0.622 210 212 199
0.960249 -0.382086 -0.622 210 212 198
0.97366 -0.3827 -0.623 209 211 197
0.97722 -0.3827 -0.623 209 211 197
0.993833 -0.3827 -0.623 208 211 194
0.998162 -0.382086 -0.622 209 212 195
1.03299 -0.3827 -0.623 207 209 195
1.03418 -0.3827 -0.623 207 209 195
1.07679 -0.383929 -0.625 204 206 192
1.08576 -0.383314 -0.624 204 207 190
1.13274 -0.383929 -0.625 202 204 190
1.13449 -0.383314 -0.624 202 204 190
1.13505 -0.3827 -0.623 203 205 191
0.0935133 -0.358007 -0.581 196 148 138
0.121261 -0.342602 -0.556 188 135 121
0.131498 -0.34445 -0.559 174 121 105
0.133867 -0.345067 -0.56 165 112 96
0.144434 -0.349996 -0.568 145 92 84
0.14981 -0.352461 -0.572 139 86 80
0.156343 -0.354926 -0.576 130 85 80
0.165731 -0.358623 -0.582 123 82 78
0.171335 -0.361088 -0.586 124 83 79
0.501286 -0.338905 -0.55 158 125 116
0.465267 -0.301933 -0.49 179 137 115
0.473278 -0.297004 -0.482 186 141 112
0.473212 -0.296388 -0.481 186 141 112
0.481893 -0.293307 -0.476 187 141 117
0.48348 -0.292074 -0.474 186 140 116
0.487994 -0.292074 -0.474 183 139 114
0.490569 -0.291458 -0.473 178 133 110
0.966173 -0.38327 -0.622 209 211 197
0.979206 -0.38327 -0.622 209 212 195
1.01045 -0.383887 -0.623 208 211 194
1.01757 -0.383887 -0.623 207 210 193
1.05961 -0.384503 -0.624 206 208 194
1.10597 -0.384503 -0.624 204 206 192
1.11072 -0.384503 -0.624 204 206 192
1.11547 -0.384503 -0.624 205 207 194
1.1256 -0.385119 -0.625 202 204 190
1.13093 -0.384503 -0.624 202 204 190
0.101503 -0.344897 -0.558 199 147 136
0.103629 -0.344897 -0.558 199 147 136
0.121261 -0.343661 -0.556 186 133 115
0.127845 -0.344279 -0.557 177 122 102
0.155246 -0.356023 -0.576 133 84 77
0.224609 -0.382601 -0.619 143 142 176
0.23522 -0.382601 -0.619 116 129 163
0.473571 -0.315229 -0.51 168 132 118
0.46624 -0.306575 -0.496 172 133 116
0.465291 -0.304103 -0.492 175 134 114
0.471554 -0.299158 -0.484 188 142 116
0.48269 -0.293595 -0.475 187 141 115
0.50456 -0.294213 -0.476 162 121 99
0.675591 -0.377656 -0.611 210 208 209
0.971717 -0.383837 -0.621 209 211 197
1.04961 -0.385073 -0.623 206 209 192
1.05605 -0.385691 -0.624 206 209 192
1.06437 -0.385691 -0.624 206 208 194
1.08877 -0.385073 -0.623 204 206 192
1.08995 -0.385073 -0.623 204 206 192
1.12736 -0.385691 -0.624 203 205 191
1.12974 -0.385691 -0.624 203 205 191
1.13322 -0.384455 -0.622 201 203 189
0.102566 -0.34596 -0.558 198 149 135
0.112789 -0.34472 -0.556 193 142 123
0.1147 -0.3441 -0.555 192 141 124
0.121043 -0.3441 -0.555 184 132 110
0.124438 -0.34472 -0.556 184 129 109
0.1677 -0.3627 -0.585 122 82 80
0.232486 -0.38316 -0.618 146 160 195
0.466243 -0.3069 -0.495 173 134 119
0.467023 -0.30132 -0.486 181 139 115
0.47058 -0.29946 -0.483 187 143 116
0.471442 -0.29884 -0.482 188 142 116
0.479071 -0.2945 -0.475 187 142 113
0.485935 -0.29264 -0.472 183 139 112
0.492229 -0.29264 -0.472 177 133 108
0.917889 -0.38378 -0.619 212 214 201
0.935905 -0.3844 -0.62 211 213 199
0.963067 -0.3844 -0.62 210 212 198
0.977238 -0.3844 -0.62 209 211 197
0.995374 -0.38502 -0.621 208 211 194
0.99774 -0.38502 -0.621 207 210 193
1.02304 -0.38564 -0.622 208 211 194
1.03963 -0.38564 -0.622 206 209 190
1.04437 -0.38564 -0.622 207 210 191
1.06741 -0.38626 -0.623 205 207 193
1.07334 -0.38626 -0.623 205 207 193
1.09351 -0.38626 -0.623 204 206 192
1.10182 -0.38626 -0.623 205 207 193
1.10953 -0.38564 -0.622 204 206 192
1.13559 -0.38564 -0.622 202 204 190
0.104316 -0.345779 -0.556 195 143 130
0.107493 -0.345779 -0.556 193 141 128
0.147372 -0.355108 -0.571 135 86 81
0.153051 -0.358217 -0.576 133 86 78
0.15826 -0.360083 -0.579 132 85 77
0.162406 -0.361949 -0.582 124 81 75
0.1782 -0.369411 -0.594 124 85 78
0.220357 -0.383715 -0.617 83 89 125
0.222708 -0.383715 -0.617 122 127 157
0.472682 -0.315928 -0.508 164 130 121
0.470852 -0.314062 -0.505 166 129 120
0.469031 -0.311574 -0.501 170 132 119
0.466242 -0.307221 -0.494 173 131 115
0.46791 -0.301624 -0.485 185 142 123
0.479976 -0.295405 -0.475 188 142 116
0.506373 -0.296027 -0.476 157 119 98
0.972514 -0.385581 -0.62 210 212 198
0.979199 -0.384959 -0.619 209 211 197
0.985505 -0.385581 -0.62 208 210 196
0.996133 -0.385581 -0.62 208 211 194
1.00957 -0.386203 -0.621 207 209 195
1.03796 -0.386203 -0.621 206 209 192
1.04792 -0.386825 -0.622 205 208 191
1.05029 -0.386825 -0.622 205 208 191
1.05266 -0.386825 -0.622 206 209 192
1.07754 -0.386825 -0.622 203 205 191
1.07991 -0.386825 -0.622 204 206 192
1.0811 -0.386825 -0.622 205 207 193
1.10005 -0.386825 -0.622 204 206 192
1.12256 -0.386825 -0.622 203 205 192
1.1314 -0.386203 -0.621 201 203 190
1.13377 -0.386203 -0.621 203 205 191
0.124438 -0.346838 -0.556 183 131 110
0.125497 -0.346838 -0.556 182 127 107
0.14227 -0.354324 -0.568 135 91 82
0.16102 -0.362433 -0.581 126 83 76
0.17109 -0.367424 -0.589 122 83 78
0.175641 -0.369919 -0.593 124 83 81
0.214133 -0.384267 -0.616 152 152 180
0.5389 -0.371167 -0.595 148 124 122
0.472682 -0.316895 -0.508 164 130 121
0.46966 -0.3013 -0.483 188 142 118
0.47138 -0.300052 -0.481 187 141 115
0.472296 -0.300052 -0.481 186 140 114
0.479869 -0.295686 -0.474 187 141 115
0.481559 -0.295062 -0.473 185 141 112
0.48246 -0.295062 -0.473 185 141 114
0.487597 -0.293814 -0.471 180 136 109
0.489391 -0.293814 -0.471 179 135 110
0.49298 -0.293814 -0.471 176 132 105
0.498522 -0.294438 -0.472 164 124 98
0.950902 -0.386138 -0.619 210 212 199
0.954439 -0.386138 -0.619 209 211 198
0.963871 -0.386138 -0.619 209 211 197
0.992169 -0.386138 -0.619 208 211 194
1.00558 -0.386762 -0.62 208 210 196
1.01785 -0.387386 -0.621 207 210 193
1.03441 -0.387386 -0.621 206 209 192
1.04387 -0.387386 -0.621 206 209 192
1.05622 -0.38801 -0.622 205 208 191
1.0574 -0.38801 -0.622 205 208 191
1.07754 -0.38801 -0.622 204 206 192
1.0811 -0.38801 -0.622 205 207 193
1.08346 -0.38801 -0.622 204 207 190
1.08764 -0.387386 -0.621 205 207 193
1.10301 -0.387386 -0.621 204 206 193
1.11721 -0.387386 -0.621 204 206 193
1.12138 -0.38801 -0.622 203 205 192
0.0931667 -0.349774 -0.559 196 149 141
0.101139 -0.347897 -0.556 198 149 134
0.103257 -0.347897 -0.556 196 147 132
0.105186 -0.347271 -0.555 194 145 130
0.1073 -0.347271 -0.555 194 145 130
0.112383 -0.346646 -0.554 193 142 123
0.11977 -0.346646 -0.554 192 139 121
0.125497 -0.347897 -0.556 176 123 105
0.142521 -0.356031 -0.569 132 89 80
0.544997 -0.377306 -0.603 150 126 122
0.466237 -0.308477 -0.493 172 133 116
0.466986 -0.303471 -0.485 183 141 117
0.47138 -0.300969 -0.481 186 142 113
0.480771 -0.296589 -0.474 185 140 111
0.486834 -0.295337 -0.472 182 138 111
0.488494 -0.294711 -0.471 181 137 112
0.492083 -0.294711 -0.471 177 133 106
0.507119 -0.297214 -0.475 158 120 97
0.518106 -0.300969 -0.481 152 115 96
0.95172 -0.386691 -0.618 210 212 198
0.969767 -0.387317 -0.619 209 211 197
0.975662 -0.387317 -0.619 209 211 197
0.998064 -0.387317 -0.619 209 212 195
1.04269 -0.388569 -0.621 206 208 194
1.05452 -0.388569 -0.621 206 209 192
1.07344 -0.388569 -0.621 204 207 190
1.08409 -0.388569 -0.621 205 207 193
1.09473 -0.388569 -0.621 205 207 193
1.09888 -0.387943 -0.62 204 206 192
1.10242 -0.387943 -0.62 204 206 192
0.0874714 -0.367157 -0.585 196 149 133
0.105186 -0.348329 -0.555 195 146 131
0.211443 -0.385986 -0.615 149 150 178
0.226671 -0.385986 -0.615 59 68 101
0.465267 -0.307533 -0.49 173 134 117
0.466156 -0.306278 -0.488 183 141 117
0.47138 -0.301885 -0.481 186 142 113
0.471314 -0.301257 -0.48 187 143 114
0.477262 -0.298119 -0.475 185 140 111
0.47716 -0.297491 -0.474 185 140 111
0.482339 -0.296236 -0.472 185 141 112
0.483238 -0.296236 -0.472 185 141 112
0.483111 -0.295609 -0.471 185 141 112
0.485803 -0.295609 -0.471 182 138 111
0.501219 -0.296236 -0.472 166 126 101
0.9255 -0.387241 -0.617 210 212 199
0.981149 -0.387869 -0.618 209 212 195
1.03865 -0.389124 -0.62 205 207 193
1.03983 -0.389124 -0.62 205 207 193
1.05164 -0.389124 -0.62 206 209 192
1.07762 -0.389124 -0.62 205 208 191
1.08172 -0.389751 -0.621 204 207 190
1.12013 -0.389124 -0.62 203 205 192
1.12431 -0.389751 -0.621 202 204 191
0.0947848 -0.350015 -0.556 202 150 137
0.100775 -0.348756 -0.554 196 144 130
0.104996 -0.348756 -0.554 198 147 130
0.10902 -0.348127 -0.553 198 147 130
0.113233 -0.348127 -0.553 197 144 126
0.116393 -0.348127 -0.553 198 145 127
0.120825 -0.348756 -0.554 189 136 118
0.469548 -0.302801 -0.481 187 143 116
0.483238 -0.297135 -0.472 186 141 112
0.490143 -0.295876 -0.47 181 135 109
0.493724 -0.295876 -0.47 178 134 107
0.914613 -0.387787 -0.616 211 213 199
0.91696 -0.387787 -0.616 211 213 199
0.922827 -0.387787 -0.616 210 212 198
0.944304 -0.388416 -0.617 211 213 199
0.95253 -0.388416 -0.617 210 212 198
0.999983 -0.389046 -0.618 206 208 194
1.02588 -0.389046 -0.618 205 208 191
1.03815 -0.389675 -0.619 206 209 192
1.11007 -0.389675 -0.619 204 206 193
0.0857667 -0.36686 -0.581 197 151 136
0.100775 -0.349811 -0.554 196 144 130
0.111977 -0.348549 -0.552 197 146 127
0.1309 -0.354231 -0.561 155 98 87
0.141686 -0.359914 -0.57 124 84 76
0.16801 -0.372543 -0.59 121 83 82
0.169707 -0.373806 -0.592 120 82 81
0.506127 -0.34918 -0.553 155 126 118
0.4845 -0.3315 -0.525 160 127 118
0.468688 -0.304349 -0.482 185 143 118
0.472157 -0.302454 -0.479 187 143 114
0.472992 -0.301823 -0.478 188 144 115
0.947467 -0.38896 -0.616 211 213 199
1.01599 -0.389591 -0.617 208 211 194
1.07824 -0.390854 -0.619 204 207 190
1.0806 -0.390854 -0.619 204 207 190
1.09828 -0.390854 -0.619 204 207 190
1.11063 -0.390223 -0.618 202 204 191
1.11833 -0.390854 -0.619 202 204 190
0.0894895 -0.352133 -0.556 201 154 138
0.117447 -0.350233 -0.553 194 143 124
0.1185 -0.350233 -0.553 192 139 121
0.127011 -0.3534 -0.558 167 111 94
0.1296 -0.354667 -0.56 155 99 82
0.155487 -0.367967 -0.581 122 82 80
0.160739 -0.369867 -0.584 123 83 81
0.54524 -0.381267 -0.602 147 126 125
0.516947 -0.358467 -0.566 153 126 117
0.485423 -0.333133 -0.526 157 127 117
0.470904 -0.318567 -0.503 166 134 121
0.466129 -0.308433 -0.487 180 139 117
0.472827 -0.301467 -0.476 185 142 110
0.490731 -0.2964 -0.468 178 137 109
0.495353 -0.297033 -0.469 171 129 104
0.503746 -0.2983 -0.471 161 123 102
0.919831 -0.388867 -0.614 211 213 199
0.988533 -0.390133 -0.616 209 211 197
0.999093 -0.390133 -0.616 207 210 193
1.05295 -0.3914 -0.618 205 208 191
1.06527 -0.392033 -0.619 205 208 191
1.09121 -0.392033 -0.619 204 206 192
1.11299 -0.3914 -0.618 202 204 190
0.0846305 -0.359545 -0.566 199 157 143
0.1185 -0.351287 -0.553 191 138 120
0.123157 -0.352557 -0.555 181 128 110
0.143272 -0.363356 -0.572 124 84 76
0.14731 -0.365262 -0.575 125 86 81
0.211577 -0.388766 -0.612 144 145 173
0.215074 -0.388766 -0.612 170 166 183
0.518773 -0.360815 -0.568 153 126 119
0.490868 -0.338582 -0.533 159 128 123
0.46942 -0.304279 -0.479 186 142 115
0.470261 -0.303644 -0.478 187 143 116
0.508588 -0.300468 -0.473 159 121 100
0.906966 -0.390036 -0.614 212 214 200
0.911644 -0.390036 -0.614 211 213 199
0.917165 -0.389401 -0.613 211 213 199
0.928017 -0.390036 -0.614 210 212 199
0.949443 -0.390671 -0.615 209 211 197
0.9944 -0.391307 -0.616 207 209 195
0.99792 -0.391307 -0.616 207 210 193
1.00965 -0.391307 -0.616 207 210 193
1.0506 -0.392577 -0.618 205 208 191
1.06119 -0.392577 -0.618 205 208 191
1.06473 -0.392577 -0.618 205 208 191
1.07297 -0.392577 -0.618 205 207 193
1.08709 -0.392577 -0.618 204 206 192
1.11652 -0.392577 -0.618 202 205 188
0.0828343 -0.366994 -0.576 203 157 142
0.0837 -0.36126 -0.567 203 157 142
0.0891676 -0.352977 -0.554 200 153 135
0.120825 -0.352977 -0.554 184 132 111
0.133749 -0.359349 -0.564 143 95 85
0.136379 -0.360623 -0.566 139 92 82
0.158514 -0.372091 -0.584 120 82 81
0.4662 -0.3122 -0.49 174 136 115
0.478743 -0.300731 -0.472 185 138 110
0.492514 -0.298183 -0.468 175 134 106
0.508411 -0.300731 -0.472 158 120 101
0.912494 -0.390569 -0.613 211 213 199
0.9195 -0.390569 -0.613 211 213 199
0.927673 -0.390569 -0.613 209 211 198
0.981815 -0.391206 -0.614 207 209 195
0.984586 -0.391843 -0.615 207 209 195
0.991614 -0.391843 -0.615 208 210 196
1.00216 -0.391843 -0.615 207 210 193
1.0045 -0.391843 -0.615 206 209 192
1.00684 -0.391843 -0.615 207 210 193
1.01787 -0.39248 -0.616 206 209 192
1.02139 -0.39248 -0.616 206 209 192
1.02725 -0.39248 -0.616 205 207 193
1.04067 -0.393117 -0.617 206 208 194
1.0536 -0.393117 -0.617 205 208 191
1.06418 -0.393117 -0.617 204 207 190
1.08121 -0.393754 -0.618 203 205 191
1.12476 -0.393754 -0.618 201 204 187
0.0861571 -0.354671 -0.555 202 157 138
0.0879533 -0.353393 -0.553 202 155 135
0.0962057 -0.352754 -0.552 202 153 136
0.111571 -0.351476 -0.55 196 149 133
0.11977 -0.354032 -0.554 185 130 110
0.12188 -0.354032 -0.554 177 125 104
0.125723 -0.35595 -0.557 155 104 87
0.131133 -0.359145 -0.562 142 94 82
0.513449 -0.358506 -0.561 155 128 117
0.466799 -0.307382 -0.481 187 143 118
0.478626 -0.300991 -0.471 185 140 111
0.498754 -0.299074 -0.468 167 125 103
0.51834 -0.304826 -0.477 150 115 95
0.9195 -0.391736 -0.613 210 212 199
0.931176 -0.391736 -0.613 210 212 198
1.00871 -0.392375 -0.614 206 209 190
1.01739 -0.393014 -0.615 206 209 192
1.01856 -0.393014 -0.615 206 209 192
1.03077 -0.393653 -0.616 205 207 193
1.04837 -0.393653 -0.616 205 208 191
1.05776 -0.393653 -0.616 204 207 190
1.10296 -0.394292 -0.617 204 207 190
0.108429 -0.352524 -0.55 197 146 127
0.111571 -0.352524 -0.55 198 149 134
0.1221 -0.355729 -0.555 171 119 98
0.131367 -0.360856 -0.563 140 92 80
0.198105 -0.390981 -0.61 92 105 147
0.210886 -0.390981 -0.61 167 168 186
0.495472 -0.344832 -0.538 155 126 118
0.468129 -0.317271 -0.495 170 134 118
0.466156 -0.312785 -0.488 179 137 113
0.466023 -0.310221 -0.484 184 142 118
0.473549 -0.303811 -0.474 189 144 115
0.478626 -0.301889 -0.471 185 140 111
0.487904 -0.299325 -0.467 180 134 108
0.94402 -0.392904 -0.613 209 212 195
0.982551 -0.392904 -0.613 208 210 196
1.00824 -0.392904 -0.613 206 209 190
1.01573 -0.393545 -0.614 207 209 195
1.01807 -0.393545 -0.614 205 208 191
1.02324 -0.394186 -0.615 205 208 191
1.05776 -0.394827 -0.616 205 208 191
1.11291 -0.394827 -0.616 202 205 186
1.11525 -0.394827 -0.616 201 204 185
0.0927143 -0.353571 -0.55 200 153 137
0.101095 -0.353571 -0.55 197 149 129
0.125949 -0.358714 -0.558 143 95 81
0.137943 -0.365143 -0.568 132 85 77
0.143523 -0.368357 -0.573 128 85 78
0.147566 -0.370286 -0.576 124 85 78
0.52882 -0.372214 -0.579 153 126 119
0.5018 -0.351 -0.546 156 126 118
0.481 -0.333 -0.518 157 127 117
0.470107 -0.306 -0.476 187 141 115
0.484491 -0.300857 -0.468 186 140 114
0.49591 -0.300214 -0.467 169 127 103
0.513092 -0.304071 -0.473 154 116 93
0.931989 -0.393429 -0.612 211 213 199
0.982551 -0.394071 -0.613 208 210 196
0.988389 -0.394071 -0.613 208 210 196
0.994228 -0.394071 -0.613 207 210 193
0.996563 -0.394071 -0.613 207 210 193
1.00426 -0.393429 -0.612 206 209 192
1.03327 -0.394714 -0.614 206 209 192
1.03964 -0.395357 -0.615 204 207 190
0.0775752 -0.37783 -0.586 201 156 137
0.08374 -0.356553 -0.553 202 156 141
0.111571 -0.354619 -0.55 192 144 124
0.113667 -0.354619 -0.55 190 142 120
0.123379 -0.358488 -0.556 153 101 87
0.124662 -0.359132 -0.557 146 94 80
0.131367 -0.363001 -0.563 138 90 80
0.134223 -0.364935 -0.566 138 90 80
0.20126 -0.39266 -0.609 41 54 99
0.21054 -0.39266 -0.609 170 166 181
0.21402 -0.39266 -0.609 172 168 183
0.52077 -0.36687 -0.569 155 124 119
0.492806 -0.344303 -0.534 157 127 117
0.477379 -0.330118 -0.512 161 131 120
0.468124 -0.318512 -0.494 169 134 115
0.471013 -0.306907 -0.476 186 142 117
0.474248 -0.304328 -0.472 185 141 114
0.483456 -0.301104 -0.467 185 139 115
0.487904 -0.301104 -0.467 182 136 112
0.488634 -0.300459 -0.466 181 137 112
0.917664 -0.39395 -0.611 211 213 200
0.921155 -0.39395 -0.611 211 213 200
1.00776 -0.394594 -0.612 206 208 194
1.01408 -0.395239 -0.613 206 208 194
1.01875 -0.395239 -0.613 207 209 195
1.0286 -0.395884 -0.614 206 209 192
1.0321 -0.395884 -0.614 205 208 191
1.06776 -0.396529 -0.615 205 207 193
1.10111 -0.395884 -0.614 204 207 190
1.10695 -0.395884 -0.614 203 205 191
1.12112 -0.397173 -0.616 201 204 187
0.0834371 -0.356313 -0.551 202 157 138
0.121043 -0.3589 -0.555 165 112 94
0.142183 -0.369893 -0.572 128 85 79
0.146469 -0.37248 -0.576 123 82 76
0.190507 -0.393173 -0.608 28 41 85
0.467111 -0.31622 -0.489 178 137 117
0.466023 -0.312987 -0.484 181 140 120
0.465933 -0.311693 -0.482 184 142 120
0.47245 -0.305227 -0.472 188 144 119
0.473349 -0.305227 -0.472 187 143 118
0.48106 -0.303287 -0.469 186 140 114
0.678253 -0.389293 -0.602 209 210 205
0.946759 -0.395113 -0.611 209 211 197
0.97512 -0.39576 -0.612 208 210 196
0.976286 -0.39576 -0.612 209 211 197
0.981673 -0.395113 -0.611 207 209 195
1.02459 -0.396407 -0.613 205 208 191
1.03743 -0.396407 -0.613 206 209 192
1.06719 -0.397053 -0.614 204 206 192
1.08416 -0.3977 -0.615 204 206 192
1.10398 -0.396407 -0.613 202 204 190
0.07882 -0.365146 -0.563 205 162 143
0.104903 -0.355417 -0.548 201 153 133
0.136861 -0.368389 -0.568 134 87 79
0.149437 -0.375523 -0.579 121 80 76
0.15848 -0.38136 -0.588 112 78 76
0.193662 -0.393683 -0.607 28 51 103
0.21251 -0.394331 -0.608 167 164 185
0.5343 -0.379414 -0.585 154 127 120
0.516351 -0.365146 -0.563 155 125 117
0.507314 -0.358011 -0.552 157 124 117
0.481056 -0.335311 -0.517 159 127 116
0.469065 -0.320394 -0.494 170 133 115
0.474924 -0.304829 -0.47 183 137 111
0.481817 -0.303531 -0.468 183 137 113
0.482567 -0.302883 -0.467 186 140 116
0.504994 -0.303531 -0.468 164 122 100
0.975854 -0.396277 -0.611 208 210 196
0.986329 -0.396277 -0.611 207 210 193
0.987492 -0.396277 -0.611 207 210 193
1.01475 -0.396926 -0.612 207 210 193
1.08122 -0.398223 -0.614 204 206 192
1.09058 -0.398223 -0.614 204 206 193
1.09931 -0.397574 -0.613 203 205 191
1.10632 -0.397574 -0.613 202 204 190
1.10865 -0.397574 -0.613 201 203 189
1.12399 -0.398871 -0.615 202 205 188
0.08058 -0.359713 -0.553 202 159 140
0.0902895 -0.356461 -0.548 197 152 129
0.0923771 -0.356461 -0.548 190 144 120
0.123601 -0.362315 -0.557 148 94 82
0.13291 -0.367519 -0.565 133 86 78
0.137102 -0.370121 -0.569 135 88 80
0.216786 -0.394839 -0.607 159 155 178
0.527177 -0.374674 -0.576 155 125 117
0.501919 -0.35451 -0.545 156 126 118
0.485643 -0.340199 -0.523 157 127 119
0.481987 -0.336947 -0.518 157 127 117
0.479244 -0.334345 -0.514 157 127 117
0.467111 -0.318083 -0.489 177 136 116
0.470748 -0.307675 -0.473 186 142 117
0.47155 -0.307025 -0.472 185 143 118
0.480926 -0.304423 -0.468 185 139 113
0.484196 -0.303122 -0.466 181 135 109
0.496623 -0.303122 -0.466 171 128 96
0.9193 -0.39614 -0.609 211 213 200
0.92046 -0.39614 -0.609 211 213 200
0.991686 -0.39679 -0.61 207 210 193
1.02124 -0.397441 -0.611 206 209 190
1.02874 -0.398091 -0.612 205 208 191
1.08413 -0.398742 -0.613 205 207 194
1.10685 -0.398091 -0.612 201 203 189
0.0786152 -0.361419 -0.554 202 159 140
0.0963762 -0.356852 -0.547 198 153 130
0.104903 -0.357505 -0.548 203 157 134
0.130294 -0.36729 -0.563 143 91 78
0.139759 -0.37251 -0.571 132 85 77
0.191034 -0.395343 -0.606 24 51 98
0.196806 -0.395343 -0.606 68 92 140
0.483848 -0.339238 -0.52 158 128 118
0.470967 -0.324233 -0.497 169 133 117
0.470014 -0.322929 -0.495 169 133 117
0.469034 -0.309229 -0.474 188 144 119
0.469847 -0.308576 -0.473 187 143 116
0.473133 -0.306619 -0.47 184 140 113
0.485084 -0.30401 -0.466 182 136 110
0.493786 -0.303357 -0.465 170 129 99
0.502836 -0.30401 -0.466 167 122 93
0.512524 -0.306619 -0.47 158 116 92
0.94598 -0.3973 -0.609 210 212 198
0.9483 -0.3973 -0.609 210 212 198
0.976581 -0.397952 -0.61 208 210 196
1.01028 -0.397952 -0.61 206 209 192
1.0126 -0.397952 -0.61 205 208 191
1.01376 -0.397952 -0.61 207 210 193
1.06488 -0.399257 -0.612 205 207 193
1.09402 -0.399257 -0.612 204 206 193
1.09985 -0.399257 -0.612 202 204 191
1.10982 -0.39991 -0.613 201 203 189
0.0995019 -0.357894 -0.547 200 154 131
0.123601 -0.364437 -0.557 147 95 81
0.137102 -0.372289 -0.569 133 88 82
0.138429 -0.372943 -0.57 130 85 79
0.18611 -0.395843 -0.605 28 48 98
0.506524 -0.359857 -0.55 153 125 114
0.494748 -0.350043 -0.535 155 126 118
0.475614 -0.331723 -0.507 162 130 119
0.467056 -0.318637 -0.487 178 140 119
0.468293 -0.31144 -0.476 188 143 120
0.469847 -0.309477 -0.473 187 143 118
0.474029 -0.307514 -0.47 184 140 113
0.476469 -0.306206 -0.468 185 141 116
0.478251 -0.306206 -0.468 184 140 113
0.485814 -0.304243 -0.465 180 136 109
0.939794 -0.397806 -0.608 209 211 197
0.97614 -0.39846 -0.609 207 210 193
0.97962 -0.39846 -0.609 207 210 193
0.9947 -0.39846 -0.609 207 210 193
1.0219 -0.399114 -0.61 205 208 191
1.07187 -0.400423 -0.612 204 206 192
1.07887 -0.400423 -0.612 205 207 194
1.08237 -0.400423 -0.612 204 206 192
1.09402 -0.400423 -0.612 204 206 192
1.09635 -0.400423 -0.612 204 206 193
1.09752 -0.400423 -0.612 204 206 193
0.0748933 -0.376653 -0.574 198 155 139
0.0799971 -0.360249 -0.549 202 159 140
0.0859571 -0.358936 -0.547 201 156 133
0.09932 -0.35828 -0.546 200 154 131
0.109078 -0.359592 -0.548 189 139 116
0.1264 -0.367467 -0.56 149 95 83
0.128992 -0.368779 -0.562 147 93 81
0.13291 -0.370748 -0.565 142 92 81
0.138429 -0.374029 -0.57 131 86 80
0.149953 -0.381247 -0.581 121 83 80
0.182652 -0.396995 -0.605 98 102 127
0.480223 -0.337282 -0.514 159 129 119
0.478393 -0.335313 -0.511 160 130 120
0.476552 -0.333345 -0.508 162 130 119
0.472836 -0.329408 -0.502 164 132 119
0.465883 -0.315628 -0.481 182 141 121
0.467387 -0.312347 -0.476 187 142 119
0.494491 -0.304472 -0.464 174 130 101
0.502643 -0.305129 -0.465 168 125 93
0.947901 -0.398964 -0.608 210 212 198
0.981486 -0.398964 -0.608 207 209 195
1.05732 -0.400932 -0.611 205 208 191
1.08176 -0.400932 -0.611 203 205 192
1.0934 -0.400932 -0.611 203 205 191
1.11267 -0.401589 -0.612 202 204 190
0.08372 -0.35932 -0.546 205 160 139
0.0918714 -0.358662 -0.545 199 153 130
0.0929095 -0.358662 -0.545 201 155 132
0.1014 -0.35932 -0.546 201 155 132
0.12254 -0.366559 -0.557 153 100 84
0.12511 -0.367875 -0.559 152 99 85
0.135779 -0.373798 -0.568 139 89 78
0.144024 -0.378405 -0.575 119 84 82
0.18005 -0.39749 -0.604 109 109 137
0.466683 -0.315228 -0.479 182 140 116
0.468946 -0.311279 -0.473 184 142 118
0.470551 -0.309963 -0.471 183 141 116
0.471449 -0.309963 -0.471 182 140 115
0.481386 -0.306014 -0.465 182 138 109
0.482271 -0.306014 -0.465 182 138 109
0.49519 -0.304698 -0.463 172 128 99
0.503529 -0.306014 -0.465 168 124 95
0.93478 -0.399464 -0.607 210 212 199
0.941717 -0.399464 -0.607 210 212 199
0.980328 -0.400122 -0.608 207 209 195
0.993746 -0.399464 -0.607 207 210 193
1.0179 -0.40078 -0.609 205 207 193
1.03298 -0.40078 -0.609 205 208 191
1.05559 -0.401438 -0.61 205 207 193
1.06605 -0.401438 -0.61 204 206 192
1.06721 -0.401438 -0.61 204 206 192
1.08874 -0.402096 -0.611 203 205 192
1.09224 -0.402096 -0.611 203 205 191
1.09456 -0.402096 -0.611 203 205 191
0.0991381 -0.3597 -0.545 200 154 131
0.110122 -0.36168 -0.548 176 128 105
0.112619 -0.363 -0.55 174 120 96
0.483563 -0.40326 -0.611 201 204 213
0.48589 -0.40326 -0.611 202 204 217
0.5211 -0.37422 -0.567 154 127 118
0.484838 -0.3432 -0.52 157 129 118
0.47749 -0.33594 -0.509 160 130 119
0.47564 -0.33396 -0.506 161 131 120
0.468043 -0.32274 -0.489 175 136 119
0.467023 -0.32076 -0.486 176 137 120
0.470551 -0.31086 -0.471 185 141 116
0.472238 -0.3102 -0.47 185 141 114
0.481533 -0.30756 -0.466 182 138 111
0.488134 -0.30558 -0.463 178 134 107
0.500678 -0.30624 -0.464 169 125 96
0.976403 -0.40062 -0.607 207 209 195
0.98334 -0.40062 -0.607 208 210 196
0.997214 -0.40062 -0.607 207 210 193
1.00812 -0.40128 -0.608 207 210 193
1.01275 -0.40128 -0.608 206 208 194
0.0929095 -0.360738 -0.545 201 155 132
0.117447 -0.366033 -0.553 161 106 85
0.12511 -0.370005 -0.559 150 97 83
0.138429 -0.377286 -0.57 139 89 80
0.144274 -0.381257 -0.576 124 84 82
0.200426 -0.399129 -0.603 131 143 167
0.484727 -0.404424 -0.611 200 204 216
0.48589 -0.404424 -0.611 200 203 218
0.494037 -0.404424 -0.611 99 105 127
0.473803 -0.331614 -0.501 164 132 121
0.467229 -0.313743 -0.474 184 142 118
0.47302 -0.310433 -0.469 185 141 114
0.4805 -0.307786 -0.465 182 138 111
0.485489 -0.306462 -0.463 181 137 110
0.491662 -0.306462 -0.463 175 131 102
0.498717 -0.306462 -0.463 171 126 93
1.03244 -0.402438 -0.608 205 208 189
1.05386 -0.4031 -0.609 204 206 192
1.07242 -0.4031 -0.609 204 206 193
1.07474 -0.4031 -0.609 205 207 194
1.07938 -0.4031 -0.609 204 206 193
1.10671 -0.403762 -0.61 202 204 191
0.0734581 -0.373725 -0.563 203 156 140
0.0759524 -0.365095 -0.55 199 156 137
0.07852 -0.36244 -0.546 201 156 135
0.1316 -0.374389 -0.564 146 94 83
0.142929 -0.38169 -0.575 126 87 82
0.145876 -0.383682 -0.578 117 85 86
0.181747 -0.399613 -0.602 71 78 106
0.192067 -0.399613 -0.602 74 88 133
0.199277 -0.400277 -0.603 162 170 191
0.49439 -0.404924 -0.61 107 118 146
0.470006 -0.327922 -0.494 167 133 123
0.467229 -0.314646 -0.474 185 143 119
0.470448 -0.31199 -0.47 183 141 116
0.471233 -0.311327 -0.469 185 141 116
0.48477 -0.308008 -0.464 183 139 110
0.4906 -0.30668 -0.462 175 131 102
0.97364 -0.402269 -0.606 207 209 195
0.980566 -0.402269 -0.606 207 210 193
0.985183 -0.402269 -0.606 207 210 193
0.994417 -0.402269 -0.606 207 209 195
1.01803 -0.402932 -0.607 206 208 194
1.02496 -0.402932 -0.607 205 208 191
1.03537 -0.402932 -0.607 204 207 190
1.04634 -0.403596 -0.608 204 207 190
1.06718 -0.403596 -0.608 204 206 192
1.0695 -0.403596 -0.608 204 206 192
1.09678 -0.40426 -0.609 203 205 191
0.07852 -0.36348 -0.546 200 155 132
0.0999924 -0.362149 -0.544 203 155 132
0.101214 -0.362814 -0.545 200 152 129
0.10329 -0.362814 -0.545 190 142 119
0.10452 -0.36348 -0.546 187 137 114
0.20124 -0.40076 -0.602 155 163 186
0.519417 -0.375463 -0.564 151 128 122
0.482138 -0.342843 -0.515 156 127 119
0.469993 -0.328197 -0.493 166 134 121
0.466945 -0.322206 -0.484 175 138 120
0.466551 -0.317546 -0.477 183 141 119
0.477095 -0.310223 -0.466 182 141 113
0.502245 -0.308226 -0.463 168 124 95
0.505097 -0.308891 -0.464 164 120 91
0.5159 -0.31222 -0.469 155 114 92
1.04346 -0.404089 -0.607 205 208 191
1.04577 -0.404089 -0.607 203 206 189
1.05965 -0.404089 -0.607 205 207 193
1.06834 -0.404754 -0.608 204 206 192
1.08162 -0.404089 -0.607 203 206 189
1.10722 -0.40542 -0.609 203 206 189
0.0756762 -0.365855 -0.548 192 155 137
0.081341 -0.363185 -0.544 204 157 137
0.10556 -0.36452 -0.546 183 133 108
0.110122 -0.365855 -0.548 177 125 101
0.1316 -0.376537 -0.564 149 94 87
0.138671 -0.38121 -0.571 132 88 85
0.172287 -0.401239 -0.601 125 125 151
0.4843 -0.40658 -0.609 186 191 211
0.48894 -0.40658 -0.609 191 197 223
0.4901 -0.40658 -0.609 155 161 187
0.469993 -0.329136 -0.493 163 134 120
0.469654 -0.314449 -0.471 184 142 118
0.471343 -0.313781 -0.47 183 141 116
0.471233 -0.313113 -0.469 185 141 116
0.474686 -0.312446 -0.468 186 142 115
0.478729 -0.310443 -0.465 184 140 113
0.481234 -0.309775 -0.464 181 137 108
0.493929 -0.307772 -0.461 176 131 100
0.978948 -0.40391 -0.605 208 210 196
0.982405 -0.40391 -0.605 208 210 196
1.0043 -0.40391 -0.605 206 209 192
1.02097 -0.404577 -0.606 205 208 191
1.02327 -0.404577 -0.606 205 208 191
1.02443 -0.404577 -0.606 204 207 190
1.03943 -0.404577 -0.606 206 209 192
1.07121 -0.405245 -0.607 204 206 192
1.08508 -0.405245 -0.607 203 206 189
1.08855 -0.405245 -0.607 202 205 188
1.09433 -0.405245 -0.607 202 205 188
1.09961 -0.405912 -0.608 201 204 187
1.10888 -0.405912 -0.608 201 204 187
0.0700314 -0.387654 -0.579 193 155 134
0.0706429 -0.384976 -0.575 194 156 135
0.111166 -0.366899 -0.548 177 120 100
0.135779 -0.38029 -0.568 143 91 80
0.194857 -0.401714 -0.6 134 149 190
0.197143 -0.401714 -0.6 161 170 187
0.489295 -0.40707 -0.608 112 122 157
0.491611 -0.40707 -0.608 169 180 208
0.49358 -0.40774 -0.609 151 157 173
0.497714 -0.358865 -0.536 156 127 121
0.476604 -0.338779 -0.506 160 128 117
0.469 -0.328067 -0.49 166 131 112
0.465709 -0.320032 -0.478 182 141 119
0.469752 -0.316015 -0.472 183 141 117
0.477095 -0.311998 -0.466 184 140 113
0.48866 -0.30865 -0.461 178 133 104
0.494807 -0.30865 -0.461 173 128 99
0.504009 -0.30999 -0.463 165 121 92
0.51281 -0.312668 -0.467 156 117 88
0.973878 -0.404392 -0.604 207 209 195
1.01121 -0.405062 -0.605 206 208 194
1.06367 -0.405731 -0.606 204 206 192
1.06598 -0.405731 -0.606 204 206 192
1.0706 -0.405731 -0.606 203 205 191
1.0874 -0.406401 -0.607 202 205 188
1.09318 -0.406401 -0.607 203 206 189
1.09665 -0.406401 -0.607 202 205 188
0.0913657 -0.363914 -0.542 200 154 131
0.09774 -0.364586 -0.543 197 150 124
0.104329 -0.365929 -0.545 186 134 110
0.116183 -0.370629 -0.552 169 112 93
0.117447 -0.3713 -0.553 165 108 89
0.118714 -0.371971 -0.554 162 106 91
0.169431 -0.402186 -0.599 126 124 145
0.171713 -0.402186 -0.599 134 132 153
0.182286 -0.402857 -0.6 79 92 126
0.478872 -0.408229 -0.608 151 166 197
0.49277 -0.408229 -0.608 188 193 215
0.50318 -0.364586 -0.543 154 125 117
0.471914 -0.334371 -0.498 163 131 118
0.466405 -0.318929 -0.475 181 139 115
0.517687 -0.3149 -0.469 155 113 88
1.06252 -0.406886 -0.606 204 206 192
1.06598 -0.406886 -0.606 203 205 191
1.07229 -0.406214 -0.605 204 207 188
1.0746 -0.406214 -0.605 203 206 189
1.0978 -0.407557 -0.607 202 205 188
0.105367 -0.366967 -0.545 184 132 108
0.10764 -0.36764 -0.546 185 131 107
0.13446 -0.38178 -0.567 138 89 82
0.176277 -0.403327 -0.599 142 142 166
0.188828 -0.403327 -0.599 111 126 167
0.189969 -0.403327 -0.599 97 112 153
0.19111 -0.403327 -0.599 82 99 142
0.202519 -0.403327 -0.599 177 180 199
0.496584 -0.408713 -0.607 192 192 200
0.540906 -0.39794 -0.591 152 123 127
0.467229 -0.31916 -0.474 182 140 116
0.479614 -0.3131 -0.465 185 141 114
0.486724 -0.309733 -0.46 181 136 107
0.493733 -0.309733 -0.46 175 129 103
0.496362 -0.309733 -0.46 174 127 101
0.499197 -0.310407 -0.461 171 125 99
0.50468 -0.31108 -0.462 164 120 95
0.506654 -0.311753 -0.463 162 118 93
0.508632 -0.312427 -0.464 160 118 94
1.07344 -0.407367 -0.605 205 208 191
1.08151 -0.407367 -0.605 203 205 191
1.08497 -0.407367 -0.605 203 205 191
0.0703657 -0.380834 -0.564 197 159 140
0.0942886 -0.365304 -0.541 196 150 126
0.095319 -0.365304 -0.541 197 149 126
0.113667 -0.371381 -0.55 173 118 98
0.137343 -0.384886 -0.57 127 87 85
0.187687 -0.404468 -0.599 110 119 152
0.194208 -0.403792 -0.598 125 138 172
0.48076 -0.409194 -0.606 161 189 237
0.48884 -0.409194 -0.606 141 159 181
0.467144 -0.319388 -0.473 184 142 120
0.469654 -0.318037 -0.471 185 143 118
0.474561 -0.315336 -0.467 180 139 111
0.47634 -0.315336 -0.467 181 140 112
0.92325 -0.405818 -0.601 210 212 199
0.9718 -0.406493 -0.602 208 211 194
0.983267 -0.406493 -0.602 208 210 196
1.08612 -0.408519 -0.605 204 207 190
0.0683333 -0.38868 -0.574 193 152 130
0.0725448 -0.371074 -0.548 204 158 135
0.09756 -0.367011 -0.542 196 148 125
0.0996248 -0.367011 -0.542 194 144 121
0.12254 -0.377169 -0.557 157 104 90
0.137584 -0.386649 -0.571 125 87 86
0.160906 -0.404254 -0.597 34 43 76
0.180539 -0.404931 -0.598 77 92 135
0.195347 -0.404931 -0.598 157 162 182
0.47943 -0.344666 -0.509 158 126 113
0.468045 -0.320289 -0.473 183 141 117
0.469654 -0.318934 -0.471 185 143 118
0.469552 -0.318257 -0.47 184 142 117
0.47034 -0.31758 -0.469 183 141 116
0.477095 -0.315549 -0.466 183 142 114
0.477843 -0.314871 -0.465 182 141 111
0.479467 -0.314194 -0.464 184 140 111
0.496362 -0.311486 -0.46 174 129 98
0.50644 -0.31284 -0.462 162 118 89
1.07052 -0.408994 -0.604 204 207 190
0.0838286 -0.366686 -0.54 205 159 136
0.0951429 -0.366686 -0.54 195 147 124
0.116183 -0.374834 -0.552 166 113 95
0.119986 -0.376871 -0.555 161 108 92
0.12511 -0.379588 -0.559 146 96 85
0.127694 -0.380946 -0.561 145 95 84
0.166591 -0.405391 -0.597 128 127 141
0.193883 -0.405391 -0.597 117 132 171
0.490338 -0.410824 -0.605 202 201 209
0.49149 -0.410824 -0.605 204 203 211
0.494162 -0.359895 -0.53 157 127 117
0.484995 -0.351068 -0.517 158 126 113
0.466243 -0.32119 -0.473 185 143 121
0.467144 -0.32119 -0.473 183 141 119
0.469654 -0.319831 -0.471 184 142 117
0.476208 -0.316436 -0.466 181 140 112
0.478583 -0.315078 -0.464 184 140 111
0.489163 -0.311683 -0.459 176 132 105
0.49266 -0.311683 -0.459 178 133 104
0.511284 -0.315078 -0.464 163 119 90
0.978199 -0.408108 -0.601 208 210 196
1.08202 -0.410145 -0.604 204 206 192
0.077801 -0.368395 -0.541 200 153 133
0.0807429 -0.367714 -0.54 204 158 135
0.0888067 -0.367033 -0.539 200 154 130
0.09086 -0.367033 -0.539 200 154 131
0.112414 -0.373843 -0.549 175 118 99
0.117447 -0.376567 -0.553 162 109 91
0.166591 -0.406529 -0.597 123 128 147
0.168866 -0.406529 -0.597 131 129 143
0.17653 -0.405848 -0.596 72 91 134
0.177665 -0.405848 -0.596 70 89 132
0.182511 -0.406529 -0.597 90 109 152
0.478023 -0.411295 -0.604 48 89 155
0.503286 -0.369076 -0.542 155 127 116
0.487755 -0.354776 -0.521 158 129 115
0.475694 -0.342519 -0.503 161 129 114
0.469993 -0.33571 -0.493 166 130 114
0.465829 -0.326857 -0.48 177 139 118
0.467144 -0.32209 -0.473 183 141 117
0.476957 -0.316643 -0.465 183 142 114
0.483219 -0.313238 -0.46 183 139 114
0.485666 -0.312557 -0.459 179 135 108
0.497031 -0.312557 -0.459 174 128 95
0.518148 -0.318005 -0.467 156 113 79
1.07679 -0.410614 -0.603 204 206 192
0.0692429 -0.378986 -0.555 201 158 139
0.07588 -0.370109 -0.542 202 157 136
0.0918867 -0.36806 -0.539 202 154 132
0.106405 -0.372157 -0.545 187 132 111
0.109921 -0.373523 -0.547 176 120 105
0.112414 -0.374889 -0.549 173 118 98
0.136496 -0.389911 -0.571 124 85 80
0.179935 -0.406983 -0.596 79 100 143
0.192423 -0.406983 -0.596 90 102 150
0.497581 -0.412446 -0.604 189 195 207
0.467984 -0.332551 -0.487 171 134 116
0.4669 -0.32982 -0.483 171 133 114
0.472782 -0.318894 -0.467 185 142 110
0.474561 -0.318894 -0.467 184 140 111
0.48004 -0.31548 -0.462 183 139 112
0.485666 -0.313431 -0.459 182 137 108
0.501403 -0.313431 -0.459 169 124 93
0.065801 -0.390999 -0.571 202 157 138
0.0676124 -0.382782 -0.559 202 160 138
0.07854 -0.369087 -0.539 206 160 137
0.0824933 -0.368402 -0.538 204 158 135
0.12254 -0.381412 -0.557 156 99 90
0.138307 -0.393053 -0.574 109 84 87
0.1887 -0.407433 -0.595 81 103 152
0.1955 -0.407433 -0.595 182 180 204
0.196633 -0.407433 -0.595 182 184 197
0.473786 -0.412911 -0.603 28 78 151
0.477231 -0.412911 -0.603 37 81 154
0.47838 -0.412911 -0.603 38 79 159
0.493303 -0.361554 -0.528 158 128 118
0.474432 -0.319099 -0.466 185 142 110
0.47532 -0.319099 -0.466 184 140 111
0.477551 -0.317045 -0.463 185 141 112
0.47828 -0.31636 -0.462 184 140 111
0.484791 -0.314306 -0.459 186 141 112
0.493331 -0.313621 -0.458 177 132 101
0.969239 -0.410172 -0.599 208 210 196
0.978367 -0.410172 -0.599 208 210 196
0.0678543 -0.38522 -0.561 202 157 136
0.0748476 -0.372173 -0.542 200 155 132
0.07574 -0.371487 -0.541 202 157 134
0.0766286 -0.3708 -0.54 204 158 135
0.0845429 -0.369427 -0.538 201 155 131
0.0961714 -0.3708 -0.54 197 147 120
0.109921 -0.375607 -0.547 174 116 102
0.126626 -0.38522 -0.561 144 95 90
0.13385 -0.390713 -0.569 132 88 85
0.474147 -0.413373 -0.602 31 78 166
0.495609 -0.41406 -0.603 194 200 224
0.5025 -0.41406 -0.603 113 145 192
0.494237 -0.363247 -0.529 157 127 117
0.4669 -0.33166 -0.483 173 135 116
0.466683 -0.328913 -0.479 179 138 116
0.468757 -0.32342 -0.471 184 144 118
0.469447 -0.322047 -0.469 184 143 115
0.476071 -0.3193 -0.465 184 141 109
0.486352 -0.314493 -0.458 183 138 109
0.486161 -0.313807 -0.457 181 136 107
0.497693 -0.314493 -0.458 173 127 94
0.966482 -0.410627 -0.598 208 210 196
0.06642 -0.39042 -0.567 204 159 136
0.0729171 -0.373894 -0.543 204 159 136
0.0982286 -0.371829 -0.54 193 143 116
0.099441 -0.372517 -0.541 192 142 115
0.103946 -0.373894 -0.543 185 130 109
0.10868 -0.37596 -0.546 177 119 105
0.109921 -0.376649 -0.547 175 117 103
0.169149 -0.409011 -0.594 143 141 163
0.489053 -0.41452 -0.602 147 165 203
0.4902 -0.41452 -0.602 155 171 194
0.502813 -0.41452 -0.602 85 121 173
0.492436 -0.362189 -0.526 156 126 116
0.466405 -0.327071 -0.475 179 137 112
0.469552 -0.323629 -0.47 184 143 115
0.469337 -0.322251 -0.468 184 143 113
0.47112 -0.322251 -0.468 184 143 113
0.527071 -0.324317 -0.471 149 112 86
0.974455 -0.411766 -0.598 208 211 194
0.0678171 -0.381143 -0.552 202 157 134
0.0783943 -0.371476 -0.538 206 160 136
0.0852495 -0.370095 -0.536 204 156 133
0.11346 -0.379071 -0.549 168 112 99
0.137213 -0.396333 -0.574 113 84 88
0.158966 -0.410143 -0.594 82 97 136
0.183548 -0.409452 -0.593 42 77 133
0.474504 -0.414976 -0.601 35 83 159
0.491347 -0.415667 -0.602 124 145 176
0.505107 -0.415667 -0.602 48 96 158
0.48692 -0.357667 -0.518 157 127 116
0.484139 -0.354905 -0.514 159 127 116
0.474763 -0.344548 -0.499 161 129 118
0.472853 -0.342476 -0.496 164 130 118
0.481294 -0.316929 -0.459 186 141 112
0.486161 -0.315548 -0.457 180 135 104
0.487031 -0.315548 -0.457 179 134 103
0.492046 -0.314857 -0.456 176 130 97
0.524833 -0.323833 -0.469 148 112 86
0.964866 -0.412214 -0.597 208 211 194
0.969414 -0.412214 -0.597 208 211 194
0.972826 -0.412214 -0.597 207 210 193
0.0670076 -0.383579 -0.554 203 158 137
0.06916 -0.37804 -0.546 201 155 132
0.0773695 -0.372501 -0.538 206 160 136
0.0821867 -0.371116 -0.536 207 159 136
0.114714 -0.38081 -0.55 160 107 93
0.118714 -0.383579 -0.554 154 101 93
0.124045 -0.387041 -0.559 143 96 90
0.132533 -0.393272 -0.568 120 88 89
0.134086 -0.394657 -0.57 120 88 89
0.158698 -0.410582 -0.593 50 68 108
0.491675 -0.416121 -0.601 155 161 173
0.485081 -0.356576 -0.515 157 124 115
0.474763 -0.345498 -0.499 160 128 117
0.465933 -0.333728 -0.482 170 133 117
0.466799 -0.333035 -0.481 174 136 117
0.469337 -0.324034 -0.468 183 141 116
0.486834 -0.315726 -0.456 179 134 103
0.500089 -0.316418 -0.457 170 125 94
0.516355 -0.320572 -0.463 153 117 85
0.0666448 -0.382551 -0.551 202 157 136
0.0744333 -0.37422 -0.539 203 155 133
0.0872914 -0.372137 -0.536 197 149 126
0.0913752 -0.372137 -0.536 200 150 125
0.112414 -0.381163 -0.549 169 113 100
0.114714 -0.381857 -0.55 160 103 92
0.125333 -0.3888 -0.56 138 95 89
0.188876 -0.411017 -0.592 56 88 145
0.467949 -0.337423 -0.486 168 132 118
0.466799 -0.333951 -0.481 174 136 117
0.46786 -0.327009 -0.471 182 140 116
0.469447 -0.32562 -0.469 184 142 117
0.472657 -0.323537 -0.466 185 141 114
0.478123 -0.320066 -0.461 184 141 109
0.478838 -0.319371 -0.46 184 139 108
0.485966 -0.316594 -0.456 180 133 103
0.970061 -0.413794 -0.596 207 210 193
0.0624286 -0.396829 -0.57 197 150 132
0.06392 -0.392651 -0.564 203 156 138
0.0664029 -0.382209 -0.549 201 156 137
0.0811657 -0.373158 -0.536 207 161 137
0.0862705 -0.373158 -0.536 200 153 127
0.0872914 -0.373158 -0.536 201 154 128
0.10868 -0.38012 -0.546 173 117 102
0.15843 -0.412145 -0.592 32 50 90
0.161813 -0.412145 -0.592 50 65 98
0.166043 -0.411449 -0.591 99 106 125
0.184054 -0.411449 -0.591 30 65 119
0.477489 -0.417018 -0.599 36 82 157
0.530813 -0.399613 -0.574 154 127 120
0.480443 -0.352969 -0.507 160 126 116
0.4669 -0.33626 -0.483 171 134 116
0.46786 -0.327906 -0.471 182 140 116
0.47667 -0.322336 -0.463 184 141 109
0.478838 -0.320248 -0.46 183 140 106
0.481809 -0.318159 -0.457 187 142 111
0.489233 -0.316767 -0.455 181 134 104
0.4953 -0.316767 -0.455 172 125 95
0.50729 -0.318855 -0.458 165 118 92
0.510146 -0.319551 -0.459 164 121 89
0.0781029 -0.374179 -0.536 208 160 137
0.09684 -0.375575 -0.538 191 140 113
0.107443 -0.380462 -0.545 172 116 99
0.112414 -0.383254 -0.549 164 111 97
0.166043 -0.412574 -0.591 133 138 160
0.170546 -0.412574 -0.591 117 126 157
0.173923 -0.412574 -0.591 66 82 115
0.46644 -0.417461 -0.598 109 138 182
0.490039 -0.418159 -0.599 201 207 219
0.49118 -0.418159 -0.599 201 207 219
0.527273 -0.397216 -0.569 155 128 119
0.500777 -0.374179 -0.536 157 128 120
0.475713 -0.34835 -0.499 168 132 116
0.467762 -0.328105 -0.47 182 142 116
0.47564 -0.32252 -0.462 184 140 111
0.482679 -0.31903 -0.457 184 139 108
0.492482 -0.316935 -0.454 176 129 99
0.496167 -0.317633 -0.455 172 125 95
0.498767 -0.317633 -0.455 172 125 95
0.51102 -0.320426 -0.459 165 116 84
0.0612352 -0.3983 -0.569 197 156 136
0.071221 -0.3766 -0.538 208 163 140
0.0769381 -0.3745 -0.535 208 162 138
0.0789762 -0.3745 -0.535 205 159 135
0.08188 -0.3738 -0.534 207 161 135
0.0861095 -0.3745 -0.535 203 157 131
0.09684 -0.3766 -0.538 187 136 109
0.109921 -0.3829 -0.547 167 112 92
0.111166 -0.3836 -0.548 163 109 97
0.156771 -0.413 -0.59 67 79 121
0.16239 -0.413 -0.59 112 122 149
0.18599 -0.413 -0.59 55 99 164
0.220077 -0.4137 -0.591 101 132 196
0.49118 -0.4193 -0.599 200 206 220
0.484206 -0.3584 -0.512 156 126 115
0.468446 -0.3276 -0.468 182 140 115
0.480938 -0.3199 -0.457 183 138 109
0.480754 -0.3192 -0.456 183 138 109
0.0621771 -0.391663 -0.558 202 157 136
0.0665886 -0.380432 -0.542 202 157 134
0.071221 -0.377625 -0.538 207 162 139
0.0808629 -0.374817 -0.534 205 159 135
0.101314 -0.379029 -0.54 182 127 106
0.111166 -0.384644 -0.548 163 108 101
0.117447 -0.388153 -0.553 145 101 88
0.152276 -0.414124 -0.59 25 34 65
0.1534 -0.414124 -0.59 35 47 87
0.154524 -0.414124 -0.59 59 71 111
0.47362 -0.419037 -0.597 37 83 158
0.479306 -0.419037 -0.597 99 131 180
0.495314 -0.370606 -0.528 156 126 116
0.471851 -0.345337 -0.492 164 131 116
0.469337 -0.328491 -0.468 182 140 115
0.478671 -0.322174 -0.459 183 140 108
0.0719771 -0.377242 -0.536 207 161 137
0.0759191 -0.376538 -0.535 206 162 137
0.1001 -0.379353 -0.539 180 128 104
0.112414 -0.386391 -0.549 161 107 97
0.12298 -0.39343 -0.559 143 99 90
0.15875 -0.414544 -0.589 116 122 154
0.169969 -0.414544 -0.589 154 153 171
0.46261 -0.41947 -0.596 156 164 185
0.484991 -0.420174 -0.597 200 208 221
0.48954 -0.420174 -0.597 198 205 221
0.530053 -0.402579 -0.572 147 128 114
0.466867 -0.33079 -0.47 179 137 113
0.477086 -0.323752 -0.46 185 142 110
0.05886 -0.40014 -0.567 201 156 133
0.0922238 -0.377557 -0.535 191 144 116
0.0978648 -0.379674 -0.538 180 130 105
0.1001 -0.38038 -0.539 178 126 104
0.496363 -0.421311 -0.597 132 145 164
0.503186 -0.421311 -0.597 121 157 207
0.51281 -0.388143 -0.55 154 126 112
0.486097 -0.362737 -0.514 155 127 115
0.473786 -0.349329 -0.495 162 129 112
0.494849 -0.319689 -0.453 174 128 95
0.50768 -0.321806 -0.456 165 120 87
0.0944381 -0.379284 -0.536 185 135 110
0.0988895 -0.380699 -0.538 176 125 104
0.1001 -0.381407 -0.539 176 125 104
0.120202 -0.393436 -0.556 143 100 94
0.124489 -0.396974 -0.561 137 96 94
0.49099 -0.421741 -0.596 198 204 220
0.488893 -0.366547 -0.518 155 129 116
0.486097 -0.363716 -0.514 155 127 113
0.468833 -0.343195 -0.485 168 131 113
0.466683 -0.33895 -0.479 172 134 113
0.466405 -0.336119 -0.475 177 136 114
0.468446 -0.331166 -0.468 182 140 115
0.47226 -0.327628 -0.463 181 140 112
0.4797 -0.321967 -0.455 183 140 106
0.481433 -0.321967 -0.455 183 138 105
0.48124 -0.321259 -0.454 183 138 105
0.487083 -0.320551 -0.453 177 131 98
0.0575762 -0.400881 -0.565 197 156 138
0.0898486 -0.378176 -0.533 190 144 120
0.0932429 -0.379595 -0.535 188 138 113
0.095459 -0.380305 -0.536 181 131 106
0.113667 -0.390238 -0.55 150 106 97
0.116183 -0.391657 -0.552 146 103 96
0.160447 -0.41649 -0.587 149 148 164
0.16856 -0.4172 -0.588 169 164 171
0.1708 -0.4172 -0.588 109 107 121
0.453137 -0.421457 -0.594 218 223 229
0.490167 -0.422167 -0.595 200 206 220
0.517471 -0.393786 -0.555 154 126 114
0.46782 -0.3427 -0.483 169 131 112
0.46777 -0.34199 -0.482 169 131 112
0.466243 -0.335605 -0.473 178 136 112
0.46766 -0.332767 -0.469 181 139 115
0.47226 -0.32851 -0.463 181 140 112
0.500026 -0.321414 -0.453 171 125 91
0.0639286 -0.382037 -0.537 201 156 135
0.0686571 -0.379903 -0.534 204 159 136
0.0754933 -0.37848 -0.532 204 158 135
0.10621 -0.387017 -0.544 168 112 97
0.113667 -0.391286 -0.55 149 106 97
0.124489 -0.399111 -0.561 135 95 95
0.127529 -0.401957 -0.565 128 92 92
0.146779 -0.416897 -0.586 49 56 82
0.168273 -0.417609 -0.587 156 149 156
0.214115 -0.417609 -0.587 148 171 212
0.506033 -0.4233 -0.595 150 179 213
0.518404 -0.395554 -0.556 153 126 115
0.505543 -0.384171 -0.54 155 126 118
0.501881 -0.380614 -0.535 153 126 115
0.465643 -0.339351 -0.477 175 134 114
0.466867 -0.334371 -0.47 177 137 112
0.476049 -0.326546 -0.459 184 140 111
0.477456 -0.325123 -0.457 183 140 108
0.479017 -0.324411 -0.456 184 141 109
0.480567 -0.3237 -0.455 183 138 107
0.48297 -0.322989 -0.454 182 137 104
0.484494 -0.322277 -0.453 179 134 101
0.497437 -0.322277 -0.453 172 128 93
0.500026 -0.322277 -0.453 171 127 92
0.0724533 -0.379493 -0.532 205 161 136
0.08142 -0.37878 -0.531 202 157 136
