ply
format ascii 1.0
comment Created by Open3D
element vertex 1292
property double x
property double y
property double z
property uchar red
property uchar green
property uchar blue
end_header
0.0592324 -0.398962 -0.514 192 142 117
0.0611905 -0.398962 -0.514 189 139 116
0.0673257 -0.400514 -0.516 186 135 114
0.0694257 -0.40129 -0.517 188 137 116
0.116353 -0.436995 -0.563 90 98 117
0.118498 -0.436995 -0.563 122 126 138
0.121499 -0.436219 -0.562 89 100 122
0.12364 -0.436219 -0.562 61 76 105
0.139946 -0.436995 -0.563 210 213 228
0.3406 -0.4238 -0.546 133 89 90
0.341425 -0.422248 -0.544 145 95 94
0.346613 -0.416038 -0.536 149 94 89
0.358154 -0.41759 -0.538 128 84 73
0.3619 -0.418367 -0.539 119 79 69
0.366686 -0.419143 -0.54 110 72 61
0.371829 -0.419143 -0.54 110 72 61
0.383143 -0.419143 -0.54 105 68 59
0.38654 -0.418367 -0.539 104 68 56
0.407073 -0.418367 -0.539 106 70 56
0.409127 -0.418367 -0.539 107 71 57
0.416038 -0.416038 -0.536 113 73 61
0.420816 -0.41371 -0.533 130 81 64
0.423495 -0.411381 -0.53 140 88 66
0.426926 -0.409829 -0.528 140 88 66
0.428125 -0.409052 -0.527 146 91 70
0.429316 -0.408276 -0.526 147 95 71
0.43132 -0.408276 -0.526 140 88 64
0.43467 -0.406724 -0.524 154 103 74
0.440814 -0.405948 -0.523 168 118 91
0.44196 -0.405171 -0.522 170 120 93
0.445937 -0.405171 -0.522 173 126 98
0.450776 -0.405948 -0.523 179 129 104
0.452897 -0.405171 -0.522 176 126 101
0.454886 -0.405171 -0.522 177 130 104
0.456874 -0.405171 -0.522 173 126 100
0.464829 -0.405171 -0.522 176 129 103
0.472598 -0.406724 -0.524 169 123 99
0.494448 -0.41759 -0.538 154 109 86
0.03762 -0.399163 -0.513 203 158 125
0.0434829 -0.399163 -0.513 203 158 127
0.0561857 -0.399163 -0.513 195 145 118
0.0652333 -0.400719 -0.515 187 137 114
0.0694257 -0.402275 -0.517 189 138 117
0.0825 -0.4085 -0.525 171 128 111
0.08968 -0.413947 -0.532 151 111 99
0.0910343 -0.415503 -0.534 147 107 95
0.0935914 -0.417837 -0.537 137 107 99
0.0946143 -0.417837 -0.537 137 107 99
0.09738 -0.42095 -0.541 127 98 92
0.126851 -0.43729 -0.562 171 178 204
0.127922 -0.43729 -0.562 172 180 199
0.342866 -0.422506 -0.543 151 95 96
0.344447 -0.419393 -0.539 151 92 88
0.359847 -0.419393 -0.539 132 80 69
0.364629 -0.420171 -0.54 112 72 60
0.376639 -0.42095 -0.541 103 67 55
0.384883 -0.42095 -0.541 103 67 55
0.3924 -0.420171 -0.54 103 65 52
0.405492 -0.42095 -0.541 106 68 55
0.427931 -0.410834 -0.528 141 89 68
0.430318 -0.409278 -0.526 144 92 70
0.43132 -0.409278 -0.526 143 91 69
0.445937 -0.406166 -0.522 174 124 97
0.447926 -0.406166 -0.522 175 126 94
0.450909 -0.406166 -0.522 177 128 96
0.453022 -0.405388 -0.521 178 129 97
0.456874 -0.406166 -0.522 176 127 97
0.471696 -0.406944 -0.523 170 124 98
0.472692 -0.406944 -0.523 170 124 98
0.495472 -0.418615 -0.538 158 121 95
0.500296 -0.42095 -0.541 159 122 96
0.50318 -0.422506 -0.543 162 122 97
0.0199829 -0.41964 -0.538 191 152 121
0.0217457 -0.41418 -0.531 187 148 119
0.0261467 -0.40404 -0.518 202 157 126
0.031819 -0.40092 -0.514 206 161 130
0.0327343 -0.40014 -0.513 206 161 130
0.0394971 -0.39936 -0.512 204 157 127
0.0561857 -0.40014 -0.513 196 146 121
0.0694257 -0.40326 -0.517 189 138 117
0.114006 -0.43836 -0.562 95 94 100
0.115076 -0.43836 -0.562 103 105 118
0.118288 -0.43836 -0.562 139 139 149
0.119358 -0.43836 -0.562 138 140 152
0.121283 -0.43758 -0.561 103 108 127
0.135174 -0.43758 -0.561 147 160 179
0.344299 -0.42276 -0.542 150 94 93
0.344694 -0.42198 -0.541 150 95 92
0.35508 -0.41964 -0.538 138 88 81
0.374238 -0.42276 -0.542 108 70 59
0.3794 -0.42276 -0.542 102 65 56
0.382169 -0.42354 -0.543 101 67 57
0.385271 -0.42354 -0.543 101 67 57
0.389005 -0.42198 -0.541 100 66 54
0.393127 -0.42198 -0.541 103 65 52
0.404923 -0.42354 -0.543 104 68 54
0.419883 -0.41886 -0.537 116 74 60
0.431136 -0.41106 -0.527 143 91 69
0.43132 -0.41028 -0.526 147 92 71
0.4325 -0.4095 -0.525 154 102 80
0.433841 -0.40794 -0.523 160 106 78
0.435833 -0.40794 -0.523 163 112 83
0.437826 -0.40794 -0.523 167 116 87
0.439971 -0.40716 -0.522 172 119 88
0.443949 -0.40716 -0.522 172 121 92
0.461846 -0.40716 -0.522 175 125 98
0.464829 -0.40716 -0.522 175 128 100
0.475592 -0.40872 -0.524 166 120 96
0.0198714 -0.418319 -0.535 192 151 121
0.02422 -0.405809 -0.519 198 152 128
0.02516 -0.405027 -0.518 200 154 130
0.0385219 -0.400335 -0.512 205 159 126
0.0414476 -0.400335 -0.512 202 157 126
0.0453486 -0.400335 -0.512 195 148 120
0.047299 -0.400335 -0.512 197 150 122
0.0621695 -0.401899 -0.514 193 143 118
0.0747809 -0.40659 -0.52 184 133 112
0.0963495 -0.42301 -0.541 128 102 101
0.115076 -0.43943 -0.562 118 118 128
0.120214 -0.438649 -0.561 143 145 157
0.122351 -0.438649 -0.561 82 88 104
0.131969 -0.438649 -0.561 193 201 214
0.135174 -0.438649 -0.561 171 180 195
0.137311 -0.438649 -0.561 106 117 149
0.13838 -0.438649 -0.561 149 163 190
0.344979 -0.428484 -0.548 136 88 86
0.3458 -0.42692 -0.546 140 91 86
0.34958 -0.421447 -0.539 141 92 88
0.351633 -0.421447 -0.539 140 91 86
0.383909 -0.425356 -0.544 100 67 58
0.387017 -0.425356 -0.544 100 66 56
0.407741 -0.425356 -0.544 103 67 53
0.412436 -0.423792 -0.542 106 68 55
0.418367 -0.421447 -0.539 105 66 51
0.424877 -0.416755 -0.533 129 80 65
0.428742 -0.413628 -0.529 143 92 73
0.42975 -0.413628 -0.529 145 93 72
0.43214 -0.412064 -0.527 151 96 75
0.439971 -0.408154 -0.522 176 121 91
0.450045 -0.407372 -0.521 179 130 100
0.458976 -0.407372 -0.521 174 127 99
0.463938 -0.407372 -0.521 175 128 100
0.467908 -0.407372 -0.521 172 125 99
0.469892 -0.407372 -0.521 171 125 99
0.470885 -0.407372 -0.521 170 124 98
0.4785 -0.4105 -0.525 165 119 96
0.48233 -0.412064 -0.527 167 122 99
0.485169 -0.413628 -0.529 168 123 100
0.488014 -0.415191 -0.531 168 123 100
0.0188876 -0.420122 -0.536 196 151 120
0.0206171 -0.413851 -0.528 199 150 120
0.0215 -0.4115 -0.525 199 150 120
0.0298029 -0.402094 -0.513 205 158 128
0.047299 -0.40131 -0.512 194 147 119
0.0512 -0.40131 -0.512 194 144 117
0.0580267 -0.40131 -0.512 197 147 120
0.0825 -0.4115 -0.525 164 118 102
0.115076 -0.440501 -0.562 130 129 137
0.119146 -0.439717 -0.561 153 157 168
0.122351 -0.439717 -0.561 89 95 109
0.354343 -0.423257 -0.54 130 83 77
0.375271 -0.427176 -0.545 103 66 57
0.379424 -0.427176 -0.545 99 65 55
0.382538 -0.427176 -0.545 100 66 56
0.394995 -0.427176 -0.545 102 68 56
0.400488 -0.426392 -0.544 100 67 52
0.40924 -0.42796 -0.546 101 65 49
0.422714 -0.42169 -0.538 110 68 54
0.431954 -0.413851 -0.528 147 95 71
0.433672 -0.410716 -0.524 168 113 83
0.44806 -0.408365 -0.521 178 127 98
0.454133 -0.407581 -0.52 174 125 95
0.458095 -0.407581 -0.52 174 127 97
0.461067 -0.407581 -0.52 172 125 97
0.462057 -0.407581 -0.52 171 124 96
0.46899 -0.407581 -0.52 173 126 100
0.473777 -0.409149 -0.522 170 124 98
0.01694 -0.4235 -0.539 191 148 114
0.0178667 -0.421143 -0.536 191 148 114
0.0287695 -0.402286 -0.512 204 159 128
0.0345533 -0.4015 -0.511 204 159 128
0.04234 -0.4015 -0.511 204 157 127
0.04526 -0.4015 -0.511 196 149 119
0.0462333 -0.4015 -0.511 195 148 118
0.04818 -0.4015 -0.511 192 145 115
0.0570514 -0.402286 -0.512 195 145 118
0.0580267 -0.402286 -0.512 197 147 120
0.0885 -0.417214 -0.531 148 110 99
0.133867 -0.44 -0.56 201 205 217
0.365257 -0.427429 -0.544 105 68 59
0.376649 -0.429786 -0.547 101 67 57
0.378732 -0.429786 -0.547 99 65 55
0.3829 -0.429786 -0.547 98 64 54
0.390907 -0.430571 -0.548 98 66 55
0.394361 -0.429786 -0.547 101 67 55
0.40196 -0.429 -0.546 99 66 51
0.414157 -0.429786 -0.547 100 65 46
0.41548 -0.429 -0.546 100 65 46
0.419663 -0.425857 -0.542 100 63 47
0.422473 -0.4235 -0.539 107 68 53
0.426471 -0.420357 -0.535 123 77 62
0.427923 -0.418786 -0.533 124 79 60
0.429351 -0.417214 -0.531 138 90 67
0.439971 -0.410143 -0.522 178 122 95
0.449181 -0.408571 -0.52 178 127 96
0.450171 -0.408571 -0.52 179 128 97
0.455124 -0.408571 -0.52 177 128 96
0.456114 -0.408571 -0.52 177 128 96
0.457214 -0.407786 -0.519 177 128 96
0.477673 -0.410929 -0.523 166 120 94
0.479585 -0.411714 -0.524 164 118 92
0.51606 -0.431357 -0.549 165 124 104
0.0159429 -0.425314 -0.54 192 150 125
0.0186762 -0.417438 -0.53 192 150 126
0.0212952 -0.409562 -0.52 196 150 126
0.0403143 -0.401686 -0.51 202 157 124
0.04234 -0.402473 -0.511 202 157 124
0.0442867 -0.402473 -0.511 199 153 120
0.0501267 -0.402473 -0.511 191 144 114
0.0570514 -0.403261 -0.512 196 146 119
0.0702743 -0.406411 -0.516 188 138 115
0.087159 -0.41665 -0.529 150 112 99
0.112533 -0.441067 -0.56 115 119 118
0.1136 -0.441067 -0.56 128 132 131
0.130667 -0.441067 -0.56 205 206 210
0.350601 -0.430828 -0.547 128 84 81
0.351 -0.43004 -0.546 129 85 82
0.35451 -0.429252 -0.545 120 79 75
0.355931 -0.428465 -0.544 119 78 74
0.356968 -0.428465 -0.544 116 75 69
0.3666 -0.43004 -0.546 101 67 57
0.40552 -0.431615 -0.548 96 63 48
0.417283 -0.430828 -0.547 99 63 47
0.421471 -0.427677 -0.543 103 66 50
0.421728 -0.42689 -0.542 104 67 51
0.424527 -0.424527 -0.539 112 73 56
0.426248 -0.422164 -0.536 117 75 59
0.426471 -0.421376 -0.535 120 77 61
0.427923 -0.419801 -0.533 121 78 59
0.43296 -0.415863 -0.528 159 106 72
0.433144 -0.415075 -0.527 162 109 75
0.434326 -0.414288 -0.526 170 116 82
0.435669 -0.412712 -0.524 175 118 88
0.436667 -0.412712 -0.524 175 118 88
0.438822 -0.411925 -0.523 173 116 86
0.442954 -0.411137 -0.522 175 120 89
0.455237 -0.408774 -0.519 178 128 95
0.461169 -0.408774 -0.519 176 127 94
0.470971 -0.409562 -0.52 171 124 96
0.480583 -0.412712 -0.524 166 120 94
0.498735 -0.422164 -0.536 167 121 98
0.502646 -0.423739 -0.538 160 123 104
0.0158838 -0.424764 -0.538 193 149 122
0.0402352 -0.401868 -0.509 201 157 122
0.051 -0.402657 -0.51 192 147 114
0.05694 -0.403447 -0.511 195 150 119
0.0609524 -0.404236 -0.512 191 146 115
0.0683086 -0.407394 -0.516 190 143 115
0.0801933 -0.412921 -0.523 176 125 104
0.0825 -0.4145 -0.525 170 122 99
0.0836591 -0.41529 -0.526 165 120 101
0.1168 -0.442133 -0.56 160 159 164
0.126174 -0.441344 -0.559 156 141 144
0.127239 -0.441344 -0.559 190 182 180
0.35581 -0.43187 -0.547 112 74 71
0.422248 -0.429501 -0.544 102 66 50
0.429147 -0.420027 -0.532 126 84 62
0.439971 -0.412131 -0.522 170 117 85
0.449181 -0.410552 -0.52 182 133 101
0.472952 -0.410552 -0.52 174 128 102
0.474854 -0.411342 -0.521 174 128 102
0.0220286 -0.406794 -0.514 197 148 116
0.0229629 -0.406003 -0.513 199 150 118
0.0286571 -0.403629 -0.51 209 160 130
0.0325429 -0.403629 -0.51 203 157 124
0.051 -0.403629 -0.51 192 147 116
0.0548857 -0.403629 -0.51 187 142 113
0.0558571 -0.403629 -0.51 192 147 118
0.0651067 -0.406794 -0.514 193 146 118
0.0702743 -0.408377 -0.516 188 141 113
0.0746371 -0.410751 -0.519 184 134 111
0.116591 -0.442409 -0.559 162 161 166
0.118721 -0.442409 -0.559 169 169 177
0.335594 -0.444783 -0.562 112 117 146
0.336665 -0.444783 -0.562 90 95 124
0.42172 -0.43212 -0.546 96 63 48
0.426343 -0.427371 -0.54 112 71 53
0.431954 -0.417874 -0.528 159 108 77
0.46028 -0.40996 -0.518 178 129 97
0.46324 -0.40996 -0.518 175 128 100
0.4662 -0.40996 -0.518 169 122 96
0.470066 -0.410751 -0.519 171 125 99
0.475847 -0.412334 -0.521 167 121 97
0.4855 -0.4155 -0.525 168 121 93
0.494083 -0.420249 -0.531 167 123 98
0.02482 -0.405393 -0.511 201 150 121
0.0257429 -0.4046 -0.51 201 152 122
0.0295705 -0.403807 -0.509 205 158 128
0.0382962 -0.403807 -0.509 199 156 122
0.0713952 -0.410153 -0.517 183 136 110
0.0733648 -0.410153 -0.517 183 136 110
0.0801933 -0.414913 -0.523 171 125 102
0.0886667 -0.422053 -0.532 140 107 100
0.119571 -0.44268 -0.558 170 173 182
0.125949 -0.44268 -0.558 176 170 172
0.42658 -0.427607 -0.539 109 72 56
0.42829 -0.425227 -0.536 118 76 52
0.429743 -0.42364 -0.534 125 81 56
0.4345 -0.4165 -0.525 171 115 80
0.4472 -0.412533 -0.52 181 131 96
0.454468 -0.410153 -0.517 181 132 100
0.462346 -0.410153 -0.517 176 129 101
0.473031 -0.41174 -0.519 171 125 99
0.477831 -0.413327 -0.521 169 123 99
0.0391886 -0.403981 -0.508 199 156 122
0.0529429 -0.405571 -0.51 195 148 120
0.0767619 -0.413524 -0.52 175 129 106
0.0813448 -0.416705 -0.524 167 122 101
0.0861514 -0.420681 -0.529 149 111 100
0.0900171 -0.424657 -0.534 138 105 96
0.330723 -0.446129 -0.561 185 183 194
0.427429 -0.43261 -0.544 101 69 58
0.433144 -0.41909 -0.527 166 111 80
0.436667 -0.416705 -0.524 174 118 85
0.43683 -0.41591 -0.523 174 118 85
0.439818 -0.41591 -0.523 175 121 85
0.443238 -0.413524 -0.52 180 126 90
0.445219 -0.413524 -0.52 181 127 91
0.448317 -0.412729 -0.519 185 132 100
0.451283 -0.412729 -0.519 184 134 101
0.455452 -0.411138 -0.517 183 134 102
0.460376 -0.411138 -0.517 175 128 100
0.468173 -0.411933 -0.518 172 125 97
0.477905 -0.413524 -0.52 171 124 98
0.48365 -0.41591 -0.523 171 121 98
0.495171 -0.421476 -0.53 163 118 95
0.500005 -0.423862 -0.533 163 121 99
0.505803 -0.427043 -0.537 162 120 96
0.509657 -0.429429 -0.54 163 121 97
0.51939 -0.434995 -0.547 163 122 100
0.0163743 -0.415311 -0.521 198 149 119
0.0247714 -0.406543 -0.51 205 154 123
0.0256924 -0.405746 -0.509 203 156 126
0.0314476 -0.404949 -0.508 202 157 124
0.0324152 -0.404949 -0.508 202 157 124
0.038221 -0.404949 -0.508 202 158 123
0.0539143 -0.406543 -0.51 197 150 122
0.0548857 -0.406543 -0.51 196 149 121
0.0558571 -0.406543 -0.51 195 148 120
0.0588867 -0.40734 -0.511 195 148 120
0.0670648 -0.409731 -0.514 186 139 113
0.0767619 -0.414514 -0.52 175 129 106
0.111069 -0.444806 -0.558 133 128 132
0.123601 -0.444009 -0.557 185 182 193
0.4284 -0.430457 -0.54 114 77 61
0.434148 -0.420094 -0.527 172 113 83
0.44196 -0.416109 -0.522 179 125 91
0.442106 -0.415311 -0.521 181 127 91
0.449427 -0.41292 -0.518 186 133 101
0.454468 -0.412123 -0.517 181 130 99
0.461361 -0.412123 -0.517 173 124 94
0.4653 -0.412123 -0.517 175 125 98
0.46727 -0.412123 -0.517 173 126 98
0.470147 -0.41292 -0.518 170 123 97
0.475009 -0.413717 -0.519 170 123 97
0.476986 -0.413717 -0.519 171 124 98
0.481801 -0.415311 -0.521 170 122 99
0.506826 -0.428066 -0.537 165 120 97
0.0127857 -0.429089 -0.537 194 149 120
0.0190171 -0.409112 -0.512 199 150 120
0.0247229 -0.406715 -0.509 208 155 123
0.0256419 -0.405916 -0.508 204 158 125
0.0420914 -0.405916 -0.508 198 151 121
0.0479914 -0.406715 -0.509 191 145 112
0.048961 -0.406715 -0.509 191 144 114
0.0691571 -0.41151 -0.515 181 133 110
0.11087 -0.44507 -0.557 137 132 136
0.115966 -0.44427 -0.556 148 154 170
0.118296 -0.44507 -0.557 145 150 170
0.125497 -0.44427 -0.556 192 186 196
0.42796 -0.43628 -0.546 95 67 56
0.428465 -0.434682 -0.544 96 68 56
0.431173 -0.425093 -0.532 148 101 75
0.43378 -0.422696 -0.529 167 110 80
0.435328 -0.420299 -0.526 172 115 85
0.439818 -0.417902 -0.523 177 123 89
0.440814 -0.417902 -0.523 176 122 88
0.4514 -0.413907 -0.518 185 135 102
0.455452 -0.413108 -0.517 180 129 100
0.456437 -0.413108 -0.517 177 128 98
0.461451 -0.412309 -0.516 175 125 98
0.0154114 -0.418097 -0.522 194 149 120
0.0163114 -0.415694 -0.519 197 152 123
0.0547781 -0.407685 -0.509 197 152 121
0.0568286 -0.408486 -0.51 196 151 120
0.109611 -0.44533 -0.556 131 129 134
0.435151 -0.422102 -0.527 172 113 83
0.437826 -0.418898 -0.523 177 120 90
0.438822 -0.418898 -0.523 177 122 91
0.441113 -0.417296 -0.521 179 125 91
0.44634 -0.415694 -0.519 185 132 98
0.450413 -0.414893 -0.518 183 130 98
0.454468 -0.414092 -0.517 180 131 101
0.462434 -0.413291 -0.516 175 125 98
0.46727 -0.414092 -0.517 169 122 94
0.470224 -0.414092 -0.517 171 124 98
0.501093 -0.426107 -0.532 167 122 101
0.508871 -0.430111 -0.537 164 119 98
0.01074 -0.431134 -0.537 188 144 119
0.0256419 -0.407851 -0.508 203 156 126
0.0294543 -0.407049 -0.507 200 153 123
0.0587714 -0.409457 -0.51 196 151 122
0.0608333 -0.41026 -0.511 195 150 121
0.0767619 -0.417486 -0.52 174 127 107
0.0838181 -0.423106 -0.527 150 110 98
0.1147 -0.445586 -0.555 135 137 149
0.331673 -0.448797 -0.559 116 131 162
0.430912 -0.431937 -0.538 128 86 62
0.432581 -0.425514 -0.53 160 105 75
0.440966 -0.419091 -0.522 181 126 95
0.441113 -0.418289 -0.521 181 126 95
0.446467 -0.41588 -0.518 185 132 100
0.453589 -0.414274 -0.516 178 129 97
0.463417 -0.414274 -0.516 177 127 100
0.474163 -0.415077 -0.517 166 119 93
0.475148 -0.415077 -0.517 164 117 91
0.477053 -0.41588 -0.518 166 120 94
0.482857 -0.417486 -0.52 166 121 98
0.49632 -0.423909 -0.528 166 121 98
0.513771 -0.433543 -0.54 167 121 97
0.0198752 -0.409624 -0.509 199 152 124
0.022739 -0.408819 -0.508 206 157 125
0.0449943 -0.408819 -0.508 192 146 113
0.0507 -0.408014 -0.507 196 149 119
0.0567171 -0.409624 -0.509 197 152 121
0.0638781 -0.412038 -0.512 191 144 116
0.0658286 -0.412038 -0.512 187 140 114
0.0690229 -0.413648 -0.514 177 131 107
0.0712571 -0.415257 -0.516 172 126 103
0.0733648 -0.416062 -0.517 173 125 102
0.0767619 -0.418476 -0.52 174 124 101
0.0864771 -0.427329 -0.531 138 105 100
0.1073 -0.446643 -0.555 115 110 116
0.110471 -0.446643 -0.555 141 138 145
0.119986 -0.446643 -0.555 121 126 145
0.429987 -0.436181 -0.542 114 77 58
0.43359 -0.426524 -0.53 160 105 75
0.435328 -0.423305 -0.526 170 115 85
0.440966 -0.420086 -0.522 182 127 96
0.443238 -0.418476 -0.52 184 131 99
0.449427 -0.416867 -0.518 181 128 96
0.458503 -0.415257 -0.516 179 128 99
0.463417 -0.415257 -0.516 178 127 98
0.474163 -0.416062 -0.517 171 121 96
0.482917 -0.417671 -0.519 165 120 99
0.497326 -0.424914 -0.528 165 119 93
0.5148 -0.434571 -0.54 164 119 100
0.518694 -0.436986 -0.543 166 121 102
0.0189057 -0.410593 -0.509 201 154 126
0.0265571 -0.40898 -0.507 205 159 126
0.0361429 -0.408173 -0.506 203 154 122
0.0458714 -0.40898 -0.507 195 149 116
0.0468371 -0.40898 -0.507 196 150 117
0.0487686 -0.40898 -0.507 197 151 118
0.0497343 -0.40898 -0.507 195 148 118
0.0507 -0.40898 -0.507 193 146 116
0.0839771 -0.42592 -0.528 148 111 102
0.115549 -0.446893 -0.554 133 139 153
0.118929 -0.4477 -0.555 120 126 140
0.432794 -0.43076 -0.534 149 99 74
0.438822 -0.421887 -0.523 179 126 94
0.44844 -0.417853 -0.518 182 129 97
0.450413 -0.417853 -0.518 181 128 96
0.451513 -0.417047 -0.517 181 126 96
0.476132 -0.417047 -0.517 172 125 97
0.506096 -0.429953 -0.533 165 120 97
0.509014 -0.431567 -0.535 164 119 96
0.0265048 -0.409137 -0.506 204 158 124
0.0284324 -0.409137 -0.506 201 155 121
0.0361429 -0.409137 -0.506 201 152 120
0.0371067 -0.409137 -0.506 201 152 120
0.0380705 -0.409137 -0.506 201 152 122
0.0419257 -0.409137 -0.506 196 150 117
0.04394 -0.409946 -0.507 195 149 116
0.0449057 -0.409946 -0.507 196 150 117
0.0586562 -0.411563 -0.509 198 152 119
0.0701381 -0.416414 -0.515 167 121 98
0.07238 -0.418031 -0.517 172 126 103
0.0815 -0.4245 -0.525 154 112 100
0.0853048 -0.428543 -0.53 141 104 96
0.108357 -0.448757 -0.555 135 133 134
0.110471 -0.448757 -0.555 150 150 158
0.113438 -0.447949 -0.554 143 147 158
0.114493 -0.447949 -0.554 149 153 164
0.11977 -0.447949 -0.554 141 143 155
0.43359 -0.428543 -0.53 159 102 73
0.438977 -0.422074 -0.522 181 125 98
0.449544 -0.418031 -0.517 185 130 100
0.452606 -0.417223 -0.516 181 128 97
0.455554 -0.417223 -0.516 183 129 101
0.507111 -0.430969 -0.533 164 119 96
0.513918 -0.435011 -0.538 162 120 95
0.0198362 -0.411722 -0.508 203 156 126
0.0409619 -0.410101 -0.506 194 148 115
0.0607143 -0.413343 -0.51 194 148 115
0.07238 -0.419016 -0.517 172 126 103
0.0853048 -0.429552 -0.53 137 103 94
0.114287 -0.448193 -0.553 170 170 178
0.117659 -0.449004 -0.554 125 125 133
0.118714 -0.449004 -0.554 134 134 142
0.120607 -0.448193 -0.553 190 190 198
0.432285 -0.438468 -0.541 124 86 65
0.441257 -0.421448 -0.52 183 128 98
0.44548 -0.419827 -0.518 184 129 99
0.454671 -0.417395 -0.515 184 130 102
0.458595 -0.417395 -0.515 179 128 99
0.461538 -0.417395 -0.515 178 127 98
0.466443 -0.417395 -0.515 176 126 99
0.479143 -0.418206 -0.516 162 116 92
0.491674 -0.423069 -0.522 165 120 97
0.00858095 -0.430562 -0.53 189 145 116
0.01046 -0.424875 -0.523 190 149 117
0.0264524 -0.410252 -0.505 199 155 120
0.0293962 -0.411065 -0.506 199 155 120
0.0515638 -0.411065 -0.506 194 149 116
0.0545629 -0.411877 -0.507 199 154 121
0.0733648 -0.420001 -0.517 172 126 103
0.114287 -0.449247 -0.553 175 174 179
0.432514 -0.438686 -0.54 129 88 68
0.432586 -0.434624 -0.535 145 94 73
0.440121 -0.42325 -0.521 181 126 95
0.472263 -0.419189 -0.516 175 126 96
0.476252 -0.418376 -0.515 172 125 99
0.480126 -0.419189 -0.516 164 118 92
0.505267 -0.430562 -0.53 160 121 92
0.521869 -0.44031 -0.542 163 119 94
0.00659905 -0.434014 -0.533 193 149 120
0.0122381 -0.418543 -0.514 197 152 121
0.0159657 -0.413657 -0.508 201 157 128
0.0197581 -0.412029 -0.506 205 159 126
0.0216857 -0.412029 -0.506 203 158 125
0.0331857 -0.411214 -0.505 199 155 120
0.0428048 -0.411214 -0.505 195 150 117
0.0545629 -0.412843 -0.507 197 152 119
0.0668038 -0.416914 -0.512 184 138 112
0.0744933 -0.4218 -0.518 171 126 105
0.0756257 -0.422614 -0.519 169 124 103
0.0839771 -0.429943 -0.528 136 103 96
0.11408 -0.449486 -0.552 173 171 174
0.448559 -0.420986 -0.517 184 131 100
0.449544 -0.420986 -0.517 184 131 100
0.450529 -0.420986 -0.517 182 129 98
0.451623 -0.420171 -0.516 180 127 96
0.452606 -0.420171 -0.516 182 129 98
0.45271 -0.419357 -0.515 181 127 99
0.45369 -0.419357 -0.515 179 125 97
0.454671 -0.419357 -0.515 184 130 102
0.455652 -0.419357 -0.515 182 128 100
0.468405 -0.419357 -0.515 177 128 98
0.47331 -0.419357 -0.515 170 123 93
0.475271 -0.419357 -0.515 173 123 96
0.479195 -0.419357 -0.515 169 122 94
0.488849 -0.422614 -0.519 166 120 94
0.490781 -0.423429 -0.52 166 120 94
0.5092 -0.4332 -0.532 161 116 95
0.521936 -0.440529 -0.541 161 126 98
0.00940952 -0.424419 -0.52 193 152 120
0.0216429 -0.412176 -0.505 203 158 125
0.0254905 -0.412176 -0.505 198 152 119
0.0322238 -0.412176 -0.505 203 157 123
0.036 -0.41136 -0.504 198 152 118
0.0370333 -0.412176 -0.505 197 151 117
0.0605952 -0.415441 -0.509 195 149 116
0.0657 -0.417073 -0.511 185 139 113
0.0668038 -0.41789 -0.512 184 138 112
0.0780514 -0.426051 -0.522 155 114 96
0.110926 -0.450537 -0.552 171 167 168
0.116183 -0.450537 -0.552 185 181 182
0.120389 -0.450537 -0.552 203 202 207
0.433767 -0.439927 -0.539 132 87 68
0.433394 -0.437478 -0.536 139 91 69
0.434014 -0.43503 -0.533 150 98 76
0.437159 -0.430132 -0.527 172 117 86
0.437331 -0.429316 -0.526 175 120 89
0.438663 -0.427684 -0.524 176 121 90
0.439971 -0.426051 -0.522 178 125 93
0.44548 -0.422787 -0.518 181 131 98
0.451729 -0.420338 -0.515 182 131 100
0.456633 -0.420338 -0.515 181 128 97
0.459663 -0.419522 -0.514 178 127 96
0.468474 -0.419522 -0.514 177 128 98
0.471411 -0.419522 -0.514 171 124 94
0.487907 -0.422787 -0.518 167 122 93
0.502407 -0.430132 -0.527 163 119 92
0.506276 -0.432581 -0.53 161 116 95
0.00653714 -0.431954 -0.528 191 147 120
0.00933714 -0.422137 -0.516 196 153 119
0.0112152 -0.418865 -0.512 196 152 123
0.0159029 -0.413956 -0.506 199 156 124
0.02064 -0.41232 -0.504 202 157 124
0.0485762 -0.413138 -0.505 198 153 120
0.0525276 -0.413956 -0.506 196 151 118
0.0829714 -0.431954 -0.528 140 102 91
0.108823 -0.451589 -0.552 161 155 157
0.433811 -0.436863 -0.534 145 95 72
0.434213 -0.435227 -0.532 151 99 75
0.43542 -0.434409 -0.531 151 100 73
0.437159 -0.431136 -0.527 171 116 86
0.4385 -0.4295 -0.525 175 120 90
0.438822 -0.427864 -0.523 172 119 87
0.442106 -0.426228 -0.521 180 127 95
0.453789 -0.420501 -0.514 176 125 94
0.460723 -0.419683 -0.513 176 127 97
0.462677 -0.419683 -0.513 175 126 94
0.492762 -0.42541 -0.52 167 121 95
0.521033 -0.440953 -0.539 162 120 95
0.00553143 -0.43296 -0.528 191 150 122
0.0130371 -0.41574 -0.507 199 156 124
0.0139476 -0.4141 -0.505 198 155 123
0.02448 -0.41328 -0.504 198 153 120
0.02832 -0.41328 -0.504 201 156 123
0.03696 -0.41328 -0.504 199 153 119
0.04656 -0.41328 -0.504 200 154 120
0.0476143 -0.4141 -0.505 199 154 121
0.0555286 -0.41574 -0.507 196 151 120
0.0647267 -0.41902 -0.511 182 137 108
0.0733648 -0.42394 -0.517 166 120 97
0.0769095 -0.42722 -0.521 157 116 96
0.0780514 -0.42804 -0.522 154 113 93
0.0856267 -0.43624 -0.532 122 98 96
0.435795 -0.43378 -0.529 156 106 79
0.440966 -0.42804 -0.522 175 122 91
0.44659 -0.42394 -0.517 182 129 97
0.470494 -0.42066 -0.513 174 127 97
0.476357 -0.42066 -0.513 172 125 97
0.492803 -0.42558 -0.519 167 121 97
0.495694 -0.42722 -0.521 170 117 86
0.00645048 -0.428212 -0.521 189 150 121
0.02064 -0.41424 -0.504 200 155 124
0.0292219 -0.413418 -0.503 200 155 122
0.0677791 -0.420815 -0.512 180 134 108
0.07224 -0.424103 -0.516 165 121 96
0.0818105 -0.433144 -0.527 131 103 92
0.0869657 -0.438897 -0.534 113 94 98
0.102143 -0.452048 -0.55 51 54 73
0.108626 -0.45287 -0.551 168 164 163
0.436431 -0.436431 -0.531 152 102 79
0.436619 -0.43561 -0.53 150 103 77
0.441113 -0.428212 -0.521 172 119 88
0.448559 -0.424925 -0.517 185 132 101
0.450748 -0.423281 -0.515 183 132 101
0.454768 -0.422459 -0.514 174 123 94
0.465609 -0.421637 -0.513 177 128 98
0.476357 -0.421637 -0.513 170 125 94
0.477334 -0.421637 -0.513 171 126 95
0.505418 -0.433144 -0.527 164 119 90
0.0129857 -0.416024 -0.505 198 154 125
0.0263476 -0.414376 -0.503 196 151 120
0.0340124 -0.414376 -0.503 199 154 121
0.04656 -0.4152 -0.504 198 152 119
0.04848 -0.4152 -0.504 197 152 119
0.0505 -0.416024 -0.505 199 154 121
0.0657 -0.420967 -0.511 184 139 110
0.0793486 -0.431676 -0.524 141 106 87
0.0831286 -0.435795 -0.529 126 98 87
0.108429 -0.453095 -0.55 158 154 155
0.112619 -0.453095 -0.55 180 179 184
0.114714 -0.453095 -0.55 181 182 187
0.444363 -0.427557 -0.519 181 124 94
0.447574 -0.42591 -0.517 183 130 98
0.45281 -0.423438 -0.514 178 127 96
0.458769 -0.422614 -0.513 180 129 98
0.460723 -0.422614 -0.513 180 129 98
0.466651 -0.42179 -0.512 180 131 101
0.472503 -0.42179 -0.512 174 127 97
0.473478 -0.42179 -0.512 172 125 95
0.474453 -0.42179 -0.512 171 124 94
0.475429 -0.42179 -0.512 170 123 93
0.484139 -0.423438 -0.514 161 116 87
0.491889 -0.42591 -0.517 164 124 99
0.502541 -0.431676 -0.524 164 119 88
0.508389 -0.434971 -0.528 162 117 86
0.5133 -0.437443 -0.531 160 115 84
0.012 -0.41616 -0.504 199 155 126
0.0215571 -0.415334 -0.503 202 157 126
0.0292219 -0.415334 -0.503 199 154 123
0.0339448 -0.414509 -0.502 198 153 120
0.0406381 -0.414509 -0.502 200 154 121
0.055419 -0.417811 -0.506 193 150 118
0.0701381 -0.425243 -0.515 165 124 96
0.0806533 -0.434326 -0.526 138 103 84
0.0998657 -0.453317 -0.549 65 64 80
0.436431 -0.438454 -0.531 148 96 74
0.4385 -0.4335 -0.525 162 108 82
0.440966 -0.431023 -0.522 170 114 87
0.454768 -0.424417 -0.514 180 129 98
0.466651 -0.422766 -0.512 181 132 102
0.47933 -0.422766 -0.512 174 128 102
0.513343 -0.437629 -0.53 158 113 84
0.00348667 -0.432845 -0.523 189 149 124
0.00539524 -0.426224 -0.515 188 148 122
0.00820857 -0.419603 -0.507 195 153 128
0.0101 -0.417948 -0.505 197 153 128
0.0177248 -0.416292 -0.503 195 150 121
0.0243829 -0.415465 -0.502 201 154 124
0.034901 -0.415465 -0.502 196 151 120
0.0377695 -0.415465 -0.502 199 153 120
0.0387257 -0.415465 -0.502 198 152 119
0.0625343 -0.421258 -0.509 189 144 113
0.0657 -0.422913 -0.511 178 134 105
0.0668038 -0.423741 -0.512 176 132 103
0.0819657 -0.436983 -0.528 124 97 86
0.111369 -0.454363 -0.549 180 179 185
0.436847 -0.446087 -0.539 124 89 69
0.437989 -0.436983 -0.528 151 99 77
0.439661 -0.433672 -0.524 163 109 83
0.439818 -0.432845 -0.523 165 111 85
0.440814 -0.432845 -0.523 168 114 86
0.453883 -0.424569 -0.513 182 129 98
0.459825 -0.423741 -0.512 182 131 100
0.4608 -0.423741 -0.512 181 130 99
0.025339 -0.416421 -0.502 200 155 124
0.0262952 -0.416421 -0.502 199 156 124
0.0329886 -0.416421 -0.502 195 150 119
0.0424657 -0.415591 -0.501 198 153 120
0.0595086 -0.421398 -0.508 189 144 113
0.0604762 -0.421398 -0.508 188 143 112
0.0735067 -0.429693 -0.518 156 114 90
0.0746371 -0.430523 -0.519 155 112 93
0.0819657 -0.437989 -0.528 121 97 87
0.437271 -0.445454 -0.537 130 93 67
0.43706 -0.442136 -0.533 142 94 71
0.437629 -0.439648 -0.53 147 96 75
0.438163 -0.437159 -0.527 151 101 78
0.44196 -0.433011 -0.522 169 113 86
0.45486 -0.425546 -0.513 180 127 96
0.46282 -0.423887 -0.511 174 123 94
0.463793 -0.423887 -0.511 174 123 94
0.47158 -0.423887 -0.511 175 124 97
0.501649 -0.432182 -0.521 162 117 88
0.513382 -0.438818 -0.529 159 118 90
0.517346 -0.440477 -0.531 160 119 91
0.523281 -0.443795 -0.535 161 119 94
0.530229 -0.447943 -0.54 165 123 98
0.00721429 -0.419871 -0.505 198 152 128
0.03006 -0.416546 -0.501 199 156 124
0.0338771 -0.416546 -0.501 196 153 121
0.0348314 -0.416546 -0.501 197 154 122
0.0405571 -0.416546 -0.501 197 152 121
0.04342 -0.416546 -0.501 198 155 123
0.0553095 -0.419871 -0.505 191 146 117
0.0701381 -0.428186 -0.515 165 123 99
0.0746371 -0.431511 -0.519 154 112 96
0.0821209 -0.439826 -0.529 119 96 88
0.103859 -0.455623 -0.548 71 81 108
0.436341 -0.460611 -0.554 19 35 68
0.443238 -0.432343 -0.52 170 115 85
0.444229 -0.432343 -0.52 170 115 85
0.446467 -0.43068 -0.518 173 120 89
0.448674 -0.429017 -0.516 175 122 91
0.460873 -0.42486 -0.511 182 128 100
0.466713 -0.42486 -0.511 182 131 104
0.469633 -0.42486 -0.511 160 109 82
0.479367 -0.42486 -0.511 176 126 99
0.48326 -0.42486 -0.511 165 118 92
0.515397 -0.439826 -0.529 159 118 90
0.518357 -0.441489 -0.531 160 119 91
-0.00150571 -0.439167 -0.527 189 149 123
0.000499048 -0.436667 -0.524 191 151 125
0.00437143 -0.425 -0.51 194 153 125
0.0252886 -0.4175 -0.501 201 156 125
0.0291057 -0.4175 -0.501 198 153 120
0.04342 -0.4175 -0.501 199 154 123
0.0462829 -0.4175 -0.501 195 152 120
0.0573467 -0.421667 -0.506 188 144 115
0.0614438 -0.423333 -0.508 183 139 112
0.438075 -0.444167 -0.533 136 92 67
0.44634 -0.4325 -0.519 170 117 86
0.45183 -0.428333 -0.514 177 121 94
0.453973 -0.426667 -0.512 177 123 95
0.49489 -0.429167 -0.515 164 120 95
0.506563 -0.435833 -0.523 162 118 91
0.514423 -0.44 -0.528 158 117 89
0.51839 -0.441667 -0.53 159 118 90
0.52136 -0.443333 -0.532 162 118 89
0.525319 -0.445833 -0.535 161 117 88
-0.00250952 -0.44017 -0.527 189 147 122
0.01002 -0.418454 -0.501 195 151 124
0.0119286 -0.418454 -0.501 192 148 119
0.0138095 -0.417619 -0.5 196 152 123
0.0442857 -0.417619 -0.5 199 154 125
0.0593914 -0.423466 -0.507 188 141 111
0.0636286 -0.425971 -0.51 177 133 108
0.07238 -0.431818 -0.517 153 112 94
0.0772048 -0.43683 -0.523 141 104 88
0.09846 -0.456875 -0.547 114 103 101
0.427127 -0.461887 -0.553 88 92 104
0.433447 -0.461887 -0.553 19 37 73
0.43788 -0.446017 -0.534 132 90 65
0.439335 -0.439335 -0.526 146 98 75
0.4405 -0.4385 -0.525 150 100 75
0.443098 -0.435159 -0.521 164 113 86
0.445219 -0.434324 -0.52 164 113 84
0.457953 -0.426807 -0.511 176 120 93
0.475514 -0.425971 -0.51 173 123 96
0.528343 -0.447688 -0.536 155 109 86
0.914205 -0.470239 -0.563 166 166 154
0.00146857 -0.430291 -0.514 191 150 122
0.00717143 -0.420246 -0.502 194 150 123
0.00906571 -0.419409 -0.501 194 150 121
0.0204762 -0.418571 -0.5 196 152 123
0.0261905 -0.418571 -0.5 197 153 124
0.0385714 -0.418571 -0.5 198 154 125
0.0472371 -0.419409 -0.501 195 150 121
0.0603571 -0.424431 -0.507 186 139 111
0.0701381 -0.431129 -0.515 154 116 95
0.0796514 -0.440337 -0.526 125 98 87
0.438499 -0.448709 -0.536 126 90 66
0.441657 -0.438663 -0.524 154 104 79
0.445351 -0.434477 -0.519 166 111 81
0.447574 -0.432803 -0.517 172 115 86
0.450748 -0.431129 -0.515 174 120 92
0.453973 -0.428617 -0.512 174 119 89
0.459971 -0.426943 -0.51 176 122 94
0.4658 -0.426943 -0.51 181 127 99
0.470704 -0.426106 -0.509 172 121 94
0.47749 -0.426106 -0.509 175 125 98
0.509551 -0.437826 -0.523 161 117 92
0.526371 -0.447034 -0.534 153 119 91
0.998855 -0.473823 -0.566 102 102 102
0.998167 -0.472986 -0.565 103 103 103
0.000490476 -0.43211 -0.515 192 151 123
0.00620286 -0.420363 -0.501 190 146 117
0.0128314 -0.418685 -0.499 194 151 119
0.0213857 -0.418685 -0.499 198 155 123
0.0309524 -0.419524 -0.5 198 153 122
0.0347619 -0.419524 -0.5 197 152 121
0.0357143 -0.419524 -0.5 197 152 121
0.037619 -0.419524 -0.5 197 152 121
0.0385714 -0.419524 -0.5 196 151 120
0.0441971 -0.418685 -0.499 197 152 121
0.0461905 -0.419524 -0.5 195 150 119
0.0603571 -0.425397 -0.507 183 138 109
0.0796514 -0.441339 -0.526 120 96 86
0.08096 -0.443017 -0.528 118 94 84
0.10244 -0.45812 -0.546 100 106 120
0.11076 -0.45812 -0.546 106 121 154
0.429509 -0.463154 -0.552 38 54 80
0.433714 -0.463154 -0.552 17 32 63
0.438454 -0.445534 -0.531 142 100 75
0.447453 -0.434627 -0.518 163 112 83
0.448559 -0.433788 -0.517 164 113 84
0.448674 -0.432949 -0.516 168 117 88
0.499783 -0.432949 -0.516 165 120 91
0.509571 -0.437983 -0.522 160 119 89
0.51646 -0.442178 -0.527 162 118 91
0.534413 -0.451408 -0.538 157 121 95
0.965246 -0.473223 -0.564 112 112 100
0.971691 -0.473223 -0.564 103 103 101
0.980692 -0.472384 -0.563 100 100 100
0.983509 -0.473223 -0.564 99 99 99
0.993465 -0.474901 -0.566 98 98 100
0.99846 -0.47574 -0.567 96 96 96
1.03668 -0.479935 -0.572 82 86 95
1.03995 -0.479935 -0.572 75 81 93
0.00240952 -0.425522 -0.506 190 149 119
0.00430286 -0.422158 -0.502 188 147 117
0.00714286 -0.420476 -0.5 197 153 124
0.0128314 -0.419635 -0.499 195 150 119
0.0166333 -0.419635 -0.499 195 150 119
0.02994 -0.419635 -0.499 201 156 123
0.0356429 -0.419635 -0.499 196 151 118
0.0413457 -0.419635 -0.499 196 151 120
0.0422962 -0.419635 -0.499 193 148 117
0.0501 -0.421317 -0.501 195 150 121
0.0531743 -0.422999 -0.503 192 147 118
0.0603571 -0.426363 -0.507 183 137 111
0.0614438 -0.427204 -0.508 175 131 104
0.0624114 -0.427204 -0.508 170 126 99
0.0646 -0.428886 -0.51 172 130 106
0.09724 -0.45916 -0.546 108 102 104
0.432663 -0.464206 -0.552 20 37 65
0.438971 -0.464206 -0.552 21 32 62
0.43952 -0.45075 -0.536 132 90 66
0.438994 -0.444023 -0.528 148 100 77
0.455033 -0.429727 -0.511 170 116 88
0.456086 -0.428886 -0.51 170 116 88
0.457057 -0.428886 -0.51 169 115 87
0.461009 -0.428045 -0.509 175 124 95
0.463973 -0.427204 -0.508 174 123 94
0.480423 -0.427204 -0.508 172 125 97
0.489114 -0.428886 -0.51 168 123 92
0.51352 -0.440659 -0.524 162 118 89
1.01979 -0.484389 -0.576 80 84 95
0.0185343 -0.420586 -0.499 199 154 121
0.0270886 -0.420586 -0.499 198 154 119
0.0337419 -0.420586 -0.499 200 156 121
0.0403952 -0.420586 -0.499 197 153 118
0.0432467 -0.420586 -0.499 192 147 114
0.0470486 -0.420586 -0.499 194 149 116
0.0603571 -0.427329 -0.507 182 136 110
0.0646 -0.429857 -0.51 172 127 104
0.102252 -0.459357 -0.545 124 128 137
0.110557 -0.459357 -0.545 59 87 134
0.426631 -0.464414 -0.551 40 58 82
0.440337 -0.443343 -0.526 139 93 70
0.44409 -0.439129 -0.521 154 104 81
0.448674 -0.434914 -0.516 161 111 86
0.450851 -0.433229 -0.514 162 108 82
0.45713 -0.429014 -0.509 171 117 89
0.46107 -0.428171 -0.508 176 125 96
0.485247 -0.429014 -0.509 172 125 95
0.489114 -0.429857 -0.51 169 124 95
0.841694 -0.471157 -0.559 140 141 133
0.8464 -0.472 -0.56 139 140 132
0.993101 -0.482114 -0.572 83 87 98
-0.00145714 -0.430829 -0.51 193 152 122
0.0213429 -0.420691 -0.498 198 153 120
0.0422114 -0.420691 -0.498 194 149 116
0.05616 -0.42576 -0.504 185 140 109
0.0592743 -0.42745 -0.506 181 135 109
0.0614438 -0.429139 -0.508 179 135 110
0.0635038 -0.429984 -0.509 167 125 101
0.0646 -0.430829 -0.51 167 125 101
0.07252 -0.437587 -0.518 141 103 84
0.439466 -0.448569 -0.531 139 97 73
0.440337 -0.444345 -0.526 135 93 71
0.442807 -0.44181 -0.523 147 101 78
0.445219 -0.439276 -0.52 147 101 78
0.445351 -0.438431 -0.519 147 99 77
0.446467 -0.437587 -0.518 145 97 75
0.450851 -0.434208 -0.514 158 106 82
0.452023 -0.432518 -0.512 171 117 91
0.455114 -0.430829 -0.51 169 115 89
0.456086 -0.430829 -0.51 173 119 93
0.4581 -0.429984 -0.509 172 121 94
0.46306 -0.428294 -0.507 170 120 93
0.484293 -0.429139 -0.508 171 124 96
0.486216 -0.429984 -0.509 173 126 98
0.489125 -0.429984 -0.509 167 120 92
0.495909 -0.432518 -0.512 165 121 96
0.498831 -0.433363 -0.513 163 119 94
0.500783 -0.434208 -0.514 164 119 96
0.53549 -0.452792 -0.536 145 116 100
0.811881 -0.472222 -0.559 147 147 139
0.819733 -0.473067 -0.56 126 127 119
0.820399 -0.472222 -0.559 123 123 115
0.842569 -0.473911 -0.561 124 125 117
0.84898 -0.473911 -0.561 124 125 117
1.00068 -0.487428 -0.577 66 69 84
-0.00647524 -0.442807 -0.523 183 153 129
-0.00544762 -0.440267 -0.52 183 153 129
-0.00443143 -0.437727 -0.517 191 150 120
-0.00242857 -0.4318 -0.51 192 151 121
0.00994 -0.420793 -0.497 198 153 122
0.0137267 -0.420793 -0.497 196 153 121
0.0270343 -0.42164 -0.498 197 154 119
0.0279829 -0.42164 -0.498 197 154 119
0.0412629 -0.42164 -0.498 200 155 124
0.0470486 -0.422487 -0.499 191 146 115
0.0520086 -0.42418 -0.501 193 148 117
0.05616 -0.42672 -0.504 185 140 109
0.0657 -0.432647 -0.511 164 123 101
0.0799543 -0.44704 -0.528 109 90 84
0.0970619 -0.461433 -0.545 119 119 121
0.110354 -0.460587 -0.544 39 75 133
0.442655 -0.443653 -0.524 140 98 76
0.444799 -0.442807 -0.523 144 99 78
0.445219 -0.440267 -0.52 144 99 78
0.44621 -0.440267 -0.52 145 97 75
0.451929 -0.43434 -0.513 165 113 89
0.452023 -0.433493 -0.512 170 116 92
0.458168 -0.430107 -0.508 172 121 94
0.479477 -0.42926 -0.507 168 121 93
0.489125 -0.430953 -0.509 165 118 90
0.495913 -0.432647 -0.511 166 122 97
0.500786 -0.43434 -0.513 163 119 94
0.513557 -0.441113 -0.521 156 115 85
0.516525 -0.442807 -0.523 157 116 86
0.53551 -0.452967 -0.535 154 120 95
0.797674 -0.47244 -0.558 120 119 117
0.812267 -0.474133 -0.56 130 131 125
0.813333 -0.474133 -0.56 128 129 123
0.824403 -0.47498 -0.561 115 115 107
0.825471 -0.47498 -0.561 113 113 105
0.852007 -0.476673 -0.563 122 123 115
0.86548 -0.475827 -0.562 121 121 113
-0.00748571 -0.444651 -0.524 187 151 119
-0.00241905 -0.431074 -0.508 193 152 122
0.01278 -0.42174 -0.497 198 153 120
0.02414 -0.42174 -0.497 200 155 122
0.03266 -0.42174 -0.497 195 152 118
0.0510543 -0.425134 -0.501 193 148 117
0.0581952 -0.428529 -0.505 181 137 110
0.0624114 -0.431074 -0.508 170 128 104
0.0680438 -0.436166 -0.514 154 116 97
0.0691571 -0.437014 -0.515 146 108 89
0.0968838 -0.461623 -0.544 122 122 124
0.445083 -0.442106 -0.521 143 98 77
0.44621 -0.441257 -0.52 143 97 74
0.449657 -0.437863 -0.516 152 104 81
0.45406 -0.43362 -0.511 164 114 87
0.460163 -0.430226 -0.507 173 123 96
0.464074 -0.429377 -0.506 173 123 96
0.477546 -0.430226 -0.507 172 125 97
0.488164 -0.431074 -0.508 165 118 90
0.489131 -0.431074 -0.508 164 119 90
0.49981 -0.434469 -0.512 164 118 92
0.50863 -0.438711 -0.517 160 113 93
0.796974 -0.474351 -0.559 102 101 97
0.8041 -0.476049 -0.561 102 101 99
0.805169 -0.476049 -0.561 103 102 100
0.82627 -0.477746 -0.563 118 117 112
0.828414 -0.477746 -0.563 114 113 108
0.841703 -0.478594 -0.564 116 117 111
0.844926 -0.478594 -0.564 117 117 109
0.849223 -0.478594 -0.564 121 121 113
0.851371 -0.478594 -0.564 125 125 117
0.858891 -0.478594 -0.564 120 119 114
0.86104 -0.478594 -0.564 121 122 114
0.8721 -0.48114 -0.567 123 123 115
-0.00641333 -0.440547 -0.518 188 152 126
0.0127543 -0.421836 -0.496 198 154 119
0.0146438 -0.421836 -0.496 199 155 120
0.0165667 -0.422687 -0.497 197 152 119
0.0231933 -0.422687 -0.497 200 156 121
0.0680438 -0.437145 -0.514 152 114 95
0.421946 -0.466911 -0.549 117 124 130
0.426905 -0.467762 -0.55 112 122 134
0.431095 -0.467762 -0.55 37 55 79
0.438176 -0.468612 -0.551 22 39 69
0.443667 -0.467762 -0.55 75 75 85
0.441121 -0.453304 -0.533 131 93 72
0.443949 -0.443949 -0.522 143 97 74
0.444943 -0.443949 -0.522 144 98 75
0.450851 -0.437145 -0.514 153 106 80
0.456161 -0.432892 -0.509 169 119 92
0.459197 -0.431191 -0.507 171 121 94
0.46306 -0.431191 -0.507 170 120 93
0.46311 -0.430341 -0.506 168 118 91
0.466966 -0.430341 -0.506 175 126 96
0.470821 -0.430341 -0.506 172 123 93
0.474676 -0.430341 -0.506 176 129 99
0.484306 -0.431191 -0.507 172 125 97
0.496886 -0.433743 -0.51 165 119 93
0.497857 -0.433743 -0.51 165 119 93
0.514552 -0.442248 -0.52 153 111 87
0.523495 -0.44735 -0.526 161 115 99
0.526491 -0.449051 -0.528 161 116 87
0.818763 -0.478818 -0.563 123 122 117
0.819835 -0.478818 -0.563 123 122 117
0.828811 -0.479669 -0.564 118 117 112
0.829886 -0.479669 -0.564 116 115 110
0.835662 -0.480519 -0.565 121 120 115
0.855469 -0.48137 -0.566 121 121 113
0.859781 -0.48137 -0.566 116 116 108
0.876714 -0.484771 -0.57 122 122 114
-0.00637619 -0.438976 -0.515 189 152 123
0.01846 -0.423633 -0.497 196 151 118
0.0269257 -0.422781 -0.496 193 150 116
0.0354286 -0.422781 -0.496 197 152 119
0.04118 -0.423633 -0.497 197 154 120
0.0581952 -0.430452 -0.505 179 134 105
0.0602381 -0.431305 -0.506 177 131 105
0.0624114 -0.43301 -0.508 174 128 104
0.07266 -0.442386 -0.519 132 101 83
0.0967057 -0.462843 -0.543 129 129 139
0.422991 -0.467957 -0.549 123 127 136
0.424037 -0.467957 -0.549 116 124 137
0.431095 -0.46881 -0.55 31 49 71
0.436333 -0.46881 -0.55 37 57 82
0.441325 -0.469662 -0.551 18 33 52
0.441174 -0.449205 -0.527 136 95 73
0.44634 -0.442386 -0.519 143 97 73
0.449544 -0.440681 -0.517 153 106 80
0.449657 -0.439829 -0.516 150 103 77
0.450748 -0.438976 -0.515 153 106 80
0.466966 -0.431305 -0.506 172 122 97
0.477568 -0.431305 -0.506 173 126 98
0.492034 -0.43301 -0.508 165 119 93
0.498829 -0.434714 -0.51 161 115 91
0.502735 -0.436419 -0.512 163 117 91
0.506657 -0.438124 -0.514 161 116 87
0.517527 -0.44409 -0.521 155 118 89
0.804103 -0.480743 -0.564 94 90 87
0.806251 -0.480743 -0.564 94 90 87
0.8084 -0.480743 -0.564 94 90 87
0.815214 -0.481595 -0.565 100 99 95
0.814846 -0.480743 -0.564 110 109 105
0.817367 -0.481595 -0.565 117 116 111
0.836063 -0.482448 -0.566 119 118 113
0.84186 -0.4833 -0.567 120 121 115
0.84294 -0.4833 -0.567 119 120 114
0.853082 -0.484152 -0.568 109 108 103
0.854164 -0.484152 -0.568 110 109 104
0.858491 -0.484152 -0.568 122 121 116
-0.01048 -0.447646 -0.524 188 147 115
0.0316495 -0.423726 -0.496 196 153 119
0.0325943 -0.423726 -0.496 194 151 117
0.0344838 -0.423726 -0.496 196 153 119
0.05 -0.427143 -0.5 191 148 116
0.0560486 -0.429706 -0.503 178 134 105
0.0581952 -0.431414 -0.505 173 129 100
0.0603571 -0.433123 -0.507 172 128 101
0.0739324 -0.445083 -0.521 128 97 79
0.0763543 -0.447646 -0.524 120 93 82
0.0965276 -0.463023 -0.542 122 123 141
0.0985924 -0.463023 -0.542 125 130 149
0.411783 -0.468149 -0.548 89 106 116
0.4209 -0.469003 -0.549 122 127 131
0.435286 -0.469857 -0.55 42 59 77
0.443424 -0.470711 -0.551 62 62 70
0.446467 -0.44252 -0.518 144 98 75
0.448559 -0.441666 -0.517 150 104 81
0.453087 -0.43654 -0.511 161 113 90
0.458231 -0.433123 -0.507 172 122 95
0.460163 -0.433123 -0.507 171 120 93
0.482387 -0.432269 -0.506 172 125 97
0.817735 -0.483526 -0.566 115 115 113
0.83106 -0.48438 -0.567 117 116 112
0.842263 -0.485234 -0.568 114 115 110
0.84483 -0.486089 -0.569 114 115 110
-0.01044 -0.446931 -0.522 187 146 116
0.00801429 -0.423814 -0.495 199 156 122
0.0203124 -0.42467 -0.496 196 151 118
0.0212571 -0.42467 -0.496 199 154 121
0.0307048 -0.42467 -0.496 197 154 120
0.0410971 -0.42467 -0.496 196 151 120
0.0460057 -0.426383 -0.498 192 147 116
0.0763543 -0.448644 -0.524 116 92 82
0.0934305 -0.464055 -0.542 111 101 100
0.421946 -0.470049 -0.549 116 121 127
0.436333 -0.470905 -0.55 79 93 106
0.441841 -0.452925 -0.529 138 97 75
0.444943 -0.446931 -0.522 146 101 78
0.44844 -0.443507 -0.518 145 99 76
0.459197 -0.434089 -0.507 167 118 88
0.468929 -0.432376 -0.505 175 125 98
0.4747 -0.432376 -0.505 170 123 93
0.477586 -0.432376 -0.505 168 121 91
0.482387 -0.433232 -0.506 172 125 97
0.484314 -0.433232 -0.506 170 123 95
0.485281 -0.432376 -0.505 167 120 92
0.527503 -0.450356 -0.526 159 115 90
0.540614 -0.45635 -0.533 151 123 102
0.820257 -0.488029 -0.57 49 51 50
0.824952 -0.486316 -0.568 117 118 113
0.828572 -0.487172 -0.569 125 127 124
0.833991 -0.487172 -0.569 118 117 115
0.846314 -0.488029 -0.57 110 111 106
0.853237 -0.488885 -0.571 104 104 102
0.858 -0.489741 -0.572 99 101 96
0.861269 -0.489741 -0.572 100 102 97
0.866289 -0.488885 -0.571 105 107 104
0.867376 -0.488885 -0.571 106 108 105
-0.00529048 -0.433338 -0.505 197 152 121
0.00329333 -0.423899 -0.494 198 155 123
0.00611619 -0.423899 -0.494 196 153 119
0.0193286 -0.424757 -0.495 196 151 118
0.0306429 -0.424757 -0.495 196 153 119
0.047999 -0.42819 -0.499 191 146 117
0.0499 -0.42819 -0.499 186 141 112
0.0669343 -0.440203 -0.513 155 112 95
0.0680438 -0.441061 -0.514 148 109 92
0.0752124 -0.448784 -0.523 114 91 83
0.095319 -0.46423 -0.541 84 88 99
0.3562 -0.46852 -0.546 158 162 165
0.397487 -0.469378 -0.547 106 119 127
0.402696 -0.469378 -0.547 101 114 120
0.405822 -0.469378 -0.547 108 117 124
0.409695 -0.470236 -0.548 103 112 119
0.414914 -0.470236 -0.548 111 116 122
0.438176 -0.47281 -0.551 92 101 110
0.443803 -0.448784 -0.523 140 98 76
0.444943 -0.447926 -0.522 144 99 78
0.445219 -0.44621 -0.52 143 101 79
0.44844 -0.444493 -0.518 145 100 79
0.4572 -0.435912 -0.508 165 116 86
0.459255 -0.434196 -0.506 170 121 91
0.464074 -0.434196 -0.506 174 125 95
0.473738 -0.433338 -0.505 172 125 95
0.4747 -0.433338 -0.505 170 123 93
0.475662 -0.433338 -0.505 170 123 93
0.483357 -0.433338 -0.505 170 123 95
0.487205 -0.433338 -0.505 164 117 89
0.491061 -0.434196 -0.506 165 120 89
0.521496 -0.447068 -0.521 157 113 86
0.538587 -0.456507 -0.532 161 116 87
0.823871 -0.489972 -0.571 32 32 34
0.833286 -0.489114 -0.57 115 114 109
0.857317 -0.491689 -0.573 100 101 96
0.865627 -0.49083 -0.572 126 127 122
0.866716 -0.49083 -0.572 111 112 107
0.871506 -0.491689 -0.573 99 100 95
-0.00525905 -0.43172 -0.502 195 150 117
0.00141143 -0.42484 -0.494 196 153 121
0.0155571 -0.4257 -0.495 196 151 120
0.0174429 -0.4257 -0.495 199 154 121
0.0193286 -0.4257 -0.495 198 153 120
0.0372429 -0.4257 -0.495 193 150 118
0.0429867 -0.42656 -0.496 193 148 117
0.0459133 -0.42742 -0.497 191 146 115
0.0489495 -0.42914 -0.499 188 143 114
0.0592743 -0.43516 -0.506 172 128 101
0.0739324 -0.44806 -0.521 121 89 74
0.36244 -0.46956 -0.546 130 139 146
0.3822 -0.46956 -0.546 127 133 131
0.384984 -0.47042 -0.547 126 131 137
0.400612 -0.47042 -0.547 109 118 125
0.417002 -0.47128 -0.548 106 113 121
0.439226 -0.47386 -0.551 95 103 106
0.444229 -0.47472 -0.552 98 98 100
0.443343 -0.45236 -0.526 139 97 75
0.443803 -0.44978 -0.523 142 97 76
0.448674 -0.44376 -0.516 148 103 80
0.45183 -0.44204 -0.514 149 103 79
0.454143 -0.4386 -0.51 161 111 84
0.458231 -0.43602 -0.507 167 118 88
0.488167 -0.4343 -0.505 167 120 92
0.49588 -0.43516 -0.506 161 114 84
0.508587 -0.44032 -0.512 157 112 83
0.534542 -0.45494 -0.529 157 115 91
0.829672 -0.49192 -0.572 116 116 114
0.830762 -0.49192 -0.572 117 116 114
0.839098 -0.49106 -0.571 106 107 102
0.854043 -0.49278 -0.573 114 115 110
0.880457 -0.49536 -0.576 84 85 79
-0.0113467 -0.446467 -0.518 188 147 117
-0.00721429 -0.435262 -0.505 189 150 119
0.000470476 -0.425781 -0.494 193 149 120
0.0079819 -0.424919 -0.493 197 154 120
0.0362267 -0.425781 -0.494 193 150 116
0.0420419 -0.427505 -0.496 192 149 115
0.0439314 -0.427505 -0.496 191 148 114
0.0489495 -0.43009 -0.499 186 142 113
0.0499 -0.43009 -0.499 184 140 111
0.0529629 -0.431814 -0.501 182 136 110
0.0636286 -0.439571 -0.51 161 115 99
0.0658286 -0.441295 -0.512 153 111 95
0.0680438 -0.443019 -0.514 142 105 89
0.0704105 -0.445605 -0.517 132 98 86
0.0932581 -0.46629 -0.541 110 105 109
0.339976 -0.469738 -0.545 170 175 181
0.34309 -0.469738 -0.545 173 173 171
0.34788 -0.4706 -0.546 166 167 169
0.37804 -0.4706 -0.546 131 134 141
0.386026 -0.471462 -0.547 126 131 134
0.399257 -0.472324 -0.548 116 120 129
0.402389 -0.472324 -0.548 112 116 125
0.410739 -0.472324 -0.548 107 114 120
0.422991 -0.473186 -0.549 106 113 119
0.426905 -0.474048 -0.55 103 108 112
0.433978 -0.47491 -0.551 103 107 110
0.436869 -0.475771 -0.552 102 106 109
0.438971 -0.475771 -0.552 99 103 106
0.448316 -0.472324 -0.548 105 87 77
0.443343 -0.453362 -0.526 143 101 79
0.44621 -0.44819 -0.52 144 102 80
0.449767 -0.443881 -0.515 150 104 81
0.450748 -0.443881 -0.515 150 104 81
0.4949 -0.435262 -0.505 159 112 82
0.508567 -0.440433 -0.511 159 114 81
0.51451 -0.443881 -0.515 155 112 80
0.522476 -0.44819 -0.52 153 116 90
0.54162 -0.457671 -0.531 152 116 92
0.54569 -0.459395 -0.533 120 93 74
0.829989 -0.496457 -0.576 26 27 31
0.832214 -0.493871 -0.573 118 117 115
0.833306 -0.493871 -0.573 122 121 119
0.839478 -0.49301 -0.572 103 102 98
0.840568 -0.49301 -0.572 103 104 99
0.85444 -0.494733 -0.574 102 103 98
0.861405 -0.495595 -0.575 101 100 98
-0.00235714 -0.427586 -0.495 191 150 120
0.00328667 -0.425858 -0.493 198 155 123
0.0079819 -0.425858 -0.493 199 154 123
0.00892095 -0.425858 -0.493 199 154 123
0.0136162 -0.425858 -0.493 198 153 122
0.0192895 -0.426722 -0.494 200 155 124
0.028699 -0.426722 -0.494 199 154 121
0.0391286 -0.427586 -0.495 199 154 121
0.0419571 -0.427586 -0.495 193 148 115
0.04686 -0.429313 -0.497 186 142 113
0.0636286 -0.440543 -0.51 159 113 98
0.0669343 -0.443134 -0.513 147 105 91
0.0728 -0.449181 -0.52 116 87 79
0.0901667 -0.467321 -0.541 94 84 85
0.32899 -0.469912 -0.544 185 190 194
0.3379 -0.470776 -0.545 183 184 189
0.341014 -0.470776 -0.545 177 179 176
0.342052 -0.470776 -0.545 176 178 175
0.34892 -0.47164 -0.546 172 175 180
