ply
format ascii 1.0
comment Created by Open3D
element vertex 1330
property double x
property double y
property double z
property uchar red
property uchar green
property uchar blue
end_header
0.4324 -0.358 -0.42 22 22 30
0.437622 -0.346919 -0.407 25 25 33
0.439783 -0.344362 -0.404 24 24 32
0.44721 -0.341805 -0.401 23 23 31
0.448738 -0.341805 -0.401 24 24 32
0.449143 -0.340952 -0.4 24 24 32
0.467833 -0.341805 -0.401 23 23 31
0.470531 -0.342657 -0.402 23 23 31
-0.27492 -0.445937 -0.522 226 227 221
0.00621524 -0.428851 -0.502 191 152 121
0.0146438 -0.423726 -0.496 197 153 124
0.0240914 -0.423726 -0.496 194 149 118
0.0307667 -0.42458 -0.497 199 154 123
0.0345533 -0.42458 -0.497 197 152 121
0.0726552 -0.437394 -0.512 161 119 97
0.0737743 -0.438249 -0.513 161 118 99
0.084339 -0.447646 -0.524 121 94 85
0.10348 -0.46644 -0.546 81 70 74
0.480847 -0.47242 -0.553 28 82 146
0.429546 -0.381866 -0.447 22 22 32
0.429943 -0.369051 -0.432 18 21 30
0.430766 -0.369051 -0.432 17 20 27
0.431043 -0.366489 -0.429 19 22 29
0.43515 -0.351966 -0.412 23 23 31
0.438557 -0.345986 -0.405 27 27 35
0.443731 -0.343423 -0.402 22 22 30
0.445683 -0.342569 -0.401 23 23 31
0.448381 -0.341714 -0.4 24 24 32
0.464381 -0.341714 -0.4 21 24 29
0.47595 -0.345131 -0.404 26 26 34
0.47672 -0.345131 -0.404 27 27 35
-0.265971 -0.446931 -0.522 224 227 218
-0.000492381 -0.44265 -0.517 186 144 119
0.00806286 -0.426383 -0.498 190 151 122
0.0354286 -0.42467 -0.496 202 157 126
0.0449667 -0.425527 -0.497 194 147 117
0.0737743 -0.439226 -0.513 160 117 98
0.102252 -0.466624 -0.545 89 74 79
0.451589 -0.472617 -0.552 46 90 153
0.435754 -0.392135 -0.458 25 25 35
0.431024 -0.360456 -0.421 20 23 30
0.432244 -0.356175 -0.416 22 23 28
0.43306 -0.353607 -0.413 24 24 32
0.434877 -0.351894 -0.411 24 24 32
0.44878 -0.34162 -0.399 21 21 29
0.465905 -0.342476 -0.4 20 23 28
0.000486667 -0.438487 -0.511 187 147 121
0.00711429 -0.427331 -0.498 190 149 119
0.00992 -0.425615 -0.496 195 151 122
0.0155571 -0.424757 -0.495 200 156 127
0.0278143 -0.424757 -0.495 195 150 117
0.0307048 -0.425615 -0.496 199 154 121
0.0704286 -0.437629 -0.51 166 124 102
0.446572 -0.47281 -0.551 44 81 151
0.478926 -0.473669 -0.552 35 86 149
0.479977 -0.473669 -0.552 37 88 153
0.503919 -0.459081 -0.535 62 87 127
0.42882 -0.37842 -0.441 23 23 31
0.430654 -0.362974 -0.423 20 23 30
0.430222 -0.361258 -0.421 21 24 31
0.431137 -0.358684 -0.418 23 23 31
0.432244 -0.356968 -0.416 23 24 29
0.435589 -0.350103 -0.408 23 26 33
0.439013 -0.34667 -0.404 25 25 33
0.44023 -0.345812 -0.403 26 26 34
0.459027 -0.341522 -0.398 19 22 27
0.46398 -0.34238 -0.399 20 23 28
0.46819 -0.343238 -0.4 21 22 27
0.473594 -0.344954 -0.402 23 24 29
-0.258515 -0.44806 -0.521 227 228 220
-0.00448286 -0.44978 -0.523 192 147 118
-0.000487619 -0.44032 -0.512 185 145 119
0.07154 -0.43946 -0.511 160 118 96
0.0858257 -0.45322 -0.527 105 86 80
0.45077 -0.47386 -0.551 58 98 167
0.453919 -0.47386 -0.551 141 180 213
0.428354 -0.38184 -0.444 23 23 33
0.43044 -0.36292 -0.422 21 24 31
0.430341 -0.35948 -0.418 23 23 31
0.432273 -0.35518 -0.413 23 23 31
0.434366 -0.35432 -0.412 23 23 31
0.442286 -0.344 -0.4 22 22 30
0.44574 -0.34314 -0.399 22 22 30
0.456752 -0.34228 -0.398 22 23 28
0.467429 -0.344 -0.4 21 21 29
0.478259 -0.34744 -0.404 25 26 31
0.480986 -0.3483 -0.405 26 27 32
0.00521714 -0.429229 -0.498 194 150 121
0.0467657 -0.427505 -0.496 193 148 117
0.0497 -0.428367 -0.497 194 149 118
0.0547619 -0.430952 -0.5 189 144 115
0.06192 -0.4344 -0.504 179 133 107
0.0845 -0.4525 -0.525 113 89 79
0.475959 -0.47491 -0.551 73 116 169
0.431768 -0.389581 -0.452 23 23 33
0.428471 -0.383548 -0.445 22 22 30
0.429223 -0.368895 -0.428 21 21 29
0.431137 -0.360276 -0.418 23 23 31
0.434034 -0.351657 -0.408 23 26 33
0.44346 -0.3439 -0.399 21 21 29
0.44802 -0.3439 -0.399 20 20 28
0.452204 -0.343038 -0.398 22 23 28
0.454478 -0.343038 -0.398 21 21 29
0.462059 -0.343038 -0.398 21 22 27
-0.266933 -0.449181 -0.52 224 227 220
-0.261981 -0.449181 -0.52 226 227 221
-0.00343333 -0.444862 -0.515 186 145 115
0.00237619 -0.431041 -0.499 192 151 121
0.00893905 -0.426722 -0.494 192 151 121
0.0211286 -0.425858 -0.493 194 151 117
0.045821 -0.42845 -0.496 192 149 117
0.0661514 -0.437951 -0.507 170 125 104
0.0682171 -0.438815 -0.508 165 120 99
0.0987743 -0.469049 -0.543 94 78 79
0.458333 -0.475095 -0.55 194 206 222
0.459381 -0.475095 -0.55 196 205 220
0.460429 -0.475095 -0.55 198 207 222
0.461476 -0.475095 -0.55 194 207 216
0.471761 -0.475959 -0.551 100 131 175
0.480157 -0.475959 -0.551 62 109 165
0.489603 -0.475959 -0.551 163 184 205
0.429409 -0.370574 -0.429 22 23 28
0.42925 -0.366255 -0.424 19 22 29
0.431205 -0.358481 -0.415 25 26 31
0.432529 -0.355026 -0.411 20 23 30
0.434034 -0.352434 -0.408 25 25 33
0.451446 -0.343796 -0.398 24 24 32
0.457873 -0.342932 -0.397 20 23 30
0.463575 -0.343796 -0.398 19 22 29
-0.00341333 -0.443246 -0.512 186 145 117
0.0220676 -0.426797 -0.493 196 153 119
0.0447857 -0.428529 -0.495 195 150 119
0.0497 -0.43026 -0.497 189 144 115
0.0537019 -0.431991 -0.499 184 140 111
0.0672495 -0.439783 -0.508 165 124 104
0.07154 -0.44238 -0.511 153 112 94
0.433449 -0.475277 -0.549 211 220 229
0.464619 -0.476143 -0.55 200 209 216
0.477009 -0.477009 -0.551 70 117 171
0.480157 -0.477009 -0.551 63 106 159
0.491702 -0.477009 -0.551 185 192 210
0.429653 -0.38784 -0.448 22 22 30
0.428233 -0.383511 -0.443 19 19 27
0.429092 -0.378317 -0.437 20 21 26
0.429614 -0.376586 -0.435 21 22 27
0.428442 -0.367063 -0.424 22 23 28
0.428749 -0.361869 -0.418 24 25 30
0.430954 -0.358406 -0.414 25 26 31
0.437159 -0.348883 -0.403 22 22 30
0.46778 -0.34542 -0.399 20 23 30
0.925811 -0.483934 -0.559 196 198 184
0.000475238 -0.432942 -0.499 191 150 120
0.0557143 -0.43381 -0.5 184 140 111
0.05678 -0.434677 -0.501 186 140 114
0.0694571 -0.442486 -0.51 158 117 99
0.351643 -0.474588 -0.547 124 158 203
0.357894 -0.474588 -0.547 182 198 213
0.431357 -0.476323 -0.549 209 212 219
0.432403 -0.476323 -0.549 211 214 221
0.470711 -0.478058 -0.551 119 139 164
0.477009 -0.478058 -0.551 79 125 177
0.485234 -0.478926 -0.552 102 131 163
0.503247 -0.478058 -0.551 115 123 146
0.507571 -0.47719 -0.55 49 83 129
0.428109 -0.383488 -0.442 19 20 25
0.428406 -0.380017 -0.438 20 21 26
0.428786 -0.377414 -0.435 20 21 26
0.429409 -0.372209 -0.429 18 19 24
0.428618 -0.365268 -0.421 21 25 28
0.427723 -0.361797 -0.417 23 24 29
0.43297 -0.353121 -0.407 25 26 31
0.438045 -0.347915 -0.401 21 21 29
0.438476 -0.347048 -0.4 22 22 30
0.44118 -0.34618 -0.399 17 20 25
0.455966 -0.343577 -0.396 20 23 30
0.46585 -0.345312 -0.398 21 24 31
0.47082 -0.34618 -0.399 20 23 30
0.481337 -0.350518 -0.404 27 28 33
0.818114 -0.482396 -0.556 199 201 190
0.852475 -0.483264 -0.557 194 197 180
0.9328 -0.485867 -0.56 191 193 180
-0.313267 -0.450413 -0.518 223 224 216
-0.2886 -0.450413 -0.518 224 226 215
0.00141714 -0.431284 -0.496 191 152 121
0.0126257 -0.426936 -0.491 197 154 120
0.02958 -0.428675 -0.493 198 155 121
0.0342752 -0.428675 -0.493 193 148 117
0.0399905 -0.429545 -0.494 196 151 120
0.0438429 -0.430414 -0.495 193 148 117
0.0447857 -0.430414 -0.495 192 147 118
0.06192 -0.43824 -0.504 174 130 105
0.0739181 -0.446935 -0.514 144 107 88
0.342266 -0.47563 -0.547 175 178 185
0.351242 -0.476499 -0.548 176 181 185
0.386026 -0.47563 -0.547 174 175 179
0.387068 -0.47563 -0.547 176 177 181
0.414914 -0.476499 -0.548 166 173 181
0.460637 -0.477369 -0.549 164 168 171
0.491543 -0.479977 -0.552 160 160 168
0.497851 -0.479977 -0.552 154 159 155
0.500098 -0.479108 -0.551 152 156 155
0.446276 -0.408676 -0.47 29 29 41
0.431671 -0.392155 -0.451 25 25 33
0.427711 -0.381721 -0.439 18 19 24
0.428948 -0.374765 -0.431 20 21 26
0.427833 -0.369548 -0.425 20 21 26
0.42738 -0.36433 -0.419 21 25 28
0.427156 -0.363461 -0.418 21 25 28
0.426929 -0.362591 -0.417 23 24 29
0.442349 -0.34607 -0.398 19 22 27
0.445774 -0.345201 -0.397 22 22 30
0.45144 -0.344331 -0.396 23 23 31
0.458229 -0.344331 -0.396 21 24 31
0.463923 -0.345201 -0.397 20 24 33
0.809642 -0.483455 -0.556 191 191 181
0.830823 -0.483455 -0.556 193 195 182
0.872074 -0.485194 -0.558 189 191 178
0.871572 -0.484325 -0.557 188 190 177
0.973725 -0.486064 -0.559 180 182 171
0.985437 -0.486064 -0.559 185 187 176
1.0224 -0.486933 -0.56 171 172 166
-0.290573 -0.4514 -0.518 225 226 218
-0.28564 -0.4514 -0.518 226 228 217
-0.00434571 -0.441814 -0.507 188 149 118
-0.00238571 -0.436586 -0.501 188 149 118
0.000472381 -0.432229 -0.496 190 151 120
0.0144667 -0.427 -0.49 196 156 121
0.0191724 -0.427871 -0.491 196 153 121
0.0238971 -0.428743 -0.492 197 154 122
0.0314581 -0.429614 -0.493 196 153 121
0.0466714 -0.431357 -0.495 188 144 115
0.0526457 -0.433971 -0.498 181 140 110
0.0566667 -0.435714 -0.5 181 135 109
0.0630048 -0.440071 -0.505 172 127 104
0.0705667 -0.4453 -0.511 152 111 93
0.0835 -0.4575 -0.525 99 82 75
0.100843 -0.473186 -0.543 94 84 82
0.341224 -0.476671 -0.547 210 211 215
0.351242 -0.477543 -0.548 208 212 215
0.368987 -0.477543 -0.548 210 211 213
0.378381 -0.477543 -0.548 208 212 215
0.401654 -0.476671 -0.547 207 211 214
0.402696 -0.476671 -0.547 207 211 214
0.406864 -0.476671 -0.547 206 210 213
0.408948 -0.476671 -0.547 206 210 213
0.415958 -0.477543 -0.548 205 208 213
0.420133 -0.477543 -0.548 203 206 213
0.424037 -0.478414 -0.549 204 207 212
0.434238 -0.479286 -0.55 199 200 205
0.445762 -0.479286 -0.55 190 195 201
0.468612 -0.480157 -0.551 178 182 185
0.509544 -0.480157 -0.551 155 156 160
0.511877 -0.478414 -0.549 155 155 155
0.433678 -0.395629 -0.454 25 25 33
0.42798 -0.3843 -0.441 18 21 26
0.428948 -0.375586 -0.431 20 21 26
0.42749 -0.362514 -0.416 18 21 26
0.434227 -0.3538 -0.406 22 23 28
0.435309 -0.350314 -0.402 21 22 27
0.436952 -0.348571 -0.4 21 22 27
0.444262 -0.345957 -0.397 21 24 29
0.445406 -0.345086 -0.396 23 23 31
0.451805 -0.344214 -0.395 19 22 29
0.452557 -0.344214 -0.395 19 22 29
0.824246 -0.486257 -0.558 182 183 175
0.830195 -0.485386 -0.557 184 185 177
0.833378 -0.485386 -0.557 185 186 178
0.8355 -0.485386 -0.557 184 186 175
0.836561 -0.485386 -0.557 184 186 175
0.847629 -0.486257 -0.558 186 190 176
0.859795 -0.487129 -0.559 166 168 155
0.86086 -0.487129 -0.559 170 170 158
0.869867 -0.488 -0.56 172 172 160
0.951789 -0.486257 -0.558 170 179 158
0.953914 -0.486257 -0.558 178 173 167
0.965207 -0.487129 -0.559 169 169 157
0.968401 -0.487129 -0.559 160 167 151
0.973333 -0.488 -0.56 151 162 146
0.977209 -0.488871 -0.561 160 160 152
0.987514 -0.489743 -0.562 146 145 140
1.0032 -0.488 -0.56 146 147 141
-0.01046 -0.456753 -0.523 178 154 126
-0.000472381 -0.433173 -0.496 190 151 120
0.00515429 -0.42968 -0.492 185 144 112
0.00701429 -0.428807 -0.491 190 149 117
0.0238971 -0.42968 -0.492 197 154 120
0.0515933 -0.434047 -0.497 185 144 114
0.0546524 -0.435793 -0.499 179 138 108
0.0694571 -0.4454 -0.51 153 112 94
0.0727971 -0.44802 -0.513 142 101 83
0.10169 -0.473347 -0.542 104 94 92
0.257493 -0.475093 -0.544 210 213 218
0.337056 -0.477713 -0.547 209 210 212
0.343935 -0.478587 -0.548 208 209 211
0.346023 -0.478587 -0.548 207 208 210
0.363768 -0.478587 -0.548 206 208 207
0.377337 -0.478587 -0.548 207 208 212
0.386731 -0.478587 -0.548 204 205 207
0.403432 -0.478587 -0.548 205 206 208
0.406564 -0.478587 -0.548 205 205 207
0.443667 -0.480333 -0.55 193 194 198
0.459381 -0.480333 -0.55 186 189 194
0.465464 -0.481207 -0.551 182 185 190
0.472617 -0.48208 -0.552 179 183 182
0.477687 -0.482953 -0.553 175 179 180
0.479977 -0.48208 -0.552 176 176 176
0.484882 -0.483827 -0.554 171 168 175
0.508494 -0.481207 -0.551 147 151 162
0.511877 -0.47946 -0.549 150 152 149
0.427428 -0.381647 -0.437 19 22 27
0.428771 -0.375533 -0.43 21 22 27
0.427156 -0.365053 -0.418 22 25 30
0.427252 -0.362433 -0.415 19 22 27
0.427303 -0.359813 -0.412 22 25 30
0.428088 -0.359813 -0.412 21 24 29
0.43248 -0.35632 -0.408 21 22 27
0.43619 -0.349333 -0.4 22 22 30
0.445406 -0.34584 -0.396 22 22 30
0.463509 -0.34584 -0.396 21 24 33
0.808303 -0.48732 -0.558 158 159 153
0.813617 -0.48732 -0.558 160 161 153
0.8208 -0.489067 -0.56 162 163 157
0.839126 -0.48732 -0.558 167 168 160
0.862871 -0.48994 -0.561 143 145 134
0.869283 -0.48994 -0.561 142 142 130
0.965454 -0.48994 -0.561 133 134 128
0.970133 -0.489067 -0.56 126 127 122
0.991796 -0.490813 -0.562 142 141 136
1.00571 -0.490813 -0.562 117 116 112
1.00785 -0.490813 -0.562 116 116 114
1.01072 -0.491687 -0.563 114 114 112
1.01466 -0.49256 -0.564 111 113 112
1.01681 -0.49256 -0.564 108 110 107
1.01675 -0.48994 -0.561 123 124 119
-0.01044 -0.456874 -0.522 181 154 124
-0.0053219 -0.444621 -0.508 194 148 115
0.00140857 -0.431492 -0.493 191 150 118
0.0126 -0.428867 -0.49 194 153 121
0.0247838 -0.429742 -0.491 195 152 118
0.100657 -0.474379 -0.542 99 89 88
0.230129 -0.475254 -0.543 214 214 216
0.238842 -0.47613 -0.544 215 216 220
0.239878 -0.47613 -0.544 215 216 220
0.245643 -0.475254 -0.543 209 213 212
0.247711 -0.475254 -0.543 210 214 213
0.249204 -0.47613 -0.544 212 213 215
0.255421 -0.47613 -0.544 214 211 218
0.29949 -0.477005 -0.545 211 212 214
0.302605 -0.477005 -0.545 208 212 215
0.307795 -0.477005 -0.545 211 212 214
0.32292 -0.47788 -0.546 209 211 210
0.327679 -0.478755 -0.547 210 210 212
0.331847 -0.478755 -0.547 209 209 211
0.359857 -0.481381 -0.55 207 208 210
0.360905 -0.481381 -0.55 208 210 209
0.375934 -0.480506 -0.549 206 208 207
0.388483 -0.480506 -0.549 207 208 210
0.394038 -0.47963 -0.548 205 207 206
0.408651 -0.47963 -0.548 205 205 207
0.426129 -0.480506 -0.549 202 202 202
0.429266 -0.480506 -0.549 198 198 200
0.438429 -0.481381 -0.55 195 197 196
0.442619 -0.481381 -0.55 190 191 193
0.44681 -0.481381 -0.55 188 189 193
0.448905 -0.481381 -0.55 188 189 191
0.458333 -0.481381 -0.55 183 184 188
0.462524 -0.481381 -0.55 180 181 185
0.471367 -0.484007 -0.553 180 182 181
0.487691 -0.486632 -0.556 157 155 160
0.428088 -0.360598 -0.412 21 24 29
0.432195 -0.356222 -0.407 19 20 25
0.43499 -0.35097 -0.401 20 20 28
0.452912 -0.344844 -0.394 18 21 28
0.454413 -0.344844 -0.394 20 23 30
0.478527 -0.35097 -0.401 26 26 34
0.80117 -0.486632 -0.556 157 158 152
0.8304 -0.490133 -0.56 135 136 130
0.850667 -0.490133 -0.56 142 143 135
0.8977 -0.501511 -0.573 107 109 98
0.976283 -0.501511 -0.573 113 116 109
0.987405 -0.49451 -0.565 105 105 103
0.993862 -0.49451 -0.565 111 112 107
1.0233 -0.49626 -0.567 105 107 104
0.021 -0.4298 -0.49 199 156 122
0.0266543 -0.430677 -0.491 192 149 117
0.02952 -0.431554 -0.492 195 152 120
0.0313943 -0.431554 -0.492 194 151 119
0.0486552 -0.435063 -0.496 189 145 116
0.0673819 -0.446466 -0.509 155 112 93
0.0811895 -0.458746 -0.523 103 83 76
0.114898 -0.474534 -0.541 177 179 178
0.216284 -0.475411 -0.542 213 215 212
0.227026 -0.476289 -0.543 215 215 213
0.230129 -0.476289 -0.543 215 215 217
0.231163 -0.476289 -0.543 215 215 217
0.234266 -0.476289 -0.543 215 215 215
0.25024 -0.477166 -0.544 213 214 218
0.27769 -0.478043 -0.545 208 210 209
0.287033 -0.478043 -0.545 211 211 213
0.291186 -0.478043 -0.545 213 212 210
0.29276 -0.47892 -0.546 213 212 210
0.29484 -0.47892 -0.546 212 212 210
0.29588 -0.47892 -0.546 211 211 209
0.30108 -0.47892 -0.546 211 212 214
0.333497 -0.480674 -0.548 207 205 206
0.354619 -0.482429 -0.55 201 201 203
0.355667 -0.482429 -0.55 201 201 203
0.378714 -0.482429 -0.55 196 196 198
0.404169 -0.481551 -0.549 193 194 198
0.457286 -0.482429 -0.55 171 172 176
0.460429 -0.482429 -0.55 167 168 170
0.463365 -0.483306 -0.551 166 166 166
0.503263 -0.489446 -0.558 135 131 132
0.507359 -0.490323 -0.559 133 131 134
0.512571 -0.484183 -0.552 119 120 125
0.428233 -0.388574 -0.443 23 24 29
0.427306 -0.378049 -0.431 21 24 29
0.427024 -0.372786 -0.425 21 24 29
0.426134 -0.365769 -0.417 21 24 31
0.429133 -0.359629 -0.41 21 22 27
0.431703 -0.357874 -0.408 19 20 25
0.432195 -0.356997 -0.407 19 20 25
0.433777 -0.352611 -0.402 21 22 27
0.43499 -0.351734 -0.401 20 21 26
0.43662 -0.34998 -0.399 20 21 26
0.439725 -0.348226 -0.397 18 21 26
0.443529 -0.346471 -0.395 23 23 31
0.443907 -0.345594 -0.394 22 22 30
0.476571 -0.350857 -0.4 28 28 38
0.822661 -0.492954 -0.562 117 118 113
0.864263 -0.494709 -0.564 114 115 107
0.875481 -0.495586 -0.565 120 121 113
0.898173 -0.50348 -0.574 109 110 102
0.9766 -0.499971 -0.57 111 112 106
0.998057 -0.498217 -0.568 107 107 107
1.00198 -0.499094 -0.569 106 108 107
1.00307 -0.499094 -0.569 106 108 107
-0.00828952 -0.450072 -0.512 189 146 114
-0.00525905 -0.441282 -0.502 190 150 124
-0.00427714 -0.438645 -0.499 191 151 125
0.0163 -0.429854 -0.489 195 152 118
0.0172314 -0.429854 -0.489 197 154 120
0.0303952 -0.431612 -0.491 193 150 116
0.0485571 -0.435129 -0.495 191 146 117
0.0640933 -0.444798 -0.506 159 117 95
0.106457 -0.474686 -0.54 153 152 148
0.107486 -0.474686 -0.54 158 157 153
0.124172 -0.475565 -0.541 192 201 196
0.1332 -0.474686 -0.54 202 207 203
0.141429 -0.474686 -0.54 209 210 205
0.142457 -0.474686 -0.54 209 209 207
0.146571 -0.474686 -0.54 213 214 208
0.179818 -0.475565 -0.541 219 220 212
0.214614 -0.477323 -0.543 217 217 217
0.215649 -0.477323 -0.543 216 216 216
0.222263 -0.478202 -0.544 216 214 219
0.225371 -0.478202 -0.544 218 217 215
0.238243 -0.479081 -0.545 216 217 212
0.249662 -0.479081 -0.545 209 216 209
0.266271 -0.479081 -0.545 210 210 208
0.2725 -0.479081 -0.545 209 209 209
0.28548 -0.47996 -0.546 203 203 205
0.296422 -0.480839 -0.547 204 203 199
0.303715 -0.480839 -0.547 201 199 200
0.304757 -0.480839 -0.547 200 198 199
0.306841 -0.480839 -0.547 198 198 198
0.308925 -0.480839 -0.547 199 199 199
0.325147 -0.481718 -0.548 192 192 194
0.351066 -0.484355 -0.551 190 190 192
0.361166 -0.485234 -0.552 189 189 191
0.373106 -0.484355 -0.551 187 187 189
0.377304 -0.484355 -0.551 185 185 187
0.3857 -0.484355 -0.551 186 185 190
0.38675 -0.484355 -0.551 186 185 190
0.388849 -0.484355 -0.551 186 185 190
0.396524 -0.483476 -0.55 184 182 185
0.411489 -0.482597 -0.549 177 176 181
0.422991 -0.482597 -0.549 175 175 177
0.425857 -0.483476 -0.55 175 175 177
0.437381 -0.483476 -0.55 167 167 169
0.516017 -0.490509 -0.558 104 100 101
0.501163 -0.466774 -0.531 82 84 83
0.436627 -0.402604 -0.458 24 24 32
0.428233 -0.389418 -0.443 21 22 27
0.42728 -0.383265 -0.436 23 24 29
0.42598 -0.363047 -0.413 20 23 28
0.428352 -0.36041 -0.41 22 23 28
0.434543 -0.353377 -0.402 21 22 27
0.441655 -0.346345 -0.394 22 23 28
0.471485 -0.348982 -0.397 26 27 32
0.47343 -0.349861 -0.398 27 28 33
0.47538 -0.35074 -0.399 28 29 34
0.813401 -0.494904 -0.563 98 98 96
0.821291 -0.495783 -0.564 96 96 94
0.85352 -0.495783 -0.564 116 117 109
0.861937 -0.497541 -0.566 122 123 115
0.987197 -0.503694 -0.573 116 112 100
-0.00825714 -0.449286 -0.51 189 146 114
0.0238 -0.431667 -0.49 192 149 117
0.0446048 -0.43431 -0.493 190 146 117
0.106654 -0.476595 -0.541 163 160 155
0.116143 -0.477476 -0.542 184 183 181
0.121305 -0.477476 -0.542 196 194 195
0.12337 -0.477476 -0.542 197 197 199
0.130355 -0.476595 -0.541 199 202 195
0.132416 -0.476595 -0.541 200 208 195
0.135257 -0.475714 -0.54 203 206 199
0.147873 -0.476595 -0.541 215 215 213
0.156117 -0.476595 -0.541 216 214 217
0.168483 -0.476595 -0.541 215 215 213
0.173956 -0.477476 -0.542 216 212 213
0.178788 -0.476595 -0.541 220 215 221
0.185312 -0.477476 -0.542 217 216 214
0.199766 -0.477476 -0.542 216 216 216
0.200798 -0.477476 -0.542 215 215 215
0.2289 -0.480119 -0.545 211 209 210
0.232625 -0.479238 -0.544 209 207 210
0.238243 -0.480119 -0.545 206 204 205
0.25324 -0.481 -0.546 204 202 205
0.27092 -0.481 -0.546 199 197 198
0.27508 -0.481 -0.546 194 194 196
0.282877 -0.481881 -0.547 192 195 202
0.294876 -0.482762 -0.548 190 190 192
0.302183 -0.482762 -0.548 193 189 190
0.305314 -0.482762 -0.548 191 187 188
0.30949 -0.482762 -0.548 188 188 190
0.313191 -0.483643 -0.549 190 190 192
0.317952 -0.484524 -0.55 186 186 188
0.321095 -0.484524 -0.55 185 185 187
0.333224 -0.485405 -0.551 181 180 185
0.337422 -0.485405 -0.551 182 180 183
0.345394 -0.486286 -0.552 180 178 183
0.354447 -0.487167 -0.553 176 176 178
0.396195 -0.485405 -0.551 162 160 165
0.43319 -0.484524 -0.55 145 144 149
0.439476 -0.484524 -0.55 139 138 144
0.428471 -0.392024 -0.445 19 19 27
0.428109 -0.389381 -0.442 22 23 28
0.425905 -0.366476 -0.416 21 25 28
0.427049 -0.362071 -0.411 19 23 26
0.43036 -0.357667 -0.406 20 21 25
0.431318 -0.355905 -0.404 20 21 25
0.431018 -0.355024 -0.403 19 20 22
0.431786 -0.355024 -0.403 19 20 22
0.438617 -0.348857 -0.396 19 20 24
0.82782 -0.4995 -0.567 111 112 107
0.827438 -0.498619 -0.566 114 115 110
0.848576 -0.497738 -0.565 117 118 112
0.857625 -0.498619 -0.566 114 115 109
0.870392 -0.500381 -0.568 113 116 109
-0.0113029 -0.455554 -0.516 187 148 117
0.00974 -0.429951 -0.487 198 155 121
0.02282 -0.431717 -0.489 195 152 120
0.035 -0.4326 -0.49 199 154 123
0.0407657 -0.434366 -0.492 184 143 113
0.0455438 -0.435249 -0.493 187 143 114
0.0535943 -0.439663 -0.498 176 132 107
0.0556029 -0.440546 -0.499 178 134 109
0.0577343 -0.442311 -0.501 175 131 106
0.0751886 -0.455554 -0.516 120 91 77
0.0956714 -0.479391 -0.543 94 75 71
0.130355 -0.477626 -0.541 204 204 202
0.157148 -0.477626 -0.541 212 211 209
0.169827 -0.478509 -0.542 213 208 212
0.173956 -0.478509 -0.542 213 208 214
0.192894 -0.479391 -0.543 208 206 207
0.208409 -0.479391 -0.543 206 204 205
0.253704 -0.482923 -0.547 198 196 199
0.2735 -0.482923 -0.547 187 186 191
0.295952 -0.485571 -0.55 178 176 181
0.308524 -0.485571 -0.55 171 170 175
0.309571 -0.485571 -0.55 169 168 174
0.349386 -0.489986 -0.555 151 150 155
0.361665 -0.490869 -0.556 143 142 147
0.375432 -0.490869 -0.556 142 137 143
0.385329 -0.489986 -0.555 132 130 135
0.39974 -0.48822 -0.553 124 123 129
0.407429 -0.487337 -0.552 117 116 121
0.412988 -0.486454 -0.551 117 116 121
0.417186 -0.486454 -0.551 117 118 122
0.442374 -0.486454 -0.551 101 102 107
0.519586 -0.489986 -0.555 52 53 58
0.425211 -0.374331 -0.424 23 24 29
0.425671 -0.366386 -0.415 20 24 27
0.42598 -0.36462 -0.413 17 20 25
0.42679 -0.361971 -0.41 19 22 27
0.432246 -0.354909 -0.402 20 21 26
0.441283 -0.346963 -0.393 19 22 29
0.447974 -0.345197 -0.391 20 21 26
0.449464 -0.345197 -0.391 21 22 27
0.450209 -0.345197 -0.391 21 21 29
0.462669 -0.347846 -0.394 25 28 35
0.828198 -0.501463 -0.568 94 94 92
0.831444 -0.501463 -0.568 115 116 111
0.84402 -0.50058 -0.567 111 110 106
0.85374 -0.50058 -0.567 115 116 111
0.871286 -0.503229 -0.57 118 121 114
0.874543 -0.503229 -0.57 117 120 113
0.875629 -0.503229 -0.57 114 117 110
0.880428 -0.504111 -0.571 115 118 111
-0.01332 -0.458307 -0.518 183 149 122
-0.0122857 -0.456537 -0.516 178 144 117
-0.0023381 -0.434418 -0.491 188 149 118
-0.000466667 -0.433533 -0.49 187 148 115
0.02282 -0.432649 -0.489 194 151 119
0.0588057 -0.44415 -0.502 171 125 102
0.0695933 -0.452113 -0.511 141 105 89
0.0932581 -0.478656 -0.541 91 73 69
0.109949 -0.479541 -0.542 168 164 163
0.132416 -0.478656 -0.541 204 203 201
0.137823 -0.479541 -0.542 205 204 202
0.146082 -0.479541 -0.542 209 208 206
0.183586 -0.480426 -0.543 197 192 198
0.189105 -0.481311 -0.544 193 191 196
0.190141 -0.481311 -0.544 193 191 196
0.195322 -0.481311 -0.544 208 206 207
0.24373 -0.48485 -0.548 184 182 187
0.258814 -0.485734 -0.549 175 173 178
0.265089 -0.485734 -0.549 170 168 173
0.289667 -0.486619 -0.55 154 152 157
0.294926 -0.488389 -0.552 151 150 156
0.301738 -0.487504 -0.551 147 146 152
0.3128 -0.488389 -0.552 139 138 144
0.31921 -0.490158 -0.554 138 137 143
0.326596 -0.490158 -0.554 130 129 134
0.332928 -0.490158 -0.554 126 125 131
0.3534 -0.493697 -0.558 115 113 116
0.382782 -0.494582 -0.559 99 100 104
0.383847 -0.494582 -0.559 99 100 105
0.394494 -0.494582 -0.559 94 91 98
0.405086 -0.491928 -0.556 87 86 91
0.41238 -0.489273 -0.553 82 83 87
0.421384 -0.487504 -0.551 79 78 83
0.423483 -0.487504 -0.551 78 77 82
0.424532 -0.487504 -0.551 78 77 82
0.429509 -0.488389 -0.552 76 75 81
0.434766 -0.488389 -0.552 76 75 81
0.443177 -0.488389 -0.552 71 72 77
0.458949 -0.488389 -0.552 66 65 73
0.426651 -0.382217 -0.432 23 24 28
0.42614 -0.379563 -0.429 23 24 28
0.424813 -0.37337 -0.422 22 23 28
0.424768 -0.36983 -0.418 21 22 27
0.42679 -0.362752 -0.41 19 22 27
0.427571 -0.362752 -0.41 19 22 27
0.456167 -0.345942 -0.391 24 27 34
0.45808 -0.346827 -0.392 25 28 35
0.468357 -0.349481 -0.395 27 30 37
0.855668 -0.50343 -0.569 118 117 115
0.872814 -0.505199 -0.571 115 120 114
-0.000465714 -0.43358 -0.489 187 148 115
0.00324667 -0.431807 -0.487 194 153 121
0.0190552 -0.432693 -0.488 194 151 117
0.0218438 -0.432693 -0.488 193 150 118
0.048459 -0.438013 -0.494 188 144 117
0.0640933 -0.448653 -0.506 158 113 94
0.10498 -0.48146 -0.543 121 119 122
0.13679 -0.480573 -0.542 197 195 198
0.144549 -0.482347 -0.544 195 193 196
0.14842 -0.48146 -0.543 192 190 191
0.155947 -0.482347 -0.544 191 189 192
0.156983 -0.482347 -0.544 191 189 192
0.159797 -0.48146 -0.543 189 187 190
0.172843 -0.483233 -0.545 180 177 186
0.178033 -0.483233 -0.545 178 172 182
0.181148 -0.483233 -0.545 176 171 178
0.225351 -0.48678 -0.549 170 168 173
0.239991 -0.48678 -0.549 158 156 161
0.247762 -0.487667 -0.55 151 150 155
0.249857 -0.487667 -0.55 149 147 152
0.254048 -0.487667 -0.55 148 146 151
0.265005 -0.488553 -0.551 137 136 141
0.270252 -0.488553 -0.551 133 131 136
0.2755 -0.488553 -0.551 128 126 131
0.277599 -0.488553 -0.551 127 126 131
0.281257 -0.48944 -0.552 122 121 126
0.288087 -0.490327 -0.553 117 114 121
0.290193 -0.490327 -0.553 116 113 120
0.299181 -0.492987 -0.556 109 108 114
0.330609 -0.495647 -0.559 92 91 97
0.346133 -0.496533 -0.56 84 83 88
0.36729 -0.499193 -0.563 78 77 83
0.388738 -0.499193 -0.563 73 72 78
0.399823 -0.498307 -0.562 69 68 76
0.408336 -0.495647 -0.559 64 65 70
0.409731 -0.49476 -0.558 66 65 71
0.411857 -0.49476 -0.558 65 64 70
0.414929 -0.4921 -0.555 64 63 69
0.420807 -0.490327 -0.553 60 61 66
0.438713 -0.490327 -0.553 58 59 64
0.45346 -0.490327 -0.553 55 54 62
0.485234 -0.503627 -0.568 50 49 57
0.525203 -0.49742 -0.561 45 44 50
0.517 -0.487667 -0.55 42 41 47
0.438533 -0.407867 -0.46 27 27 35
0.427267 -0.391907 -0.442 22 23 28
0.425962 -0.379493 -0.428 23 24 29
0.425594 -0.37772 -0.426 23 24 29
0.425211 -0.375947 -0.424 22 23 28
0.424609 -0.373287 -0.421 21 21 29
0.42432 -0.368853 -0.416 20 23 28
0.444995 -0.346687 -0.391 18 21 26
0.449057 -0.3458 -0.39 21 24 31
0.450543 -0.3458 -0.39 23 26 33
0.455422 -0.346687 -0.391 26 29 36
0.456167 -0.346687 -0.391 26 29 36
0.456911 -0.346687 -0.391 25 28 35
0.46567 -0.349347 -0.394 26 29 36
0.484637 -0.355553 -0.401 34 34 42
0.83658 -0.50806 -0.573 29 30 24
0.841971 -0.5054 -0.57 122 123 118
0.848486 -0.5054 -0.57 128 129 123
-0.0121667 -0.45406 -0.511 182 143 114
-0.00516476 -0.438066 -0.493 188 152 120
0.0115714 -0.431846 -0.486 197 154 119
0.0134229 -0.431846 -0.486 198 155 120
0.035 -0.4354 -0.49 192 151 121
0.0359333 -0.4354 -0.49 191 150 120
0.0495 -0.439843 -0.495 180 136 111
0.0504429 -0.439843 -0.495 178 133 110
0.0556029 -0.443397 -0.499 172 126 103
0.0662819 -0.451394 -0.508 150 107 90
0.104329 -0.484271 -0.545 92 90 95
0.11284 -0.48516 -0.546 133 133 135
0.124861 -0.483383 -0.544 174 170 171
0.144814 -0.484271 -0.545 167 166 171
0.150005 -0.484271 -0.545 166 164 167
0.174519 -0.486049 -0.547 144 141 148
0.175561 -0.486049 -0.547 143 140 149
0.213459 -0.486937 -0.548 146 143 150
0.238149 -0.490491 -0.552 118 117 123
0.242354 -0.490491 -0.552 115 114 120
0.264337 -0.492269 -0.554 96 95 101
0.2775 -0.493157 -0.555 90 89 95
0.303467 -0.4976 -0.56 83 82 90
0.316326 -0.499377 -0.562 81 80 88
0.316831 -0.498489 -0.561 81 80 88
0.3277 -0.502043 -0.565 75 74 80
0.330929 -0.502043 -0.565 74 73 79
0.359283 -0.505597 -0.569 71 70 76
0.372943 -0.506486 -0.57 68 67 75
0.407338 -0.502043 -0.565 61 61 69
0.411258 -0.500266 -0.563 62 62 70
0.426844 -0.492269 -0.554 59 58 66
0.428954 -0.492269 -0.554 57 56 64
0.45639 -0.492269 -0.554 51 49 60
0.47752 -0.501154 -0.564 49 48 56
0.480291 -0.502931 -0.566 49 48 56
0.425594 -0.378531 -0.426 23 24 29
0.425405 -0.377643 -0.425 23 24 29
0.424188 -0.372311 -0.419 20 21 26
0.42432 -0.369646 -0.416 19 22 27
0.427267 -0.36076 -0.406 18 21 26
0.429949 -0.357206 -0.402 17 20 27
0.43206 -0.35454 -0.399 18 21 26
0.4345 -0.350986 -0.395 19 22 29
0.446086 -0.346543 -0.39 19 24 28
0.454257 -0.346543 -0.39 26 29 36
0.457656 -0.347431 -0.391 24 27 34
0.839133 -0.51004 -0.574 30 36 34
0.889234 -0.511817 -0.576 102 105 98
0.897174 -0.514483 -0.579 105 106 100
0.903593 -0.51626 -0.581 102 105 94
-0.00901143 -0.443457 -0.498 186 146 111
-0.00803048 -0.441676 -0.496 188 148 113
-0.00326 -0.435443 -0.489 187 146 114
0.00231429 -0.432771 -0.486 193 153 118
0.00509143 -0.432771 -0.486 196 156 121
0.0180886 -0.433662 -0.487 196 153 119
0.0199438 -0.433662 -0.487 194 151 117
0.0339971 -0.435443 -0.489 194 153 121
0.0387333 -0.436333 -0.49 185 141 112
0.0425533 -0.437224 -0.491 186 142 115
0.0445143 -0.438114 -0.492 184 140 115
0.0474219 -0.439005 -0.493 183 139 114
0.0494 -0.439895 -0.494 178 134 109
0.0586886 -0.446129 -0.501 166 121 98
0.0597619 -0.447019 -0.502 164 119 96
0.07182 -0.456814 -0.513 126 94 79
0.0742057 -0.459486 -0.516 117 90 81
0.0777524 -0.463048 -0.52 105 80 73
0.10556 -0.4862 -0.546 81 78 85
0.12017 -0.490652 -0.551 106 104 107
0.126129 -0.48531 -0.545 144 139 143
0.126933 -0.484419 -0.544 144 139 143
0.138586 -0.48531 -0.545 136 136 138
0.14196 -0.4862 -0.546 135 135 137
0.166791 -0.488871 -0.549 110 110 112
0.173066 -0.488871 -0.549 107 104 111
0.199246 -0.491543 -0.552 97 94 103
0.224887 -0.492433 -0.553 99 96 103
0.2479 -0.494214 -0.555 88 87 93
0.264708 -0.495995 -0.557 84 83 91
0.276874 -0.496886 -0.558 81 80 86
0.282694 -0.497776 -0.559 79 78 84
0.285889 -0.497776 -0.559 78 79 84
0.290148 -0.497776 -0.559 79 78 84
0.291733 -0.498667 -0.56 80 79 85
0.29973 -0.501338 -0.563 77 76 84
0.346407 -0.508462 -0.571 70 69 77
0.356973 -0.511133 -0.574 67 66 72
0.360253 -0.511133 -0.574 68 67 73
0.363071 -0.512024 -0.575 68 67 75
0.455434 -0.496886 -0.558 52 52 62
0.45674 -0.495995 -0.557 51 51 61
0.458862 -0.495995 -0.557 50 50 60
0.430507 -0.398933 -0.448 22 22 30
0.429319 -0.396262 -0.445 22 22 30
0.426875 -0.390919 -0.439 24 25 30
0.42614 -0.382014 -0.429 23 24 29
0.425211 -0.377562 -0.424 22 23 28
0.42804 -0.361533 -0.406 17 20 27
0.429483 -0.358862 -0.403 18 21 28
0.432163 -0.353519 -0.397 18 21 26
0.436791 -0.349957 -0.393 17 22 28
0.43792 -0.349067 -0.392 15 20 26
0.439037 -0.348176 -0.391 17 22 28
0.443857 -0.347286 -0.39 19 24 28
0.448647 -0.346395 -0.389 21 26 32
0.46256 -0.349067 -0.392 25 28 35
0.47829 -0.353519 -0.397 28 31 38
0.843507 -0.511133 -0.574 116 116 114
0.845311 -0.510243 -0.573 123 123 121
0.849284 -0.509352 -0.572 99 100 95
0.858409 -0.510243 -0.573 102 103 98
0.8595 -0.510243 -0.573 103 104 99
-0.0151457 -0.457791 -0.513 184 144 118
-0.00701429 -0.438159 -0.491 190 149 119
0.021799 -0.43459 -0.487 194 151 117
0.0396667 -0.437267 -0.49 185 141 112
0.0630048 -0.450652 -0.505 158 112 96
0.105947 -0.489025 -0.548 64 61 68
0.115131 -0.492594 -0.552 89 87 92
0.139094 -0.488132 -0.547 100 100 102
0.158714 -0.49081 -0.55 92 91 97
0.165 -0.49081 -0.55 94 93 99
0.192233 -0.493487 -0.553 89 86 95
0.198912 -0.494379 -0.554 88 87 95
0.214353 -0.493487 -0.553 91 90 98
0.227166 -0.496164 -0.556 89 88 94
0.229284 -0.496164 -0.556 90 89 95
0.255617 -0.497949 -0.558 84 83 89
0.260334 -0.498841 -0.559 82 81 87
0.379228 -0.520258 -0.583 64 63 71
0.426737 -0.497949 -0.558 51 51 61
0.441887 -0.497056 -0.557 50 50 58
0.456 -0.499733 -0.56 49 49 59
0.428233 -0.395325 -0.443 23 23 31
0.4263 -0.388186 -0.435 23 24 29
0.425829 -0.385509 -0.432 22 23 28
0.42401 -0.376585 -0.422 22 22 30
0.423751 -0.372123 -0.417 20 21 26
0.424546 -0.372123 -0.417 20 21 26
0.424407 -0.368553 -0.413 18 21 28
0.431407 -0.354275 -0.397 19 22 29
0.444201 -0.347136 -0.389 21 24 31
0.45989 -0.348921 -0.391 26 29 36
0.859907 -0.512227 -0.574 101 102 97
0.87168 -0.514011 -0.576 81 83 78
0.889679 -0.514904 -0.577 77 80 73
-0.0099 -0.442671 -0.495 175 138 112
0.0162 -0.434623 -0.486 196 153 119
0.0171257 -0.434623 -0.486 194 151 117
0.0283505 -0.436411 -0.488 191 148 116
0.0454514 -0.439989 -0.492 182 138 111
0.0494 -0.441777 -0.494 178 134 109
0.07548 -0.46324 -0.518 113 85 74
0.0968838 -0.486491 -0.544 69 61 59
0.0981 -0.487386 -0.545 50 46 47
0.111977 -0.493646 -0.552 79 68 74
0.163034 -0.495434 -0.554 90 89 97
0.187981 -0.497223 -0.556 87 84 93
0.192217 -0.497223 -0.556 88 87 95
0.223731 -0.499011 -0.558 86 85 93
0.246933 -0.5008 -0.56 82 81 89
0.264342 -0.503483 -0.563 79 78 86
0.26696 -0.504377 -0.564 79 78 86
0.295338 -0.508849 -0.569 76 75 81
0.307773 -0.51332 -0.574 73 72 80
0.42714 -0.50706 -0.567 36 36 44
0.428726 -0.502589 -0.562 33 33 41
0.46191 -0.502589 -0.562 27 27 37
0.425829 -0.386331 -0.432 22 23 28
0.425495 -0.384543 -0.43 23 24 29
0.425147 -0.382754 -0.428 23 23 31
0.424967 -0.38186 -0.427 24 24 32
0.423751 -0.372917 -0.417 20 20 28
0.426493 -0.36308 -0.406 19 22 31
0.430219 -0.355926 -0.398 17 20 27
0.432163 -0.355031 -0.397 21 24 31
0.4334 -0.352349 -0.394 18 21 28
0.433797 -0.351454 -0.393 18 23 29
0.434933 -0.35056 -0.392 18 21 28
0.43568 -0.35056 -0.392 19 22 29
0.446424 -0.347877 -0.389 22 27 33
0.468231 -0.351454 -0.393 25 26 31
0.472425 -0.352349 -0.394 23 26 31
0.479803 -0.355031 -0.397 29 30 34
0.845717 -0.516003 -0.577 89 91 88
0.844976 -0.514214 -0.575 112 114 111
0.853347 -0.51332 -0.574 101 103 98
0.86469 -0.514214 -0.575 103 105 100
-0.011881 -0.447199 -0.499 177 141 117
0.00138286 -0.433756 -0.484 194 151 119
0.0162 -0.435549 -0.486 196 153 119
0.0245819 -0.436445 -0.487 193 150 116
0.0302095 -0.437341 -0.488 194 151 119
0.0330657 -0.438237 -0.489 197 154 122
0.0445143 -0.440926 -0.492 180 136 109
0.06192 -0.45168 -0.504 158 112 96
0.0651857 -0.454369 -0.507 148 109 94
0.100728 -0.491112 -0.548 49 44 48
0.11532 -0.500074 -0.558 83 76 83
0.1168 -0.501867 -0.56 86 79 86
0.162086 -0.500074 -0.558 89 88 96
0.171651 -0.500074 -0.558 89 88 94
0.183671 -0.50097 -0.559 90 87 94
0.185067 -0.501867 -0.56 88 85 92
0.1872 -0.501867 -0.56 88 85 92
0.191467 -0.501867 -0.56 85 84 90
0.199289 -0.502763 -0.561 84 83 89
0.208851 -0.500074 -0.558 85 84 92
0.246986 -0.506348 -0.565 78 78 88
0.252367 -0.506348 -0.565 77 77 87
0.290866 -0.513517 -0.573 68 68 76
0.295747 -0.514413 -0.574 66 65 73
0.31099 -0.51979 -0.58 61 61 69
0.31374 -0.520687 -0.581 58 58 66
0.431241 -0.511725 -0.571 17 17 27
0.451024 -0.42569 -0.475 23 23 31
0.42701 -0.394324 -0.44 22 22 30
0.4263 -0.389843 -0.435 23 23 31
0.426147 -0.388947 -0.434 22 22 30
0.4236 -0.3764 -0.42 20 20 28
0.4233 -0.371919 -0.415 19 22 29
0.42362 -0.370127 -0.413 19 22 29
0.42497 -0.366542 -0.409 20 23 30
0.429894 -0.355788 -0.397 17 20 27
0.434187 -0.351307 -0.392 19 22 29
0.441237 -0.348618 -0.389 20 25 31
0.44346 -0.348618 -0.389 20 25 31
0.459457 -0.349514 -0.39 26 26 34
0.847167 -0.51531 -0.575 119 121 118
0.848973 -0.514413 -0.574 102 104 99
0.879788 -0.517102 -0.577 98 103 97
0.881986 -0.517102 -0.577 116 121 114
0.887481 -0.517102 -0.577 100 103 96
-0.00886667 -0.440067 -0.49 188 147 117
0.0170905 -0.435576 -0.485 194 151 117
0.0217543 -0.436474 -0.486 197 154 120
0.031139 -0.43827 -0.488 192 151 119
0.0444238 -0.440965 -0.491 179 135 110
0.072939 -0.461621 -0.514 122 90 77
0.0776029 -0.466111 -0.519 102 78 76
0.100728 -0.492156 -0.548 47 42 48
0.108162 -0.497545 -0.554 57 54 61
0.109217 -0.497545 -0.554 59 56 63
0.118709 -0.506526 -0.564 80 77 88
0.12452 -0.508322 -0.566 76 73 84
0.141891 -0.501137 -0.558 89 88 96
0.153613 -0.50473 -0.562 95 94 102
0.158966 -0.50473 -0.562 93 93 101
0.160036 -0.50473 -0.562 92 92 100
0.177164 -0.50473 -0.562 89 87 98
0.183913 -0.505628 -0.563 83 81 92
0.188537 -0.506526 -0.564 79 79 89
0.19928 -0.506526 -0.564 74 74 84
0.21823 -0.505628 -0.563 79 79 87
0.224386 -0.507424 -0.565 77 76 84
0.23274 -0.50922 -0.567 71 71 81
0.261572 -0.512812 -0.571 54 54 64
0.269037 -0.514609 -0.573 47 47 57
0.272311 -0.514609 -0.573 44 44 54
0.27388 -0.515507 -0.574 43 43 53
0.274973 -0.515507 -0.574 43 43 53
0.287401 -0.518201 -0.577 37 37 47
0.295606 -0.519099 -0.578 26 26 36
0.426737 -0.393366 -0.438 22 23 28
0.42401 -0.378996 -0.422 22 22 30
0.423528 -0.373608 -0.416 18 21 26
0.423069 -0.371811 -0.414 18 21 28
0.426412 -0.361932 -0.403 20 20 28
0.429461 -0.357442 -0.398 19 19 27
0.429894 -0.356544 -0.397 18 21 28
0.439755 -0.349359 -0.389 22 25 32
0.445276 -0.348461 -0.388 20 25 31
0.44971 -0.348461 -0.388 21 24 31
0.452667 -0.348461 -0.388 25 25 33
0.853347 -0.515507 -0.574 97 99 96
0.86031 -0.516405 -0.575 30 31 25
0.866194 -0.517303 -0.576 100 102 97
0.887481 -0.518201 -0.577 98 101 94
-0.0168333 -0.4545 -0.505 180 144 118
0.00874 -0.4347 -0.483 191 150 118
0.01058 -0.4347 -0.483 191 150 118
0.02268 -0.4374 -0.486 197 154 120
0.02922 -0.4383 -0.487 193 152 120
0.0405171 -0.4401 -0.489 185 139 113
0.0918867 -0.4851 -0.539 84 65 67
0.11955 -0.5112 -0.568 56 54 67
0.1269 -0.5103 -0.567 47 46 60
0.143163 -0.5067 -0.563 78 78 88
0.145824 -0.5085 -0.565 77 77 87
0.18414 -0.5103 -0.567 44 44 56
0.224495 -0.5112 -0.568 48 51 60
0.259667 -0.5166 -0.574 23 25 37
0.261853 -0.5166 -0.574 23 26 35
0.267154 -0.5184 -0.576 22 24 36
0.27799 -0.5202 -0.578 23 26 33
0.288287 -0.5229 -0.581 23 23 33
0.291 -0.5238 -0.582 23 21 32
0.304757 -0.5265 -0.585 16 16 24
0.325246 -0.5364 -0.596 18 18 26
0.335957 -0.5427 -0.603 20 18 29
0.343967 -0.5463 -0.607 16 16 26
0.354357 -0.5535 -0.615 9 9 19
0.370757 -0.5535 -0.615 13 13 23
0.3731 -0.5535 -0.615 12 12 22
0.37488 -0.5544 -0.616 12 12 22
0.398993 -0.5553 -0.617 11 14 23
0.425763 -0.3933 -0.437 22 22 30
0.423596 -0.3816 -0.424 21 24 31
0.422379 -0.3762 -0.418 17 20 27
0.424173 -0.3654 -0.406 21 21 29
0.425162 -0.3636 -0.404 20 20 28
0.446754 -0.3492 -0.388 22 25 32
0.462429 -0.351 -0.39 24 25 30
0.468083 -0.3519 -0.391 19 22 29
0.84864 -0.5184 -0.576 115 117 116
0.850834 -0.5184 -0.576 122 124 123
0.850452 -0.5175 -0.575 118 120 117
0.883257 -0.522 -0.58 109 111 108
0.884362 -0.522 -0.58 109 111 106
0.902262 -0.5247 -0.583 95 97 92
0.00964 -0.434718 -0.482 190 150 115
0.01058 -0.43562 -0.483 191 151 116
0.01242 -0.43562 -0.483 193 150 116
0.048361 -0.444639 -0.493 176 130 106
0.0639667 -0.455462 -0.505 148 106 92
0.0672495 -0.458168 -0.508 134 96 83
0.0705667 -0.460873 -0.511 123 91 80
0.072939 -0.463579 -0.514 113 83 73
0.0905229 -0.484323 -0.537 82 66 66
0.0996838 -0.494244 -0.548 22 19 26
0.151989 -0.51589 -0.572 43 43 53
0.161229 -0.514086 -0.57 34 34 46
0.162314 -0.514086 -0.57 33 33 45
0.164486 -0.514086 -0.57 30 32 44
0.203551 -0.516791 -0.573 25 28 37
0.239987 -0.517693 -0.574 20 20 32
0.246976 -0.518595 -0.575 20 20 32
0.284837 -0.52581 -0.583 20 20 30
0.285948 -0.52581 -0.583 20 20 30
0.30961 -0.532124 -0.59 12 12 22
0.32238 -0.538437 -0.597 14 14 24
0.358997 -0.560083 -0.621 9 9 19
0.36846 -0.561887 -0.623 10 10 20
0.38502 -0.560083 -0.621 12 12 20
0.399857 -0.560985 -0.622 14 14 24
0.401687 -0.561887 -0.623 13 13 23
0.404596 -0.560985 -0.622 13 13 23
0.409993 -0.561887 -0.623 13 13 21
0.440366 -0.562789 -0.624 12 12 22
0.440847 -0.561887 -0.623 12 12 22
0.442347 -0.418484 -0.464 25 25 33
0.434449 -0.408563 -0.453 25 25 33
0.432429 -0.405857 -0.45 24 24 32
0.430397 -0.403151 -0.447 24 24 32
0.42434 -0.390525 -0.433 20 20 28
0.425354 -0.362566 -0.402 20 20 28
0.426286 -0.360762 -0.4 21 22 27
0.427626 -0.358056 -0.397 22 22 30
0.428382 -0.358056 -0.397 22 22 30
0.438273 -0.350841 -0.389 21 24 31
0.438625 -0.349939 -0.388 22 25 32
0.441917 -0.349037 -0.387 20 23 28
0.450763 -0.349037 -0.387 23 23 31
0.4515 -0.349037 -0.387 24 24 32
0.4654 -0.351743 -0.39 21 22 27
0.854126 -0.519497 -0.576 103 105 102
0.858514 -0.519497 -0.576 94 93 91
0.8655 -0.520399 -0.577 53 56 49
0.866599 -0.520399 -0.577 91 94 87
0.873314 -0.523105 -0.58 96 98 93
0.872911 -0.522203 -0.579 102 104 99
0.883673 -0.524007 -0.581 92 94 91
-0.00692857 -0.438348 -0.485 189 148 118
0.0310752 -0.440155 -0.487 191 150 118
0.0405171 -0.441963 -0.489 183 139 110
0.0493 -0.445578 -0.493 175 129 106
0.0544333 -0.449193 -0.497 167 120 100
0.0661514 -0.458231 -0.507 138 102 88
0.0683514 -0.460039 -0.509 126 92 82
0.0694571 -0.460943 -0.51 125 91 81
0.11904 -0.520594 -0.576 13 15 30
0.151954 -0.520594 -0.576 34 34 46
0.155515 -0.521498 -0.577 29 31 44
0.156343 -0.520594 -0.576 28 30 42
0.19331 -0.51969 -0.575 23 25 37
0.20172 -0.518787 -0.574 24 26 38
0.210467 -0.518787 -0.574 23 26 35
0.213747 -0.518787 -0.574 25 28 37
0.229053 -0.518787 -0.574 21 23 35
0.240823 -0.520594 -0.576 22 22 34
0.257072 -0.522402 -0.578 16 18 30
0.278651 -0.527825 -0.584 19 19 31
0.287419 -0.529632 -0.586 17 20 29
0.303893 -0.535055 -0.592 13 13 23
0.312233 -0.537767 -0.595 11 11 21
0.331857 -0.547709 -0.606 15 13 24
0.345547 -0.556747 -0.616 17 15 26
0.378594 -0.567592 -0.628 8 11 18
0.386351 -0.566689 -0.627 11 11 19
0.413284 -0.567592 -0.628 12 12 20
0.415014 -0.566689 -0.627 12 12 20
0.431046 -0.565785 -0.626 11 11 21
0.443189 -0.567592 -0.628 9 12 21
0.457325 -0.570304 -0.631 11 14 23
0.471748 -0.570304 -0.631 13 13 23
0.448123 -0.425694 -0.471 23 23 31
0.43941 -0.415752 -0.46 27 27 35
0.42334 -0.385927 -0.427 18 21 28
0.4228 -0.3796 -0.42 20 23 30
0.4234 -0.366947 -0.406 21 21 29
0.42598 -0.36062 -0.399 20 21 26
0.427626 -0.358812 -0.397 23 23 31
0.435669 -0.350678 -0.388 21 26 32
0.450763 -0.349774 -0.387 21 21 29
0.862596 -0.522402 -0.578 95 94 92
0.8685 -0.523306 -0.579 86 89 82
0.898671 -0.528729 -0.585 106 108 105
-0.0175486 -0.451046 -0.498 179 143 117
-0.0116429 -0.442894 -0.489 187 146 118
-0.00321333 -0.436554 -0.482 188 147 117
0.00228571 -0.434743 -0.48 195 154 124
0.0105362 -0.435649 -0.481 194 151 119
0.0375686 -0.441083 -0.487 188 144 115
0.0395048 -0.441989 -0.488 184 140 111
0.0565533 -0.451951 -0.499 161 114 96
0.0753343 -0.468254 -0.517 98 81 71
0.0998657 -0.497237 -0.549 17 13 27
0.118762 -0.525314 -0.58 13 11 32
0.161848 -0.525314 -0.58 29 29 41
0.1734 -0.523503 -0.578 25 28 35
0.193646 -0.521691 -0.576 23 25 37
0.194743 -0.521691 -0.576 24 26 38
0.22468 -0.51988 -0.574 22 24 36
0.306567 -0.5389 -0.595 13 13 23
0.327852 -0.547957 -0.605 13 13 23
0.337474 -0.554297 -0.612 14 14 24
0.396655 -0.572411 -0.632 10 10 18
0.405082 -0.572411 -0.632 12 12 22
0.421935 -0.572411 -0.632 9 12 17
0.4386 -0.5706 -0.63 11 11 21
0.454669 -0.574223 -0.634 10 13 22
0.471643 -0.578751 -0.639 12 12 20
0.47286 -0.578751 -0.639 12 12 20
0.475766 -0.577846 -0.638 13 13 23
0.472862 -0.451951 -0.499 10 12 25
0.422163 -0.377683 -0.417 17 20 25
0.421943 -0.376777 -0.416 18 21 26
0.422351 -0.372249 -0.411 17 20 25
0.423129 -0.366814 -0.405 21 21 29
0.427396 -0.356851 -0.394 22 25 32
0.429306 -0.355946 -0.393 23 26 33
0.439305 -0.349606 -0.386 17 20 25
0.442981 -0.349606 -0.386 17 20 25
0.455186 -0.350511 -0.387 19 19 27
0.46643 -0.352323 -0.389 15 18 27
0.471062 -0.354134 -0.391 17 20 29
0.869287 -0.52622 -0.581 98 100 95
-0.3075 -0.4765 -0.525 124 123 128
-0.0154629 -0.446549 -0.492 182 140 115
0.000457143 -0.435657 -0.48 197 153 124
0.00685714 -0.435657 -0.48 194 150 121
0.00962 -0.436565 -0.481 191 150 118
0.0123686 -0.436565 -0.481 193 150 116
0.0291 -0.440195 -0.485 194 150 121
0.0319371 -0.441103 -0.486 191 147 118
0.03564 -0.441103 -0.486 188 144 115
0.0473257 -0.446549 -0.492 176 130 107
0.0596429 -0.454717 -0.501 153 107 94
0.0970619 -0.494652 -0.545 14 11 28
0.0998657 -0.498283 -0.549 14 11 28
0.107583 -0.510082 -0.562 10 9 27
0.109233 -0.512805 -0.565 11 10 28
0.165447 -0.527327 -0.581 21 24 33
0.175602 -0.524604 -0.578 27 30 39
0.182208 -0.524604 -0.578 25 27 39
0.18551 -0.524604 -0.578 25 27 39
0.210468 -0.523696 -0.577 22 26 37
0.215589 -0.522789 -0.576 21 25 36
0.227657 -0.522789 -0.576 19 23 32
0.23025 -0.523696 -0.577 19 23 32
0.23135 -0.523696 -0.577 18 22 31
0.237255 -0.524604 -0.578 19 22 31
0.24318 -0.525511 -0.579 18 21 30
0.265503 -0.528234 -0.582 15 17 29
0.285525 -0.534588 -0.589 15 17 29
0.32501 -0.548202 -0.604 9 12 21
0.386447 -0.578153 -0.637 8 11 18
0.409424 -0.576338 -0.635 11 11 21
0.415471 -0.576338 -0.635 9 12 21
0.41789 -0.576338 -0.635 10 13 20
0.422729 -0.576338 -0.635 9 12 19
0.457537 -0.579061 -0.638 9 12 21
0.467505 -0.580876 -0.64 10 13 20
0.428233 -0.402075 -0.443 23 23 31
0.422701 -0.388461 -0.428 18 21 28
0.422 -0.3812 -0.42 19 22 29
0.421583 -0.379385 -0.418 18 21 28
0.421491 -0.375754 -0.414 18 21 26
0.420786 -0.373031 -0.411 17 20 25
0.423623 -0.366678 -0.404 21 21 29
0.427809 -0.356694 -0.393 23 26 33
0.440775 -0.350341 -0.386 16 19 24
0.471343 -0.353971 -0.39 17 17 25
0.474041 -0.354879 -0.391 18 18 26
0.887988 -0.534588 -0.589 116 118 115
-0.310679 -0.479319 -0.527 100 100 110
-0.287046 -0.47841 -0.526 88 92 104
-0.00874 -0.4393 -0.483 191 147 120
-0.00782 -0.4393 -0.483 193 149 122
-0.00688571 -0.43839 -0.482 195 151 122
0.00685714 -0.436571 -0.48 195 151 122
0.00777143 -0.436571 -0.48 196 152 123
0.0096 -0.436571 -0.48 190 149 119
0.0281762 -0.441119 -0.485 192 151 119
0.0318714 -0.441119 -0.485 187 146 116
0.0523286 -0.450214 -0.495 165 122 103
0.0544333 -0.452033 -0.497 160 117 100
0.0565533 -0.453852 -0.499 154 111 92
0.0742057 -0.469314 -0.516 103 74 66
0.101279 -0.501148 -0.551 9 11 26
0.1027 -0.502967 -0.553 11 13 28
0.105754 -0.507514 -0.558 9 11 26
0.11972 -0.522067 -0.574 7 9 24
0.151244 -0.532981 -0.586 28 30 43
0.168767 -0.528433 -0.581 18 21 30
0.17621 -0.527524 -0.58 23 27 38
0.184729 -0.526614 -0.579 21 25 37
0.193551 -0.526614 -0.579 21 25 36
0.206071 -0.524795 -0.577 20 24 35
0.228052 -0.524795 -0.577 20 24 33
0.258851 -0.529343 -0.582 14 18 29
0.29149 -0.538438 -0.592 15 17 29
0.30646 -0.542986 -0.597 13 16 25
0.3182 -0.547533 -0.602 7 10 19
0.374806 -0.583914 -0.642 8 8 18
0.387048 -0.582095 -0.64 7 10 17
0.439143 -0.578457 -0.636 12 12 20
0.4459 -0.579367 -0.637 9 9 17
0.450246 -0.580276 -0.638 8 10 22
0.46213 -0.583005 -0.641 10 13 22
0.480012 -0.588462 -0.647 12 12 22
0.482477 -0.588462 -0.647 12 12 22
0.424789 -0.396552 -0.436 21 21 29
0.421583 -0.380181 -0.418 18 21 28
0.422357 -0.368357 -0.405 20 20 28
0.422853 -0.367448 -0.404 21 21 29
0.425357 -0.361081 -0.397 23 24 29
0.433809 -0.351986 -0.387 17 22 28
0.434546 -0.351986 -0.387 18 23 29
0.437834 -0.351076 -0.386 16 19 26
0.439305 -0.351076 -0.386 18 21 28
0.4433 -0.350167 -0.385 14 19 25
0.4455 -0.350167 -0.385 14 19 25
0.446967 -0.350167 -0.385 13 18 24
0.45401 -0.351076 -0.386 15 15 23
0.45695 -0.351076 -0.386 15 16 21
0.472829 -0.354714 -0.39 18 18 26
-0.317706 -0.480323 -0.527 41 42 44
-0.280622 -0.482146 -0.529 45 52 62
-0.279086 -0.481234 -0.528 48 52 63
-0.27655 -0.480323 -0.527 51 55 64
-0.0193286 -0.451157 -0.495 183 142 114
0.03564 -0.442954 -0.486 183 142 114
0.0433114 -0.445689 -0.489 179 135 110
0.06288 -0.45936 -0.504 139 100 85
0.15288 -0.53592 -0.588 24 26 39
0.191346 -0.527717 -0.579 19 23 34
0.199066 -0.527717 -0.579 18 22 33
0.206071 -0.525894 -0.577 18 22 33
0.236563 -0.527717 -0.579 16 20 29
0.245127 -0.52954 -0.581 17 20 29
0.256634 -0.530451 -0.582 13 17 26
0.27944 -0.53592 -0.588 14 18 27
0.301406 -0.543211 -0.596 16 19 28
0.304695 -0.545034 -0.598 15 18 27
0.315907 -0.54868 -0.602 9 12 21
0.334523 -0.558706 -0.613 9 12 21
0.339056 -0.562351 -0.617 11 11 21
0.368117 -0.584226 -0.641 7 10 19
0.372293 -0.58696 -0.644 8 8 18
0.391926 -0.585137 -0.642 10 10 18
0.403483 -0.582403 -0.639 10 10 20
0.4047 -0.582403 -0.639 10 10 20
0.412003 -0.582403 -0.639 9 12 19
0.466022 -0.586049 -0.643 10 13 22
0.42493 -0.398294 -0.437 22 22 30
0.424643 -0.396471 -0.435 21 21 29
0.421598 -0.384623 -0.422 18 22 31
0.42115 -0.379154 -0.416 18 21 26
0.420929 -0.378243 -0.415 18 21 26
0.420003 -0.374597 -0.411 19 22 27
0.421807 -0.367306 -0.403 19 22 29
0.424286 -0.360926 -0.396 24 24 32
0.425227 -0.35728 -0.392 21 24 31
0.448433 -0.3509 -0.385 16 16 24
0.450633 -0.3509 -0.385 15 15 23
0.456215 -0.351811 -0.386 14 15 20
0.457233 -0.3509 -0.385 16 17 22
-0.0202305 -0.451187 -0.494 183 144 113
-0.0115238 -0.442053 -0.484 189 145 116
-0.01058 -0.44114 -0.483 190 147 115
-0.00685714 -0.4384 -0.48 191 148 116
0.00684286 -0.437487 -0.479 194 151 119
0.014201 -0.439313 -0.481 191 148 116
0.018821 -0.440227 -0.482 195 152 120
0.0403514 -0.444793 -0.487 178 137 109
0.0661514 -0.46306 -0.507 123 91 76
0.07182 -0.46854 -0.513 109 81 70
0.0879829 -0.48772 -0.534 82 66 66
0.09828 -0.49868 -0.546 11 12 30
0.157037 -0.53978 -0.591 25 27 40
0.167413 -0.533387 -0.584 19 23 34
0.169348 -0.532473 -0.583 18 22 31
0.173491 -0.53156 -0.582 22 26 37
0.182838 -0.529733 -0.58 23 25 37
0.204227 -0.527907 -0.578 19 23 32
