ply
format ascii 1.0
comment Created by Open3D
element vertex 1285
property double x
property double y
property double z
property uchar red
property uchar green
property uchar blue
end_header
0.144533 -0.335467 -0.56 157 98 90
0.150937 -0.337863 -0.564 151 94 85
0.16203 -0.340858 -0.569 135 86 79
0.172991 -0.343254 -0.573 131 84 78
0.190447 -0.349245 -0.583 120 80 72
0.230131 -0.370211 -0.618 172 165 183
0.243473 -0.37081 -0.619 172 178 204
0.245831 -0.37081 -0.619 125 131 167
0.468757 -0.375603 -0.627 144 158 187
0.48463 -0.376801 -0.629 231 230 246
0.5034 -0.3774 -0.63 213 217 229
0.512186 -0.376801 -0.629 172 187 220
0.48287 -0.334868 -0.559 185 149 135
0.480119 -0.326481 -0.545 197 156 138
0.480426 -0.325283 -0.543 198 155 136
0.485225 -0.322288 -0.538 202 160 138
0.489437 -0.321689 -0.537 196 154 132
0.515829 -0.323486 -0.54 169 129 104
0.52364 -0.32708 -0.546 158 121 102
0.0943152 -0.356365 -0.593 196 148 144
0.105565 -0.33473 -0.557 200 145 138
0.110471 -0.333529 -0.555 196 141 134
0.111529 -0.333529 -0.555 194 139 132
0.119337 -0.331726 -0.552 194 137 126
0.120389 -0.331726 -0.552 193 136 125
0.150937 -0.338937 -0.564 148 93 86
0.192543 -0.352158 -0.586 121 81 73
0.239936 -0.37199 -0.619 178 179 197
0.245434 -0.371389 -0.618 88 96 133
0.263091 -0.371389 -0.618 126 148 197
0.268977 -0.371389 -0.618 210 218 241
0.433234 -0.374994 -0.624 247 248 250
0.444643 -0.375595 -0.625 238 246 255
0.448214 -0.375595 -0.625 216 226 235
0.466817 -0.376196 -0.626 236 246 255
0.479074 -0.377398 -0.628 234 227 243
0.505634 -0.362975 -0.604 174 146 142
0.504571 -0.360571 -0.6 174 146 142
0.5015 -0.357567 -0.595 174 145 139
0.49784 -0.35336 -0.588 176 146 138
0.480119 -0.327519 -0.545 197 156 138
0.483943 -0.324514 -0.54 197 156 134
0.496959 -0.320308 -0.533 195 151 126
0.499067 -0.319707 -0.532 192 147 124
0.506029 -0.320909 -0.534 183 139 112
1.14965 -0.380403 -0.633 201 203 189
0.102566 -0.336394 -0.558 198 143 136
0.110272 -0.333983 -0.554 194 140 130
0.113233 -0.33338 -0.553 192 138 128
0.118286 -0.332777 -0.552 196 142 132
0.12144 -0.332777 -0.552 191 135 122
0.122491 -0.332777 -0.552 185 129 116
0.137147 -0.335189 -0.556 165 108 99
0.160946 -0.343026 -0.569 133 85 81
0.170809 -0.345437 -0.573 130 85 80
0.177496 -0.347849 -0.577 128 83 80
0.192871 -0.353877 -0.587 122 81 75
0.225867 -0.37136 -0.616 173 169 186
0.240726 -0.372566 -0.618 173 174 194
0.243862 -0.371963 -0.617 82 87 117
0.255614 -0.371963 -0.617 160 170 195
0.265016 -0.371963 -0.617 173 186 230
0.427793 -0.37558 -0.623 252 252 254
0.433234 -0.376183 -0.624 252 251 255
0.447024 -0.376786 -0.625 234 243 250
0.451786 -0.376786 -0.625 209 221 245
0.457738 -0.376786 -0.625 168 191 233
0.46131 -0.376786 -0.625 217 230 255
0.4625 -0.376786 -0.625 217 224 250
0.492232 -0.378594 -0.628 223 225 240
0.501802 -0.378594 -0.628 217 217 227
0.504194 -0.378594 -0.628 189 194 216
0.512568 -0.378594 -0.628 189 195 217
0.496414 -0.352671 -0.585 176 146 138
0.481748 -0.326146 -0.541 202 159 140
0.482778 -0.326146 -0.541 198 157 135
0.495013 -0.32072 -0.532 197 152 129
0.094479 -0.354995 -0.587 194 145 141
0.0984905 -0.338062 -0.559 195 142 136
0.10026 -0.336852 -0.557 196 143 137
0.117234 -0.333829 -0.552 195 141 131
0.126697 -0.333829 -0.552 178 121 110
0.154707 -0.342295 -0.566 142 89 81
0.180317 -0.350157 -0.579 124 80 77
0.198566 -0.359229 -0.594 118 83 81
0.223157 -0.371929 -0.615 178 175 192
0.252853 -0.372533 -0.616 154 155 173
0.447497 -0.377371 -0.624 220 227 237
0.448686 -0.377371 -0.624 220 227 237
0.457006 -0.377371 -0.624 186 202 238
0.48906 -0.379186 -0.627 195 198 215
0.497017 -0.37979 -0.628 225 224 232
0.49941 -0.37979 -0.628 180 177 184
0.50539 -0.37979 -0.628 92 99 127
0.495828 -0.352576 -0.583 178 145 136
0.480847 -0.334433 -0.553 188 152 138
0.479797 -0.330805 -0.547 193 154 139
0.479391 -0.328386 -0.543 195 156 139
0.489852 -0.322338 -0.533 198 153 132
0.491973 -0.321733 -0.532 193 150 133
0.508127 -0.322338 -0.533 173 129 100
0.513029 -0.324152 -0.536 161 125 103
1.14598 -0.380395 -0.629 204 206 192
0.0946667 -0.344587 -0.568 197 144 136
0.101139 -0.337307 -0.556 198 145 137
0.102198 -0.337307 -0.556 196 143 135
0.104316 -0.337307 -0.556 198 146 135
0.108162 -0.336093 -0.554 198 144 134
0.10902 -0.335487 -0.553 193 139 129
0.136088 -0.337307 -0.556 161 108 94
0.143723 -0.34034 -0.561 153 101 90
0.157417 -0.344587 -0.568 132 85 79
0.161229 -0.3458 -0.57 135 90 87
0.175602 -0.350653 -0.578 124 83 81
0.177009 -0.35126 -0.579 122 83 78
0.179214 -0.35126 -0.579 123 79 78
0.183469 -0.35308 -0.582 121 81 79
0.187757 -0.3549 -0.585 121 81 79
0.235635 -0.374313 -0.617 171 167 190
0.239161 -0.374313 -0.617 179 177 199
0.241511 -0.374313 -0.617 132 130 152
0.25168 -0.373707 -0.616 170 173 188
0.440847 -0.377953 -0.623 249 249 255
0.442033 -0.377953 -0.623 248 248 255
0.44322 -0.377953 -0.623 252 253 255
0.444407 -0.377953 -0.623 254 255 255
0.455817 -0.37856 -0.624 201 215 252
0.457006 -0.37856 -0.624 198 211 243
0.458194 -0.37856 -0.624 192 205 237
0.46176 -0.37856 -0.624 214 222 241
0.464137 -0.37856 -0.624 250 250 255
0.467703 -0.37856 -0.624 242 241 249
0.479933 -0.379773 -0.626 234 235 253
0.49742 -0.38038 -0.627 220 220 230
0.498614 -0.38038 -0.627 203 202 210
0.502197 -0.38038 -0.627 190 186 200
0.480333 -0.333667 -0.55 190 152 139
0.479238 -0.330027 -0.544 195 156 139
0.479541 -0.328813 -0.542 195 156 139
0.480857 -0.3276 -0.54 201 159 143
0.483175 -0.326387 -0.538 201 160 142
0.486703 -0.32396 -0.534 199 154 135
0.48772 -0.32396 -0.534 198 153 134
0.49096 -0.322747 -0.532 198 153 132
0.496181 -0.321533 -0.53 195 150 127
0.49719 -0.321533 -0.53 191 146 123
0.511114 -0.32396 -0.534 167 129 106
1.14416 -0.380987 -0.628 204 207 190
0.0932019 -0.356623 -0.586 198 151 145
0.0947371 -0.342017 -0.562 195 143 132
0.103071 -0.337757 -0.555 198 145 137
0.105186 -0.337757 -0.555 198 143 136
0.111774 -0.335323 -0.551 186 133 125
0.143723 -0.341409 -0.561 153 98 91
0.147452 -0.342626 -0.563 146 93 85
0.166733 -0.34932 -0.574 127 83 82
0.229387 -0.37488 -0.616 141 141 175
0.24112 -0.37488 -0.616 127 144 172
0.2583 -0.374271 -0.615 164 179 212
0.436585 -0.378531 -0.622 200 199 217
0.44678 -0.37914 -0.623 226 226 236
0.474834 -0.379749 -0.624 218 216 240
0.503781 -0.380966 -0.626 127 129 154
0.510557 -0.381574 -0.627 202 203 223
0.51414 -0.381574 -0.627 167 168 189
0.495233 -0.35358 -0.581 178 149 135
0.48762 -0.34506 -0.567 185 152 133
0.47996 -0.33228 -0.546 193 154 137
0.484442 -0.326194 -0.536 202 159 140
0.485791 -0.324369 -0.533 200 155 136
0.494237 -0.321934 -0.529 196 151 130
0.0999 -0.338814 -0.555 196 143 137
0.110725 -0.336372 -0.551 191 139 128
0.119952 -0.335762 -0.55 189 135 123
0.14505 -0.343088 -0.562 150 97 91
0.184414 -0.357129 -0.585 121 83 82
0.220455 -0.374832 -0.614 163 164 195
0.224329 -0.375443 -0.615 129 135 161
0.239557 -0.375443 -0.615 76 91 120
0.2419 -0.375443 -0.615 184 186 211
0.244243 -0.375443 -0.615 187 189 210
0.251271 -0.375443 -0.615 201 199 220
0.255541 -0.374832 -0.614 128 141 175
0.2665 -0.375443 -0.615 188 201 233
0.463834 -0.379716 -0.622 244 252 254
0.465019 -0.379716 -0.622 244 247 255
0.480357 -0.381548 -0.625 227 233 249
0.509743 -0.382158 -0.626 201 203 224
0.510935 -0.382158 -0.626 199 201 222
0.512128 -0.382158 -0.626 195 197 220
0.499809 -0.35957 -0.589 180 148 137
0.48848 -0.34675 -0.568 186 150 134
0.4824 -0.327215 -0.536 203 160 143
0.498331 -0.322331 -0.528 189 144 121
1.14107 -0.381548 -0.625 201 203 189
1.13861 -0.380327 -0.623 202 204 190
0.0919295 -0.353956 -0.578 197 148 144
0.0933333 -0.342933 -0.56 196 148 136
0.107771 -0.338034 -0.552 193 138 131
0.125418 -0.337422 -0.551 179 123 108
0.13114 -0.338647 -0.553 170 117 101
0.132432 -0.339259 -0.554 164 111 95
0.141333 -0.342933 -0.56 147 97 90
0.185045 -0.359468 -0.587 121 83 80
0.219286 -0.376002 -0.614 139 142 177
0.220455 -0.376002 -0.614 129 132 167
0.222794 -0.376002 -0.614 143 143 169
0.226303 -0.376002 -0.614 50 69 112
0.239168 -0.376002 -0.614 122 133 161
0.253202 -0.376002 -0.614 125 141 174
0.268406 -0.376002 -0.614 220 225 254
0.271914 -0.376002 -0.614 225 226 247
0.430457 -0.379676 -0.62 183 192 223
0.451987 -0.380901 -0.622 183 198 239
0.455541 -0.380901 -0.622 189 209 244
0.461465 -0.380901 -0.622 211 230 255
0.46265 -0.380901 -0.622 246 254 255
0.502976 -0.382738 -0.625 162 163 181
0.506548 -0.382738 -0.625 200 202 214
0.514881 -0.382738 -0.625 106 125 158
0.494631 -0.354569 -0.579 182 149 142
0.49083 -0.350282 -0.572 186 148 137
0.479687 -0.331298 -0.541 197 158 141
0.492222 -0.32395 -0.529 196 151 130
0.492369 -0.322725 -0.527 200 155 134
0.496384 -0.322725 -0.527 191 146 123
0.497388 -0.322725 -0.527 188 146 121
0.500399 -0.322725 -0.527 186 144 119
1.14353 -0.383963 -0.627 201 203 189
0.0909857 -0.355671 -0.579 198 150 140
0.0915819 -0.349529 -0.569 195 147 143
0.113667 -0.337857 -0.55 193 141 127
0.123319 -0.338471 -0.551 183 127 112
0.135029 -0.341543 -0.556 158 107 90
0.15309 -0.348914 -0.568 136 89 79
0.1558 -0.350143 -0.57 131 84 76
0.171198 -0.355057 -0.578 125 84 78
0.23215 -0.377171 -0.614 107 116 155
0.251622 -0.376557 -0.613 150 152 175
0.435181 -0.380857 -0.62 249 250 252
0.453626 -0.381471 -0.621 188 207 250
0.460723 -0.381471 -0.621 198 217 250
0.463089 -0.381471 -0.621 245 252 255
0.470943 -0.382086 -0.622 240 243 252
0.47882 -0.3827 -0.623 195 205 240
0.499794 -0.383314 -0.624 160 175 214
0.508929 -0.383929 -0.625 199 206 224
0.51442 -0.3827 -0.623 93 111 159
0.494631 -0.355671 -0.579 183 150 145
0.482586 -0.340929 -0.555 188 152 140
0.480506 -0.337243 -0.549 190 154 140
0.479081 -0.334786 -0.545 191 153 140
0.478509 -0.332943 -0.542 191 154 138
0.484669 -0.328029 -0.534 197 154 135
0.492369 -0.323729 -0.527 192 147 126
0.0935571 -0.341986 -0.555 195 148 138
0.0953267 -0.340753 -0.553 195 145 134
0.0974333 -0.340753 -0.553 198 148 137
0.09936 -0.340137 -0.552 200 150 139
0.101463 -0.340137 -0.552 197 147 136
0.125418 -0.339521 -0.551 180 124 109
0.1288 -0.340137 -0.552 169 116 100
0.1558 -0.351229 -0.57 131 84 74
0.158526 -0.352461 -0.572 126 82 73
0.178843 -0.360471 -0.585 124 85 80
0.180265 -0.361088 -0.586 123 84 79
0.217761 -0.377725 -0.613 64 72 111
0.239946 -0.377725 -0.613 171 180 209
0.242281 -0.377725 -0.613 188 187 205
0.244616 -0.377725 -0.613 193 195 216
0.245784 -0.377725 -0.613 195 191 208
0.247714 -0.377109 -0.612 197 198 218
0.349067 -0.379573 -0.616 186 196 231
0.35024 -0.379573 -0.616 197 207 242
0.363736 -0.38019 -0.617 198 214 240
0.364911 -0.38019 -0.617 169 185 211
0.366087 -0.38019 -0.617 140 159 191
0.370788 -0.38019 -0.617 255 254 255
0.426226 -0.381422 -0.619 189 194 224
0.429763 -0.381422 -0.619 140 157 200
0.430942 -0.381422 -0.619 166 182 215
0.44581 -0.382038 -0.62 181 200 240
0.45126 -0.382654 -0.621 183 201 247
0.453626 -0.382654 -0.621 186 207 254
0.481606 -0.38327 -0.622 208 219 247
0.504549 -0.384503 -0.624 196 199 204
0.509303 -0.384503 -0.624 200 209 218
0.512869 -0.384503 -0.624 117 139 180
0.51442 -0.383887 -0.623 89 110 163
0.508243 -0.371563 -0.603 173 144 140
0.481207 -0.339521 -0.551 189 153 139
0.488105 -0.326581 -0.53 198 153 132
0.4965 -0.3235 -0.525 190 148 124
0.507383 -0.325349 -0.528 174 134 109
0.59684 -0.370947 -0.602 189 166 152
0.602953 -0.374028 -0.607 203 194 189
0.0884343 -0.360968 -0.584 189 141 127
0.0983086 -0.341189 -0.552 199 150 136
0.104428 -0.34057 -0.551 193 141 127
0.107186 -0.339334 -0.549 194 142 128
0.115551 -0.339334 -0.549 193 140 126
0.12078 -0.339334 -0.549 184 131 115
0.130087 -0.341807 -0.553 165 112 96
0.136332 -0.344279 -0.557 149 97 84
0.145566 -0.348606 -0.564 139 91 81
0.148238 -0.349842 -0.566 137 88 81
0.152275 -0.351696 -0.569 133 86 76
0.161267 -0.354787 -0.574 126 83 76
0.247714 -0.378274 -0.612 197 198 218
0.3485 -0.380129 -0.615 168 181 216
0.372533 -0.380747 -0.616 249 250 255
0.440374 -0.382601 -0.619 221 225 228
0.441553 -0.382601 -0.619 226 230 233
0.476867 -0.384455 -0.622 101 118 164
0.477283 -0.383837 -0.621 142 159 205
0.481606 -0.384455 -0.622 204 218 245
0.48279 -0.384455 -0.622 191 205 232
0.508114 -0.385691 -0.624 201 211 213
0.50093 -0.364058 -0.589 175 146 140
0.479797 -0.338098 -0.547 191 153 140
0.478509 -0.335008 -0.542 186 149 133
0.496552 -0.323882 -0.524 191 149 125
0.536974 -0.339334 -0.549 159 127 106
0.0898114 -0.34596 -0.558 200 148 137
0.0907114 -0.34534 -0.557 200 150 139
0.09918 -0.34162 -0.551 201 152 138
0.104238 -0.341 -0.55 193 144 129
0.114297 -0.33976 -0.548 195 142 126
0.1288 -0.34224 -0.552 162 110 96
0.136577 -0.34596 -0.558 145 95 84
0.137887 -0.34658 -0.559 144 94 83
0.174088 -0.36208 -0.584 123 84 77
0.20706 -0.37758 -0.609 157 152 175
0.214723 -0.37882 -0.611 66 67 95
0.225566 -0.37944 -0.612 58 77 120
0.241886 -0.37944 -0.612 192 191 207
0.243051 -0.37944 -0.612 189 191 216
0.249637 -0.37882 -0.611 175 182 208
0.253129 -0.37882 -0.611 110 134 180
0.363729 -0.3813 -0.615 170 183 217
0.429069 -0.38316 -0.618 140 153 185
0.431423 -0.38316 -0.618 203 217 244
0.433777 -0.38316 -0.618 244 251 255
0.437309 -0.38316 -0.618 246 250 251
0.439663 -0.38316 -0.618 229 235 235
0.453344 -0.38378 -0.619 181 203 242
0.482014 -0.38502 -0.621 201 212 240
0.483975 -0.38564 -0.622 146 170 198
0.499377 -0.38564 -0.622 203 207 219
0.50546 -0.37014 -0.597 172 144 140
0.483761 -0.33046 -0.533 197 154 135
0.493612 -0.32426 -0.523 191 149 125
0.494609 -0.32426 -0.523 191 149 125
0.498593 -0.32426 -0.523 190 146 121
0.49959 -0.32426 -0.523 190 145 122
0.506463 -0.32612 -0.526 175 135 110
0.5104 -0.32736 -0.528 174 133 111
0.528119 -0.33542 -0.541 162 127 105
0.0862095 -0.363192 -0.584 193 153 145
0.0884714 -0.350132 -0.563 189 146 137
0.0930514 -0.343291 -0.552 197 150 140
0.100048 -0.342048 -0.55 199 148 131
0.105094 -0.341426 -0.549 194 143 126
0.10699 -0.340804 -0.548 193 142 125
0.126468 -0.34267 -0.551 171 114 95
0.149844 -0.353242 -0.568 135 85 76
0.228689 -0.379984 -0.611 160 170 205
0.239163 -0.379984 -0.611 175 184 215
0.24149 -0.379984 -0.611 194 193 209
0.251965 -0.379984 -0.611 124 146 193
0.416622 -0.383715 -0.617 219 229 241
0.417797 -0.383715 -0.617 170 186 222
0.428374 -0.383715 -0.617 199 209 234
0.454966 -0.384337 -0.618 155 180 220
0.456143 -0.384337 -0.618 157 182 222
0.478876 -0.385581 -0.62 205 211 245
0.499377 -0.386825 -0.622 203 207 219
0.504116 -0.386825 -0.622 205 207 219
0.50767 -0.386825 -0.622 193 194 196
0.508855 -0.386825 -0.622 206 201 208
0.498049 -0.36257 -0.583 176 149 142
0.495734 -0.360083 -0.579 177 150 143
0.483455 -0.345779 -0.556 182 149 140
0.478509 -0.337072 -0.542 183 147 133
0.4788 -0.335829 -0.54 192 154 141
0.482746 -0.331475 -0.533 196 155 135
0.485076 -0.32961 -0.53 197 157 132
0.4895 -0.3265 -0.525 198 155 136
0.4905 -0.3265 -0.525 192 149 130
0.503539 -0.325878 -0.524 176 137 106
1.1417 -0.389312 -0.626 202 204 190
0.0891676 -0.34559 -0.554 193 147 132
0.0977743 -0.342471 -0.549 200 151 136
0.0998657 -0.342471 -0.549 198 147 130
0.122871 -0.342471 -0.549 183 131 110
0.124143 -0.343095 -0.55 179 124 104
0.130087 -0.344967 -0.553 159 105 93
0.140768 -0.350581 -0.562 137 88 81
0.14742 -0.3537 -0.567 130 85 79
0.15662 -0.357443 -0.573 128 85 76
0.164592 -0.360562 -0.578 122 81 77
0.16766 -0.362433 -0.581 124 85 80
0.1767 -0.367424 -0.589 123 86 80
0.219019 -0.380524 -0.61 156 161 180
0.224829 -0.380524 -0.61 89 100 132
0.22599 -0.380524 -0.61 134 145 177
0.241095 -0.380524 -0.61 177 181 216
0.25039 -0.380524 -0.61 149 165 188
0.259686 -0.380524 -0.61 152 171 201
0.414773 -0.384267 -0.616 236 244 255
0.422987 -0.384267 -0.616 233 242 255
0.46985 -0.386138 -0.619 240 241 255
0.47103 -0.386138 -0.619 212 213 234
0.487397 -0.351205 -0.563 181 148 139
0.478357 -0.338729 -0.543 190 151 136
0.47894 -0.336233 -0.539 190 151 134
0.488429 -0.328124 -0.526 198 155 136
0.489566 -0.326876 -0.524 196 154 132
0.496646 -0.325629 -0.522 189 144 121
0.596291 -0.373038 -0.598 184 171 165
0.0855276 -0.357909 -0.572 195 152 136
0.0875286 -0.348523 -0.557 196 150 135
0.0956829 -0.343517 -0.549 203 154 139
0.0977743 -0.343517 -0.549 200 151 136
0.10972 -0.34164 -0.546 195 144 125
0.113047 -0.342266 -0.547 197 146 127
0.121604 -0.342891 -0.548 192 140 119
0.129033 -0.34602 -0.553 158 104 92
0.131614 -0.347271 -0.555 152 98 86
0.143671 -0.353529 -0.565 132 85 77
0.159634 -0.360411 -0.576 123 82 76
0.200599 -0.379809 -0.607 150 148 170
0.24418 -0.38106 -0.609 199 201 224
0.385358 -0.384189 -0.614 207 216 245
0.386528 -0.384189 -0.614 201 213 251
0.4312 -0.38544 -0.616 212 217 239
0.433547 -0.38544 -0.616 241 245 255
0.449529 -0.386066 -0.617 191 213 252
0.450704 -0.386066 -0.617 192 214 253
0.467914 -0.386691 -0.618 216 219 234
0.472209 -0.387317 -0.619 221 222 250
0.497391 -0.388569 -0.621 197 204 232
0.503306 -0.388569 -0.621 205 207 220
0.488263 -0.352903 -0.564 180 147 138
0.485867 -0.3504 -0.56 180 147 138
0.484325 -0.348523 -0.557 183 149 139
0.479337 -0.335383 -0.536 195 153 137
0.4806 -0.334131 -0.534 197 156 138
0.48184 -0.33288 -0.532 198 157 139
0.483057 -0.331629 -0.53 198 157 137
0.488568 -0.327874 -0.524 200 158 136
0.489686 -0.326623 -0.522 193 151 127
0.494657 -0.326623 -0.522 195 150 127
0.0834095 -0.364019 -0.58 200 154 139
0.0844381 -0.358998 -0.572 196 150 135
0.090619 -0.34519 -0.55 199 152 136
0.0944648 -0.343935 -0.548 199 152 134
0.10452 -0.34268 -0.546 196 144 130
0.12056 -0.343935 -0.548 190 138 117
0.121604 -0.343935 -0.548 190 138 117
0.131614 -0.348329 -0.555 146 96 85
0.135514 -0.350211 -0.558 140 90 79
0.151723 -0.35837 -0.571 127 86 80
0.158537 -0.361509 -0.576 124 83 79
0.165447 -0.364647 -0.581 125 88 82
0.171628 -0.368412 -0.587 122 84 81
0.17304 -0.36904 -0.588 120 82 81
0.22794 -0.38222 -0.609 168 179 201
0.2291 -0.38222 -0.609 172 180 201
0.23606 -0.38222 -0.609 185 187 208
0.23722 -0.38222 -0.609 159 166 194
0.24534 -0.38222 -0.609 192 198 224
0.439413 -0.386613 -0.616 249 247 252
0.44528 -0.386613 -0.616 201 207 233
0.45423 -0.387241 -0.617 183 206 240
0.463631 -0.387241 -0.617 243 247 255
0.464807 -0.387241 -0.617 237 241 250
0.465982 -0.387241 -0.617 216 223 242
0.468332 -0.387241 -0.617 144 150 176
0.472623 -0.387869 -0.618 238 242 255
0.499757 -0.389751 -0.621 126 138 150
0.503306 -0.389751 -0.621 200 201 219
0.504332 -0.372178 -0.593 175 144 139
0.483643 -0.348329 -0.555 183 151 140
0.47996 -0.34268 -0.546 189 153 139
0.482048 -0.332638 -0.53 197 156 136
0.485342 -0.330755 -0.527 201 159 137
0.490732 -0.32699 -0.521 190 148 123
0.0867429 -0.347497 -0.552 203 156 140
0.0885238 -0.346238 -0.55 201 154 138
0.1066 -0.34372 -0.546 195 142 126
0.134451 -0.351274 -0.558 141 94 86
0.145004 -0.35631 -0.566 128 87 83
0.150371 -0.358829 -0.57 130 89 85
0.168814 -0.368271 -0.585 121 86 84
0.204404 -0.38275 -0.608 120 123 154
0.20672 -0.38275 -0.608 58 64 98
0.211352 -0.38275 -0.608 160 164 191
0.214827 -0.38275 -0.608 100 93 101
0.244937 -0.38275 -0.608 192 201 230
0.247253 -0.38275 -0.608 194 201 220
0.248411 -0.38275 -0.608 175 183 204
0.36312 -0.385269 -0.612 249 249 251
0.390569 -0.385898 -0.613 209 220 242
0.408749 -0.386528 -0.614 245 245 247
0.435186 -0.387157 -0.615 240 244 255
0.444107 -0.387787 -0.616 201 207 233
0.4488 -0.387787 -0.616 180 197 240
0.45232 -0.387787 -0.616 182 203 246
0.485178 -0.389675 -0.619 149 156 182
0.498952 -0.390305 -0.62 150 160 170
0.507446 -0.376455 -0.598 174 150 140
0.484514 -0.350015 -0.556 182 150 139
0.479238 -0.342461 -0.544 190 151 136
0.479583 -0.336166 -0.534 195 153 137
0.481038 -0.333648 -0.53 201 158 139
0.482048 -0.333648 -0.53 199 156 137
0.488631 -0.329241 -0.523 195 153 129
0.488691 -0.328611 -0.522 195 153 128
0.494743 -0.327352 -0.52 190 149 121
0.5115 -0.3305 -0.525 172 134 111
0.0831095 -0.355494 -0.563 196 153 136
0.09932 -0.34476 -0.546 197 148 131
0.109318 -0.343497 -0.544 198 147 130
0.113671 -0.344129 -0.545 198 145 127
0.119298 -0.345391 -0.547 190 137 119
0.121604 -0.346023 -0.548 186 131 111
0.126697 -0.348549 -0.552 155 100 80
0.143926 -0.357389 -0.566 128 87 85
0.14526 -0.35802 -0.567 126 86 84
0.154976 -0.363071 -0.575 123 82 80
0.1677 -0.369386 -0.585 122 86 86
0.194176 -0.382014 -0.605 109 110 138
0.199443 -0.383277 -0.607 146 148 173
0.211005 -0.383277 -0.607 162 167 189
0.21563 -0.383277 -0.607 107 97 105
0.227566 -0.383909 -0.608 175 182 200
0.23104 -0.383909 -0.608 181 188 206
0.234129 -0.383277 -0.607 186 192 214
0.235285 -0.383277 -0.607 187 193 215
0.422783 -0.387697 -0.614 247 250 255
0.439871 -0.388329 -0.615 198 202 211
0.477734 -0.389591 -0.617 230 234 255
0.507446 -0.377594 -0.598 171 149 136
0.483827 -0.349811 -0.554 182 148 136
0.478656 -0.341603 -0.541 194 155 138
0.480934 -0.335289 -0.531 201 160 140
0.482146 -0.334026 -0.529 199 157 135
0.48233 -0.332763 -0.527 204 162 138
0.4855 -0.3315 -0.525 196 156 131
0.511524 -0.330869 -0.524 172 135 109
0.109318 -0.344533 -0.544 198 147 130
0.118256 -0.346433 -0.547 186 135 116
0.128211 -0.350867 -0.554 149 96 78
0.143926 -0.358467 -0.566 129 85 82
0.14526 -0.3591 -0.567 126 85 83
0.150899 -0.362267 -0.572 128 88 86
0.160743 -0.367333 -0.58 122 84 83
0.204068 -0.384433 -0.607 45 50 88
0.223723 -0.384433 -0.607 172 177 197
0.236441 -0.384433 -0.607 184 192 211
0.23991 -0.384433 -0.607 111 123 147
0.418591 -0.388233 -0.613 249 249 255
0.419759 -0.388233 -0.613 247 253 253
0.444557 -0.3895 -0.615 210 221 251
0.4469 -0.3895 -0.615 182 193 223
0.457443 -0.3895 -0.615 217 223 247
0.46992 -0.390133 -0.616 234 242 253
0.482435 -0.390767 -0.617 224 223 237
0.48361 -0.390767 -0.617 224 223 237
0.504043 -0.392033 -0.619 144 144 168
0.507937 -0.3914 -0.618 178 190 206
0.510291 -0.3914 -0.618 163 177 204
0.484575 -0.331867 -0.524 195 155 130
0.491814 -0.3287 -0.519 194 152 127
0.493827 -0.328067 -0.518 192 150 126
0.4958 -0.328067 -0.518 189 149 124
0.497773 -0.328067 -0.518 188 146 122
0.08788 -0.34684 -0.546 203 156 140
0.08892 -0.34684 -0.546 205 156 139
0.0970619 -0.346205 -0.545 198 149 132
0.132326 -0.354463 -0.558 143 92 88
0.164076 -0.370979 -0.584 121 85 85
0.193024 -0.384319 -0.605 66 79 114
0.195329 -0.384319 -0.605 106 116 152
0.200269 -0.384954 -0.606 131 139 176
0.202577 -0.384954 -0.606 46 53 95
0.204886 -0.384954 -0.606 103 109 145
0.217583 -0.384954 -0.606 142 132 143
0.221046 -0.384954 -0.606 158 157 175
0.253366 -0.384954 -0.606 111 137 188
0.442665 -0.390036 -0.614 217 223 249
0.444557 -0.390671 -0.615 214 228 255
0.448071 -0.390671 -0.615 151 172 215
0.452757 -0.390671 -0.615 151 173 220
0.456271 -0.390671 -0.615 202 219 247
0.472267 -0.391307 -0.616 237 243 255
0.485961 -0.391942 -0.617 217 226 241
0.505583 -0.392577 -0.618 197 204 232
0.500015 -0.370979 -0.584 172 142 134
0.489337 -0.358274 -0.564 173 143 135
0.481551 -0.348746 -0.549 187 151 137
0.479391 -0.344934 -0.543 190 153 137
0.478656 -0.343664 -0.541 190 153 135
0.482417 -0.334135 -0.526 200 158 136
0.484575 -0.332865 -0.524 194 153 131
0.488849 -0.329689 -0.519 194 152 128
0.495828 -0.328418 -0.517 188 146 122
0.509588 -0.330959 -0.521 167 131 105
0.0823876 -0.351066 -0.551 199 156 139
0.0877191 -0.347243 -0.545 203 156 140
0.0939476 -0.347243 -0.545 203 154 137
0.108282 -0.346606 -0.544 194 146 126
0.109318 -0.346606 -0.544 194 146 126
0.117 -0.34788 -0.546 191 135 120
0.15252 -0.36572 -0.574 125 85 83
0.15826 -0.368906 -0.579 123 85 84
0.200269 -0.386109 -0.606 100 109 148
0.212966 -0.386109 -0.606 171 171 183
0.224509 -0.386109 -0.606 182 180 201
0.243729 -0.385471 -0.605 160 173 217
0.42024 -0.389931 -0.612 250 255 251
0.426069 -0.389931 -0.612 251 249 250
0.441944 -0.390569 -0.613 209 215 247
0.446173 -0.391206 -0.614 185 199 234
0.481653 -0.39248 -0.616 223 217 227
0.489867 -0.39248 -0.616 218 226 237
0.491837 -0.393117 -0.617 220 228 239
0.496538 -0.393117 -0.617 215 217 229
0.500874 -0.393754 -0.618 166 169 184
0.487129 -0.356163 -0.559 180 147 138
0.478051 -0.342783 -0.538 194 156 137
0.48013 -0.337049 -0.529 196 153 134
0.482417 -0.335137 -0.526 201 159 137
0.486819 -0.331314 -0.52 198 156 134
0.503706 -0.329403 -0.517 174 133 111
0.51058 -0.331951 -0.521 171 130 108
0.0777514 -0.370009 -0.579 202 158 145
0.0820886 -0.350837 -0.549 200 157 140
0.0927391 -0.347642 -0.544 200 152 132
0.133628 -0.357228 -0.559 138 90 78
0.193855 -0.385985 -0.604 83 100 154
0.219529 -0.386624 -0.605 109 105 120
0.224138 -0.386624 -0.605 166 164 185
0.226443 -0.386624 -0.605 174 175 195
0.232205 -0.386624 -0.605 188 189 207
0.416062 -0.390458 -0.611 217 225 238
0.439609 -0.391736 -0.613 228 239 255
0.443111 -0.391736 -0.613 197 215 253
0.4715 -0.393014 -0.615 242 241 249
0.495363 -0.394292 -0.617 222 219 226
0.500064 -0.394292 -0.617 195 195 205
0.510987 -0.393653 -0.616 83 115 166
0.4788 -0.345086 -0.54 189 153 137
0.47767 -0.340612 -0.533 199 158 140
0.478911 -0.339334 -0.531 201 160 140
0.48013 -0.338056 -0.529 195 154 134
0.481415 -0.336139 -0.526 198 156 134
0.48372 -0.333583 -0.522 199 156 137
0.486819 -0.332305 -0.52 198 155 136
0.48786 -0.331666 -0.519 194 151 132
0.49192 -0.329749 -0.516 191 148 129
0.50862 -0.331666 -0.519 170 132 111
0.519488 -0.336139 -0.526 163 125 106
0.09774 -0.348037 -0.543 193 145 125
0.0998086 -0.348037 -0.543 196 148 128
0.103946 -0.348037 -0.543 200 149 130
0.107049 -0.348037 -0.543 198 147 130
0.118472 -0.351242 -0.548 173 121 99
0.12078 -0.351883 -0.549 164 112 90
0.129967 -0.35701 -0.557 140 90 79
0.139367 -0.362138 -0.565 133 86 76
0.187791 -0.386494 -0.603 28 42 87
0.198457 -0.387135 -0.604 34 47 92
0.216071 -0.387776 -0.605 150 147 164
0.218376 -0.387776 -0.605 119 117 131
0.234122 -0.387135 -0.604 191 194 213
0.425372 -0.391622 -0.611 249 250 254
0.426536 -0.391622 -0.611 246 247 251
0.4277 -0.391622 -0.611 253 250 255
0.431191 -0.391622 -0.611 201 200 208
0.447782 -0.392904 -0.613 123 159 211
0.476186 -0.394186 -0.615 223 226 241
0.4797 -0.394186 -0.615 205 210 229
0.483214 -0.394186 -0.615 165 170 189
0.484386 -0.394186 -0.615 193 198 217
0.490243 -0.394186 -0.615 221 220 234
0.504765 -0.395468 -0.617 96 114 164
0.510987 -0.394827 -0.616 86 117 174
0.4988 -0.371752 -0.58 171 142 138
0.496457 -0.369189 -0.576 175 142 135
0.491072 -0.362779 -0.566 175 145 137
0.484882 -0.355088 -0.554 182 148 138
0.477424 -0.34291 -0.535 193 154 137
0.480413 -0.337141 -0.526 200 158 136
0.482579 -0.335859 -0.524 194 152 130
0.486871 -0.332654 -0.519 197 154 135
0.48692 -0.332013 -0.518 194 151 132
0.488934 -0.331372 -0.517 194 151 132
0.49391 -0.33009 -0.515 188 147 125
0.516525 -0.335218 -0.523 163 126 107
0.5195 -0.3365 -0.525 162 125 106
0.0946371 -0.349071 -0.543 198 150 130
0.0967057 -0.349071 -0.543 200 151 134
0.0987743 -0.349071 -0.543 198 150 130
0.107049 -0.349071 -0.543 196 145 128
0.108083 -0.349071 -0.543 196 144 130
0.111186 -0.349071 -0.543 196 144 130
0.113463 -0.349714 -0.544 189 136 118
0.135174 -0.360643 -0.561 136 89 79
0.207661 -0.388286 -0.604 160 161 181
0.220316 -0.388286 -0.604 93 92 108
0.224546 -0.387643 -0.603 142 144 159
0.226843 -0.387643 -0.603 158 160 175
0.227991 -0.387643 -0.603 182 184 199
0.236031 -0.387643 -0.603 195 196 217
0.423514 -0.392143 -0.61 246 251 255
0.44283 -0.392786 -0.611 168 199 246
0.445886 -0.393429 -0.612 121 158 213
0.459458 -0.394071 -0.613 135 154 196
0.470733 -0.394714 -0.614 240 235 239
0.484386 -0.395357 -0.615 180 185 207
0.4879 -0.395357 -0.615 196 199 218
0.49456 -0.396 -0.616 176 168 166
0.4988 -0.372857 -0.58 169 144 139
0.4788 -0.347143 -0.54 189 150 135
0.4805 -0.3375 -0.525 200 158 134
0.48372 -0.335571 -0.522 196 154 132
0.490967 -0.331071 -0.515 190 149 129
0.498831 -0.329786 -0.513 178 140 117
0.525473 -0.340071 -0.529 160 128 107
0.0770571 -0.359777 -0.558 207 160 144
0.0954952 -0.349461 -0.542 197 150 130
0.09756 -0.349461 -0.542 198 149 132
0.108083 -0.350106 -0.543 193 144 129
0.110151 -0.350106 -0.543 196 145 126
0.151954 -0.371383 -0.576 122 83 84
0.211911 -0.388791 -0.603 163 164 184
0.216865 -0.389436 -0.604 141 139 160
0.220316 -0.389436 -0.604 110 109 125
0.437457 -0.393305 -0.61 116 134 180
0.446321 -0.39395 -0.611 101 137 195
0.460626 -0.395239 -0.613 193 209 243
0.467225 -0.395884 -0.614 189 187 190
0.469564 -0.395884 -0.614 230 221 226
0.472302 -0.395239 -0.613 234 232 237
0.48009 -0.395884 -0.614 175 179 206
0.484768 -0.395884 -0.614 181 185 210
0.490615 -0.395884 -0.614 194 193 199
0.496907 -0.397173 -0.616 208 198 197
0.49808 -0.397173 -0.616 217 207 206
0.5016 -0.397173 -0.616 201 203 226
0.480274 -0.35075 -0.544 190 151 136
0.47767 -0.343658 -0.533 195 154 136
0.4805 -0.3385 -0.525 201 159 134
0.481801 -0.335921 -0.521 200 156 129
0.60565 -0.384278 -0.596 200 196 195
0.0779057 -0.35502 -0.549 203 160 141
0.0954952 -0.350493 -0.542 198 152 129
0.09756 -0.350493 -0.542 196 150 127
0.12227 -0.356313 -0.551 148 97 80
0.136971 -0.36472 -0.564 135 88 78
0.14094 -0.36666 -0.567 130 87 80
0.143857 -0.3686 -0.57 125 84 78
0.150595 -0.371833 -0.575 122 83 78
0.183734 -0.388647 -0.601 29 42 86
0.200426 -0.38994 -0.603 139 153 190
0.201574 -0.38994 -0.603 150 157 186
0.213853 -0.389293 -0.602 149 148 166
0.218803 -0.38994 -0.603 143 142 160
0.2211 -0.38994 -0.603 109 111 124
0.22188 -0.389293 -0.602 109 111 123
0.223027 -0.389293 -0.602 136 138 150
0.229907 -0.389293 -0.602 193 195 210
0.442105 -0.394467 -0.61 101 140 195
0.462206 -0.39576 -0.612 225 232 242
0.465296 -0.396407 -0.613 237 233 234
0.481643 -0.396407 -0.613 175 179 204
0.483598 -0.397053 -0.614 191 193 214
0.494929 -0.3977 -0.615 210 198 198
0.497271 -0.3977 -0.615 223 214 215
0.479411 -0.340147 -0.526 201 159 135
0.481867 -0.336267 -0.52 197 156 128
0.489986 -0.333033 -0.515 195 155 129
0.491971 -0.332387 -0.514 189 147 122
0.491991 -0.33174 -0.513 194 152 127
0.496887 -0.330447 -0.511 185 145 120
0.515543 -0.336267 -0.52 165 133 110
0.0740571 -0.373577 -0.576 198 155 138
0.0882686 -0.351526 -0.542 201 155 132
0.095319 -0.350877 -0.541 199 153 127
0.10169 -0.351526 -0.542 201 153 130
0.104787 -0.351526 -0.542 205 157 134
0.135656 -0.365146 -0.563 133 86 76
0.136971 -0.365794 -0.564 134 87 77
0.139613 -0.367091 -0.566 132 88 79
0.150857 -0.373577 -0.576 122 83 76
0.154114 -0.376171 -0.58 122 82 80
0.178857 -0.389143 -0.6 64 78 107
0.1978 -0.39044 -0.602 44 61 105
0.203533 -0.39044 -0.602 165 171 193
0.21156 -0.39044 -0.602 173 174 192
0.216147 -0.39044 -0.602 181 179 200
0.44559 -0.395629 -0.61 102 137 195
0.483978 -0.397574 -0.613 212 213 231
0.494124 -0.398223 -0.614 225 220 217
0.497271 -0.398871 -0.615 222 216 220
0.498443 -0.398871 -0.615 214 210 227
0.5043 -0.398871 -0.615 82 103 146
0.505819 -0.398223 -0.614 60 92 151
0.505737 -0.383954 -0.592 173 139 137
0.49215 -0.367091 -0.566 174 144 134
0.479816 -0.337906 -0.521 200 158 133
0.481929 -0.336609 -0.519 198 156 131
0.48504 -0.334663 -0.516 190 148 123
0.491991 -0.332717 -0.513 191 149 124
0.492993 -0.33142 -0.511 183 141 117
0.0870752 -0.351908 -0.541 198 151 131
0.095319 -0.351908 -0.541 198 151 123
0.0963495 -0.351908 -0.541 201 154 124
0.119734 -0.357111 -0.549 157 101 86
0.139613 -0.36817 -0.566 132 85 77
0.175136 -0.389635 -0.599 62 70 89
0.178857 -0.390286 -0.6 65 70 89
0.220367 -0.390936 -0.601 165 167 179
0.222656 -0.390936 -0.601 137 140 145
0.236393 -0.390936 -0.601 196 202 224
0.429074 -0.39549 -0.608 246 247 249
0.44718 -0.39614 -0.609 108 139 196
0.498802 -0.399392 -0.614 213 211 224
0.477408 -0.34215 -0.526 200 158 134
0.478895 -0.338248 -0.52 200 158 133
0.479886 -0.338248 -0.52 198 156 131
0.488055 -0.334345 -0.514 197 155 131
0.492008 -0.333044 -0.512 189 144 121
0.492029 -0.331743 -0.51 189 144 121
0.495911 -0.331092 -0.509 183 142 122
0.508615 -0.334345 -0.514 168 133 113
0.0800095 -0.35359 -0.542 203 161 139
0.0870752 -0.352938 -0.541 201 156 133
0.0930857 -0.352286 -0.54 198 156 132
0.0951429 -0.352286 -0.54 197 155 131
0.107884 -0.35359 -0.542 192 142 119
0.125046 -0.361419 -0.554 146 97 83
0.143857 -0.371857 -0.57 131 87 76
0.148405 -0.375119 -0.575 129 85 76
0.178857 -0.391429 -0.6 95 94 108
0.185405 -0.390776 -0.599 50 82 141
0.203195 -0.392081 -0.601 159 167 190
0.205485 -0.392081 -0.601 169 172 189
0.212353 -0.392081 -0.601 174 177 196
0.214286 -0.391429 -0.6 180 179 197
0.223429 -0.391429 -0.6 184 187 192
0.226857 -0.391429 -0.6 191 197 209
0.422588 -0.395995 -0.607 216 211 215
0.439497 -0.396648 -0.608 180 204 252
0.44834 -0.3973 -0.609 109 141 202
0.464942 -0.398605 -0.611 239 241 253
0.466106 -0.398605 -0.611 247 244 251
0.468433 -0.398605 -0.611 224 219 223
0.472697 -0.399257 -0.612 238 236 241
0.501492 -0.39991 -0.613 104 131 161
0.50266 -0.39991 -0.613 120 147 177
0.508498 -0.39991 -0.613 86 117 184
0.511166 -0.399257 -0.612 56 91 145
0.49541 -0.37251 -0.571 172 143 137
0.481157 -0.355548 -0.545 181 147 135
0.4788 -0.352286 -0.54 184 151 136
0.477108 -0.34511 -0.529 199 158 138
0.4775 -0.3425 -0.525 198 156 132
0.477589 -0.341848 -0.524 197 157 132
0.479027 -0.337933 -0.518 199 157 132
0.480071 -0.337281 -0.517 196 154 129
0.481109 -0.336629 -0.516 194 152 127
0.487106 -0.334671 -0.513 196 154 129
0.502714 -0.332714 -0.51 172 134 111
0.518514 -0.339238 -0.52 163 127 105
0.0838286 -0.353314 -0.54 202 157 136
0.0869143 -0.353314 -0.54 201 156 133
0.0929133 -0.35266 -0.539 201 157 132
0.09394 -0.35266 -0.539 200 155 132
0.0949667 -0.35266 -0.539 199 154 131
0.106851 -0.354623 -0.542 195 144 123
0.107884 -0.354623 -0.542 188 138 115
0.108916 -0.354623 -0.542 183 133 110
0.133037 -0.367054 -0.561 139 93 80
0.142771 -0.372943 -0.57 129 86 80
0.15002 -0.377523 -0.577 123 81 82
0.172566 -0.391263 -0.598 74 79 109
0.180841 -0.391917 -0.599 94 103 120
0.194532 -0.391917 -0.599 155 155 191
0.195673 -0.391917 -0.599 160 164 193
0.209714 -0.392571 -0.6 177 180 195
0.213143 -0.392571 -0.6 182 180 193
0.216571 -0.392571 -0.6 185 187 200
0.222286 -0.392571 -0.6 183 186 195
0.435306 -0.397151 -0.607 221 236 255
0.438774 -0.397151 -0.607 197 219 255
0.45066 -0.39846 -0.609 119 150 197
0.463019 -0.399114 -0.61 238 241 255
0.464181 -0.399114 -0.61 242 245 255
0.465343 -0.399114 -0.61 244 242 253
0.469597 -0.399769 -0.611 202 200 205
0.474252 -0.399769 -0.611 234 234 242
0.479691 -0.400423 -0.612 220 222 234
0.492514 -0.400423 -0.612 219 219 227
0.504995 -0.401077 -0.613 172 187 220
0.487508 -0.364437 -0.557 176 144 133
0.485937 -0.362474 -0.554 176 142 130
0.500759 -0.333031 -0.509 176 134 109
0.518506 -0.339574 -0.519 166 128 107
0.0725143 -0.370091 -0.564 194 153 135
0.07602 -0.356311 -0.543 201 156 137
0.0857267 -0.353687 -0.539 202 157 134
0.08778 -0.353687 -0.539 201 157 132
0.0929133 -0.353687 -0.539 200 154 130
0.112427 -0.356968 -0.544 170 115 94
0.113671 -0.357624 -0.545 167 112 91
0.122491 -0.362217 -0.552 150 98 84
0.123767 -0.362873 -0.553 150 98 84
0.1302 -0.366154 -0.558 144 95 81
0.137214 -0.370748 -0.565 137 90 82
0.168866 -0.391746 -0.597 51 54 85
0.170288 -0.392402 -0.598 47 50 81
0.171427 -0.392402 -0.598 54 59 89
0.172566 -0.392402 -0.598 91 96 126
0.186546 -0.393058 -0.599 55 80 134
0.188512 -0.392402 -0.598 60 87 142
0.193069 -0.392402 -0.598 143 147 182
0.21507 -0.393058 -0.599 187 186 200
0.427663 -0.397651 -0.606 223 225 238
0.466505 -0.400276 -0.61 240 240 250
0.468829 -0.400276 -0.61 238 236 247
0.482399 -0.400932 -0.611 228 226 237
0.483563 -0.400932 -0.611 230 228 239
0.492514 -0.401589 -0.612 229 228 233
0.49368 -0.401589 -0.612 212 214 227
0.494846 -0.401589 -0.612 212 214 227
0.505337 -0.401589 -0.612 176 186 211
0.506503 -0.401589 -0.612 176 186 211
0.507669 -0.401589 -0.612 137 164 209
0.488383 -0.366154 -0.558 173 143 133
0.477673 -0.343188 -0.523 197 157 132
0.477831 -0.341875 -0.521 201 159 135
0.481157 -0.337938 -0.515 197 155 130
0.481202 -0.337282 -0.514 198 156 131
0.493002 -0.333345 -0.508 190 146 119
0.508587 -0.33597 -0.512 166 128 107
0.0725448 -0.365901 -0.556 197 156 136
0.0735886 -0.360636 -0.548 204 157 137
0.07436 -0.35932 -0.546 204 157 137
0.07602 -0.357346 -0.543 201 156 137
0.0769124 -0.356688 -0.542 201 156 137
0.0990733 -0.354713 -0.539 199 151 128
0.137214 -0.371824 -0.565 138 90 80
0.141437 -0.374456 -0.569 123 85 82
0.147566 -0.379063 -0.576 114 84 84
0.187373 -0.393541 -0.598 74 94 144
0.195347 -0.393541 -0.598 162 164 189
0.222684 -0.393541 -0.598 193 199 213
0.223823 -0.393541 -0.598 193 199 213
0.448024 -0.399464 -0.607 155 183 231
0.472314 -0.401438 -0.61 238 236 247
0.473476 -0.401438 -0.61 238 236 247
0.482399 -0.402096 -0.611 228 226 237
0.506839 -0.402096 -0.611 137 160 202
0.508333 -0.401438 -0.61 91 124 178
0.485234 -0.363269 -0.552 176 146 136
0.483643 -0.361294 -0.549 179 146 137
0.479829 -0.355371 -0.54 182 150 137
0.477831 -0.342868 -0.521 199 157 133
0.499757 -0.333654 -0.507 178 138 112
0.502678 -0.334312 -0.508 171 131 106
0.517492 -0.340235 -0.517 162 127 107
0.0865924 -0.35508 -0.538 203 157 134
0.0886419 -0.35508 -0.538 202 156 133
0.09684 -0.35508 -0.538 199 153 129
0.101127 -0.35574 -0.539 198 150 128
0.11492 -0.36036 -0.546 161 108 90
0.117429 -0.36168 -0.548 158 105 89
0.135897 -0.37224 -0.564 139 91 81
0.138535 -0.37356 -0.566 131 88 82
0.141686 -0.3762 -0.57 126 88 85
0.147566 -0.38016 -0.576 113 84 86
0.170003 -0.39402 -0.597 97 104 133
0.17114 -0.39402 -0.597 118 122 147
0.176826 -0.39402 -0.597 123 128 150
0.189334 -0.39402 -0.597 66 90 134
0.190471 -0.39402 -0.597 80 99 142
0.199903 -0.39468 -0.598 99 113 150
0.42811 -0.3993 -0.605 153 165 187
0.456117 -0.40062 -0.607 235 242 255
0.462659 -0.40128 -0.608 167 178 200
0.47038 -0.40194 -0.609 239 239 251
0.489743 -0.4026 -0.61 176 171 177
0.495201 -0.40326 -0.611 118 137 170
0.503348 -0.40326 -0.611 200 205 224
0.50601 -0.4026 -0.61 121 139 179
0.489258 -0.36894 -0.559 174 144 136
0.485234 -0.36432 -0.552 178 145 136
0.478316 -0.35376 -0.536 189 151 132
0.477549 -0.35244 -0.534 190 152 133
0.477831 -0.34386 -0.521 197 156 134
0.477905 -0.3432 -0.52 199 157 133
0.479143 -0.34056 -0.516 201 159 135
0.496844 -0.33396 -0.506 178 139 108
0.497808 -0.33396 -0.506 175 136 105
0.507571 -0.3366 -0.51 167 130 104
0.0725448 -0.362724 -0.548 202 157 136
0.0731857 -0.360738 -0.545 204 159 138
0.07588 -0.358752 -0.542 188 143 122
0.0896667 -0.356105 -0.538 202 156 132
0.0906914 -0.356105 -0.538 202 156 132
0.108916 -0.358752 -0.542 177 126 105
0.110151 -0.359414 -0.543 180 125 105
0.119952 -0.364048 -0.55 157 104 90
0.127615 -0.368019 -0.556 148 96 85
0.133037 -0.371329 -0.561 139 91 79
0.169718 -0.394495 -0.596 118 125 151
0.1788 -0.394495 -0.596 76 79 114
0.190152 -0.394495 -0.596 80 98 144
0.204117 -0.395157 -0.597 83 100 130
0.211293 -0.395819 -0.598 180 177 196
0.214351 -0.395157 -0.597 141 140 154
0.46845 -0.402438 -0.608 238 242 254
0.4785 -0.4031 -0.609 220 220 232
0.483933 -0.403762 -0.61 228 228 240
0.492873 -0.404424 -0.611 153 159 175
0.495201 -0.404424 -0.611 100 119 151
0.50601 -0.403762 -0.61 124 140 176
0.508333 -0.403762 -0.61 107 125 171
0.476206 -0.349486 -0.528 194 155 138
0.479289 -0.339557 -0.513 197 155 133
0.485207 -0.338233 -0.511 197 152 129
0.488143 -0.337571 -0.51 196 151 128
0.510513 -0.338233 -0.511 161 123 100
0.0724124 -0.363104 -0.547 202 157 136
0.0730514 -0.361112 -0.544 203 158 137
0.08234 -0.356466 -0.537 202 157 134
0.0915457 -0.356466 -0.537 201 155 131
0.0946143 -0.356466 -0.537 199 153 129
0.116172 -0.363104 -0.547 163 107 90
0.122491 -0.366423 -0.552 155 101 89
0.126329 -0.368414 -0.555 148 96 85
0.168583 -0.39563 -0.596 116 123 142
0.208666 -0.396294 -0.597 160 161 181
0.432004 -0.400941 -0.604 247 247 255
0.448852 -0.401605 -0.605 159 181 218
0.469608 -0.403596 -0.608 232 235 250
0.475398 -0.403596 -0.608 230 232 245
0.48314 -0.40426 -0.609 229 229 241
0.489743 -0.404924 -0.61 217 212 219
0.503686 -0.404924 -0.61 179 186 205
0.5075 -0.40426 -0.609 109 128 170
0.493229 -0.375716 -0.566 177 142 136
0.491687 -0.373725 -0.563 178 144 135
0.480573 -0.359785 -0.542 182 146 132
0.476206 -0.350491 -0.528 193 154 137
0.482255 -0.33987 -0.512 198 153 132
0.488155 -0.337879 -0.509 193 151 126
0.490099 -0.337215 -0.508 186 144 119
0.4968 -0.33456 -0.504 177 137 111
0.504586 -0.336551 -0.507 171 131 106
0.517452 -0.341862 -0.515 162 126 104
0.0903543 -0.356823 -0.536 202 156 132
0.0935914 -0.357489 -0.537 199 153 130
0.12122 -0.366809 -0.551 158 101 90
0.13878 -0.37746 -0.567 128 87 83
0.145119 -0.382786 -0.575 119 87 88
0.171989 -0.396766 -0.596 134 135 155
0.20491 -0.396766 -0.596 94 108 135
0.215128 -0.396766 -0.596 138 144 170
0.450005 -0.402757 -0.605 167 186 218
0.466523 -0.404089 -0.607 231 233 248
0.477714 -0.404754 -0.608 174 173 187
0.48003 -0.404754 -0.608 221 220 234
0.5002 -0.406086 -0.61 209 212 227
0.501362 -0.406086 -0.61 208 211 228
0.50286 -0.40542 -0.609 186 193 211
0.480573 -0.360817 -0.542 182 144 131
0.47767 -0.354826 -0.533 187 148 133
0.476206 -0.351497 -0.528 192 153 138
0.475847 -0.346837 -0.521 192 151 133
0.477233 -0.342843 -0.515 199 156 137
0.478214 -0.342843 -0.515 201 158 139
0.4968 -0.33552 -0.504 180 143 117
0.502627 -0.336851 -0.506 177 140 114
0.0679762 -0.38121 -0.571 201 154 136
0.0745714 -0.360514 -0.54 202 161 131
0.0782486 -0.358511 -0.537 202 157 136
0.0792714 -0.358511 -0.537 203 158 137
0.0802943 -0.358511 -0.537 203 158 137
0.0832076 -0.357844 -0.536 201 156 135
0.0903543 -0.357844 -0.536 200 153 133
0.0923962 -0.357844 -0.536 201 153 130
0.09648 -0.357844 -0.536 196 148 125
0.104207 -0.359847 -0.539 182 130 108
0.130433 -0.373199 -0.559 145 96 89
0.173967 -0.397233 -0.595 144 141 168
0.187567 -0.397233 -0.595 90 108 154
0.1887 -0.397233 -0.595 78 96 142
0.1955 -0.397233 -0.595 170 177 196
0.203433 -0.397233 -0.595 124 135 163
0.2057 -0.397233 -0.595 79 98 128
0.211367 -0.397233 -0.595 135 135 161
0.214767 -0.397233 -0.595 122 133 165
0.440477 -0.402574 -0.603 175 195 230
0.4646 -0.404577 -0.606 176 179 196
0.4959 -0.40658 -0.609 199 206 216
0.506667 -0.405912 -0.608 123 144 187
0.498013 -0.383213 -0.574 169 140 132
0.478316 -0.357844 -0.536 189 150 135
0.476252 -0.343824 -0.515 195 153 131
0.478265 -0.343156 -0.514 199 157 135
0.49773 -0.335812 -0.503 181 137 112
0.0693676 -0.372255 -0.556 196 156 144
0.095459 -0.358865 -0.536 200 152 129
0.0985219 -0.358865 -0.536 190 139 118
0.101964 -0.360204 -0.538 189 137 116
0.12122 -0.368908 -0.551 155 102 88
0.1406 -0.381629 -0.57 119 83 83
0.142183 -0.382968 -0.572 120 85 83
0.162087 -0.397028 -0.593 104 103 134
0.18612 -0.397697 -0.594 110 116 150
0.207617 -0.397697 -0.594 100 115 148
0.416813 -0.403053 -0.602 203 218 239
0.41796 -0.403053 -0.602 199 214 235
0.419107 -0.403053 -0.602 194 204 229
0.428991 -0.403723 -0.603 212 210 215
0.450411 -0.404392 -0.604 189 209 242
0.455013 -0.404392 -0.604 245 248 255
0.49856 -0.40707 -0.608 205 211 225
0.505833 -0.406401 -0.607 116 144 181
0.48308 -0.36556 -0.546 180 143 134
0.475997 -0.347483 -0.519 194 151 132
0.476307 -0.344135 -0.514 198 158 133
0.48034 -0.342127 -0.511 197 157 132
0.511424 -0.340788 -0.509 161 125 103
0.520395 -0.344805 -0.515 158 123 103
0.0725143 -0.362571 -0.54 202 155 135
0.0762029 -0.360557 -0.537 202 157 134
0.0801448 -0.359886 -0.536 204 158 135
0.0861095 -0.359214 -0.535 207 159 136
0.0985219 -0.359886 -0.536 190 139 118
0.108715 -0.363243 -0.541 178 123 102
0.109949 -0.363914 -0.542 180 122 102
0.12399 -0.371971 -0.554 151 99 88
0.131969 -0.376671 -0.561 140 93 85
0.140847 -0.383386 -0.571 115 83 84
0.169149 -0.398829 -0.594 133 132 150
0.17028 -0.398829 -0.594 137 136 154
0.189195 -0.398157 -0.593 85 103 139
0.192909 -0.398829 -0.594 160 171 199
0.196303 -0.398829 -0.594 164 173 178
0.443923 -0.404871 -0.603 193 211 247
0.457314 -0.405543 -0.604 225 228 235
0.464986 -0.406214 -0.605 178 186 207
0.468443 -0.406214 -0.605 169 183 218
0.473834 -0.406886 -0.606 220 230 255
0.495086 -0.408229 -0.608 186 190 201
0.502365 -0.407557 -0.607 161 165 174
0.509929 -0.406214 -0.605 165 169 194
0.497368 -0.384057 -0.572 171 138 129
0.476889 -0.356529 -0.531 185 148 132
0.474854 -0.349814 -0.521 194 153 135
0.476132 -0.347129 -0.517 201 159 137
0.479367 -0.3431 -0.511 195 153 129
0.483308 -0.341757 -0.509 187 145 120
0.498653 -0.337057 -0.502 179 134 111
0.507446 -0.339743 -0.506 168 127 107
0.0694133 -0.368987 -0.548 200 159 141
0.07238 -0.362927 -0.539 204 159 136
0.0849314 -0.35956 -0.534 205 159 135
0.095281 -0.360233 -0.535 197 149 126
0.106457 -0.3636 -0.54 185 130 109
0.113671 -0.366967 -0.545 169 112 93
0.129137 -0.37572 -0.558 143 93 84
0.141093 -0.385147 -0.572 114 84 86
0.166605 -0.399287 -0.593 132 133 151
0.169993 -0.399287 -0.593 142 139 156
0.185807 -0.399287 -0.593 97 109 149
0.189195 -0.399287 -0.593 81 99 137
0.433292 -0.404673 -0.601 216 215 223
0.443187 -0.405347 -0.602 182 200 238
0.455409 -0.40602 -0.603 226 229 236
0.458465 -0.406693 -0.604 242 243 248
0.460766 -0.406693 -0.604 243 243 253
0.467669 -0.406693 -0.604 131 149 187
0.477297 -0.40804 -0.606 142 159 189
0.486178 -0.408713 -0.607 123 142 182
0.48849 -0.408713 -0.607 108 134 171
0.502691 -0.40804 -0.606 120 141 184
0.507624 -0.407367 -0.605 150 169 211
0.501629 -0.39188 -0.582 170 142 131
0.494307 -0.381107 -0.566 173 143 132
0.474854 -0.350807 -0.521 194 153 135
0.484314 -0.340707 -0.506 191 147 122
0.490066 -0.338687 -0.503 195 151 126
0.494797 -0.33734 -0.501 186 144 120
0.0732705 -0.363278 -0.538 203 162 134
0.089 -0.360577 -0.534 201 154 128
0.100751 -0.362603 -0.537 191 139 115
0.102989 -0.363278 -0.538 190 136 112
0.105233 -0.363953 -0.539 188 134 110
0.111186 -0.366654 -0.543 177 120 101
0.112427 -0.36733 -0.544 174 117 100
0.116172 -0.369355 -0.547 166 110 97
0.12017 -0.372056 -0.551 157 105 92
0.133511 -0.380159 -0.563 134 94 86
0.169707 -0.399741 -0.592 143 139 154
0.183238 -0.399741 -0.592 101 113 155
0.195642 -0.399741 -0.592 168 175 185
0.19677 -0.399741 -0.592 169 176 186
0.197897 -0.399741 -0.592 169 176 192
0.417714 -0.405143 -0.6 132 154 203
0.421143 -0.405143 -0.6 216 231 255
0.456557 -0.407169 -0.603 235 238 245
0.485377 -0.409194 -0.606 99 125 174
0.503014 -0.408519 -0.605 109 130 173
0.505319 -0.408519 -0.605 118 148 186
0.499749 -0.388937 -0.576 170 142 130
0.474594 -0.353825 -0.524 194 156 137
0.473862 -0.351799 -0.521 196 155 137
0.479367 -0.345047 -0.511 197 155 131
0.481369 -0.343696 -0.509 195 153 128
0.508367 -0.340995 -0.505 169 131 108
0.523338 -0.347748 -0.515 159 123 101
0.0749 -0.362271 -0.535 199 154 131
0.0828971 -0.361594 -0.534 204 158 135
0.0995429 -0.362949 -0.536 189 139 114
0.100564 -0.362949 -0.536 190 138 114
0.12017 -0.373106 -0.551 157 105 94
0.12144 -0.373783 -0.552 156 104 93
0.125271 -0.375814 -0.555 146 97 90
0.133511 -0.381231 -0.563 132 93 86
0.135062 -0.382586 -0.565 127 88 81
0.155648 -0.399514 -0.59 33 39 71
0.161813 -0.400869 -0.592 123 126 145
0.165196 -0.400869 -0.592 138 137 153
0.168579 -0.400869 -0.592 146 139 155
0.171962 -0.400869 -0.592 130 128 150
0.174217 -0.400869 -0.592 73 88 127
0.194514 -0.400869 -0.592 170 169 187
0.199025 -0.400869 -0.592 171 179 192
0.410172 -0.405609 -0.599 138 164 221
0.42 -0.406286 -0.6 198 214 240
0.422286 -0.406286 -0.6 244 246 255
0.460387 -0.40764 -0.602 240 240 248
0.474571 -0.408994 -0.604 138 165 212
0.492303 -0.410349 -0.606 214 219 222
0.493457 -0.410349 -0.606 218 221 228
0.4912 -0.3792 -0.56 173 141 128
0.475304 -0.356854 -0.527 186 149 131
0.474594 -0.354823 -0.524 194 156 137
0.477379 -0.346697 -0.512 198 156 134
0.47742 -0.34602 -0.511 200 158 136
0.478393 -0.34602 -0.511 198 156 134
0.490048 -0.339926 -0.502 193 148 125
0.516271 -0.344666 -0.509 169 125 100
0.523301 -0.348051 -0.514 161 124 98
0.0673257 -0.372118 -0.548 201 159 135
0.0695571 -0.367365 -0.541 203 156 136
0.0878181 -0.361932 -0.533 202 154 131
0.102989 -0.365328 -0.538 191 136 115
0.126556 -0.37755 -0.556 145 96 89
0.128074 -0.378909 -0.558 143 94 89
0.1309 -0.380946 -0.561 140 91 84
0.135301 -0.384341 -0.566 124 87 81
0.162941 -0.401996 -0.592 131 130 148
0.197563 -0.401317 -0.591 175 181 193
0.44703 -0.408108 -0.601 176 200 236
0.4558 -0.408787 -0.602 245 245 253
0.460387 -0.408787 -0.602 243 243 251
0.46612 -0.408787 -0.602 134 158 196
0.482271 -0.410824 -0.605 76 115 182
0.485729 -0.410824 -0.605 97 128 182
0.5074 -0.408787 -0.602 92 118 169
0.4761 -0.359216 -0.529 189 152 133
0.478429 -0.346314 -0.51 196 154 130
0.482387 -0.343598 -0.506 200 155 132
0.482395 -0.342919 -0.505 197 152 129
0.490026 -0.340203 -0.501 193 149 124
0.497619 -0.339524 -0.5 182 140 116
0.498571 -0.339524 -0.5 181 137 112
0.502431 -0.340203 -0.501 176 132 107
