ply
format ascii 1.0
comment Created by Open3D
element vertex 1293
property double x
property double y
property double z
property uchar red
property uchar green
property uchar blue
end_header
0.36668 -0.311754 -0.534 174 110 100
0.374817 -0.311754 -0.534 192 125 116
0.0952429 -0.330929 -0.565 190 141 134
0.113397 -0.327414 -0.559 188 135 127
0.114462 -0.327414 -0.559 187 134 126
0.12276 -0.326829 -0.558 176 123 109
0.123823 -0.326829 -0.558 175 122 108
0.129369 -0.327414 -0.559 170 121 106
0.146082 -0.331514 -0.566 142 89 81
0.14742 -0.3321 -0.567 142 89 81
0.153359 -0.333271 -0.569 144 91 83
0.170902 -0.337957 -0.577 128 83 78
0.182987 -0.342057 -0.584 124 80 77
0.184414 -0.342643 -0.585 122 78 75
0.225697 -0.364314 -0.622 123 121 143
0.234367 -0.3649 -0.623 170 168 190
0.252947 -0.364314 -0.622 81 102 165
0.338684 -0.315114 -0.538 189 142 134
0.348437 -0.311014 -0.531 186 136 127
0.36024 -0.3116 -0.532 161 101 90
0.361932 -0.312186 -0.533 151 91 80
0.369039 -0.312186 -0.533 163 99 89
0.379191 -0.312186 -0.533 197 140 131
0.0894943 -0.347283 -0.591 194 144 135
0.102049 -0.329654 -0.561 193 143 134
0.109138 -0.328479 -0.559 192 140 129
0.111268 -0.328479 -0.559 192 139 131
0.112131 -0.327891 -0.558 192 139 131
0.119357 -0.327304 -0.557 183 131 120
0.124886 -0.327891 -0.558 175 123 109
0.135174 -0.329654 -0.561 155 103 89
0.138873 -0.33083 -0.563 151 99 88
0.141269 -0.331417 -0.564 147 93 83
0.149844 -0.333768 -0.568 144 90 80
0.158526 -0.336118 -0.572 133 83 74
0.159894 -0.336706 -0.573 132 82 73
0.165929 -0.337881 -0.575 132 85 77
0.190809 -0.347283 -0.591 121 80 78
0.198764 -0.351396 -0.598 121 81 79
0.235175 -0.365499 -0.622 181 179 203
0.247023 -0.365499 -0.622 109 134 191
0.253723 -0.364911 -0.621 95 124 184
0.256089 -0.364911 -0.621 126 152 209
0.338729 -0.319077 -0.543 186 143 137
0.33726 -0.316727 -0.539 189 144 138
0.336404 -0.314964 -0.536 189 144 138
0.347125 -0.31085 -0.529 196 144 133
0.34914 -0.31085 -0.529 187 137 128
0.358551 -0.312026 -0.531 193 136 125
0.368347 -0.312613 -0.532 154 94 84
0.382533 -0.312613 -0.532 185 131 121
0.0929257 -0.332491 -0.564 195 144 141
0.110006 -0.328954 -0.558 193 140 132
0.116174 -0.328365 -0.557 185 133 122
0.12276 -0.328954 -0.558 179 127 114
0.135174 -0.330723 -0.561 153 100 86
0.141269 -0.332491 -0.564 146 92 82
0.157436 -0.337208 -0.572 134 84 75
0.163738 -0.338976 -0.575 132 83 76
0.167314 -0.339566 -0.576 131 82 75
0.174 -0.341924 -0.58 127 82 76
0.177926 -0.343103 -0.582 122 79 73
0.180762 -0.344282 -0.584 127 83 80
0.18536 -0.34664 -0.588 122 81 77
0.199429 -0.353714 -0.6 121 83 82
0.232806 -0.366684 -0.622 180 179 197
0.246626 -0.366094 -0.621 125 150 206
0.337049 -0.311858 -0.529 201 151 150
0.34144 -0.311269 -0.528 198 149 144
0.344457 -0.311269 -0.528 195 145 136
0.356193 -0.311858 -0.529 190 136 126
0.360905 -0.312448 -0.53 189 135 125
0.367654 -0.313037 -0.531 172 118 108
0.373019 -0.312448 -0.53 204 150 138
0.379076 -0.312448 -0.53 188 134 124
0.380086 -0.312448 -0.53 188 134 124
0.381095 -0.312448 -0.53 185 131 121
0.382826 -0.313037 -0.531 188 131 122
0.398279 -0.318932 -0.541 176 121 116
0.091099 -0.334749 -0.566 197 142 139
0.0929257 -0.333566 -0.564 196 145 142
0.0958076 -0.332383 -0.562 196 146 139
0.108943 -0.330017 -0.558 195 142 134
0.110006 -0.330017 -0.558 193 140 132
0.114052 -0.329426 -0.557 190 137 129
0.119357 -0.329426 -0.557 179 127 116
0.149844 -0.335931 -0.568 138 88 81
0.157436 -0.338297 -0.572 131 82 77
0.160173 -0.33948 -0.574 130 81 76
0.162643 -0.340071 -0.575 131 84 78
0.166506 -0.341254 -0.577 133 85 81
0.170391 -0.342437 -0.579 132 82 75
0.198286 -0.354857 -0.6 118 80 77
0.233614 -0.367277 -0.621 174 174 198
0.239529 -0.367277 -0.621 127 131 169
0.33645 -0.319963 -0.541 182 143 138
0.334277 -0.314049 -0.531 190 142 138
0.335774 -0.311683 -0.527 202 151 147
0.340147 -0.311091 -0.526 199 150 145
0.372315 -0.312866 -0.529 205 151 139
0.373323 -0.312866 -0.529 204 150 138
0.375338 -0.312866 -0.529 200 148 137
0.384849 -0.314049 -0.531 190 135 128
0.38586 -0.314049 -0.531 189 134 127
0.405822 -0.323511 -0.547 168 118 107
0.0881314 -0.34532 -0.582 195 145 136
0.105754 -0.33108 -0.558 191 141 134
0.11087 -0.330487 -0.557 191 138 130
0.117235 -0.330487 -0.557 182 130 119
0.12276 -0.33108 -0.558 181 127 115
0.143926 -0.335827 -0.566 150 93 84
0.150108 -0.337607 -0.569 136 87 80
0.153898 -0.338793 -0.571 136 87 80
0.156347 -0.339387 -0.572 132 85 79
0.157711 -0.33998 -0.573 131 82 77
0.161548 -0.341167 -0.575 131 82 77
0.190967 -0.353033 -0.595 124 85 80
0.218713 -0.367273 -0.619 148 145 164
0.230066 -0.36846 -0.621 168 171 188
0.232431 -0.36846 -0.621 171 173 196
0.239143 -0.367867 -0.62 166 169 202
0.24741 -0.367867 -0.62 103 125 172
0.3344 -0.31328 -0.528 203 149 139
0.335137 -0.312093 -0.526 201 153 139
0.3495 -0.3115 -0.525 195 142 136
0.356177 -0.312093 -0.526 190 138 127
0.363566 -0.31328 -0.528 188 136 125
0.379657 -0.31328 -0.528 185 130 123
0.380663 -0.31328 -0.528 185 130 123
0.386871 -0.31506 -0.531 190 135 128
0.0873219 -0.347619 -0.584 196 146 139
0.0925962 -0.334524 -0.562 195 145 138
0.0956371 -0.333929 -0.561 196 147 142
0.10275 -0.332738 -0.559 193 143 136
0.109809 -0.331548 -0.557 193 140 132
0.112991 -0.331548 -0.557 188 135 121
0.119357 -0.331548 -0.557 180 127 113
0.134345 -0.334524 -0.562 157 104 90
0.157711 -0.341071 -0.573 131 83 79
0.161829 -0.342857 -0.576 130 82 78
0.229695 -0.369048 -0.62 174 177 194
0.236781 -0.369048 -0.62 102 106 141
0.250548 -0.368452 -0.619 106 138 189
0.339334 -0.326786 -0.549 186 141 138
0.333738 -0.318452 -0.535 190 142 138
0.332638 -0.315476 -0.53 194 145 140
0.334135 -0.313095 -0.526 196 146 135
0.338853 -0.311905 -0.524 198 150 140
0.342846 -0.311905 -0.524 198 150 140
0.347172 -0.31131 -0.523 195 145 136
0.3575 -0.3125 -0.525 183 133 122
0.3585 -0.3125 -0.525 183 133 122
0.362189 -0.313095 -0.526 183 130 122
0.364192 -0.313095 -0.526 186 134 123
0.372208 -0.313095 -0.526 191 136 129
0.375213 -0.313095 -0.526 191 136 129
0.39239 -0.317262 -0.533 179 126 112
0.394881 -0.318452 -0.535 175 122 108
0.411938 -0.327976 -0.551 150 107 98
0.0857105 -0.355897 -0.596 197 154 148
0.0866524 -0.350523 -0.587 196 143 137
0.0984905 -0.333803 -0.559 197 148 143
0.115966 -0.332011 -0.556 177 124 110
0.119357 -0.332609 -0.557 178 125 111
0.140443 -0.337386 -0.565 149 94 87
0.142848 -0.337983 -0.566 149 94 87
0.150371 -0.340371 -0.57 136 89 83
0.15281 -0.340969 -0.571 133 86 80
0.154168 -0.341566 -0.572 132 85 79
0.16598 -0.345746 -0.579 127 83 80
0.172383 -0.347537 -0.582 123 82 78
0.18088 -0.35112 -0.588 123 82 78
0.213306 -0.368437 -0.617 165 158 176
0.221071 -0.369631 -0.619 159 155 172
0.225788 -0.369631 -0.619 166 168 181
0.229325 -0.369631 -0.619 174 179 198
0.239936 -0.369631 -0.619 181 182 200
0.245831 -0.369631 -0.619 150 168 208
0.252497 -0.369034 -0.618 136 155 198
0.258383 -0.369034 -0.618 219 224 246
0.332254 -0.317083 -0.531 195 142 134
0.334135 -0.314097 -0.526 194 146 132
0.35148 -0.311709 -0.522 187 137 128
0.352474 -0.311709 -0.522 186 136 127
0.365802 -0.312903 -0.524 185 132 124
0.3705 -0.3135 -0.525 185 133 122
0.377217 -0.314097 -0.526 185 131 121
0.384686 -0.315291 -0.528 185 131 121
0.0859714 -0.353438 -0.59 192 147 142
0.0862095 -0.349844 -0.584 195 142 136
0.0872467 -0.340858 -0.569 194 144 133
0.106626 -0.33367 -0.557 192 138 128
0.123823 -0.334269 -0.558 177 124 110
0.127239 -0.334868 -0.559 162 109 95
0.130667 -0.335467 -0.56 163 106 95
0.133037 -0.336066 -0.561 159 102 91
0.1431 -0.33966 -0.567 145 92 86
0.159357 -0.344452 -0.575 131 86 81
0.166267 -0.347448 -0.58 128 84 81
0.16766 -0.348047 -0.581 128 84 81
0.184366 -0.354636 -0.592 123 85 84
0.18612 -0.355834 -0.594 122 84 83
0.193069 -0.35823 -0.598 126 87 82
0.22225 -0.37081 -0.619 167 164 183
0.229325 -0.37081 -0.619 167 174 192
0.33201 -0.316896 -0.529 197 140 131
0.338207 -0.313302 -0.523 199 150 136
0.342531 -0.312703 -0.522 196 146 135
0.344852 -0.312104 -0.521 193 143 132
0.350133 -0.311505 -0.52 188 138 127
0.351799 -0.312104 -0.521 188 138 127
0.352791 -0.312104 -0.521 189 139 128
0.353784 -0.312104 -0.521 187 137 126
0.3795 -0.3145 -0.525 182 128 118
0.39442 -0.319292 -0.533 166 116 105
0.0884714 -0.338336 -0.563 192 143 136
0.096361 -0.335932 -0.559 198 145 137
0.0972514 -0.335331 -0.558 198 145 137
0.107493 -0.33413 -0.556 190 136 126
0.112586 -0.333529 -0.555 191 135 122
0.120418 -0.33473 -0.557 170 114 101
0.127239 -0.335932 -0.559 164 108 95
0.139367 -0.339538 -0.565 152 97 90
0.165162 -0.348552 -0.58 127 84 78
0.181803 -0.355163 -0.591 121 81 81
0.225423 -0.371389 -0.618 172 174 189
0.23484 -0.371389 -0.618 171 175 202
0.362787 -0.35937 -0.598 163 141 154
0.335859 -0.314899 -0.524 199 147 134
0.361723 -0.313096 -0.521 178 126 115
0.362715 -0.313096 -0.521 180 126 116
0.37236 -0.313697 -0.522 177 125 114
0.377058 -0.314298 -0.523 181 127 117
0.385965 -0.316702 -0.527 182 125 116
0.389445 -0.317904 -0.529 177 124 110
0.0883143 -0.338806 -0.562 195 145 138
0.103257 -0.335189 -0.556 193 138 131
0.104316 -0.335189 -0.556 193 138 131
0.109414 -0.334586 -0.555 197 143 133
0.110471 -0.334586 -0.555 193 139 129
0.121479 -0.335791 -0.557 175 119 106
0.137214 -0.340614 -0.565 154 97 90
0.146856 -0.343026 -0.569 136 89 83
0.150899 -0.344834 -0.572 130 87 80
0.157167 -0.346643 -0.575 123 80 74
0.159911 -0.347849 -0.577 128 85 79
0.172451 -0.353274 -0.586 123 82 80
0.1767 -0.355083 -0.589 122 81 79
0.184167 -0.3587 -0.595 119 83 83
0.210271 -0.370757 -0.615 165 157 180
0.215656 -0.371963 -0.617 85 81 106
0.23681 -0.371963 -0.617 197 196 210
0.240336 -0.371963 -0.617 148 154 170
0.24464 -0.37136 -0.616 144 157 191
0.25168 -0.37136 -0.616 155 169 206
0.362857 -0.361714 -0.6 173 143 153
0.331383 -0.318309 -0.528 185 128 121
0.3345 -0.3165 -0.525 192 143 136
0.335218 -0.315294 -0.523 196 144 133
0.336214 -0.315294 -0.523 197 145 134
0.33756 -0.314691 -0.522 200 148 137
0.348787 -0.31228 -0.518 196 144 131
0.35638 -0.312883 -0.519 192 140 127
0.357369 -0.312883 -0.519 190 136 124
0.364 -0.313486 -0.52 182 128 116
0.388709 -0.318309 -0.528 176 127 113
0.39294 -0.320117 -0.531 164 114 105
0.394693 -0.32072 -0.532 160 110 101
1.12658 -0.373169 -0.619 201 203 189
0.0873991 -0.340481 -0.563 197 144 136
0.0940629 -0.337457 -0.558 198 145 127
0.101321 -0.336852 -0.557 193 140 132
0.102198 -0.336248 -0.556 193 140 132
0.113438 -0.335038 -0.554 186 132 120
0.134584 -0.340481 -0.563 154 97 90
0.153613 -0.347133 -0.574 130 87 81
0.15744 -0.348343 -0.576 125 82 76
0.162671 -0.350157 -0.579 126 85 81
0.168526 -0.353181 -0.584 124 83 81
0.183033 -0.359833 -0.595 121 85 85
0.230934 -0.373138 -0.617 153 156 187
0.23446 -0.373138 -0.617 190 189 205
0.24112 -0.372533 -0.616 161 164 181
0.341219 -0.314476 -0.52 193 140 132
0.343529 -0.313871 -0.519 196 144 133
0.3478 -0.313267 -0.518 197 142 135
0.348787 -0.313267 -0.518 196 144 133
0.351747 -0.313267 -0.518 196 144 133
0.355693 -0.313267 -0.518 193 141 128
0.3626 -0.313267 -0.518 184 130 118
0.368243 -0.313871 -0.519 181 129 118
0.376609 -0.315081 -0.521 180 126 114
0.393951 -0.321129 -0.531 157 109 97
0.401471 -0.324757 -0.537 150 101 97
0.0863267 -0.341553 -0.563 194 144 135
0.0921019 -0.339127 -0.559 197 145 134
0.0970771 -0.337913 -0.557 198 145 139
0.099021 -0.337307 -0.556 195 142 134
0.102198 -0.337307 -0.556 191 138 130
0.103071 -0.3367 -0.555 193 138 131
0.110272 -0.336093 -0.554 196 139 130
0.12254 -0.337913 -0.557 172 118 106
0.123823 -0.33852 -0.558 165 111 99
0.124886 -0.33852 -0.558 160 107 93
0.14227 -0.344587 -0.568 147 94 88
0.15252 -0.348227 -0.574 134 87 79
0.153613 -0.348227 -0.574 136 89 83
0.160466 -0.35126 -0.579 129 86 80
0.16434 -0.352473 -0.581 125 84 80
0.176174 -0.35854 -0.591 125 84 80
0.218827 -0.373707 -0.616 149 153 190
0.221173 -0.373707 -0.616 155 155 181
0.2376 -0.373707 -0.616 203 201 212
0.244243 -0.3731 -0.615 129 143 182
0.247757 -0.3731 -0.615 161 175 210
0.358097 -0.36036 -0.594 168 150 166
0.330681 -0.324567 -0.535 157 91 79
0.340229 -0.315467 -0.52 194 141 133
0.341551 -0.31486 -0.519 193 140 132
0.342867 -0.314253 -0.518 195 143 132
0.347129 -0.313647 -0.517 197 142 135
0.353037 -0.313647 -0.517 187 134 126
0.36387 -0.313647 -0.517 185 133 120
0.39321 -0.321533 -0.53 159 111 97
0.400724 -0.325173 -0.536 149 100 95
0.405771 -0.3276 -0.54 144 97 91
0.42203 -0.337307 -0.556 143 109 99
0.0817524 -0.360274 -0.592 194 151 142
0.0919371 -0.339583 -0.558 195 143 132
0.13986 -0.34506 -0.567 139 89 82
0.14227 -0.345669 -0.568 141 92 85
0.155246 -0.350537 -0.576 131 86 80
0.156614 -0.351146 -0.577 126 83 77
0.160743 -0.352971 -0.58 129 86 80
0.163233 -0.35358 -0.581 126 85 81
0.166301 -0.355406 -0.584 125 84 80
0.211443 -0.374271 -0.615 124 117 148
0.214957 -0.374271 -0.615 60 71 117
0.224329 -0.374271 -0.615 92 100 136
0.243846 -0.373663 -0.614 122 137 176
0.330686 -0.328629 -0.54 146 89 78
0.330278 -0.326194 -0.536 141 84 73
0.328988 -0.321934 -0.529 141 78 69
0.329751 -0.320717 -0.527 154 87 78
0.333863 -0.318891 -0.524 185 117 108
0.336913 -0.317066 -0.521 196 137 129
0.342867 -0.31524 -0.518 194 142 131
0.344174 -0.314631 -0.517 195 143 132
0.348113 -0.314631 -0.517 199 142 133
0.349098 -0.314631 -0.517 200 143 134
0.355303 -0.314023 -0.516 187 133 123
0.358251 -0.314023 -0.516 193 141 130
0.365131 -0.314023 -0.516 183 131 120
0.377867 -0.316457 -0.52 171 119 106
0.379586 -0.317066 -0.521 171 119 106
0.418994 -0.335931 -0.552 152 108 99
0.0814762 -0.360181 -0.59 195 148 142
0.0861733 -0.343088 -0.562 194 144 135
0.0870886 -0.342477 -0.561 194 144 135
0.0977857 -0.338814 -0.555 194 141 133
0.104807 -0.337593 -0.553 194 140 130
0.107967 -0.337593 -0.553 196 142 132
0.10902 -0.337593 -0.553 196 142 130
0.116604 -0.338204 -0.554 182 125 114
0.127239 -0.341256 -0.559 161 108 94
0.132204 -0.343088 -0.562 155 98 91
0.134823 -0.344309 -0.564 154 99 92
0.136138 -0.344919 -0.565 150 100 91
0.15169 -0.351024 -0.575 127 84 78
0.155515 -0.352245 -0.577 131 88 82
0.166586 -0.357129 -0.585 124 84 82
0.17109 -0.35957 -0.589 122 82 80
0.175641 -0.362012 -0.593 123 79 76
0.226671 -0.375443 -0.615 150 157 186
0.229014 -0.375443 -0.615 182 185 202
0.23332 -0.374832 -0.614 195 196 216
0.237998 -0.374832 -0.614 197 200 217
0.239168 -0.374832 -0.614 197 200 217
0.32798 -0.322942 -0.529 162 104 92
0.344174 -0.315616 -0.517 195 141 129
0.345159 -0.315616 -0.517 195 141 129
0.351371 -0.315006 -0.516 196 139 130
0.357842 -0.313785 -0.514 194 140 130
0.365405 -0.314395 -0.515 189 135 125
1.12399 -0.375443 -0.615 201 204 187
0.0810619 -0.359468 -0.587 193 144 139
0.0815952 -0.352119 -0.575 196 148 138
0.0821152 -0.34967 -0.571 197 149 139
0.0849514 -0.343546 -0.561 195 145 136
0.0926667 -0.340484 -0.556 198 145 139
0.131133 -0.344158 -0.562 154 97 90
0.140353 -0.348445 -0.569 138 89 82
0.141686 -0.349057 -0.57 137 90 82
0.159913 -0.355793 -0.581 126 85 81
0.170257 -0.361305 -0.59 123 83 81
0.219643 -0.376614 -0.615 122 134 172
0.220455 -0.376002 -0.614 101 113 151
0.222794 -0.376002 -0.614 56 70 115
0.353571 -0.363754 -0.594 179 149 151
0.350523 -0.359468 -0.587 185 140 143
0.32987 -0.320888 -0.524 152 92 81
0.34319 -0.316601 -0.517 192 135 124
0.34744 -0.315989 -0.516 193 136 125
0.352652 -0.315376 -0.515 194 137 126
0.360077 -0.314151 -0.513 193 139 127
0.364695 -0.314764 -0.514 193 139 129
0.365674 -0.314764 -0.514 193 139 129
0.385764 -0.320888 -0.524 166 119 111
0.39672 -0.325787 -0.532 153 106 98
0.406047 -0.330073 -0.539 144 99 93
0.411129 -0.332523 -0.543 146 101 95
0.417002 -0.335585 -0.548 149 104 98
0.0935571 -0.340929 -0.555 200 147 139
0.10586 -0.3397 -0.553 194 140 128
0.110073 -0.3397 -0.553 187 133 121
0.117871 -0.340929 -0.555 173 120 104
0.128763 -0.344614 -0.561 153 100 86
0.140353 -0.349529 -0.569 140 88 77
0.143022 -0.350757 -0.571 138 88 79
0.158807 -0.3569 -0.581 127 84 78
0.162964 -0.358743 -0.584 125 84 80
0.169133 -0.362429 -0.59 126 87 82
0.225934 -0.376557 -0.613 157 170 202
0.228642 -0.377171 -0.614 183 188 208
0.353571 -0.364886 -0.594 179 149 151
0.32802 -0.3311 -0.539 184 129 122
0.332589 -0.320657 -0.522 151 87 77
0.333295 -0.319429 -0.52 150 88 77
0.33925 -0.317586 -0.517 176 118 106
0.35069 -0.316357 -0.515 187 133 121
0.352947 -0.315743 -0.514 193 139 127
0.355191 -0.315129 -0.513 185 131 119
0.364963 -0.315129 -0.513 198 141 132
0.3774 -0.3182 -0.518 176 122 110
0.38157 -0.320043 -0.521 173 121 107
0.398481 -0.327414 -0.533 155 108 102
0.402766 -0.329257 -0.536 144 97 91
0.0786914 -0.361088 -0.586 188 146 134
0.0829619 -0.346299 -0.562 198 150 140
0.08556 -0.343834 -0.558 194 146 134
0.0864676 -0.343218 -0.557 196 146 135
0.0903857 -0.341986 -0.555 199 149 140
0.09954 -0.340753 -0.553 193 141 128
0.1027 -0.340753 -0.553 194 140 128
0.113233 -0.340753 -0.553 182 130 109
0.114287 -0.340753 -0.553 180 128 107
0.115549 -0.34137 -0.554 180 127 109
0.118929 -0.341986 -0.555 170 114 97
0.132674 -0.347531 -0.564 146 94 80
0.143272 -0.352461 -0.572 138 86 75
0.145706 -0.353077 -0.573 134 86 76
0.234108 -0.377725 -0.613 200 197 216
0.235275 -0.377725 -0.613 198 199 217
0.325736 -0.324732 -0.527 183 133 126
0.334286 -0.320419 -0.52 150 88 77
0.35645 -0.31549 -0.512 193 136 127
0.364251 -0.31549 -0.512 197 140 129
0.36594 -0.316106 -0.513 199 142 131
0.366917 -0.316106 -0.513 192 138 126
0.380838 -0.320419 -0.52 174 121 107
0.433008 -0.346299 -0.562 154 109 103
0.0800343 -0.348606 -0.564 193 147 132
0.0817457 -0.346751 -0.561 197 151 138
0.0872143 -0.343043 -0.555 197 149 135
0.09638 -0.341807 -0.553 196 144 130
0.115549 -0.342425 -0.554 179 127 106
0.12511 -0.345515 -0.559 156 102 90
0.136861 -0.351078 -0.568 142 90 79
0.138186 -0.351696 -0.569 140 88 77
0.14596 -0.354787 -0.574 132 85 77
0.156593 -0.359113 -0.581 127 84 78
0.161014 -0.361586 -0.585 125 84 80
0.162406 -0.362204 -0.586 125 84 80
0.198105 -0.377038 -0.61 159 154 176
0.208904 -0.377656 -0.611 157 154 181
0.222069 -0.378274 -0.612 138 149 179
0.351309 -0.367149 -0.594 175 147 144
0.326146 -0.33439 -0.541 184 131 125
0.327982 -0.322028 -0.521 191 138 130
0.329967 -0.322028 -0.521 191 139 128
0.339577 -0.318937 -0.516 163 105 94
0.344135 -0.317701 -0.514 179 121 110
0.348351 -0.317083 -0.513 187 128 120
0.356727 -0.315847 -0.511 195 138 129
0.361593 -0.315847 -0.511 195 138 127
0.376671 -0.319555 -0.517 173 120 106
0.409127 -0.333153 -0.539 144 99 93
0.0841943 -0.34472 -0.556 199 152 136
0.0911133 -0.34286 -0.553 201 152 137
0.09936 -0.34224 -0.552 195 144 127
0.108626 -0.34162 -0.551 193 138 118
0.1264 -0.3472 -0.56 152 98 88
0.136861 -0.35216 -0.568 137 89 79
0.16129 -0.36332 -0.586 125 86 81
0.211231 -0.37882 -0.611 109 123 158
0.225566 -0.37944 -0.612 128 134 166
0.229063 -0.37944 -0.612 186 186 220
0.229852 -0.37882 -0.611 199 195 220
0.233344 -0.37882 -0.611 202 199 218
0.322884 -0.32488 -0.524 185 136 129
0.337281 -0.32054 -0.517 156 99 88
0.338919 -0.3193 -0.515 145 88 77
0.3399 -0.3193 -0.515 149 91 79
0.347374 -0.31806 -0.513 182 123 115
0.357971 -0.3162 -0.51 196 139 128
0.360886 -0.3162 -0.51 194 137 126
0.367177 -0.31744 -0.512 192 135 124
0.386024 -0.32426 -0.523 154 105 98
0.3885 -0.3255 -0.525 151 104 98
0.406586 -0.33294 -0.537 142 97 92
0.469421 -0.36952 -0.596 131 134 151
0.0769457 -0.356351 -0.573 194 148 133
0.0870571 -0.344535 -0.554 199 152 136
0.0962057 -0.343291 -0.552 196 145 126
0.103378 -0.34267 -0.551 194 143 124
0.104428 -0.34267 -0.551 195 144 123
0.110725 -0.34267 -0.551 191 139 118
0.137102 -0.353864 -0.569 135 87 77
0.138429 -0.354486 -0.57 135 87 77
0.139759 -0.355108 -0.571 135 87 77
0.143773 -0.356973 -0.574 131 84 74
0.154646 -0.361949 -0.582 124 83 77
0.157402 -0.363192 -0.584 128 85 76
0.19546 -0.37874 -0.609 148 145 174
0.209724 -0.379362 -0.61 156 154 178
0.210886 -0.379362 -0.61 123 136 168
0.221706 -0.379984 -0.611 167 175 194
0.22287 -0.379984 -0.611 182 190 209
0.224033 -0.379984 -0.611 181 189 208
0.228689 -0.379984 -0.611 160 162 201
0.238771 -0.379362 -0.61 166 176 201
0.323651 -0.337072 -0.542 184 134 125
0.31989 -0.325878 -0.524 194 139 132
0.320275 -0.325256 -0.523 190 137 131
0.32302 -0.324012 -0.521 192 139 131
0.327711 -0.322769 -0.519 196 144 133
0.33004 -0.322147 -0.518 195 146 132
0.332357 -0.321525 -0.517 189 140 125
0.337938 -0.320281 -0.515 183 127 114
0.338261 -0.319659 -0.514 179 123 110
0.339557 -0.319037 -0.513 144 86 74
0.350887 -0.317793 -0.511 178 120 109
0.360886 -0.317171 -0.51 193 136 125
0.361857 -0.317171 -0.51 197 140 129
0.370826 -0.319037 -0.513 187 129 118
0.413736 -0.33645 -0.541 151 106 100
0.422991 -0.341426 -0.549 152 107 104
0.0758543 -0.357443 -0.573 197 149 135
0.08374 -0.344967 -0.553 199 152 136
0.0898971 -0.344343 -0.552 197 148 133
0.0981305 -0.343719 -0.551 198 147 128
0.10319 -0.343095 -0.55 196 145 126
0.107381 -0.343095 -0.55 193 142 121
0.109675 -0.343719 -0.551 188 137 118
0.110725 -0.343719 -0.551 190 138 116
0.127922 -0.350581 -0.562 143 95 85
0.129222 -0.351205 -0.563 138 89 84
0.135779 -0.354324 -0.568 133 86 78
0.146723 -0.359938 -0.577 129 84 78
0.152167 -0.362433 -0.581 127 84 77
0.162115 -0.367424 -0.589 124 87 81
0.19546 -0.3799 -0.609 128 125 152
0.20242 -0.3799 -0.609 130 131 151
0.20474 -0.3799 -0.609 162 162 174
0.206238 -0.380524 -0.61 170 169 183
0.209724 -0.380524 -0.61 165 163 187
0.223667 -0.380524 -0.61 184 191 209
0.227152 -0.380524 -0.61 79 92 127
0.319663 -0.325629 -0.522 196 138 134
0.320657 -0.325629 -0.522 196 138 134
0.327433 -0.32251 -0.517 194 141 133
0.331071 -0.321262 -0.515 191 144 128
0.33987 -0.31939 -0.512 177 118 104
0.346993 -0.318767 -0.511 151 93 82
0.349229 -0.318143 -0.51 171 114 103
0.3638 -0.318143 -0.51 192 134 123
0.369128 -0.31939 -0.512 180 126 114
0.370103 -0.31939 -0.512 180 126 114
0.382819 -0.324381 -0.52 148 99 92
0.397997 -0.331243 -0.531 148 101 93
0.40228 -0.333114 -0.534 148 101 93
0.40685 -0.334362 -0.536 148 101 93
0.412971 -0.336857 -0.54 151 104 96
0.0798143 -0.347271 -0.555 195 149 134
0.0816333 -0.34602 -0.553 198 150 136
0.0958571 -0.344143 -0.55 199 148 131
0.0969048 -0.344143 -0.55 199 148 131
0.102143 -0.344143 -0.55 197 146 127
0.106333 -0.344143 -0.55 193 142 121
0.111977 -0.345394 -0.552 190 138 116
0.115549 -0.346646 -0.554 172 117 96
0.116604 -0.346646 -0.554 172 117 96
0.19778 -0.38106 -0.609 87 90 123
0.19894 -0.38106 -0.609 133 133 159
0.20822 -0.38106 -0.609 168 165 186
0.21518 -0.38106 -0.609 176 182 196
0.219019 -0.381686 -0.61 178 187 204
0.320238 -0.336634 -0.538 189 130 122
0.319429 -0.325371 -0.52 194 140 130
0.32116 -0.32412 -0.518 195 141 131
0.325464 -0.323494 -0.517 198 144 132
0.330429 -0.321617 -0.514 195 143 129
0.338233 -0.31974 -0.511 190 138 124
0.339207 -0.31974 -0.511 192 140 127
0.344371 -0.319114 -0.51 152 95 86
0.358239 -0.318489 -0.509 200 143 132
0.360178 -0.318489 -0.509 195 137 126
0.36938 -0.31974 -0.511 178 121 110
0.377909 -0.322869 -0.516 152 98 86
0.472033 -0.3723 -0.595 123 121 132
0.0795267 -0.347073 -0.553 198 152 136
0.0814857 -0.346446 -0.552 199 152 136
0.120202 -0.348956 -0.556 155 99 82
0.154329 -0.367157 -0.585 123 85 82
0.186725 -0.380965 -0.607 145 147 172
0.196297 -0.381592 -0.608 81 85 120
0.198613 -0.381592 -0.608 155 153 175
0.204404 -0.381592 -0.608 104 101 108
0.21054 -0.38222 -0.609 171 169 191
0.22562 -0.38222 -0.609 159 166 192
0.23683 -0.381592 -0.608 181 187 211
0.239147 -0.381592 -0.608 179 193 222
0.240305 -0.381592 -0.608 148 162 191
0.242621 -0.381592 -0.608 142 160 196
0.316297 -0.331383 -0.528 182 129 121
0.322869 -0.323851 -0.516 196 144 131
0.329786 -0.321969 -0.513 196 144 130
0.332069 -0.321341 -0.512 193 141 127
0.339514 -0.320086 -0.51 192 138 126
0.341457 -0.320086 -0.51 190 136 124
0.349794 -0.31883 -0.508 192 135 126
0.363087 -0.319458 -0.509 190 132 120
0.373757 -0.321969 -0.513 163 110 96
0.405331 -0.335149 -0.534 143 99 88
0.0753343 -0.353163 -0.561 196 153 137
0.0793829 -0.347497 -0.552 200 155 136
0.0977743 -0.345609 -0.549 193 145 125
0.09882 -0.345609 -0.549 194 146 126
0.107381 -0.346238 -0.55 193 142 121
0.121697 -0.351274 -0.558 149 97 86
0.124267 -0.352533 -0.56 144 95 88
0.143177 -0.362606 -0.576 126 86 84
0.180646 -0.381491 -0.606 73 70 101
0.210194 -0.38275 -0.608 171 172 192
0.214827 -0.38275 -0.608 180 187 203
0.217143 -0.38275 -0.608 177 184 203
0.218301 -0.38275 -0.608 178 185 204
0.222933 -0.38275 -0.608 187 193 205
0.227566 -0.38275 -0.608 111 122 154
0.314899 -0.32987 -0.524 186 134 123
0.337879 -0.320428 -0.509 192 138 126
0.346209 -0.319169 -0.507 186 132 120
0.34814 -0.319169 -0.507 192 138 126
0.367686 -0.321057 -0.51 175 119 106
0.383071 -0.326723 -0.519 137 90 82
0.394743 -0.332389 -0.528 142 95 85
0.0822381 -0.347286 -0.55 200 155 134
0.0864286 -0.347286 -0.55 201 155 132
0.09864 -0.346023 -0.548 195 147 125
0.101771 -0.346023 -0.548 199 149 126
0.120418 -0.351706 -0.557 148 95 81
0.136257 -0.359914 -0.57 128 87 83
0.147486 -0.366229 -0.58 124 84 82
0.19135 -0.383277 -0.607 77 83 119
0.19713 -0.383277 -0.607 160 161 189
0.20672 -0.383909 -0.608 140 138 151
0.217942 -0.383277 -0.607 184 189 208
0.219098 -0.383277 -0.607 186 192 206
0.315081 -0.328974 -0.521 195 139 124
0.315849 -0.327711 -0.519 190 138 125
0.340118 -0.320766 -0.508 190 136 124
0.351309 -0.319503 -0.506 185 133 120
0.371327 -0.32266 -0.511 162 108 96
0.396498 -0.334026 -0.529 142 95 85
0.404572 -0.336551 -0.533 144 100 87
0.407366 -0.337183 -0.534 146 102 89
0.419663 -0.342234 -0.542 150 108 92
0.0685286 -0.3705 -0.585 201 162 145
0.0699105 -0.366067 -0.578 196 153 134
0.0755857 -0.3515 -0.555 198 157 137
0.0790952 -0.348333 -0.55 201 156 135
0.0862714 -0.3477 -0.549 201 155 132
0.0892457 -0.347067 -0.548 198 150 127
0.0915 -0.3477 -0.549 196 148 126
0.0944648 -0.347067 -0.548 195 147 125
0.09864 -0.347067 -0.548 196 148 128
0.101771 -0.347067 -0.548 200 150 127
0.107186 -0.3477 -0.549 192 141 120
0.110725 -0.348967 -0.551 179 134 105
0.120418 -0.352767 -0.557 145 93 82
0.125781 -0.355933 -0.562 140 91 84
0.14208 -0.3648 -0.576 124 84 82
0.146381 -0.367333 -0.58 122 84 83
0.150728 -0.369867 -0.584 124 86 85
0.196806 -0.3838 -0.606 166 167 188
0.211005 -0.384433 -0.607 153 152 170
0.226035 -0.384433 -0.607 186 192 216
0.313901 -0.331867 -0.524 186 136 125
0.315081 -0.329967 -0.521 191 138 124
0.316601 -0.327433 -0.517 192 140 127
0.317586 -0.327433 -0.517 192 140 127
0.31857 -0.327433 -0.517 191 139 126
0.32558 -0.323633 -0.511 197 146 129
0.33462 -0.3211 -0.507 194 140 128
0.336551 -0.3211 -0.507 195 141 129
0.339743 -0.320467 -0.506 189 135 123
0.344843 -0.319833 -0.505 186 134 121
0.357091 -0.320467 -0.506 191 138 124
0.377176 -0.326167 -0.515 143 94 80
0.405588 -0.337567 -0.533 142 98 87
0.408383 -0.3382 -0.534 147 103 90
0.418114 -0.342 -0.54 150 107 88
0.42744 -0.347067 -0.548 153 106 96
0.0762286 -0.350651 -0.552 202 156 140
0.0902895 -0.34811 -0.548 195 147 124
0.0975962 -0.34811 -0.548 195 147 127
0.105094 -0.348746 -0.549 190 139 118
0.107381 -0.349381 -0.55 189 138 117
0.113029 -0.350651 -0.552 166 122 95
0.12471 -0.357004 -0.562 141 91 82
0.13385 -0.36145 -0.569 126 85 83
0.135171 -0.362086 -0.57 127 86 82
0.136735 -0.363356 -0.572 128 87 83
0.140983 -0.365897 -0.576 124 84 84
0.178043 -0.384319 -0.605 42 56 95
0.200269 -0.384954 -0.606 177 176 192
0.20604 -0.384954 -0.606 121 117 131
0.223354 -0.384954 -0.606 195 202 218
0.227971 -0.384954 -0.606 169 176 205
0.315653 -0.337947 -0.532 181 129 118
0.316601 -0.328418 -0.517 193 141 128
0.318319 -0.327148 -0.515 194 142 129
0.319659 -0.326512 -0.514 199 147 134
0.322316 -0.325242 -0.512 197 145 131
0.326245 -0.323336 -0.509 199 147 133
0.407618 -0.338582 -0.533 145 101 88
0.0717429 -0.355526 -0.558 204 160 135
0.0808952 -0.349154 -0.548 201 154 134
0.081939 -0.349154 -0.548 200 153 133
0.0901248 -0.348517 -0.547 195 147 124
0.0934209 -0.349154 -0.548 195 148 128
0.0963762 -0.348517 -0.547 196 149 129
0.0975962 -0.349154 -0.548 198 150 128
0.0996838 -0.349154 -0.548 194 146 124
0.105094 -0.349791 -0.549 190 140 115
0.12471 -0.358074 -0.562 138 92 79
0.1815 -0.385471 -0.605 74 93 149
0.182652 -0.385471 -0.605 65 84 140
0.189567 -0.385471 -0.605 84 98 137
0.195329 -0.385471 -0.605 166 169 186
0.200269 -0.386109 -0.606 171 170 188
0.203731 -0.386109 -0.606 160 157 174
0.204886 -0.386109 -0.606 163 159 174
0.20604 -0.386109 -0.606 148 144 159
0.207194 -0.386109 -0.606 109 107 121
0.227595 -0.385471 -0.605 190 197 225
0.232205 -0.385471 -0.605 89 104 143
0.239119 -0.385471 -0.605 115 137 186
0.335614 -0.365083 -0.573 178 128 121
0.314089 -0.331951 -0.521 184 136 126
0.319659 -0.327491 -0.514 196 144 131
0.320991 -0.326854 -0.513 195 143 130
0.336186 -0.321757 -0.505 193 139 127
0.339071 -0.321757 -0.505 196 142 130
0.33936 -0.32112 -0.504 196 143 129
0.34032 -0.32112 -0.504 194 141 127
0.359271 -0.321757 -0.505 181 131 120
0.363591 -0.323031 -0.507 174 125 111
0.369629 -0.324943 -0.51 160 112 98
0.374734 -0.326854 -0.513 146 98 84
0.398513 -0.337049 -0.529 143 97 84
0.0730743 -0.352754 -0.552 203 157 131
0.0758143 -0.350837 -0.549 198 156 132
0.0838733 -0.349559 -0.547 202 155 135
0.0890829 -0.349559 -0.547 194 146 124
0.0942924 -0.349559 -0.547 199 152 132
0.0963762 -0.349559 -0.547 196 150 127
0.0996838 -0.350198 -0.548 194 146 124
0.101771 -0.350198 -0.548 196 146 123
0.107381 -0.351476 -0.55 187 135 111
0.113233 -0.353393 -0.553 156 108 85
0.12342 -0.358506 -0.561 138 91 81
0.131451 -0.362979 -0.568 131 87 78
0.138307 -0.366813 -0.574 127 87 85
0.141228 -0.36873 -0.577 123 84 79
0.191871 -0.386624 -0.605 150 159 192
0.217224 -0.386624 -0.605 187 186 204
0.324953 -0.353393 -0.553 173 123 116
0.319522 -0.346364 -0.542 174 119 112
0.316414 -0.34189 -0.535 181 126 119
0.326571 -0.324636 -0.508 196 143 129
0.331069 -0.323358 -0.506 195 141 129
0.331376 -0.322719 -0.505 195 141 129
0.33552 -0.32208 -0.504 192 138 126
0.359271 -0.322719 -0.505 173 124 110
0.364557 -0.323997 -0.507 165 116 101
0.379874 -0.329749 -0.516 142 96 83
0.3925 -0.3355 -0.525 139 95 82
0.396754 -0.337417 -0.528 142 96 83
0.398513 -0.338056 -0.529 143 97 84
0.405077 -0.339334 -0.531 143 96 86
0.408633 -0.340612 -0.533 148 101 93
0.0747686 -0.351883 -0.549 197 155 133
0.0777638 -0.351242 -0.548 203 156 136
0.08372 -0.34996 -0.546 200 153 133
0.09516 -0.34996 -0.546 197 150 130
0.124932 -0.360856 -0.563 136 90 77
0.128832 -0.362779 -0.566 132 88 77
0.131451 -0.364061 -0.568 130 87 80
0.170563 -0.386494 -0.603 49 58 99
0.171711 -0.386494 -0.603 48 57 98
0.175448 -0.387135 -0.604 21 43 84
0.216865 -0.387135 -0.604 181 182 200
0.222617 -0.387135 -0.604 194 200 214
0.318343 -0.346114 -0.54 169 126 120
0.315989 -0.330731 -0.516 189 137 123
0.317954 -0.330731 -0.516 191 139 125
0.321341 -0.328168 -0.512 193 141 127
0.323336 -0.326245 -0.509 194 142 128
0.324306 -0.326245 -0.509 194 142 128
0.330414 -0.323681 -0.505 189 137 123
0.331376 -0.323681 -0.505 189 137 123
0.3336 -0.32304 -0.504 193 139 127
0.33677 -0.322399 -0.503 198 144 132
0.338687 -0.322399 -0.503 197 143 131
0.367934 -0.326245 -0.509 158 110 98
0.391752 -0.335859 -0.524 144 97 87
0.415017 -0.34355 -0.536 149 102 92
0.426392 -0.348678 -0.544 153 109 100
0.0684314 -0.358071 -0.557 203 160 143
0.0717619 -0.353571 -0.55 205 158 138
0.086681 -0.350357 -0.545 196 149 129
0.0897952 -0.350357 -0.545 199 151 131
0.1147 -0.356786 -0.555 144 96 84
0.12906 -0.3645 -0.567 132 88 77
0.137213 -0.369 -0.574 122 84 81
0.144669 -0.374143 -0.582 121 82 77
0.169133 -0.387 -0.602 42 54 92
0.20651 -0.388286 -0.604 150 149 163
0.209962 -0.388286 -0.604 102 101 115
0.213413 -0.388286 -0.604 158 158 170
0.216506 -0.387643 -0.603 191 190 206
0.328586 -0.360643 -0.561 171 121 114
0.314089 -0.334929 -0.521 178 129 122
0.31868 -0.330429 -0.514 191 138 124
0.323336 -0.327214 -0.509 195 142 128
0.325929 -0.325929 -0.507 192 141 124
0.327213 -0.325286 -0.506 194 141 125
0.33168 -0.324 -0.504 185 132 118
0.337057 -0.322714 -0.502 193 140 126
0.341838 -0.322714 -0.502 191 138 124
0.342111 -0.322071 -0.501 192 139 125
0.344974 -0.322071 -0.501 195 139 126
0.362157 -0.324643 -0.505 169 120 106
0.363838 -0.325286 -0.506 162 114 102
0.416038 -0.344571 -0.536 146 102 91
0.07658 -0.352685 -0.547 202 156 133
0.101586 -0.352685 -0.547 192 141 120
0.104903 -0.35333 -0.548 187 135 114
0.140371 -0.372672 -0.578 120 82 79
0.165418 -0.387502 -0.601 44 53 82
0.168852 -0.387502 -0.601 49 62 96
0.178603 -0.388791 -0.603 27 47 98
0.18894 -0.388791 -0.603 125 138 180
0.190089 -0.388791 -0.603 156 160 189
0.192386 -0.388791 -0.603 169 170 191
0.218803 -0.388791 -0.603 194 197 214
0.223397 -0.388791 -0.603 204 207 224
0.340414 -0.377186 -0.585 178 129 124
0.314631 -0.333342 -0.517 184 131 117
0.327213 -0.32625 -0.506 191 138 122
0.33072 -0.32496 -0.504 183 130 114
0.33168 -0.32496 -0.504 181 128 112
0.333896 -0.324315 -0.503 194 138 123
0.345929 -0.323026 -0.501 195 139 126
0.351654 -0.323026 -0.501 190 134 121
0.353563 -0.323026 -0.501 190 134 121
0.364802 -0.32625 -0.506 161 112 98
0.379138 -0.332052 -0.515 140 94 81
0.395251 -0.339145 -0.526 146 100 87
0.439507 -0.357198 -0.554 148 106 94
0.0644057 -0.373773 -0.578 201 155 131
0.06494 -0.37054 -0.573 200 158 136
0.0673705 -0.360193 -0.557 202 161 141
0.07644 -0.35308 -0.546 201 156 133
0.0844495 -0.351787 -0.544 197 151 128
0.0949857 -0.352433 -0.545 202 154 134
0.117235 -0.360193 -0.557 144 94 83
0.166563 -0.388647 -0.601 56 62 88
0.167708 -0.388647 -0.601 67 74 102
0.169997 -0.388647 -0.601 43 57 94
0.172573 -0.389293 -0.602 34 54 104
0.179453 -0.389293 -0.602 39 62 116
0.18748 -0.389293 -0.602 70 82 122
0.19092 -0.389293 -0.602 154 159 191
0.195831 -0.38994 -0.603 171 170 188
0.19698 -0.38994 -0.603 169 170 190
0.207317 -0.38994 -0.603 165 164 178
0.216147 -0.389293 -0.602 193 192 206
0.217293 -0.389293 -0.602 193 194 212
0.224173 -0.389293 -0.602 199 200 220
0.227613 -0.389293 -0.602 156 161 181
0.313873 -0.342087 -0.529 170 117 109
0.312703 -0.33756 -0.522 175 121 111
0.314631 -0.334327 -0.517 179 126 112
0.317338 -0.333033 -0.515 181 128 114
0.31868 -0.332387 -0.514 182 129 115
0.321341 -0.331093 -0.512 186 133 117
0.324963 -0.32786 -0.507 189 136 120
0.32625 -0.327213 -0.506 189 136 120
0.33072 -0.32592 -0.504 187 131 116
0.333232 -0.324627 -0.502 191 135 118
0.338013 -0.324627 -0.502 189 136 122
0.33897 -0.324627 -0.502 189 136 122
0.340203 -0.32398 -0.501 189 136 122
0.345238 -0.323333 -0.5 191 135 122
0.354517 -0.32398 -0.501 191 135 122
0.369147 -0.328507 -0.508 158 110 96
0.388517 -0.336913 -0.521 144 98 85
0.407867 -0.344027 -0.532 143 99 88
0.43029 -0.352433 -0.545 147 103 94
0.0651095 -0.366443 -0.565 200 157 138
0.0715009 -0.355417 -0.548 199 161 142
0.0724124 -0.354769 -0.547 201 159 137
0.0754 -0.35412 -0.546 202 156 130
0.0763 -0.353471 -0.545 200 155 134
0.0794143 -0.353471 -0.545 200 155 134
0.0875581 -0.352823 -0.544 200 154 131
0.108429 -0.356714 -0.55 159 107 83
0.12386 -0.365146 -0.563 137 90 72
0.140614 -0.375523 -0.579 123 82 78
0.165418 -0.389791 -0.601 70 74 99
0.179155 -0.389791 -0.601 60 82 132
0.181445 -0.389791 -0.601 96 118 168
0.202387 -0.39044 -0.602 176 178 193
0.203533 -0.39044 -0.602 180 179 195
0.216932 -0.389791 -0.601 193 196 213
0.33988 -0.380063 -0.586 172 136 138
0.314253 -0.33596 -0.518 177 120 109
0.317701 -0.333366 -0.514 180 124 111
0.325286 -0.328177 -0.506 185 132 118
0.330064 -0.326231 -0.503 187 131 116
0.338294 -0.324934 -0.501 185 132 116
0.346449 -0.323637 -0.499 189 131 117
0.374247 -0.33142 -0.511 145 99 86
0.380119 -0.334014 -0.515 139 92 82
0.393749 -0.339851 -0.524 146 99 89
0.400777 -0.342446 -0.528 145 98 90
0.410664 -0.345689 -0.533 149 102 92
0.416281 -0.346986 -0.535 147 103 92
0.444009 -0.361254 -0.557 145 101 92
0.474631 -0.380711 -0.587 200 196 211
0.0647638 -0.365568 -0.562 200 159 141
0.0742238 -0.35451 -0.545 205 158 130
0.0884314 -0.353209 -0.543 202 154 132
0.1147 -0.361014 -0.555 147 95 81
0.137691 -0.374674 -0.576 126 85 81
0.170857 -0.390286 -0.6 50 63 107
0.176571 -0.390286 -0.6 53 79 128
0.18 -0.390286 -0.6 79 101 148
0.186024 -0.390936 -0.601 140 149 190
0.312903 -0.34085 -0.524 170 114 101
0.321341 -0.333044 -0.512 178 122 107
0.325286 -0.329141 -0.506 182 129 113
0.339249 -0.325889 -0.501 183 127 112
0.3493 -0.324588 -0.499 187 129 115
0.351201 -0.324588 -0.499 187 129 115
0.360723 -0.32719 -0.503 174 122 108
0.369147 -0.330442 -0.508 152 104 92
0.372543 -0.331743 -0.51 149 103 90
0.376689 -0.333694 -0.513 143 97 84
0.392997 -0.340199 -0.523 145 98 90
0.3965 -0.3415 -0.525 147 100 92
0.411679 -0.346704 -0.533 147 100 90
0.427922 -0.352558 -0.542 143 101 89
0.0653657 -0.364029 -0.558 200 157 140
0.07228 -0.3562 -0.546 205 160 141
0.0873971 -0.354243 -0.543 202 154 132
0.0884314 -0.354243 -0.543 201 153 131
0.0937752 -0.354895 -0.544 205 156 139
0.10036 -0.3562 -0.546 188 138 113
0.11218 -0.360767 -0.553 152 99 83
0.127754 -0.369248 -0.566 133 90 83
0.132146 -0.37251 -0.571 122 83 78
0.139511 -0.377729 -0.579 122 82 82
0.167429 -0.391429 -0.6 110 117 146
0.189143 -0.391429 -0.6 83 95 135
0.199761 -0.392081 -0.601 173 173 185
0.20434 -0.392081 -0.601 183 183 195
0.210064 -0.392081 -0.601 191 191 201
0.311905 -0.341848 -0.524 162 104 93
0.312495 -0.339238 -0.52 171 114 103
0.323336 -0.332062 -0.509 182 126 111
0.324306 -0.332062 -0.509 184 128 113
0.324636 -0.33141 -0.508 183 127 112
0.324963 -0.330757 -0.507 181 125 108
0.32784 -0.3288 -0.504 185 129 112
0.336667 -0.32619 -0.5 183 127 112
0.354762 -0.32619 -0.5 187 131 116
0.385293 -0.337933 -0.518 140 93 85
0.398257 -0.343152 -0.526 146 99 91
0.403551 -0.34511 -0.529 146 99 91
0.410907 -0.347067 -0.532 145 101 90
0.416281 -0.349024 -0.535 147 103 92
0.43316 -0.3562 -0.546 145 105 93
0.0625381 -0.373597 -0.571 195 153 131
0.0721476 -0.356586 -0.545 204 159 138
0.0751238 -0.355931 -0.544 203 158 137
0.0801571 -0.355277 -0.543 201 155 132
0.102628 -0.357894 -0.547 174 124 97
0.117235 -0.364437 -0.557 153 96 77
0.118509 -0.365091 -0.558 151 94 75
0.130599 -0.372289 -0.569 128 87 81
0.171713 -0.391917 -0.599 69 91 140
0.178559 -0.391917 -0.599 56 88 127
0.189143 -0.392571 -0.6 68 82 127
0.198286 -0.392571 -0.6 178 178 190
0.311709 -0.341537 -0.522 159 99 89
0.321687 -0.33434 -0.511 182 125 108
0.343597 -0.326489 -0.499 184 127 110
0.35738 -0.327797 -0.501 177 124 110
0.360723 -0.329106 -0.503 173 120 106
0.393993 -0.342191 -0.523 144 97 89
0.401022 -0.344809 -0.527 145 98 90
0.407343 -0.346771 -0.53 145 101 88
0.419101 -0.350697 -0.536 146 102 91
0.0749857 -0.356311 -0.543 203 158 135
0.0872362 -0.355655 -0.542 200 154 131
0.0882686 -0.355655 -0.542 202 154 132
0.0903333 -0.355655 -0.542 201 155 132
0.0946371 -0.356311 -0.543 198 150 128
0.104903 -0.359592 -0.548 166 114 90
0.126452 -0.370748 -0.565 139 90 76
0.169431 -0.393058 -0.599 65 79 116
0.193391 -0.393058 -0.599 109 114 144
0.209365 -0.393058 -0.599 193 196 211
0.311111 -0.341875 -0.521 143 79 70
0.317701 -0.337282 -0.514 174 121 103
0.321341 -0.33597 -0.512 178 121 104
0.32625 -0.332032 -0.506 186 129 112
0.33381 -0.328095 -0.5 182 126 109
0.339795 -0.327439 -0.499 179 123 108
0.340063 -0.326783 -0.498 175 119 104
0.345754 -0.326783 -0.498 185 127 113
0.347651 -0.326783 -0.498 185 127 113
0.3486 -0.326783 -0.498 188 130 116
0.35738 -0.328751 -0.501 181 125 112
0.368179 -0.333345 -0.508 148 99 85
0.382823 -0.338594 -0.516 141 94 86
0.39499 -0.343188 -0.523 141 99 85
0.407343 -0.347781 -0.53 145 101 88
0.43078 -0.356311 -0.543 141 101 91
0.436834 -0.359592 -0.548 143 103 93
0.0619905 -0.372482 -0.566 199 154 131
0.0653571 -0.361294 -0.549 203 158 135
0.0709791 -0.358004 -0.544 205 160 137
0.0729171 -0.357346 -0.543 207 163 138
0.07602 -0.357346 -0.543 202 158 133
0.0779448 -0.356688 -0.542 201 157 132
0.0800095 -0.356688 -0.542 200 156 131
0.0872362 -0.356688 -0.542 201 155 132
0.117235 -0.366559 -0.557 152 95 78
0.130829 -0.375114 -0.57 132 87 81
0.1337 -0.377089 -0.573 117 85 88
0.174844 -0.393541 -0.598 79 100 147
0.178261 -0.393541 -0.598 64 88 136
0.180539 -0.393541 -0.598 97 114 157
0.181678 -0.393541 -0.598 133 140 168
0.183123 -0.394199 -0.599 157 164 192
0.189969 -0.394199 -0.599 78 91 125
0.310263 -0.347474 -0.528 156 99 92
0.311677 -0.340235 -0.517 143 80 65
0.319037 -0.337603 -0.513 173 115 101
0.320366 -0.336945 -0.512 179 122 105
0.322029 -0.335629 -0.51 185 128 111
0.33066 -0.329706 -0.501 175 119 102
0.34196 -0.327731 -0.498 176 118 104
0.349549 -0.327731 -0.498 182 123 109
0.352151 -0.32839 -0.499 184 127 107
0.355714 -0.329048 -0.5 175 119 104
0.3624 -0.33168 -0.504 162 109 95
0.365766 -0.332996 -0.506 149 103 90
0.38628 -0.340893 -0.518 139 97 85
0.408352 -0.34879 -0.53 143 101 87
0.410134 -0.349449 -0.531 145 103 89
0.414725 -0.350765 -0.533 143 101 89
0.43078 -0.357346 -0.543 141 101 91
0.438677 -0.361294 -0.549 142 103 96
0.447191 -0.366559 -0.557 147 105 93
0.0611276 -0.37488 -0.568 195 154 136
0.0708486 -0.35838 -0.543 203 159 134
0.0788314 -0.35706 -0.541 201 157 130
0.0956714 -0.35838 -0.543 185 137 114
0.100176 -0.3597 -0.545 179 127 103
0.108626 -0.36366 -0.551 161 103 89
0.115966 -0.36696 -0.556 150 97 83
0.12257 -0.37092 -0.562 148 94 82
0.165454 -0.39402 -0.597 103 105 130
0.168866 -0.39402 -0.597 65 78 113
0.174844 -0.39468 -0.598 81 102 145
0.181678 -0.39468 -0.598 133 140 168
0.185095 -0.39468 -0.598 165 171 185
0.187373 -0.39468 -0.598 165 172 188
0.19225 -0.39534 -0.599 66 74 113
0.195347 -0.39468 -0.598 168 170 195
0.308321 -0.34518 -0.523 183 126 119
0.30932 -0.34188 -0.518 120 57 42
0.311074 -0.34056 -0.516 112 50 35
0.315129 -0.33858 -0.513 156 98 84
0.318415 -0.33792 -0.512 173 115 101
0.31939 -0.33792 -0.512 176 118 104
0.323336 -0.33594 -0.509 184 127 110
0.335993 -0.32934 -0.499 182 125 108
0.337217 -0.32868 -0.498 181 124 107
0.349549 -0.32868 -0.498 178 121 104
0.35381 -0.33 -0.5 177 120 103
0.371812 -0.33594 -0.509 131 93 82
0.38036 -0.33924 -0.514 133 93 81
0.387267 -0.34188 -0.518 132 92 80
0.405806 -0.34848 -0.528 133 94 79
0.412933 -0.35112 -0.532 137 97 85
0.429987 -0.35772 -0.542 139 101 90
0.43261 -0.35904 -0.544 140 102 91
0.478288 -0.38676 -0.586 203 197 209
0.0614429 -0.371329 -0.561 199 154 133
0.0627867 -0.366695 -0.554 202 157 134
0.0678705 -0.360076 -0.544 202 157 134
0.0767705 -0.35809 -0.541 202 158 133
0.0788314 -0.35809 -0.541 202 158 131
0.0956714 -0.359414 -0.543 184 134 109
0.09792 -0.360076 -0.544 183 131 107
0.0989562 -0.360076 -0.544 180 128 104
0.100176 -0.360738 -0.545 178 126 102
0.12 -0.370667 -0.56 149 95 83
0.12257 -0.37199 -0.562 149 96 88
0.15496 -0.394495 -0.596 77 74 101
0.160906 -0.395157 -0.597 132 134 157
0.197625 -0.395819 -0.598 154 158 183
0.20298 -0.395157 -0.597 157 158 178
0.205254 -0.395157 -0.597 107 108 129
0.214351 -0.395157 -0.597 183 189 211
0.216626 -0.395157 -0.597 158 162 191
0.31146 -0.355443 -0.537 183 134 129
0.308333 -0.342867 -0.518 188 131 122
0.313174 -0.339557 -0.513 126 66 55
0.316465 -0.338895 -0.512 150 91 77
0.31974 -0.338233 -0.511 173 114 100
0.324963 -0.335586 -0.507 180 122 108
0.325605 -0.334262 -0.505 183 127 112
0.330952 -0.330952 -0.5 179 123 106
0.333142 -0.33029 -0.499 185 128 111
0.334371 -0.329629 -0.498 184 127 110
0.33654 -0.328967 -0.497 182 126 109
0.338433 -0.328967 -0.497 182 126 109
0.33938 -0.328967 -0.497 181 125 108
0.340327 -0.328967 -0.497 179 123 106
0.341273 -0.328967 -0.497 177 121 104
0.34222 -0.328967 -0.497 182 126 109
0.370114 -0.336248 -0.508 135 97 86
0.38036 -0.340219 -0.514 133 95 82
0.391733 -0.34419 -0.52 130 92 79
0.4005 -0.3475 -0.525 131 93 80
0.419338 -0.354119 -0.535 140 102 91
0.421143 -0.354781 -0.536 139 101 90
0.422951 -0.355443 -0.537 138 100 89
0.437079 -0.362062 -0.547 142 104 95
0.0594829 -0.380363 -0.573 201 151 126
0.06256 -0.366423 -0.552 202 157 134
0.0669571 -0.361776 -0.545 192 147 124
0.0748476 -0.359785 -0.542 203 157 134
0.077801 -0.359121 -0.541 202 158 131
0.0989562 -0.361112 -0.544 182 131 104
0.115966 -0.369078 -0.556 149 97 86
0.117235 -0.369742 -0.557 149 95 85
0.129515 -0.377708 -0.569 129 87 88
0.135732 -0.383018 -0.577 115 88 93
0.153567 -0.394967 -0.595 85 85 111
0.159501 -0.39563 -0.596 133 134 154
0.160636 -0.39563 -0.596 133 134 154
0.177665 -0.39563 -0.596 76 95 138
0.186747 -0.39563 -0.596 170 173 192
0.332017 -0.386337 -0.582 180 148 153
0.307529 -0.341862 -0.515 185 132 124
0.30889 -0.341198 -0.514 185 131 121
0.310243 -0.340534 -0.513 181 122 114
0.311589 -0.33987 -0.512 146 87 73
0.313539 -0.33987 -0.512 106 47 33
0.320086 -0.338543 -0.51 163 105 91
0.326231 -0.333896 -0.503 182 124 110
0.35738 -0.332569 -0.501 162 105 88
0.4005 -0.3485 -0.525 127 89 76
0.43628 -0.36244 -0.546 141 103 92
0.46387 -0.379035 -0.571 149 115 113
0.0668343 -0.362149 -0.544 196 151 130
0.0716181 -0.360151 -0.541 205 159 135
0.0817714 -0.359486 -0.54 202 156 132
0.0858857 -0.359486 -0.54 201 155 129
0.101214 -0.362814 -0.545 175 121 97
0.10244 -0.36348 -0.546 174 119 98
0.159501 -0.396766 -0.596 136 135 151
0.162907 -0.396766 -0.596 134 134 158
0.173124 -0.396766 -0.596 111 124 158
0.318143 -0.339514 -0.51 122 64 50
0.320428 -0.338849 -0.509 150 93 76
0.320766 -0.338183 -0.508 157 100 83
0.321733 -0.338183 -0.508 160 103 86
0.338697 -0.330194 -0.496 183 126 109
0.352151 -0.332191 -0.499 176 114 99
0.354762 -0.332857 -0.5 164 105 89
0.372782 -0.338849 -0.509 130 90 80
0.393479 -0.346837 -0.521 125 87 74
0.407817 -0.351497 -0.528 130 90 78
0.41496 -0.35416 -0.532 134 96 85
0.0716181 -0.361182 -0.541 205 160 137
0.0766286 -0.360514 -0.54 200 155 132
0.0898333 -0.359847 -0.539 191 144 118
0.0910286 -0.360514 -0.54 188 138 111
0.10367 -0.365188 -0.547 173 118 98
0.110926 -0.368526 -0.552 159 102 91
0.117235 -0.371864 -0.557 151 94 85
0.160367 -0.397233 -0.595 140 138 152
0.167167 -0.397233 -0.595 88 98 134
0.1785 -0.397233 -0.595 83 95 135
0.311263 -0.36185 -0.542 188 130 128
0.303799 -0.345159 -0.517 191 139 128
0.313286 -0.340486 -0.51 196 140 125
0.334918 -0.331139 -0.496 186 129 112
0.339642 -0.331139 -0.496 186 129 112
0.341531 -0.331139 -0.496 180 123 106
0.34506 -0.331807 -0.497 179 120 104
0.358093 -0.335145 -0.502 147 96 79
0.365766 -0.337815 -0.506 126 84 70
0.377905 -0.341821 -0.512 134 91 82
0.37962 -0.342489 -0.513 133 90 81
0.384789 -0.344491 -0.516 131 91 81
0.386519 -0.345159 -0.517 129 89 79
0.38924 -0.345827 -0.518 127 87 75
0.418786 -0.355841 -0.533 132 94 85
0.439966 -0.365855 -0.548 141 106 100
0.0579838 -0.380959 -0.569 199 157 135
0.0725143 -0.361543 -0.54 203 158 135
0.0805933 -0.360873 -0.539 199 155 130
0.0845429 -0.360204 -0.538 201 154 128
0.11218 -0.370247 -0.553 156 101 94
0.113438 -0.370916 -0.554 154 99 92
0.155833 -0.398367 -0.595 132 125 141
0.180767 -0.398367 -0.595 125 134 167
0.190967 -0.398367 -0.595 162 163 181
0.201167 -0.398367 -0.595 142 159 213
0.303787 -0.342796 -0.512 196 147 133
0.306486 -0.341457 -0.51 195 142 134
0.308429 -0.341457 -0.51 196 141 134
0.319169 -0.339449 -0.507 161 103 89
0.336129 -0.331414 -0.495 186 133 115
0.338014 -0.331414 -0.495 187 131 114
0.343421 -0.332084 -0.496 175 118 101
0.346007 -0.332753 -0.497 165 108 91
0.374486 -0.341457 -0.51 132 91 85
0.408823 -0.353509 -0.528 132 92 82
0.41239 -0.354848 -0.53 127 87 77
0.4134 -0.354848 -0.53 124 84 74
0.425227 -0.358865 -0.536 138 100 91
0.0562086 -0.384729 -0.573 202 157 136
0.0636086 -0.364586 -0.543 200 158 136
0.0646429 -0.364586 -0.543 201 159 137
0.0713533 -0.3619 -0.539 204 159 136
0.0744333 -0.3619 -0.539 203 158 135
0.0763448 -0.361229 -0.538 204 158 132
0.0965276 -0.363914 -0.542 189 135 111
0.10244 -0.3666 -0.546 178 122 105
0.113438 -0.371971 -0.554 153 100 92
0.117446 -0.374657 -0.558 147 94 86
0.118721 -0.375329 -0.559 147 94 86
0.121283 -0.376671 -0.561 143 93 86
0.156703 -0.398829 -0.594 136 133 152
0.184989 -0.398829 -0.594 171 170 184
0.198566 -0.398829 -0.594 74 101 148
0.208749 -0.398829 -0.594 88 117 173
0.304915 -0.341757 -0.509 197 143 131
0.307824 -0.341757 -0.509 198 145 129
0.308793 -0.341757 -0.509 198 145 129
0.32619 -0.335714 -0.5 181 123 109
0.326489 -0.335043 -0.499 188 130 116
0.327731 -0.334371 -0.498 192 136 119
0.328305 -0.333029 -0.496 188 132 115
0.332357 -0.332357 -0.495 185 129 114
0.334509 -0.331686 -0.494 193 136 119
0.3399 -0.332357 -0.495 183 127 110
0.349549 -0.334371 -0.498 160 103 86
0.3624 -0.3384 -0.504 123 81 69
0.36842 -0.340414 -0.507 123 83 73
0.377905 -0.343771 -0.512 137 93 84
0.385771 -0.346457 -0.516 131 88 79
