ply
format ascii 1.0
comment Created by Open3D
element vertex 1287
property double x
property double y
property double z
property uchar red
property uchar green
property uchar blue
end_header
-0.133093 -0.2116 -0.644 190 188 176
-0.126905 -0.213571 -0.65 191 188 179
0.446087 -0.1771 -0.539 198 151 135
0.454154 -0.175457 -0.534 203 154 137
0.457206 -0.175457 -0.534 202 153 136
0.457365 -0.175129 -0.533 199 150 133
0.49036 -0.1794 -0.546 160 121 106
-0.13992 -0.210183 -0.636 187 187 177
-0.127946 -0.214479 -0.649 192 190 178
-0.0238457 -0.212166 -0.642 74 72 86
0.444857 -0.178457 -0.54 200 153 135
0.446284 -0.177796 -0.538 199 153 137
0.455171 -0.176474 -0.534 202 153 136
0.456189 -0.176474 -0.534 204 155 138
0.45838 -0.176144 -0.533 201 153 133
0.464471 -0.176144 -0.533 194 147 127
0.477163 -0.177466 -0.537 175 130 111
0.483809 -0.178788 -0.541 163 125 106
-0.293591 -0.210397 -0.633 251 251 249
-0.29072 -0.210065 -0.632 252 255 253
-0.148809 -0.213721 -0.643 186 186 176
-0.14378 -0.211727 -0.637 188 188 178
-0.142567 -0.211727 -0.637 188 188 178
-0.13992 -0.211394 -0.636 188 188 178
-0.128983 -0.215383 -0.648 192 190 178
-0.0365238 -0.216048 -0.65 70 68 81
-0.0298667 -0.212724 -0.64 70 68 82
-0.0286029 -0.212391 -0.639 70 68 82
-0.0226581 -0.213721 -0.643 76 74 88
0.462649 -0.192449 -0.579 166 132 123
0.446284 -0.178821 -0.538 198 153 134
0.454154 -0.177491 -0.534 203 155 135
0.456507 -0.176827 -0.532 199 151 131
0.45752 -0.176827 -0.532 200 152 132
0.458533 -0.176827 -0.532 197 149 129
0.462587 -0.176827 -0.532 195 147 125
0.4636 -0.176827 -0.532 195 147 125
0.484839 -0.179818 -0.541 165 127 108
-0.310143 -0.217286 -0.65 253 253 251
-0.294055 -0.211937 -0.634 253 253 251
-0.29072 -0.211269 -0.632 254 255 253
-0.287109 -0.211269 -0.632 250 255 249
-0.279123 -0.211603 -0.633 140 142 137
-0.25579 -0.214277 -0.641 253 253 251
-0.151433 -0.216951 -0.649 188 188 178
-0.148809 -0.214946 -0.643 188 188 178
-0.13992 -0.212606 -0.636 191 188 179
-0.0286029 -0.213609 -0.639 70 68 82
0.4477 -0.185529 -0.555 183 141 127
0.44444 -0.181183 -0.542 198 151 131
0.451103 -0.178509 -0.534 204 156 136
0.457671 -0.177506 -0.531 198 150 130
0.46664 -0.17784 -0.532 191 143 123
0.469548 -0.178174 -0.533 187 140 120
0.470563 -0.178174 -0.533 183 137 114
0.477295 -0.179177 -0.536 173 128 107
0.4887 -0.181517 -0.543 160 121 104
-0.261884 -0.21449 -0.638 160 160 158
-0.261077 -0.214826 -0.639 200 200 198
-0.255363 -0.21617 -0.643 253 253 251
-0.253307 -0.216507 -0.644 253 253 251
-0.148809 -0.21617 -0.643 188 188 178
-0.135336 -0.21617 -0.643 190 190 180
-0.0261276 -0.21449 -0.638 73 71 85
0.445259 -0.18087 -0.538 198 153 134
0.455649 -0.178517 -0.531 196 148 128
0.45666 -0.178517 -0.531 197 149 129
0.484073 -0.181207 -0.539 165 124 106
0.492576 -0.183224 -0.545 162 120 106
0.493614 -0.183224 -0.545 162 120 106
-0.283946 -0.214014 -0.633 251 252 247
-0.28274 -0.214014 -0.633 253 254 249
-0.145449 -0.216043 -0.639 186 186 174
-0.138927 -0.215367 -0.637 191 188 179
-0.135336 -0.217395 -0.643 192 189 180
-0.0285133 -0.215367 -0.637 72 70 83
0.444234 -0.181895 -0.538 198 153 134
0.45666 -0.179529 -0.531 197 149 129
0.467786 -0.179529 -0.531 193 145 123
-0.301904 -0.21862 -0.643 253 254 249
-0.281979 -0.21556 -0.634 252 253 248
-0.260267 -0.2176 -0.64 206 208 205
-0.129381 -0.221 -0.65 193 190 181
-0.0273429 -0.21692 -0.638 73 71 85
0.451733 -0.1904 -0.56 179 139 127
0.450258 -0.18122 -0.533 199 150 133
0.450427 -0.18088 -0.532 202 153 136
0.453467 -0.18088 -0.532 199 151 131
0.459838 -0.1802 -0.53 197 146 125
0.475639 -0.18122 -0.533 179 131 109
-0.285602 -0.216768 -0.634 251 252 247
-0.281979 -0.216768 -0.634 252 252 250
-0.272748 -0.21711 -0.635 253 253 251
-0.25488 -0.221554 -0.648 255 255 251
-0.133507 -0.22087 -0.646 195 192 183
-0.0261276 -0.218135 -0.638 73 71 84
0.446852 -0.182919 -0.535 187 140 122
0.448228 -0.182235 -0.533 201 154 136
0.450258 -0.182235 -0.533 200 151 134
0.453626 -0.181551 -0.531 198 150 130
-0.268753 -0.219007 -0.637 254 254 252
-0.266745 -0.21935 -0.638 251 253 250
-0.264729 -0.219694 -0.639 253 255 252
-0.263511 -0.219694 -0.639 247 249 246
-0.14036 -0.21935 -0.638 191 188 179
-0.139145 -0.21935 -0.638 192 189 180
-0.135126 -0.220726 -0.642 194 191 182
-0.0284686 -0.218663 -0.636 70 68 81
0.449814 -0.190814 -0.555 181 142 125
0.447622 -0.189439 -0.551 188 142 126
0.459838 -0.182219 -0.53 197 149 129
0.460848 -0.182219 -0.53 195 147 127
0.49193 -0.186345 -0.542 164 118 102
-0.2944 -0.221257 -0.64 255 255 253
-0.269967 -0.22022 -0.637 252 254 251
-0.267163 -0.220911 -0.639 251 253 250
-0.263924 -0.221257 -0.64 252 254 251
-0.25944 -0.22264 -0.644 158 158 156
-0.149271 -0.222986 -0.645 188 190 179
-0.0463571 -0.224369 -0.649 69 67 78
-0.04186 -0.22022 -0.637 64 61 78
0.445833 -0.184957 -0.535 186 137 120
0.447212 -0.184266 -0.533 201 152 135
0.464009 -0.182883 -0.529 191 143 123
0.468924 -0.183229 -0.53 193 145 125
0.471831 -0.183574 -0.531 186 138 118
0.4815 -0.184957 -0.535 170 125 106
0.484323 -0.185649 -0.537 169 124 105
-0.266778 -0.222824 -0.641 254 255 253
-0.259015 -0.224562 -0.646 150 150 148
-0.13793 -0.221781 -0.638 193 190 181
-0.0354562 -0.219348 -0.631 70 66 81
0.4484 -0.184933 -0.532 199 150 133
0.466024 -0.18389 -0.529 192 144 124
0.476773 -0.184933 -0.532 172 127 104
0.48625 -0.187019 -0.538 168 123 102
-0.136929 -0.223346 -0.639 195 192 183
-0.0415971 -0.221249 -0.633 66 64 78
-0.0366 -0.2202 -0.63 68 66 80
0.445 -0.186646 -0.534 196 148 128
0.452925 -0.184898 -0.529 197 150 132
0.477787 -0.185947 -0.532 175 130 109
-0.297304 -0.228077 -0.649 253 254 249
-0.288755 -0.225266 -0.641 253 253 251
-0.28221 -0.224914 -0.64 253 253 251
-0.270863 -0.225617 -0.642 253 253 251
-0.148502 -0.227374 -0.647 197 197 187
-0.146359 -0.225969 -0.643 194 194 184
-0.128143 -0.228429 -0.65 195 192 183
-0.0465667 -0.223157 -0.635 71 69 80
-0.0389381 -0.221049 -0.629 67 64 81
-0.0203971 -0.228077 -0.649 77 75 89
0.44608 -0.191177 -0.544 193 146 126
0.45408 -0.185554 -0.528 194 147 127
0.46112 -0.185554 -0.528 194 145 128
-0.290557 -0.2279 -0.645 253 253 251
-0.285982 -0.227193 -0.643 253 253 251
-0.133486 -0.226133 -0.64 197 195 183
-0.12671 -0.229313 -0.649 193 190 181
-0.054841 -0.228607 -0.647 77 76 81
-0.05336 -0.227547 -0.644 63 61 72
-0.045 -0.2226 -0.63 68 64 78
-0.03768 -0.221893 -0.628 69 66 83
-0.0354 -0.2226 -0.63 69 67 81
-0.0319514 -0.22366 -0.633 71 69 80
-0.0203971 -0.229313 -0.649 76 75 89
0.452216 -0.186207 -0.527 202 154 134
0.46125 -0.186207 -0.527 189 140 123
-0.292359 -0.23055 -0.649 253 253 251
-0.277472 -0.229484 -0.646 253 253 251
-0.274205 -0.229839 -0.647 253 253 251
-0.141131 -0.225931 -0.636 191 191 179
-0.135287 -0.226287 -0.637 191 191 181
-0.128585 -0.229484 -0.646 197 194 185
-0.0558133 -0.228773 -0.644 64 62 76
-0.0486771 -0.224155 -0.631 71 69 83
-0.0435914 -0.222734 -0.627 69 67 81
-0.0423971 -0.222734 -0.627 67 66 80
-0.0251467 -0.228773 -0.644 72 72 84
0.446546 -0.188631 -0.531 207 160 142
0.451063 -0.187566 -0.528 197 149 129
0.452216 -0.18721 -0.527 200 152 132
0.454224 -0.18721 -0.527 191 143 123
0.465385 -0.186855 -0.526 185 137 117
0.467273 -0.18721 -0.527 186 138 118
0.471289 -0.18721 -0.527 184 136 114
0.485576 -0.190052 -0.535 174 127 107
0.491373 -0.191118 -0.538 168 121 103
-0.047099 -0.223571 -0.626 69 67 81
-0.03094 -0.2275 -0.637 70 70 82
-0.022799 -0.231071 -0.647 74 73 87
0.446714 -0.189286 -0.53 206 161 140
0.453362 -0.187857 -0.526 195 148 128
0.454364 -0.187857 -0.526 199 151 131
0.4752 -0.188571 -0.528 183 132 111
0.477108 -0.188929 -0.529 180 129 108
0.499962 -0.194286 -0.544 166 115 96
-0.285381 -0.233381 -0.65 253 253 253
-0.273816 -0.233022 -0.649 252 254 251
-0.135857 -0.227636 -0.634 195 195 187
-0.121765 -0.233022 -0.649 204 202 190
-0.0619467 -0.231227 -0.644 126 126 128
-0.0482143 -0.224405 -0.625 71 69 83
-0.0434524 -0.224405 -0.625 69 67 81
-0.0275143 -0.230509 -0.642 69 71 83
-0.0263733 -0.231227 -0.644 70 72 84
-0.0251857 -0.231586 -0.645 71 73 85
0.445886 -0.193886 -0.54 202 155 139
0.451358 -0.188859 -0.526 199 152 132
0.455366 -0.188859 -0.526 200 153 133
0.460375 -0.188859 -0.526 193 146 126
0.469392 -0.188859 -0.526 188 140 118
-0.121577 -0.233897 -0.648 209 207 195
-0.06006 -0.229927 -0.637 71 69 82
-0.0585695 -0.228844 -0.634 70 68 81
-0.04806 -0.224873 -0.623 71 69 82
0.4535 -0.1895 -0.525 199 152 132
0.4655 -0.1895 -0.525 188 142 119
0.4675 -0.1895 -0.525 189 143 120
-0.145476 -0.235857 -0.65 251 251 251
-0.12922 -0.23114 -0.637 203 203 191
-0.115762 -0.235857 -0.65 224 218 202
-0.0724286 -0.235857 -0.65 234 230 221
-0.0667495 -0.233317 -0.643 133 133 135
-0.0355686 -0.229689 -0.633 68 68 78
-0.0322038 -0.231503 -0.638 70 70 80
0.447329 -0.197031 -0.543 191 148 132
0.446711 -0.196306 -0.541 194 151 135
0.447887 -0.191951 -0.529 205 160 141
0.459623 -0.190137 -0.524 197 150 130
0.461619 -0.190137 -0.524 194 147 127
-0.128814 -0.231624 -0.635 204 204 192
-0.0704238 -0.234542 -0.643 170 166 165
-0.0591171 -0.228706 -0.627 68 66 80
-0.0456133 -0.226882 -0.622 70 68 81
-0.0433829 -0.227611 -0.624 70 68 79
-0.0388762 -0.22907 -0.628 68 68 78
-0.0366581 -0.230165 -0.631 69 69 79
0.451358 -0.191865 -0.526 200 155 134
0.453634 -0.191135 -0.524 191 144 124
0.457627 -0.191135 -0.524 192 145 125
0.467608 -0.191135 -0.524 187 141 118
0.469604 -0.191135 -0.524 187 139 117
0.483153 -0.192959 -0.529 172 121 104
0.502146 -0.198066 -0.543 167 115 101
-0.128206 -0.231733 -0.632 203 203 193
-0.117147 -0.236133 -0.644 223 220 205
-0.0767857 -0.2365 -0.645 226 223 218
-0.07276 -0.2354 -0.642 162 160 161
-0.0713143 -0.234667 -0.64 122 120 121
-0.0684457 -0.2332 -0.636 67 65 70
-0.0433829 -0.2288 -0.624 71 69 80
-0.0389381 -0.230633 -0.629 70 70 80
0.193823 -0.2354 -0.642 189 140 135
0.224369 -0.237967 -0.649 185 125 125
0.446284 -0.197267 -0.538 191 152 137
0.4505 -0.1925 -0.525 199 158 138
0.4515 -0.1925 -0.525 199 156 137
0.458863 -0.1914 -0.522 195 148 128
0.467711 -0.191767 -0.523 187 139 117
-0.122767 -0.234043 -0.635 206 204 191
-0.114515 -0.236991 -0.643 233 231 216
-0.113467 -0.23736 -0.644 234 232 217
-0.0789971 -0.236991 -0.643 229 224 221
-0.0749714 -0.235886 -0.64 147 145 148
-0.0649848 -0.230726 -0.626 72 70 81
-0.039 -0.2322 -0.63 72 72 82
-0.0240314 -0.238466 -0.647 71 70 84
0.445705 -0.195343 -0.53 200 159 139
0.457869 -0.192394 -0.522 197 152 131
0.468708 -0.192763 -0.523 184 133 114
-0.116237 -0.236734 -0.639 229 227 212
-0.112938 -0.237475 -0.641 232 230 215
-0.0995133 -0.240439 -0.649 238 236 223
-0.0956571 -0.240069 -0.648 243 241 229
-0.0632829 -0.230066 -0.621 74 73 81
0.191529 -0.227843 -0.615 193 140 132
0.194409 -0.227102 -0.613 192 139 133
0.207257 -0.229695 -0.62 174 116 115
0.221598 -0.234882 -0.634 172 111 116
0.448363 -0.201169 -0.543 187 148 133
0.446193 -0.195241 -0.527 203 158 139
0.45588 -0.193389 -0.522 194 149 130
0.48233 -0.195241 -0.527 171 122 105
0.489026 -0.196723 -0.531 172 123 108
-0.129787 -0.233855 -0.628 237 237 237
-0.123411 -0.23311 -0.626 249 249 249
-0.121607 -0.234228 -0.629 244 241 236
-0.116535 -0.23609 -0.634 234 231 222
-0.110324 -0.238324 -0.64 229 227 214
-0.106271 -0.240186 -0.645 235 231 219
-0.0789743 -0.235717 -0.633 101 100 105
-0.0618 -0.230131 -0.618 73 72 80
-0.0534733 -0.229759 -0.617 72 70 81
0.1943 -0.22678 -0.609 183 129 119
0.223307 -0.235345 -0.632 161 105 106
0.453691 -0.205554 -0.552 178 137 131
0.445534 -0.197734 -0.531 197 154 137
0.448644 -0.195128 -0.524 207 162 143
0.450776 -0.194755 -0.523 204 159 140
-0.126989 -0.234303 -0.626 224 223 228
-0.109105 -0.239543 -0.64 230 228 215
-0.106833 -0.239917 -0.641 235 233 221
-0.0972171 -0.240291 -0.642 253 250 245
-0.0878286 -0.238046 -0.636 218 214 211
-0.0558238 -0.230934 -0.617 73 72 80
-0.0334714 -0.239169 -0.639 71 71 81
0.18303 -0.229811 -0.614 199 147 134
0.187571 -0.226817 -0.606 196 141 136
0.189567 -0.226443 -0.605 195 142 138
0.191871 -0.226443 -0.605 184 131 123
0.207252 -0.229437 -0.613 173 113 113
0.215524 -0.232057 -0.62 156 100 101
0.226559 -0.236174 -0.631 150 91 95
0.455999 -0.195003 -0.521 202 155 137
0.473689 -0.195751 -0.523 176 129 109
0.477589 -0.196126 -0.524 171 124 104
0.482417 -0.196874 -0.526 170 125 104
0.49484 -0.199869 -0.534 165 118 98
-0.110671 -0.238881 -0.635 243 240 233
-0.109634 -0.239257 -0.636 244 241 234
-0.0830029 -0.235871 -0.627 76 75 83
-0.0764171 -0.23399 -0.622 80 79 87
-0.0726286 -0.233238 -0.62 76 74 85
-0.0674667 -0.231733 -0.616 76 74 85
-0.0662933 -0.231733 -0.616 74 72 83
-0.0558238 -0.23211 -0.617 73 72 80
-0.0503524 -0.23399 -0.622 73 71 82
0.173957 -0.231357 -0.615 188 127 124
0.176013 -0.230981 -0.614 180 113 104
0.177771 -0.230229 -0.612 175 112 94
0.1824 -0.228724 -0.608 203 148 143
0.20474 -0.2291 -0.609 169 111 110
0.211099 -0.230981 -0.614 159 101 100
0.216006 -0.232486 -0.618 146 87 89
0.238216 -0.24189 -0.643 123 70 76
0.4633 -0.212548 -0.565 173 134 127
0.447943 -0.203143 -0.54 190 147 130
0.44536 -0.200133 -0.532 196 150 135
0.446034 -0.198629 -0.528 202 155 139
0.450909 -0.196371 -0.522 204 159 140
0.488191 -0.199005 -0.529 169 124 103
0.492987 -0.200133 -0.532 171 123 101
0.506283 -0.204271 -0.543 160 117 100
-0.101883 -0.239334 -0.633 223 222 218
-0.0886905 -0.23631 -0.625 76 75 80
-0.0784067 -0.234041 -0.619 78 76 87
-0.0672476 -0.23215 -0.614 76 74 85
-0.047099 -0.236688 -0.626 74 72 83
-0.0311829 -0.242737 -0.642 71 73 85
-0.0288267 -0.243493 -0.644 74 74 86
-0.0228695 -0.245384 -0.649 73 75 88
0.1815 -0.228748 -0.605 204 149 146
0.190286 -0.226857 -0.6 181 129 116
0.46658 -0.215136 -0.569 175 134 128
0.44536 -0.201147 -0.532 195 149 134
0.444695 -0.20039 -0.53 195 149 133
0.449914 -0.197366 -0.522 204 155 138
0.452152 -0.19661 -0.52 197 152 133
0.453143 -0.19661 -0.52 198 153 134
0.463146 -0.196231 -0.519 192 145 127
0.465123 -0.196231 -0.519 188 143 124
0.471877 -0.196988 -0.521 172 127 106
-0.09078 -0.23674 -0.623 66 66 74
-0.0828543 -0.23446 -0.617 77 75 86
-0.0683057 -0.23294 -0.613 77 76 84
-0.0581743 -0.23446 -0.617 74 73 81
-0.0460533 -0.23864 -0.628 74 72 83
-0.0403914 -0.24054 -0.633 71 71 81
-0.0381 -0.2413 -0.635 70 70 80
-0.0369486 -0.24168 -0.636 71 71 81
-0.0358495 -0.24244 -0.638 69 71 83
0.170257 -0.23028 -0.606 187 123 114
0.179751 -0.22914 -0.603 204 149 146
0.185095 -0.22724 -0.598 196 143 137
0.18706 -0.22686 -0.597 189 137 124
0.188512 -0.22724 -0.598 185 133 119
0.46904 -0.21736 -0.572 173 134 129
0.453317 -0.20862 -0.549 180 143 137
0.452152 -0.1976 -0.52 200 155 136
0.461267 -0.19684 -0.518 198 151 133
0.46899 -0.1976 -0.52 180 133 113
-0.113778 -0.236399 -0.619 95 96 100
-0.0798514 -0.233726 -0.612 75 73 84
-0.0670286 -0.233726 -0.612 75 75 83
-0.0494048 -0.23869 -0.625 74 72 83
-0.0228695 -0.247856 -0.649 73 75 88
0.169976 -0.231052 -0.605 194 128 116
0.175448 -0.23067 -0.604 205 148 137
0.185611 -0.227615 -0.596 187 135 124
0.214371 -0.232962 -0.61 195 136 130
0.219286 -0.23449 -0.614 177 119 115
0.226882 -0.237545 -0.622 178 120 118
0.241138 -0.244801 -0.641 180 122 121
0.446197 -0.203555 -0.533 191 148 131
0.44519 -0.201264 -0.527 191 148 129
0.447646 -0.200118 -0.524 197 152 131
0.473862 -0.198972 -0.521 177 130 110
0.479666 -0.199736 -0.523 177 130 110
-0.126395 -0.243719 -0.635 105 106 110
-0.122414 -0.240649 -0.627 109 108 114
-0.0941467 -0.235659 -0.614 62 62 70
-0.0691333 -0.234124 -0.61 74 77 84
-0.0494048 -0.239881 -0.625 74 72 83
-0.0472495 -0.241032 -0.628 73 73 85
-0.0438695 -0.242184 -0.631 73 73 85
-0.0393095 -0.243719 -0.635 73 73 85
-0.0358495 -0.24487 -0.638 71 74 83
0.1794 -0.229518 -0.598 205 150 147
0.18107 -0.22875 -0.596 204 150 148
0.183033 -0.228367 -0.595 198 145 141
0.20502 -0.231437 -0.603 200 141 133
0.452708 -0.209944 -0.547 186 140 125
0.4455 -0.2015 -0.525 198 155 136
0.452271 -0.199197 -0.519 204 158 142
0.45326 -0.199197 -0.519 202 156 140
0.456437 -0.19843 -0.517 197 152 133
0.471962 -0.199581 -0.52 177 132 111
0.472952 -0.199581 -0.52 177 132 111
0.478749 -0.200349 -0.522 173 131 109
0.4855 -0.2015 -0.525 166 123 104
-0.117315 -0.238757 -0.619 102 101 107
-0.0958571 -0.235286 -0.61 64 62 73
-0.09338 -0.2349 -0.609 63 62 70
-0.0714571 -0.235286 -0.61 79 78 86
-0.0572762 -0.239143 -0.62 75 74 82
-0.0461267 -0.242614 -0.629 73 71 82
-0.0393095 -0.244929 -0.635 72 72 82
-0.0370067 -0.2457 -0.637 71 71 81
-0.0335238 -0.246857 -0.64 69 71 83
0.160087 -0.250329 -0.649 187 143 142
0.16146 -0.239529 -0.621 204 156 154
0.173143 -0.231429 -0.6 193 140 134
0.176826 -0.230271 -0.597 201 146 143
0.211462 -0.233357 -0.605 182 125 118
0.212614 -0.233357 -0.605 187 130 123
0.45662 -0.2133 -0.553 181 138 131
0.4475 -0.207129 -0.537 187 146 128
0.446852 -0.206357 -0.535 187 146 128
0.464315 -0.199414 -0.517 188 141 121
-0.10382 -0.23606 -0.609 64 63 71
-0.0976981 -0.235285 -0.607 66 66 76
-0.0950714 -0.23451 -0.605 63 63 73
-0.0901629 -0.233734 -0.603 63 63 71
-0.08442 -0.233734 -0.603 66 66 74
-0.0821229 -0.233734 -0.603 68 66 77
-0.0705257 -0.237223 -0.612 77 76 84
-0.0393714 -0.246526 -0.636 72 72 82
0.15834 -0.246913 -0.637 198 145 141
0.159863 -0.241874 -0.624 211 162 165
0.167429 -0.232571 -0.6 179 114 112
0.174551 -0.231409 -0.597 206 156 149
0.183548 -0.229858 -0.593 185 131 121
0.233483 -0.243037 -0.627 165 110 107
0.245183 -0.248851 -0.642 166 112 112
0.247941 -0.250402 -0.646 166 112 112
0.250714 -0.251952 -0.65 162 108 108
0.44519 -0.204275 -0.527 192 151 131
0.474933 -0.201562 -0.52 178 133 112
0.475924 -0.201562 -0.52 178 133 112
0.478824 -0.20195 -0.521 176 131 108
0.48943 -0.203888 -0.526 170 127 108
-0.122187 -0.246179 -0.632 108 109 113
-0.1144 -0.239947 -0.616 102 103 107
-0.0907057 -0.233325 -0.599 62 62 70
-0.0641543 -0.240726 -0.618 76 75 83
-0.0629771 -0.240726 -0.618 77 76 84
-0.0518686 -0.243842 -0.626 74 72 83
-0.0462733 -0.24579 -0.631 73 73 81
-0.0323552 -0.249685 -0.641 71 71 81
-0.0276429 -0.251243 -0.645 142 142 154
0.159077 -0.234883 -0.603 200 153 145
0.187251 -0.231377 -0.594 172 113 105
0.193883 -0.232546 -0.597 154 95 87
0.21306 -0.234883 -0.603 180 123 116
0.217942 -0.236441 -0.607 176 126 119
0.460749 -0.217354 -0.558 173 142 139
0.456018 -0.214628 -0.551 185 138 128
0.44819 -0.202552 -0.52 198 155 136
0.461538 -0.200605 -0.515 192 147 128
0.484647 -0.203721 -0.523 165 130 108
0.496181 -0.206448 -0.53 170 124 108
-0.125733 -0.25208 -0.644 113 117 118
-0.0977143 -0.234857 -0.6 77 77 85
-0.0892657 -0.233683 -0.597 64 64 72
-0.0859981 -0.234074 -0.598 58 58 66
-0.0809743 -0.236031 -0.603 69 68 76
-0.0799581 -0.236423 -0.604 71 70 78
-0.0749429 -0.238771 -0.61 76 75 83
-0.0474752 -0.246991 -0.631 73 73 83
-0.0417286 -0.248557 -0.635 73 73 83
-0.03822 -0.24934 -0.637 73 73 83
-0.0359057 -0.250123 -0.639 75 75 85
-0.0323552 -0.250906 -0.641 114 114 124
0.152271 -0.245426 -0.627 189 131 120
0.185807 -0.232117 -0.593 170 110 102
0.19502 -0.233683 -0.597 152 93 85
0.202181 -0.234074 -0.598 195 136 128
0.205598 -0.234074 -0.598 194 137 128
0.209714 -0.234857 -0.6 186 129 120
0.211209 -0.235249 -0.601 187 130 123
0.215357 -0.236031 -0.603 179 126 122
0.234303 -0.245034 -0.626 155 105 104
0.445534 -0.207849 -0.531 184 146 127
0.457705 -0.201194 -0.514 196 151 132
0.464481 -0.201586 -0.515 181 136 115
0.469239 -0.202369 -0.517 182 137 116
0.473107 -0.20276 -0.518 179 134 113
0.486639 -0.204717 -0.523 171 128 109
0.49719 -0.207457 -0.53 163 125 106
-0.11433 -0.244653 -0.622 105 109 112
-0.101143 -0.236 -0.6 74 74 82
-0.0996667 -0.235213 -0.598 76 77 82
-0.0790686 -0.23836 -0.606 71 70 78
-0.06864 -0.242293 -0.616 77 76 84
-0.063181 -0.243867 -0.62 76 75 83
-0.053061 -0.246227 -0.626 76 74 85
0.147 -0.2478 -0.63 206 149 142
0.158286 -0.236 -0.6 199 149 140
0.201505 -0.234427 -0.596 198 141 132
0.20264 -0.234427 -0.596 195 138 129
0.226303 -0.241507 -0.614 158 107 106
0.228584 -0.242687 -0.617 158 108 107
0.458501 -0.217907 -0.554 182 140 126
0.445347 -0.206893 -0.526 190 149 131
0.455747 -0.202173 -0.514 196 151 132
0.482793 -0.204927 -0.521 170 133 107
-0.10614 -0.2407 -0.609 65 66 71
-0.0897971 -0.234376 -0.593 54 55 60
-0.0858543 -0.235957 -0.597 45 46 51
-0.0699267 -0.243862 -0.617 77 76 84
0.144643 -0.247024 -0.625 203 149 147
0.150529 -0.243071 -0.615 199 137 126
0.157494 -0.235957 -0.597 200 147 141
0.175876 -0.23319 -0.59 194 139 132
0.1921 -0.235167 -0.595 156 92 82
0.242128 -0.250581 -0.634 137 91 93
0.447212 -0.210662 -0.533 185 147 128
0.44844 -0.204733 -0.518 201 155 139
0.453789 -0.203152 -0.514 198 153 134
0.474163 -0.204338 -0.517 183 138 119
-0.11232 -0.247817 -0.624 96 99 104
-0.0967371 -0.235903 -0.594 67 68 73
-0.0803552 -0.241066 -0.607 64 63 71
-0.0793295 -0.241463 -0.608 66 65 73
-0.0655429 -0.246229 -0.62 78 76 87
-0.0498 -0.2502 -0.63 75 73 84
-0.0288267 -0.25576 -0.644 120 118 132
0.143717 -0.246626 -0.621 199 143 142
0.147945 -0.243846 -0.614 170 103 94
0.153334 -0.239477 -0.603 210 157 153
0.168864 -0.235506 -0.593 206 151 146
0.180371 -0.234314 -0.59 177 118 110
0.182929 -0.234711 -0.591 171 111 101
0.195171 -0.235903 -0.594 206 149 142
0.199361 -0.235506 -0.593 199 142 135
0.445347 -0.208897 -0.526 191 150 130
0.44819 -0.206514 -0.52 195 153 131
0.502107 -0.21128 -0.532 161 120 102
-0.119971 -0.257785 -0.646 110 114 117
-0.11358 -0.251799 -0.631 115 118 123
-0.0939971 -0.235837 -0.591 108 109 114
-0.0851429 -0.239429 -0.6 55 56 60
-0.076479 -0.244616 -0.613 68 67 73
-0.0713324 -0.24701 -0.619 74 73 79
-0.0679048 -0.24741 -0.62 76 75 81
-0.0589286 -0.249405 -0.625 78 76 87
-0.0417943 -0.253794 -0.636 74 72 83
0.14256 -0.245813 -0.616 197 139 138
0.16236 -0.237034 -0.594 194 139 134
0.172505 -0.235438 -0.59 198 143 136
0.173334 -0.235039 -0.589 196 141 134
0.1767 -0.235039 -0.589 189 132 121
0.177822 -0.235039 -0.589 185 128 117
0.182929 -0.235837 -0.591 168 108 98
0.2394 -0.2514 -0.63 129 84 91
0.4935 -0.2095 -0.525 164 122 106
-0.0993333 -0.238968 -0.596 125 126 131
-0.0965743 -0.237765 -0.593 123 126 133
-0.0896457 -0.237364 -0.592 118 117 123
-0.0567286 -0.251397 -0.627 75 73 84
-0.0544267 -0.251798 -0.628 75 73 84
-0.04642 -0.253803 -0.633 75 73 84
-0.0264552 -0.259015 -0.646 75 73 87
0.142097 -0.246185 -0.614 191 131 131
0.1428 -0.245383 -0.612 182 117 111
0.17528 -0.23576 -0.588 189 135 123
0.1764 -0.23576 -0.588 185 129 116
0.181188 -0.236161 -0.589 168 108 97
0.193387 -0.237364 -0.592 201 144 135
0.204317 -0.236963 -0.591 187 134 128
0.213571 -0.23977 -0.598 174 115 109
0.251632 -0.259015 -0.646 123 80 87
0.451864 -0.216915 -0.541 184 147 131
0.447329 -0.208094 -0.519 195 152 135
0.449657 -0.206891 -0.516 196 153 136
0.450851 -0.20609 -0.514 199 156 139
0.488691 -0.209297 -0.522 167 124 107
-0.119292 -0.261454 -0.649 109 110 115
-0.1152 -0.257829 -0.64 120 123 130
-0.0681238 -0.250577 -0.622 75 74 82
-0.0635886 -0.251383 -0.624 78 76 87
-0.0579229 -0.252591 -0.627 77 75 86
-0.0522 -0.2538 -0.63 75 74 82
-0.0347971 -0.258231 -0.641 74 72 83
-0.0228695 -0.261454 -0.649 75 73 86
0.140105 -0.252189 -0.626 211 162 158
0.148987 -0.243326 -0.604 207 149 148
0.188557 -0.238089 -0.591 166 104 89
0.202848 -0.237686 -0.59 188 135 129
0.247629 -0.258634 -0.642 123 81 91
0.252022 -0.260649 -0.647 124 81 90
0.45122 -0.21714 -0.539 182 144 131
0.446714 -0.213514 -0.53 186 146 134
0.445347 -0.211903 -0.526 191 149 135
0.446791 -0.210694 -0.523 191 149 135
0.448317 -0.209083 -0.519 189 146 129
0.450851 -0.207069 -0.514 200 157 140
0.450951 -0.206666 -0.513 202 156 140
0.457953 -0.20586 -0.511 202 157 138
0.468474 -0.207069 -0.514 182 137 116
0.488748 -0.209889 -0.521 167 125 109
-0.117692 -0.261881 -0.647 111 112 117
-0.100469 -0.241238 -0.596 118 122 125
-0.0786857 -0.247714 -0.612 60 59 67
-0.0693086 -0.251762 -0.622 74 73 81
-0.0671543 -0.252571 -0.624 74 73 81
-0.0614076 -0.253381 -0.626 78 76 87
-0.0603114 -0.253786 -0.627 78 76 87
-0.0534 -0.255 -0.63 75 74 82
-0.047701 -0.256619 -0.634 73 73 83
-0.0371229 -0.258643 -0.639 72 72 82
-0.0216667 -0.263095 -0.65 74 72 83
0.150035 -0.242452 -0.599 210 152 150
0.151176 -0.242452 -0.599 209 151 149
0.156703 -0.240429 -0.594 187 133 121
0.158698 -0.240024 -0.593 175 120 113
0.159828 -0.240024 -0.593 190 132 128
0.188238 -0.23881 -0.59 196 139 128
0.198462 -0.237595 -0.587 197 140 133
0.212077 -0.241643 -0.597 167 107 106
0.2244 -0.247714 -0.612 138 92 95
0.22704 -0.249333 -0.616 133 87 90
0.2382 -0.255 -0.63 124 71 81
0.446034 -0.213714 -0.528 187 149 136
0.444799 -0.21169 -0.523 192 151 131
-0.0922429 -0.238713 -0.587 111 114 121
-0.0883686 -0.24034 -0.591 84 85 90
-0.084859 -0.243187 -0.598 62 63 68
-0.0592114 -0.255387 -0.628 77 75 86
-0.0488314 -0.25742 -0.633 74 73 81
-0.0430057 -0.25864 -0.636 72 72 82
0.145776 -0.246033 -0.605 208 148 147
0.159558 -0.240747 -0.592 210 155 150
0.163237 -0.239527 -0.589 209 154 149
0.169929 -0.2379 -0.585 189 132 121
0.174684 -0.238307 -0.586 185 127 113
0.17976 -0.23912 -0.588 175 112 103
0.19096 -0.23912 -0.588 205 148 141
0.19208 -0.23912 -0.588 202 145 138
0.202504 -0.239527 -0.589 188 131 122
0.205443 -0.24034 -0.591 181 124 115
0.208749 -0.24156 -0.594 172 115 108
0.44621 -0.211467 -0.52 194 151 132
0.451929 -0.20862 -0.513 197 154 137
-0.0955971 -0.239831 -0.587 114 117 124
-0.0749905 -0.253314 -0.62 64 63 71
-0.0706067 -0.25454 -0.623 68 67 75
-0.0637924 -0.255766 -0.626 75 73 84
-0.0348514 -0.262303 -0.642 71 71 81
-0.0276857 -0.263937 -0.646 72 70 81
-0.0253029 -0.264754 -0.648 73 71 82
0.143025 -0.248411 -0.608 170 109 104
0.144863 -0.247594 -0.606 196 136 135
0.165754 -0.239423 -0.586 205 148 141
0.1876 -0.24024 -0.588 205 148 141
0.216506 -0.246369 -0.603 151 96 91
0.218737 -0.247594 -0.606 145 90 85
0.237 -0.2574 -0.63 121 74 84
0.461847 -0.20878 -0.511 179 133 117
0.47239 -0.210006 -0.514 175 130 111
0.48401 -0.211231 -0.517 174 132 110
-0.0751114 -0.254906 -0.621 63 62 70
-0.07298 -0.255727 -0.623 63 62 70
-0.07072 -0.256137 -0.624 66 65 73
-0.0638943 -0.257369 -0.627 74 72 83
-0.0627 -0.257369 -0.627 76 74 85
-0.0546867 -0.25901 -0.631 77 76 84
-0.0288714 -0.264757 -0.645 74 72 83
0.159871 -0.24177 -0.589 211 153 149
0.161565 -0.24095 -0.587 203 148 143
0.169638 -0.239718 -0.584 187 134 120
0.17075 -0.239718 -0.584 190 134 119
0.171863 -0.239718 -0.584 186 130 115
0.18312 -0.24136 -0.588 195 136 130
0.18424 -0.24136 -0.588 195 136 130
0.197786 -0.240129 -0.585 184 127 120
0.212788 -0.245875 -0.599 158 99 93
0.221343 -0.25039 -0.61 132 86 89
0.237752 -0.259421 -0.632 123 76 86
0.447068 -0.213858 -0.521 192 149 133
0.446467 -0.212627 -0.518 194 151 135
0.447574 -0.212216 -0.517 193 149 136
0.448674 -0.211806 -0.516 196 152 139
0.464767 -0.209753 -0.511 188 142 126
0.472449 -0.210574 -0.513 176 131 112
-0.0952714 -0.241243 -0.585 113 113 121
-0.0939962 -0.24083 -0.584 112 112 120
-0.0900067 -0.242068 -0.587 99 102 111
-0.0771029 -0.254851 -0.618 61 60 66
-0.0761714 -0.255676 -0.62 61 60 66
-0.0741667 -0.256913 -0.623 62 61 69
-0.0696429 -0.257738 -0.625 66 65 73
-0.037239 -0.264336 -0.641 72 72 82
-0.0288714 -0.265986 -0.645 75 73 84
0.137137 -0.254851 -0.618 209 153 152
0.143234 -0.249078 -0.604 203 144 138
0.147507 -0.246604 -0.598 208 150 148
0.159329 -0.242068 -0.587 203 145 141
0.166301 -0.24083 -0.584 196 139 128
0.171863 -0.24083 -0.584 179 121 107
0.200698 -0.242068 -0.587 175 118 111
0.209451 -0.245779 -0.596 161 104 95
0.213143 -0.247429 -0.6 154 99 94
0.238881 -0.261862 -0.635 120 78 88
0.447574 -0.213201 -0.517 194 150 137
0.452113 -0.210727 -0.511 200 154 138
0.482138 -0.212376 -0.515 176 131 112
0.488893 -0.213613 -0.518 166 123 104
0.496601 -0.215675 -0.523 156 118 99
0.50622 -0.218974 -0.531 155 117 98
-0.08414 -0.248986 -0.601 70 70 78
-0.0790714 -0.254786 -0.615 61 60 66
-0.0697543 -0.259343 -0.626 65 64 72
-0.0535695 -0.261829 -0.632 77 75 86
-0.0349057 -0.266386 -0.643 73 73 83
-0.0301 -0.267214 -0.645 72 72 82
-0.0253029 -0.268457 -0.648 73 71 84
0.142084 -0.250229 -0.604 184 125 119
0.143907 -0.2494 -0.602 205 147 143
0.144812 -0.248986 -0.601 210 152 148
0.15314 -0.244014 -0.589 192 140 129
0.160739 -0.241943 -0.584 200 142 138
0.161851 -0.241943 -0.584 202 143 139
0.178843 -0.242357 -0.585 164 108 95
0.186324 -0.241943 -0.584 207 148 142
0.191229 -0.241114 -0.582 200 141 135
0.192668 -0.241529 -0.583 201 142 136
0.217583 -0.251057 -0.606 137 88 91
0.469167 -0.233243 -0.563 172 138 129
0.4472 -0.215429 -0.52 194 150 137
0.447329 -0.215014 -0.519 193 149 136
0.447453 -0.2146 -0.518 194 151 135
0.450167 -0.2117 -0.511 196 150 134
0.45114 -0.2117 -0.511 198 152 136
0.467687 -0.2117 -0.511 187 140 122
0.48504 -0.213771 -0.516 174 129 110
0.492762 -0.215429 -0.52 160 119 101
-0.102115 -0.249298 -0.599 107 110 117
-0.0983333 -0.245552 -0.59 106 109 116
-0.0928838 -0.243055 -0.584 106 106 116
-0.0662829 -0.260951 -0.627 68 66 77
-0.0559771 -0.263032 -0.632 74 72 83
-0.0547733 -0.263032 -0.632 76 74 85
-0.043141 -0.26553 -0.638 74 72 83
-0.03846 -0.266778 -0.641 74 72 83
-0.0289162 -0.268859 -0.646 73 71 84
-0.0229048 -0.270524 -0.65 72 70 83
0.137065 -0.263865 -0.634 207 154 160
0.146767 -0.247633 -0.595 209 151 149
0.171274 -0.242223 -0.582 185 123 110
0.180762 -0.243055 -0.584 203 149 137
0.192337 -0.242223 -0.582 198 139 133
0.194889 -0.242639 -0.583 188 129 123
0.220542 -0.254292 -0.611 129 83 86
0.236834 -0.264697 -0.636 155 134 149
0.451771 -0.223078 -0.536 185 145 137
0.45114 -0.212673 -0.511 201 155 140
0.456161 -0.211841 -0.509 192 147 128
0.47158 -0.212673 -0.511 190 144 121
-0.0560657 -0.264654 -0.633 75 73 84
-0.03846 -0.267999 -0.641 74 73 81
-0.0301467 -0.27009 -0.646 72 71 79
0.137143 -0.267581 -0.64 206 149 155
0.136783 -0.253366 -0.606 202 139 132
0.145633 -0.248767 -0.595 209 149 148
0.160189 -0.243331 -0.582 196 138 134
0.181251 -0.243331 -0.582 206 152 140
0.214209 -0.252111 -0.603 145 97 93
0.237951 -0.267163 -0.639 232 220 240
0.467733 -0.234133 -0.56 172 137 133
0.455796 -0.226608 -0.542 175 138 132
0.4475 -0.2195 -0.525 191 149 137
0.446791 -0.218664 -0.523 193 149 136
0.448893 -0.214901 -0.514 196 150 137
0.476404 -0.214065 -0.512 182 136 113
0.48316 -0.214901 -0.514 172 127 106
0.485081 -0.215319 -0.515 172 129 110
-0.111176 -0.26502 -0.631 104 107 116
-0.098 -0.24696 -0.588 98 101 108
-0.07654 -0.26166 -0.623 58 57 65
-0.0734486 -0.26334 -0.627 60 59 67
-0.0663886 -0.26376 -0.628 65 64 72
-0.03852 -0.26964 -0.642 73 73 81
0.1484 -0.24696 -0.588 198 143 138
0.169873 -0.24402 -0.581 178 118 108
0.1746 -0.24444 -0.582 176 116 106
0.182838 -0.2436 -0.58 206 149 140
0.19958 -0.24654 -0.587 174 111 102
0.460637 -0.23058 -0.549 180 141 136
0.449743 -0.2226 -0.53 191 147 136
0.448997 -0.21546 -0.513 198 152 136
0.47933 -0.21504 -0.512 177 132 111
0.48222 -0.21546 -0.513 170 128 106
-0.0978333 -0.247658 -0.587 94 97 104
-0.0963857 -0.246814 -0.585 96 99 106
-0.0951086 -0.246392 -0.584 97 100 107
-0.0503533 -0.268753 -0.637 75 73 84
-0.0467867 -0.269175 -0.638 74 74 82
0.182523 -0.244283 -0.579 208 149 141
0.196335 -0.246392 -0.584 174 116 105
0.240186 -0.272129 -0.645 252 247 254
0.448644 -0.221078 -0.524 193 147 134
0.44806 -0.219812 -0.521 199 152 136
0.44819 -0.21939 -0.52 202 155 139
0.447574 -0.218125 -0.517 200 154 138
0.4572 -0.214328 -0.508 200 155 136
0.480305 -0.216015 -0.512 182 136 113
0.48128 -0.216015 -0.512 176 130 107
0.485118 -0.216859 -0.514 171 126 103
-0.0996257 -0.250471 -0.591 94 97 104
-0.0767857 -0.264881 -0.625 58 57 65
-0.069 -0.267 -0.63 60 59 67
-0.0515667 -0.269967 -0.637 75 73 84
-0.0409657 -0.272086 -0.642 74 74 84
-0.0350143 -0.273357 -0.645 72 72 82
-0.0338381 -0.273781 -0.646 71 71 81
0.134696 -0.257252 -0.607 191 133 131
0.147895 -0.248352 -0.586 207 150 143
0.149615 -0.247505 -0.584 204 147 140
0.150728 -0.247505 -0.584 206 149 142
0.159911 -0.244538 -0.577 192 134 123
0.163491 -0.244962 -0.578 186 128 117
0.167895 -0.244962 -0.578 164 104 93
0.181107 -0.244962 -0.578 201 142 134
0.211209 -0.25471 -0.601 150 102 100
0.21306 -0.255557 -0.603 145 97 95
0.231733 -0.267848 -0.632 253 243 251
0.447329 -0.219957 -0.519 201 152 138
0.455334 -0.214871 -0.507 197 152 133
0.4563 -0.214871 -0.507 199 154 135
0.459197 -0.214871 -0.507 195 150 131
0.46107 -0.215295 -0.508 190 145 126
0.463006 -0.215295 -0.508 185 140 119
0.465909 -0.215295 -0.508 191 146 125
0.474543 -0.216143 -0.51 185 137 114
0.493827 -0.219533 -0.518 170 125 102
-0.110119 -0.266071 -0.625 99 102 111
-0.0839619 -0.258834 -0.608 82 81 89
-0.0550333 -0.270329 -0.635 73 71 82
-0.0504324 -0.271606 -0.638 75 73 84
0.15132 -0.247766 -0.582 203 146 137
0.15301 -0.246914 -0.58 202 145 138
0.157713 -0.245637 -0.577 191 132 124
0.16101 -0.245637 -0.577 193 135 124
0.18914 -0.246489 -0.579 193 136 129
0.192007 -0.24734 -0.581 177 122 115
0.448784 -0.222649 -0.523 195 149 136
0.463973 -0.216263 -0.508 193 146 128
0.466876 -0.216263 -0.508 192 145 125
0.487076 -0.218817 -0.514 171 124 104
-0.119292 -0.277525 -0.649 96 96 104
-0.0891914 -0.251868 -0.589 69 69 77
-0.0875381 -0.253578 -0.593 91 90 98
-0.0703114 -0.269828 -0.631 56 55 63
-0.0608886 -0.270683 -0.633 67 66 74
-0.0550333 -0.271538 -0.635 73 72 80
-0.0445648 -0.274104 -0.641 73 73 83
-0.0265781 -0.277525 -0.649 72 70 81
0.14739 -0.24973 -0.584 203 146 139
0.167605 -0.246736 -0.577 191 133 122
0.191676 -0.248019 -0.58 179 122 113
0.45333 -0.21723 -0.508 200 152 138
0.457328 -0.216375 -0.506 198 151 135
0.480371 -0.218086 -0.51 179 132 114
0.485181 -0.218941 -0.512 170 123 105
-0.109238 -0.266305 -0.62 96 98 110
-0.0973333 -0.250842 -0.584 94 97 104
-0.0868457 -0.255996 -0.596 91 92 97
-0.0839619 -0.26115 -0.608 83 84 89
-0.0824514 -0.263728 -0.614 80 79 87
-0.0726 -0.2706 -0.63 57 56 64
0.135654 -0.258144 -0.601 208 147 146
0.137485 -0.257285 -0.599 197 138 132
0.14774 -0.249553 -0.581 205 148 141
0.149695 -0.249124 -0.58 201 144 137
0.151381 -0.248265 -0.578 201 146 141
0.152218 -0.247835 -0.577 198 143 138
0.155246 -0.247406 -0.576 195 138 131
0.164833 -0.246976 -0.575 196 137 129
0.466729 -0.238386 -0.555 173 139 137
0.448784 -0.224641 -0.523 188 149 134
0.44822 -0.219487 -0.511 198 152 137
0.465957 -0.217769 -0.507 192 143 126
0.466923 -0.217769 -0.507 195 146 129
0.47749 -0.218628 -0.509 182 135 117
0.47846 -0.218628 -0.509 176 129 111
-0.118741 -0.278703 -0.646 97 97 107
-0.0989514 -0.253249 -0.587 97 97 105
-0.0900067 -0.253249 -0.587 65 68 75
-0.088219 -0.254543 -0.59 88 91 98
-0.036299 -0.278703 -0.646 73 73 81
-0.026619 -0.280429 -0.65 71 69 80
0.136344 -0.258426 -0.599 201 140 137
0.139731 -0.256269 -0.594 205 146 142
0.161267 -0.24764 -0.574 196 137 129
0.181262 -0.248071 -0.575 198 141 134
0.190571 -0.250229 -0.58 182 125 116
0.210413 -0.25972 -0.602 132 87 94
0.226678 -0.270937 -0.628 253 241 251
0.44892 -0.225206 -0.522 189 149 137
0.447043 -0.221323 -0.513 197 151 136
0.452437 -0.218734 -0.507 200 152 138
0.466002 -0.218303 -0.506 194 145 130
0.468854 -0.218734 -0.507 194 143 124
-0.120343 -0.2808 -0.648 98 101 106
-0.111488 -0.271267 -0.626 97 97 109
-0.0971667 -0.252633 -0.583 95 95 103
-0.0862857 -0.26 -0.6 88 91 98
-0.0716267 -0.273867 -0.632 55 56 61
-0.0704229 -0.273867 -0.632 53 54 59
-0.0517286 -0.2769 -0.639 73 71 82
-0.0470067 -0.277767 -0.641 73 73 83
-0.0458571 -0.2782 -0.642 73 73 81
-0.0302867 -0.281233 -0.649 70 70 78
0.139261 -0.256533 -0.592 207 148 144
0.141439 -0.254367 -0.587 202 143 139
0.155529 -0.2483 -0.573 196 139 132
0.15662 -0.2483 -0.573 197 140 133
0.162077 -0.2483 -0.573 202 143 135
0.176266 -0.2483 -0.573 197 138 130
0.195223 -0.253067 -0.584 167 112 105
0.211112 -0.261733 -0.604 128 85 92
0.454834 -0.232267 -0.536 179 142 136
0.45091 -0.229233 -0.529 186 146 138
0.447147 -0.221867 -0.512 193 147 132
0.447247 -0.221433 -0.511 193 147 134
0.460219 -0.219267 -0.506 200 151 136
0.466966 -0.219267 -0.506 195 146 129
0.468893 -0.219267 -0.506 195 147 127
0.474649 -0.2197 -0.507 185 138 120
-0.100581 -0.25679 -0.59 94 97 104
-0.0900067 -0.255485 -0.587 66 69 76
-0.0802286 -0.271589 -0.624 74 77 84
-0.076321 -0.274635 -0.631 63 63 71
-0.0303333 -0.282905 -0.65 70 70 78
0.135363 -0.28247 -0.649 192 144 140
0.135126 -0.279423 -0.642 188 134 132
0.15662 -0.249391 -0.573 196 139 132
0.1716 -0.248956 -0.572 195 138 127
0.184869 -0.250697 -0.576 180 126 114
0.197008 -0.25505 -0.586 169 111 110
0.211811 -0.263754 -0.606 123 90 97
0.467786 -0.241557 -0.555 175 142 137
0.454154 -0.232417 -0.534 178 141 133
0.447574 -0.225018 -0.517 198 154 141
0.452576 -0.219795 -0.505 203 157 142
-0.105094 -0.263597 -0.603 95 98 107
-0.0957267 -0.25398 -0.581 95 98 105
-0.0729457 -0.276711 -0.633 55 56 61
-0.0577238 -0.278897 -0.638 67 66 74
-0.0494486 -0.280209 -0.641 74 72 83
-0.0399905 -0.282394 -0.646 72 72 82
-0.0375876 -0.282831 -0.647 73 73 83
0.132643 -0.270591 -0.619 206 147 143
0.135433 -0.2601 -0.595 200 145 142
0.1379 -0.258351 -0.591 202 142 141
0.145624 -0.252231 -0.577 201 141 133
0.155257 -0.250046 -0.572 198 141 130
0.167242 -0.250046 -0.572 200 142 131
0.212161 -0.265346 -0.607 112 82 92
-0.0942943 -0.254209 -0.579 98 98 106
-0.0854267 -0.264307 -0.602 93 93 103
-0.073061 -0.278356 -0.634 55 55 63
-0.0647095 -0.278795 -0.635 52 51 59
-0.0623886 -0.279234 -0.636 56 55 63
-0.0530286 -0.28099 -0.64 72 70 81
-0.0435467 -0.282747 -0.644 73 73 81
0.139604 -0.256404 -0.584 202 143 137
0.146469 -0.252891 -0.576 193 131 120
0.155257 -0.251135 -0.572 197 139 127
0.169421 -0.251135 -0.572 193 135 124
0.177048 -0.251135 -0.572 191 134 125
0.186289 -0.25333 -0.577 176 119 110
0.46228 -0.23972 -0.546 169 138 135
0.4584 -0.22128 -0.504 200 153 137
0.46224 -0.22128 -0.504 197 150 134
0.488155 -0.223475 -0.509 173 128 105
0.512445 -0.231378 -0.527 152 116 94
-0.11268 -0.276036 -0.626 95 97 109
-0.0577238 -0.281328 -0.638 64 63 71
0.141717 -0.255311 -0.579 199 140 132
0.156073 -0.251784 -0.571 195 137 125
0.168037 -0.251784 -0.571 193 133 123
0.183452 -0.253548 -0.575 181 124 113
0.213909 -0.269863 -0.612 175 154 171
0.448317 -0.228854 -0.519 192 148 135
0.447043 -0.226209 -0.513 194 150 137
0.45552 -0.22224 -0.504 195 152 135
0.45936 -0.22224 -0.504 198 152 136
0.47376 -0.22224 -0.504 187 141 115
0.489125 -0.224445 -0.509 171 126 107
0.498814 -0.22709 -0.515 154 117 98
-0.10007 -0.259957 -0.587 101 101 111
-0.0839619 -0.269257 -0.608 93 93 103
-0.0819438 -0.274129 -0.619 83 86 95
-0.0707571 -0.281214 -0.635 49 49 57
-0.0612733 -0.2821 -0.637 55 54 62
-0.058939 -0.282543 -0.638 57 56 64
-0.0518095 -0.283429 -0.64 72 70 81
-0.0495257 -0.284314 -0.642 73 71 82
-0.0483029 -0.284314 -0.642 74 73 81
0.134127 -0.287414 -0.649 199 146 138
0.134111 -0.284757 -0.643 200 147 139
0.134074 -0.263057 -0.594 196 141 136
0.135419 -0.261286 -0.59 203 142 139
0.157161 -0.252871 -0.571 201 143 131
0.161229 -0.252429 -0.57 201 143 131
0.183133 -0.2542 -0.574 177 118 110
0.186289 -0.255529 -0.577 170 111 103
0.1909 -0.2573 -0.581 161 106 101
0.260218 -0.287414 -0.649 167 116 125
0.45168 -0.2232 -0.504 202 159 142
0.4536 -0.2232 -0.504 196 153 136
0.453658 -0.222757 -0.503 197 154 137
0.454616 -0.222757 -0.503 197 154 137
0.461362 -0.222314 -0.502 195 149 133
0.46803 -0.222757 -0.503 193 148 127
0.47568 -0.2232 -0.504 185 139 115
0.48335 -0.224086 -0.506 178 130 110
0.493967 -0.2263 -0.511 162 119 103
0.497846 -0.227629 -0.514 156 119 100
-0.119229 -0.285537 -0.642 98 98 106
-0.10007 -0.261075 -0.587 103 103 115
-0.0955619 -0.257962 -0.58 105 105 115
-0.0922476 -0.257962 -0.58 99 99 109
-0.0847 -0.269081 -0.605 95 95 105
-0.0766838 -0.281979 -0.634 67 67 75
-0.0696571 -0.282869 -0.636 48 49 54
-0.0578143 -0.284203 -0.639 60 59 67
0.131571 -0.273084 -0.614 200 146 134
0.141228 -0.256628 -0.577 190 132 121
0.142929 -0.255738 -0.575 192 132 121
0.145706 -0.254849 -0.573 185 121 109
0.191229 -0.258851 -0.582 164 109 106
0.19656 -0.26152 -0.588 150 97 93
0.460774 -0.241506 -0.543 164 136 132
0.454319 -0.237058 -0.533 173 143 132
0.449642 -0.233055 -0.524 186 146 134
0.456532 -0.223715 -0.503 199 153 137
0.467071 -0.223715 -0.503 192 145 125
0.468988 -0.223715 -0.503 191 144 124
0.501749 -0.229497 -0.516 155 119 97
-0.0981086 -0.25996 -0.582 104 107 116
-0.0905038 -0.260407 -0.583 71 73 85
-0.0895467 -0.260853 -0.584 69 69 77
-0.0649133 -0.284527 -0.637 49 48 56
-0.0518905 -0.286313 -0.641 71 69 80
-0.046 -0.287653 -0.644 71 69 82
-0.041221 -0.288547 -0.646 71 69 80
0.132101 -0.277827 -0.622 195 145 138
0.13496 -0.26264 -0.588 201 142 136
0.141833 -0.256833 -0.575 196 138 127
0.143773 -0.256387 -0.574 191 131 120
0.147372 -0.255047 -0.571 189 129 118
0.14846 -0.255047 -0.571 193 133 122
0.152543 -0.2546 -0.57 196 136 125
0.160946 -0.254153 -0.569 204 144 134
0.162314 -0.2546 -0.57 205 142 133
0.166365 -0.254153 -0.569 192 129 122
0.175343 -0.2546 -0.57 187 127 119
0.186289 -0.257727 -0.577 167 108 102
0.189793 -0.259513 -0.581 167 106 103
0.20264 -0.266213 -0.596 133 90 97
0.257023 -0.284973 -0.638 150 103 113
0.455171 -0.23852 -0.534 174 144 133
0.454669 -0.224227 -0.502 202 156 140
0.475694 -0.224673 -0.503 184 138 112
-0.11196 -0.279011 -0.622 99 102 109
-0.109529 -0.275871 -0.615 100 103 110
-0.0933524 -0.260171 -0.58 107 107 119
-0.0806143 -0.281254 -0.627 84 85 90
-0.0696571 -0.285291 -0.636 47 46 54
-0.0672343 -0.285291 -0.636 46 45 53
-0.0649133 -0.28574 -0.637 46 45 53
-0.0578143 -0.286637 -0.639 57 56 64
-0.0460714 -0.289329 -0.645 69 69 79
0.135617 -0.262863 -0.586 195 140 133
0.144614 -0.257031 -0.573 185 127 116
0.153359 -0.255237 -0.569 201 141 131
0.159862 -0.255237 -0.569 206 143 134
0.183452 -0.257929 -0.575 162 103 95
0.196894 -0.264209 -0.589 146 95 91
0.256619 -0.284394 -0.634 143 95 107
0.268457 -0.290674 -0.648 163 150 168
0.447043 -0.230117 -0.513 195 152 136
0.457537 -0.225183 -0.502 200 157 138
0.460406 -0.225183 -0.502 197 155 133
0.461397 -0.224734 -0.501 192 149 130
0.493002 -0.227874 -0.508 165 125 100
-0.102394 -0.267583 -0.594 109 109 119
-0.0942943 -0.260826 -0.579 111 111 119
-0.0870952 -0.265781 -0.59 115 115 123
-0.0732914 -0.286503 -0.636 51 50 58
-0.058939 -0.287404 -0.638 52 51 59
-0.0496029 -0.289656 -0.643 69 68 76
0.136033 -0.262628 -0.583 196 142 132
0.147114 -0.256771 -0.57 195 135 125
0.1482 -0.256771 -0.57 191 131 121
0.158778 -0.256321 -0.569 200 140 129
0.199361 -0.267132 -0.593 132 87 84
0.25581 -0.284701 -0.632 144 94 106
0.270524 -0.29281 -0.65 247 234 251
0.446726 -0.227941 -0.506 197 151 136
0.44769 -0.227941 -0.506 201 155 140
0.451742 -0.22659 -0.503 200 157 140
0.473803 -0.225689 -0.501 183 135 115
-0.11214 -0.281833 -0.623 99 102 109
-0.0800533 -0.285905 -0.632 85 85 93
-0.0612733 -0.288167 -0.637 50 49 55
-0.0531114 -0.289976 -0.641 66 65 73
0.132946 -0.266452 -0.589 198 141 134
0.140738 -0.260119 -0.575 189 131 120
0.15309 -0.256952 -0.568 198 140 128
0.157417 -0.256952 -0.568 197 137 126
0.191886 -0.26419 -0.584 160 101 95
0.193659 -0.265095 -0.586 149 90 84
0.447805 -0.232976 -0.515 191 147 134
0.447147 -0.231619 -0.512 201 157 144
0.446805 -0.228452 -0.505 200 154 138
0.452756 -0.227095 -0.502 198 155 136
0.455625 -0.227095 -0.502 200 154 138
0.471905 -0.22619 -0.5 190 142 120
0.497857 -0.230714 -0.51 159 121 100
-0.114236 -0.285291 -0.628 94 97 102
-0.104397 -0.272117 -0.599 106 109 118
-0.0957267 -0.26394 -0.581 114 113 121
-0.0867 -0.2703 -0.595 140 141 146
-0.0818086 -0.284837 -0.627 89 92 101
-0.079099 -0.288017 -0.634 82 82 90
-0.0759524 -0.289834 -0.638 64 64 72
-0.0684457 -0.288926 -0.636 58 58 66
-0.058939 -0.289834 -0.638 49 48 56
-0.0554667 -0.290743 -0.64 59 58 66
-0.0543324 -0.291197 -0.641 63 62 70
0.131571 -0.278931 -0.614 194 144 137
0.13903 -0.262123 -0.577 188 130 119
0.152008 -0.258034 -0.568 198 140 128
0.157417 -0.258034 -0.568 196 136 125
0.192214 -0.265757 -0.585 156 97 93
0.20468 -0.27348 -0.602 104 72 83
0.2478 -0.2862 -0.63 182 123 127
0.2562 -0.2862 -0.63 141 98 105
0.258626 -0.287563 -0.633 136 93 100
0.539429 -0.290743 -0.64 161 131 131
0.447043 -0.233049 -0.513 192 148 135
0.446466 -0.231231 -0.509 196 152 139
0.474762 -0.227143 -0.5 191 144 118
-0.0862857 -0.273714 -0.6 159 160 164
-0.0544171 -0.292874 -0.642 60 59 67
0.131143 -0.279189 -0.612 194 141 135
0.14411 -0.260485 -0.571 180 122 110
0.149844 -0.259116 -0.568 197 139 127
0.16203 -0.259572 -0.569 183 123 113
0.168236 -0.259116 -0.568 179 116 107
0.176738 -0.260485 -0.571 166 106 98
0.18519 -0.263222 -0.577 161 102 96
0.198231 -0.270521 -0.593 135 86 82
0.246209 -0.286944 -0.629 177 118 120
0.258217 -0.288312 -0.632 136 95 99
0.447147 -0.23357 -0.512 196 152 141
0.44784 -0.22992 -0.504 198 152 136
0.458571 -0.228095 -0.5 201 155 140
0.461456 -0.227639 -0.499 200 153 137
0.479524 -0.228095 -0.5 179 133 107
0.4843 -0.228551 -0.501 172 128 103
0.496872 -0.231745 -0.508 155 119 97
0.4998 -0.232657 -0.51 156 119 100
-0.09016 -0.26936 -0.588 69 69 77
-0.08642 -0.27898 -0.609 156 155 160
-0.0672343 -0.291349 -0.636 48 47 55
0.15309 -0.260198 -0.568 197 137 127
0.159581 -0.260198 -0.568 190 127 118
0.182357 -0.263405 -0.575 159 98 95
0.19432 -0.26936 -0.588 151 93 91
0.244257 -0.283103 -0.618 185 126 128
0.25498 -0.287226 -0.627 129 89 90
0.266386 -0.294555 -0.643 207 199 223
0.472014 -0.254243 -0.555 167 136 131
0.44802 -0.235003 -0.513 192 148 137
0.446466 -0.23317 -0.509 191 147 134
0.447767 -0.231338 -0.505 194 151 134
0.44784 -0.23088 -0.504 191 148 131
0.4488 -0.23088 -0.504 194 151 132
0.450784 -0.230422 -0.503 205 159 144
0.460506 -0.22859 -0.499 201 155 140
0.463357 -0.22859 -0.499 195 148 132
0.473812 -0.22859 -0.499 188 140 118
0.492976 -0.231338 -0.505 159 121 102
0.501753 -0.234087 -0.511 154 117 98
-0.0911248 -0.27002 -0.587 74 75 80
-0.0760714 -0.29394 -0.639 45 46 50
-0.0696571 -0.29256 -0.636 40 39 45
-0.0611771 -0.29256 -0.636 39 38 44
0.131337 -0.28704 -0.624 190 135 130
0.130071 -0.27922 -0.607 189 130 124
0.136203 -0.26634 -0.579 188 131 124
0.138548 -0.2645 -0.575 188 131 122
0.15309 -0.26128 -0.568 200 137 130
0.156335 -0.26128 -0.568 189 129 121
0.160946 -0.26174 -0.569 183 120 111
0.165281 -0.26174 -0.569 180 117 110
0.171784 -0.26174 -0.569 175 112 105
0.179227 -0.26312 -0.572 163 102 99
0.249771 -0.2852 -0.62 148 100 100
0.259831 -0.29118 -0.633 131 107 120
0.268859 -0.29716 -0.646 159 151 175
0.447343 -0.2346 -0.51 192 150 134
0.450784 -0.23138 -0.503 199 156 139
0.467171 -0.22908 -0.498 198 151 133
-0.11232 -0.288229 -0.624 89 92 101
-0.0963857 -0.270214 -0.585 96 97 101
-0.0951086 -0.269752 -0.584 94 95 99
-0.0862781 -0.280838 -0.608 191 191 193
-0.08554 -0.282224 -0.611 179 179 181
-0.0794733 -0.294233 -0.637 95 99 100
-0.0735219 -0.294695 -0.638 39 40 44
0.129977 -0.282686 -0.612 191 132 126
0.143857 -0.263286 -0.57 183 124 118
0.156335 -0.262362 -0.568 189 129 121
0.157417 -0.262362 -0.568 191 128 121
0.158499 -0.262362 -0.568 189 126 119
0.16499 -0.262362 -0.568 171 108 101
0.179227 -0.26421 -0.572 160 99 96
0.192871 -0.271138 -0.587 153 93 93
0.243771 -0.291924 -0.632 184 123 128
0.243846 -0.28361 -0.614 189 129 129
0.270926 -0.299314 -0.648 177 174 201
0.451903 -0.241114 -0.522 184 145 130
0.450294 -0.239729 -0.519 183 144 129
0.447609 -0.234186 -0.507 190 152 131
0.46812 -0.230029 -0.498 197 150 132
0.4757 -0.229567 -0.497 188 138 115
-0.0952714 -0.271329 -0.585 89 90 95
-0.0647095 -0.294519 -0.635 29 30 35
0.130285 -0.287098 -0.619 187 132 125
0.130702 -0.273184 -0.589 193 135 131
0.142771 -0.264371 -0.57 189 130 124
0.145772 -0.263908 -0.569 183 124 118
0.14768 -0.263444 -0.568 192 131 126
0.149844 -0.263444 -0.568 189 130 122
0.152008 -0.263444 -0.568 196 136 128
0.176429 -0.264371 -0.57 164 103 100
0.18409 -0.267618 -0.577 158 97 96
0.248563 -0.28617 -0.617 150 100 99
0.465586 -0.252776 -0.545 170 139 136
0.448893 -0.238398 -0.514 186 149 133
0.447343 -0.236543 -0.51 189 150 133
0.448729 -0.234224 -0.505 196 155 135
0.452756 -0.232832 -0.502 204 159 140
0.45381 -0.231905 -0.5 203 158 139
0.455714 -0.231905 -0.5 201 156 137
0.462429 -0.230977 -0.498 199 154 135
0.46434 -0.230513 -0.497 197 150 130
0.465287 -0.230513 -0.497 197 150 130
0.47002 -0.230513 -0.497 193 145 122
0.470967 -0.230513 -0.497 195 147 124
0.474753 -0.230513 -0.497 187 139 117
0.490026 -0.232369 -0.501 164 126 103
-0.105791 -0.282689 -0.607 85 85 95
-0.0852048 -0.287346 -0.617 192 192 192
-0.0832676 -0.292934 -0.629 167 169 166
-0.0635 -0.295729 -0.635 35 36 41
-0.0577238 -0.297126 -0.638 51 50 56
0.13048 -0.27384 -0.588 192 133 127
0.132702 -0.271511 -0.583 192 133 127
0.136594 -0.268251 -0.576 192 133 127
