ply
format ascii 1.0
comment Created by Open3D
element vertex 1311
property double x
property double y
property double z
property uchar red
property uchar green
property uchar blue
end_header
0.0372429 -0.417214 -0.495 192 148 113
0.0515933 -0.4189 -0.497 196 151 120
0.0556029 -0.420586 -0.499 193 148 117
0.0575038 -0.420586 -0.499 193 148 117
0.0646714 -0.423957 -0.503 183 139 114
0.0999924 -0.458514 -0.544 101 82 84
0.10329 -0.459357 -0.545 104 94 95
0.130837 -0.457671 -0.543 74 111 156
0.132906 -0.457671 -0.543 143 171 218
0.428954 -0.466943 -0.554 213 213 213
0.459097 -0.468629 -0.556 124 158 204
0.488569 -0.469471 -0.557 70 101 147
0.464308 -0.420586 -0.499 158 126 111
0.459595 -0.408786 -0.485 169 132 116
0.457049 -0.388557 -0.461 39 29 37
0.457564 -0.386029 -0.458 29 26 35
0.487202 -0.375914 -0.446 27 26 32
0.0117619 -0.417312 -0.494 196 152 123
0.0363 -0.418157 -0.495 193 148 115
0.0400714 -0.418157 -0.495 200 156 121
0.0419571 -0.418157 -0.495 199 155 120
0.0999924 -0.459551 -0.544 98 82 83
0.128531 -0.457861 -0.542 75 106 161
0.438451 -0.467998 -0.554 140 160 187
0.47816 -0.469688 -0.556 112 149 194
0.487691 -0.469688 -0.556 75 109 154
0.490869 -0.469688 -0.556 149 154 158
0.482853 -0.449413 -0.532 145 121 109
0.479319 -0.44519 -0.527 146 122 112
0.466113 -0.424915 -0.503 157 125 112
0.463393 -0.419847 -0.497 161 128 113
0.458589 -0.407175 -0.482 169 133 117
0.455881 -0.394504 -0.467 114 87 78
0.456057 -0.38859 -0.46 33 28 35
0.460334 -0.382677 -0.453 29 24 30
0.465306 -0.377609 -0.447 25 26 31
0.471061 -0.376764 -0.446 24 23 28
0.470852 -0.375919 -0.445 26 25 30
0.475714 -0.375074 -0.444 26 25 30
0.500395 -0.380988 -0.451 28 29 34
0.0117619 -0.418253 -0.494 195 151 122
0.0127029 -0.418253 -0.494 198 153 122
0.0343448 -0.418253 -0.494 197 152 119
0.0594048 -0.422487 -0.499 188 143 114
0.0700143 -0.42926 -0.507 167 125 101
0.0779857 -0.436033 -0.515 143 107 91
0.0804133 -0.438573 -0.518 139 103 89
0.10621 -0.460587 -0.544 144 139 143
0.110151 -0.45974 -0.543 143 147 156
0.116143 -0.458893 -0.542 48 83 139
0.134726 -0.458893 -0.542 222 231 238
0.430287 -0.468207 -0.553 211 216 220
0.451114 -0.469053 -0.554 76 108 165
0.4551 -0.4699 -0.555 117 153 201
0.459329 -0.4699 -0.555 182 185 190
0.475186 -0.4699 -0.555 95 133 182
0.4773 -0.4699 -0.555 98 138 189
0.484514 -0.470747 -0.556 80 111 165
0.481138 -0.447887 -0.529 145 123 112
0.462478 -0.418253 -0.494 164 131 116
0.455491 -0.40132 -0.474 167 130 111
0.455368 -0.399627 -0.472 164 127 109
0.455229 -0.397933 -0.47 156 123 108
0.45472 -0.392853 -0.464 53 37 38
0.460179 -0.382693 -0.452 28 26 31
0.461401 -0.380153 -0.449 24 23 28
0.463967 -0.380153 -0.449 28 27 33
0.465306 -0.37846 -0.447 31 30 36
0.470852 -0.376767 -0.445 26 25 31
0.47509 -0.376767 -0.445 24 25 29
0.481634 -0.37592 -0.444 27 26 32
0.48248 -0.37592 -0.444 28 27 33
-0.00147429 -0.437863 -0.516 191 150 122
0.00144857 -0.430226 -0.507 188 147 119
0.00335333 -0.426831 -0.503 192 151 123
0.00521714 -0.422589 -0.498 196 152 125
0.00708571 -0.420891 -0.496 187 143 116
0.0136162 -0.418346 -0.493 199 154 123
0.0154629 -0.417497 -0.492 200 155 124
0.0230067 -0.418346 -0.493 195 151 116
0.0390495 -0.419194 -0.494 196 150 117
0.0409314 -0.419194 -0.494 192 145 115
0.06672 -0.42768 -0.504 175 133 109
0.0767057 -0.435317 -0.513 139 106 89
0.0999924 -0.461623 -0.544 99 83 84
0.105173 -0.461623 -0.544 137 132 136
0.10621 -0.461623 -0.544 146 141 145
0.108083 -0.460774 -0.543 159 160 165
0.113046 -0.459926 -0.542 91 118 161
0.118208 -0.459926 -0.542 40 79 138
0.122111 -0.459077 -0.541 76 108 159
0.463557 -0.470957 -0.555 208 208 210
0.484669 -0.453137 -0.534 142 118 108
0.473178 -0.438711 -0.517 148 124 114
0.471411 -0.436166 -0.514 151 123 111
0.467889 -0.430226 -0.507 151 121 110
0.465214 -0.425134 -0.501 160 128 117
0.453929 -0.394586 -0.465 45 31 31
0.454414 -0.391191 -0.461 24 22 27
0.457891 -0.385251 -0.454 32 29 38
0.460546 -0.381009 -0.449 23 22 28
0.465306 -0.379311 -0.447 32 31 36
0.473395 -0.377614 -0.445 22 23 28
0.5083 -0.3861 -0.455 34 33 39
-0.00346 -0.441397 -0.519 190 151 122
0.0163667 -0.417584 -0.491 201 156 125
0.0182743 -0.418434 -0.492 199 154 123
0.0267629 -0.419285 -0.493 194 147 117
0.0315219 -0.420135 -0.494 196 149 119
0.0343448 -0.420135 -0.494 195 148 118
0.0362267 -0.420135 -0.494 193 147 114
0.0399095 -0.419285 -0.493 197 151 118
0.0446952 -0.420135 -0.494 198 153 122
0.0817143 -0.442248 -0.52 125 97 85
0.101029 -0.462659 -0.544 105 89 90
0.103101 -0.462659 -0.544 125 115 116
0.10498 -0.461809 -0.543 145 140 144
0.115929 -0.460108 -0.541 36 77 131
0.12005 -0.460108 -0.541 47 83 145
0.128294 -0.460108 -0.541 134 170 228
0.133447 -0.460108 -0.541 219 223 226
0.432663 -0.469463 -0.552 186 187 192
0.436607 -0.470313 -0.553 218 223 229
0.441873 -0.470313 -0.553 61 106 171
0.467998 -0.471164 -0.554 203 208 214
0.470109 -0.471164 -0.554 159 170 188
0.482586 -0.472014 -0.555 51 96 151
0.475847 -0.443098 -0.521 146 124 113
0.458671 -0.412481 -0.485 162 130 115
0.45453 -0.402275 -0.473 152 118 106
0.45374 -0.39377 -0.463 29 22 29
0.454697 -0.387817 -0.456 27 24 31
0.460546 -0.381864 -0.449 24 21 28
0.461227 -0.381013 -0.448 26 23 30
0.46831 -0.378462 -0.445 24 23 29
0.474023 -0.377611 -0.444 25 24 30
0.00892095 -0.420224 -0.493 195 151 122
0.0135886 -0.419371 -0.492 195 151 122
0.0145257 -0.419371 -0.492 196 153 121
0.0201486 -0.419371 -0.492 195 150 119
0.0220229 -0.419371 -0.492 195 150 119
0.0277019 -0.420224 -0.493 196 151 118
0.0342752 -0.420224 -0.493 195 150 117
0.0504429 -0.421929 -0.495 196 151 122
0.053379 -0.422781 -0.496 193 148 119
0.0817143 -0.443238 -0.52 123 95 83
0.129325 -0.461138 -0.541 178 197 227
0.435817 -0.470514 -0.552 205 208 213
0.45346 -0.471367 -0.553 131 169 218
0.454513 -0.471367 -0.553 141 179 228
0.457673 -0.471367 -0.553 194 197 204
0.47433 -0.472219 -0.554 70 112 162
0.47644 -0.472219 -0.554 67 112 167
0.479606 -0.472219 -0.554 49 93 154
0.467889 -0.432157 -0.507 151 121 110
0.465187 -0.427895 -0.502 154 126 115
0.453367 -0.399767 -0.469 58 42 45
0.45374 -0.394652 -0.463 27 25 30
0.453953 -0.389538 -0.457 31 26 33
0.458302 -0.384424 -0.451 23 22 28
0.46208 -0.381867 -0.448 23 22 28
0.47633 -0.377605 -0.443 24 23 29
0.483081 -0.377605 -0.443 27 26 32
0.483925 -0.377605 -0.443 29 28 34
0.490348 -0.37931 -0.445 28 27 33
0.0257714 -0.420309 -0.492 196 151 118
0.0594048 -0.426289 -0.499 185 139 113
0.06672 -0.43056 -0.504 170 125 104
0.0678143 -0.431414 -0.505 170 125 104
0.0781371 -0.440811 -0.516 132 103 89
0.0817143 -0.444229 -0.52 121 94 83
0.0830229 -0.445937 -0.522 113 93 86
0.0949667 -0.46046 -0.539 95 79 80
0.09756 -0.463023 -0.542 98 82 83
0.438971 -0.471566 -0.552 162 169 185
0.451589 -0.471566 -0.552 70 114 179
0.461887 -0.47242 -0.553 199 202 211
0.485937 -0.473274 -0.554 58 100 158
0.484776 -0.455334 -0.533 144 117 106
0.454074 -0.391263 -0.458 31 26 33
0.457746 -0.386991 -0.453 28 25 32
0.466614 -0.380157 -0.445 25 24 30
0.46958 -0.378449 -0.443 23 22 28
0.474643 -0.378449 -0.443 24 23 29
0.478862 -0.378449 -0.443 28 27 33
-0.00441429 -0.440938 -0.515 187 146 118
0.0107552 -0.42039 -0.491 197 154 122
0.0172667 -0.419533 -0.49 199 154 123
0.0229133 -0.42039 -0.491 194 149 118
0.0247838 -0.42039 -0.491 199 154 123
0.0323971 -0.422102 -0.493 195 149 116
0.0436657 -0.422102 -0.493 196 149 119
0.0475181 -0.422958 -0.494 195 148 118
0.053379 -0.42467 -0.496 191 146 115
0.0635867 -0.429808 -0.502 175 131 106
0.1116 -0.462343 -0.54 148 164 190
0.112629 -0.462343 -0.54 119 149 187
0.433978 -0.471761 -0.551 154 166 182
0.450537 -0.472617 -0.552 48 92 155
0.456846 -0.472617 -0.552 163 176 195
0.47242 -0.473473 -0.553 62 107 162
0.47558 -0.473473 -0.553 49 96 166
0.486113 -0.473473 -0.553 44 85 139
0.475009 -0.444363 -0.519 145 121 111
0.470552 -0.43837 -0.512 145 120 113
0.469686 -0.436657 -0.51 148 121 110
0.464308 -0.427239 -0.499 152 125 114
0.45965 -0.417821 -0.488 153 123 112
0.458691 -0.416109 -0.486 151 121 110
0.458143 -0.385286 -0.45 23 24 29
0.45969 -0.38443 -0.449 27 28 33
0.461049 -0.382717 -0.447 27 26 32
0.466614 -0.381005 -0.445 24 23 29
0.473799 -0.379292 -0.443 25 24 30
0.474413 -0.378436 -0.442 22 21 27
0.480307 -0.378436 -0.442 26 25 31
0.483925 -0.379292 -0.443 27 26 32
0.499627 -0.383573 -0.448 29 30 32
0.0323314 -0.422183 -0.492 195 149 116
0.048459 -0.423899 -0.494 192 147 116
0.105429 -0.463371 -0.54 84 94 119
0.113447 -0.462513 -0.539 64 96 143
0.12474 -0.462513 -0.539 85 115 167
0.126793 -0.462513 -0.539 115 137 186
0.465257 -0.473669 -0.552 187 195 216
0.476839 -0.447068 -0.521 146 119 110
0.467005 -0.433338 -0.505 148 121 112
0.452552 -0.394724 -0.46 30 27 34
0.454567 -0.390433 -0.455 26 23 30
0.457596 -0.387859 -0.452 25 24 30
0.457443 -0.387001 -0.451 25 26 31
0.458302 -0.387001 -0.451 25 26 31
0.463415 -0.38271 -0.446 28 27 33
0.464919 -0.381852 -0.445 26 25 31
0.475255 -0.379278 -0.442 24 23 29
0.476097 -0.379278 -0.442 29 28 34
0.477781 -0.379278 -0.442 24 23 29
0.482832 -0.379278 -0.442 25 24 30
0.488144 -0.380136 -0.443 27 26 32
0.488988 -0.380136 -0.443 25 24 30
0.502452 -0.385285 -0.449 28 29 34
0.00234762 -0.42398 -0.493 192 148 119
0.00701429 -0.42226 -0.491 189 145 116
0.0098 -0.4214 -0.49 199 154 125
0.0116667 -0.4214 -0.49 197 153 124
0.0181629 -0.42054 -0.489 191 148 116
0.025719 -0.42226 -0.491 199 154 121
0.0398286 -0.42312 -0.492 194 149 116
0.0407657 -0.42312 -0.492 197 151 118
0.0436657 -0.42398 -0.493 194 147 117
0.0475181 -0.42484 -0.494 195 148 118
0.0594048 -0.42914 -0.499 183 138 109
0.0614286 -0.43 -0.5 181 135 109
0.0794267 -0.44548 -0.518 122 93 79
0.0984105 -0.46526 -0.541 90 76 75
0.453919 -0.47386 -0.551 76 110 155
0.458117 -0.47386 -0.551 77 111 159
0.485234 -0.47472 -0.552 48 93 150
0.47239 -0.44204 -0.514 149 121 110
0.451771 -0.40592 -0.472 47 32 35
0.451094 -0.39818 -0.463 30 25 31
0.45233 -0.39388 -0.458 24 21 28
0.454567 -0.3913 -0.455 25 24 30
0.462376 -0.3827 -0.445 27 26 32
0.463224 -0.3827 -0.445 28 27 33
0.474413 -0.38012 -0.442 23 22 28
0.4809 -0.37926 -0.441 25 24 30
0.48174 -0.37926 -0.441 24 23 29
0.491783 -0.38184 -0.444 22 25 30
-0.00142286 -0.429229 -0.498 191 150 120
0.0266543 -0.423195 -0.491 196 151 118
0.0304571 -0.424057 -0.492 199 154 121
0.0313943 -0.424057 -0.492 202 157 124
0.03608 -0.424057 -0.492 198 153 120
0.0388124 -0.423195 -0.491 193 149 114
0.04264 -0.424057 -0.492 196 150 117
0.0436657 -0.424919 -0.493 195 149 116
0.0583371 -0.429229 -0.498 185 139 113
0.06576 -0.4344 -0.504 166 124 102
0.0807238 -0.44819 -0.52 111 88 80
0.0963495 -0.46629 -0.541 93 77 78
0.113236 -0.463705 -0.538 41 76 130
0.124509 -0.463705 -0.538 70 107 162
0.470711 -0.47491 -0.551 87 125 174
0.47472 -0.475771 -0.552 50 94 157
0.487337 -0.475771 -0.552 65 99 144
0.479585 -0.451638 -0.524 144 117 110
0.475997 -0.447329 -0.519 148 120 109
0.47331 -0.443881 -0.515 149 121 110
0.456824 -0.418024 -0.485 141 116 109
0.449654 -0.40251 -0.467 23 23 31
0.45178 -0.397338 -0.461 30 24 28
0.462376 -0.383548 -0.445 24 23 29
0.463874 -0.382686 -0.444 25 24 30
0.471046 -0.380962 -0.442 24 23 29
0.48006 -0.3801 -0.441 26 25 31
0.488726 -0.380962 -0.442 27 27 35
0.502187 -0.386133 -0.448 24 24 34
0.000469524 -0.425858 -0.493 193 152 122
0.00884857 -0.422403 -0.489 196 153 121
0.0228667 -0.423267 -0.49 195 150 119
0.0266 -0.423267 -0.49 199 154 121
0.0388124 -0.42413 -0.491 193 147 114
0.0594048 -0.431041 -0.499 181 135 109
0.06576 -0.43536 -0.504 165 123 101
0.108934 -0.463866 -0.537 77 103 152
0.434494 -0.474231 -0.549 166 192 217
0.436586 -0.474231 -0.549 138 172 199
0.438677 -0.474231 -0.549 104 137 180
0.458729 -0.422403 -0.489 137 114 108
0.45778 -0.420675 -0.487 139 116 110
0.454889 -0.415492 -0.481 100 79 74
0.451929 -0.41031 -0.475 36 31 37
0.45012 -0.39908 -0.462 25 23 28
0.460681 -0.384395 -0.445 24 25 30
0.46472 -0.383531 -0.444 26 25 31
0.47754 -0.38094 -0.441 26 25 31
0.00605429 -0.423334 -0.489 191 148 116
0.00884857 -0.423334 -0.489 198 155 123
0.00978 -0.423334 -0.489 200 157 125
0.0135057 -0.423334 -0.489 189 144 113
0.0181257 -0.422469 -0.488 195 150 119
0.0237514 -0.423334 -0.489 195 150 119
0.0625057 -0.433723 -0.501 175 129 105
0.0701524 -0.439783 -0.508 153 112 92
0.0736305 -0.443246 -0.512 136 104 83
0.0771543 -0.446709 -0.516 127 96 76
0.0913752 -0.464023 -0.536 98 78 79
0.092741 -0.465754 -0.538 98 78 79
0.104843 -0.464889 -0.537 109 122 138
0.439723 -0.475277 -0.549 92 133 187
0.467762 -0.476143 -0.55 145 170 201
0.475959 -0.477009 -0.551 50 99 155
0.487504 -0.477009 -0.551 92 121 163
0.467005 -0.437186 -0.505 146 116 106
0.450927 -0.409483 -0.473 28 27 33
0.45233 -0.396497 -0.458 21 20 26
0.4537 -0.3939 -0.455 23 24 29
0.457125 -0.388706 -0.449 26 25 30
0.465361 -0.383511 -0.443 25 24 30
0.466836 -0.382646 -0.442 27 26 32
0.467678 -0.382646 -0.442 21 20 26
0.46852 -0.382646 -0.442 27 26 32
0.481486 -0.380914 -0.44 29 30 34
0.48678 -0.38178 -0.441 30 31 33
0.49041 -0.382646 -0.442 29 30 35
-0.00428571 -0.43381 -0.5 190 149 117
0.0144076 -0.423398 -0.488 191 146 117
0.0284667 -0.425133 -0.49 200 155 122
0.0303333 -0.425133 -0.49 196 151 118
0.0378 -0.425133 -0.49 195 148 118
0.0901857 -0.464176 -0.535 99 79 78
0.09702 -0.467647 -0.539 97 81 81
0.102797 -0.465911 -0.537 142 151 158
0.434747 -0.475455 -0.548 207 215 234
0.445997 -0.476323 -0.549 53 93 155
0.469857 -0.47719 -0.55 94 130 180
0.47281 -0.478058 -0.551 100 146 196
0.486286 -0.478926 -0.552 85 118 171
0.470607 -0.443353 -0.511 147 119 115
0.449857 -0.407781 -0.47 28 23 30
0.453568 -0.393899 -0.454 22 21 27
0.45627 -0.389561 -0.449 26 25 30
0.457813 -0.388693 -0.448 25 26 31
0.457643 -0.387826 -0.447 26 27 32
0.467678 -0.383488 -0.442 22 21 27
0.480648 -0.381752 -0.44 28 29 33
0.00325333 -0.424328 -0.488 193 150 118
0.00418286 -0.424328 -0.488 192 149 117
0.00883048 -0.424328 -0.488 198 153 120
0.011619 -0.424328 -0.488 199 154 123
0.0199848 -0.424328 -0.488 198 153 122
0.0284086 -0.425197 -0.489 198 153 120
0.0359333 -0.426067 -0.49 197 152 121
0.0573886 -0.433023 -0.498 182 136 110
0.0669848 -0.439979 -0.506 159 118 98
0.0679486 -0.439979 -0.506 158 117 97
0.115878 -0.466065 -0.536 43 81 146
0.118941 -0.466065 -0.536 38 78 137
0.422492 -0.47563 -0.547 212 219 225
0.44101 -0.476499 -0.548 51 98 166
0.455409 -0.477369 -0.549 206 215 220
0.46881 -0.478238 -0.55 116 138 159
0.485234 -0.479977 -0.552 81 115 160
0.462429 -0.433023 -0.498 139 114 109
0.460586 -0.430414 -0.495 137 112 107
0.450024 -0.40085 -0.461 23 22 28
0.452833 -0.395633 -0.455 23 22 28
0.458986 -0.386938 -0.445 23 24 29
0.46283 -0.385199 -0.443 32 31 37
0.4683 -0.38346 -0.441 26 25 31
0.480391 -0.381721 -0.439 27 28 33
0.482064 -0.381721 -0.439 30 31 36
0.49014 -0.38346 -0.441 29 30 35
-0.00820857 -0.441814 -0.507 182 143 112
0.0218438 -0.425257 -0.488 197 152 119
0.0312029 -0.426129 -0.489 195 150 119
0.0625057 -0.436586 -0.501 164 122 98
0.0648 -0.4392 -0.504 162 120 98
0.0669848 -0.440943 -0.506 155 114 94
0.0680829 -0.441814 -0.507 154 113 93
0.0691848 -0.442686 -0.508 150 112 93
0.0959933 -0.4697 -0.539 93 77 77
0.351787 -0.474057 -0.544 128 162 199
0.352823 -0.474057 -0.544 138 164 191
0.378386 -0.474929 -0.545 69 117 183
0.42145 -0.476671 -0.547 207 226 241
0.451226 -0.478414 -0.549 113 151 200
0.458546 -0.478414 -0.549 202 212 224
0.459591 -0.478414 -0.549 199 209 221
0.484183 -0.481029 -0.552 93 121 160
0.453056 -0.419157 -0.481 43 33 34
0.450026 -0.412186 -0.473 25 22 29
0.448962 -0.409571 -0.47 26 23 30
0.448614 -0.405214 -0.465 28 27 33
0.44836 -0.4026 -0.462 25 24 30
0.450585 -0.399114 -0.458 24 23 29
0.451457 -0.399114 -0.458 25 24 30
0.455571 -0.392143 -0.45 23 22 27
0.459646 -0.386914 -0.444 23 24 29
0.460298 -0.386043 -0.443 23 24 29
0.472267 -0.383429 -0.44 25 24 30
0.479555 -0.382557 -0.439 26 27 32
0.48819 -0.383429 -0.44 30 31 36
0.499394 -0.386914 -0.444 30 31 36
0.501367 -0.387786 -0.445 30 31 36
-0.00328 -0.42968 -0.492 192 149 117
0.00974 -0.425313 -0.487 198 153 122
0.0143486 -0.42444 -0.486 191 146 113
0.021799 -0.425313 -0.487 196 151 118
0.0312029 -0.42706 -0.489 194 149 118
0.03586 -0.42706 -0.489 200 155 126
0.0669848 -0.441907 -0.506 152 111 91
0.0761714 -0.45064 -0.516 122 92 81
0.352823 -0.475093 -0.544 133 150 168
0.355931 -0.475093 -0.544 192 201 210
0.360738 -0.475967 -0.545 206 207 209
0.362149 -0.475093 -0.544 203 207 208
0.375271 -0.475967 -0.545 71 104 155
0.385652 -0.475967 -0.545 131 147 173
0.387729 -0.475967 -0.545 182 189 199
0.40092 -0.47684 -0.546 183 197 206
0.41028 -0.47684 -0.546 94 131 175
0.41652 -0.47684 -0.546 119 154 186
0.41964 -0.47684 -0.546 177 190 199
0.425618 -0.477713 -0.547 211 212 214
0.446229 -0.478587 -0.548 57 94 146
0.466714 -0.480333 -0.55 194 202 205
0.483131 -0.48208 -0.552 106 122 155
0.492594 -0.48208 -0.552 130 133 138
0.448834 -0.40872 -0.468 25 24 30
0.450694 -0.40086 -0.459 22 21 27
0.455414 -0.392127 -0.449 23 22 27
0.456107 -0.391253 -0.448 22 21 26
0.45696 -0.391253 -0.448 23 24 29
0.461142 -0.386887 -0.443 23 24 29
0.4641 -0.38514 -0.441 26 25 31
0.472866 -0.383393 -0.439 24 25 30
0.480391 -0.383393 -0.439 27 28 33
0.4829 -0.383393 -0.439 25 26 31
0.486245 -0.383393 -0.439 24 25 30
0.50024 -0.38776 -0.444 29 30 35
0.91746 -0.49518 -0.567 197 200 183
0.0124971 -0.425366 -0.486 197 152 121
0.0208714 -0.426241 -0.487 196 151 118
0.021799 -0.426241 -0.487 196 151 118
0.0236543 -0.426241 -0.487 193 148 115
0.0462943 -0.429742 -0.491 191 147 118
0.0473257 -0.430617 -0.492 190 146 117
0.050239 -0.431492 -0.493 185 141 112
0.0563267 -0.434993 -0.497 176 132 107
0.0958152 -0.470878 -0.538 93 79 78
0.104452 -0.468252 -0.535 164 165 167
0.105274 -0.467377 -0.534 162 163 167
0.112605 -0.468252 -0.535 99 114 145
0.1177 -0.468252 -0.535 79 119 171
0.299353 -0.473504 -0.541 184 188 189
0.312295 -0.474379 -0.542 166 170 182
0.333557 -0.475254 -0.543 190 191 196
0.335626 -0.475254 -0.543 190 195 201
0.349714 -0.47613 -0.544 172 188 203
0.363185 -0.47613 -0.544 191 193 192
0.403 -0.47788 -0.546 172 180 191
0.40612 -0.47788 -0.546 168 178 188
0.41028 -0.47788 -0.546 162 170 173
0.427702 -0.478755 -0.547 185 185 185
0.469662 -0.482256 -0.551 131 138 144
0.477874 -0.483131 -0.552 98 118 145
0.466966 -0.44287 -0.506 132 111 106
0.454997 -0.426241 -0.487 63 51 51
0.454052 -0.42449 -0.485 47 43 44
0.44836 -0.40436 -0.462 25 22 29
0.456619 -0.390356 -0.446 23 24 29
0.458138 -0.389481 -0.445 22 23 28
0.460101 -0.386855 -0.442 23 24 29
0.46242 -0.38598 -0.441 24 23 29
0.464724 -0.385105 -0.44 24 23 29
0.94446 -0.49626 -0.567 184 184 172
0.952617 -0.497135 -0.568 183 183 171
0.00230952 -0.425414 -0.485 192 149 117
0.0162 -0.426291 -0.486 196 151 120
0.0329981 -0.428046 -0.488 196 152 123
0.0405171 -0.428923 -0.489 189 146 114
0.0532714 -0.434186 -0.495 178 134 107
0.0563267 -0.43594 -0.497 175 131 106
0.0573886 -0.436817 -0.498 174 130 105
0.0584543 -0.437694 -0.499 173 128 105
0.0702905 -0.446466 -0.509 138 99 82
0.0726552 -0.449097 -0.512 132 93 76
0.0763191 -0.453483 -0.517 114 87 78
0.0917162 -0.471903 -0.538 91 76 69
0.119514 -0.468394 -0.534 111 129 167
0.136043 -0.469271 -0.535 187 188 190
0.252047 -0.47278 -0.539 210 210 220
0.302445 -0.474534 -0.541 211 212 214
0.304506 -0.474534 -0.541 213 214 216
0.307133 -0.475411 -0.542 216 216 216
0.313328 -0.475411 -0.542 201 210 209
0.321587 -0.475411 -0.542 207 211 212
0.323651 -0.475411 -0.542 205 209 210
0.349319 -0.478043 -0.545 205 209 212
0.357624 -0.478043 -0.545 208 208 208
0.358662 -0.478043 -0.545 208 208 208
0.360738 -0.478043 -0.545 209 209 209
0.366967 -0.478043 -0.545 210 212 209
0.370081 -0.478043 -0.545 204 210 210
0.383576 -0.478043 -0.545 202 207 203
0.39364 -0.47892 -0.546 209 207 210
0.39468 -0.47892 -0.546 206 207 211
0.413115 -0.479797 -0.547 211 210 208
0.439966 -0.480674 -0.548 198 200 199
0.444141 -0.480674 -0.548 203 198 195
0.446229 -0.480674 -0.548 204 199 196
0.452271 -0.481551 -0.549 192 201 200
0.455409 -0.481551 -0.549 195 197 196
0.465464 -0.483306 -0.551 189 188 186
0.497851 -0.484183 -0.552 143 144 146
0.484161 -0.464009 -0.529 118 102 102
0.447875 -0.409626 -0.467 26 23 30
0.448268 -0.404363 -0.461 25 22 29
0.452091 -0.399977 -0.456 25 24 30
0.454007 -0.395591 -0.451 26 27 32
0.455571 -0.394714 -0.45 25 24 29
0.456443 -0.390329 -0.445 25 26 31
0.459259 -0.387697 -0.442 25 26 31
0.46158 -0.38682 -0.441 24 23 29
0.46326 -0.38682 -0.441 24 23 29
0.472623 -0.384189 -0.438 22 23 28
0.47596 -0.384189 -0.438 28 28 36
0.479297 -0.384189 -0.438 27 28 33
0.480131 -0.384189 -0.438 27 28 33
0.50816 -0.39296 -0.448 32 33 38
0.878326 -0.492954 -0.562 171 172 164
0.962094 -0.502603 -0.573 158 158 148
0.963186 -0.502603 -0.573 158 158 148
0.957888 -0.496463 -0.566 155 155 143
0.00415714 -0.426338 -0.485 196 153 121
0.00783619 -0.425459 -0.484 198 153 120
0.0133952 -0.426338 -0.485 195 152 118
0.014319 -0.426338 -0.485 193 150 116
0.0348571 -0.428975 -0.488 196 151 122
0.0443333 -0.430733 -0.49 189 146 114
0.050239 -0.43337 -0.493 185 139 113
0.0595238 -0.439524 -0.5 170 125 102
0.112605 -0.47029 -0.535 181 186 182
0.126634 -0.469411 -0.534 197 197 199
0.132737 -0.469411 -0.534 209 209 211
0.164576 -0.47029 -0.535 215 219 222
0.236208 -0.472928 -0.538 217 216 221
0.237232 -0.472928 -0.538 214 215 219
0.240307 -0.472928 -0.538 210 214 215
0.2628 -0.474686 -0.54 210 214 213
0.263829 -0.474686 -0.54 212 214 213
0.2695 -0.473807 -0.539 213 214 219
0.287486 -0.474686 -0.54 210 210 210
0.305069 -0.476444 -0.542 213 217 216
0.324249 -0.477323 -0.543 207 209 206
0.330454 -0.477323 -0.543 209 210 215
0.335208 -0.478202 -0.544 207 208 213
0.356586 -0.479081 -0.545 208 210 209
0.362814 -0.479081 -0.545 205 208 213
0.38116 -0.47996 -0.546 214 209 215
0.38636 -0.47996 -0.546 203 204 206
0.394361 -0.480839 -0.547 205 206 210
0.433703 -0.481718 -0.548 200 201 203
0.437631 -0.482597 -0.549 204 208 209
0.448316 -0.481718 -0.548 202 203 205
0.455409 -0.482597 -0.549 196 198 195
0.458546 -0.482597 -0.549 194 190 191
0.466513 -0.484355 -0.551 187 188 190
0.498753 -0.486113 -0.553 136 136 136
0.47239 -0.45183 -0.514 126 108 108
0.464197 -0.442161 -0.503 129 108 103
0.457786 -0.43337 -0.493 85 73 75
0.447804 -0.409636 -0.466 23 20 27
0.448533 -0.407878 -0.464 25 24 30
0.448449 -0.406999 -0.463 25 24 30
0.448946 -0.403483 -0.459 24 23 29
0.454559 -0.394692 -0.449 26 25 30
0.45594 -0.392934 -0.447 23 24 29
0.459259 -0.388539 -0.442 25 26 31
0.46074 -0.38766 -0.441 23 22 28
0.46221 -0.386781 -0.44 25 24 30
0.492934 -0.385902 -0.439 29 29 37
0.811881 -0.491388 -0.559 163 164 156
0.816533 -0.492267 -0.56 164 165 157
0.818667 -0.492267 -0.56 164 165 157
0.8272 -0.492267 -0.56 166 168 157
0.829333 -0.492267 -0.56 166 168 157
0.845774 -0.493146 -0.561 169 171 160
0.846843 -0.493146 -0.561 170 172 159
0.857369 -0.494904 -0.563 143 145 134
0.861198 -0.494025 -0.562 145 145 137
0.874527 -0.494904 -0.563 144 143 138
0.972691 -0.50809 -0.578 123 123 115
0.964049 -0.500178 -0.569 117 117 107
0.9693 -0.49842 -0.567 145 147 134
0.974059 -0.497541 -0.566 138 139 131
0.978371 -0.497541 -0.566 131 132 126
0.980528 -0.497541 -0.566 129 130 125
0.981606 -0.497541 -0.566 126 127 122
0.0171257 -0.428143 -0.486 198 155 121
0.0189381 -0.427262 -0.485 198 153 122
0.0320029 -0.429024 -0.487 196 151 120
0.0376457 -0.429905 -0.488 192 147 118
0.0482629 -0.433429 -0.492 184 140 113
0.0563267 -0.437833 -0.497 171 129 107
0.0573886 -0.438714 -0.498 170 128 106
0.0626305 -0.442238 -0.502 157 115 91
0.0671171 -0.446643 -0.507 144 106 85
0.104257 -0.470429 -0.534 169 165 166
0.122566 -0.470429 -0.534 200 201 206
0.128669 -0.470429 -0.534 202 207 203
0.134771 -0.470429 -0.534 211 212 217
0.169671 -0.47131 -0.535 214 218 219
0.173748 -0.47131 -0.535 217 216 211
0.217357 -0.473071 -0.537 215 219 220
0.2387 -0.474833 -0.539 211 214 219
0.24178 -0.474833 -0.539 210 210 210
0.266914 -0.475714 -0.54 209 213 214
0.268971 -0.475714 -0.54 208 212 215
0.289049 -0.476595 -0.541 207 212 208
0.299907 -0.477476 -0.542 211 210 208
0.311837 -0.478357 -0.543 206 213 223
0.317457 -0.477476 -0.542 211 217 217
0.319077 -0.478357 -0.543 212 218 218
0.32899 -0.479238 -0.544 214 207 214
0.33728 -0.479238 -0.544 210 208 209
0.35204 -0.481 -0.546 211 211 209
0.37804 -0.481 -0.546 206 212 210
0.400612 -0.481881 -0.547 206 205 203
0.413115 -0.481881 -0.547 206 210 211
0.426396 -0.482762 -0.548 201 201 199
0.458546 -0.483643 -0.549 190 188 189
0.461476 -0.484524 -0.55 189 188 186
0.462524 -0.484524 -0.55 188 187 185
0.474527 -0.487167 -0.553 178 180 175
0.476633 -0.487167 -0.553 177 177 179
0.497386 -0.488929 -0.555 136 134 135
0.463274 -0.442238 -0.502 126 105 102
0.457773 -0.43519 -0.494 96 78 78
0.453137 -0.428143 -0.486 32 27 34
0.45218 -0.4255 -0.483 24 21 30
0.449253 -0.419333 -0.476 22 19 26
0.448067 -0.414048 -0.47 22 19 26
0.451223 -0.401714 -0.456 20 21 26
0.4599 -0.3885 -0.441 20 21 26
0.46221 -0.387619 -0.44 21 22 27
0.468451 -0.385857 -0.438 25 24 30
0.479035 -0.384976 -0.437 24 24 32
0.48043 -0.384095 -0.436 23 23 31
0.812649 -0.494214 -0.561 123 122 117
0.828677 -0.494214 -0.561 138 139 131
0.830814 -0.494214 -0.561 138 139 131
0.980489 -0.503024 -0.571 105 106 100
0.995057 -0.502143 -0.57 100 101 96
1.00291 -0.503905 -0.572 100 101 96
-0.00512286 -0.431717 -0.489 192 149 117
-0.000461905 -0.428186 -0.485 189 148 116
0.0106019 -0.427303 -0.484 197 154 120
0.0133676 -0.427303 -0.484 193 150 116
0.0404343 -0.430834 -0.488 192 148 119
0.04238 -0.431717 -0.489 191 148 116
0.0443333 -0.4326 -0.49 190 146 117
0.0543238 -0.437897 -0.496 172 130 105
0.0573886 -0.439663 -0.498 169 127 105
0.07168 -0.452023 -0.512 124 95 81
0.08664 -0.46968 -0.532 89 74 71
0.0976829 -0.474094 -0.537 124 118 118
0.103433 -0.472329 -0.535 164 160 159
0.104452 -0.472329 -0.535 164 160 159
0.110567 -0.472329 -0.535 179 180 174
0.116681 -0.472329 -0.535 192 193 188
0.123583 -0.471446 -0.534 202 204 201
0.125617 -0.471446 -0.534 204 206 205
0.129686 -0.471446 -0.534 208 208 206
0.151329 -0.472329 -0.535 218 220 219
0.15308 -0.471446 -0.534 218 220 219
0.169671 -0.472329 -0.535 223 223 223
0.186324 -0.473211 -0.536 221 223 220
0.189387 -0.473211 -0.536 223 225 222
0.210197 -0.474094 -0.537 219 218 223
0.218787 -0.474977 -0.538 210 219 218
0.222886 -0.474977 -0.538 221 219 220
0.234593 -0.47586 -0.539 210 214 215
0.260195 -0.477626 -0.541 221 217 214
0.273086 -0.476743 -0.54 216 214 215
0.298874 -0.478509 -0.542 209 211 208
0.311375 -0.480274 -0.544 211 211 209
0.317009 -0.479391 -0.543 214 212 213
0.3379 -0.481157 -0.545 207 203 204
0.3458 -0.48204 -0.546 204 200 197
0.34788 -0.48204 -0.546 208 205 200
0.358936 -0.482923 -0.547 199 199 199
0.362062 -0.482923 -0.547 200 196 193
0.373523 -0.482923 -0.547 194 192 193
0.381858 -0.482923 -0.547 201 200 205
0.3829 -0.482923 -0.547 200 198 203
0.392277 -0.482923 -0.547 195 196 191
0.394038 -0.483806 -0.548 192 191 187
0.396126 -0.483806 -0.548 191 190 185
0.39957 -0.482923 -0.547 198 187 191
0.402696 -0.482923 -0.547 186 193 201
0.405822 -0.482923 -0.547 191 190 188
0.416241 -0.482923 -0.547 195 191 190
0.430571 -0.483806 -0.548 184 185 187
0.439723 -0.484689 -0.549 187 191 194
0.45018 -0.484689 -0.549 180 184 185
0.462524 -0.485571 -0.55 172 171 169
0.482586 -0.489986 -0.555 145 143 144
0.501137 -0.492634 -0.558 126 117 118
0.470552 -0.452023 -0.512 121 110 108
0.455 -0.4326 -0.49 45 39 41
0.44836 -0.40788 -0.462 22 23 28
0.448171 -0.406114 -0.46 23 24 29
0.45492 -0.393754 -0.446 26 25 31
0.456923 -0.391106 -0.443 22 21 27
0.457767 -0.391106 -0.443 26 25 31
0.465114 -0.386691 -0.438 25 24 30
0.466783 -0.386691 -0.438 25 24 30
0.474617 -0.384926 -0.436 25 24 32
0.489024 -0.385809 -0.437 27 27 35
0.812329 -0.497049 -0.563 97 96 92
0.825872 -0.496166 -0.562 119 118 113
0.826943 -0.496166 -0.562 117 116 111
0.831225 -0.496166 -0.562 113 113 105
0.835921 -0.497049 -0.563 114 114 106
0.841703 -0.497931 -0.564 118 118 110
0.85352 -0.497931 -0.564 121 121 113
0.854594 -0.497931 -0.564 121 121 113
0.993463 -0.508526 -0.576 102 101 99
1.00291 -0.504994 -0.572 100 101 96
1.01255 -0.507643 -0.575 100 101 96
-0.0109524 -0.442381 -0.5 186 150 118
-0.007 -0.433533 -0.49 194 150 121
0.00966 -0.42734 -0.483 194 151 119
0.01058 -0.42734 -0.483 195 150 117
0.0207857 -0.42911 -0.485 195 152 118
0.0310114 -0.429994 -0.486 197 152 121
0.0347857 -0.430879 -0.487 193 148 119
0.0491 -0.434418 -0.491 185 141 116
0.0584543 -0.441496 -0.499 169 124 101
0.0671171 -0.448574 -0.507 141 104 86
0.08664 -0.470693 -0.532 88 73 70
0.0905229 -0.475117 -0.537 91 76 73
0.0959933 -0.476887 -0.539 107 96 94
0.105471 -0.473348 -0.535 168 164 163
0.129929 -0.473348 -0.535 207 207 205
0.130948 -0.473348 -0.535 208 208 206
0.1391 -0.473348 -0.535 215 214 212
0.158462 -0.473348 -0.535 219 219 219
0.163557 -0.473348 -0.535 218 218 216
0.211613 -0.476002 -0.538 222 222 220
0.212638 -0.476002 -0.538 222 222 222
0.242229 -0.477771 -0.54 216 216 214
0.24989 -0.478656 -0.541 217 217 217
0.254012 -0.478656 -0.541 215 215 215
0.257104 -0.478656 -0.541 214 214 214
0.263287 -0.478656 -0.541 212 212 212
0.26947 -0.478656 -0.541 211 211 211
0.275143 -0.477771 -0.54 206 206 206
0.280805 -0.478656 -0.541 209 207 208
0.281835 -0.478656 -0.541 207 205 206
0.289583 -0.479541 -0.542 207 205 208
0.322773 -0.481311 -0.544 199 197 200
0.330633 -0.482195 -0.545 196 194 197
0.33852 -0.48308 -0.546 197 195 200
0.34268 -0.48308 -0.546 195 193 196
0.345391 -0.483965 -0.547 197 195 198
0.364811 -0.48485 -0.548 192 190 193
0.379071 -0.485734 -0.549 190 188 191
0.387437 -0.485734 -0.549 189 187 188
0.388483 -0.485734 -0.549 189 189 189
0.39162 -0.485734 -0.549 188 188 188
0.40552 -0.48485 -0.548 185 183 184
0.461266 -0.487504 -0.551 164 162 163
0.464206 -0.488389 -0.552 164 162 163
0.467153 -0.489273 -0.553 161 159 160
0.4976 -0.495467 -0.56 106 101 105
0.499463 -0.48485 -0.548 97 89 87
0.474163 -0.457422 -0.517 112 104 102
0.452205 -0.42911 -0.485 28 23 27
0.450308 -0.42557 -0.481 25 23 28
0.447875 -0.413184 -0.467 22 23 28
0.449601 -0.404336 -0.457 24 23 29
0.452569 -0.400797 -0.453 27 26 32
0.455595 -0.393719 -0.445 24 23 29
0.457767 -0.39195 -0.443 25 24 30
0.46158 -0.39018 -0.441 26 25 30
0.461995 -0.38841 -0.439 24 23 28
0.467382 -0.386641 -0.437 24 25 30
0.476278 -0.385756 -0.436 24 24 32
0.486244 -0.385756 -0.436 25 25 33
0.501354 -0.391065 -0.442 30 30 38
0.50759 -0.394604 -0.446 28 29 34
0.834183 -0.499006 -0.564 110 109 104
0.85439 -0.500775 -0.566 118 117 112
0.984071 -0.508738 -0.575 102 101 99
1.00381 -0.514931 -0.582 101 100 98
1.00319 -0.514047 -0.581 102 101 99
-0.0140029 -0.44954 -0.507 186 147 116
-0.0109086 -0.44156 -0.498 185 148 119
-0.00698571 -0.43358 -0.489 194 150 121
-0.0051019 -0.431807 -0.487 190 150 115
0.00046 -0.42826 -0.483 190 149 119
0.0115 -0.42826 -0.483 193 148 117
0.019821 -0.429147 -0.484 196 153 121
0.024481 -0.430033 -0.485 197 154 122
0.0337886 -0.43092 -0.486 193 148 119
0.0452667 -0.434467 -0.49 190 144 118
0.0906914 -0.477027 -0.538 91 73 71
0.0988895 -0.477027 -0.538 134 130 127
0.114857 -0.475253 -0.536 188 187 185
0.116899 -0.475253 -0.536 189 188 186
0.142423 -0.475253 -0.536 212 211 209
0.152348 -0.474367 -0.535 213 213 211
0.1608 -0.475253 -0.536 215 214 212
0.177466 -0.47614 -0.537 212 212 212
0.178156 -0.475253 -0.536 211 211 211
0.187694 -0.47614 -0.537 213 211 212
0.195877 -0.47614 -0.537 221 221 219
0.197923 -0.47614 -0.537 219 219 217
0.212638 -0.477027 -0.538 215 215 215
0.213663 -0.477027 -0.538 214 214 214
0.2196 -0.4788 -0.54 211 211 211
0.220629 -0.4788 -0.54 211 211 211
0.222686 -0.4788 -0.54 212 212 212
0.237086 -0.4788 -0.54 209 207 208
0.242229 -0.4788 -0.54 207 205 206
0.263773 -0.480573 -0.542 202 200 203
0.275652 -0.479687 -0.541 198 196 197
0.28598 -0.48146 -0.543 196 196 198
0.305719 -0.483233 -0.545 191 189 192
0.32292 -0.48412 -0.546 186 184 187
0.340804 -0.485893 -0.548 182 179 186
0.366523 -0.48678 -0.549 173 171 172
0.368614 -0.48678 -0.549 174 172 173
0.370706 -0.48678 -0.549 172 170 173
0.403123 -0.48678 -0.549 160 158 159
0.452048 -0.487667 -0.55 139 137 142
0.456238 -0.487667 -0.55 137 137 139
0.466943 -0.491213 -0.554 129 129 131
0.504555 -0.499193 -0.563 76 75 80
0.5067 -0.499193 -0.563 76 74 77
0.452211 -0.43092 -0.486 28 26 31
0.450326 -0.427373 -0.482 26 25 30
0.44831 -0.421167 -0.475 23 22 28
0.451838 -0.402547 -0.454 26 25 31
0.45243 -0.400773 -0.452 25 24 30
0.464885 -0.387473 -0.437 24 25 30
0.476843 -0.3857 -0.435 22 22 30
0.482643 -0.3857 -0.435 22 25 32
0.483471 -0.3857 -0.435 21 24 31
0.496279 -0.389247 -0.439 30 30 38
0.81918 -0.50274 -0.567 101 98 93
0.82242 -0.50274 -0.567 97 96 92
0.830672 -0.501853 -0.566 120 119 114
0.841453 -0.501853 -0.566 120 120 112
0.84942 -0.50274 -0.567 118 118 110
0.8778 -0.5054 -0.57 120 121 115
-0.00888476 -0.436289 -0.491 193 149 124
-0.00322667 -0.430069 -0.484 191 150 118
0.00688571 -0.428291 -0.482 197 154 122
0.0225867 -0.430069 -0.484 196 151 120
0.0291 -0.430957 -0.485 199 154 125
0.0365657 -0.431846 -0.486 186 140 114
0.0573886 -0.442509 -0.498 163 120 101
0.0683514 -0.452283 -0.509 133 97 81
0.0854657 -0.471831 -0.531 90 75 70
0.109752 -0.476274 -0.536 180 177 172
0.137574 -0.477163 -0.537 205 203 204
0.13962 -0.477163 -0.537 206 204 205
0.148826 -0.477163 -0.537 205 203 204
0.158031 -0.477163 -0.537 207 205 206
0.1611 -0.477163 -0.537 208 204 203
0.164169 -0.477163 -0.537 208 204 205
0.173374 -0.477163 -0.537 206 204 207
0.177466 -0.477163 -0.537 204 202 203
0.180534 -0.477163 -0.537 205 203 204
0.18258 -0.477163 -0.537 204 202 205
0.18974 -0.477163 -0.537 203 198 202
0.203415 -0.478051 -0.538 208 208 208
0.21406 -0.47894 -0.539 207 205 208
0.223098 -0.480717 -0.541 204 202 205
0.250814 -0.482494 -0.543 195 190 194
0.266819 -0.483383 -0.544 189 187 190
0.269928 -0.483383 -0.544 187 185 188
0.274603 -0.482494 -0.543 185 183 186
0.301631 -0.486049 -0.547 174 172 177
0.31205 -0.486049 -0.547 168 166 171
0.330969 -0.487826 -0.549 155 154 160
0.332014 -0.487826 -0.549 155 154 160
0.345818 -0.489603 -0.551 150 147 154
0.352754 -0.490491 -0.552 148 145 152
0.363927 -0.49138 -0.553 144 142 145
0.369193 -0.49138 -0.553 139 137 140
0.387451 -0.490491 -0.552 131 130 136
0.390606 -0.490491 -0.552 126 125 131
0.395146 -0.489603 -0.551 125 124 130
0.408048 -0.488714 -0.55 122 120 125
0.408351 -0.487826 -0.549 122 120 125
0.415671 -0.487826 -0.549 115 114 120
0.421667 -0.488714 -0.55 114 113 121
0.426905 -0.488714 -0.55 110 109 115
0.431095 -0.488714 -0.55 109 106 113
0.466729 -0.493157 -0.555 93 92 97
0.513184 -0.505597 -0.569 48 48 50
0.454067 -0.4354 -0.49 26 25 30
0.452214 -0.432734 -0.487 27 26 31
0.447729 -0.413186 -0.465 22 23 28
0.447968 -0.406966 -0.458 22 23 28
0.45243 -0.401634 -0.452 24 23 29
0.46074 -0.39186 -0.441 22 21 26
0.470214 -0.386529 -0.435 24 24 32
0.471871 -0.386529 -0.435 24 24 32
0.861087 -0.505597 -0.569 119 120 112
0.879791 -0.508263 -0.572 122 123 117
-0.0138371 -0.446129 -0.501 180 145 113
0.0114762 -0.42921 -0.482 195 152 117
0.0501371 -0.438114 -0.492 179 134 111
0.0584543 -0.444348 -0.499 162 120 98
0.0705667 -0.455033 -0.511 120 90 79
0.0895 -0.478186 -0.537 88 70 68
0.0906914 -0.479076 -0.538 87 69 67
0.101964 -0.479076 -0.538 148 146 147
0.108731 -0.477295 -0.536 178 173 170
0.124046 -0.477295 -0.536 199 197 198
0.126871 -0.476405 -0.535 199 197 198
0.12789 -0.476405 -0.535 199 197 198
0.130171 -0.477295 -0.536 200 198 199
0.132213 -0.477295 -0.536 202 200 201
0.140905 -0.479076 -0.538 203 201 202
0.15394 -0.478186 -0.537 202 198 199
0.157009 -0.478186 -0.537 202 198 199
0.1614 -0.479076 -0.538 198 194 195
0.183945 -0.479076 -0.538 187 182 186
0.194553 -0.479967 -0.539 182 177 181
0.195217 -0.479076 -0.538 202 198 199
0.220413 -0.482638 -0.542 188 186 191
0.223923 -0.483529 -0.543 186 184 189
0.231163 -0.483529 -0.543 183 181 184
0.234266 -0.483529 -0.543 180 178 181
0.239437 -0.483529 -0.543 179 174 178
0.245059 -0.484419 -0.544 176 171 175
0.246095 -0.484419 -0.544 176 171 175
0.251276 -0.484419 -0.544 172 167 173
0.268348 -0.48531 -0.545 158 157 162
0.279253 -0.484419 -0.544 150 150 152
0.28444 -0.4862 -0.546 149 148 153
0.28548 -0.4862 -0.546 149 148 153
0.29017 -0.48709 -0.547 145 144 150
0.291212 -0.48709 -0.547 144 143 149
0.294876 -0.487981 -0.548 142 139 146
0.310054 -0.488871 -0.549 133 131 136
0.3111 -0.488871 -0.549 132 130 135
0.313191 -0.488871 -0.549 130 128 133
0.319 -0.489762 -0.55 128 126 131
0.331125 -0.490652 -0.551 119 118 124
0.339086 -0.491543 -0.552 114 113 119
0.347701 -0.493324 -0.554 108 107 112
0.360606 -0.495105 -0.556 104 103 108
0.393083 -0.495995 -0.557 87 86 94
0.421384 -0.490652 -0.551 76 75 83
0.431095 -0.489762 -0.55 73 72 77
0.434238 -0.489762 -0.55 72 71 76
0.45264 -0.491543 -0.552 66 65 71
0.479669 -0.502229 -0.564 59 58 64
0.48546 -0.5049 -0.567 60 59 65
0.518595 -0.512024 -0.575 41 40 45
0.459555 -0.444348 -0.499 37 36 41
0.448435 -0.426538 -0.479 24 25 29
0.448224 -0.421195 -0.473 22 23 28
0.45143 -0.401605 -0.451 24 23 29
0.453 -0.400714 -0.45 24 23 29
0.465482 -0.388248 -0.436 25 26 31
0.4774 -0.386467 -0.434 22 22 30
0.481533 -0.386467 -0.434 24 27 34
0.48236 -0.386467 -0.434 25 28 35
0.492057 -0.388248 -0.436 27 30 37
0.497951 -0.390919 -0.439 27 27 35
0.834371 -0.507571 -0.57 124 125 119
0.83941 -0.506681 -0.569 118 119 111
0.840494 -0.506681 -0.569 119 120 112
0.841578 -0.506681 -0.569 122 123 115
0.848486 -0.507571 -0.57 122 123 115
0.851743 -0.507571 -0.57 122 122 114
0.878054 -0.510243 -0.573 121 120 115
-0.0189429 -0.455114 -0.51 184 147 118
-0.0127029 -0.440836 -0.494 186 147 116
-0.00976 -0.435482 -0.488 189 148 116
-0.000459048 -0.430128 -0.482 196 153 118
0.00320667 -0.429235 -0.481 197 154 119
0.0235086 -0.431912 -0.484 196 151 120
0.02904 -0.431912 -0.484 197 152 121
0.0309476 -0.432805 -0.485 198 153 124
0.041279 -0.43459 -0.487 186 142 113
0.0432229 -0.435482 -0.488 189 145 118
0.0441524 -0.435482 -0.488 186 142 117
0.0451743 -0.436374 -0.489 183 139 114
0.0462 -0.437267 -0.49 181 137 110
0.0481648 -0.438159 -0.491 176 132 107
0.0501371 -0.439051 -0.492 178 133 110
0.05644 -0.444406 -0.498 163 122 104
0.0951429 -0.481886 -0.54 77 66 64
0.106889 -0.479209 -0.537 157 151 151
0.107911 -0.479209 -0.537 159 153 153
0.11242 -0.480993 -0.539 161 157 156
0.1155 -0.480993 -0.539 165 161 162
0.126088 -0.478316 -0.536 191 189 192
0.130414 -0.479209 -0.537 189 187 190
0.145273 -0.480993 -0.539 182 180 181
0.162727 -0.480993 -0.539 173 171 174
0.165086 -0.481886 -0.54 171 169 172
0.172286 -0.481886 -0.54 167 165 170
0.173314 -0.481886 -0.54 167 164 171
0.20558 -0.482778 -0.541 172 170 175
0.212546 -0.484563 -0.543 168 166 171
0.222263 -0.485455 -0.544 160 158 163
0.224335 -0.485455 -0.544 161 156 162
0.226408 -0.485455 -0.544 158 153 159
0.238243 -0.486348 -0.545 146 144 147
0.246548 -0.486348 -0.545 142 137 141
0.25116 -0.48724 -0.546 138 136 141
0.25636 -0.48724 -0.546 132 130 135
0.272458 -0.488132 -0.547 118 117 122
0.27871 -0.488132 -0.547 111 111 113
0.280793 -0.488132 -0.547 110 110 112
0.291762 -0.49081 -0.55 100 99 105
0.300183 -0.492594 -0.552 98 95 104
0.3081 -0.493487 -0.553 92 91 96
0.31126 -0.493487 -0.553 92 91 96
0.313367 -0.493487 -0.553 90 89 94
0.3367 -0.495271 -0.555 78 78 86
0.338814 -0.495271 -0.555 75 74 80
0.367875 -0.498841 -0.559 71 70 75
0.379971 -0.497949 -0.558 68 67 72
0.387041 -0.498841 -0.559 66 65 71
0.398753 -0.498841 -0.559 64 63 71
0.405142 -0.498841 -0.559 62 61 67
0.412686 -0.492594 -0.552 62 61 67
0.451589 -0.492594 -0.552 54 53 59
0.459556 -0.494379 -0.554 53 52 58
0.485005 -0.507765 -0.569 50 49 55
0.49231 -0.513119 -0.575 48 47 55
0.494263 -0.514011 -0.576 44 44 52
0.447405 -0.423881 -0.475 22 23 28
0.447226 -0.420311 -0.471 22 23 28
0.44765 -0.414065 -0.464 23 22 28
0.44748 -0.41228 -0.462 22 21 27
0.450709 -0.403356 -0.452 22 21 27
0.451286 -0.401571 -0.45 23 22 28
0.45654 -0.39354 -0.441 18 19 24
0.460109 -0.390863 -0.438 25 26 31
0.463821 -0.389078 -0.436 24 23 29
0.504722 -0.394432 -0.442 35 36 41
0.835853 -0.512227 -0.574 109 108 103
0.839098 -0.50955 -0.571 122 123 117
0.842361 -0.50955 -0.571 126 127 121
0.866049 -0.511334 -0.573 108 109 104
0.871933 -0.512227 -0.574 87 88 83
0.876307 -0.512227 -0.574 106 105 101
0.885943 -0.514011 -0.576 108 107 102
0.893866 -0.516689 -0.579 108 109 103
-0.0198752 -0.455191 -0.509 182 146 114
-0.00785238 -0.433729 -0.485 190 150 115
-0.00413143 -0.431046 -0.482 190 147 113
0.00137429 -0.430151 -0.481 199 156 121
0.0132848 -0.430151 -0.481 197 154 120
0.02904 -0.432834 -0.484 200 155 124
0.0299619 -0.432834 -0.484 199 154 123
0.0595238 -0.447143 -0.5 154 113 95
0.0853048 -0.473971 -0.53 88 75 69
0.101502 -0.483809 -0.541 108 107 112
0.103371 -0.482914 -0.54 117 112 118
0.1188 -0.482914 -0.54 136 132 133
0.129632 -0.481126 -0.538 165 163 166
0.172924 -0.484703 -0.542 129 127 132
0.176021 -0.484703 -0.542 123 120 127
0.181183 -0.484703 -0.542 120 117 124
0.19186 -0.485597 -0.543 112 107 113
0.197031 -0.485597 -0.543 105 103 108
0.198066 -0.485597 -0.543 104 102 107
0.217481 -0.487386 -0.545 123 121 126
0.22724 -0.48828 -0.546 113 111 116
0.245369 -0.489174 -0.547 101 99 104
0.257769 -0.490963 -0.549 89 89 91
0.27081 -0.491857 -0.55 80 81 85
0.286514 -0.493646 -0.552 78 79 84
0.317831 -0.499906 -0.559 70 69 75
0.319961 -0.499906 -0.559 67 66 72
0.326933 -0.5008 -0.56 68 67 73
0.330609 -0.499906 -0.559 69 68 74
0.339271 -0.501694 -0.561 66 66 74
0.341409 -0.501694 -0.561 65 64 72
0.34906 -0.503483 -0.563 67 66 74
0.350132 -0.503483 -0.563 67 66 74
0.401246 -0.504377 -0.564 59 57 68
0.406617 -0.504377 -0.564 56 56 64
0.41554 -0.49454 -0.553 56 55 63
0.420807 -0.49454 -0.553 54 54 62
0.423678 -0.495434 -0.554 55 53 64
0.425789 -0.495434 -0.554 54 54 64
0.459329 -0.496329 -0.555 49 48 56
0.466063 -0.499011 -0.558 47 46 54
0.487323 -0.512426 -0.573 47 46 54
0.4988 -0.518686 -0.58 42 42 52
0.44884 -0.409583 -0.458 21 22 27
0.450843 -0.405111 -0.453 22 21 27
0.451286 -0.402429 -0.45 23 22 28
0.45738 -0.39438 -0.441 19 20 25
0.460323 -0.392591 -0.439 24 25 30
0.465243 -0.389014 -0.435 25 24 30
0.4669 -0.389014 -0.435 24 23 31
0.475475 -0.387226 -0.433 22 25 32
0.478774 -0.387226 -0.433 24 24 32
0.479599 -0.387226 -0.433 24 24 32
0.835474 -0.515109 -0.576 30 26 23
0.842747 -0.511531 -0.572 120 121 116
0.880024 -0.514214 -0.575 104 103 99
-0.0198362 -0.455265 -0.508 187 146 116
-0.0146143 -0.443614 -0.495 184 143 111
-0.0135886 -0.440926 -0.492 187 146 114
-0.00412286 -0.431068 -0.481 191 148 114
-0.00320667 -0.431068 -0.481 193 150 116
0.014201 -0.431068 -0.481 195 152 117
0.018821 -0.431964 -0.482 193 150 116
0.0299 -0.43286 -0.483 199 154 123
0.0364905 -0.434652 -0.485 192 146 120
0.0384171 -0.435549 -0.486 187 143 116
0.0471333 -0.439133 -0.49 179 135 110
0.0501371 -0.440926 -0.492 174 129 106
0.0661514 -0.454369 -0.507 133 98 79
0.10169 -0.485735 -0.542 88 84 85
0.112427 -0.487528 -0.544 106 104 107
0.12166 -0.483047 -0.539 101 99 102
0.127583 -0.48215 -0.538 130 128 133
0.14505 -0.485735 -0.542 115 115 115
0.183224 -0.488424 -0.545 92 89 96
0.203611 -0.487528 -0.544 97 95 100
0.21372 -0.48932 -0.546 93 91 96
0.217634 -0.491112 -0.548 91 89 94
0.233095 -0.492905 -0.55 83 82 88
0.250311 -0.493801 -0.551 79 78 83
0.26386 -0.495593 -0.553 77 76 81
0.28282 -0.495593 -0.553 71 72 76
0.286497 -0.49649 -0.554 72 71 79
0.305621 -0.503659 -0.562 70 68 79
0.313671 -0.504555 -0.563 69 68 76
0.323395 -0.506348 -0.565 65 64 70
0.332592 -0.507244 -0.566 64 63 69
0.34506 -0.50814 -0.567 64 62 73
0.361177 -0.512621 -0.572 61 60 68
0.421271 -0.497386 -0.555 52 52 60
0.442414 -0.497386 -0.555 50 50 58
0.456979 -0.498282 -0.556 45 45 53
0.530536 -0.526064 -0.587 32 32 40
0.528031 -0.522479 -0.583 33 32 40
0.459524 -0.448095 -0.5 33 32 38
0.448475 -0.431068 -0.481 19 18 24
0.44748 -0.41404 -0.462 23 24 29
0.449848 -0.405078 -0.452 24 23 29
0.454571 -0.397909 -0.444 23 22 28
0.455235 -0.397012 -0.443 21 20 26
0.459487 -0.393428 -0.439 22 23 27
0.46216 -0.390739 -0.436 21 22 26
0.476023 -0.387154 -0.432 25 25 33
0.477669 -0.387154 -0.432 22 22 30
0.478491 -0.387154 -0.432 23 23 31
0.480137 -0.387154 -0.432 23 26 33
0.488973 -0.388947 -0.434 28 31 38
0.84132 -0.514413 -0.574 118 119 114
0.85116 -0.514413 -0.574 102 103 98
0.867291 -0.516206 -0.576 101 102 96
0.874292 -0.517102 -0.577 101 103 98
0.880887 -0.517102 -0.577 102 103 97
-0.0145552 -0.442761 -0.493 180 139 107
-0.00780381 -0.432882 -0.482 189 149 114
0.0243295 -0.432882 -0.482 194 149 118
0.0543238 -0.445455 -0.496 162 120 98
0.0595238 -0.449048 -0.5 157 111 95
0.0868029 -0.478685 -0.533 90 71 65
0.10972 -0.49036 -0.546 91 89 92
0.11513 -0.491258 -0.547 87 85 90
0.117 -0.49036 -0.546 86 84 89
0.133693 -0.486768 -0.542 100 99 105
0.138586 -0.489462 -0.545 103 101 106
0.143 -0.49036 -0.546 102 100 103
0.1638 -0.49036 -0.546 95 95 97
0.171393 -0.491258 -0.547 95 92 99
0.190495 -0.492156 -0.548 91 88 95
0.20824 -0.492156 -0.548 85 84 90
0.216333 -0.493952 -0.55 82 81 87
0.240687 -0.496647 -0.553 76 77 82
0.2449 -0.496647 -0.553 78 77 83
0.251674 -0.497545 -0.554 74 73 81
0.257414 -0.498443 -0.555 75 74 80
0.264232 -0.499341 -0.556 72 73 78
0.276378 -0.500239 -0.557 71 70 76
0.280118 -0.499341 -0.556 70 69 75
0.281683 -0.500239 -0.557 70 69 75
0.421423 -0.501137 -0.558 48 48 56
0.43446 -0.500239 -0.557 44 43 49
0.437643 -0.500239 -0.557 43 44 49
0.45012 -0.501137 -0.558 43 43 53
0.447226 -0.423003 -0.471 22 21 27
0.44873 -0.41043 -0.457 22 21 27
0.448617 -0.409531 -0.456 21 20 26
0.451286 -0.404143 -0.45 21 20 26
0.451138 -0.403245 -0.449 22 21 27
0.452693 -0.402347 -0.448 22 21 27
0.4539 -0.399652 -0.445 23 22 28
0.45654 -0.39606 -0.441 21 22 27
0.45738 -0.39606 -0.441 21 22 27
0.458019 -0.395162 -0.44 21 22 27
0.476563 -0.387079 -0.431 22 22 30
0.478205 -0.387079 -0.431 22 22 30
0.504114 -0.395162 -0.44 37 37 39
0.846071 -0.516405 -0.575 112 112 110
0.862903 -0.517303 -0.576 107 108 102
0.873606 -0.519099 -0.578 79 81 78
0.874707 -0.519099 -0.578 79 81 78
0.884615 -0.519099 -0.578 90 91 85
-0.00411429 -0.432 -0.48 191 151 116
0.00866762 -0.4311 -0.479 196 154 116
0.0196981 -0.4329 -0.481 194 151 117
0.0383381 -0.4365 -0.485 189 144 115
0.0461057 -0.4401 -0.489 179 135 108
0.112824 -0.4959 -0.551 86 81 85
0.127264 -0.4869 -0.541 91 89 94
0.128531 -0.4878 -0.542 93 92 100
0.140392 -0.4932 -0.548 97 95 100
0.14274 -0.4941 -0.549 96 94 97
0.146655 -0.4932 -0.548 93 91 94
0.15083 -0.4932 -0.548 96 94 97
0.174746 -0.4959 -0.551 94 91 98
0.178944 -0.4959 -0.551 94 91 100
0.189439 -0.4959 -0.551 90 89 95
0.192937 -0.4968 -0.552 91 90 96
0.197143 -0.4968 -0.552 88 87 93
0.207281 -0.4959 -0.551 88 85 92
0.20938 -0.4959 -0.551 91 88 95
0.21962 -0.4977 -0.553 86 85 93
0.224238 -0.4986 -0.554 86 85 93
0.230986 -0.4995 -0.555 86 85 93
0.235638 -0.5004 -0.556 83 82 88
0.241992 -0.5004 -0.556 81 80 88
0.247288 -0.5004 -0.556 81 81 89
0.257743 -0.5022 -0.558 79 79 87
0.276718 -0.5058 -0.562 77 76 82
0.281 -0.5058 -0.562 75 74 80
0.45036 -0.4374 -0.486 27 26 32
0.44849 -0.4338 -0.482 25 24 30
0.44765 -0.4176 -0.464 22 21 27
0.448171 -0.414 -0.46 21 20 25
0.45184 -0.4032 -0.448 20 19 25
0.453386 -0.4023 -0.447 19 18 24
0.456343 -0.396 -0.44 22 23 28
0.457181 -0.396 -0.44 22 23 28
0.456978 -0.3951 -0.439 22 23 28
0.457814 -0.3951 -0.439 23 22 28
0.46944 -0.3888 -0.432 21 22 27
0.48231 -0.3879 -0.431 22 25 30
0.84819 -0.5256 -0.584 25 19 19
0.876909 -0.5202 -0.578 107 109 104
-0.0134229 -0.438326 -0.486 185 146 113
-0.00964 -0.434718 -0.482 188 148 113
-0.00319333 -0.432012 -0.479 192 149 115
0.00866762 -0.432012 -0.479 196 153 118
0.0431343 -0.439228 -0.487 183 137 111
0.0604762 -0.450952 -0.5 148 106 90
0.0671171 -0.457266 -0.507 130 94 80
0.0841362 -0.477108 -0.529 87 69 67
0.0854657 -0.478911 -0.531 89 70 66
0.0958476 -0.490636 -0.544 44 41 50
0.111328 -0.499655 -0.554 84 77 85
0.115549 -0.499655 -0.554 78 72 82
0.125434 -0.488832 -0.542 87 84 93
0.14352 -0.497851 -0.552 94 92 97
0.155086 -0.497851 -0.552 92 90 95
0.174642 -0.499655 -0.554 93 90 97
0.177808 -0.499655 -0.554 90 89 95
0.1813 -0.500557 -0.555 92 91 99
0.193986 -0.500557 -0.555 87 87 95
0.201749 -0.501459 -0.556 90 89 95
0.205985 -0.501459 -0.556 87 86 92
0.207354 -0.499655 -0.554 89 88 94
0.219752 -0.501459 -0.556 87 86 94
0.229046 -0.503263 -0.558 84 83 91
0.256379 -0.50687 -0.562 79 79 87
0.274375 -0.510478 -0.566 74 73 81
0.300164 -0.51589 -0.572 59 58 66
