ply
format ascii 1.0
comment Created by Open3D
element vertex 1292
property double x
property double y
property double z
property uchar red
property uchar green
property uchar blue
end_header
-0.0491676 -0.232806 -0.622 73 72 78
-0.0447143 -0.234303 -0.626 72 72 80
-0.0344714 -0.237671 -0.635 72 72 82
0.174523 -0.230934 -0.617 193 142 141
0.177771 -0.229063 -0.612 186 123 114
0.20604 -0.226817 -0.606 162 104 103
0.214258 -0.229437 -0.613 151 95 94
0.24425 -0.241789 -0.646 127 75 77
0.24548 -0.241789 -0.646 127 75 77
0.441397 -0.194254 -0.519 195 148 128
0.447247 -0.19126 -0.511 200 155 134
0.44822 -0.19126 -0.511 195 150 129
0.460103 -0.190137 -0.508 187 141 118
0.466826 -0.190511 -0.509 172 127 106
-0.1015 -0.2291 -0.609 70 68 79
-0.0657552 -0.229852 -0.611 76 74 85
-0.0592533 -0.231733 -0.616 76 75 83
-0.0458333 -0.235119 -0.625 74 74 82
-0.0226933 -0.242267 -0.644 79 77 90
0.172826 -0.229852 -0.611 199 145 143
0.17458 -0.2291 -0.609 195 136 130
0.178631 -0.228348 -0.607 174 106 93
0.187169 -0.22609 -0.601 207 154 148
0.200906 -0.22609 -0.601 166 111 106
0.21624 -0.230229 -0.612 148 92 93
0.232659 -0.236248 -0.628 128 74 74
0.24671 -0.243019 -0.646 125 70 73
0.249476 -0.244524 -0.65 128 73 76
0.441666 -0.19449 -0.517 197 150 130
0.448314 -0.191857 -0.51 195 148 128
0.467795 -0.191481 -0.509 171 128 109
0.48401 -0.19449 -0.517 166 120 104
-0.109172 -0.231772 -0.613 99 99 107
-0.0872829 -0.226479 -0.599 62 63 68
-0.08386 -0.226479 -0.599 61 62 67
-0.0625695 -0.23215 -0.614 77 76 84
-0.0593495 -0.233285 -0.617 76 75 83
-0.0459067 -0.236688 -0.626 74 75 80
-0.0414 -0.2382 -0.63 71 71 79
-0.02982 -0.241603 -0.639 73 73 83
0.172566 -0.229126 -0.606 193 134 126
0.18706 -0.225723 -0.597 202 147 142
0.193558 -0.225345 -0.596 185 133 122
0.200237 -0.226479 -0.599 167 110 103
0.2358 -0.2382 -0.63 162 106 105
0.440966 -0.197366 -0.522 194 148 132
0.447247 -0.193207 -0.511 198 151 131
0.447343 -0.192829 -0.51 196 149 129
0.456232 -0.192072 -0.508 192 145 127
0.484995 -0.195475 -0.517 163 121 107
-0.12139 -0.24586 -0.647 116 117 119
-0.0709886 -0.23028 -0.606 76 75 83
-0.0648029 -0.23294 -0.613 78 77 85
-0.0582686 -0.23484 -0.618 76 75 83
-0.0493257 -0.23712 -0.624 74 73 79
-0.03798 -0.24054 -0.633 74 74 82
-0.0345257 -0.24168 -0.636 73 73 83
-0.0286029 -0.24282 -0.639 77 75 88
0.168824 -0.2299 -0.605 198 147 143
0.179453 -0.22876 -0.602 208 148 140
0.183956 -0.22724 -0.598 202 149 145
0.198431 -0.22686 -0.597 165 105 97
0.219019 -0.2318 -0.61 191 134 127
0.44204 -0.19532 -0.514 198 153 134
0.443134 -0.19494 -0.513 201 154 134
0.451313 -0.19342 -0.509 199 154 133
0.451394 -0.19304 -0.508 194 149 128
-0.0791638 -0.228379 -0.598 65 64 72
-0.0712229 -0.232198 -0.608 75 74 82
-0.0670286 -0.233726 -0.612 78 77 85
-0.0560952 -0.236781 -0.62 76 75 81
-0.0550029 -0.237163 -0.621 76 75 81
-0.0527219 -0.237545 -0.622 75 74 80
-0.04598 -0.239454 -0.627 74 73 81
0.181374 -0.227997 -0.597 200 149 145
0.447871 -0.204319 -0.535 180 140 132
0.444023 -0.201646 -0.528 187 143 132
0.4425 -0.2005 -0.525 189 143 128
0.443134 -0.195917 -0.513 197 152 131
0.448405 -0.19439 -0.509 196 151 128
0.455334 -0.193626 -0.507 185 137 115
0.462094 -0.193626 -0.507 184 139 118
-0.10567 -0.235275 -0.613 69 70 72
-0.0930286 -0.227215 -0.592 62 63 67
-0.0539067 -0.23873 -0.622 75 74 80
-0.0471743 -0.240649 -0.627 76 74 85
-0.02982 -0.245254 -0.639 75 73 84
-0.0191019 -0.248325 -0.647 74 71 88
0.167708 -0.23067 -0.601 198 143 140
0.168571 -0.230286 -0.6 193 134 128
0.220254 -0.232972 -0.607 181 123 121
0.443246 -0.19651 -0.512 196 151 130
0.447343 -0.195743 -0.51 195 150 129
0.450506 -0.194591 -0.507 194 148 125
0.453472 -0.194208 -0.506 184 138 115
0.461183 -0.194208 -0.506 186 141 120
-0.110471 -0.241843 -0.627 81 85 88
-0.0539933 -0.2403 -0.623 76 75 83
-0.0403914 -0.244157 -0.633 75 73 84
-0.0310371 -0.246471 -0.639 74 72 85
0.159 -0.243 -0.63 193 134 126
0.166009 -0.231043 -0.599 199 146 142
0.16829 -0.231043 -0.599 191 131 123
0.179633 -0.2295 -0.595 211 158 154
0.187749 -0.228343 -0.592 187 132 125
0.196633 -0.2295 -0.595 166 106 95
0.214643 -0.231814 -0.601 183 125 121
0.221046 -0.233743 -0.606 177 119 117
0.223667 -0.235286 -0.61 181 123 121
0.254037 -0.250329 -0.649 162 110 112
0.451029 -0.208286 -0.54 177 137 127
0.447871 -0.206357 -0.535 180 140 130
0.444864 -0.204043 -0.529 186 142 129
0.447435 -0.196329 -0.509 195 148 128
0.461233 -0.194786 -0.505 189 144 123
0.465038 -0.195171 -0.506 177 132 111
0.475514 -0.196714 -0.51 166 120 104
-0.088219 -0.228695 -0.59 92 93 98
-0.0705257 -0.237223 -0.612 71 70 78
-0.0619 -0.239936 -0.619 79 78 86
-0.0585514 -0.240711 -0.621 78 77 85
0.155153 -0.243812 -0.629 200 141 133
0.161984 -0.232959 -0.601 205 147 143
0.166591 -0.231409 -0.597 193 138 133
0.1989 -0.230633 -0.595 151 91 80
0.20264 -0.231021 -0.596 183 124 118
0.214643 -0.232959 -0.601 183 125 121
0.216147 -0.233347 -0.602 186 128 124
0.230934 -0.239161 -0.617 171 116 113
0.250074 -0.248851 -0.642 156 105 101
0.463937 -0.216291 -0.558 172 134 123
0.443134 -0.198849 -0.513 194 152 130
0.451545 -0.196135 -0.506 193 147 123
0.452576 -0.195748 -0.505 196 149 129
0.476486 -0.197686 -0.51 167 124 105
-0.0706409 -0.238778 -0.613 71 70 78
-0.0563667 -0.242673 -0.623 79 78 86
-0.0215 -0.251243 -0.645 77 76 90
0.157696 -0.237999 -0.611 205 158 152
0.171989 -0.232156 -0.596 203 146 139
0.1751 -0.231767 -0.595 203 150 146
0.175937 -0.231377 -0.594 202 149 143
0.178426 -0.230209 -0.591 197 144 136
0.179551 -0.230209 -0.591 197 142 135
0.193387 -0.230598 -0.592 165 105 95
0.21844 -0.234493 -0.602 181 122 118
0.444186 -0.205279 -0.527 184 143 123
0.447524 -0.197878 -0.508 200 155 134
-0.08302 -0.232117 -0.593 66 67 72
-0.0654371 -0.242294 -0.619 75 74 82
-0.0609171 -0.243077 -0.621 78 77 85
-0.0518686 -0.245034 -0.626 76 75 83
-0.0381 -0.248557 -0.635 74 72 83
-0.0346886 -0.250123 -0.639 74 72 83
-0.0178971 -0.253646 -0.648 75 74 90
0.18599 -0.230943 -0.59 177 120 109
0.191934 -0.231334 -0.591 166 104 93
0.209451 -0.233291 -0.596 188 130 126
0.21621 -0.234466 -0.599 189 130 124
0.232907 -0.24112 -0.616 162 108 108
0.24575 -0.248166 -0.634 149 98 97
0.248516 -0.249731 -0.638 148 97 96
0.256114 -0.253646 -0.648 143 95 95
0.444186 -0.206283 -0.527 183 145 126
0.443246 -0.200411 -0.512 192 150 128
0.475585 -0.198846 -0.508 163 122 100
-0.0952838 -0.232853 -0.592 119 120 122
-0.05874 -0.245047 -0.623 77 76 84
-0.0541667 -0.245833 -0.625 78 77 85
-0.0473248 -0.247407 -0.629 74 73 79
0.146553 -0.245047 -0.623 207 157 150
0.164623 -0.23364 -0.594 190 135 130
0.18088 -0.23128 -0.588 195 138 127
0.2125 -0.234033 -0.595 185 128 121
0.218857 -0.236 -0.6 181 122 114
0.445029 -0.20768 -0.528 183 144 127
0.44204 -0.202173 -0.514 191 149 125
0.442157 -0.20178 -0.513 190 148 124
0.443353 -0.200993 -0.511 190 147 128
0.446643 -0.19942 -0.507 200 155 136
0.454616 -0.197847 -0.503 193 146 126
0.468929 -0.198633 -0.505 167 126 104
-0.0897 -0.231214 -0.585 116 117 121
-0.0766333 -0.239119 -0.605 59 58 64
-0.0610152 -0.245838 -0.622 77 76 84
-0.0450714 -0.249395 -0.631 74 73 79
-0.0323552 -0.253348 -0.641 74 72 83
-0.0166886 -0.25651 -0.649 72 72 84
0.152943 -0.239514 -0.606 210 151 145
0.153843 -0.239119 -0.605 207 152 147
0.162087 -0.234376 -0.593 197 139 135
0.171671 -0.233586 -0.591 215 157 153
0.44252 -0.204733 -0.518 188 146 132
0.443457 -0.201571 -0.51 190 147 128
0.44976 -0.1992 -0.504 197 150 134
0.456532 -0.198805 -0.503 188 143 122
0.45749 -0.198805 -0.503 189 144 123
0.46704 -0.1992 -0.504 169 128 106
-0.0689743 -0.245831 -0.619 66 65 73
-0.0566381 -0.248611 -0.626 78 77 85
-0.0462733 -0.250597 -0.631 73 72 78
-0.0370648 -0.253377 -0.638 74 73 81
-0.0239571 -0.256157 -0.645 69 69 79
0.148143 -0.242257 -0.61 181 112 107
0.15397 -0.238683 -0.601 205 152 146
0.165196 -0.235109 -0.592 185 126 122
0.168579 -0.235109 -0.592 213 155 151
0.182 -0.23352 -0.588 186 128 117
0.196105 -0.234314 -0.59 199 139 131
0.199476 -0.234314 -0.59 204 144 136
0.216263 -0.236697 -0.596 180 121 113
0.441794 -0.204926 -0.516 188 147 129
0.443457 -0.202543 -0.51 194 151 132
0.4488 -0.20016 -0.504 194 149 130
0.450784 -0.199763 -0.503 167 120 100
0.461323 -0.199763 -0.503 185 140 119
0.466113 -0.199763 -0.503 171 130 108
0.47658 -0.201351 -0.507 158 117 95
-0.114524 -0.259381 -0.65 119 120 122
-0.09464 -0.23464 -0.588 117 121 122
-0.0905038 -0.232645 -0.583 112 116 119
-0.07676 -0.241823 -0.606 61 60 66
-0.0758552 -0.242621 -0.608 61 60 68
-0.051 -0.2514 -0.63 77 76 84
-0.0370648 -0.254592 -0.638 73 72 80
0.153714 -0.239429 -0.6 205 150 143
0.167734 -0.236635 -0.593 211 153 149
0.170546 -0.235837 -0.591 213 154 148
0.172212 -0.235039 -0.589 211 154 147
0.190163 -0.235039 -0.589 162 100 89
0.208467 -0.235438 -0.59 191 133 129
0.214406 -0.237034 -0.594 177 120 113
0.254533 -0.256987 -0.644 128 83 86
0.256951 -0.258184 -0.647 131 86 89
0.443557 -0.203115 -0.509 194 151 132
0.44976 -0.20112 -0.504 191 146 127
0.455625 -0.200322 -0.502 193 148 127
0.465155 -0.200721 -0.503 174 132 108
0.473738 -0.201519 -0.505 165 123 101
-0.0930429 -0.234557 -0.585 112 116 117
-0.0522 -0.2526 -0.63 78 77 85
0.161813 -0.237364 -0.592 183 124 120
0.178336 -0.235359 -0.587 191 133 122
0.180572 -0.235359 -0.587 185 125 115
0.18169 -0.235359 -0.587 180 120 110
0.216263 -0.238968 -0.596 171 114 105
0.460429 -0.220524 -0.55 179 143 131
0.443557 -0.204085 -0.509 192 149 130
0.445843 -0.202481 -0.505 197 152 131
0.44784 -0.20208 -0.504 195 150 129
0.478511 -0.203283 -0.507 164 122 100
-0.0670467 -0.25098 -0.623 62 61 69
-0.0659657 -0.251383 -0.624 65 66 71
-0.0580152 -0.252994 -0.628 71 71 79
-0.0546 -0.2538 -0.63 77 76 84
-0.0429381 -0.255814 -0.635 74 73 81
-0.0312314 -0.259037 -0.643 72 72 80
0.142262 -0.251786 -0.625 206 161 158
0.15843 -0.238491 -0.592 189 136 132
0.159289 -0.238089 -0.591 184 129 124
0.166886 -0.237686 -0.59 212 155 148
0.198124 -0.236074 -0.586 206 147 139
0.20552 -0.23688 -0.588 193 135 131
0.237927 -0.25098 -0.623 119 74 71
0.453273 -0.21714 -0.539 180 143 125
0.443374 -0.209083 -0.519 184 145 130
0.443746 -0.204249 -0.507 195 153 131
0.445843 -0.203443 -0.505 195 150 129
0.4488 -0.20304 -0.504 195 150 129
0.449826 -0.202637 -0.503 194 147 129
0.45758 -0.201831 -0.501 191 146 127
0.466143 -0.202234 -0.502 179 135 110
0.485207 -0.20586 -0.511 162 121 101
0.488107 -0.206263 -0.512 157 116 96
-0.0726286 -0.250952 -0.62 61 60 68
-0.0715629 -0.251357 -0.621 61 60 68
-0.0580152 -0.25419 -0.628 70 70 78
-0.0511619 -0.25581 -0.632 76 74 85
-0.0464933 -0.256619 -0.634 77 75 86
-0.0452857 -0.256619 -0.634 75 73 84
-0.0359619 -0.259048 -0.64 73 73 83
-0.0324057 -0.259857 -0.642 72 72 82
0.14279 -0.24569 -0.607 199 138 135
0.156175 -0.239619 -0.592 207 150 141
0.167987 -0.23719 -0.586 207 149 147
0.185045 -0.237595 -0.587 168 104 92
0.190635 -0.237595 -0.587 206 145 142
0.195557 -0.236786 -0.585 200 141 137
0.201472 -0.23719 -0.586 200 141 135
0.2356 -0.250952 -0.62 117 75 79
0.442777 -0.208857 -0.516 184 149 127
0.444711 -0.205214 -0.507 196 153 134
0.444798 -0.20481 -0.506 195 150 131
0.451854 -0.202786 -0.501 193 146 126
0.465214 -0.202786 -0.501 176 131 108
0.4747 -0.204405 -0.505 167 125 103
-0.08924 -0.23668 -0.582 106 107 111
-0.0821667 -0.241967 -0.595 74 74 82
-0.0781714 -0.247253 -0.608 69 68 76
-0.0772667 -0.248067 -0.61 65 64 72
-0.0430057 -0.25864 -0.636 73 73 81
-0.037181 -0.260267 -0.64 73 73 81
-0.0347971 -0.260673 -0.641 72 72 80
0.142119 -0.258233 -0.635 209 153 154
0.140469 -0.24888 -0.612 205 147 143
0.150286 -0.244 -0.6 201 146 141
0.19031 -0.238307 -0.586 206 145 142
0.19411 -0.237493 -0.584 205 146 142
0.202589 -0.238307 -0.586 190 131 125
0.2211 -0.24522 -0.603 155 97 95
0.233663 -0.25132 -0.618 124 75 81
0.4429 -0.209433 -0.515 187 149 128
0.44227 -0.208213 -0.512 193 150 133
0.460476 -0.203333 -0.5 184 139 116
-0.104177 -0.252497 -0.618 103 107 110
-0.0823048 -0.243509 -0.596 76 75 81
-0.0628 -0.256583 -0.628 64 64 72
-0.0442171 -0.259851 -0.636 75 75 83
-0.03128 -0.26312 -0.644 72 72 80
-0.0264552 -0.263937 -0.646 71 71 81
0.14279 -0.248003 -0.607 197 136 133
0.145535 -0.246777 -0.604 168 104 102
0.149143 -0.245143 -0.6 205 147 143
0.150671 -0.243917 -0.597 208 153 148
0.165471 -0.239014 -0.585 207 149 145
0.170166 -0.237789 -0.582 197 140 133
0.172679 -0.238197 -0.583 194 135 127
0.202243 -0.239014 -0.585 184 125 117
0.203357 -0.239014 -0.585 183 124 116
0.209946 -0.241466 -0.591 176 118 107
0.211429 -0.241874 -0.592 173 115 104
0.231733 -0.25168 -0.616 122 75 83
0.23674 -0.25454 -0.623 112 69 78
0.250464 -0.262711 -0.643 119 76 86
0.445083 -0.212866 -0.521 179 146 131
0.444711 -0.207146 -0.507 192 149 132
0.456667 -0.204286 -0.5 199 154 133
0.459524 -0.204286 -0.5 180 138 116
0.462381 -0.204286 -0.5 178 136 114
-0.114348 -0.266399 -0.649 104 108 109
-0.1074 -0.2586 -0.63 100 104 107
-0.0925657 -0.238897 -0.582 99 100 104
-0.0901933 -0.238487 -0.581 97 98 102
-0.0799581 -0.247928 -0.604 76 75 83
-0.0748695 -0.254085 -0.619 62 61 69
-0.0719086 -0.256137 -0.624 57 56 64
-0.0651924 -0.257779 -0.628 61 62 67
-0.0594 -0.2586 -0.63 68 68 76
-0.0360743 -0.263526 -0.642 73 73 81
0.154262 -0.24177 -0.589 200 143 134
0.168767 -0.238487 -0.581 199 140 136
0.17098 -0.238487 -0.581 189 130 122
0.182186 -0.240129 -0.585 168 106 93
0.231309 -0.253674 -0.618 121 75 85
0.23788 -0.256958 -0.626 110 68 78
0.468189 -0.229046 -0.558 178 140 129
0.4429 -0.211395 -0.515 187 149 130
0.443134 -0.210574 -0.513 190 148 132
0.443557 -0.208932 -0.509 191 150 132
0.443746 -0.208111 -0.507 192 149 132
0.443834 -0.207701 -0.506 192 149 132
0.446951 -0.20647 -0.503 193 150 131
0.452857 -0.205238 -0.5 192 147 128
0.45381 -0.205238 -0.5 196 151 132
0.454762 -0.205238 -0.5 194 151 132
0.459524 -0.205238 -0.5 178 136 114
0.47568 -0.20688 -0.504 165 123 101
-0.0784286 -0.251552 -0.61 75 74 82
-0.0749905 -0.255676 -0.62 63 62 70
-0.0730971 -0.257326 -0.624 59 58 66
-0.0686714 -0.258563 -0.627 58 57 65
-0.04664 -0.262274 -0.636 74 74 82
-0.0264962 -0.26681 -0.647 72 72 80
0.157941 -0.241655 -0.586 209 150 144
0.23056 -0.254027 -0.616 126 79 87
0.244103 -0.262274 -0.636 105 73 86
0.465047 -0.228047 -0.553 179 143 131
0.444943 -0.215263 -0.522 180 144 130
0.443834 -0.208665 -0.506 193 150 133
0.4509 -0.206603 -0.501 197 151 135
0.472836 -0.207015 -0.502 169 124 101
0.474736 -0.207428 -0.503 169 124 101
0.492969 -0.211551 -0.513 162 121 99
-0.113995 -0.268043 -0.647 101 105 106
-0.0768533 -0.2552 -0.616 72 71 79
-0.0432086 -0.264729 -0.639 76 76 86
-0.0264962 -0.268043 -0.647 70 73 80
0.1414 -0.251057 -0.606 200 145 138
0.15176 -0.2436 -0.588 202 143 137
0.16434 -0.2407 -0.581 196 137 129
0.183469 -0.241114 -0.582 203 145 133
0.206991 -0.244014 -0.589 167 110 99
0.25079 -0.268043 -0.647 112 94 110
0.444229 -0.215429 -0.52 185 146 131
0.444798 -0.209629 -0.506 189 148 130
0.469986 -0.207557 -0.501 173 129 104
0.491047 -0.2117 -0.511 155 117 96
-0.0922476 -0.24139 -0.58 95 98 103
-0.0824429 -0.248466 -0.597 91 90 95
-0.0711733 -0.261368 -0.628 55 55 63
-0.0549467 -0.263865 -0.634 71 70 78
0.155443 -0.243471 -0.585 210 150 149
0.16102 -0.241807 -0.581 202 143 135
0.164877 -0.240974 -0.579 193 135 124
0.18094 -0.241807 -0.581 173 115 101
0.18426 -0.241807 -0.581 209 152 145
0.2233 -0.25346 -0.609 122 80 84
0.450591 -0.220997 -0.531 180 144 132
0.446648 -0.218084 -0.524 182 144 133
0.443353 -0.212673 -0.511 190 148 132
0.443653 -0.211425 -0.508 191 149 133
0.457686 -0.207263 -0.498 183 140 121
0.471894 -0.208511 -0.501 170 125 102
0.474749 -0.208928 -0.502 172 127 106
-0.0780267 -0.257547 -0.616 75 76 80
-0.0712867 -0.262982 -0.629 56 56 64
0.159913 -0.242913 -0.581 201 144 137
0.166506 -0.241241 -0.577 188 130 116
0.178419 -0.242495 -0.58 175 116 102
0.188487 -0.241241 -0.577 202 143 135
0.192116 -0.241659 -0.578 200 141 133
0.244801 -0.267999 -0.641 239 231 244
0.250714 -0.271762 -0.65 233 234 252
0.455507 -0.224935 -0.538 175 138 129
0.443881 -0.215319 -0.515 192 149 133
0.444881 -0.211138 -0.505 190 148 132
0.45 -0.209048 -0.5 194 151 135
0.450952 -0.209048 -0.5 195 152 136
0.451905 -0.209048 -0.5 193 150 134
0.451951 -0.20863 -0.499 190 147 130
0.489125 -0.21281 -0.509 156 119 100
-0.0539086 -0.26712 -0.636 71 69 80
-0.0374133 -0.27048 -0.644 73 73 81
0.150986 -0.2457 -0.585 206 149 142
0.169803 -0.24234 -0.577 188 129 111
0.180317 -0.24318 -0.579 209 149 141
0.183309 -0.24276 -0.578 203 142 137
0.193217 -0.24276 -0.578 202 139 130
0.194654 -0.24318 -0.579 191 131 120
0.19754 -0.24402 -0.581 186 128 116
0.219529 -0.2541 -0.605 136 88 88
0.448352 -0.22092 -0.526 174 141 126
0.447019 -0.21084 -0.502 191 149 133
0.449946 -0.21042 -0.501 193 150 131
0.456737 -0.20916 -0.498 187 144 125
0.459607 -0.20874 -0.497 178 136 114
0.47 -0.21 -0.5 174 128 105
0.490094 -0.21378 -0.509 157 120 102
-0.111194 -0.269175 -0.638 96 100 101
-0.0818505 -0.253565 -0.601 89 90 95
-0.07654 -0.262847 -0.623 72 73 78
-0.0656076 -0.266644 -0.632 54 53 61
-0.0515667 -0.268753 -0.637 72 71 79
-0.0444952 -0.270019 -0.64 73 73 83
0.137195 -0.258628 -0.613 198 139 133
0.153537 -0.245549 -0.582 207 148 142
0.16211 -0.243439 -0.577 190 130 120
0.164023 -0.243017 -0.576 191 131 121
0.167314 -0.243017 -0.576 187 127 117
0.175602 -0.243861 -0.578 179 119 108
0.176703 -0.243861 -0.578 204 144 133
0.225133 -0.25905 -0.614 120 84 88
0.233483 -0.264534 -0.627 223 198 202
0.447788 -0.220656 -0.523 179 141 128
0.449946 -0.211374 -0.501 191 148 131
0.477617 -0.211796 -0.502 173 125 103
0.4824 -0.21264 -0.504 176 124 100
-0.114337 -0.272086 -0.642 100 101 103
-0.0840076 -0.250895 -0.592 94 95 100
-0.07828 -0.261914 -0.618 79 80 85
-0.0504324 -0.27039 -0.638 72 71 79
0.140091 -0.274629 -0.648 203 145 143
0.141811 -0.253438 -0.598 201 144 137
0.142711 -0.253014 -0.597 201 144 137
0.15132 -0.246657 -0.582 204 145 139
0.177189 -0.244114 -0.576 201 141 133
0.200785 -0.247505 -0.584 165 108 101
0.468843 -0.235214 -0.555 173 136 130
0.4495 -0.2225 -0.525 180 140 130
0.44496 -0.2136 -0.504 189 146 127
0.45298 -0.210633 -0.497 185 142 123
0.454873 -0.210633 -0.497 185 140 121
-0.0898829 -0.246489 -0.579 91 92 97
-0.0881314 -0.247766 -0.582 82 83 88
-0.0812429 -0.257557 -0.605 89 90 94
-0.0784067 -0.263517 -0.619 80 81 85
-0.0694381 -0.269903 -0.634 53 54 59
-0.0493714 -0.272457 -0.64 72 71 79
-0.0470067 -0.272883 -0.641 73 72 80
-0.0387 -0.274586 -0.645 74 75 80
0.143126 -0.252874 -0.594 200 143 136
0.143771 -0.252023 -0.592 200 141 135
0.146779 -0.249469 -0.586 208 149 143
0.180167 -0.244786 -0.575 199 139 131
0.181262 -0.244786 -0.575 198 138 130
0.182357 -0.244786 -0.575 193 133 125
0.19754 -0.24734 -0.581 174 117 106
0.20988 -0.252874 -0.594 152 97 94
0.472857 -0.212857 -0.5 180 132 110
-0.0729457 -0.270683 -0.633 65 66 71
-0.0540781 -0.272821 -0.638 66 65 73
-0.0374714 -0.275814 -0.645 73 74 79
0.139443 -0.275814 -0.645 200 142 138
0.136524 -0.260848 -0.61 188 130 128
0.14441 -0.252295 -0.59 203 146 139
0.151643 -0.247591 -0.579 205 146 140
0.170013 -0.245453 -0.574 200 142 131
0.18532 -0.245453 -0.574 195 135 125
0.214643 -0.256999 -0.601 141 93 91
0.468207 -0.236473 -0.553 168 140 129
0.4472 -0.222362 -0.52 184 145 128
0.444977 -0.219796 -0.514 188 146 130
0.443557 -0.217658 -0.509 189 147 131
0.453013 -0.212099 -0.496 190 145 124
0.454903 -0.212099 -0.496 190 143 123
0.455848 -0.212099 -0.496 186 139 119
0.457737 -0.212099 -0.496 186 139 119
0.470961 -0.213382 -0.499 184 136 113
0.471911 -0.213382 -0.499 181 133 110
-0.0863571 -0.251271 -0.585 65 66 71
-0.0741514 -0.271889 -0.633 69 70 75
-0.0707571 -0.272748 -0.635 57 57 65
0.138857 -0.278331 -0.648 197 141 140
0.13901 -0.276184 -0.643 198 142 141
0.136471 -0.264157 -0.615 195 140 135
0.14774 -0.249553 -0.581 202 143 137
0.14859 -0.249124 -0.58 202 143 137
0.156893 -0.246547 -0.574 190 133 122
0.168626 -0.246117 -0.573 204 146 135
0.194318 -0.248265 -0.578 178 121 110
0.19754 -0.249553 -0.581 172 115 104
0.201129 -0.251271 -0.585 166 112 102
0.46332 -0.23452 -0.546 160 133 126
0.444977 -0.220775 -0.514 189 148 130
0.445035 -0.21605 -0.503 194 151 132
0.44815 -0.214332 -0.499 190 147 128
0.469069 -0.213903 -0.498 184 136 113
0.475714 -0.214762 -0.5 174 126 103
0.477619 -0.214762 -0.5 174 126 103
0.480483 -0.215191 -0.501 167 121 98
0.4872 -0.21648 -0.504 164 119 100
-0.103309 -0.261446 -0.606 99 103 106
-0.0965505 -0.252817 -0.586 100 99 105
-0.0819867 -0.25972 -0.602 95 96 101
-0.0792 -0.26576 -0.616 86 87 92
-0.043479 -0.277409 -0.643 73 72 80
-0.04232 -0.27784 -0.644 73 72 80
0.148334 -0.249797 -0.579 200 141 137
0.155529 -0.247209 -0.573 193 136 127
0.158526 -0.246777 -0.572 197 139 128
0.159615 -0.246777 -0.572 201 143 132
0.178449 -0.247209 -0.573 194 136 125
0.181723 -0.247209 -0.573 193 135 124
0.183906 -0.247209 -0.573 190 132 120
0.201129 -0.252386 -0.585 166 114 103
0.202934 -0.253249 -0.587 162 110 99
0.213143 -0.258857 -0.6 132 96 98
0.240666 -0.277409 -0.643 247 246 251
0.4495 -0.2265 -0.525 180 139 133
0.443834 -0.218303 -0.506 194 151 134
0.446249 -0.215283 -0.499 195 152 133
0.452069 -0.213989 -0.496 188 143 124
0.46718 -0.21442 -0.497 184 138 114
-0.0623886 -0.2756 -0.636 51 50 58
-0.043479 -0.278633 -0.643 72 71 79
0.146381 -0.251333 -0.58 206 147 143
0.147231 -0.2509 -0.579 202 143 139
0.164774 -0.247433 -0.571 201 141 130
0.190024 -0.249167 -0.575 175 118 109
0.211293 -0.259133 -0.598 141 87 87
0.44659 -0.224033 -0.517 188 145 128
0.443653 -0.220133 -0.508 191 148 131
0.45014 -0.215367 -0.497 196 151 132
0.471914 -0.2158 -0.498 180 132 109
0.476664 -0.216233 -0.499 177 129 106
0.478571 -0.216667 -0.5 178 126 104
0.479524 -0.216667 -0.5 174 122 100
0.483346 -0.2171 -0.501 168 123 100
-0.0871724 -0.253744 -0.583 69 68 74
-0.0684457 -0.276811 -0.636 48 49 54
-0.0588467 -0.277247 -0.637 51 50 58
-0.043479 -0.279858 -0.643 72 71 79
0.141038 -0.25679 -0.59 202 145 138
0.146977 -0.251568 -0.578 201 141 133
0.151427 -0.249827 -0.574 194 134 124
0.173475 -0.248521 -0.571 189 129 119
0.183585 -0.248956 -0.572 198 138 130
0.44978 -0.22763 -0.523 180 142 133
0.44422 -0.218054 -0.501 197 152 133
0.4521 -0.215443 -0.495 193 148 129
0.453986 -0.215443 -0.495 193 148 129
0.460571 -0.215878 -0.496 182 136 110
0.481429 -0.217619 -0.5 165 123 101
-0.102627 -0.26316 -0.602 105 106 111
-0.0908286 -0.252669 -0.578 110 109 115
-0.082719 -0.261849 -0.599 105 104 110
0.13552 -0.26928 -0.616 202 144 133
0.136693 -0.26928 -0.616 202 144 133
0.140799 -0.257477 -0.589 202 145 138
0.151989 -0.250046 -0.572 188 126 111
0.175343 -0.249171 -0.57 183 125 114
0.1886 -0.25092 -0.574 175 121 109
0.456189 -0.233434 -0.534 179 141 132
0.45064 -0.229063 -0.524 178 141 132
0.44422 -0.219009 -0.501 197 151 135
0.445238 -0.218571 -0.5 191 144 126
0.463406 -0.216823 -0.496 188 142 118
0.50274 -0.224254 -0.513 153 117 95
-0.08568 -0.25816 -0.588 104 103 109
-0.0848476 -0.259038 -0.59 111 110 116
-0.0794571 -0.271331 -0.618 92 93 97
-0.0764419 -0.277478 -0.632 82 83 88
0.139026 -0.259477 -0.591 198 141 134
0.14356 -0.255526 -0.582 199 140 132
0.151989 -0.251135 -0.572 188 127 109
0.160143 -0.250257 -0.57 197 138 122
0.1707 -0.249818 -0.569 193 135 124
0.193217 -0.25377 -0.578 164 107 100
0.20216 -0.25816 -0.588 152 99 95
0.210506 -0.26299 -0.599 126 90 100
0.45236 -0.230939 -0.526 180 142 133
0.443746 -0.222597 -0.507 194 151 135
0.44422 -0.219963 -0.501 197 151 135
0.453043 -0.217329 -0.495 189 144 125
0.459643 -0.217329 -0.495 183 137 113
0.471913 -0.218207 -0.497 185 137 115
0.474753 -0.218207 -0.497 179 131 109
0.506663 -0.226549 -0.516 155 117 94
0.1362 -0.2778 -0.63 197 147 140
0.144775 -0.25487 -0.578 195 135 125
0.14731 -0.253548 -0.575 193 133 123
0.158778 -0.250902 -0.569 192 133 117
0.183585 -0.252225 -0.572 182 123 117
0.204317 -0.260603 -0.591 146 95 91
0.444286 -0.220476 -0.5 192 149 133
0.455871 -0.218271 -0.495 190 143 123
0.462471 -0.218271 -0.495 190 143 123
0.470964 -0.218712 -0.496 186 138 116
0.473807 -0.219153 -0.497 183 135 113
-0.105152 -0.270143 -0.61 99 102 107
-0.0696571 -0.281657 -0.636 55 56 61
0.175035 -0.251986 -0.569 179 119 109
0.240439 -0.287414 -0.649 192 196 221
0.263113 -0.286529 -0.647 171 121 130
0.265578 -0.286529 -0.647 160 109 116
0.474743 -0.219657 -0.496 178 132 109
0.475688 -0.219657 -0.496 178 132 109
0.482327 -0.2201 -0.497 165 120 99
-0.105325 -0.27175 -0.611 98 101 106
-0.0646076 -0.281979 -0.634 58 57 65
-0.0552933 -0.283758 -0.638 49 48 56
0.140475 -0.259296 -0.583 194 140 130
0.141962 -0.257962 -0.58 190 133 122
0.157417 -0.252625 -0.568 197 139 125
0.179686 -0.253514 -0.57 189 126 119
0.206486 -0.264189 -0.594 133 90 97
0.21412 -0.269526 -0.606 188 165 181
0.451638 -0.233055 -0.524 182 142 132
0.445956 -0.228608 -0.514 183 144 129
0.44422 -0.222826 -0.501 193 150 133
0.445455 -0.220602 -0.496 195 152 135
0.446443 -0.220157 -0.495 198 155 138
0.457773 -0.219712 -0.494 192 147 126
0.459655 -0.219712 -0.494 191 146 125
0.462478 -0.219712 -0.494 190 144 121
0.46436 -0.219712 -0.494 190 144 120
0.469065 -0.219712 -0.494 184 139 110
0.470957 -0.220157 -0.495 183 138 109
-0.085279 -0.264873 -0.593 189 188 194
-0.07462 -0.284527 -0.637 77 80 85
-0.0734067 -0.284527 -0.637 64 67 72
-0.0634 -0.283187 -0.634 48 47 55
-0.0586619 -0.283633 -0.635 42 41 49
0.135878 -0.264427 -0.592 198 144 134
0.144274 -0.25728 -0.576 192 134 122
0.158499 -0.253707 -0.568 203 144 130
0.16578 -0.25326 -0.567 206 143 134
0.20104 -0.26264 -0.588 143 94 90
0.258634 -0.28676 -0.642 166 117 121
0.258643 -0.28542 -0.639 165 116 120
0.444 -0.22512 -0.504 194 152 138
0.444348 -0.222887 -0.499 193 150 134
0.44446 -0.221993 -0.497 193 150 133
0.4455 -0.2211 -0.495 195 152 133
0.447386 -0.2211 -0.495 196 153 134
0.465301 -0.220653 -0.494 190 144 120
0.475671 -0.2211 -0.495 176 128 105
-0.0901933 -0.26062 -0.581 102 101 106
-0.084859 -0.268246 -0.598 193 192 200
-0.0766838 -0.284394 -0.634 87 88 93
-0.0670229 -0.284394 -0.634 42 41 49
0.135287 -0.28574 -0.637 194 140 128
0.14763 -0.256583 -0.572 187 125 112
0.150371 -0.255686 -0.57 193 131 118
0.1593 -0.25434 -0.567 196 138 127
0.16038 -0.25434 -0.567 193 135 124
0.16578 -0.25434 -0.567 200 140 130
0.16902 -0.25434 -0.567 188 128 117
0.172564 -0.254789 -0.568 177 117 107
0.177203 -0.255237 -0.569 177 117 109
0.21624 -0.274526 -0.612 160 150 174
0.274238 -0.291571 -0.65 216 215 246
0.459664 -0.221146 -0.493 194 147 131
0.464359 -0.221146 -0.493 190 144 121
0.4785 -0.222043 -0.495 177 129 106
0.500743 -0.227874 -0.508 158 116 94
-0.0874714 -0.263529 -0.585 70 68 79
-0.0832124 -0.275241 -0.611 169 171 170
0.14208 -0.259474 -0.576 192 134 123
0.151191 -0.256321 -0.569 191 134 117
0.15714 -0.25542 -0.567 201 142 128
0.16146 -0.25542 -0.567 195 135 124
0.19422 -0.261727 -0.581 160 95 89
0.195999 -0.262628 -0.583 154 94 93
0.449306 -0.233797 -0.519 176 138 127
0.4455 -0.222986 -0.495 192 151 131
0.457786 -0.222085 -0.493 192 148 123
0.458725 -0.222085 -0.493 190 146 121
0.480386 -0.222986 -0.495 176 128 105
0.491905 -0.225238 -0.5 156 116 91
0.4968 -0.22704 -0.504 152 112 87
-0.0861171 -0.267357 -0.591 70 68 82
0.13519 -0.266452 -0.589 200 144 127
0.16254 -0.2565 -0.567 204 144 133
0.1647 -0.2565 -0.567 201 139 128
0.17118 -0.2565 -0.567 176 113 104
0.191015 -0.261476 -0.578 171 102 95
0.201724 -0.266905 -0.59 130 81 77
0.255766 -0.28319 -0.626 140 99 105
0.262243 -0.286357 -0.633 131 85 95
0.448559 -0.233881 -0.517 178 141 132
0.448395 -0.223024 -0.493 192 150 128
0.459664 -0.223024 -0.493 191 147 122
0.469993 -0.223024 -0.493 182 136 110
-0.0858543 -0.271209 -0.597 221 219 230
-0.0812867 -0.28302 -0.623 167 169 168
-0.0755952 -0.288471 -0.635 56 57 61
0.133623 -0.268937 -0.592 192 132 124
0.1482 -0.258943 -0.57 179 121 107
0.180771 -0.258943 -0.57 168 108 100
0.192781 -0.263486 -0.58 163 102 97
0.209614 -0.273934 -0.603 104 89 112
0.251789 -0.288017 -0.634 167 117 120
0.4525 -0.2385 -0.525 171 138 131
0.451903 -0.237137 -0.522 171 138 131
0.452151 -0.223963 -0.493 191 149 127
0.459669 -0.223509 -0.492 193 148 125
0.478445 -0.223963 -0.493 180 130 105
-0.0959229 -0.268696 -0.589 82 82 92
-0.0812867 -0.284207 -0.623 175 177 174
-0.0643019 -0.287856 -0.631 37 36 44
-0.0606962 -0.287856 -0.631 33 32 40
0.133397 -0.269609 -0.591 193 132 127
0.144362 -0.260941 -0.572 186 128 116
0.180771 -0.260029 -0.57 168 105 98
0.198462 -0.267784 -0.587 149 92 85
0.23015 -0.292418 -0.641 171 182 227
0.469977 -0.224446 -0.492 183 136 110
0.48412 -0.225358 -0.494 165 124 96
-0.110471 -0.287226 -0.627 84 83 88
-0.08792 -0.26936 -0.588 65 63 76
-0.0872429 -0.270734 -0.591 68 66 79
-0.0842381 -0.279438 -0.61 218 217 225
0.135386 -0.267986 -0.585 189 132 123
0.145197 -0.261572 -0.571 187 127 116
0.15282 -0.25974 -0.567 193 133 122
0.17226 -0.25974 -0.567 174 111 104
0.17334 -0.25974 -0.567 176 113 106
0.176891 -0.260198 -0.568 187 124 117
0.187833 -0.263405 -0.575 163 98 94
0.20275 -0.27165 -0.593 125 86 91
0.255727 -0.285393 -0.623 132 89 96
0.449544 -0.236835 -0.517 183 147 135
0.44936 -0.225383 -0.492 193 151 129
0.475569 -0.224925 -0.491 182 130 106
-0.106704 -0.28474 -0.619 79 78 86
-0.08498 -0.27922 -0.607 225 223 234
-0.0681229 -0.29118 -0.633 36 37 42
-0.0594943 -0.29026 -0.631 37 36 44
0.146029 -0.2622 -0.57 187 127 117
0.199138 -0.27094 -0.589 142 83 77
0.272933 -0.29624 -0.644 139 137 159
0.44415 -0.23092 -0.502 190 147 128
0.4446 -0.22724 -0.494 196 153 134
0.454046 -0.22632 -0.492 197 152 131
0.466229 -0.22632 -0.492 191 145 122
0.480286 -0.22632 -0.492 178 132 108
0.489859 -0.22816 -0.496 160 119 99
0.495714 -0.23 -0.5 155 117 98
-0.0967371 -0.274371 -0.594 76 74 85
-0.0852848 -0.277605 -0.601 209 207 218
-0.0606962 -0.291462 -0.631 34 33 41
0.16254 -0.2619 -0.567 189 126 117
0.17581 -0.262362 -0.568 176 111 107
0.180771 -0.263286 -0.57 166 102 100
0.189586 -0.266519 -0.577 158 104 102
0.245383 -0.282686 -0.612 196 137 139
0.448786 -0.237881 -0.515 179 141 128
0.44415 -0.231876 -0.502 189 148 130
0.446517 -0.227719 -0.493 196 153 134
0.452188 -0.226795 -0.491 198 153 132
-0.0680152 -0.293128 -0.632 36 37 42
0.131876 -0.282924 -0.61 191 131 121
0.134923 -0.270401 -0.583 186 129 118
0.137691 -0.267154 -0.576 190 133 122
0.141093 -0.265299 -0.572 183 125 114
0.1647 -0.26298 -0.567 157 94 87
0.186413 -0.266227 -0.574 157 98 94
0.191676 -0.26901 -0.58 153 97 98
0.454632 -0.243036 -0.524 176 141 135
0.445578 -0.228658 -0.493 195 149 133
0.446517 -0.228658 -0.493 194 151 132
0.456857 -0.228194 -0.492 199 154 135
0.468087 -0.22773 -0.491 188 140 118
-0.0811562 -0.289674 -0.622 210 211 213
-0.0631 -0.293866 -0.631 35 34 42
0.134691 -0.271046 -0.582 189 132 123
0.146598 -0.264526 -0.568 184 126 114
0.16362 -0.26406 -0.567 165 102 97
0.242257 -0.284086 -0.61 204 139 135
0.242621 -0.283154 -0.608 196 135 132
0.445677 -0.236117 -0.507 188 142 127
0.443566 -0.230994 -0.496 193 150 133
0.455929 -0.228666 -0.491 198 153 134
0.460605 -0.228666 -0.491 196 149 129
0.467151 -0.228666 -0.491 190 143 123
0.485909 -0.229131 -0.492 169 125 100
0.487835 -0.229597 -0.493 170 126 101
-0.0854267 -0.281507 -0.602 92 91 99
-0.0782257 -0.293197 -0.627 54 55 59
0.131824 -0.275428 -0.589 187 130 119
0.133812 -0.272622 -0.583 190 133 122
0.154707 -0.264672 -0.566 191 131 121
0.16794 -0.26514 -0.567 171 102 105
0.1701 -0.26514 -0.567 172 106 108
0.195557 -0.273557 -0.585 152 88 86
0.243452 -0.292262 -0.625 191 127 127
0.241823 -0.283377 -0.606 197 133 133
0.465429 -0.252514 -0.54 167 136 133
0.44422 -0.234277 -0.501 194 147 129
0.453123 -0.229601 -0.491 195 150 131
0.45967 -0.229601 -0.491 194 149 130
0.484921 -0.229601 -0.491 171 125 99
0.497574 -0.233342 -0.499 155 117 96
-0.0985286 -0.284062 -0.605 76 80 83
-0.0864295 -0.282184 -0.601 78 77 83
-0.0830762 -0.28641 -0.61 228 226 237
0.1316 -0.27608 -0.588 187 130 119
0.1351 -0.271854 -0.579 190 133 124
0.136594 -0.270446 -0.576 189 132 123
0.1701 -0.26622 -0.567 176 110 111
0.17334 -0.26622 -0.567 183 117 118
0.180771 -0.267629 -0.57 157 96 95
0.184997 -0.269037 -0.573 157 96 93
0.188487 -0.270915 -0.577 159 96 91
0.240729 -0.288757 -0.615 192 131 130
0.260535 -0.293922 -0.626 126 87 88
0.448122 -0.240396 -0.512 183 147 131
0.445611 -0.231006 -0.492 190 147 130
0.454993 -0.230536 -0.491 199 153 137
0.4662 -0.230067 -0.49 190 143 123
0.486791 -0.230536 -0.491 166 124 100
-0.106036 -0.293229 -0.622 83 84 89
-0.0821829 -0.288514 -0.612 229 230 234
-0.0787867 -0.293229 -0.622 56 57 61
-0.0778514 -0.294171 -0.624 47 48 53
0.132043 -0.275786 -0.585 183 129 119
0.149316 -0.266829 -0.566 191 131 121
0.154433 -0.266357 -0.565 190 130 120
0.1698 -0.266829 -0.566 183 115 114
0.192007 -0.2739 -0.581 153 93 93
0.200152 -0.279086 -0.592 140 87 83
0.205143 -0.282857 -0.6 127 97 109
0.240626 -0.284271 -0.603 196 132 130
0.256857 -0.292286 -0.62 131 92 93
0.446556 -0.239486 -0.508 185 146 129
0.443513 -0.2343 -0.497 194 148 133
0.450317 -0.231471 -0.491 199 154 135
0.451252 -0.231471 -0.491 199 154 135
0.468043 -0.230529 -0.489 184 136 114
0.475451 -0.230057 -0.488 181 133 110
0.132702 -0.275953 -0.583 188 131 124
0.141686 -0.2698 -0.57 185 126 118
0.144434 -0.268853 -0.568 187 127 119
0.190243 -0.27406 -0.579 154 94 94
0.195891 -0.277373 -0.586 148 90 89
0.200152 -0.280213 -0.592 134 84 83
0.242614 -0.297727 -0.629 187 125 126
0.475771 -0.26128 -0.552 168 134 133
0.461573 -0.251813 -0.532 175 140 138
0.445541 -0.233827 -0.494 194 151 135
0.445578 -0.233353 -0.493 195 152 136
0.451267 -0.231933 -0.49 199 154 133
0.456867 -0.231933 -0.49 198 152 129
-0.0965419 -0.28847 -0.607 89 90 94
-0.088719 -0.285618 -0.601 78 79 83
-0.0812819 -0.291796 -0.614 85 86 91
0.131817 -0.277539 -0.584 192 137 130
0.14418 -0.26946 -0.567 187 127 119
0.182495 -0.271836 -0.572 143 87 88
0.223509 -0.302251 -0.636 110 120 156
0.24252 -0.286093 -0.602 185 120 116
0.250801 -0.29037 -0.611 143 94 90
0.259287 -0.296073 -0.623 131 91 91
0.44446 -0.236193 -0.497 192 150 134
0.445541 -0.234768 -0.494 196 153 136
0.454067 -0.232867 -0.49 197 152 129
0.462454 -0.232391 -0.489 195 149 126
0.475405 -0.231441 -0.487 182 135 109
0.483817 -0.231916 -0.488 171 125 102
-0.0986638 -0.292489 -0.613 91 92 97
-0.0914629 -0.288194 -0.604 88 89 93
0.14227 -0.271017 -0.568 185 125 115
0.174728 -0.271017 -0.568 147 88 84
0.179686 -0.271971 -0.57 145 89 88
0.190243 -0.276266 -0.579 150 91 93
0.23683 -0.290103 -0.608 193 129 127
0.237538 -0.286763 -0.601 196 132 133
0.25039 -0.291057 -0.61 143 94 90
0.444286 -0.238571 -0.5 190 146 133
0.448447 -0.234277 -0.491 199 157 135
0.451252 -0.234277 -0.491 197 155 133
0.456867 -0.2338 -0.49 199 154 133
0.471694 -0.232369 -0.487 182 134 111
0.474477 -0.232369 -0.487 183 135 112
0.480043 -0.232369 -0.487 177 129 106
-0.103833 -0.298447 -0.623 91 93 92
-0.0821829 -0.293177 -0.612 74 75 80
0.140353 -0.272578 -0.569 187 129 118
0.157662 -0.270662 -0.565 174 111 104
0.187063 -0.275931 -0.576 148 92 91
0.190243 -0.277369 -0.579 148 89 91
0.242117 -0.287908 -0.601 177 112 106
0.46662 -0.258207 -0.539 163 133 131
0.445174 -0.240003 -0.501 184 145 130
0.448447 -0.235212 -0.491 198 155 136
0.448467 -0.234733 -0.49 198 155 136
0.467056 -0.233296 -0.487 191 143 120
0.47726 -0.233296 -0.487 181 134 108
-0.0979733 -0.296267 -0.616 102 101 107
-0.0951609 -0.294824 -0.613 100 101 106
-0.0793286 -0.296748 -0.617 65 65 73
0.129214 -0.290014 -0.603 194 134 126
0.129549 -0.285686 -0.594 192 133 125
0.131817 -0.280876 -0.584 191 134 125
0.135262 -0.276548 -0.575 194 135 129
0.13927 -0.273662 -0.569 184 125 117
0.1431 -0.2727 -0.567 189 129 121
0.17581 -0.273181 -0.568 150 92 90
0.185643 -0.276548 -0.575 145 90 93
0.193778 -0.280395 -0.583 144 88 91
0.235249 -0.289052 -0.601 192 128 126
0.236748 -0.28809 -0.599 196 132 130
0.26131 -0.300595 -0.625 104 87 95
0.548323 -0.307329 -0.639 161 137 133
0.462441 -0.256348 -0.533 163 138 134
0.458371 -0.252981 -0.526 169 140 134
0.444348 -0.239995 -0.499 190 148 136
0.45314 -0.235186 -0.489 197 151 135
0.455934 -0.235186 -0.489 199 152 136
0.484747 -0.234705 -0.488 178 131 105
-0.0755952 -0.301786 -0.625 58 57 63
0.149052 -0.272814 -0.565 191 128 121
0.192007 -0.28054 -0.581 143 83 85
0.239072 -0.302269 -0.626 184 126 125
0.236043 -0.296957 -0.615 190 129 128
0.235213 -0.288749 -0.598 197 131 133
0.258038 -0.299371 -0.62 119 85 83
0.466065 -0.258811 -0.536 169 138 135
0.45588 -0.252051 -0.522 175 140 136
0.4446 -0.238531 -0.494 196 150 134
0.445541 -0.238531 -0.494 197 151 135
0.454072 -0.235634 -0.488 199 152 132
0.456861 -0.235634 -0.488 199 152 132
0.463346 -0.235151 -0.487 192 144 124
0.473452 -0.234186 -0.485 185 138 108
-0.0919571 -0.298129 -0.615 107 108 113
-0.0896143 -0.298129 -0.615 107 108 112
0.132019 -0.281162 -0.58 188 131 122
0.132894 -0.280677 -0.579 187 130 121
0.133534 -0.279708 -0.577 188 129 123
0.154433 -0.27389 -0.565 179 116 109
0.161967 -0.27389 -0.565 176 113 106
0.188813 -0.280192 -0.578 136 79 85
0.20264 -0.288918 -0.596 122 99 109
0.24017 -0.290372 -0.599 176 113 106
0.4446 -0.239472 -0.494 193 150 133
0.445611 -0.238503 -0.492 194 151 134
0.448467 -0.237533 -0.49 197 150 132
0.454072 -0.236564 -0.488 199 154 133
0.465138 -0.23511 -0.485 188 140 117
0.488465 -0.236564 -0.488 164 124 98
0.492333 -0.237533 -0.49 164 127 101
-0.0975857 -0.30222 -0.621 114 113 118
-0.0899057 -0.300273 -0.617 111 112 116
-0.0829886 -0.30076 -0.618 86 90 91
0.150937 -0.27448 -0.564 188 125 118
0.153086 -0.27448 -0.564 179 116 109
0.165195 -0.274967 -0.565 175 112 103
0.1695 -0.274967 -0.565 171 106 100
0.188813 -0.281293 -0.578 131 77 77
0.192007 -0.282753 -0.581 141 90 89
0.23482 -0.29054 -0.597 184 122 123
0.235957 -0.29054 -0.597 183 122 121
0.450951 -0.24966 -0.513 179 141 132
0.145824 -0.276043 -0.565 188 129 121
0.154433 -0.276043 -0.565 179 116 109
0.166271 -0.276043 -0.565 177 110 102
0.188813 -0.282394 -0.578 129 78 74
0.197344 -0.286791 -0.587 143 93 92
0.214133 -0.30096 -0.616 116 107 128
0.234427 -0.291189 -0.596 177 116 115
0.235562 -0.291189 -0.596 175 114 111
0.268271 -0.309266 -0.633 187 180 196
0.55433 -0.315617 -0.646 161 131 131
0.44769 -0.247217 -0.506 180 140 128
0.44451 -0.242331 -0.496 194 148 133
0.454989 -0.237446 -0.486 198 151 131
0.461443 -0.236957 -0.485 195 147 125
0.468789 -0.236469 -0.484 190 144 120
0.495209 -0.239889 -0.491 157 119 100
-0.0833914 -0.304586 -0.621 106 107 111
0.130914 -0.284476 -0.58 193 134 128
0.142595 -0.277119 -0.565 191 131 123
0.158457 -0.276629 -0.564 178 114 105
0.16168 -0.276629 -0.564 185 121 112
0.178287 -0.279081 -0.569 137 89 87
0.181089 -0.280062 -0.571 133 85 85
0.23446 -0.302624 -0.617 197 136 131
0.44451 -0.243276 -0.496 192 146 131
0.451284 -0.239352 -0.488 194 147 129
0.452214 -0.238862 -0.487 197 150 132
0.460491 -0.23739 -0.484 194 146 124
0.47236 -0.23641 -0.482 188 140 117
0.130033 -0.286073 -0.581 197 138 132
0.130689 -0.285089 -0.579 196 137 131
0.152011 -0.277703 -0.564 170 107 100
0.167051 -0.277703 -0.564 170 106 97
0.178287 -0.280165 -0.569 142 92 91
0.182495 -0.281642 -0.572 133 83 82
0.183906 -0.282134 -0.573 134 84 85
0.458625 -0.258008 -0.524 172 139 134
0.4446 -0.243236 -0.494 192 146 130
0.445611 -0.242251 -0.492 196 149 133
0.445641 -0.241759 -0.491 197 150 134
0.450354 -0.240282 -0.488 193 146 128
0.454052 -0.238805 -0.485 197 148 131
0.457726 -0.238312 -0.484 195 147 127
0.458648 -0.238312 -0.484 195 147 127
0.476032 -0.237328 -0.482 181 133 111
0.47695 -0.237328 -0.482 181 133 111
0.126811 -0.300526 -0.608 191 136 131
0.126496 -0.297066 -0.601 188 133 128
0.1377 -0.28026 -0.567 193 133 125
0.14664 -0.278777 -0.564 183 123 115
0.212048 -0.301514 -0.61 119 91 106
0.230657 -0.295583 -0.598 198 137 134
0.231021 -0.294594 -0.596 197 134 127
0.46598 -0.23874 -0.483 195 147 125
0.477793 -0.237751 -0.481 178 132 109
0.494042 -0.241211 -0.488 158 126 103
0.126075 -0.297218 -0.599 184 129 122
0.13662 -0.28134 -0.567 191 132 124
0.180771 -0.282829 -0.57 138 87 86
0.235426 -0.312104 -0.629 179 125 125
0.229143 -0.297714 -0.6 203 145 143
0.481541 -0.239164 -0.482 171 128 109
0.127368 -0.290888 -0.584 192 138 128
0.129362 -0.287899 -0.578 195 138 129
0.133 -0.283914 -0.57 192 133 125
0.144491 -0.280926 -0.564 178 118 110
0.158176 -0.280428 -0.563 183 120 113
0.161393 -0.280428 -0.563 180 115 109
0.164903 -0.280926 -0.564 176 111 105
0.4697 -0.268473 -0.539 168 137 135
0.448653 -0.252036 -0.506 181 143 132
0.445689 -0.243569 -0.489 193 147 132
0.450359 -0.242572 -0.487 195 148 132
0.455882 -0.241078 -0.484 197 149 129
0.466799 -0.239584 -0.481 190 144 120
0.468631 -0.239584 -0.481 190 146 121
0.474057 -0.239086 -0.48 174 132 108
0.480542 -0.239584 -0.481 167 126 104
0.484295 -0.240082 -0.482 168 127 105
0.501921 -0.245561 -0.493 161 122 107
0.137457 -0.283 -0.566 185 125 117
0.165977 -0.282 -0.564 173 108 102
0.170576 -0.2825 -0.565 157 100 91
0.235562 -0.298 -0.596 177 112 106
0.46636 -0.267 -0.534 170 136 134
0.44619 -0.25 -0.5 183 146 128
0.446649 -0.2435 -0.487 196 151 132
0.467657 -0.24 -0.48 192 146 122
0.124812 -0.29763 -0.593 193 136 127
0.14664 -0.283074 -0.564 181 118 111
0.182176 -0.286588 -0.571 142 93 89
0.186413 -0.288093 -0.574 143 93 92
0.215426 -0.307668 -0.613 117 77 85
0.26131 -0.31369 -0.625 174 153 162
0.453116 -0.242922 -0.484 202 155 137
0.455882 -0.242922 -0.484 195 148 128
0.464 -0.240914 -0.48 195 147 125
0.477631 -0.240412 -0.479 175 131 106
0.478544 -0.240412 -0.479 170 128 104
0.482286 -0.240914 -0.48 167 126 104
0.50286 -0.247439 -0.493 159 122 104
0.124554 -0.309339 -0.614 191 139 128
0.131914 -0.287171 -0.57 191 132 126
0.137457 -0.285156 -0.566 182 121 116
0.148789 -0.284149 -0.564 178 115 110
0.172729 -0.284652 -0.565 149 96 88
0.227983 -0.299263 -0.594 192 132 132
0.465763 -0.267523 -0.531 169 138 135
0.451272 -0.243844 -0.484 203 158 137
0.475724 -0.240821 -0.478 180 136 111
0.481281 -0.241325 -0.479 167 126 106
0.131683 -0.287751 -0.569 188 131 122
0.13446 -0.28674 -0.567 188 131 122
0.152814 -0.284717 -0.563 186 126 118
0.174112 -0.286234 -0.566 149 96 88
0.224046 -0.315566 -0.624 77 62 85
0.226101 -0.302417 -0.598 196 141 136
0.228729 -0.299889 -0.593 183 123 122
0.256857 -0.313543 -0.62 123 102 117
0.447019 -0.253869 -0.502 181 145 129
0.447576 -0.246283 -0.487 198 152 136
0.456752 -0.243754 -0.482 198 150 130
0.478455 -0.241731 -0.478 168 126 104
0.483106 -0.242237 -0.479 164 127 108
0.127817 -0.292389 -0.576 187 133 123
0.161393 -0.28579 -0.563 172 109 100
0.16461 -0.28579 -0.563 173 110 101
0.180771 -0.289343 -0.57 145 94 91
0.189586 -0.292896 -0.577 144 96 96
0.225338 -0.304064 -0.599 195 140 137
0.241373 -0.305587 -0.602 138 80 78
0.543669 -0.318785 -0.628 162 134 131
0.451281 -0.246195 -0.485 198 153 132
0.45767 -0.244672 -0.482 196 150 127
0.461302 -0.244165 -0.481 192 146 120
0.461257 -0.243657 -0.48 189 143 117
0.46935 -0.242642 -0.478 191 145 121
0.123266 -0.301129 -0.591 192 140 129
0.126277 -0.295014 -0.579 193 139 129
0.145566 -0.287371 -0.564 181 122 114
0.165977 -0.287371 -0.564 176 109 101
0.201724 -0.300619 -0.59 143 88 83
0.221173 -0.313867 -0.616 101 61 72
0.22421 -0.303676 -0.596 196 138 137
0.22534 -0.302148 -0.593 195 134 131
0.260535 -0.318962 -0.626 122 122 146
0.326238 -0.33119 -0.65 252 252 254
0.329952 -0.33119 -0.65 253 252 255
0.332429 -0.33119 -0.65 248 247 253
0.444733 -0.249667 -0.49 191 153 134
0.449434 -0.247629 -0.486 197 152 131
0.45035 -0.24661 -0.484 197 152 131
0.468369 -0.243043 -0.477 190 146 119
0.47382 -0.243043 -0.477 180 138 116
0.152814 -0.287934 -0.563 191 128 121
0.162466 -0.287934 -0.563 175 110 104
0.174112 -0.289469 -0.566 153 100 92
0.192449 -0.296117 -0.579 141 90 87
0.222505 -0.311971 -0.61 160 111 114
0.300549 -0.331406 -0.648 217 221 246
0.325736 -0.331917 -0.649 252 252 252
0.329445 -0.331917 -0.649 250 249 255
0.334905 -0.332429 -0.65 196 203 229
0.4488 -0.25776 -0.504 181 148 131
0.1323 -0.29106 -0.567 190 131 123
0.145308 -0.289007 -0.563 180 120 112
0.147452 -0.289007 -0.563 186 123 114
0.148525 -0.289007 -0.563 190 127 118
0.191015 -0.296707 -0.578 143 92 89
0.20104 -0.30184 -0.588 139 88 87
0.205009 -0.304407 -0.593 131 83 83
0.209015 -0.306973 -0.598 109 60 63
0.21156 -0.309027 -0.602 102 54 54
0.218737 -0.31108 -0.606 147 101 104
0.240626 -0.30954 -0.603 126 72 72
0.244937 -0.312107 -0.608 117 77 85
0.312891 -0.33264 -0.648 213 217 220
0.326469 -0.33264 -0.648 254 254 254
0.330171 -0.33264 -0.648 217 213 240
0.336862 -0.333153 -0.649 214 216 239
0.360905 -0.333667 -0.65 194 192 213
0.467517 -0.273607 -0.533 169 138 133
0.453087 -0.262313 -0.511 177 144 129
0.445707 -0.250507 -0.488 194 153 133
0.447586 -0.248967 -0.485 193 150 131
0.462067 -0.245373 -0.478 194 150 125
0.468293 -0.244347 -0.476 190 145 122
0.476453 -0.244347 -0.476 177 135 110
0.481997 -0.24486 -0.477 169 127 105
0.122431 -0.302445 -0.587 190 137 129
0.125174 -0.298323 -0.579 190 135 128
0.125841 -0.297292 -0.577 193 138 131
0.13037 -0.292655 -0.568 190 133 124
0.135062 -0.29111 -0.565 179 120 114
0.158176 -0.290079 -0.563 176 113 108
0.162466 -0.290079 -0.563 171 108 103
0.182176 -0.294201 -0.571 147 94 90
0.183585 -0.294716 -0.572 147 96 93
0.210506 -0.308628 -0.599 118 68 69
0.216506 -0.310689 -0.603 150 99 98
0.225706 -0.304506 -0.591 179 115 115
0.231767 -0.306567 -0.595 153 93 85
0.233291 -0.307082 -0.596 151 92 84
0.29716 -0.332844 -0.646 190 198 217
0.31536 -0.333874 -0.648 223 224 228
0.320297 -0.333874 -0.648 255 253 255
0.351696 -0.33439 -0.649 175 193 233
0.445707 -0.251436 -0.488 194 151 132
0.450357 -0.24989 -0.485 199 157 135
0.456721 -0.24783 -0.481 197 152 129
0.458514 -0.247314 -0.48 197 153 128
0.467387 -0.245253 -0.476 190 146 119
0.469119 -0.244738 -0.475 189 145 116
0.470929 -0.244738 -0.475 190 146 119
0.122223 -0.303046 -0.586 189 136 128
0.135062 -0.292186 -0.565 185 126 120
0.14638 -0.291151 -0.563 185 122 117
0.151742 -0.291151 -0.563 186 126 118
0.162466 -0.291151 -0.563 167 104 99
0.187833 -0.297357 -0.575 147 94 90
0.190685 -0.298391 -0.577 142 89 85
0.195327 -0.30046 -0.581 139 88 85
0.217398 -0.308217 -0.596 184 128 127
0.233683 -0.308734 -0.597 145 87 83
0.248929 -0.318043 -0.615 114 78 80
0.306247 -0.334591 -0.647 246 247 255
0.329662 -0.334591 -0.647 177 184 202
0.379476 -0.336143 -0.65 239 241 255
0.401762 -0.336143 -0.65 208 212 239
0.468293 -0.24616 -0.476 192 148 121
0.470929 -0.245643 -0.475 193 149 122
0.483707 -0.24616 -0.476 166 126 101
0.128657 -0.295857 -0.57 179 122 111
0.13037 -0.294819 -0.568 176 119 108
0.142343 -0.292743 -0.564 188 127 122
0.154684 -0.291705 -0.562 178 118 110
0.159249 -0.292224 -0.563 170 107 102
0.16461 -0.292224 -0.563 168 103 99
0.20216 -0.3052 -0.588 138 84 82
0.2167 -0.306757 -0.591 189 131 129
0.225706 -0.306757 -0.591 176 112 110
0.300851 -0.335305 -0.646 183 189 213
0.333359 -0.335824 -0.647 222 220 242
0.335824 -0.335824 -0.647 244 243 251
0.348686 -0.336343 -0.648 195 208 240
0.36653 -0.336862 -0.649 162 168 192
0.380714 -0.337381 -0.65 202 205 222
0.405476 -0.337381 -0.65 202 208 234
0.453171 -0.264714 -0.51 170 141 133
0.448037 -0.260043 -0.501 182 145 129
0.455734 -0.248624 -0.479 195 154 124
0.465573 -0.247067 -0.476 192 148 119
0.473549 -0.246029 -0.474 180 138 113
0.474451 -0.246029 -0.474 179 137 112
0.48654 -0.247586 -0.477 164 127 101
0.124742 -0.30059 -0.577 191 139 128
0.13037 -0.295901 -0.568 181 125 112
0.13122 -0.29538 -0.567 183 127 114
0.144235 -0.293296 -0.563 185 125 117
0.149597 -0.293296 -0.563 183 124 116
0.15067 -0.293296 -0.563 189 130 122
0.160321 -0.293296 -0.563 171 108 101
0.170576 -0.294338 -0.565 158 97 94
0.17442 -0.29538 -0.567 153 94 90
0.206918 -0.308404 -0.592 108 54 52
0.223076 -0.307362 -0.59 177 116 113
0.227215 -0.308404 -0.592 162 98 96
0.230633 -0.309967 -0.595 143 88 85
0.250143 -0.321949 -0.618 146 119 124
0.302843 -0.336014 -0.645 187 192 214
0.304543 -0.336535 -0.646 185 190 220
0.308234 -0.336535 -0.646 219 223 252
0.320043 -0.336014 -0.645 228 229 249
0.363497 -0.337577 -0.648 217 226 243
0.373948 -0.338098 -0.649 232 238 254
0.390018 -0.338098 -0.649 228 230 255
0.403616 -0.338098 -0.649 215 221 245
0.406714 -0.338619 -0.65 168 183 216
0.407952 -0.338619 -0.65 140 155 188
0.40919 -0.338619 -0.65 131 153 194
0.465266 -0.274542 -0.527 163 138 133
0.446353 -0.258913 -0.497 182 146 132
0.453029 -0.250057 -0.48 194 152 127
0.46376 -0.247973 -0.476 190 146 119
0.47084 -0.246931 -0.474 193 149 124
0.471743 -0.246931 -0.474 191 147 122
0.477054 -0.24641 -0.473 176 135 115
