ply
format ascii 1.0
comment Created by Open3D
element vertex 1284
property double x
property double y
property double z
property uchar red
property uchar green
property uchar blue
end_header
0.375 -0.3738 -0.63 247 247 249
0.3762 -0.3738 -0.63 222 229 245
0.38521 -0.374393 -0.631 134 158 202
0.393624 -0.374393 -0.631 156 181 237
0.411101 -0.374987 -0.632 250 251 253
0.414712 -0.374987 -0.632 242 242 250
0.415916 -0.374987 -0.632 245 245 253
0.422603 -0.37558 -0.633 227 228 248
0.423809 -0.37558 -0.633 242 241 249
0.433454 -0.37558 -0.633 252 247 253
0.454891 -0.37736 -0.636 94 122 185
0.473807 -0.377953 -0.637 218 221 236
0.479873 -0.377953 -0.637 210 215 237
0.484272 -0.378547 -0.638 210 213 228
0.502071 -0.37914 -0.639 190 192 205
0.511809 -0.37914 -0.639 128 142 181
0.521143 -0.379733 -0.64 59 92 161
0.49126 -0.319807 -0.539 193 151 127
0.492287 -0.319807 -0.539 194 152 128
0.0961486 -0.335714 -0.564 195 142 134
0.125271 -0.330357 -0.555 183 127 114
0.130792 -0.330952 -0.556 177 121 106
0.134451 -0.332143 -0.558 163 107 94
0.186643 -0.348214 -0.585 121 80 76
0.19677 -0.352381 -0.592 120 79 75
0.23869 -0.372024 -0.625 173 176 195
0.239881 -0.372024 -0.625 174 177 194
0.244251 -0.371429 -0.624 147 156 187
0.249793 -0.370833 -0.623 88 110 159
0.260473 -0.370833 -0.623 100 130 184
0.26208 -0.371429 -0.624 101 128 181
0.268023 -0.371429 -0.624 143 156 208
0.27872 -0.371429 -0.624 232 234 249
0.282286 -0.371429 -0.624 206 207 225
0.290606 -0.371429 -0.624 194 195 216
0.291794 -0.371429 -0.624 208 209 230
0.297737 -0.371429 -0.624 234 236 251
0.302491 -0.371429 -0.624 242 249 255
0.326116 -0.372619 -0.626 128 149 204
0.327309 -0.372619 -0.626 134 154 205
0.336848 -0.372619 -0.626 231 237 249
0.348134 -0.373214 -0.627 204 207 212
0.352911 -0.373214 -0.627 219 220 238
0.354106 -0.373214 -0.627 213 214 232
0.357689 -0.373214 -0.627 216 219 236
0.3834 -0.375 -0.63 126 153 198
0.3978 -0.375 -0.63 173 190 242
0.4014 -0.375 -0.63 241 244 251
0.412854 -0.375595 -0.631 221 221 229
0.42675 -0.37619 -0.632 228 235 245
0.427954 -0.37619 -0.632 240 243 248
0.46216 -0.378571 -0.636 101 131 195
0.48594 -0.379167 -0.637 179 185 199
0.487153 -0.379167 -0.637 171 177 191
0.513438 -0.379762 -0.638 92 118 177
0.523943 -0.378571 -0.636 79 105 166
0.485461 -0.334524 -0.562 177 148 132
0.483529 -0.323214 -0.543 193 155 132
0.49762 -0.319643 -0.537 189 144 121
0.501711 -0.319643 -0.537 187 142 113
0.510686 -0.321429 -0.54 178 134 107
0.0949057 -0.336191 -0.563 195 142 136
0.116814 -0.331414 -0.555 186 132 120
0.129733 -0.332011 -0.556 175 122 106
0.156886 -0.340371 -0.57 138 86 75
0.16564 -0.34276 -0.574 133 84 77
0.185529 -0.349329 -0.585 121 80 76
0.259287 -0.37202 -0.623 97 128 182
0.267593 -0.37202 -0.623 146 159 211
0.26878 -0.37202 -0.623 203 207 245
0.294887 -0.37202 -0.623 216 219 236
0.30368 -0.372617 -0.624 246 249 255
0.329693 -0.373811 -0.626 142 164 213
0.332078 -0.373811 -0.626 136 150 197
0.333929 -0.373214 -0.625 217 221 255
0.33631 -0.373214 -0.625 244 248 255
0.3553 -0.374409 -0.627 193 195 218
0.358883 -0.374409 -0.627 216 221 240
0.365436 -0.375006 -0.628 250 249 255
0.38399 -0.375603 -0.629 142 169 216
0.420066 -0.376797 -0.631 197 202 224
0.430883 -0.376797 -0.631 251 252 255
0.433287 -0.376797 -0.631 209 208 214
0.456595 -0.379186 -0.635 77 113 173
0.47064 -0.379783 -0.636 207 210 225
0.482754 -0.379783 -0.636 179 185 201
0.490793 -0.38038 -0.637 176 179 196
0.503203 -0.354106 -0.593 168 140 136
0.484131 -0.333206 -0.558 183 150 133
0.483455 -0.332011 -0.556 188 151 133
0.489324 -0.321263 -0.538 194 152 130
0.518613 -0.324846 -0.544 169 124 103
0.0921771 -0.339061 -0.566 195 142 136
0.0988429 -0.336066 -0.561 199 146 140
0.105565 -0.33367 -0.557 198 143 136
0.108552 -0.33307 -0.556 193 139 129
0.14958 -0.33966 -0.567 147 93 81
0.1558 -0.341457 -0.57 138 86 75
0.170606 -0.345051 -0.576 130 83 75
0.181563 -0.349245 -0.583 122 79 73
0.230807 -0.373207 -0.623 166 165 183
0.246233 -0.373207 -0.623 100 107 135
0.255316 -0.372608 -0.622 88 113 170
0.273527 -0.373207 -0.623 233 231 253
0.298447 -0.373207 -0.623 246 249 255
0.340526 -0.373806 -0.624 252 251 255
0.345833 -0.374405 -0.625 253 254 255
0.392949 -0.376202 -0.628 145 166 211
0.394145 -0.376202 -0.628 131 152 197
0.4424 -0.378598 -0.632 114 136 185
0.461914 -0.379796 -0.634 85 115 169
0.483205 -0.380395 -0.635 176 181 200
0.491234 -0.380994 -0.636 171 174 193
0.5005 -0.381593 -0.637 177 176 182
0.510207 -0.381593 -0.637 62 91 151
0.48934 -0.340858 -0.569 173 145 133
0.486325 -0.337264 -0.563 176 149 132
0.483643 -0.332471 -0.555 190 153 137
0.486127 -0.322887 -0.539 199 156 137
0.487153 -0.322887 -0.539 198 156 134
0.490349 -0.322288 -0.538 194 152 130
0.493529 -0.321689 -0.537 199 157 135
0.495672 -0.32109 -0.536 196 151 130
0.502819 -0.32109 -0.536 188 144 117
0.514723 -0.324085 -0.541 171 126 105
0.525558 -0.328278 -0.548 165 124 104
0.09126 -0.34074 -0.567 193 138 133
0.101685 -0.335932 -0.559 201 148 140
0.105565 -0.33473 -0.557 198 143 136
0.127386 -0.333529 -0.555 178 120 109
0.130792 -0.33413 -0.556 168 115 101
0.164547 -0.344947 -0.574 131 85 72
0.172299 -0.34735 -0.578 130 83 75
0.17762 -0.349153 -0.581 123 78 72
0.179034 -0.349754 -0.582 122 77 71
0.228067 -0.373792 -0.622 148 144 161
0.242284 -0.373792 -0.622 103 110 136
0.260055 -0.373792 -0.622 140 173 226
0.268349 -0.373792 -0.622 135 143 182
0.271903 -0.373792 -0.622 224 224 255
0.303891 -0.373792 -0.622 248 248 255
0.313873 -0.374393 -0.623 182 197 228
0.34528 -0.374994 -0.624 248 248 250
0.352976 -0.375595 -0.625 209 211 226
0.357118 -0.376196 -0.626 231 235 247
0.376797 -0.376797 -0.627 175 188 223
0.381574 -0.376797 -0.627 178 201 245
0.385157 -0.376797 -0.627 154 174 227
0.395341 -0.377398 -0.628 170 186 219
0.400126 -0.377398 -0.628 233 242 255
0.403714 -0.377398 -0.628 247 246 252
0.4182 -0.3786 -0.63 197 202 221
0.4266 -0.3786 -0.63 251 252 255
0.449623 -0.379802 -0.632 115 147 204
0.464803 -0.380403 -0.633 156 178 227
0.472783 -0.381004 -0.634 190 193 200
0.486833 -0.381605 -0.635 159 171 195
0.492446 -0.382206 -0.636 196 192 206
0.497291 -0.382206 -0.636 166 165 173
0.505353 -0.382807 -0.637 202 201 217
0.51506 -0.382807 -0.637 82 115 186
0.516273 -0.382807 -0.637 66 100 174
0.521127 -0.382807 -0.637 42 75 142
0.49634 -0.349153 -0.581 169 139 131
0.484999 -0.335932 -0.559 180 148 133
0.483827 -0.332928 -0.554 194 152 138
0.482923 -0.328721 -0.547 199 158 140
0.483529 -0.326317 -0.543 193 152 132
0.48367 -0.325716 -0.542 199 156 137
0.486 -0.324514 -0.54 198 155 136
0.487153 -0.323913 -0.539 199 156 137
0.488299 -0.323312 -0.538 197 154 135
0.491373 -0.323312 -0.538 195 152 133
0.495672 -0.32211 -0.536 199 154 133
0.497805 -0.32151 -0.535 188 146 124
0.5029 -0.32151 -0.535 188 147 119
0.51282 -0.323913 -0.539 171 128 109
0.0984905 -0.336997 -0.559 199 146 138
0.103443 -0.335791 -0.557 202 149 141
0.116604 -0.333983 -0.554 193 136 127
0.129733 -0.335189 -0.556 172 115 104
0.134451 -0.336394 -0.558 160 103 92
0.146082 -0.341217 -0.566 151 94 85
0.156073 -0.344231 -0.571 135 86 72
0.158526 -0.344834 -0.572 134 84 73
0.180762 -0.352069 -0.584 122 81 75
0.183927 -0.353877 -0.587 122 82 74
0.18473 -0.353274 -0.586 121 81 73
0.18648 -0.35448 -0.588 121 80 74
0.19404 -0.358097 -0.594 121 86 82
0.244653 -0.374977 -0.622 100 111 133
0.254906 -0.374374 -0.621 107 134 187
0.259637 -0.374374 -0.621 152 184 231
0.278563 -0.374374 -0.621 237 239 254
0.288026 -0.374374 -0.621 212 209 226
0.319293 -0.374977 -0.622 160 182 229
0.3625 -0.376786 -0.625 252 252 254
0.365465 -0.377389 -0.626 251 250 255
0.394711 -0.377991 -0.627 220 235 254
0.40491 -0.378594 -0.628 250 250 250
0.408499 -0.378594 -0.628 241 242 244
0.416338 -0.379197 -0.629 229 231 243
0.417536 -0.379197 -0.629 212 214 227
0.419932 -0.379197 -0.629 224 226 239
0.429517 -0.379197 -0.629 214 218 217
0.4386 -0.3798 -0.63 156 166 201
0.4417 -0.380403 -0.631 190 206 242
0.453234 -0.381006 -0.632 112 148 208
0.454438 -0.381006 -0.632 112 148 208
0.486067 -0.382211 -0.634 163 174 196
0.516674 -0.383417 -0.636 44 78 150
0.519097 -0.383417 -0.636 36 74 149
0.515305 -0.367743 -0.61 171 142 138
0.482347 -0.327954 -0.544 196 155 137
0.488299 -0.324337 -0.538 197 154 135
0.499843 -0.322529 -0.535 189 147 122
0.503919 -0.322529 -0.535 187 143 116
0.11534 -0.334433 -0.553 192 135 126
0.1185 -0.334433 -0.553 182 125 114
0.125271 -0.335643 -0.555 177 119 108
0.152543 -0.344714 -0.57 136 90 77
0.189683 -0.357414 -0.591 120 81 74
0.191454 -0.358624 -0.593 120 81 76
0.22379 -0.374952 -0.62 171 167 181
0.228883 -0.375557 -0.621 174 175 193
0.263943 -0.374952 -0.62 211 222 254
0.265124 -0.374952 -0.62 214 223 252
0.275014 -0.375557 -0.621 233 234 254
0.3105 -0.375557 -0.621 246 250 255
0.331673 -0.376767 -0.623 227 234 242
0.335233 -0.376767 -0.623 168 174 200
0.342353 -0.376767 -0.623 250 250 252
0.3536 -0.377371 -0.624 234 234 244
0.360119 -0.377976 -0.625 248 252 251
0.366071 -0.377976 -0.625 253 254 255
0.395906 -0.379186 -0.627 222 231 238
0.459729 -0.381605 -0.631 198 214 247
0.51304 -0.384629 -0.636 118 144 193
0.516674 -0.384629 -0.636 55 91 153
0.52191 -0.384024 -0.635 84 121 176
0.506884 -0.360438 -0.596 170 142 138
0.502905 -0.35681 -0.59 169 141 137
0.483643 -0.332014 -0.549 191 149 133
0.48308 -0.3302 -0.546 196 158 139
0.482638 -0.327781 -0.542 192 154 135
0.488299 -0.325362 -0.538 198 153 134
0.496786 -0.323548 -0.535 197 152 129
0.500943 -0.322943 -0.534 187 143 116
0.508945 -0.324152 -0.536 176 133 114
0.509966 -0.324152 -0.536 175 132 113
0.0884343 -0.354293 -0.584 195 144 141
0.101139 -0.337307 -0.556 198 145 137
0.11534 -0.335487 -0.553 188 133 126
0.1185 -0.335487 -0.553 181 124 115
0.125046 -0.336093 -0.554 172 115 108
0.137311 -0.34034 -0.561 154 100 90
0.143671 -0.342767 -0.565 155 98 89
0.167605 -0.350047 -0.577 128 85 79
0.178843 -0.3549 -0.585 119 79 77
0.182809 -0.356113 -0.587 121 80 74
0.252133 -0.376133 -0.62 138 151 193
0.266305 -0.376133 -0.62 211 218 244
0.267486 -0.376133 -0.62 182 193 223
0.268667 -0.376133 -0.62 152 163 193
0.280024 -0.375527 -0.619 239 238 252
0.302914 -0.376133 -0.62 195 193 217
0.319963 -0.37674 -0.621 168 193 234
0.324032 -0.377347 -0.622 183 205 252
0.325217 -0.377347 -0.622 216 232 255
0.33351 -0.377347 -0.622 181 180 212
0.346543 -0.377347 -0.622 245 245 253
0.353033 -0.377953 -0.623 245 245 253
0.372024 -0.379167 -0.625 157 159 184
0.383929 -0.379167 -0.625 188 201 245
0.3875 -0.379167 -0.625 191 209 249
0.396467 -0.379773 -0.626 211 216 246
0.397659 -0.379773 -0.626 166 171 201
0.4494 -0.3822 -0.63 151 175 223
0.46093 -0.382807 -0.631 226 238 255
0.470088 -0.383413 -0.632 218 223 243
0.474903 -0.383413 -0.632 201 195 207
0.484094 -0.38402 -0.633 210 212 224
0.501766 -0.384627 -0.634 187 192 221
0.522295 -0.384627 -0.634 114 152 201
0.523883 -0.38402 -0.633 131 158 201
0.487153 -0.326993 -0.539 199 156 139
0.488414 -0.32578 -0.537 197 154 135
0.490568 -0.325173 -0.536 197 154 135
0.493729 -0.324567 -0.535 198 156 134
0.0880133 -0.34932 -0.574 197 146 142
0.0887962 -0.348103 -0.572 191 144 138
0.0891 -0.34506 -0.567 191 144 138
0.119553 -0.33654 -0.553 179 122 111
0.132326 -0.339583 -0.558 161 104 93
0.133628 -0.340191 -0.559 161 104 93
0.145004 -0.344451 -0.566 151 94 87
0.14634 -0.34506 -0.567 149 92 85
0.149024 -0.346277 -0.569 144 89 84
0.151457 -0.346886 -0.57 136 89 83
0.15908 -0.34932 -0.574 128 83 78
0.1749 -0.354797 -0.583 123 79 76
0.178032 -0.356623 -0.586 121 80 76
0.178843 -0.356014 -0.585 119 79 77
0.189195 -0.360883 -0.593 120 82 81
0.22343 -0.376706 -0.619 133 128 148
0.2356 -0.377314 -0.62 146 151 180
0.242686 -0.377314 -0.62 169 170 198
0.243867 -0.377314 -0.62 181 183 206
0.250548 -0.376706 -0.619 152 167 198
0.254085 -0.376706 -0.619 153 175 214
0.290635 -0.376706 -0.619 251 250 255
0.295351 -0.376706 -0.619 245 245 253
0.308819 -0.377314 -0.62 242 245 254
0.311181 -0.377314 -0.62 225 232 250
0.355407 -0.37914 -0.623 249 254 255
0.372617 -0.379749 -0.624 216 219 236
0.384503 -0.379749 -0.624 193 202 241
0.389257 -0.379749 -0.624 219 236 255
0.390446 -0.379749 -0.624 219 228 255
0.394643 -0.380357 -0.625 242 249 255
0.395833 -0.380357 -0.625 227 234 252
0.398214 -0.380357 -0.625 166 176 203
0.400595 -0.380357 -0.625 191 204 223
0.40839 -0.380966 -0.626 236 233 244
0.414352 -0.380966 -0.626 248 253 249
0.423374 -0.381574 -0.627 249 255 255
0.431734 -0.381574 -0.627 216 221 240
0.434123 -0.381574 -0.627 150 156 188
0.438404 -0.382183 -0.628 228 232 255
0.463334 -0.384009 -0.631 223 225 248
0.469344 -0.384009 -0.631 209 215 237
0.496151 -0.385226 -0.633 219 215 229
0.499769 -0.385226 -0.633 204 202 223
0.511024 -0.386443 -0.635 178 190 212
0.510286 -0.365143 -0.6 169 141 138
0.489129 -0.343843 -0.565 176 143 134
0.48847 -0.342626 -0.563 178 145 136
0.486933 -0.3408 -0.56 180 146 136
0.483476 -0.334714 -0.55 189 152 136
0.48308 -0.33228 -0.546 196 150 134
0.528767 -0.332889 -0.547 168 127 105
0.0870229 -0.355297 -0.582 198 148 141
0.0999 -0.338814 -0.555 197 144 136
0.10183 -0.338204 -0.554 197 144 136
0.110926 -0.336983 -0.552 197 140 131
0.117234 -0.336983 -0.552 183 126 115
0.12166 -0.337593 -0.553 179 121 110
0.127386 -0.338814 -0.555 170 112 100
0.129967 -0.340035 -0.557 162 105 94
0.134933 -0.341867 -0.56 155 98 89
0.157987 -0.350413 -0.574 129 86 80
0.169581 -0.354076 -0.58 123 82 76
0.179454 -0.35835 -0.587 119 79 77
0.211099 -0.374832 -0.614 167 162 182
0.219537 -0.377274 -0.618 159 151 172
0.230504 -0.377885 -0.619 175 172 191
0.236399 -0.377885 -0.619 74 81 109
0.249369 -0.377885 -0.619 159 163 190
0.290635 -0.377885 -0.619 244 243 255
0.313543 -0.378495 -0.62 203 214 246
0.317086 -0.378495 -0.62 190 203 235
0.326533 -0.378495 -0.62 222 230 251
0.330076 -0.378495 -0.62 249 254 255
0.340705 -0.378495 -0.62 253 254 255
0.34362 -0.379106 -0.621 251 251 251
0.352467 -0.379716 -0.622 208 214 226
0.366087 -0.380327 -0.623 227 227 235
0.37202 -0.380327 -0.623 224 227 242
0.380327 -0.380327 -0.623 206 211 241
0.397577 -0.380937 -0.624 203 208 230
0.453479 -0.38399 -0.629 163 186 227
0.4614 -0.3846 -0.63 239 240 255
0.499769 -0.386431 -0.633 182 185 204
0.517465 -0.387042 -0.634 72 107 161
0.518672 -0.387042 -0.634 69 112 165
0.51988 -0.387042 -0.634 70 113 166
0.524631 -0.38521 -0.631 176 182 204
0.514234 -0.369949 -0.606 169 141 137
0.49622 -0.352245 -0.577 174 140 130
0.487803 -0.342477 -0.561 179 145 133
0.483943 -0.329657 -0.54 194 153 131
0.484971 -0.329657 -0.54 193 152 130
0.487391 -0.327826 -0.537 197 155 131
0.50008 -0.324773 -0.532 190 144 120
0.50312 -0.324773 -0.532 188 142 118
0.0862095 -0.35763 -0.584 198 149 142
0.08802 -0.34722 -0.567 192 145 137
0.0919371 -0.341709 -0.558 196 142 132
0.0937257 -0.340484 -0.556 195 143 132
0.100775 -0.339259 -0.554 195 142 134
0.14526 -0.34722 -0.567 144 93 89
0.146598 -0.347832 -0.568 141 90 86
0.153078 -0.350282 -0.572 129 85 82
0.154168 -0.350282 -0.572 129 85 82
0.157987 -0.351507 -0.574 128 84 81
0.168476 -0.355181 -0.58 123 82 78
0.21296 -0.377227 -0.616 172 168 191
0.216831 -0.377839 -0.617 177 173 196
0.227777 -0.378451 -0.618 173 170 189
0.239549 -0.378451 -0.618 190 191 209
0.313037 -0.379064 -0.619 193 203 238
0.315395 -0.379064 -0.619 190 200 235
0.337162 -0.379676 -0.62 175 183 206
0.367869 -0.380901 -0.622 179 184 203
0.369053 -0.380901 -0.622 207 212 234
0.370238 -0.380901 -0.622 201 206 228
0.384455 -0.380901 -0.622 204 215 245
0.416737 -0.38335 -0.626 207 208 226
0.429853 -0.38335 -0.626 200 200 208
0.432238 -0.38335 -0.626 163 166 183
0.440094 -0.383963 -0.627 245 248 255
0.450366 -0.384575 -0.628 191 206 245
0.463064 -0.385188 -0.629 226 231 253
0.481363 -0.386412 -0.631 223 223 235
0.49296 -0.387025 -0.632 218 216 227
0.508209 -0.387637 -0.633 201 213 229
0.506591 -0.363142 -0.593 170 139 134
0.482923 -0.334972 -0.547 189 151 132
0.489547 -0.328236 -0.536 201 156 133
0.502174 -0.325174 -0.531 189 143 117
0.0875543 -0.346457 -0.564 191 144 134
0.09972 -0.340314 -0.554 196 143 135
0.109675 -0.338471 -0.551 190 138 127
0.113873 -0.338471 -0.551 191 137 125
0.122713 -0.3397 -0.553 179 121 107
0.126329 -0.340929 -0.555 173 115 101
0.159634 -0.353829 -0.576 126 82 79
0.163491 -0.355057 -0.578 127 86 82
0.23484 -0.379629 -0.618 149 155 181
0.274418 -0.379014 -0.617 224 229 249
0.280294 -0.379014 -0.617 213 214 232
0.299098 -0.379014 -0.617 209 213 238
0.302624 -0.379014 -0.617 242 244 255
0.309 -0.379629 -0.618 214 218 230
0.313037 -0.380243 -0.619 188 196 232
0.32129 -0.380243 -0.619 202 215 249
0.331902 -0.380243 -0.619 253 252 250
0.335981 -0.380857 -0.62 215 222 238
0.345429 -0.380857 -0.62 240 239 245
0.350717 -0.381471 -0.621 209 212 229
0.364314 -0.382086 -0.622 248 250 255
0.380901 -0.382086 -0.622 209 217 253
0.384455 -0.382086 -0.622 204 215 245
0.38564 -0.382086 -0.622 203 214 244
0.38801 -0.382086 -0.622 206 218 242
0.426786 -0.383929 -0.625 253 254 255
0.432238 -0.384543 -0.626 188 190 205
0.440585 -0.384543 -0.626 233 242 255
0.450843 -0.385157 -0.627 190 206 242
0.461131 -0.385771 -0.628 239 243 254
0.4794 -0.387 -0.63 225 224 240
0.490978 -0.387614 -0.631 218 223 242
0.49819 -0.387614 -0.631 125 131 153
0.516649 -0.388843 -0.633 110 138 185
0.51906 -0.388843 -0.633 110 143 186
0.520648 -0.388229 -0.632 118 147 189
0.483643 -0.337243 -0.549 187 148 131
0.48308 -0.3354 -0.546 192 154 135
0.482494 -0.333557 -0.543 194 153 135
0.49484 -0.328029 -0.534 197 155 131
0.498053 -0.3268 -0.532 194 150 125
0.507173 -0.3268 -0.532 184 137 109
0.522 -0.331714 -0.54 169 127 105
0.52891 -0.334786 -0.545 165 124 104
0.0935571 -0.341986 -0.555 196 146 137
0.120389 -0.340137 -0.552 182 126 113
0.144434 -0.349996 -0.568 137 90 84
0.158537 -0.354926 -0.576 125 84 80
0.171043 -0.360471 -0.585 123 84 79
0.221532 -0.38019 -0.617 86 89 124
0.292047 -0.38019 -0.617 227 229 252
0.299787 -0.379573 -0.616 243 245 255
0.307325 -0.38019 -0.617 244 248 255
0.309675 -0.38019 -0.617 202 208 230
0.31724 -0.380806 -0.618 202 211 244
0.319594 -0.380806 -0.618 200 214 253
0.349534 -0.382654 -0.621 234 237 254
0.350717 -0.382654 -0.621 209 212 229
0.377347 -0.38327 -0.622 220 222 237
0.389194 -0.38327 -0.622 216 222 248
0.395753 -0.383887 -0.623 252 251 255
0.398127 -0.383887 -0.623 232 231 239
0.407738 -0.385119 -0.625 250 253 255
0.41184 -0.384503 -0.624 230 236 250
0.413029 -0.384503 -0.624 208 214 228
0.422537 -0.384503 -0.624 243 245 255
0.4375 -0.385119 -0.625 248 251 255
0.4878 -0.3882 -0.63 217 222 241
0.502997 -0.388816 -0.631 203 208 230
0.52343 -0.388816 -0.631 162 170 191
0.48732 -0.343834 -0.558 179 145 135
0.485757 -0.341986 -0.555 179 145 135
0.483943 -0.332743 -0.54 196 155 137
0.484073 -0.332127 -0.539 196 155 137
0.48625 -0.33151 -0.538 200 157 138
0.49271 -0.329662 -0.535 199 154 131
0.0831562 -0.362204 -0.586 196 150 134
0.104428 -0.34057 -0.551 190 138 124
0.140691 -0.349842 -0.566 142 95 87
0.162952 -0.358495 -0.58 125 85 83
0.168526 -0.360968 -0.584 121 83 80
0.169638 -0.360968 -0.584 122 83 78
0.246987 -0.380747 -0.616 129 139 164
0.265329 -0.380129 -0.615 230 228 250
0.272357 -0.380129 -0.615 168 174 196
0.287586 -0.380129 -0.615 218 223 255
0.29392 -0.380747 -0.616 179 184 213
0.306827 -0.380747 -0.616 248 252 255
0.326657 -0.381983 -0.618 242 248 255
0.33426 -0.382601 -0.619 249 249 255
0.350152 -0.383219 -0.62 202 204 225
0.366094 -0.383837 -0.621 246 249 255
0.370826 -0.383837 -0.621 243 244 248
0.380289 -0.383837 -0.621 205 218 253
0.395118 -0.384455 -0.622 248 248 250
0.401687 -0.385073 -0.623 200 201 219
0.402873 -0.385073 -0.623 201 202 220
0.413029 -0.385691 -0.624 208 214 228
0.417783 -0.385691 -0.624 204 209 238
0.42848 -0.385691 -0.624 217 220 239
0.432046 -0.385691 -0.624 217 214 221
0.454893 -0.386928 -0.626 171 189 225
0.479837 -0.388782 -0.629 200 204 233
0.483431 -0.388782 -0.629 139 151 189
0.488224 -0.388782 -0.629 211 218 234
0.501 -0.3894 -0.63 213 215 230
0.507805 -0.390018 -0.631 203 210 226
0.509007 -0.390018 -0.631 174 189 218
0.490411 -0.348606 -0.564 174 144 134
0.48732 -0.344897 -0.558 177 145 134
0.482914 -0.333771 -0.54 195 152 133
0.486484 -0.331299 -0.536 202 157 136
0.492898 -0.329445 -0.533 201 156 135
0.496027 -0.328827 -0.532 197 152 129
0.516148 -0.330681 -0.535 174 130 105
0.0875286 -0.34534 -0.557 194 146 132
0.0933886 -0.34348 -0.554 200 148 135
0.0974333 -0.34286 -0.553 196 147 133
0.125271 -0.3441 -0.555 169 112 95
0.129137 -0.34596 -0.558 161 105 90
0.130433 -0.34658 -0.559 155 100 93
0.134106 -0.34782 -0.561 149 96 90
0.161848 -0.3596 -0.58 124 84 84
0.168526 -0.36208 -0.584 121 83 80
0.229387 -0.38192 -0.616 70 85 128
0.248929 -0.3813 -0.615 131 147 180
0.255957 -0.3813 -0.615 139 159 196
0.278931 -0.38068 -0.614 198 208 235
0.28361 -0.38068 -0.614 149 158 189
0.295786 -0.3813 -0.615 188 197 228
0.300471 -0.3813 -0.615 247 247 255
0.302814 -0.3813 -0.615 248 249 251
0.308671 -0.3813 -0.615 213 218 238
0.31504 -0.38192 -0.616 185 197 237
0.316213 -0.38192 -0.616 198 210 250
0.33372 -0.38316 -0.618 249 250 255
0.34196 -0.38316 -0.618 211 216 235
0.367277 -0.38502 -0.621 246 246 254
0.36846 -0.38502 -0.621 247 247 249
0.374952 -0.3844 -0.62 232 230 251
0.376133 -0.3844 -0.62 207 205 226
0.392117 -0.38502 -0.621 248 252 253
0.399857 -0.38564 -0.622 219 217 230
0.41474 -0.38626 -0.623 169 175 207
0.4183 -0.38626 -0.623 225 234 255
0.440366 -0.38688 -0.624 201 203 226
0.441554 -0.38688 -0.624 171 187 221
0.445833 -0.3875 -0.625 180 205 246
0.45847 -0.38812 -0.626 244 243 255
0.460855 -0.38812 -0.626 245 247 255
0.466369 -0.38874 -0.627 224 223 239
0.467563 -0.38874 -0.627 232 231 247
0.475486 -0.38936 -0.628 207 211 238
0.5118 -0.3906 -0.63 115 138 182
0.5226 -0.3906 -0.63 150 160 185
0.50224 -0.36208 -0.584 171 141 133
0.482914 -0.3348 -0.54 195 153 131
0.4842 -0.33356 -0.538 198 156 134
0.497117 -0.32922 -0.531 196 150 127
0.499209 -0.3286 -0.53 193 145 123
0.504257 -0.3286 -0.53 187 137 114
0.510266 -0.32922 -0.531 183 135 112
0.0849514 -0.348889 -0.561 198 150 138
0.0921667 -0.343913 -0.553 199 151 139
0.109277 -0.341426 -0.549 193 140 122
0.114923 -0.34267 -0.551 183 127 104
0.119337 -0.343291 -0.552 183 128 107
0.126556 -0.345779 -0.556 168 111 100
0.127845 -0.346401 -0.557 158 104 94
0.14872 -0.35573 -0.572 133 84 77
0.168814 -0.363814 -0.585 121 83 82
0.216947 -0.38185 -0.614 100 112 150
0.236043 -0.382471 -0.615 191 189 210
0.253202 -0.38185 -0.614 159 179 216
0.261389 -0.38185 -0.614 219 226 254
0.266067 -0.38185 -0.614 235 230 253
0.276592 -0.38185 -0.614 162 167 197
0.284315 -0.381228 -0.613 140 150 186
0.299983 -0.38185 -0.614 248 249 254
0.324953 -0.383715 -0.617 212 219 247
0.33083 -0.383715 -0.617 251 251 251
0.345491 -0.384337 -0.618 235 240 255
0.3596 -0.385581 -0.62 184 196 218
0.367867 -0.385581 -0.62 253 254 255
0.370229 -0.385581 -0.62 249 253 255
0.401042 -0.386825 -0.622 225 231 243
0.417629 -0.386825 -0.622 214 227 255
0.421183 -0.386825 -0.622 217 223 255
0.433727 -0.387447 -0.623 241 238 245
0.4361 -0.387447 -0.623 247 251 254
0.44512 -0.388069 -0.624 181 207 244
0.451063 -0.388069 -0.624 167 190 231
0.456548 -0.38869 -0.625 218 232 255
0.460119 -0.38869 -0.625 244 248 255
0.500205 -0.391178 -0.629 205 207 220
0.5214 -0.3918 -0.63 94 124 160
0.483943 -0.335829 -0.54 196 154 132
0.489754 -0.332097 -0.534 198 153 132
0.507336 -0.328988 -0.529 181 135 102
0.511277 -0.330231 -0.531 182 137 108
0.0805095 -0.363681 -0.583 193 149 136
0.0881124 -0.34559 -0.554 198 150 136
0.108231 -0.342471 -0.549 193 141 120
0.122935 -0.34559 -0.554 166 110 93
0.127845 -0.347462 -0.557 154 100 90
0.135897 -0.351829 -0.564 142 92 83
0.153051 -0.359314 -0.576 130 82 80
0.199593 -0.381148 -0.611 150 145 167
0.224329 -0.383643 -0.615 135 149 188
0.240337 -0.383019 -0.614 194 199 221
0.241507 -0.383019 -0.614 199 198 216
0.246185 -0.383019 -0.614 133 150 180
0.248524 -0.383019 -0.614 130 153 194
0.28198 -0.382395 -0.613 180 190 225
0.320907 -0.384267 -0.616 174 194 231
0.329654 -0.38489 -0.617 255 254 252
0.332005 -0.38489 -0.617 254 252 255
0.33318 -0.38489 -0.617 255 254 255
0.346669 -0.385514 -0.618 227 233 255
0.360199 -0.386138 -0.619 146 160 197
0.361378 -0.386138 -0.619 165 179 216
0.364915 -0.386138 -0.619 246 249 255
0.369631 -0.386138 -0.619 247 252 255
0.373169 -0.386138 -0.619 246 253 255
0.374348 -0.386138 -0.619 234 236 248
0.414074 -0.38801 -0.622 140 153 187
0.419998 -0.38801 -0.622 206 215 232
0.4361 -0.388633 -0.623 247 251 254
0.43966 -0.388633 -0.623 219 222 231
0.4807 -0.391129 -0.627 86 112 171
0.491036 -0.391752 -0.628 118 131 166
0.497017 -0.391752 -0.628 212 218 232
0.503799 -0.392376 -0.629 213 215 228
0.524405 -0.389881 -0.625 186 180 184
0.486113 -0.344967 -0.553 180 146 134
0.484524 -0.343095 -0.55 179 146 131
0.483529 -0.338729 -0.543 188 151 135
0.484073 -0.336233 -0.539 194 153 135
0.486595 -0.333738 -0.535 197 154 135
0.49726 -0.329995 -0.529 193 147 124
0.500343 -0.329371 -0.528 194 148 125
0.506329 -0.329995 -0.529 186 139 109
0.0870571 -0.346646 -0.554 197 149 135
0.0928829 -0.344769 -0.551 199 150 136
0.0960314 -0.344769 -0.551 196 147 130
0.100911 -0.343517 -0.549 196 145 126
0.138535 -0.354154 -0.566 136 87 80
0.146541 -0.357909 -0.572 129 84 78
0.165471 -0.366043 -0.585 122 85 79
0.207252 -0.383563 -0.613 75 80 109
0.215426 -0.383563 -0.613 140 143 174
0.226303 -0.384189 -0.614 130 147 177
0.228642 -0.384189 -0.614 89 105 139
0.243449 -0.383563 -0.613 188 189 210
0.270304 -0.383563 -0.613 199 197 218
0.283851 -0.382937 -0.612 161 171 206
0.298327 -0.383563 -0.613 244 244 255
0.350809 -0.386066 -0.617 145 163 199
0.354909 -0.386691 -0.618 223 234 252
0.371389 -0.386691 -0.618 249 254 255
0.384337 -0.386691 -0.618 182 195 237
0.392033 -0.387317 -0.619 252 251 255
0.407494 -0.388569 -0.621 190 208 232
0.416957 -0.388569 -0.621 207 217 253
0.442509 -0.389194 -0.622 168 186 226
0.457006 -0.390446 -0.624 243 245 255
0.466071 -0.391071 -0.625 243 241 255
0.467262 -0.391071 -0.625 225 232 250
0.495821 -0.392949 -0.628 200 213 247
0.500606 -0.392949 -0.628 189 192 199
0.523694 -0.392323 -0.627 180 180 192
0.5074 -0.369171 -0.59 166 137 131
0.528171 -0.337886 -0.54 164 126 107
0.0808857 -0.357743 -0.57 193 147 132
0.0937619 -0.34519 -0.55 198 149 132
0.115762 -0.34519 -0.55 189 137 116
0.119337 -0.346446 -0.552 174 122 100
0.142771 -0.357743 -0.57 133 86 78
0.154951 -0.363391 -0.579 125 84 78
0.209588 -0.38473 -0.613 123 121 145
0.215426 -0.38473 -0.613 146 151 180
0.22827 -0.38473 -0.613 147 161 188
0.230981 -0.385358 -0.614 123 132 165
0.260111 -0.383475 -0.611 223 227 254
0.27336 -0.384103 -0.612 204 210 236
0.278023 -0.384103 -0.612 223 228 250
0.280354 -0.384103 -0.612 212 219 247
0.28106 -0.383475 -0.611 186 197 229
0.296674 -0.384103 -0.612 236 243 255
0.302503 -0.384103 -0.612 249 248 254
0.320386 -0.385986 -0.615 167 185 221
0.326243 -0.385986 -0.615 251 255 254
0.330293 -0.386613 -0.616 252 250 251
0.334987 -0.386613 -0.616 203 205 218
0.337333 -0.386613 -0.616 171 178 204
0.353159 -0.387241 -0.617 220 235 255
0.369034 -0.387869 -0.618 249 253 254
0.372566 -0.387869 -0.618 248 253 255
0.398571 -0.389124 -0.62 249 246 255
0.404476 -0.389124 -0.62 176 191 222
0.40986 -0.389751 -0.621 222 237 255
0.411043 -0.389751 -0.621 201 216 237
0.412226 -0.389751 -0.621 157 170 212
0.440139 -0.390379 -0.622 172 196 234
0.4539 -0.391007 -0.623 170 192 233
0.476356 -0.39289 -0.626 206 218 244
0.522137 -0.394145 -0.628 124 135 163
0.524051 -0.39289 -0.626 185 184 189
0.50826 -0.370923 -0.591 168 139 133
0.505938 -0.368412 -0.587 168 139 133
0.495629 -0.357743 -0.57 170 140 132
0.490813 -0.352722 -0.562 173 140 131
0.485571 -0.34519 -0.55 181 145 131
0.48367 -0.34017 -0.542 189 147 131
0.486807 -0.334521 -0.533 191 148 129
0.488933 -0.333893 -0.532 196 151 132
0.49096 -0.333893 -0.532 201 156 135
0.491049 -0.333266 -0.531 200 155 134
0.498391 -0.330755 -0.527 194 149 126
0.0876352 -0.346868 -0.551 200 151 136
0.0897343 -0.346868 -0.551 203 154 137
0.0918333 -0.346868 -0.551 202 153 136
0.0937619 -0.346238 -0.55 198 146 132
0.102815 -0.344979 -0.548 195 142 124
0.109078 -0.344979 -0.548 196 143 125
0.127011 -0.351274 -0.558 152 99 85
0.128304 -0.351904 -0.559 150 96 86
0.136138 -0.355681 -0.565 135 88 80
0.145451 -0.360088 -0.572 128 85 78
0.158243 -0.367012 -0.583 126 85 81
0.211577 -0.385269 -0.612 162 160 181
0.229063 -0.385269 -0.612 168 178 205
0.231394 -0.385269 -0.612 138 147 176
0.267094 -0.384639 -0.611 208 212 239
0.272913 -0.384639 -0.611 219 225 251
0.284086 -0.38401 -0.61 203 210 238
0.292698 -0.384639 -0.611 229 236 255
0.315841 -0.385898 -0.613 190 209 241
0.335614 -0.387157 -0.615 198 202 227
0.342027 -0.387787 -0.616 230 235 254
0.361386 -0.388416 -0.617 182 188 214
0.364911 -0.388416 -0.617 251 254 255
0.370788 -0.388416 -0.617 247 250 255
0.371963 -0.388416 -0.617 252 255 255
0.373138 -0.388416 -0.617 238 240 255
0.415105 -0.390305 -0.62 183 203 230
0.432334 -0.390934 -0.621 252 254 253
0.446063 -0.391564 -0.622 175 199 237
0.45034 -0.392193 -0.623 163 186 228
0.494242 -0.394082 -0.626 173 183 210
0.499809 -0.394711 -0.627 217 215 229
0.501003 -0.394711 -0.627 195 198 207
0.50539 -0.395341 -0.628 207 210 215
0.512568 -0.395341 -0.628 135 165 203
0.5225 -0.394711 -0.627 181 183 195
0.524257 -0.391564 -0.622 173 172 177
0.487167 -0.348127 -0.553 180 144 130
0.484271 -0.34309 -0.545 186 147 132
0.484419 -0.342461 -0.544 187 148 133
0.485463 -0.337425 -0.536 193 152 134
0.485576 -0.336795 -0.535 192 149 130
0.488837 -0.335536 -0.533 192 149 130
0.497388 -0.331759 -0.527 194 148 125
0.0785762 -0.359283 -0.569 188 150 131
0.0874762 -0.347286 -0.55 200 151 134
0.0927143 -0.347286 -0.55 196 148 128
0.0946371 -0.346654 -0.549 196 144 130
0.0977743 -0.346654 -0.549 196 145 128
0.104711 -0.345391 -0.547 197 144 126
0.11221 -0.346023 -0.548 192 136 119
0.159627 -0.368754 -0.584 126 85 81
0.162406 -0.370017 -0.586 123 83 81
0.188726 -0.382646 -0.606 78 78 102
0.205412 -0.385803 -0.611 141 145 174
0.219378 -0.385803 -0.611 151 156 186
0.221706 -0.385803 -0.611 171 177 203
0.2562 -0.385171 -0.61 194 199 228
0.257362 -0.385171 -0.61 213 218 247
0.292219 -0.385171 -0.61 239 245 255
0.308331 -0.386434 -0.612 187 195 218
0.311829 -0.386434 -0.612 194 204 239
0.328051 -0.387697 -0.614 252 250 251
0.333899 -0.387697 -0.614 216 219 236
0.349067 -0.38896 -0.616 156 167 197
0.351413 -0.38896 -0.616 211 219 242
0.361973 -0.38896 -0.616 209 214 234
0.36432 -0.38896 -0.616 242 246 255
0.369612 -0.389591 -0.617 250 251 253
0.370788 -0.389591 -0.617 251 252 255
0.375489 -0.389591 -0.617 186 198 222
0.377839 -0.389591 -0.617 193 208 239
0.387241 -0.389591 -0.617 233 240 255
0.392577 -0.390223 -0.618 235 238 243
0.405003 -0.390854 -0.619 231 235 255
0.407361 -0.390854 -0.619 242 245 255
0.419151 -0.390854 -0.619 234 241 255
0.428095 -0.391486 -0.62 246 249 255
0.430457 -0.391486 -0.62 245 248 253
0.456726 -0.392749 -0.622 245 248 255
0.472457 -0.394011 -0.624 212 220 241
0.474834 -0.394011 -0.624 222 229 255
0.480777 -0.394011 -0.624 156 168 192
0.521667 -0.395274 -0.626 185 187 199
0.522859 -0.395274 -0.626 188 190 202
0.497368 -0.361177 -0.572 170 141 133
0.493433 -0.356757 -0.565 171 141 131
0.484323 -0.339077 -0.537 192 151 131
0.485686 -0.337183 -0.534 196 154 132
0.5035 -0.3315 -0.525 190 143 123
0.510437 -0.332763 -0.527 178 133 112
0.527283 -0.339077 -0.537 160 124 102
0.0944648 -0.347067 -0.548 197 146 129
0.105753 -0.346433 -0.547 199 147 126
0.111166 -0.347067 -0.548 195 139 122
0.115762 -0.348333 -0.55 188 136 114
0.11681 -0.348333 -0.55 184 132 110
0.148663 -0.3648 -0.576 125 86 81
0.191665 -0.385067 -0.608 117 117 143
0.200429 -0.386333 -0.61 101 101 127
0.201921 -0.386967 -0.611 61 66 95
0.21705 -0.386967 -0.611 101 106 126
0.219019 -0.386333 -0.61 168 171 190
0.223667 -0.386333 -0.61 180 189 206
0.236448 -0.386333 -0.61 180 195 224
0.239933 -0.386333 -0.61 202 207 226
0.242257 -0.386333 -0.61 184 191 210
0.246905 -0.386333 -0.61 154 170 203
0.248067 -0.386333 -0.61 160 176 209
0.25926 -0.3857 -0.609 224 226 249
0.267819 -0.386333 -0.61 178 179 200
0.268981 -0.386333 -0.61 195 196 217
0.271305 -0.386333 -0.61 232 231 249
0.272467 -0.386333 -0.61 232 231 249
0.28478 -0.3857 -0.609 239 238 254
0.297353 -0.386967 -0.611 185 192 210
0.300845 -0.386967 -0.611 243 246 255
0.303172 -0.386967 -0.611 245 245 255
0.319989 -0.3876 -0.612 193 204 236
0.329852 -0.388233 -0.613 242 241 255
0.344425 -0.388867 -0.614 251 250 255
0.345594 -0.388867 -0.614 232 235 252
0.3567 -0.3895 -0.615 243 246 251
0.372533 -0.390133 -0.616 242 241 255
0.373707 -0.390133 -0.616 221 220 234
0.398463 -0.3914 -0.618 199 202 217
0.401994 -0.3914 -0.618 242 245 255
0.412077 -0.392033 -0.619 157 168 190
0.413256 -0.392033 -0.619 157 168 190
0.436362 -0.392667 -0.62 243 245 255
0.467703 -0.3952 -0.624 210 217 243
0.472457 -0.3952 -0.624 229 234 254
0.491071 -0.395833 -0.625 211 218 237
0.495833 -0.395833 -0.625 174 179 199
0.497024 -0.395833 -0.625 198 199 220
0.500204 -0.396467 -0.626 217 219 240
0.502589 -0.396467 -0.626 214 218 227
0.506166 -0.396467 -0.626 192 194 215
0.50855 -0.396467 -0.626 120 141 168
0.516897 -0.396467 -0.626 117 147 181
0.514857 -0.38 -0.6 170 141 133
0.486619 -0.348333 -0.55 182 146 130
0.484073 -0.341367 -0.539 188 150 129
0.49538 -0.333767 -0.527 195 150 129
0.509469 -0.333133 -0.526 180 135 112
0.51047 -0.333133 -0.526 174 133 111
0.51839 -0.335667 -0.53 164 126 103
0.0787571 -0.352557 -0.555 200 153 135
0.0965524 -0.34811 -0.548 193 145 125
0.108879 -0.347475 -0.547 196 144 122
0.114506 -0.348746 -0.549 185 134 113
0.133986 -0.35891 -0.565 131 86 80
0.26738 -0.38686 -0.609 212 213 234
0.2697 -0.38686 -0.609 192 189 208
0.27666 -0.38686 -0.609 242 241 255
0.27898 -0.38686 -0.609 239 242 255
0.294543 -0.387495 -0.61 209 217 236
0.308486 -0.387495 -0.61 213 215 238
0.310155 -0.38813 -0.611 200 209 242
0.323486 -0.388766 -0.612 243 248 255
0.332188 -0.389401 -0.613 161 167 181
0.333355 -0.389401 -0.613 185 191 205
0.338026 -0.389401 -0.613 247 247 255
0.359629 -0.390036 -0.614 242 244 255
0.370757 -0.390671 -0.615 249 250 254
0.377786 -0.390671 -0.615 196 205 234
0.425537 -0.392577 -0.618 189 191 214
0.46458 -0.395753 -0.623 132 140 161
0.47882 -0.395753 -0.623 156 162 184
0.481193 -0.395753 -0.623 210 221 241
0.487909 -0.396389 -0.624 218 221 238
0.50855 -0.397659 -0.626 143 163 187
0.516897 -0.397659 -0.626 124 154 190
0.502351 -0.367803 -0.579 168 139 133
0.486619 -0.349381 -0.55 181 145 131
0.48531 -0.346205 -0.545 184 148 132
0.4842 -0.341758 -0.538 190 149 129
0.486807 -0.338582 -0.533 195 153 131
0.488933 -0.337947 -0.532 192 150 126
0.494376 -0.33477 -0.527 196 151 132
0.4975 -0.3335 -0.525 187 141 118
0.506533 -0.332865 -0.524 183 138 115
0.507531 -0.332865 -0.524 181 136 113
0.0751924 -0.361897 -0.568 197 158 143
0.0770571 -0.355526 -0.558 195 157 138
0.107837 -0.348517 -0.547 196 146 123
0.108879 -0.348517 -0.547 196 146 123
0.136861 -0.361897 -0.568 129 84 78
0.147822 -0.367631 -0.577 121 83 82
0.184109 -0.386109 -0.606 63 67 96
0.20474 -0.38802 -0.609 161 162 190
0.23606 -0.38802 -0.609 118 141 182
0.2465 -0.38802 -0.609 138 154 190
0.247253 -0.387383 -0.608 138 154 190
0.262309 -0.387383 -0.608 149 159 186
0.301514 -0.388657 -0.61 236 239 255
0.31481 -0.389294 -0.611 206 216 251
0.32063 -0.389294 -0.611 209 220 252
0.329314 -0.389931 -0.612 190 194 219
0.332811 -0.389931 -0.612 181 189 202
0.33864 -0.389931 -0.612 252 252 252
0.367243 -0.391843 -0.615 230 233 248
0.369586 -0.391843 -0.615 250 253 255
0.39248 -0.39248 -0.616 195 198 215
0.401344 -0.393117 -0.617 243 251 253
0.403694 -0.393117 -0.617 244 249 252
0.412589 -0.393754 -0.618 196 200 211
0.41612 -0.393754 -0.618 249 255 255
0.420829 -0.393754 -0.618 248 249 253
0.423183 -0.393754 -0.618 244 248 251
0.426714 -0.393754 -0.618 155 159 184
0.430246 -0.393754 -0.618 228 233 253
0.433777 -0.393754 -0.618 220 223 230
0.442732 -0.394391 -0.619 185 205 238
0.453626 -0.395666 -0.621 212 219 245
0.480007 -0.39694 -0.623 196 204 223
0.481193 -0.39694 -0.623 220 228 247
0.501786 -0.398214 -0.625 180 185 188
0.508929 -0.398214 -0.625 143 162 205
0.51131 -0.398214 -0.625 121 152 196
0.523072 -0.396303 -0.622 174 180 194
0.524087 -0.394391 -0.619 138 132 142
0.505577 -0.372091 -0.584 166 137 131
0.484323 -0.342146 -0.537 191 150 132
0.484442 -0.341509 -0.536 193 152 134
0.49538 -0.335774 -0.527 195 150 129
0.0736714 -0.366174 -0.573 203 160 144
0.10036 -0.34892 -0.546 195 147 124
0.1316 -0.360423 -0.564 138 91 83
0.138429 -0.364257 -0.57 126 83 77
0.142431 -0.366174 -0.573 123 84 79
0.155177 -0.373204 -0.584 124 86 75
0.18005 -0.385985 -0.604 55 61 87
0.19135 -0.387902 -0.607 129 130 158
0.193662 -0.387902 -0.607 150 148 185
0.199771 -0.388541 -0.608 97 110 144
0.2233 -0.38918 -0.609 186 193 209
0.237989 -0.388541 -0.608 195 200 238
0.2407 -0.38918 -0.609 198 204 230
0.24302 -0.38918 -0.609 184 191 210
0.252628 -0.387902 -0.607 198 206 242
0.258409 -0.387902 -0.607 216 222 248
0.259565 -0.387902 -0.607 187 192 222
0.27389 -0.388541 -0.608 215 216 220
0.293577 -0.388541 -0.608 230 239 254
0.29522 -0.38918 -0.609 213 222 237
0.325285 -0.390458 -0.611 237 241 250
0.370154 -0.392375 -0.614 243 246 251
0.378341 -0.392375 -0.614 185 194 227
0.384189 -0.392375 -0.614 215 223 244
0.385358 -0.392375 -0.614 224 232 253
0.386528 -0.392375 -0.614 242 247 250
0.393014 -0.393014 -0.615 174 178 203
0.398347 -0.393653 -0.616 244 246 255
0.39952 -0.393653 -0.616 244 253 252
0.460723 -0.396849 -0.621 188 195 205
0.481606 -0.397488 -0.622 223 228 248
0.490687 -0.398127 -0.623 220 226 240
0.507738 -0.399405 -0.625 170 185 216
0.522377 -0.398766 -0.624 191 190 208
0.523752 -0.39621 -0.62 92 100 121
0.504087 -0.371287 -0.581 168 139 131
0.499329 -0.366174 -0.573 169 139 129
0.492267 -0.357867 -0.56 174 142 131
0.493303 -0.337417 -0.528 195 150 127
0.502611 -0.333583 -0.522 191 144 124
0.09412 -0.34996 -0.546 195 147 125
0.0962 -0.34996 -0.546 197 146 125
0.09828 -0.34996 -0.546 197 146 125
0.09932 -0.34996 -0.546 195 147 124
0.146977 -0.37047 -0.578 123 86 80
0.175157 -0.386494 -0.603 100 95 117
0.183805 -0.387776 -0.605 48 62 97
0.186725 -0.389058 -0.607 60 78 118
0.194818 -0.389058 -0.607 97 99 137
0.197455 -0.389699 -0.608 65 69 106
0.199771 -0.389699 -0.608 125 136 166
0.235672 -0.389699 -0.608 84 92 131
0.241463 -0.389699 -0.608 177 184 210
0.267658 -0.389058 -0.607 234 236 255
0.274595 -0.389058 -0.607 231 231 243
0.287787 -0.389699 -0.608 243 247 255
0.295893 -0.389699 -0.608 206 216 243
0.31378 -0.39034 -0.609 167 180 222
0.322429 -0.390981 -0.61 239 250 255
0.35554 -0.392904 -0.613 252 253 255
0.372493 -0.393545 -0.614 207 201 213
0.373663 -0.393545 -0.614 214 219 248
0.378341 -0.393545 -0.614 172 188 221
0.38185 -0.393545 -0.614 201 216 255
0.405387 -0.394827 -0.616 251 252 255
0.42416 -0.394827 -0.616 240 246 255
0.469758 -0.398672 -0.622 237 240 255
0.479236 -0.398672 -0.622 227 233 249
0.480421 -0.398672 -0.622 226 232 248
0.483975 -0.398672 -0.622 224 230 246
0.490687 -0.399313 -0.623 219 225 237
0.517623 -0.399954 -0.624 166 177 205
0.519167 -0.399313 -0.623 151 153 165
0.523414 -0.398031 -0.621 95 103 124
0.524087 -0.39675 -0.619 104 111 137
0.489114 -0.339705 -0.53 198 153 130
0.491291 -0.338423 -0.528 198 153 130
0.49444 -0.337141 -0.526 197 151 128
0.51254 -0.335218 -0.523 168 126 102
0.520457 -0.338423 -0.528 160 123 104
1.12667 -0.398031 -0.621 201 204 185
0.0733276 -0.361286 -0.562 204 161 144
0.08684 -0.351 -0.546 201 153 133
0.1066 -0.351 -0.546 195 145 122
0.109921 -0.351643 -0.547 188 141 115
0.177749 -0.388286 -0.604 66 69 100
0.195974 -0.390214 -0.607 55 64 97
0.200599 -0.390214 -0.607 159 164 184
0.237597 -0.390214 -0.607 158 167 208
0.272283 -0.390214 -0.607 223 225 238
0.290782 -0.390214 -0.607 244 247 254
0.310949 -0.390857 -0.608 160 175 218
0.32538 -0.3915 -0.609 152 161 190
0.32654 -0.3915 -0.609 150 159 188
0.334048 -0.392143 -0.61 227 226 234
0.360789 -0.393429 -0.612 244 248 255
0.38473 -0.394071 -0.613 218 230 252
0.395884 -0.394714 -0.614 231 238 246
0.401214 -0.395357 -0.615 254 255 253
0.411757 -0.395357 -0.615 246 251 255
0.412929 -0.395357 -0.615 250 255 255
0.422987 -0.396 -0.616 246 250 253
0.433547 -0.396 -0.616 247 247 255
0.440127 -0.396643 -0.617 170 190 227
0.45806 -0.397929 -0.619 158 166 187
0.491084 -0.399857 -0.622 221 225 234
0.504549 -0.401143 -0.624 199 209 236
0.508114 -0.401143 -0.624 167 192 232
0.516434 -0.401143 -0.624 116 157 223
0.520353 -0.4005 -0.623 164 170 184
0.523414 -0.399214 -0.621 70 76 100
0.524087 -0.397929 -0.619 128 134 160
0.501071 -0.369643 -0.575 169 139 129
0.492452 -0.359357 -0.559 175 143 132
0.487826 -0.352929 -0.549 179 145 133
0.484323 -0.345214 -0.537 190 149 131
0.484557 -0.343929 -0.535 192 151 133
0.486086 -0.340714 -0.53 197 152 131
0.488105 -0.340714 -0.53 196 151 130
0.489199 -0.340071 -0.529 201 156 133
0.490207 -0.340071 -0.529 199 154 131
0.4945 -0.3375 -0.525 200 154 131
0.498593 -0.336214 -0.523 197 149 127
0.500656 -0.334929 -0.521 198 150 128
0.501676 -0.334286 -0.52 192 146 123
1.12667 -0.399214 -0.621 201 204 185
0.0695476 -0.370738 -0.575 197 154 138
0.1066 -0.35204 -0.546 191 143 120
0.112414 -0.353974 -0.549 179 129 102
0.118714 -0.357198 -0.554 149 97 83
0.137343 -0.367514 -0.57 127 84 75
0.174009 -0.388791 -0.603 60 63 94
0.227971 -0.390726 -0.606 190 197 213
0.242977 -0.390726 -0.606 137 160 204
0.245286 -0.390726 -0.606 99 125 176
0.255674 -0.390726 -0.606 149 166 210
0.257983 -0.390726 -0.606 146 161 202
0.272283 -0.39137 -0.607 223 225 238
0.279914 -0.390726 -0.606 209 211 226
0.285686 -0.390726 -0.606 244 246 255
0.287994 -0.390726 -0.606 244 247 255
0.302842 -0.392015 -0.608 221 227 249
0.320213 -0.392015 -0.608 207 223 255
0.32654 -0.39266 -0.609 178 188 223
0.342181 -0.393305 -0.61 250 249 254
0.353216 -0.39395 -0.611 252 252 250
0.356708 -0.39395 -0.611 253 253 253
0.367783 -0.394594 -0.612 191 196 225
0.390569 -0.395239 -0.613 163 164 194
0.401731 -0.395884 -0.614 249 249 249
0.4305 -0.396529 -0.615 172 177 199
0.446003 -0.397818 -0.617 157 184 227
0.480831 -0.400397 -0.621 225 228 245
0.498192 -0.401042 -0.622 110 111 131
0.51086 -0.401687 -0.623 68 112 175
0.52154 -0.401687 -0.623 176 182 204
0.491751 -0.359132 -0.557 176 142 130
0.48944 -0.355909 -0.552 177 143 131
0.486491 -0.35075 -0.544 185 147 126
0.48488 -0.343013 -0.532 197 155 131
0.499664 -0.335921 -0.521 197 151 128
0.513549 -0.336566 -0.522 168 127 105
0.0702743 -0.369893 -0.572 199 156 140
0.0739914 -0.356313 -0.551 202 159 142
0.0908333 -0.352433 -0.545 197 149 127
0.108879 -0.353727 -0.547 187 137 114
0.112414 -0.35502 -0.549 175 125 100
0.113667 -0.355667 -0.55 170 120 97
0.12276 -0.36084 -0.558 141 92 85
0.127922 -0.363427 -0.562 137 88 83
0.215274 -0.39188 -0.606 124 121 142
0.224509 -0.39188 -0.606 189 192 209
0.229126 -0.39188 -0.606 195 203 216
0.25871 -0.391233 -0.605 201 214 248
0.259862 -0.391233 -0.605 218 231 255
0.276451 -0.39188 -0.606 216 216 226
0.287994 -0.39188 -0.606 244 248 255
0.298875 -0.392527 -0.607 187 190 207
0.305812 -0.392527 -0.607 171 185 214
0.308125 -0.392527 -0.607 182 200 240
0.309281 -0.392527 -0.607 156 174 214
0.313906 -0.392527 -0.607 128 155 210
0.31853 -0.392527 -0.607 166 189 233
0.323688 -0.393173 -0.608 159 175 211
0.324846 -0.393173 -0.608 173 184 216
0.33466 -0.39382 -0.609 236 234 237
0.3538 -0.394467 -0.61 251 251 251
0.35961 -0.394467 -0.61 249 252 255
0.37882 -0.395113 -0.611 147 174 219
0.388766 -0.39576 -0.612 156 168 208
0.398742 -0.396407 -0.613 250 250 252
0.432843 -0.3977 -0.615 208 222 248
0.440587 -0.398347 -0.616 126 163 216
0.456143 -0.39964 -0.618 150 160 196
0.462776 -0.400287 -0.619 235 239 248
0.466313 -0.400287 -0.619 241 241 253
0.476514 -0.400933 -0.62 205 213 226
0.501747 -0.402227 -0.622 150 169 211
0.5073 -0.402873 -0.623 138 163 220
0.518333 -0.402227 -0.622 125 148 190
0.513967 -0.384767 -0.595 169 139 129
0.486086 -0.342733 -0.53 193 151 127
0.487095 -0.342733 -0.53 195 153 129
0.489357 -0.340793 -0.527 197 155 131
0.506643 -0.33562 -0.519 180 138 114
0.07644 -0.35412 -0.546 202 157 136
0.0834133 -0.352823 -0.544 200 154 131
0.0865219 -0.352823 -0.544 199 151 129
0.0875581 -0.352823 -0.544 199 151 129
0.0896305 -0.352823 -0.544 199 151 128
0.0906667 -0.352823 -0.544 199 151 128
0.0970619 -0.353471 -0.545 200 152 130
0.102065 -0.352823 -0.544 196 145 124
0.117447 -0.35866 -0.553 146 94 80
0.121479 -0.361254 -0.557 140 91 86
0.12815 -0.365146 -0.563 136 89 83
0.174009 -0.391089 -0.603 42 55 89
0.187262 -0.392386 -0.605 44 64 125
0.198786 -0.392386 -0.605 161 158 177
0.199938 -0.392386 -0.605 162 160 181
0.209157 -0.392386 -0.605 134 137 154
0.219891 -0.393034 -0.606 144 145 163
0.22529 -0.392386 -0.605 189 195 209
0.232205 -0.392386 -0.605 187 194 212
0.242576 -0.392386 -0.605 108 134 185
0.243729 -0.392386 -0.605 100 126 177
0.259432 -0.391737 -0.604 209 223 255
0.263319 -0.392386 -0.605 228 231 248
0.277148 -0.392386 -0.605 200 200 212
0.279452 -0.392386 -0.605 189 190 208
0.310437 -0.393683 -0.607 131 156 212
0.319687 -0.393683 -0.607 137 159 206
0.384103 -0.396926 -0.612 141 164 214
0.391097 -0.396926 -0.612 238 246 255
0.401077 -0.397574 -0.613 250 250 252
0.40641 -0.398223 -0.614 227 230 247
0.4298 -0.398223 -0.614 174 181 210
0.453054 -0.400169 -0.617 158 183 224
0.463955 -0.401466 -0.619 228 227 233
0.468671 -0.401466 -0.619 239 239 251
0.47061 -0.402114 -0.62 233 237 248
0.476514 -0.402114 -0.62 189 198 215
0.513594 -0.403411 -0.622 48 93 161
0.487269 -0.342446 -0.528 197 155 131
0.49256 -0.339851 -0.524 195 150 127
0.494609 -0.339203 -0.523 199 154 131
0.496687 -0.337906 -0.521 195 150 127
0.499695 -0.337257 -0.52 196 150 127
0.509609 -0.336609 -0.519 176 134 109
0.0705533 -0.362315 -0.557 206 160 145
0.07436 -0.35516 -0.546 199 158 136
0.0771962 -0.353859 -0.544 201 156 135
0.0792686 -0.353859 -0.544 202 157 134
0.0894657 -0.353209 -0.543 199 151 128
0.103101 -0.353859 -0.544 190 139 118
0.108879 -0.35581 -0.547 180 129 108
0.111166 -0.356461 -0.548 169 117 96
0.17286 -0.392237 -0.603 40 54 89
0.190719 -0.393538 -0.605 35 58 108
0.194176 -0.393538 -0.605 101 118 161
0.20109 -0.393538 -0.605 166 165 183
0.221833 -0.393538 -0.605 186 184 205
0.224138 -0.393538 -0.605 195 196 214
0.239874 -0.392888 -0.604 86 112 161
0.265624 -0.393538 -0.605 234 236 251
0.296074 -0.394189 -0.606 234 237 246
0.309926 -0.394189 -0.606 122 151 209
0.314543 -0.394189 -0.606 133 160 215
0.318006 -0.394189 -0.606 131 158 213
0.326624 -0.394839 -0.607 239 243 252
0.3509 -0.39614 -0.609 211 214 231
0.35786 -0.39614 -0.609 250 251 255
0.35902 -0.39614 -0.609 250 250 252
0.366581 -0.39679 -0.61 153 166 198
0.382311 -0.397441 -0.611 138 163 219
0.396926 -0.398091 -0.612 202 202 202
0.402754 -0.398091 -0.612 220 223 232
0.425597 -0.398742 -0.613 225 225 227
0.436817 -0.399392 -0.614 152 182 236
0.44528 -0.400693 -0.616 131 162 217
0.451147 -0.400693 -0.616 116 146 196
0.455405 -0.401344 -0.617 163 184 231
0.479283 -0.402645 -0.619 194 201 220
0.4836 -0.403295 -0.62 210 216 230
0.484781 -0.403295 -0.62 213 214 219
0.487143 -0.403295 -0.62 208 207 205
0.506854 -0.403946 -0.621 90 130 199
0.516317 -0.403946 -0.621 78 119 185
0.499094 -0.370121 -0.569 175 143 130
0.497541 -0.36817 -0.566 175 143 130
0.495976 -0.366218 -0.563 176 143 128
0.488132 -0.35581 -0.547 182 145 129
0.4905 -0.3415 -0.525 198 153 130
0.495694 -0.338898 -0.521 197 151 128
0.499695 -0.338248 -0.52 196 150 127
0.500733 -0.336947 -0.518 190 144 120
0.505675 -0.336296 -0.517 185 141 116
0.0700467 -0.360767 -0.553 199 160 143
0.0724124 -0.356852 -0.547 202 157 138
0.0925686 -0.354243 -0.543 198 152 128
0.0936029 -0.354243 -0.543 200 154 130
0.105367 -0.355548 -0.545 187 136 117
0.125557 -0.365986 -0.561 133 85 75
0.169133 -0.392733 -0.602 56 60 89
0.178603 -0.393386 -0.603 26 44 92
0.197307 -0.394038 -0.604 174 165 182
0.20536 -0.394038 -0.604 166 169 184
0.222249 -0.393386 -0.603 197 198 216
0.225694 -0.393386 -0.603 201 203 216
0.238329 -0.393386 -0.603 109 131 172
0.248666 -0.393386 -0.603 99 122 172
0.257854 -0.393386 -0.603 211 222 254
0.260583 -0.394038 -0.604 224 228 253
0.261733 -0.394038 -0.604 223 227 252
0.267486 -0.394038 -0.604 237 236 254
0.27784 -0.394038 -0.604 186 185 199
0.322623 -0.395343 -0.606 169 190 243
0.349166 -0.396648 -0.608 211 214 231
0.35786 -0.3973 -0.609 251 251 253
