ply
format ascii 1.0
comment Created by Open3D
element vertex 1278
property double x
property double y
property double z
property uchar red
property uchar green
property uchar blue
end_header
0.102606 -0.391535 -0.536 170 114 99
0.11977 -0.404684 -0.554 136 97 90
0.158812 -0.421485 -0.577 73 88 121
0.163209 -0.421485 -0.577 196 201 223
0.164308 -0.421485 -0.577 193 197 209
0.443686 -0.428059 -0.586 228 239 255
0.468395 -0.43025 -0.589 220 226 238
0.469517 -0.43025 -0.589 222 229 237
0.472883 -0.43025 -0.589 216 227 233
0.474005 -0.43025 -0.589 214 225 231
0.481858 -0.43025 -0.589 192 200 223
0.497565 -0.43025 -0.589 98 134 184
0.490614 -0.411258 -0.563 166 138 127
0.467844 -0.371082 -0.508 192 151 133
0.467967 -0.36889 -0.505 194 153 131
0.472853 -0.362316 -0.496 194 150 123
0.476381 -0.356472 -0.488 191 145 121
0.47726 -0.355742 -0.487 189 143 119
0.478131 -0.355011 -0.486 188 142 116
0.4945 -0.35282 -0.483 183 137 104
0.497368 -0.35355 -0.484 180 135 102
0.504051 -0.355011 -0.486 166 125 93
0.517053 -0.360855 -0.494 156 121 101
0.0512695 -0.390359 -0.533 199 154 131
0.0520886 -0.388894 -0.531 200 155 132
0.0920229 -0.386697 -0.528 178 121 102
0.10382 -0.393289 -0.537 170 114 97
0.11139 -0.398415 -0.544 160 109 92
0.146977 -0.423316 -0.578 147 148 150
0.147822 -0.422584 -0.577 149 150 152
0.15002 -0.422584 -0.577 170 170 172
0.155515 -0.422584 -0.577 157 169 185
0.16101 -0.422584 -0.577 93 106 141
0.203873 -0.422584 -0.577 237 236 252
0.436989 -0.429175 -0.586 129 162 215
0.445918 -0.429175 -0.586 173 178 200
0.447034 -0.429175 -0.586 169 184 213
0.4676 -0.43064 -0.588 225 229 241
0.46872 -0.43064 -0.588 215 224 231
0.487468 -0.431372 -0.589 117 137 162
0.491667 -0.432105 -0.59 198 206 229
0.487508 -0.407936 -0.557 171 138 129
0.47576 -0.389627 -0.532 178 141 132
0.467844 -0.37205 -0.508 191 150 132
0.46793 -0.370585 -0.506 191 150 130
0.46803 -0.368388 -0.503 190 149 129
0.468055 -0.367655 -0.502 189 148 128
0.470964 -0.363261 -0.496 191 149 125
0.474663 -0.360331 -0.492 198 154 129
0.476426 -0.358134 -0.489 193 147 123
0.478995 -0.355205 -0.485 192 146 120
0.483539 -0.354472 -0.484 192 145 119
0.506944 -0.35667 -0.487 161 124 95
0.51496 -0.360331 -0.492 158 123 101
0.0582771 -0.384031 -0.523 204 158 132
0.0621429 -0.383297 -0.522 207 161 135
0.0886686 -0.386234 -0.526 180 125 104
0.114089 -0.401654 -0.547 152 105 89
0.11681 -0.403857 -0.55 145 103 89
0.142573 -0.424417 -0.578 133 128 135
0.146723 -0.423683 -0.577 150 148 149
0.15002 -0.423683 -0.577 148 146 149
0.161829 -0.422949 -0.576 156 165 194
0.167314 -0.422949 -0.576 171 186 219
0.173897 -0.422949 -0.576 105 144 201
0.453731 -0.430291 -0.586 231 238 244
0.461214 -0.431026 -0.587 214 217 222
0.487508 -0.408997 -0.557 171 138 129
0.469314 -0.378891 -0.516 184 145 130
0.467889 -0.372283 -0.507 189 148 130
0.468055 -0.368611 -0.502 190 149 129
0.475533 -0.3598 -0.49 191 147 122
0.476381 -0.358331 -0.488 193 147 123
0.480773 -0.355394 -0.484 188 141 115
0.48898 -0.35466 -0.483 190 143 115
0.4899 -0.35466 -0.483 186 139 111
0.49164 -0.353926 -0.482 183 136 106
0.0493314 -0.393126 -0.534 203 159 132
0.0831819 -0.385028 -0.523 185 135 112
0.0896705 -0.387236 -0.526 180 125 104
0.0954 -0.390181 -0.53 176 124 102
0.102414 -0.393862 -0.535 169 117 96
0.112633 -0.401224 -0.545 154 108 93
0.11681 -0.404905 -0.55 145 103 91
0.147566 -0.424046 -0.576 167 163 164
0.14976 -0.424046 -0.576 114 108 112
0.153051 -0.424046 -0.576 181 182 187
0.159634 -0.424046 -0.576 104 113 144
0.425486 -0.429935 -0.584 185 203 243
0.42771 -0.429935 -0.584 125 148 198
0.428823 -0.429935 -0.584 98 131 184
0.449614 -0.430671 -0.585 227 235 246
0.450729 -0.430671 -0.585 228 237 246
0.466805 -0.432144 -0.587 213 217 229
0.469041 -0.432144 -0.587 210 214 223
0.474631 -0.432144 -0.587 221 221 233
0.47992 -0.43288 -0.588 214 216 228
0.4844 -0.43288 -0.588 195 204 219
0.48552 -0.43288 -0.588 163 173 198
0.489067 -0.412267 -0.56 171 136 130
0.468 -0.37104 -0.504 191 150 130
0.46906 -0.367359 -0.499 190 150 125
0.469069 -0.366623 -0.498 191 149 125
0.470019 -0.36515 -0.496 194 152 127
0.480773 -0.356316 -0.484 187 140 114
0.487968 -0.354844 -0.482 189 142 114
0.490722 -0.354844 -0.482 185 140 111
0.50002 -0.35558 -0.483 170 129 101
0.521981 -0.36515 -0.496 150 115 93
0.0451571 -0.402262 -0.545 196 154 130
0.0543962 -0.386762 -0.524 200 154 130
0.0779019 -0.384548 -0.521 190 143 117
0.114089 -0.403738 -0.547 149 106 90
0.115341 -0.404476 -0.548 146 104 92
0.118286 -0.407429 -0.552 135 101 92
0.144274 -0.425143 -0.576 153 150 157
0.146469 -0.425143 -0.576 160 155 159
0.1495 -0.424405 -0.575 124 118 122
0.157167 -0.424405 -0.575 186 189 206
0.43661 -0.431048 -0.584 91 120 180
0.441059 -0.431048 -0.584 147 175 215
0.443284 -0.431048 -0.584 128 150 189
0.446271 -0.431786 -0.585 198 215 243
0.454071 -0.431786 -0.585 231 235 238
0.472395 -0.433262 -0.587 196 197 202
0.49389 -0.419238 -0.568 169 139 131
0.48994 -0.414071 -0.561 169 136 127
0.475639 -0.393405 -0.533 175 142 127
0.474194 -0.389714 -0.528 177 144 129
0.468474 -0.379381 -0.514 183 146 127
0.46704 -0.372 -0.504 188 150 127
0.46803 -0.371262 -0.503 189 152 126
0.468055 -0.370524 -0.502 189 152 126
0.470019 -0.366095 -0.496 192 153 124
0.481541 -0.355762 -0.482 188 142 116
0.509727 -0.359452 -0.487 156 121 99
0.512751 -0.360929 -0.489 155 120 98
0.522926 -0.366095 -0.496 151 117 92
0.0551829 -0.38628 -0.522 204 158 132
0.0619048 -0.3848 -0.52 202 156 130
0.102414 -0.3959 -0.535 167 116 97
0.11139 -0.40256 -0.544 154 111 95
0.117022 -0.40774 -0.551 141 103 92
0.139643 -0.4255 -0.575 104 100 117
0.143177 -0.42624 -0.576 142 139 156
0.157987 -0.42476 -0.574 195 197 210
0.166733 -0.42476 -0.574 98 125 172
0.173293 -0.42476 -0.574 73 106 175
0.454408 -0.43216 -0.584 180 181 183
0.4563 -0.4329 -0.585 191 192 194
0.457414 -0.4329 -0.585 225 226 230
0.462986 -0.4329 -0.585 209 215 229
0.493639 -0.43438 -0.587 71 107 167
0.49389 -0.42032 -0.568 170 142 131
0.47894 -0.39886 -0.539 172 143 129
0.470971 -0.3848 -0.52 178 145 126
0.469314 -0.38184 -0.516 181 146 126
0.467687 -0.37814 -0.511 185 149 127
0.46803 -0.37222 -0.503 189 152 126
0.470019 -0.36704 -0.496 190 151 120
0.470932 -0.36482 -0.493 194 153 125
0.475405 -0.36038 -0.487 193 147 121
0.480623 -0.35668 -0.482 186 140 114
0.491429 -0.3552 -0.48 182 135 105
0.0513038 -0.388016 -0.523 202 156 132
0.0523 -0.388016 -0.523 202 156 130
0.0540848 -0.386532 -0.521 205 158 130
0.0559619 -0.38579 -0.52 207 158 128
0.0617857 -0.385049 -0.519 201 155 129
0.0696943 -0.385049 -0.519 201 154 128
0.07266 -0.385049 -0.519 197 150 122
0.0840171 -0.387274 -0.522 183 131 110
0.0863352 -0.388758 -0.524 184 129 109
0.101206 -0.396177 -0.534 173 120 104
0.107486 -0.400629 -0.54 165 114 97
0.114089 -0.405822 -0.547 147 105 91
0.153613 -0.425853 -0.574 193 190 211
0.163169 -0.425111 -0.573 90 113 154
0.436972 -0.43253 -0.583 78 114 176
0.456632 -0.433272 -0.584 227 230 235
0.458857 -0.433272 -0.584 190 194 203
0.4641 -0.434014 -0.585 184 192 211
0.473823 -0.434756 -0.586 178 176 187
0.474939 -0.434756 -0.586 216 214 225
0.478288 -0.434756 -0.586 218 218 230
0.48052 -0.434756 -0.586 215 215 223
0.492521 -0.435498 -0.587 56 87 151
0.485234 -0.409531 -0.552 169 143 128
0.48204 -0.40508 -0.546 168 140 126
0.4735 -0.3895 -0.525 179 146 129
0.466923 -0.376146 -0.507 185 149 127
0.471769 -0.362791 -0.489 189 145 118
0.476224 -0.359824 -0.485 192 148 121
0.47794 -0.35834 -0.483 189 143 117
0.485029 -0.356114 -0.48 186 139 111
0.493257 -0.356114 -0.48 182 133 101
0.512632 -0.36205 -0.488 154 114 88
0.0461067 -0.395707 -0.532 204 160 133
0.0616667 -0.385293 -0.518 202 157 128
0.0746371 -0.386037 -0.519 197 150 124
0.0766143 -0.386037 -0.519 189 142 116
0.0940343 -0.392731 -0.528 178 124 100
0.102414 -0.397938 -0.535 165 118 102
0.11284 -0.40612 -0.546 149 109 97
0.115551 -0.408351 -0.549 138 104 94
0.117022 -0.409839 -0.551 136 102 92
0.434006 -0.432897 -0.582 80 122 182
0.43844 -0.432897 -0.582 106 138 199
0.439549 -0.432897 -0.582 91 129 191
0.445856 -0.433641 -0.583 203 217 243
0.450298 -0.433641 -0.583 219 217 228
0.462194 -0.434385 -0.584 188 195 213
0.490566 -0.435872 -0.586 65 100 164
0.4953 -0.435129 -0.585 33 72 137
0.467005 -0.375624 -0.505 186 149 123
0.467071 -0.374136 -0.503 186 149 123
0.471769 -0.363723 -0.489 191 147 120
0.487668 -0.356285 -0.479 188 141 113
0.489492 -0.356285 -0.479 186 139 113
0.494054 -0.356285 -0.479 174 130 103
0.494967 -0.356285 -0.479 175 131 104
0.500698 -0.357772 -0.481 166 124 99
0.50554 -0.35926 -0.483 152 121 92
0.608586 -0.420252 -0.565 203 203 195
0.612899 -0.422484 -0.568 203 203 195
0.0433905 -0.399703 -0.536 200 156 131
0.0459333 -0.395229 -0.53 203 159 132
0.0512057 -0.389263 -0.522 207 162 133
0.0521 -0.388517 -0.521 204 159 130
0.0596933 -0.38628 -0.518 202 157 128
0.06068 -0.38628 -0.518 201 156 127
0.0645019 -0.385534 -0.517 204 158 132
0.0654867 -0.385534 -0.517 204 158 132
0.0664714 -0.385534 -0.517 205 159 133
0.0715333 -0.38628 -0.518 194 147 121
0.0797333 -0.387771 -0.52 187 137 114
0.0940343 -0.393737 -0.528 175 123 101
0.104843 -0.400449 -0.537 164 116 102
0.117234 -0.411634 -0.552 135 103 92
0.145706 -0.427294 -0.573 122 121 129
0.146797 -0.427294 -0.573 162 161 169
0.165063 -0.426549 -0.572 91 121 173
0.166152 -0.426549 -0.572 99 129 181
0.459182 -0.434751 -0.583 198 202 213
0.461403 -0.434751 -0.583 184 191 209
0.462513 -0.434751 -0.583 168 179 201
0.464419 -0.435497 -0.584 154 165 187
0.4953 -0.436243 -0.585 43 81 144
0.472692 -0.390009 -0.523 178 145 128
0.470892 -0.366146 -0.491 192 151 123
0.47426 -0.36018 -0.483 192 146 120
0.476032 -0.359434 -0.482 191 147 120
0.479456 -0.357197 -0.479 187 140 112
0.493933 -0.356451 -0.478 178 133 104
0.501614 -0.358689 -0.481 167 123 94
0.504493 -0.359434 -0.482 159 122 93
0.0449238 -0.396238 -0.53 202 158 133
0.0493114 -0.391005 -0.523 207 161 135
0.0521 -0.38951 -0.521 205 160 131
0.0595781 -0.386519 -0.517 203 156 130
0.0625324 -0.386519 -0.517 205 158 132
0.0654867 -0.386519 -0.517 204 157 131
0.115762 -0.41119 -0.55 132 102 94
0.136735 -0.427638 -0.572 87 85 99
0.144614 -0.428386 -0.573 131 131 143
0.158526 -0.427638 -0.572 165 183 219
0.175958 -0.427638 -0.572 141 174 227
0.43658 -0.434367 -0.581 134 173 228
0.452519 -0.435862 -0.583 237 237 245
0.488614 -0.437357 -0.585 58 86 133
0.491957 -0.437357 -0.585 84 122 187
0.499159 -0.435862 -0.583 50 88 150
0.484524 -0.41119 -0.55 169 137 122
0.47576 -0.397733 -0.532 174 142 129
0.470971 -0.388762 -0.52 178 145 128
0.469314 -0.385771 -0.516 180 145 126
0.46608 -0.3768 -0.504 186 148 127
0.46904 -0.367829 -0.492 188 148 123
0.477793 -0.359605 -0.481 194 148 122
0.485739 -0.357362 -0.478 183 136 106
0.489266 -0.356614 -0.477 181 136 105
0.6129 -0.4239 -0.567 204 204 196
0.040779 -0.406242 -0.542 191 153 130
0.0422114 -0.400246 -0.534 201 155 129
0.0447543 -0.395749 -0.528 202 158 133
0.0633943 -0.386754 -0.516 203 157 131
0.0733648 -0.387504 -0.517 196 146 121
0.102414 -0.400995 -0.535 163 116 100
0.107486 -0.404743 -0.54 158 112 97
0.113047 -0.40999 -0.547 136 99 93
0.133233 -0.427978 -0.571 95 95 105
0.149548 -0.427978 -0.571 188 187 193
0.151723 -0.427978 -0.571 196 193 210
0.157161 -0.427978 -0.571 152 166 192
0.161511 -0.427978 -0.571 99 123 169
0.44322 -0.435473 -0.581 123 142 174
0.444327 -0.435473 -0.581 158 177 209
0.445433 -0.435473 -0.581 213 219 231
0.452851 -0.436223 -0.582 232 235 244
0.465845 -0.436972 -0.583 197 205 224
0.466955 -0.436972 -0.583 209 217 228
0.479992 -0.437722 -0.584 215 215 223
0.495566 -0.437722 -0.584 37 77 139
0.473296 -0.394999 -0.527 173 140 125
0.46854 -0.384506 -0.513 182 145 127
0.466043 -0.37851 -0.505 182 145 126
0.466169 -0.375511 -0.501 188 150 131
0.46619 -0.374762 -0.5 188 150 131
0.467143 -0.374762 -0.5 187 149 128
0.467186 -0.371014 -0.495 193 152 130
0.470767 -0.365018 -0.487 190 148 124
0.4768 -0.359771 -0.48 195 149 125
0.479456 -0.359022 -0.479 189 142 116
0.481187 -0.358272 -0.478 188 141 115
0.482097 -0.358272 -0.478 188 141 115
0.482906 -0.357523 -0.477 184 137 109
0.519525 -0.368016 -0.491 145 111 86
0.0519 -0.389991 -0.519 205 160 131
0.055639 -0.388489 -0.517 204 159 128
0.0624114 -0.387737 -0.516 201 157 128
0.0702743 -0.387737 -0.516 195 150 121
0.07238 -0.388489 -0.517 194 149 120
0.07958 -0.389991 -0.519 183 133 110
0.0871667 -0.392997 -0.523 180 130 107
0.101206 -0.401263 -0.534 167 118 101
0.103627 -0.402766 -0.536 161 114 98
0.10626 -0.40502 -0.539 160 112 98
0.113047 -0.411031 -0.547 133 98 92
0.115972 -0.414037 -0.551 125 97 93
0.136496 -0.429066 -0.571 110 109 123
0.156073 -0.429066 -0.571 159 174 203
0.447647 -0.43658 -0.581 218 222 233
0.452073 -0.43658 -0.581 234 234 244
0.454287 -0.43658 -0.581 234 234 244
0.46172 -0.437331 -0.582 209 215 227
0.48333 -0.438834 -0.584 165 167 188
0.494453 -0.438834 -0.584 66 96 148
0.490813 -0.422303 -0.562 163 136 127
0.4725 -0.3945 -0.525 175 142 127
0.469981 -0.390743 -0.52 177 144 129
0.46854 -0.385483 -0.513 180 145 126
0.468124 -0.371206 -0.494 189 148 126
0.469 -0.3682 -0.49 191 149 125
0.469839 -0.365946 -0.487 190 148 123
0.4698 -0.365194 -0.486 189 147 122
0.471554 -0.363691 -0.484 193 149 124
0.475045 -0.361437 -0.481 193 149 124
0.48018 -0.358431 -0.477 188 141 113
0.487449 -0.358431 -0.477 184 139 108
0.492773 -0.35768 -0.476 173 128 97
0.517409 -0.367449 -0.489 152 116 90
0.03796 -0.41132 -0.546 196 150 124
0.0518 -0.390227 -0.518 203 158 127
0.0565143 -0.38872 -0.516 202 157 126
0.0574971 -0.38872 -0.516 203 160 128
0.05848 -0.38872 -0.516 203 160 128
0.0604457 -0.38872 -0.516 205 162 130
0.06536 -0.38872 -0.516 201 158 126
0.0673257 -0.38872 -0.516 198 154 125
0.0681762 -0.387967 -0.515 198 154 125
0.07844 -0.390227 -0.518 186 136 111
0.0916743 -0.396253 -0.526 180 128 106
0.108916 -0.408307 -0.542 153 105 91
0.110354 -0.409813 -0.544 144 105 100
0.133 -0.4294 -0.57 117 115 118
0.137584 -0.430153 -0.571 106 104 117
0.1558 -0.4294 -0.57 113 128 159
0.157971 -0.4294 -0.57 102 114 154
0.463937 -0.43844 -0.582 212 214 227
0.468371 -0.43844 -0.582 222 222 230
0.47806 -0.439193 -0.583 205 203 204
0.490275 -0.439193 -0.583 152 166 192
0.497194 -0.43844 -0.582 51 99 163
0.478455 -0.360093 -0.478 185 140 111
0.478363 -0.35934 -0.477 181 136 107
0.486427 -0.358587 -0.476 185 140 109
0.50922 -0.36386 -0.483 156 121 89
0.0470476 -0.392724 -0.52 200 156 129
0.0583667 -0.388948 -0.515 202 158 129
0.0593476 -0.388948 -0.515 204 160 131
0.0732229 -0.389703 -0.516 192 145 119
0.0753343 -0.390458 -0.517 184 137 111
0.0763191 -0.390458 -0.517 183 136 110
0.135171 -0.430486 -0.57 136 133 140
0.137343 -0.430486 -0.57 133 132 140
0.439489 -0.437283 -0.579 218 227 244
0.451295 -0.438038 -0.58 230 232 245
0.46646 -0.438793 -0.581 221 221 231
0.480573 -0.409339 -0.542 166 137 129
0.46718 -0.375353 -0.497 192 154 131
0.471442 -0.364025 -0.482 187 143 116
0.476719 -0.361759 -0.479 190 144 118
0.476634 -0.361004 -0.478 188 142 116
0.478363 -0.360249 -0.477 182 137 108
0.480987 -0.359493 -0.476 185 140 111
0.488119 -0.358738 -0.475 181 134 106
0.495493 -0.359493 -0.476 170 126 97
0.498351 -0.360249 -0.477 172 128 101
0.0442457 -0.395229 -0.522 189 145 118
0.0583667 -0.389929 -0.515 202 157 128
0.0671952 -0.389929 -0.515 200 154 128
0.071119 -0.389929 -0.515 200 153 127
0.0753343 -0.391443 -0.517 184 136 113
0.0763191 -0.391443 -0.517 184 136 113
0.0817143 -0.393714 -0.52 184 134 111
0.0827048 -0.393714 -0.52 184 134 111
0.0871667 -0.395986 -0.523 177 125 104
0.102414 -0.405071 -0.535 162 116 101
0.105038 -0.407343 -0.538 161 115 102
0.109117 -0.411129 -0.543 149 102 92
0.142771 -0.431571 -0.57 175 179 178
0.145772 -0.430814 -0.569 181 189 191
0.153359 -0.430814 -0.569 117 134 164
0.442797 -0.438386 -0.579 153 161 174
0.465353 -0.4399 -0.581 220 222 234
0.481674 -0.440657 -0.582 92 97 126
0.485 -0.440657 -0.582 181 194 213
0.488326 -0.440657 -0.582 186 196 208
0.466233 -0.3763 -0.497 188 150 127
0.468043 -0.370243 -0.489 193 153 128
0.478267 -0.3604 -0.476 183 138 109
0.482577 -0.358886 -0.474 188 141 113
0.484383 -0.358886 -0.474 189 142 114
0.0381429 -0.405331 -0.534 190 149 119
0.0469571 -0.393946 -0.519 203 159 132
0.0621695 -0.39015 -0.514 201 160 130
0.0742057 -0.391669 -0.516 187 139 116
0.0753343 -0.392428 -0.517 187 137 114
0.0836952 -0.394705 -0.52 180 128 106
0.09504 -0.400777 -0.528 179 127 106
0.10626 -0.409127 -0.539 157 111 98
0.109117 -0.412163 -0.543 144 100 89
0.131451 -0.431139 -0.568 120 116 115
0.136861 -0.431139 -0.568 158 153 160
0.140353 -0.431898 -0.569 176 175 180
0.142521 -0.431898 -0.569 177 181 182
0.144689 -0.431898 -0.569 177 187 189
0.155253 -0.431139 -0.568 122 141 173
0.158499 -0.431139 -0.568 197 214 234
0.437629 -0.43873 -0.578 219 231 253
0.43983 -0.43873 -0.578 220 226 242
0.482195 -0.413681 -0.545 162 139 125
0.479829 -0.409886 -0.54 166 137 133
0.466223 -0.378006 -0.498 188 150 127
0.466233 -0.377247 -0.497 187 149 126
0.467949 -0.368897 -0.486 191 150 128
0.494452 -0.360548 -0.475 171 126 97
0.0356171 -0.412436 -0.542 193 152 124
0.0364467 -0.410153 -0.539 194 153 125
0.0404229 -0.398739 -0.524 198 154 127
0.0459686 -0.394934 -0.519 203 159 134
0.0621695 -0.39113 -0.514 204 160 131
0.0691571 -0.39189 -0.515 199 153 127
0.07224 -0.392651 -0.516 192 146 122
0.0773038 -0.393412 -0.517 183 131 109
0.0825457 -0.394934 -0.519 184 134 111
0.0905 -0.3995 -0.525 183 129 105
0.0928524 -0.401022 -0.527 180 128 106
0.105038 -0.409392 -0.538 152 114 105
0.109117 -0.413197 -0.543 142 104 95
0.111595 -0.414719 -0.545 134 101 96
0.133615 -0.432221 -0.568 96 86 95
0.141189 -0.432221 -0.568 184 184 186
0.425881 -0.43907 -0.577 164 185 216
0.43907 -0.43907 -0.577 228 236 249
0.443133 -0.43983 -0.578 197 210 229
0.449739 -0.43983 -0.578 226 229 244
0.45084 -0.43983 -0.578 226 229 244
0.461546 -0.440591 -0.579 159 165 181
0.462649 -0.440591 -0.579 196 202 218
0.48306 -0.442113 -0.581 184 196 212
0.469981 -0.395695 -0.52 176 142 130
0.46916 -0.394173 -0.518 177 141 127
0.467495 -0.39113 -0.514 181 144 128
0.466113 -0.382759 -0.503 186 148 127
0.46619 -0.380476 -0.5 188 147 127
0.46624 -0.377432 -0.496 190 149 129
0.467133 -0.372867 -0.49 196 151 130
0.467023 -0.369823 -0.486 196 151 130
0.468874 -0.369823 -0.486 172 127 104
0.47307 -0.364496 -0.479 192 148 121
0.474813 -0.363735 -0.478 188 144 117
0.475724 -0.363735 -0.478 190 144 118
0.476357 -0.361452 -0.475 185 138 112
0.505915 -0.364496 -0.479 160 119 87
0.603128 -0.42309 -0.556 203 202 197
0.04588 -0.39516 -0.518 205 161 136
0.0467762 -0.394397 -0.517 207 163 138
0.052379 -0.392109 -0.514 199 158 130
0.0553162 -0.392109 -0.514 203 159 130
0.0562952 -0.392109 -0.514 203 159 130
0.0572743 -0.392109 -0.514 203 159 130
0.05814 -0.391346 -0.513 203 159 130
0.0600943 -0.391346 -0.513 202 159 127
0.0641276 -0.392109 -0.514 197 152 123
0.425143 -0.439406 -0.576 169 190 217
0.440169 -0.440169 -0.577 234 231 250
0.444565 -0.440169 -0.577 155 172 188
0.451941 -0.440931 -0.578 230 226 240
0.476705 -0.442457 -0.58 92 106 119
0.47781 -0.442457 -0.58 92 106 119
0.480019 -0.442457 -0.58 171 179 198
0.486648 -0.442457 -0.58 193 202 209
0.496837 -0.441694 -0.579 111 138 185
0.486992 -0.422623 -0.554 165 134 129
0.474981 -0.404314 -0.53 167 139 128
0.466826 -0.388294 -0.509 184 147 129
0.466243 -0.377614 -0.495 190 148 126
0.466237 -0.376089 -0.493 191 149 127
0.467056 -0.371511 -0.487 194 149 128
0.468789 -0.369223 -0.484 194 149 126
0.473903 -0.364646 -0.478 191 145 119
0.486834 -0.360069 -0.472 180 135 104
0.0420143 -0.396911 -0.519 202 157 128
0.0457914 -0.395382 -0.517 205 161 134
0.0620486 -0.392323 -0.513 203 158 127
0.0640029 -0.392323 -0.513 196 151 122
0.0690229 -0.393088 -0.514 195 148 122
0.071119 -0.393852 -0.515 191 144 118
0.0742057 -0.394617 -0.516 190 138 116
0.0848486 -0.398441 -0.521 185 135 110
0.0881629 -0.39997 -0.523 184 134 109
0.0905 -0.4015 -0.525 179 127 105
0.0940343 -0.403794 -0.528 179 127 105
0.1377 -0.43362 -0.567 154 156 179
0.13986 -0.43362 -0.567 177 179 191
0.14418 -0.43362 -0.567 183 183 195
0.429531 -0.440503 -0.576 179 196 226
0.438309 -0.440503 -0.576 234 230 244
0.444565 -0.441268 -0.577 200 212 226
0.465957 -0.442797 -0.579 221 224 239
0.468163 -0.442797 -0.579 219 221 234
0.480019 -0.443562 -0.58 195 203 224
0.482195 -0.416795 -0.545 161 139 128
0.469239 -0.395382 -0.517 178 142 126
0.46619 -0.382381 -0.5 189 148 128
0.46618 -0.373969 -0.489 194 152 130
0.46874 -0.36938 -0.483 193 148 125
0.469606 -0.368615 -0.482 194 148 125
0.474729 -0.364791 -0.477 190 145 116
0.476257 -0.362497 -0.474 191 144 116
0.502894 -0.364791 -0.477 164 123 93
0.0457029 -0.3956 -0.516 205 160 131
0.0609524 -0.392533 -0.512 202 157 126
0.0620486 -0.3933 -0.513 201 156 125
0.0640029 -0.3933 -0.513 195 150 121
0.0700019 -0.394067 -0.514 191 144 118
0.0771543 -0.3956 -0.516 189 139 116
0.0825457 -0.3979 -0.519 188 138 115
0.107685 -0.414767 -0.541 144 106 95
0.110557 -0.417833 -0.545 137 100 92
0.112005 -0.419367 -0.547 127 99 98
0.126452 -0.433167 -0.565 94 89 96
0.145004 -0.433933 -0.566 190 190 202
0.439406 -0.4416 -0.576 228 227 245
0.451159 -0.442367 -0.577 220 221 241
0.453357 -0.442367 -0.577 222 221 237
0.481397 -0.4439 -0.579 206 208 221
0.493777 -0.443133 -0.578 131 161 199
0.479829 -0.414 -0.54 163 136 127
0.467687 -0.391767 -0.511 180 144 122
0.466229 -0.3772 -0.492 191 148 129
0.46874 -0.3703 -0.483 193 148 125
0.469606 -0.369533 -0.482 194 148 124
0.477054 -0.362633 -0.473 188 143 114
0.49133 -0.361867 -0.472 171 128 94
0.0333048 -0.413491 -0.538 193 152 124
0.0417714 -0.396583 -0.516 201 156 125
0.0428371 -0.397351 -0.517 201 156 125
0.0437371 -0.396583 -0.516 202 157 126
0.0475762 -0.395814 -0.515 206 161 130
0.0590019 -0.393509 -0.512 200 155 124
0.0629029 -0.393509 -0.512 197 152 121
0.0659571 -0.394277 -0.513 195 150 121
0.0771543 -0.396583 -0.516 187 139 116
0.0792733 -0.397351 -0.517 190 140 117
0.089159 -0.401963 -0.523 180 133 107
0.103627 -0.411954 -0.536 153 111 97
0.439738 -0.441929 -0.575 225 227 239
0.445989 -0.442697 -0.576 227 229 244
0.466253 -0.444234 -0.578 213 215 228
0.479191 -0.445003 -0.579 210 213 228
0.489117 -0.445003 -0.579 104 136 175
0.49622 -0.443466 -0.577 103 126 160
0.48308 -0.41964 -0.546 162 138 128
0.479076 -0.413491 -0.538 165 136 128
0.46608 -0.38736 -0.504 183 147 125
0.466113 -0.386591 -0.503 183 147 125
0.465238 -0.384286 -0.5 185 149 127
0.465281 -0.377369 -0.491 189 148 126
0.476153 -0.363534 -0.473 191 146 117
0.476046 -0.362766 -0.472 190 145 116
0.478626 -0.361997 -0.471 188 141 113
0.488494 -0.361997 -0.471 175 130 99
0.495974 -0.363534 -0.473 170 126 97
0.510629 -0.368914 -0.48 158 121 94
0.0389733 -0.399107 -0.518 200 155 122
0.0465048 -0.396025 -0.514 203 158 127
0.0541257 -0.394484 -0.512 204 159 126
0.0638781 -0.394484 -0.512 196 151 120
0.0700019 -0.396025 -0.514 188 141 115
0.0825457 -0.399877 -0.519 188 138 113
0.0928524 -0.406041 -0.527 176 128 106
0.0988 -0.409893 -0.532 162 117 98
0.144748 -0.435319 -0.565 157 168 188
0.429133 -0.442253 -0.574 143 165 202
0.445214 -0.443024 -0.575 226 228 241
0.453669 -0.443794 -0.576 193 202 231
0.454766 -0.443794 -0.576 208 215 233
0.458852 -0.444565 -0.577 177 188 208
0.46215 -0.444565 -0.577 157 177 212
0.470657 -0.445335 -0.578 137 150 182
0.477263 -0.445335 -0.578 213 213 225
0.495121 -0.444565 -0.577 107 131 165
0.465909 -0.391402 -0.508 181 145 123
0.465238 -0.385238 -0.5 184 148 126
0.465295 -0.382156 -0.496 184 146 123
0.48119 -0.362124 -0.47 187 140 112
0.482086 -0.362124 -0.47 186 141 112
0.494926 -0.363665 -0.472 170 127 95
0.502595 -0.365976 -0.475 164 123 93
0.0295314 -0.420175 -0.544 196 155 127
0.0337552 -0.40859 -0.529 199 155 128
0.0345 -0.4055 -0.525 200 156 129
0.0426714 -0.397776 -0.515 198 155 123
0.0473914 -0.396231 -0.513 202 159 125
0.0739181 -0.397004 -0.514 188 138 111
0.0781371 -0.398549 -0.516 187 140 114
0.0835343 -0.400866 -0.519 188 138 113
0.144491 -0.435623 -0.564 90 106 140
0.145566 -0.435623 -0.564 83 97 134
0.445214 -0.444119 -0.575 224 228 239
0.447405 -0.444119 -0.575 197 212 231
0.453669 -0.444891 -0.576 174 189 228
0.465447 -0.445664 -0.577 198 208 220
0.468744 -0.445664 -0.577 127 145 183
0.475338 -0.445664 -0.577 205 209 221
0.48413 -0.445664 -0.577 198 203 209
0.487171 -0.446436 -0.578 134 140 156
0.489626 -0.445664 -0.577 95 125 159
0.492923 -0.445664 -0.577 122 151 183
0.486286 -0.426354 -0.552 166 135 130
0.474194 -0.407817 -0.528 167 137 126
0.470885 -0.40241 -0.521 175 143 128
0.466851 -0.372288 -0.482 191 147 122
0.475934 -0.363791 -0.471 190 143 115
0.477729 -0.363791 -0.471 191 144 118
0.485527 -0.362247 -0.469 179 134 105
0.491038 -0.363019 -0.47 172 126 92
0.03784 -0.399531 -0.516 199 156 124
0.0521752 -0.396434 -0.512 201 158 123
0.0760238 -0.398757 -0.515 187 137 112
0.0986143 -0.411146 -0.531 162 116 101
0.108083 -0.420437 -0.543 136 99 90
0.109519 -0.421986 -0.545 129 98 93
0.131833 -0.437471 -0.565 115 116 137
0.132674 -0.436697 -0.564 75 92 136
0.135897 -0.436697 -0.564 86 113 166
0.469029 -0.445989 -0.576 84 102 142
0.478635 -0.446763 -0.577 208 210 209
0.489626 -0.446763 -0.577 98 128 162
0.490971 -0.445989 -0.576 128 157 187
0.48308 -0.42276 -0.546 164 135 129
0.4734 -0.407274 -0.526 168 139 125
0.468474 -0.397983 -0.514 180 143 125
0.465298 -0.381723 -0.493 185 147 124
0.465291 -0.380949 -0.492 187 146 124
0.468508 -0.370883 -0.479 192 151 123
0.470186 -0.369334 -0.477 195 151 122
0.47345 -0.366237 -0.473 192 147 118
0.478505 -0.363914 -0.47 186 141 112
0.48106 -0.36314 -0.469 185 139 113
0.481817 -0.362366 -0.468 187 140 110
0.495671 -0.364689 -0.471 172 127 98
0.500479 -0.366237 -0.473 167 121 97
0.0318 -0.411381 -0.53 195 154 126
0.0325619 -0.408276 -0.526 196 155 127
0.0342371 -0.404395 -0.521 196 155 125
0.0360133 -0.402067 -0.518 197 156 124
0.0548857 -0.395857 -0.51 200 155 122
0.0558571 -0.395857 -0.51 199 154 121
0.0770048 -0.399738 -0.515 185 138 112
0.0846857 -0.403619 -0.52 182 136 112
0.097419 -0.411381 -0.53 162 115 97
0.128377 -0.437771 -0.564 66 67 87
0.132439 -0.436995 -0.563 53 81 128
0.47232 -0.447086 -0.576 201 208 218
0.48963 -0.432338 -0.557 163 135 123
0.472598 -0.406724 -0.524 172 141 123
0.470147 -0.402067 -0.518 175 142 123
0.467657 -0.372571 -0.48 194 150 125
0.471833 -0.36869 -0.475 189 145 116
0.475037 -0.365586 -0.471 192 146 120
0.476593 -0.364033 -0.469 192 142 115
0.480788 -0.362481 -0.467 185 140 109
0.487166 -0.363257 -0.468 176 131 100
0.03162 -0.410056 -0.527 191 152 123
0.0332448 -0.405388 -0.521 193 152 124
0.0404724 -0.398385 -0.512 205 161 132
0.0760238 -0.400719 -0.515 186 138 115
0.0925 -0.4085 -0.525 171 127 102
0.09504 -0.410834 -0.528 168 123 100
0.102606 -0.417059 -0.536 143 105 96
0.121499 -0.43729 -0.562 62 65 82
0.138873 -0.438068 -0.563 120 131 161
0.431996 -0.44507 -0.572 136 160 196
0.444757 -0.445849 -0.573 223 228 234
0.448031 -0.445849 -0.573 94 114 149
0.471223 -0.448183 -0.576 119 141 182
0.478903 -0.448183 -0.576 199 203 204
0.479209 -0.417837 -0.537 165 137 123
0.466799 -0.374264 -0.481 191 149 124
0.467595 -0.372708 -0.479 192 148 121
0.47084 -0.368817 -0.474 186 142 115
0.471649 -0.368039 -0.473 191 145 119
0.516429 -0.375042 -0.482 148 117 89
0.0290429 -0.4173 -0.535 191 151 125
0.0305581 -0.41028 -0.526 189 147 122
0.0443733 -0.39936 -0.512 199 156 124
0.0539143 -0.3978 -0.51 197 152 121
0.0676467 -0.39858 -0.511 190 143 117
0.0687543 -0.39936 -0.512 189 142 116
0.0697295 -0.39936 -0.512 189 142 116
0.0739181 -0.40092 -0.514 188 138 113
0.0770048 -0.4017 -0.515 188 138 113
0.0868333 -0.40638 -0.521 178 130 107
0.129222 -0.43914 -0.563 121 127 149
0.435265 -0.44616 -0.572 220 230 240
0.439623 -0.44616 -0.572 207 210 215
0.451306 -0.44694 -0.573 189 207 231
0.466024 -0.4485 -0.575 189 205 218
0.477549 -0.41652 -0.534 165 136 122
0.475092 -0.41262 -0.529 168 139 123
0.4653 -0.3861 -0.495 185 147 124
0.465298 -0.38454 -0.493 182 144 121
0.47155 -0.36816 -0.472 197 151 125
0.473243 -0.36738 -0.471 189 143 117
0.47736 -0.36504 -0.468 189 144 115
0.481677 -0.36426 -0.467 183 138 109
0.487014 -0.36426 -0.467 176 131 98
0.0339086 -0.403463 -0.516 197 153 126
0.0472067 -0.399553 -0.511 203 158 127
0.0490571 -0.398771 -0.51 203 158 127
0.0529429 -0.398771 -0.51 199 152 124
0.0616857 -0.398771 -0.51 194 147 119
0.0801029 -0.403463 -0.516 185 135 110
0.09504 -0.412846 -0.528 164 122 97
0.102797 -0.419883 -0.537 143 105 96
0.104207 -0.421447 -0.539 135 104 101
0.105624 -0.42301 -0.541 132 101 98
0.126005 -0.440212 -0.563 89 97 118
0.133274 -0.43943 -0.562 52 73 104
0.137556 -0.43943 -0.562 176 183 211
0.141838 -0.43943 -0.562 118 135 163
0.455373 -0.448813 -0.574 215 221 235
0.456467 -0.448813 -0.574 201 207 221
0.464359 -0.385479 -0.493 183 145 124
0.464354 -0.384697 -0.492 181 143 122
0.464333 -0.383133 -0.49 182 144 121
0.465015 -0.376878 -0.482 186 146 121
0.466683 -0.374532 -0.479 192 150 125
0.468369 -0.372969 -0.477 192 148 123
0.468293 -0.372187 -0.476 193 149 124
0.47084 -0.370623 -0.474 189 145 118
0.47545 -0.36515 -0.467 190 146 119
0.485084 -0.364368 -0.466 177 133 98
0.489683 -0.36515 -0.467 177 133 98
0.0278667 -0.416987 -0.532 194 150 125
0.0346886 -0.402094 -0.513 199 153 127
0.0374733 -0.400527 -0.511 205 159 133
0.0403933 -0.400527 -0.511 208 163 134
0.0413667 -0.400527 -0.511 207 160 132
0.0480857 -0.399743 -0.51 202 155 125
0.0490571 -0.399743 -0.51 204 157 127
0.0626571 -0.399743 -0.51 194 147 119
0.06862 -0.400527 -0.511 193 143 118
0.0748971 -0.402878 -0.514 188 138 113
0.131133 -0.440501 -0.562 103 108 128
0.449429 -0.448339 -0.572 202 206 217
0.46084 -0.449907 -0.574 167 189 238
0.466307 -0.449907 -0.574 209 216 224
0.48052 -0.449907 -0.574 205 210 214
0.481613 -0.449907 -0.574 205 210 214
0.48708 -0.449907 -0.574 109 135 170
0.48412 -0.42796 -0.546 162 134 120
0.476773 -0.416987 -0.532 164 136 122
0.466002 -0.396608 -0.506 181 144 125
0.465155 -0.394256 -0.503 180 143 124
0.464333 -0.384067 -0.49 182 144 123
0.464214 -0.380148 -0.485 187 146 124
0.468131 -0.371526 -0.474 194 150 123
0.469034 -0.371526 -0.474 191 147 120
0.470651 -0.369958 -0.472 194 150 123
0.473794 -0.366823 -0.468 189 145 116
0.477095 -0.365255 -0.466 184 139 110
0.481386 -0.364471 -0.465 183 138 107
0.51198 -0.373877 -0.477 146 115 87
0.0374 -0.400714 -0.51 206 159 131
0.0412857 -0.400714 -0.51 205 158 132
0.0432286 -0.400714 -0.51 203 156 130
0.06862 -0.4015 -0.511 193 143 118
0.0964095 -0.416429 -0.53 157 116 98
0.12 -0.44 -0.56 66 56 67
0.12471 -0.441571 -0.562 109 109 121
0.434829 -0.447857 -0.57 228 227 241
0.461933 -0.451 -0.574 201 207 221
0.463027 -0.451 -0.574 213 219 233
0.465213 -0.451 -0.574 211 221 230
0.4674 -0.451 -0.574 200 209 216
0.468493 -0.451 -0.574 212 221 230
0.469587 -0.451 -0.574 205 214 223
0.476409 -0.450214 -0.573 201 207 219
0.48822 -0.4345 -0.553 160 133 126
0.482494 -0.426643 -0.543 163 135 123
0.465274 -0.391286 -0.498 182 144 125
0.468946 -0.371643 -0.473 193 149 122
0.469752 -0.370857 -0.472 192 148 121
0.472238 -0.369286 -0.47 189 144 115
0.473794 -0.367714 -0.468 190 146 117
0.482271 -0.365357 -0.465 180 137 105
0.485814 -0.365357 -0.465 178 135 101
0.488471 -0.365357 -0.465 181 136 105
0.501781 -0.369286 -0.47 150 116 89
0.504815 -0.370857 -0.472 151 117 90
0.0258886 -0.419801 -0.533 191 149 125
0.0364286 -0.401686 -0.51 205 160 131
0.0451714 -0.401686 -0.51 201 154 128
0.0471143 -0.401686 -0.51 201 156 127
0.0518695 -0.400898 -0.509 199 152 124
0.06862 -0.402473 -0.511 192 142 119
0.0770048 -0.405624 -0.515 188 138 115
0.0989857 -0.419801 -0.533 148 110 99
0.101585 -0.422164 -0.536 139 106 97
0.127694 -0.441854 -0.561 153 155 168
0.133867 -0.441067 -0.56 140 138 159
0.1392 -0.441067 -0.56 193 198 217
0.44973 -0.44973 -0.571 230 229 243
0.46222 -0.451306 -0.573 217 218 236
0.464403 -0.451306 -0.573 213 226 235
0.465494 -0.451306 -0.573 213 222 231
0.476409 -0.451306 -0.573 199 207 220
0.4775 -0.451306 -0.573 199 207 220
0.479683 -0.451306 -0.573 204 211 217
0.489103 -0.436341 -0.554 157 132 125
0.466771 -0.401686 -0.51 174 138 122
0.467387 -0.374907 -0.476 196 152 127
0.468131 -0.373331 -0.474 193 149 122
0.469654 -0.370969 -0.471 192 148 121
0.472903 -0.368606 -0.468 191 145 119
0.494848 -0.36703 -0.466 166 122 93
0.0282286 -0.410552 -0.52 193 148 119
0.0411238 -0.401078 -0.508 202 155 127
0.0450829 -0.401868 -0.509 202 155 127
0.0615648 -0.401868 -0.509 197 147 120
0.0758762 -0.405815 -0.514 190 141 111
0.0812429 -0.408184 -0.517 185 138 110
0.0989857 -0.420816 -0.533 141 108 99
0.124267 -0.442133 -0.56 137 134 141
0.137067 -0.442133 -0.56 198 196 207
0.486472 -0.451608 -0.572 125 141 174
0.487562 -0.451608 -0.572 121 144 185
0.475092 -0.417658 -0.529 168 139 125
0.4735 -0.4145 -0.525 167 135 122
0.467627 -0.404236 -0.512 173 137 121
0.464297 -0.385288 -0.488 185 144 122
0.467229 -0.374234 -0.474 189 150 121
0.469752 -0.372655 -0.472 191 150 122
0.472903 -0.369497 -0.468 190 144 118
0.476815 -0.366339 -0.464 184 139 110
0.499646 -0.369497 -0.468 153 117 91
0.50554 -0.371866 -0.471 150 113 86
0.0289381 -0.407586 -0.515 194 147 119
0.0440267 -0.402046 -0.508 203 156 128
0.0459619 -0.402046 -0.508 203 156 128
0.0726552 -0.405211 -0.512 194 147 117
0.0964095 -0.419457 -0.53 149 113 101
0.0991714 -0.422623 -0.534 137 107 99
0.104593 -0.428163 -0.541 126 102 98
0.126174 -0.442409 -0.559 156 157 161
0.133628 -0.442409 -0.559 130 125 132
0.454081 -0.451906 -0.571 224 231 237
0.456256 -0.451906 -0.571 207 212 218
0.460324 -0.452697 -0.572 227 217 228
0.47013 -0.452697 -0.572 211 212 198
0.471219 -0.452697 -0.572 186 194 207
0.473398 -0.452697 -0.572 89 104 135
0.478846 -0.452697 -0.572 194 206 222
0.487562 -0.452697 -0.572 106 129 171
0.470147 -0.40996 -0.518 174 141 126
0.466002 -0.400463 -0.506 178 141 123
0.46426 -0.396506 -0.501 178 141 123
0.463393 -0.39334 -0.497 182 144 125
0.463419 -0.390966 -0.494 182 144 125
0.464359 -0.390174 -0.493 179 141 120
0.464354 -0.389383 -0.492 177 139 118
0.463946 -0.379094 -0.479 190 148 124
0.465643 -0.377511 -0.477 189 147 122
0.465573 -0.37672 -0.476 190 148 123
0.468853 -0.373554 -0.472 194 150 125
0.47916 -0.36564 -0.462 180 135 106
0.598462 -0.431329 -0.545 196 198 195
0.0210076 -0.426813 -0.538 195 149 125
0.0297448 -0.406187 -0.512 195 148 120
0.0440267 -0.403013 -0.508 204 157 127
0.0527352 -0.403013 -0.508 197 152 119
0.0566057 -0.403013 -0.508 186 143 109
0.0575733 -0.403013 -0.508 188 145 111
0.0665429 -0.4046 -0.51 194 149 118
0.0736305 -0.406187 -0.512 194 147 117
0.0778343 -0.407773 -0.514 187 140 112
0.0801029 -0.40936 -0.516 184 137 111
0.09522 -0.419673 -0.529 154 112 96
0.100564 -0.425227 -0.536 135 105 97
0.117446 -0.44268 -0.558 79 69 70
0.1232 -0.444267 -0.56 139 134 138
0.127239 -0.443473 -0.559 164 165 170
0.1302 -0.44268 -0.558 146 147 152
0.134451 -0.44268 -0.558 126 119 126
0.135514 -0.44268 -0.558 161 154 161
0.138703 -0.44268 -0.558 200 204 207
0.435467 -0.450613 -0.568 190 204 231
0.460607 -0.452993 -0.571 218 226 228
0.467132 -0.452993 -0.571 179 174 170
0.483204 -0.453787 -0.572 180 185 205
0.485622 -0.452993 -0.571 148 163 192
0.48671 -0.452993 -0.571 95 126 170
0.47599 -0.420467 -0.53 163 135 124
0.466326 -0.37604 -0.474 190 149 121
0.468757 -0.37366 -0.471 189 145 116
0.475788 -0.367313 -0.463 181 137 108
0.512548 -0.376833 -0.475 150 114 90
0.606048 -0.436333 -0.55 202 202 194
0.0218686 -0.424657 -0.534 197 149 129
0.0277943 -0.407162 -0.512 195 148 120
0.0296867 -0.406367 -0.511 194 147 119
0.0343505 -0.403981 -0.508 202 155 125
0.0458714 -0.403186 -0.507 202 155 125
0.0516657 -0.403186 -0.507 196 151 118
0.0614438 -0.403981 -0.508 189 146 111
0.063379 -0.403981 -0.508 188 145 111
0.0673819 -0.404776 -0.509 192 149 117
0.0684857 -0.405571 -0.51 191 148 116
0.0778343 -0.408752 -0.514 185 138 110
0.0801029 -0.410343 -0.516 182 136 110
0.0868333 -0.414319 -0.521 171 125 102
0.0915 -0.4175 -0.525 167 120 102
0.117446 -0.443743 -0.558 94 85 86
0.132326 -0.443743 -0.558 186 184 195
0.4522 -0.453286 -0.57 219 228 235
0.462782 -0.454081 -0.571 225 230 233
0.46822 -0.454081 -0.571 220 216 217
0.473658 -0.454081 -0.571 128 139 167
0.475833 -0.454081 -0.571 87 102 131
0.480993 -0.428633 -0.539 159 132 123
0.4743 -0.41909 -0.527 163 135 124
0.463377 -0.396029 -0.498 179 142 123
0.465423 -0.376943 -0.474 186 145 117
0.466326 -0.376943 -0.474 190 149 121
0.468657 -0.373762 -0.47 185 141 112
0.469337 -0.372171 -0.468 194 149 120
0.471892 -0.371376 -0.467 191 146 117
0.477962 -0.36581 -0.46 179 135 106
0.0314476 -0.404949 -0.508 195 148 118
0.0468371 -0.404151 -0.507 199 154 121
0.0497343 -0.404151 -0.507 197 152 119
0.0704286 -0.406543 -0.51 191 146 115
0.0725133 -0.40734 -0.511 189 144 113
0.0789667 -0.410529 -0.515 180 135 106
0.0801029 -0.411326 -0.516 182 136 110
0.118509 -0.444806 -0.558 108 102 102
0.119571 -0.444806 -0.558 121 115 115
0.140576 -0.444009 -0.557 206 209 216
0.457629 -0.454371 -0.57 217 220 227
0.458714 -0.454371 -0.57 218 223 229
0.4902 -0.454371 -0.57 49 86 156
0.493675 -0.453574 -0.569 143 158 181
0.469314 -0.411326 -0.516 173 140 125
0.463357 -0.397774 -0.499 179 142 123
0.4634 -0.3906 -0.49 180 142 119
0.46332 -0.387411 -0.486 185 144 122
0.46322 -0.38502 -0.483 188 148 123
0.46405 -0.383426 -0.481 189 149 124
0.466326 -0.377846 -0.474 191 149 124
0.469994 -0.371469 -0.466 187 141 115
0.477086 -0.366686 -0.46 180 135 106
0.478671 -0.365889 -0.459 179 134 105
0.482169 -0.365889 -0.459 175 131 102
0.483917 -0.365889 -0.459 169 125 96
0.0399981 -0.404318 -0.506 202 156 123
0.04394 -0.405117 -0.507 201 156 123
0.0534914 -0.404318 -0.506 190 147 113
0.0573467 -0.404318 -0.506 188 145 111
0.0592743 -0.404318 -0.506 191 148 114
0.0643467 -0.405916 -0.508 193 148 115
0.0736305 -0.409112 -0.512 189 142 114
0.0903276 -0.418701 -0.524 164 117 97
0.0916743 -0.420299 -0.526 164 118 102
0.116174 -0.44507 -0.557 96 88 86
0.119571 -0.445869 -0.558 129 124 121
0.461971 -0.455457 -0.57 219 224 228
0.4674 -0.455457 -0.57 209 210 215
0.469571 -0.455457 -0.57 210 213 218
0.489114 -0.455457 -0.57 56 97 163
0.482638 -0.433084 -0.542 157 130 121
0.471789 -0.417103 -0.522 166 136 125
0.462471 -0.395529 -0.495 178 141 122
0.463346 -0.389136 -0.487 182 144 123
0.46322 -0.38594 -0.483 188 147 125
0.463134 -0.384342 -0.481 189 148 126
0.462977 -0.381945 -0.478 189 149 123
0.46452 -0.378749 -0.474 187 146 118
0.466963 -0.376351 -0.471 188 147 119
0.468446 -0.373954 -0.468 192 148 121
0.473142 -0.369959 -0.463 187 142 113
0.473732 -0.368361 -0.461 186 141 112
0.481294 -0.366763 -0.459 180 137 105
0.500871 -0.371557 -0.465 146 109 83
0.03048 -0.406884 -0.508 198 149 117
0.0313857 -0.406083 -0.507 198 152 119
0.0438533 -0.405282 -0.506 202 157 126
0.0467448 -0.405282 -0.506 201 156 125
0.0486724 -0.405282 -0.506 199 154 121
0.0573467 -0.405282 -0.506 188 145 111
0.0583105 -0.405282 -0.506 189 146 112
0.0622886 -0.406083 -0.507 195 150 117
0.0683514 -0.407685 -0.509 194 149 118
0.0694571 -0.408486 -0.51 194 149 118
0.0704286 -0.408486 -0.51 192 147 116
0.0725133 -0.409287 -0.511 189 144 113
0.0778343 -0.41169 -0.514 182 136 110
0.0930286 -0.422903 -0.528 155 112 96
0.0942124 -0.423704 -0.529 152 110 96
0.117235 -0.44613 -0.557 113 105 102
0.118296 -0.44613 -0.557 123 117 117
0.129733 -0.44533 -0.556 171 171 183
0.4455 -0.45414 -0.567 212 209 204
0.461971 -0.456543 -0.57 210 217 227
0.473083 -0.455742 -0.569 187 198 220
0.491508 -0.455742 -0.569 49 92 147
0.491726 -0.454941 -0.568 77 120 175
0.481886 -0.432514 -0.54 158 131 122
0.470147 -0.414893 -0.518 170 138 123
0.467627 -0.410088 -0.512 173 137 121
0.462917 -0.382054 -0.477 187 147 122
0.465971 -0.376448 -0.47 188 147 119
0.468553 -0.375647 -0.469 191 147 118
0.468446 -0.374846 -0.468 192 148 119
0.4743 -0.367637 -0.459 182 138 109
0.476756 -0.366836 -0.458 181 137 108
0.49676 -0.37004 -0.462 139 108 80
0.02408 -0.414274 -0.516 192 151 121
0.0276314 -0.408654 -0.509 193 146 116
0.0285448 -0.407851 -0.508 194 149 116
0.0515638 -0.406246 -0.506 195 150 119
0.0525276 -0.406246 -0.506 192 147 116
0.0632543 -0.407049 -0.507 195 150 119
0.0746057 -0.411063 -0.512 185 137 114
0.0879943 -0.419091 -0.522 169 127 105
0.0930286 -0.423909 -0.528 154 110 97
0.0967733 -0.42712 -0.532 139 105 96
0.118084 -0.446389 -0.556 128 122 122
0.120418 -0.447191 -0.557 142 140 145
0.443636 -0.454417 -0.566 220 222 221
0.44982 -0.45522 -0.567 213 212 226
0.452777 -0.456023 -0.568 205 211 223
0.454941 -0.456023 -0.568 166 175 192
0.462245 -0.456826 -0.569 205 209 218
0.464678 -0.456023 -0.568 198 201 208
0.47525 -0.456826 -0.569 142 155 189
0.470147 -0.41588 -0.518 169 137 124
0.46512 -0.40464 -0.504 175 140 121
0.462478 -0.396611 -0.494 176 139 120
0.46154 -0.394203 -0.491 179 141 120
0.463346 -0.390991 -0.487 179 143 119
0.465342 -0.379751 -0.473 192 151 123
0.466156 -0.378949 -0.472 188 149 120
0.466066 -0.378146 -0.471 189 150 121
0.471378 -0.371723 -0.463 184 140 111
0.472551 -0.368511 -0.459 185 141 112
0.475011 -0.367709 -0.458 184 140 111
0.482679 -0.366906 -0.457 158 123 95
0.48355 -0.366906 -0.457 158 123 95
0.48529 -0.366906 -0.457 150 116 89
0.0322876 -0.40721 -0.506 202 155 125
0.0342152 -0.40721 -0.506 203 156 126
0.0514619 -0.406405 -0.505 195 148 118
0.0621657 -0.40721 -0.506 196 152 117
0.0823867 -0.416867 -0.518 177 131 108
0.0905 -0.4225 -0.525 159 113 98
0.0942124 -0.425719 -0.529 147 109 96
0.0995429 -0.431352 -0.536 124 100 98
0.1147 -0.446643 -0.555 100 97 88
0.118084 -0.447448 -0.556 127 126 124
0.124214 -0.446643 -0.555 160 164 175
0.135843 -0.446643 -0.555 202 201 206
0.137957 -0.446643 -0.555 209 209 207
0.43209 -0.45469 -0.565 65 97 154
0.457105 -0.457105 -0.568 168 181 200
0.459269 -0.457105 -0.568 185 192 210
0.462514 -0.457105 -0.568 206 208 220
0.46576 -0.457105 -0.568 183 189 189
0.474415 -0.457105 -0.568 194 206 232
0.48307 -0.457105 -0.568 99 131 192
0.484152 -0.457105 -0.568 88 122 183
0.486089 -0.45791 -0.569 57 91 152
0.48934 -0.45791 -0.569 24 65 129
0.484419 -0.43779 -0.544 150 126 116
0.4752 -0.424914 -0.528 161 134 123
0.470971 -0.418476 -0.52 167 138 124
0.468474 -0.413648 -0.514 169 137 122
0.461543 -0.395943 -0.492 176 140 118
0.46322 -0.3887 -0.483 184 147 121
0.463179 -0.387895 -0.482 184 144 119
0.463134 -0.38709 -0.481 185 145 120
0.463888 -0.384676 -0.478 187 147 121
0.46376 -0.383067 -0.476 188 149 120
0.46369 -0.382262 -0.475 189 148 120
0.46766 -0.377433 -0.469 190 148 123
0.471976 -0.370995 -0.461 182 138 109
0.476411 -0.366971 -0.456 176 144 119
0.479017 -0.366971 -0.456 161 129 104
0.0204219 -0.421887 -0.523 189 146 112
0.0229629 -0.41382 -0.513 193 148 117
0.0437667 -0.407367 -0.505 205 156 124
0.0746057 -0.413013 -0.512 187 140 112
0.09558 -0.42834 -0.531 142 106 94
0.125271 -0.4477 -0.555 146 152 166
0.45522 -0.45738 -0.567 155 168 184
0.461432 -0.458187 -0.568 168 170 183
0.48307 -0.458187 -0.568 69 105 165
0.484419 -0.438827 -0.544 150 127 119
0.472692 -0.421887 -0.523 165 136 122
0.470971 -0.419467 -0.52 168 136 121
0.465957 -0.40898 -0.507 176 141 122
0.462461 -0.400107 -0.496 175 140 120
0.461533 -0.395267 -0.49 178 142 120
0.462438 -0.393653 -0.488 179 143 121
0.465873 -0.378327 -0.469 194 153 125
0.468219 -0.375907 -0.466 189 147 122
0.469614 -0.373487 -0.463 194 150 125
0.475543 -0.36784 -0.456 171 136 106
0.483167 -0.367033 -0.455 117 91 78
0.0265571 -0.409946 -0.507 199 154 121
0.0351095 -0.408329 -0.505 203 157 124
0.0370333 -0.408329 -0.505 201 157 122
0.0379952 -0.408329 -0.505 199 153 119
0.05232 -0.40752 -0.504 192 145 115
0.0661514 -0.409946 -0.507 196 149 119
0.0789667 -0.416414 -0.515 175 127 107
0.0801029 -0.417223 -0.516 173 126 106
0.1221 -0.448757 -0.555 131 133 146
0.12399 -0.447949 -0.554 135 138 155
0.126101 -0.447949 -0.554 127 134 153
0.134543 -0.447949 -0.554 170 169 183
0.437771 -0.456034 -0.564 225 221 218
0.446081 -0.456843 -0.565 214 218 219
0.46494 -0.45846 -0.567 170 170 172
0.47142 -0.45846 -0.567 201 201 203
0.477661 -0.459269 -0.568 69 97 147
0.480907 -0.459269 -0.568 61 95 158
0.48546 -0.45846 -0.567 29 65 123
0.462367 -0.392157 -0.485 182 144 123
0.46452 -0.383263 -0.474 186 146 120
0.464441 -0.382454 -0.473 185 145 119
0.47022 -0.372751 -0.461 189 143 117
0.470076 -0.371943 -0.46 186 142 115
0.471363 -0.369517 -0.457 174 137 111
0.50116 -0.37356 -0.462 68 50 48
0.04464 -0.40848 -0.504 201 155 122
0.05808 -0.40848 -0.504 195 150 119
0.0918486 -0.427121 -0.527 148 109 94
0.12188 -0.449004 -0.554 114 116 129
0.445291 -0.457109 -0.564 225 226 228
0.447157 -0.457919 -0.565 211 212 214
0.448233 -0.457919 -0.565 191 199 212
0.455495 -0.45873 -0.566 181 189 200
0.45873 -0.45873 -0.566 190 194 206
0.48762 -0.45954 -0.567 30 64 127
0.4887 -0.45954 -0.567 30 64 127
0.469314 -0.418206 -0.516 169 136 121
0.46854 -0.415774 -0.513 167 134 117
0.462335 -0.39227 -0.484 182 144 121
0.464358 -0.382545 -0.472 185 145 120
0.465771 -0.379303 -0.468 191 149 125
0.475187 -0.367956 -0.454 83 64 57
0.488367 -0.368767 -0.455 41 31 32
0.490309 -0.369577 -0.456 41 35 37
0.491177 -0.369577 -0.456 42 36 38
0.0166257 -0.42975 -0.529 188 145 111
0.0312 -0.40944 -0.504 202 157 124
0.04848 -0.40944 -0.504 195 149 116
0.0620429 -0.410252 -0.505 197 152 121
0.0640933 -0.411065 -0.506 196 151 120
0.0702905 -0.413502 -0.509 191 146 113
0.0893295 -0.425688 -0.524 158 112 99
0.110926 -0.448434 -0.552 84 74 75
0.120825 -0.450059 -0.554 144 144 152
0.456573 -0.459808 -0.566 201 205 216
0.457651 -0.459808 -0.566 208 211 220
0.482448 -0.459808 -0.566 54 86 143
0.488916 -0.459808 -0.566 40 79 136
0.476889 -0.431374 -0.531 159 131 119
0.472692 -0.424875 -0.523 162 133 119
0.463333 -0.40619 -0.5 174 139 120
0.463357 -0.405378 -0.499 174 139 120
0.4623 -0.39238 -0.483 184 146 123
0.465076 -0.381819 -0.47 184 144 119
0.467331 -0.37857 -0.466 187 145 120
0.479317 -0.368009 -0.453 42 31 29
0.505981 -0.376945 -0.464 38 28 29
0.0190914 -0.418543 -0.514 190 149 119
0.0245286 -0.411214 -0.505 207 157 122
0.0503 -0.409586 -0.503 193 148 115
0.06096 -0.4104 -0.504 197 152 119
0.0723714 -0.415286 -0.51 189 144 113
0.0895 -0.4275 -0.525 155 109 96
0.114287 -0.4503 -0.553 116 116 114
0.120607 -0.4503 -0.553 159 160 165
0.12166 -0.4503 -0.553 144 147 156
0.444502 -0.458443 -0.563 225 224 230
0.4633 -0.460071 -0.565 217 217 219
0.4752 -0.429943 -0.528 160 132 121
0.471054 -0.422614 -0.519 163 133 122
0.469314 -0.420171 -0.516 166 134 121
0.462461 -0.403886 -0.496 177 140 122
0.46248 -0.400629 -0.492 177 139 120
0.470167 -0.3705 -0.455 81 57 55
0.48622 -0.368871 -0.453 34 25 28
0.490967 -0.3705 -0.455 34 25 30
0.492914 -0.371314 -0.456 35 26 31
0.493783 -0.371314 -0.456 37 28 33
0.497693 -0.372943 -0.458 38 29 32
0.500743 -0.374571 -0.46 38 29 32
0.0253895 -0.410544 -0.503 207 154 122
0.0359286 -0.410544 -0.503 200 151 119
0.0426352 -0.410544 -0.503 202 153 121
0.0493419 -0.410544 -0.503 193 147 114
0.0521124 -0.409728 -0.502 196 151 118
0.0589229 -0.410544 -0.503 197 152 121
0.0661514 -0.413809 -0.507 194 149 118
0.0835343 -0.423603 -0.519 171 126 105
0.114287 -0.451353 -0.553 120 120 120
0.123543 -0.450537 -0.552 170 172 184
0.1288 -0.450537 -0.552 170 172 185
0.449589 -0.460331 -0.564 225 224 229
0.457919 -0.461148 -0.565 221 219 230
0.467605 -0.461148 -0.565 172 172 172
0.480519 -0.461148 -0.565 149 169 202
0.481595 -0.461148 -0.565 105 136 182
0.491281 -0.461148 -0.565 71 111 160
0.477787 -0.434213 -0.532 157 130 121
0.471877 -0.425235 -0.521 160 130 119
0.46149 -0.397485 -0.487 177 139 120
0.46138 -0.39422 -0.483 184 146 125
0.462261 -0.393404 -0.482 181 143 122
0.463459 -0.385242 -0.472 185 144 122
0.46583 -0.376264 -0.461 183 141 116
0.472232 -0.368918 -0.452 32 22 31
0.474815 -0.368918 -0.452 38 28 36
0.476537 -0.368918 -0.452 29 20 25
0.478919 -0.368102 -0.451 28 23 27
0.484286 -0.368918 -0.452 27 25 28
0.489888 -0.37055 -0.454 25 23 28
0.0136029 -0.432772 -0.529 189 148 118
0.0154114 -0.427046 -0.522 189 148 116
0.0291638 -0.410684 -0.502 202 157 124
0.0455095 -0.411502 -0.503 196 150 117
0.0503 -0.411502 -0.503 194 148 115
0.120389 -0.451589 -0.552 174 173 178
0.444783 -0.45977 -0.562 226 226 236
0.458183 -0.461406 -0.564 221 221 231
0.461406 -0.461406 -0.564 219 219 227
0.465703 -0.461406 -0.564 213 214 216
0.482671 -0.462224 -0.565 85 114 154
0.461542 -0.403321 -0.493 178 139 122
0.462853 -0.389413 -0.476 185 144 122
0.463781 -0.381232 -0.466 183 143 118
0.463558 -0.379596 -0.464 186 146 121
