ply
format ascii 1.0
comment Created by Open3D
element vertex 1292
property double x
property double y
property double z
property uchar red
property uchar green
property uchar blue
end_header
0.481386 -0.261729 -0.465 179 136 119
0.115223 -0.320785 -0.568 192 139 131
0.11913 -0.319655 -0.566 190 135 128
0.129222 -0.317961 -0.563 185 131 119
0.157662 -0.31909 -0.565 148 94 84
0.168829 -0.321914 -0.57 142 87 80
0.192449 -0.326997 -0.579 124 77 71
0.211838 -0.33321 -0.59 112 68 67
0.226443 -0.341681 -0.605 108 72 72
0.251799 -0.356365 -0.631 106 111 149
0.257809 -0.356365 -0.631 172 171 202
0.2646 -0.3558 -0.63 183 186 217
0.267 -0.3558 -0.63 143 157 192
0.293866 -0.356365 -0.631 192 194 215
0.302279 -0.356365 -0.631 231 238 254
0.308289 -0.356365 -0.631 231 239 255
0.30949 -0.356365 -0.631 221 232 254
0.328038 -0.35693 -0.632 250 254 255
0.413789 -0.360318 -0.638 221 228 247
0.41865 -0.360318 -0.638 180 178 191
0.441214 -0.360883 -0.639 117 153 201
0.443649 -0.360883 -0.639 66 105 160
0.450246 -0.360318 -0.638 201 207 221
0.470426 -0.360883 -0.639 108 148 200
0.476038 -0.361448 -0.64 105 138 192
0.483352 -0.361448 -0.64 152 152 154
0.484571 -0.361448 -0.64 190 190 192
0.490667 -0.361448 -0.64 73 101 151
0.493105 -0.361448 -0.64 57 85 135
0.496762 -0.361448 -0.64 64 96 155
0.506514 -0.361448 -0.64 63 93 147
0.518705 -0.361448 -0.64 197 197 209
0.451087 -0.280687 -0.497 173 141 130
0.449305 -0.278992 -0.494 179 143 131
0.447323 -0.267132 -0.473 193 151 129
0.448067 -0.265438 -0.47 197 152 131
0.46023 -0.263179 -0.466 193 148 129
0.464442 -0.26205 -0.464 191 146 127
0.47212 -0.26092 -0.462 181 138 119
0.47388 -0.26092 -0.462 178 135 116
0.47564 -0.26092 -0.462 176 133 114
0.50244 -0.267697 -0.474 156 118 105
1.15782 -0.365401 -0.647 203 206 189
0.110071 -0.325833 -0.575 191 137 127
0.131969 -0.3179 -0.561 186 128 117
0.133037 -0.3179 -0.561 185 127 116
0.136 -0.317333 -0.56 182 124 112
0.1424 -0.317333 -0.56 179 121 107
0.177357 -0.3247 -0.573 133 83 74
0.187063 -0.3264 -0.576 127 80 70
0.255405 -0.357567 -0.631 80 82 120
0.3054 -0.357 -0.63 201 203 226
0.316702 -0.357567 -0.631 198 203 225
0.346095 -0.358133 -0.632 232 246 255
0.35026 -0.3587 -0.633 247 255 255
0.390071 -0.359833 -0.635 238 237 251
0.391281 -0.359833 -0.635 237 236 250
0.39249 -0.359833 -0.635 234 236 249
0.41314 -0.360967 -0.637 218 225 244
0.414353 -0.360967 -0.637 222 229 248
0.433767 -0.360967 -0.637 179 194 235
0.442954 -0.361533 -0.638 99 127 175
0.467259 -0.361533 -0.638 123 155 206
0.475294 -0.3621 -0.639 117 146 190
0.494324 -0.362667 -0.64 62 92 144
0.50694 -0.3621 -0.639 77 105 155
0.508157 -0.3621 -0.639 70 96 145
0.443873 -0.271433 -0.479 189 148 130
0.44472 -0.269733 -0.476 194 153 133
0.446377 -0.267467 -0.472 195 152 133
0.450687 -0.265767 -0.469 195 153 129
0.453212 -0.264633 -0.467 193 148 127
0.45668 -0.264067 -0.466 194 147 129
0.465326 -0.262933 -0.464 190 145 126
0.466087 -0.262367 -0.463 188 141 123
0.46596 -0.2618 -0.462 188 141 123
0.47564 -0.2618 -0.462 181 136 117
0.491623 -0.2652 -0.468 166 127 110
0.511543 -0.272 -0.48 153 115 102
1.15659 -0.366633 -0.647 203 205 191
0.119995 -0.321243 -0.565 192 135 126
0.124932 -0.320106 -0.563 191 134 123
0.134106 -0.318969 -0.561 182 126 113
0.141333 -0.3184 -0.56 178 122 107
0.143467 -0.3184 -0.56 174 118 101
0.146929 -0.318969 -0.561 166 110 93
0.157662 -0.321243 -0.565 151 97 87
0.159019 -0.321811 -0.566 149 95 85
0.166365 -0.323517 -0.569 144 89 82
0.170212 -0.324654 -0.571 140 88 77
0.17876 -0.32636 -0.574 134 84 75
0.191346 -0.329203 -0.579 126 79 69
0.249803 -0.357631 -0.629 160 159 177
0.285 -0.3582 -0.63 235 237 255
0.3054 -0.3582 -0.63 212 211 229
0.3102 -0.3582 -0.63 243 247 255
0.316702 -0.358769 -0.631 210 215 235
0.343688 -0.359337 -0.632 196 209 244
0.344891 -0.359337 -0.632 211 222 250
0.401589 -0.361611 -0.636 174 193 226
0.417337 -0.361611 -0.636 218 220 233
0.422729 -0.361043 -0.635 141 155 192
0.426357 -0.361043 -0.635 156 178 215
0.433086 -0.361611 -0.636 185 195 231
0.486249 -0.363317 -0.639 194 197 214
0.502071 -0.363317 -0.639 145 170 211
0.503289 -0.363317 -0.639 160 184 228
0.505723 -0.363317 -0.639 120 142 189
0.512223 -0.362749 -0.638 176 182 198
0.528849 -0.363317 -0.639 151 175 209
0.442961 -0.272346 -0.479 188 147 129
0.446377 -0.268366 -0.472 195 152 133
0.451509 -0.266091 -0.468 194 152 128
0.483002 -0.263817 -0.464 176 131 112
0.485814 -0.264386 -0.465 174 128 112
0.49446 -0.26666 -0.469 158 120 107
1.15467 -0.368434 -0.648 204 206 192
0.119783 -0.321749 -0.564 191 134 123
0.137067 -0.319467 -0.56 180 124 107
0.180167 -0.328024 -0.575 130 81 74
0.183771 -0.328594 -0.576 128 81 73
0.19422 -0.331447 -0.581 122 77 71
0.199672 -0.333158 -0.584 117 74 68
0.213633 -0.339433 -0.595 115 71 68
0.266152 -0.358259 -0.628 136 150 185
0.291736 -0.35883 -0.629 177 182 204
0.29533 -0.35883 -0.629 240 244 255
0.297727 -0.35883 -0.629 243 246 253
0.300123 -0.35883 -0.629 244 247 254
0.301321 -0.35883 -0.629 243 247 255
0.321 -0.3594 -0.63 206 213 241
0.3222 -0.3594 -0.63 235 242 255
0.341942 -0.35997 -0.631 183 193 229
0.354522 -0.360541 -0.632 180 189 204
0.398538 -0.362252 -0.635 168 178 203
0.426893 -0.361682 -0.634 184 204 229
0.437931 -0.362823 -0.636 197 209 233
0.4452 -0.362823 -0.636 121 137 173
0.465313 -0.363393 -0.637 140 171 215
0.473335 -0.363964 -0.638 108 137 181
0.479411 -0.363964 -0.638 198 205 224
0.515869 -0.363964 -0.638 163 166 173
0.517084 -0.363964 -0.638 160 160 170
0.531667 -0.363964 -0.638 162 183 214
0.445731 -0.277251 -0.486 176 140 126
0.444657 -0.270406 -0.474 193 152 132
0.44556 -0.270406 -0.474 194 151 132
0.445521 -0.269835 -0.473 191 148 129
0.47022 -0.26299 -0.461 191 144 124
1.15536 -0.369098 -0.647 203 205 191
0.10764 -0.342284 -0.598 192 146 133
0.107688 -0.33885 -0.592 192 144 134
0.127922 -0.321678 -0.562 188 130 116
0.1309 -0.321106 -0.561 185 132 116
0.134933 -0.320533 -0.56 185 132 116
0.162827 -0.325112 -0.568 137 82 75
0.17269 -0.327402 -0.572 131 81 74
0.182674 -0.329691 -0.576 127 79 75
0.18519 -0.330264 -0.577 125 77 73
0.187712 -0.330836 -0.578 121 76 70
0.209173 -0.33885 -0.592 112 73 68
0.21585 -0.342284 -0.598 113 74 69
0.243842 -0.35831 -0.626 156 148 161
0.249803 -0.360028 -0.629 172 169 180
0.255793 -0.360028 -0.629 108 113 145
0.267349 -0.359455 -0.628 130 144 179
0.287684 -0.359455 -0.628 164 169 201
0.28888 -0.359455 -0.628 171 176 205
0.303717 -0.360028 -0.629 234 236 249
0.339 -0.3606 -0.63 179 192 234
0.345548 -0.361172 -0.631 241 245 255
0.349153 -0.361172 -0.631 248 252 255
0.361172 -0.361172 -0.631 250 253 255
0.371375 -0.361745 -0.632 232 238 254
0.387637 -0.362317 -0.633 219 225 249
0.402741 -0.36289 -0.634 160 181 224
0.407571 -0.36289 -0.634 177 193 229
0.420855 -0.36289 -0.634 122 132 159
0.438452 -0.363462 -0.635 201 211 236
0.44329 -0.363462 -0.635 207 213 237
0.44571 -0.363462 -0.635 130 139 170
0.467006 -0.364034 -0.636 151 180 224
0.495647 -0.364607 -0.637 176 191 222
0.499287 -0.364607 -0.637 140 154 181
0.442929 -0.273026 -0.477 189 148 130
0.443719 -0.270736 -0.473 193 152 134
0.454814 -0.266157 -0.465 193 146 126
0.457371 -0.265585 -0.464 196 149 131
0.458255 -0.265585 -0.464 194 147 129
0.4642 -0.26444 -0.462 191 144 126
0.466708 -0.263868 -0.461 194 147 129
0.467586 -0.263868 -0.461 193 146 128
0.470076 -0.263295 -0.46 189 142 122
0.47828 -0.26444 -0.462 178 135 116
0.487586 -0.266157 -0.465 167 125 109
0.113739 -0.325046 -0.566 194 140 128
0.125781 -0.322749 -0.562 191 133 119
0.133628 -0.321026 -0.559 185 132 116
0.146929 -0.322174 -0.561 171 113 99
0.179071 -0.330214 -0.575 128 81 75
0.186611 -0.331937 -0.578 126 81 78
0.249406 -0.360651 -0.628 169 166 177
0.253397 -0.361226 -0.629 173 174 194
0.26334 -0.360077 -0.627 178 189 219
0.270506 -0.360077 -0.627 148 166 212
0.278866 -0.360077 -0.627 210 223 255
0.284837 -0.360077 -0.627 161 168 197
0.292469 -0.360651 -0.628 226 229 248
0.296057 -0.360651 -0.628 245 250 255
0.326481 -0.361226 -0.629 247 253 251
0.367182 -0.362374 -0.631 247 252 255
0.404517 -0.363523 -0.633 140 162 209
0.408134 -0.363523 -0.633 205 212 241
0.415369 -0.363523 -0.633 159 171 197
0.440871 -0.364671 -0.635 206 210 235
0.442081 -0.364671 -0.635 209 213 238
0.473063 -0.365246 -0.636 136 162 185
0.50274 -0.32562 -0.567 162 133 127
0.442947 -0.274509 -0.478 184 145 128
0.447113 -0.26934 -0.469 194 151 134
0.460795 -0.265894 -0.463 198 151 133
0.46332 -0.26532 -0.462 192 145 127
0.478123 -0.264746 -0.461 181 136 115
0.488471 -0.267043 -0.465 166 126 114
0.495189 -0.268766 -0.468 159 119 109
0.501054 -0.270489 -0.471 156 119 110
0.109813 -0.327276 -0.568 192 136 123
0.116767 -0.325548 -0.565 195 138 127
0.121715 -0.324395 -0.563 193 137 124
0.130667 -0.322667 -0.56 190 132 118
0.131498 -0.32209 -0.559 186 130 113
0.144533 -0.322667 -0.56 170 117 101
0.147997 -0.323243 -0.561 170 114 101
0.160663 -0.327276 -0.568 145 92 86
0.169421 -0.329581 -0.572 143 90 82
0.17548 -0.330733 -0.574 133 83 76
0.176881 -0.33131 -0.575 131 81 74
0.18551 -0.333038 -0.578 126 81 75
0.239497 -0.359543 -0.624 157 146 160
0.24265 -0.360695 -0.626 159 151 164
0.287226 -0.361271 -0.627 207 214 242
0.29678 -0.361271 -0.627 247 252 255
0.315196 -0.361848 -0.628 247 253 251
0.316392 -0.361848 -0.628 242 248 246
0.33367 -0.362424 -0.629 175 191 225
0.336066 -0.362424 -0.629 195 214 255
0.37199 -0.363576 -0.631 241 251 253
0.374393 -0.363576 -0.631 246 251 255
0.411101 -0.364152 -0.632 207 212 234
0.442592 -0.365305 -0.634 214 221 247
0.491234 -0.366457 -0.636 190 198 221
0.51304 -0.366457 -0.636 131 145 172
0.516674 -0.366457 -0.636 190 207 223
0.517886 -0.366457 -0.636 203 208 227
0.444657 -0.273114 -0.474 194 153 133
0.448007 -0.270233 -0.469 191 149 127
0.447943 -0.269657 -0.468 193 151 129
0.449579 -0.268505 -0.466 198 153 132
0.453043 -0.267929 -0.465 192 147 126
0.461677 -0.266776 -0.463 197 150 130
0.48092 -0.2662 -0.462 173 130 111
1.15568 -0.368186 -0.639 201 204 187
0.120643 -0.325468 -0.563 189 135 123
0.134451 -0.322577 -0.558 186 130 113
0.144533 -0.323733 -0.56 174 118 101
0.149331 -0.32489 -0.562 163 107 94
0.17469 -0.332405 -0.575 132 82 75
0.179383 -0.332983 -0.576 129 82 74
0.195223 -0.337608 -0.584 120 77 71
0.196671 -0.338186 -0.585 120 77 71
0.207268 -0.34281 -0.593 115 78 72
0.21094 -0.345123 -0.597 114 77 71
0.279613 -0.361888 -0.626 186 199 231
0.290809 -0.362466 -0.627 236 238 253
0.301557 -0.362466 -0.627 241 246 252
0.320666 -0.362466 -0.627 218 226 239
0.35883 -0.363622 -0.629 244 249 253
0.3678 -0.3642 -0.63 247 251 254
0.400267 -0.365356 -0.632 163 187 235
0.428631 -0.365934 -0.633 214 225 247
0.441385 -0.366512 -0.634 209 216 235
0.479576 -0.36709 -0.635 146 157 189
0.489252 -0.36709 -0.635 195 199 226
0.508605 -0.36709 -0.635 193 200 218
0.509814 -0.36709 -0.635 157 165 188
0.442947 -0.27633 -0.478 184 145 128
0.442907 -0.275173 -0.476 186 147 130
0.44462 -0.273439 -0.473 196 153 134
0.446276 -0.271705 -0.47 197 154 135
0.466571 -0.265924 -0.46 189 142 122
0.4692 -0.265924 -0.46 189 142 122
0.475333 -0.265924 -0.46 181 138 119
0.48356 -0.26708 -0.462 169 128 110
0.105432 -0.34336 -0.592 199 145 135
0.11957 -0.32654 -0.563 192 138 126
0.12257 -0.32596 -0.562 191 138 124
0.128533 -0.3248 -0.56 190 137 123
0.133389 -0.32364 -0.558 181 125 110
0.137887 -0.32422 -0.559 180 122 108
0.140016 -0.32422 -0.559 182 125 108
0.159862 -0.33002 -0.569 148 94 84
0.165862 -0.33118 -0.571 140 87 79
0.176091 -0.33408 -0.576 125 78 72
0.179694 -0.33466 -0.577 127 82 76
0.201382 -0.34162 -0.589 116 77 72
0.202848 -0.3422 -0.59 117 78 73
0.217654 -0.34974 -0.603 109 76 71
0.264112 -0.36308 -0.626 127 141 190
0.271267 -0.36308 -0.626 100 125 181
0.275595 -0.3625 -0.625 163 180 234
0.279167 -0.3625 -0.625 145 159 196
0.285575 -0.36308 -0.626 224 231 250
0.290345 -0.36308 -0.626 239 241 255
0.307529 -0.36366 -0.627 247 252 255
0.314694 -0.36366 -0.627 246 251 254
0.320666 -0.36366 -0.627 234 241 249
0.330747 -0.36424 -0.628 182 196 235
0.33912 -0.36424 -0.628 141 162 209
0.341512 -0.36424 -0.628 210 227 255
0.3726 -0.3654 -0.63 243 248 254
0.402674 -0.36656 -0.632 132 155 207
0.409249 -0.36598 -0.631 221 227 251
0.41646 -0.36598 -0.631 212 223 245
0.42247 -0.36598 -0.631 214 222 243
0.430362 -0.36656 -0.632 215 223 242
0.449129 -0.36714 -0.633 120 133 167
0.463597 -0.36714 -0.633 125 165 217
0.477157 -0.3683 -0.635 141 147 169
0.483205 -0.3683 -0.635 135 154 186
0.514652 -0.3683 -0.635 122 129 155
0.527957 -0.3683 -0.635 125 151 186
0.529167 -0.3683 -0.635 125 151 186
0.544429 -0.35844 -0.618 162 134 130
0.466111 -0.30102 -0.519 165 136 128
0.454717 -0.29058 -0.501 169 139 129
0.446649 -0.28246 -0.487 174 140 128
0.443857 -0.27724 -0.478 185 146 129
0.444579 -0.27376 -0.472 191 148 129
0.447875 -0.27086 -0.467 194 149 130
0.448765 -0.27086 -0.467 194 149 130
0.452157 -0.2697 -0.465 194 149 128
0.453836 -0.26912 -0.464 199 152 132
0.45804 -0.26796 -0.462 192 147 124
0.463195 -0.26738 -0.461 191 144 124
0.477086 -0.2668 -0.46 179 138 118
0.477962 -0.2668 -0.46 176 135 115
0.51198 -0.27666 -0.477 152 116 100
1.15441 -0.37178 -0.641 201 205 190
0.113337 -0.328194 -0.564 195 143 130
0.168626 -0.333431 -0.573 133 86 80
0.181107 -0.336341 -0.578 125 82 76
0.238309 -0.363109 -0.624 126 122 145
0.247419 -0.364272 -0.626 169 167 180
0.249804 -0.364272 -0.626 176 174 187
0.254167 -0.36369 -0.625 178 181 200
0.261728 -0.364272 -0.626 87 99 151
0.26769 -0.364272 -0.626 80 101 154
0.277976 -0.36369 -0.625 126 142 193
0.331414 -0.364854 -0.627 134 151 197
0.357063 -0.365436 -0.628 241 246 242
0.363044 -0.365436 -0.628 247 252 255
0.368414 -0.366018 -0.629 228 232 243
0.369025 -0.365436 -0.628 240 244 255
0.373207 -0.366018 -0.629 244 249 253
0.376801 -0.366018 -0.629 242 247 250
0.392422 -0.367182 -0.631 191 200 231
0.4062 -0.3666 -0.63 193 208 247
0.4086 -0.3666 -0.63 196 207 237
0.417 -0.3666 -0.63 219 226 244
0.437585 -0.367764 -0.632 214 221 239
0.450334 -0.368346 -0.633 140 151 183
0.45998 -0.368346 -0.633 157 177 204
0.467952 -0.368928 -0.634 88 125 193
0.483651 -0.368928 -0.634 189 196 215
0.486067 -0.368928 -0.634 195 202 218
0.49935 -0.368928 -0.634 190 199 216
0.502973 -0.368928 -0.634 193 202 219
0.511427 -0.368928 -0.634 148 156 177
0.512634 -0.368928 -0.634 120 128 149
0.488871 -0.319466 -0.549 166 136 128
0.449579 -0.271168 -0.466 198 153 134
0.462317 -0.268258 -0.461 188 143 122
0.471677 -0.267094 -0.459 180 138 116
0.478838 -0.267676 -0.46 168 127 109
1.15254 -0.373583 -0.642 202 204 190
1.15197 -0.373001 -0.641 202 204 190
0.108349 -0.330436 -0.566 197 145 132
0.114209 -0.328685 -0.563 198 146 133
0.137887 -0.32635 -0.559 179 123 108
0.143467 -0.326933 -0.56 173 116 99
0.178905 -0.337442 -0.578 127 82 77
0.186473 -0.339193 -0.581 122 78 75
0.193329 -0.341529 -0.585 116 75 69
0.24265 -0.365465 -0.626 107 103 128
0.304167 -0.364881 -0.625 221 223 246
0.330886 -0.365465 -0.626 133 153 203
0.387584 -0.367216 -0.629 220 226 242
0.3978 -0.3678 -0.63 111 134 186
0.416338 -0.367216 -0.629 201 204 219
0.439992 -0.368968 -0.632 212 217 236
0.455642 -0.368968 -0.632 189 204 237
0.469626 -0.369551 -0.633 138 169 226
0.460873 -0.298327 -0.511 168 138 130
0.44936 -0.287234 -0.492 174 140 131
0.443637 -0.274974 -0.471 193 151 135
0.4495 -0.271471 -0.465 195 152 133
0.46206 -0.267969 -0.459 190 145 126
0.47065 -0.267385 -0.458 180 138 116
0.472551 -0.267969 -0.459 180 137 118
0.503571 -0.27439 -0.47 153 116 98
0.117217 -0.329171 -0.562 196 144 131
0.127239 -0.327414 -0.559 185 132 118
0.133389 -0.326829 -0.558 182 126 113
0.148525 -0.329757 -0.563 157 100 89
0.198016 -0.344986 -0.589 118 77 71
0.248214 -0.366071 -0.625 171 170 186
0.249405 -0.366071 -0.625 179 178 194
0.266834 -0.365486 -0.624 91 112 169
0.28704 -0.365486 -0.624 229 232 249
0.31369 -0.366071 -0.625 243 247 255
0.320833 -0.366071 -0.625 235 238 243
0.322024 -0.366071 -0.625 203 210 236
0.325595 -0.366071 -0.625 158 171 205
0.376202 -0.367829 -0.628 244 248 255
0.377398 -0.367829 -0.628 241 246 252
0.38998 -0.368414 -0.629 157 164 190
0.412744 -0.368414 -0.629 222 228 250
0.443604 -0.370171 -0.632 210 216 230
0.463334 -0.369586 -0.631 101 142 208
0.465272 -0.370171 -0.632 64 100 178
0.487711 -0.370757 -0.633 194 201 219
0.49374 -0.370757 -0.633 191 198 214
0.505797 -0.370757 -0.633 192 199 218
0.514237 -0.370757 -0.633 147 151 176
0.472292 -0.308671 -0.527 166 135 130
0.460873 -0.2993 -0.511 167 137 129
0.446657 -0.284657 -0.486 176 142 132
0.44481 -0.281729 -0.481 179 141 128
0.44616 -0.274114 -0.468 191 148 131
0.447875 -0.273529 -0.467 194 151 134
0.447804 -0.272943 -0.466 195 152 135
0.473267 -0.268257 -0.458 184 141 122
1.15324 -0.374271 -0.639 202 204 190
0.114006 -0.330242 -0.562 200 146 134
0.116147 -0.330242 -0.562 200 148 137
0.15255 -0.332592 -0.566 154 98 85
0.189661 -0.34317 -0.584 116 75 69
0.207876 -0.351396 -0.598 119 82 76
0.27234 -0.366087 -0.623 142 172 226
0.288953 -0.366087 -0.623 236 237 255
0.304869 -0.366674 -0.624 218 221 240
0.317943 -0.366674 -0.624 243 247 255
0.339881 -0.367262 -0.625 140 165 221
0.344643 -0.367262 -0.625 180 199 241
0.349964 -0.36785 -0.626 242 251 255
0.357118 -0.36785 -0.626 250 253 255
0.36366 -0.368437 -0.627 216 220 232
0.390556 -0.369025 -0.628 127 145 191
0.40491 -0.369025 -0.628 97 128 185
0.420461 -0.369025 -0.628 221 224 231
0.424725 -0.369612 -0.629 192 198 212
0.427121 -0.369612 -0.629 196 202 218
0.4338 -0.3702 -0.63 195 199 224
0.439296 -0.370788 -0.631 217 223 237
0.4417 -0.370788 -0.631 211 217 229
0.46694 -0.370788 -0.631 38 76 141
0.470546 -0.370788 -0.631 105 141 199
0.471748 -0.370788 -0.631 91 124 177
0.478959 -0.370788 -0.631 149 152 167
0.492534 -0.371963 -0.633 194 200 216
0.522247 -0.346108 -0.589 167 137 129
0.45298 -0.292047 -0.497 170 136 127
0.447729 -0.273243 -0.465 196 153 134
0.46367 -0.26913 -0.458 193 148 129
0.473267 -0.26913 -0.458 183 140 121
0.475011 -0.26913 -0.458 183 140 123
0.475884 -0.26913 -0.458 180 137 120
0.492724 -0.272655 -0.464 160 121 104
0.515785 -0.280882 -0.478 146 111 92
1.15025 -0.373726 -0.636 202 204 190
0.101604 -0.351356 -0.596 200 150 139
0.102306 -0.34605 -0.587 193 143 132
0.105114 -0.33367 -0.566 195 144 127
0.108847 -0.331902 -0.563 195 142 134
0.157694 -0.335439 -0.569 145 92 78
0.162884 -0.337208 -0.572 144 92 81
0.16426 -0.337797 -0.573 140 90 79
0.24544 -0.367863 -0.624 175 171 194
0.271153 -0.367273 -0.623 112 139 192
0.28302 -0.367273 -0.623 221 228 254
0.28658 -0.367273 -0.623 231 236 255
0.302007 -0.367273 -0.623 215 217 232
0.319131 -0.367863 -0.624 239 243 254
0.32864 -0.367863 -0.624 179 200 247
0.33696 -0.367863 -0.624 173 196 248
0.359503 -0.369042 -0.626 243 243 253
0.382769 -0.369631 -0.627 227 229 241
0.38335 -0.369042 -0.626 198 201 218
0.385735 -0.369042 -0.626 199 202 219
0.4362 -0.3714 -0.63 173 176 195
0.4614 -0.3714 -0.63 34 76 150
0.480161 -0.37199 -0.631 173 173 183
0.509813 -0.372579 -0.632 152 152 162
0.512221 -0.372579 -0.632 194 197 212
0.514629 -0.372579 -0.632 171 183 207
0.515832 -0.372579 -0.632 137 149 173
0.51824 -0.372579 -0.632 105 126 157
0.451976 -0.27295 -0.463 196 150 134
0.454414 -0.27177 -0.461 183 141 119
0.456057 -0.271181 -0.46 189 147 125
0.48042 -0.270591 -0.459 172 130 108
1.14651 -0.377295 -0.64 202 204 190
1.14716 -0.376706 -0.639 202 205 188
0.102306 -0.347169 -0.587 193 143 132
0.127011 -0.330017 -0.558 193 136 119
0.155253 -0.335931 -0.568 150 98 85
0.160424 -0.337706 -0.571 145 91 79
0.168119 -0.340071 -0.575 133 85 75
0.183469 -0.344211 -0.582 123 82 76
0.232431 -0.367277 -0.621 165 157 172
0.23399 -0.367869 -0.622 150 148 162
0.248607 -0.36846 -0.623 183 179 204
0.252167 -0.36846 -0.623 174 174 200
0.255316 -0.367869 -0.622 80 86 122
0.262425 -0.367869 -0.622 160 176 210
0.274272 -0.367869 -0.622 161 183 224
0.301522 -0.367869 -0.622 221 220 236
0.303891 -0.367869 -0.622 240 243 252
0.326927 -0.36846 -0.623 176 195 235
0.34528 -0.369051 -0.624 184 198 225
0.358929 -0.369643 -0.625 244 244 252
0.368452 -0.369643 -0.625 227 229 252
0.369643 -0.369643 -0.625 229 231 254
0.386928 -0.370234 -0.626 190 199 232
0.390505 -0.370234 -0.626 121 143 193
0.428834 -0.371417 -0.628 162 164 185
0.44629 -0.372009 -0.629 213 207 219
0.453479 -0.372009 -0.629 61 96 160
0.4566 -0.3726 -0.63 57 96 163
0.4626 -0.3726 -0.63 37 78 157
0.4782 -0.3726 -0.63 200 199 207
0.493382 -0.373191 -0.631 164 170 194
0.525793 -0.350717 -0.593 167 134 127
0.446986 -0.276197 -0.467 194 151 134
0.447729 -0.275014 -0.465 196 153 136
0.456814 -0.271466 -0.459 191 146 125
0.459309 -0.270874 -0.458 190 145 124
0.460181 -0.270874 -0.458 190 145 124
0.46614 -0.270283 -0.457 191 146 127
0.479373 -0.270874 -0.458 173 131 109
0.499286 -0.275606 -0.466 159 120 103
1.14842 -0.37674 -0.637 201 205 188
1.14844 -0.375557 -0.635 200 204 187
0.104743 -0.33464 -0.564 195 141 129
0.13315 -0.330487 -0.557 179 120 104
0.144791 -0.33286 -0.561 160 104 91
0.199697 -0.35244 -0.594 122 78 79
0.23636 -0.369053 -0.622 161 157 174
0.247023 -0.369053 -0.622 178 181 200
0.270718 -0.369053 -0.622 135 156 201
0.278563 -0.36846 -0.621 153 165 203
0.289209 -0.36846 -0.621 236 239 255
0.314554 -0.369053 -0.622 242 244 255
0.334047 -0.369647 -0.623 142 172 222
0.374405 -0.370833 -0.625 246 250 253
0.416209 -0.37202 -0.627 228 230 245
0.419791 -0.37202 -0.627 197 201 212
0.432423 -0.372613 -0.628 198 200 223
0.436011 -0.372613 -0.628 203 207 219
0.437208 -0.372613 -0.628 218 222 231
0.494584 -0.374393 -0.631 137 149 175
0.49819 -0.374393 -0.631 156 163 191
0.506603 -0.374393 -0.631 153 157 168
0.513814 -0.374393 -0.631 178 184 208
0.451187 -0.293107 -0.494 171 137 128
0.44765 -0.275307 -0.464 193 150 131
0.45188 -0.27412 -0.462 192 147 124
0.46527 -0.271153 -0.457 189 144 123
0.480246 -0.271747 -0.458 174 131 112
0.50518 -0.278273 -0.469 155 117 98
1.14408 -0.379733 -0.64 202 204 190
0.10846 -0.333929 -0.561 199 142 131
0.111666 -0.333929 -0.561 199 142 131
0.125723 -0.331548 -0.557 195 139 122
0.172299 -0.344048 -0.578 123 78 73
0.198566 -0.353571 -0.594 120 78 79
0.226967 -0.368452 -0.619 168 157 173
0.254906 -0.369643 -0.621 144 148 183
0.256089 -0.369643 -0.621 180 187 215
0.349473 -0.370833 -0.623 244 252 255
0.356593 -0.370833 -0.623 246 254 255
0.36192 -0.371429 -0.624 231 235 244
0.367863 -0.371429 -0.624 247 252 255
0.374994 -0.371429 -0.624 245 249 252
0.383929 -0.372024 -0.625 199 205 229
0.429346 -0.373214 -0.627 175 175 199
0.443189 -0.37381 -0.628 215 218 227
0.472649 -0.374405 -0.629 72 99 152
0.475045 -0.374405 -0.629 182 193 225
0.476243 -0.374405 -0.629 192 203 235
0.4926 -0.375 -0.63 161 172 194
0.4962 -0.375 -0.63 132 139 165
0.507 -0.375 -0.63 183 185 197
0.5082 -0.375 -0.63 194 198 209
0.519 -0.375 -0.63 79 104 161
0.527567 -0.354167 -0.595 165 135 127
0.500448 -0.334524 -0.562 163 134 130
0.481126 -0.320238 -0.538 165 136 130
0.4671 -0.308929 -0.519 165 136 128
0.463579 -0.305952 -0.514 166 137 129
0.446662 -0.28869 -0.485 175 143 132
0.443837 -0.283929 -0.477 186 146 134
0.448533 -0.27619 -0.464 192 150 128
0.44933 -0.275595 -0.463 198 153 130
0.451 -0.275 -0.462 194 149 126
0.456933 -0.27381 -0.46 190 145 124
0.461926 -0.272619 -0.458 190 145 124
0.474845 -0.272024 -0.457 179 136 117
0.479373 -0.272619 -0.458 172 129 110
0.481118 -0.272619 -0.458 171 129 107
0.488476 -0.27381 -0.46 167 126 106
1.14723 -0.377976 -0.635 203 206 187
0.0997943 -0.353509 -0.592 196 149 141
0.105254 -0.334997 -0.561 198 141 130
0.112533 -0.3344 -0.56 200 144 129
0.117656 -0.333803 -0.559 191 135 120
0.147714 -0.336789 -0.564 156 98 86
0.15309 -0.339177 -0.568 152 94 83
0.163453 -0.34276 -0.574 130 85 79
0.226967 -0.369631 -0.619 168 160 175
0.254906 -0.370826 -0.621 168 172 207
0.280476 -0.370229 -0.62 150 158 194
0.281657 -0.370229 -0.62 150 158 194
0.319963 -0.370826 -0.621 216 218 233
0.353033 -0.37202 -0.623 247 255 255
0.414881 -0.373214 -0.625 228 233 253
0.423891 -0.373811 -0.626 222 224 239
0.441289 -0.374409 -0.627 215 217 230
0.443677 -0.374409 -0.627 213 216 233
0.5154 -0.3762 -0.63 103 121 167
0.4448 -0.286629 -0.48 180 142 129
0.4712 -0.272297 -0.456 183 141 119
0.478327 -0.272894 -0.457 169 126 107
0.481809 -0.272894 -0.457 175 133 111
0.487414 -0.274089 -0.459 171 128 109
1.14415 -0.380977 -0.638 203 206 189
1.14478 -0.38038 -0.637 203 206 189
1.14599 -0.38038 -0.637 204 207 190
1.14662 -0.379783 -0.636 203 206 187
1.14663 -0.378589 -0.634 202 205 186
1.14783 -0.377394 -0.632 202 205 188
0.110203 -0.334868 -0.559 198 141 130
0.112332 -0.334868 -0.559 198 142 129
0.116591 -0.334868 -0.559 189 136 122
0.136577 -0.334269 -0.558 175 117 103
0.145308 -0.337264 -0.563 158 102 87
0.152008 -0.340259 -0.568 153 96 87
0.166217 -0.345051 -0.576 126 82 79
0.225423 -0.370211 -0.618 167 158 175
0.229325 -0.37081 -0.619 162 159 180
0.233238 -0.37141 -0.62 88 84 99
0.238346 -0.372009 -0.621 174 175 193
0.256857 -0.37141 -0.62 153 160 178
0.277666 -0.37081 -0.619 221 226 248
0.308819 -0.37141 -0.62 244 250 250
0.329426 -0.372009 -0.621 182 199 242
0.330609 -0.372009 -0.621 189 206 249
0.37202 -0.373207 -0.623 246 251 254
0.37558 -0.373207 -0.623 243 248 251
0.446066 -0.375603 -0.627 127 142 185
0.458009 -0.375603 -0.627 106 135 177
0.500205 -0.376801 -0.629 206 205 219
0.510988 -0.376801 -0.629 191 198 216
0.51578 -0.376801 -0.629 118 137 180
0.443837 -0.285746 -0.477 184 147 131
0.447567 -0.277359 -0.463 192 149 130
0.455066 -0.274963 -0.459 193 148 127
0.457564 -0.274364 -0.458 191 146 125
0.460917 -0.273765 -0.457 193 148 125
0.4641 -0.272567 -0.455 192 147 124
0.475543 -0.273166 -0.456 178 135 116
0.478149 -0.273166 -0.456 175 130 109
0.491105 -0.275562 -0.46 169 128 108
0.49305 -0.276161 -0.461 167 126 106
0.49588 -0.27676 -0.462 164 123 103
0.499794 -0.277958 -0.464 161 120 100
1.14478 -0.381593 -0.637 203 206 189
1.14541 -0.380994 -0.636 203 206 189
1.14663 -0.379796 -0.634 201 204 187
1.14724 -0.379197 -0.633 201 204 187
0.0983333 -0.354562 -0.59 197 144 136
0.102933 -0.336533 -0.56 195 143 130
0.116383 -0.335331 -0.558 190 137 123
0.12254 -0.33473 -0.557 194 141 125
0.126556 -0.33413 -0.556 192 139 123
0.142654 -0.337134 -0.561 162 106 91
0.14664 -0.338937 -0.564 153 97 82
0.167605 -0.34675 -0.577 126 83 77
0.228146 -0.37199 -0.619 160 158 179
0.230504 -0.37199 -0.619 129 127 151
0.236781 -0.37259 -0.62 163 160 179
0.243867 -0.37259 -0.62 172 177 199
0.254085 -0.37199 -0.619 194 199 218
0.255264 -0.37199 -0.619 193 196 211
0.256443 -0.37199 -0.619 191 194 209
0.276487 -0.37199 -0.619 228 229 250
0.280024 -0.37199 -0.619 206 212 238
0.28474 -0.37199 -0.619 171 175 202
0.361945 -0.373792 -0.622 251 252 255
0.424405 -0.375595 -0.625 227 229 244
0.441777 -0.376196 -0.626 218 216 229
0.444162 -0.376196 -0.626 149 160 182
0.475923 -0.376797 -0.627 148 160 198
0.478311 -0.376797 -0.627 194 201 219
0.487448 -0.377398 -0.628 208 211 220
0.488644 -0.377398 -0.628 203 206 215
0.493429 -0.377398 -0.628 185 191 205
0.506587 -0.377398 -0.628 196 203 211
0.511371 -0.377398 -0.628 116 131 164
0.47767 -0.320308 -0.533 167 138 130
0.459197 -0.304683 -0.507 167 137 129
0.442851 -0.284851 -0.474 183 145 126
0.44354 -0.281847 -0.469 188 147 125
0.445882 -0.278842 -0.464 193 152 132
0.45178 -0.277039 -0.461 188 143 120
0.462514 -0.274034 -0.456 195 150 127
0.491981 -0.276438 -0.46 168 126 104
1.11754 -0.382206 -0.636 203 206 187
1.14603 -0.380403 -0.633 201 204 187
0.0981943 -0.347246 -0.576 195 147 133
0.111069 -0.336394 -0.558 195 143 130
0.153629 -0.343629 -0.57 144 91 83
0.158803 -0.345437 -0.573 134 85 78
0.178843 -0.352671 -0.585 122 81 77
0.180265 -0.353274 -0.586 122 81 77
0.194367 -0.3587 -0.595 116 79 70
0.218827 -0.37136 -0.616 117 112 135
0.263517 -0.373169 -0.619 167 180 212
0.308321 -0.373169 -0.619 251 255 255
0.3095 -0.373169 -0.619 241 245 255
0.378531 -0.374977 -0.622 145 157 173
0.380901 -0.374977 -0.622 180 187 206
0.441071 -0.376786 -0.625 196 194 207
0.443452 -0.376786 -0.625 112 122 147
0.448214 -0.376786 -0.625 200 215 248
0.452976 -0.376786 -0.625 184 199 228
0.513764 -0.378594 -0.628 138 154 188
0.518549 -0.378594 -0.628 160 180 213
0.525726 -0.378594 -0.628 82 120 182
0.521591 -0.353877 -0.587 164 136 132
0.453013 -0.299017 -0.496 172 138 128
0.443837 -0.287563 -0.477 182 143 126
0.44354 -0.28274 -0.469 188 147 125
0.457564 -0.276109 -0.458 192 147 124
0.466539 -0.273697 -0.454 186 141 120
0.482679 -0.275506 -0.457 174 132 108
0.486161 -0.275506 -0.457 172 127 104
1.10732 -0.382814 -0.635 204 207 190
1.11579 -0.382814 -0.635 204 207 188
1.12239 -0.383417 -0.636 204 207 188
1.13993 -0.38402 -0.637 203 206 189
0.097 -0.351971 -0.582 195 146 131
0.0984714 -0.34169 -0.565 198 150 136
0.114907 -0.336248 -0.556 189 138 121
0.125271 -0.335643 -0.555 188 133 113
0.177729 -0.353786 -0.585 121 78 72
0.18088 -0.3556 -0.588 121 80 76
0.230131 -0.373743 -0.618 121 121 155
0.233663 -0.373743 -0.618 90 95 137
0.237194 -0.373743 -0.618 157 163 185
0.246611 -0.373743 -0.618 169 173 208
0.260737 -0.373743 -0.618 132 147 170
0.265446 -0.373743 -0.618 171 184 219
0.266623 -0.373743 -0.618 171 185 222
0.28147 -0.373138 -0.617 226 227 248
0.348971 -0.374952 -0.62 187 191 202
0.363729 -0.375557 -0.621 184 189 211
0.372009 -0.375557 -0.621 242 251 250
0.443931 -0.377371 -0.624 152 166 193
0.4625 -0.377976 -0.625 120 151 197
0.467262 -0.377976 -0.625 188 200 224
0.473971 -0.378581 -0.626 140 146 182
0.499809 -0.379186 -0.627 201 203 216
0.508169 -0.379186 -0.627 153 167 194
0.515334 -0.379186 -0.627 193 204 232
0.46275 -0.309638 -0.512 169 136 127
0.453852 -0.301776 -0.499 169 137 126
0.443486 -0.283029 -0.468 188 147 125
0.444253 -0.281819 -0.466 196 155 133
0.448449 -0.280005 -0.463 192 150 126
0.450902 -0.278795 -0.461 189 147 123
0.451676 -0.27819 -0.46 190 148 124
0.4615 -0.275167 -0.455 192 147 126
0.480754 -0.275771 -0.456 178 134 109
1.11161 -0.383419 -0.634 203 206 187
1.12183 -0.384024 -0.635 203 206 187
1.1345 -0.384629 -0.636 203 206 189
1.14602 -0.384024 -0.635 202 205 188
1.14783 -0.38221 -0.632 201 204 185
1.14904 -0.38221 -0.632 201 204 185
0.151191 -0.345193 -0.569 145 93 82
0.169873 -0.352473 -0.581 124 79 73
0.217653 -0.373707 -0.616 154 151 172
0.228954 -0.37492 -0.618 134 138 163
0.23484 -0.37492 -0.618 131 143 185
0.252089 -0.374313 -0.617 200 201 219
0.257965 -0.374313 -0.617 144 146 167
0.260315 -0.374313 -0.617 127 143 166
0.275593 -0.374313 -0.617 228 230 251
0.280294 -0.374313 -0.617 228 228 252
0.284995 -0.374313 -0.617 184 185 206
0.452251 -0.37856 -0.624 193 207 233
0.457006 -0.37856 -0.624 143 168 208
0.476786 -0.379167 -0.625 97 116 149
0.477976 -0.379167 -0.625 148 167 200
0.508169 -0.38038 -0.627 113 126 158
0.511751 -0.38038 -0.627 146 160 199
0.46275 -0.310613 -0.512 169 136 127
0.448495 -0.296053 -0.488 177 144 129
0.444786 -0.290593 -0.479 177 142 123
0.442818 -0.286953 -0.473 184 147 128
0.44836 -0.28028 -0.462 191 149 124
0.453202 -0.277853 -0.458 193 148 125
0.454824 -0.277247 -0.457 193 148 125
0.463945 -0.275427 -0.454 191 149 125
0.48336 -0.27664 -0.456 172 128 103
0.485966 -0.27664 -0.456 170 125 102
0.493534 -0.27846 -0.459 161 119 95
1.11041 -0.384627 -0.634 204 207 190
1.11282 -0.384627 -0.634 204 207 190
1.11765 -0.384627 -0.634 202 205 188
1.12183 -0.385233 -0.635 203 206 189
1.14602 -0.385233 -0.635 202 205 188
1.14543 -0.384627 -0.634 202 205 188
0.0949457 -0.354797 -0.583 193 150 134
0.126101 -0.337149 -0.554 186 131 111
0.143163 -0.342626 -0.563 148 96 82
0.155529 -0.348711 -0.573 133 83 72
0.185807 -0.360883 -0.593 122 84 83
0.245037 -0.375489 -0.617 170 171 201
0.257965 -0.375489 -0.617 146 146 170
0.37259 -0.377314 -0.62 221 229 252
0.373771 -0.377314 -0.62 195 203 226
0.43254 -0.37914 -0.623 229 227 249
0.437287 -0.37914 -0.623 221 224 243
0.464137 -0.379749 -0.624 136 164 201
0.4875 -0.380357 -0.625 209 210 228
0.48869 -0.380357 -0.625 203 204 222
0.479462 -0.325586 -0.535 167 137 127
0.446663 -0.294549 -0.484 173 139 127
0.4448 -0.292114 -0.48 177 141 125
0.443837 -0.290289 -0.477 177 140 124
0.451569 -0.279334 -0.459 194 149 126
0.454824 -0.278117 -0.457 194 149 126
0.45904 -0.277509 -0.456 198 153 130
0.4797 -0.2769 -0.455 175 131 106
0.498319 -0.280551 -0.461 151 114 95
1.1261 -0.385834 -0.634 203 206 189
1.14663 -0.385834 -0.634 202 205 188
1.14784 -0.385834 -0.634 202 205 188
0.146082 -0.34553 -0.566 141 92 78
0.16101 -0.352245 -0.577 131 84 76
0.163774 -0.353466 -0.579 128 84 75
0.172157 -0.357129 -0.585 124 79 74
0.229387 -0.376053 -0.616 84 97 142
0.231733 -0.376053 -0.616 40 56 107
0.261067 -0.376053 -0.616 141 161 194
0.361378 -0.377885 -0.619 161 177 210
0.363736 -0.377885 -0.619 191 208 251
0.366094 -0.377885 -0.619 242 249 255
0.459833 -0.380327 -0.623 158 189 233
0.499405 -0.381548 -0.625 198 201 216
0.463654 -0.313174 -0.513 168 135 126
0.450317 -0.299744 -0.491 169 135 123
0.443486 -0.285703 -0.468 192 149 132
0.444186 -0.283871 -0.465 191 150 132
0.446766 -0.283261 -0.464 193 150 133
0.44836 -0.28204 -0.462 189 146 127
0.451569 -0.280209 -0.459 195 150 129
0.454074 -0.279598 -0.458 194 149 128
0.46135 -0.277156 -0.454 193 148 127
0.462215 -0.277156 -0.454 193 148 127
0.47414 -0.276546 -0.453 180 138 114
0.476051 -0.277156 -0.454 179 134 111
0.476916 -0.277156 -0.454 178 133 110
0.495283 -0.280209 -0.459 153 115 94
1.12973 -0.387042 -0.634 202 205 188
1.14784 -0.387042 -0.634 202 204 190
1.14844 -0.386431 -0.633 203 205 191
1.15024 -0.385821 -0.632 202 204 190
0.0941667 -0.345995 -0.565 191 144 128
0.0947371 -0.344158 -0.562 191 144 128
0.096361 -0.342321 -0.559 197 151 135
0.0979619 -0.340484 -0.556 198 151 135
0.101139 -0.340484 -0.556 201 154 136
0.109217 -0.339259 -0.554 196 145 126
0.21648 -0.377227 -0.616 157 154 175
0.219643 -0.376614 -0.615 77 82 112
0.223157 -0.376614 -0.615 86 95 128
0.2501 -0.376614 -0.615 194 200 212
0.270014 -0.376614 -0.615 179 190 220
0.271186 -0.376614 -0.615 214 225 255
0.285243 -0.376614 -0.615 168 174 206
0.367273 -0.379064 -0.619 215 219 246
0.369631 -0.379064 -0.619 187 200 232
0.497417 -0.382126 -0.624 200 201 219
0.505357 -0.382738 -0.625 136 141 163
0.51131 -0.382738 -0.625 203 202 216
0.463654 -0.314151 -0.513 167 134 125
0.453953 -0.279858 -0.457 194 149 128
0.455566 -0.279246 -0.456 189 144 123
0.485767 -0.278633 -0.455 167 126 104
1.14483 -0.387637 -0.633 202 204 190
1.15085 -0.387637 -0.633 202 205 188
0.103941 -0.340314 -0.554 201 152 135
0.1295 -0.340929 -0.555 184 132 110
0.142343 -0.346457 -0.564 143 91 80
0.171628 -0.360586 -0.587 124 81 75
0.179855 -0.363657 -0.592 121 82 77
0.209246 -0.375943 -0.612 146 147 165
0.213438 -0.377171 -0.614 148 149 170
0.232529 -0.377786 -0.615 117 133 182
0.2337 -0.377786 -0.615 149 163 190
0.261814 -0.377786 -0.615 150 172 209
0.271914 -0.377171 -0.614 226 232 255
0.389675 -0.380243 -0.619 171 184 218
0.490286 -0.383314 -0.624 137 151 177
0.50336 -0.383314 -0.624 126 136 161
0.510491 -0.383314 -0.624 202 204 219
0.4725 -0.3225 -0.525 166 136 126
0.442647 -0.2881 -0.469 185 144 126
0.444114 -0.285029 -0.464 187 144 127
0.450694 -0.281957 -0.459 195 150 129
0.453953 -0.280729 -0.457 194 149 128
0.461197 -0.278271 -0.453 191 149 127
0.466892 -0.277043 -0.451 180 138 114
0.483834 -0.278886 -0.454 165 124 102
1.11533 -0.388229 -0.632 204 206 192
1.14783 -0.388229 -0.632 202 205 188
0.0898533 -0.361088 -0.586 191 147 136
0.104996 -0.34137 -0.554 196 148 128
0.125873 -0.340753 -0.553 184 132 111
0.127156 -0.34137 -0.554 187 135 114
0.137067 -0.345067 -0.56 150 99 82
0.13838 -0.345683 -0.561 149 98 81
0.141018 -0.346915 -0.563 143 94 80
0.23449 -0.378341 -0.614 165 177 201
0.246185 -0.378341 -0.614 193 195 220
0.270745 -0.378341 -0.614 219 229 255
0.35786 -0.38019 -0.617 227 235 248
0.37492 -0.380806 -0.618 242 253 255
0.377885 -0.381422 -0.619 250 253 255
0.473312 -0.38327 -0.622 198 205 211
0.487127 -0.383887 -0.623 192 206 233
0.497807 -0.383887 -0.623 167 182 211
0.509303 -0.384503 -0.624 203 204 222
0.514057 -0.384503 -0.624 204 210 224
0.4433 -0.286529 -0.465 188 145 126
0.448268 -0.284064 -0.461 195 150 131
0.452212 -0.281599 -0.457 193 148 127
0.470329 -0.277902 -0.451 180 138 113
0.476537 -0.278518 -0.452 174 132 107
0.493995 -0.281599 -0.457 164 119 96
0.0947848 -0.343661 -0.556 200 154 139
0.0956714 -0.343043 -0.555 200 154 139
0.113873 -0.34057 -0.551 194 143 124
0.119121 -0.34057 -0.551 197 145 124
0.12122 -0.34057 -0.551 198 146 125
0.12482 -0.341807 -0.553 189 137 116
0.130792 -0.343661 -0.556 174 122 98
0.17192 -0.36344 -0.588 123 82 78
0.206914 -0.378274 -0.612 148 149 167
0.220455 -0.37951 -0.614 160 160 186
0.227472 -0.37951 -0.614 151 151 179
0.259795 -0.378892 -0.613 165 184 217
0.264466 -0.378892 -0.613 172 189 219
0.270304 -0.378892 -0.613 226 233 255
0.442267 -0.383219 -0.62 231 230 244
0.480421 -0.384455 -0.622 63 87 133
0.49662 -0.385073 -0.623 142 161 194
0.497807 -0.385073 -0.623 143 161 197
0.511334 -0.354169 -0.573 164 134 124
0.442647 -0.289887 -0.469 185 144 126
0.4433 -0.287414 -0.465 190 147 128
0.44739 -0.284942 -0.461 193 148 129
0.448268 -0.284942 -0.461 193 148 129
0.462597 -0.278761 -0.451 183 138 115
0.473765 -0.278761 -0.451 179 135 110
0.475483 -0.278761 -0.451 177 133 108
0.4901 -0.281233 -0.455 169 123 100
1.1082 -0.3894 -0.63 204 207 190
1.14904 -0.390636 -0.632 202 204 190
0.0894143 -0.35278 -0.569 197 155 141
0.0912 -0.3472 -0.56 200 155 134
0.128443 -0.3441 -0.555 189 134 113
0.133389 -0.34596 -0.558 159 107 83
0.162127 -0.36022 -0.581 123 83 81
0.23761 -0.38006 -0.613 184 192 211
0.241113 -0.38006 -0.613 186 193 222
0.248119 -0.38006 -0.613 186 194 215
0.25279 -0.38006 -0.613 207 210 227
0.260963 -0.38006 -0.613 180 195 228
0.347893 -0.38192 -0.616 215 217 229
0.363736 -0.38254 -0.617 227 236 253
0.366087 -0.38254 -0.617 230 234 255
0.375489 -0.38254 -0.617 243 248 252
0.405526 -0.38316 -0.618 218 215 222
0.51442 -0.38626 -0.623 197 200 219
0.515607 -0.38626 -0.623 159 162 181
0.528943 -0.36828 -0.594 162 133 127
0.447586 -0.3007 -0.485 174 138 126
0.452833 -0.2821 -0.455 193 148 127
0.457027 -0.28148 -0.454 192 147 126
0.470143 -0.279 -0.45 183 137 114
0.474624 -0.27962 -0.451 182 136 113
0.47912 -0.28024 -0.452 176 130 107
1.1142 -0.3906 -0.63 204 207 190
1.1178 -0.3906 -0.63 205 208 191
0.11681 -0.342048 -0.55 194 144 121
0.133389 -0.347023 -0.558 159 104 84
0.155246 -0.358217 -0.576 128 89 84
0.222069 -0.380606 -0.612 161 162 166
0.230229 -0.380606 -0.612 155 160 182
0.233726 -0.380606 -0.612 183 184 202
0.236057 -0.380606 -0.612 186 195 212
0.254709 -0.380606 -0.612 177 187 222
0.2652 -0.380606 -0.612 172 186 212
0.269863 -0.380606 -0.612 221 227 251
0.370187 -0.383093 -0.616 200 210 235
0.372533 -0.383093 -0.616 218 225 243
0.468248 -0.385581 -0.62 191 189 192
0.483197 -0.386203 -0.621 162 178 204
0.48753 -0.386825 -0.622 172 187 208
0.504116 -0.386825 -0.622 205 208 217
0.514779 -0.386825 -0.622 167 168 189
0.487528 -0.338316 -0.544 165 135 127
0.481379 -0.333341 -0.536 164 134 126
0.444768 -0.29727 -0.478 178 140 119
0.442414 -0.289186 -0.465 185 148 122
0.448171 -0.286076 -0.46 191 149 127
0.498566 -0.284832 -0.458 156 115 93
1.10644 -0.391178 -0.629 204 207 190
1.11603 -0.391178 -0.629 204 207 190
1.119 -0.3918 -0.63 204 207 190
1.14722 -0.392422 -0.631 202 204 190
0.0921667 -0.344967 -0.553 203 156 140
0.114714 -0.343095 -0.55 194 144 121
0.118905 -0.343095 -0.55 198 148 125
0.127156 -0.34559 -0.554 180 128 104
0.1431 -0.3537 -0.567 138 90 78
0.15826 -0.361186 -0.579 123 83 81
0.211577 -0.381771 -0.612 72 81 120
0.21624 -0.381771 -0.612 154 151 180
0.247714 -0.381771 -0.612 153 167 202
0.433777 -0.385514 -0.618 141 152 184
0.480057 -0.386762 -0.62 154 170 203
0.489111 -0.387386 -0.621 91 122 168
0.513594 -0.38801 -0.622 208 202 214
0.445714 -0.299429 -0.48 177 139 118
0.444768 -0.298181 -0.478 178 140 119
0.449712 -0.285705 -0.458 184 142 118
0.461401 -0.28009 -0.449 183 137 114
0.46464 -0.279467 -0.448 183 137 114
1.1238 -0.393 -0.63 202 204 190
1.14241 -0.393624 -0.631 203 205 191
0.0848057 -0.364166 -0.582 200 161 144
0.121 -0.344143 -0.55 195 143 121
0.133628 -0.349774 -0.559 150 98 84
0.138873 -0.352277 -0.563 141 93 83
0.152786 -0.359786 -0.575 124 83 77
0.161574 -0.364791 -0.583 119 80 75
0.164357 -0.366043 -0.585 119 81 78
0.19778 -0.38106 -0.609 61 63 101
0.205076 -0.381686 -0.61 152 151 182
0.229852 -0.382311 -0.611 177 179 194
0.231016 -0.382311 -0.611 176 178 193
0.236835 -0.382311 -0.611 186 193 212
0.243818 -0.382311 -0.611 158 163 193
0.255456 -0.382311 -0.611 188 195 221
0.394827 -0.38544 -0.616 183 193 228
0.414271 -0.386066 -0.617 227 229 244
0.427891 -0.386691 -0.618 223 230 255
0.448495 -0.305349 -0.488 171 135 123
0.446663 -0.302846 -0.484 175 138 120
0.442818 -0.295963 -0.473 182 143 126
0.44274 -0.294711 -0.471 185 144 126
0.444039 -0.289706 -0.463 189 148 126
0.447197 -0.287203 -0.459 190 148 124
0.45296 -0.285326 -0.456 195 150 129
0.454294 -0.283449 -0.453 193 148 125
0.471664 -0.280946 -0.449 180 133 113
0.503371 -0.287829 -0.46 147 112 92
1.1466 -0.3942 -0.63 202 204 190
1.14774 -0.392949 -0.628 202 205 188
0.0907838 -0.345818 -0.551 202 155 139
0.09882 -0.344563 -0.549 198 153 134
0.114506 -0.344563 -0.549 195 144 123
0.116597 -0.344563 -0.549 196 145 124
0.129733 -0.348956 -0.556 156 107 90
0.147372 -0.35837 -0.571 130 86 77
0.153051 -0.361509 -0.576 127 84 77
0.160189 -0.365274 -0.582 118 81 75
0.20358 -0.38222 -0.609 132 135 170
0.208562 -0.382848 -0.61 51 59 96
0.21321 -0.382848 -0.61 142 148 174
0.215533 -0.382848 -0.61 168 166 180
0.229852 -0.383475 -0.611 183 185 200
0.233344 -0.383475 -0.611 183 186 203
0.244581 -0.382848 -0.61 141 151 186
0.264333 -0.382848 -0.61 192 208 244
0.265495 -0.382848 -0.61 201 210 241
0.365476 -0.385358 -0.614 247 252 255
0.503676 -0.389124 -0.62 188 194 218
0.444039 -0.290588 -0.463 191 149 127
0.479571 -0.282429 -0.45 176 131 110
0.484073 -0.283056 -0.451 170 125 102
0.501183 -0.28745 -0.458 148 113 94
1.10349 -0.394145 -0.628 203 206 187
1.11009 -0.393517 -0.627 203 206 189
1.12561 -0.394772 -0.629 203 205 191
1.14478 -0.394772 -0.629 201 204 187
1.14655 -0.394145 -0.628 201 203 189
0.0839314 -0.362606 -0.576 199 156 140
0.0846305 -0.35631 -0.566 201 157 144
0.0861571 -0.349386 -0.555 204 158 142
0.0888457 -0.347497 -0.552 201 155 139
0.0956829 -0.345609 -0.549 199 154 133
0.09882 -0.345609 -0.549 199 152 132
0.103003 -0.345609 -0.549 194 146 123
0.105094 -0.345609 -0.549 192 145 119
0.115551 -0.345609 -0.549 196 145 124
0.127386 -0.349386 -0.555 163 112 91
0.153051 -0.362606 -0.576 126 83 76
0.154684 -0.363865 -0.578 124 84 76
0.2074 -0.38401 -0.61 68 73 113
0.222505 -0.38401 -0.61 120 117 128
0.224829 -0.38401 -0.61 175 173 187
0.227152 -0.38401 -0.61 161 160 176
0.230638 -0.38401 -0.61 185 187 202
0.371324 -0.386528 -0.614 237 241 250
0.460851 -0.389046 -0.618 158 184 219
0.462029 -0.389046 -0.618 174 195 224
0.469091 -0.389046 -0.618 209 212 227
0.483999 -0.389675 -0.619 212 217 237
0.486357 -0.389675 -0.619 193 204 222
0.503676 -0.390305 -0.62 125 132 160
0.48587 -0.340572 -0.541 165 136 128
0.446663 -0.30469 -0.484 172 136 122
0.44274 -0.296506 -0.471 181 140 122
0.44786 -0.287692 -0.457 185 139 115
0.46976 -0.282027 -0.448 180 133 113
0.493347 -0.285804 -0.454 157 120 104
0.4953 -0.286433 -0.455 154 117 101
1.10651 -0.394711 -0.627 204 207 188
1.14119 -0.39597 -0.629 202 205 188
1.14535 -0.395341 -0.628 201 204 187
0.190193 -0.383277 -0.607 72 77 106
0.20822 -0.38454 -0.609 64 72 111
0.2233 -0.38454 -0.609 104 102 116
0.23258 -0.38454 -0.609 190 191 209
0.2349 -0.38454 -0.609 191 192 210
0.339806 -0.386434 -0.612 155 160 190
0.366049 -0.387066 -0.613 243 251 253
0.500506 -0.390854 -0.619 195 201 217
0.445543 -0.290457 -0.46 192 147 124
0.446223 -0.289194 -0.458 192 147 124
0.455725 -0.284774 -0.451 189 143 120
0.457286 -0.284143 -0.45 185 140 119
0.458835 -0.283511 -0.449 187 142 121
0.474027 -0.28288 -0.448 176 130 107
0.478506 -0.283511 -0.449 178 132 108
1.10173 -0.395906 -0.627 204 207 188
1.14535 -0.396537 -0.628 202 205 188
0.14227 -0.359733 -0.568 132 89 73
0.153317 -0.365433 -0.577 121 83 74
0.195139 -0.385067 -0.608 27 41 86
0.21054 -0.3857 -0.609 160 162 187
0.2117 -0.3857 -0.609 164 166 191
0.218301 -0.385067 -0.608 168 166 180
0.221775 -0.385067 -0.608 157 154 171
0.233356 -0.385067 -0.608 187 186 204
0.373054 -0.388233 -0.613 218 226 249
0.479686 -0.3914 -0.618 212 215 232
0.487666 -0.3439 -0.543 164 135 127
0.449414 -0.3097 -0.489 173 139 127
0.441529 -0.2945 -0.465 184 145 128
0.44699 -0.289433 -0.457 193 151 129
0.454866 -0.285633 -0.451 189 143 120
0.478293 -0.283733 -0.448 177 131 107
0.490312 -0.286267 -0.452 161 120 100
1.11309 -0.396467 -0.626 204 207 190
1.11666 -0.396467 -0.626 204 207 190
0.0894086 -0.348746 -0.549 198 157 135
0.104711 -0.347475 -0.547 199 152 132
0.122491 -0.350651 -0.552 171 120 101
0.12482 -0.351287 -0.553 162 111 92
0.1302 -0.354463 -0.558 146 97 83
0.146541 -0.363356 -0.572 125 87 74
0.153583 -0.367168 -0.578 122 84 75
0.160739 -0.370979 -0.584 112 81 78
0.186417 -0.384954 -0.606 30 46 80
0.191034 -0.384954 -0.606 50 59 98
0.220254 -0.38559 -0.607 148 147 165
0.22525 -0.386225 -0.608 103 100 117
0.229504 -0.38559 -0.607 158 157 173
0.240305 -0.386225 -0.608 199 206 222
0.511117 -0.393212 -0.619 201 203 218
0.489462 -0.346205 -0.545 162 135 126
0.457537 -0.31889 -0.502 170 138 127
0.453043 -0.314443 -0.495 171 139 128
0.449414 -0.310631 -0.489 174 140 128
0.4418 -0.298562 -0.47 181 142 127
0.443157 -0.294115 -0.463 187 149 130
0.444478 -0.290939 -0.458 184 143 123
0.4485 -0.289033 -0.455 195 153 129
0.450109 -0.288398 -0.454 192 150 126
0.47382 -0.283951 -0.447 174 128 102
0.478293 -0.284587 -0.448 176 130 106
0.48 -0.284587 -0.448 177 131 107
0.480853 -0.284587 -0.448 175 129 105
1.10355 -0.397659 -0.626 204 207 188
1.10655 -0.397024 -0.625 204 207 188
1.13636 -0.398294 -0.627 201 203 189
1.13875 -0.398294 -0.627 203 205 191
0.0820371 -0.358711 -0.563 201 158 139
0.0829857 -0.353614 -0.555 201 158 139
0.105753 -0.348517 -0.547 200 154 130
0.128906 -0.354889 -0.557 147 98 84
0.1328 -0.3568 -0.56 144 96 84
0.145197 -0.363809 -0.571 132 86 73
0.157971 -0.370817 -0.582 116 81 75
0.159627 -0.372091 -0.584 116 81 75
0.18988 -0.386109 -0.606 33 51 89
0.192189 -0.386109 -0.606 26 39 83
0.193343 -0.386109 -0.606 24 42 90
0.200599 -0.386746 -0.607 36 55 111
0.226408 -0.387383 -0.608 103 101 115
0.458187 -0.39248 -0.616 158 187 229
0.474613 -0.39248 -0.616 214 220 232
0.47696 -0.39248 -0.616 213 220 238
0.491837 -0.393117 -0.617 205 212 230
0.496538 -0.393117 -0.617 210 213 228
0.500064 -0.393117 -0.617 206 209 218
0.505583 -0.393754 -0.618 93 99 123
0.512646 -0.393754 -0.618 167 182 201
0.445735 -0.307103 -0.482 176 138 125
0.442999 -0.293723 -0.461 189 146 130
0.445249 -0.291174 -0.457 189 144 123
0.452289 -0.287351 -0.451 193 148 127
0.455414 -0.286077 -0.449 188 141 121
0.457813 -0.28544 -0.448 189 144 123
0.460017 -0.284166 -0.446 188 142 118
0.475523 -0.284803 -0.447 175 129 105
1.09821 -0.398214 -0.625 204 207 188
1.1125 -0.398214 -0.625 203 206 189
1.11607 -0.398214 -0.625 202 205 188
1.14409 -0.398851 -0.626 201 204 187
0.0852257 -0.350837 -0.549 203 158 139
0.09204 -0.34892 -0.546 200 155 134
0.109921 -0.349559 -0.547 201 155 132
0.118905 -0.351476 -0.55 178 126 104
0.12122 -0.352115 -0.551 168 113 93
0.127615 -0.35531 -0.556 149 97 84
0.1302 -0.356589 -0.558 141 95 82
0.141189 -0.362979 -0.568 134 88 73
0.147889 -0.366174 -0.573 125 85 75
0.18611 -0.386624 -0.605 44 54 90
0.194497 -0.387263 -0.606 20 41 94
0.202577 -0.387263 -0.606 40 61 114
0.217583 -0.387263 -0.606 163 161 175
0.24569 -0.387902 -0.607 175 183 202
0.502414 -0.394292 -0.617 156 153 162
0.50359 -0.394292 -0.617 163 160 169
0.441529 -0.297157 -0.465 185 146 129
0.443606 -0.292684 -0.458 186 143 126
0.44688 -0.291406 -0.456 194 149 130
0.44665 -0.290128 -0.454 194 149 130
0.492895 -0.28885 -0.452 149 114 95
1.06385 -0.398127 -0.623 205 208 189
1.11964 -0.399405 -0.625 203 206 189
1.12978 -0.400044 -0.626 203 205 191
1.13574 -0.400044 -0.626 201 204 187
0.0794048 -0.368548 -0.575 198 155 136
0.086999 -0.350601 -0.547 203 158 137
0.0929095 -0.349319 -0.545 201 154 134
0.0939476 -0.349319 -0.545 200 153 133
0.0949857 -0.349319 -0.545 199 153 130
0.100176 -0.349319 -0.545 198 151 131
0.116597 -0.351883 -0.549 185 135 112
0.146797 -0.367266 -0.573 124 84 76
0.1812 -0.387135 -0.604 46 50 75
0.199114 -0.388417 -0.606 58 84 141
