ply
format ascii 1.0
comment Created by Open3D
element vertex 1294
property double x
property double y
property double z
property uchar red
property uchar green
property uchar blue
end_header
-0.268859 -0.235636 -0.646 159 161 156
-0.0512429 -0.230894 -0.633 63 66 75
-0.0392476 -0.231259 -0.634 69 67 78
0.449767 -0.187852 -0.515 192 142 119
0.459971 -0.186029 -0.51 198 146 122
0.473527 -0.186393 -0.511 189 139 114
0.484139 -0.187488 -0.514 168 121 105
-0.299556 -0.233933 -0.638 253 254 249
-0.282543 -0.233933 -0.638 253 254 249
-0.152034 -0.2332 -0.636 194 191 182
-0.142685 -0.235767 -0.643 197 193 182
-0.1419 -0.2365 -0.645 197 193 182
-0.14089 -0.236867 -0.646 198 194 182
-0.0593086 -0.2354 -0.642 63 60 67
-0.049721 -0.230633 -0.629 66 67 72
-0.0484457 -0.230267 -0.628 62 63 68
-0.0338381 -0.236867 -0.646 73 72 80
0.467762 -0.201667 -0.55 157 117 109
0.461314 -0.198 -0.54 165 123 109
0.462886 -0.187 -0.51 198 146 122
0.463857 -0.187 -0.51 199 147 123
0.486062 -0.188833 -0.515 167 120 104
-0.308711 -0.238466 -0.647 253 254 249
-0.281869 -0.236623 -0.642 253 254 249
-0.273781 -0.238097 -0.646 252 252 250
-0.152034 -0.234411 -0.636 196 196 186
-0.140671 -0.237729 -0.645 197 195 182
-0.139875 -0.238466 -0.647 195 193 180
-0.0414657 -0.232569 -0.631 68 67 75
0.451929 -0.189077 -0.513 194 144 121
0.459971 -0.187971 -0.51 196 146 123
0.4658 -0.187971 -0.51 196 146 123
0.467743 -0.187971 -0.51 196 144 122
0.475473 -0.18834 -0.511 187 135 111
-0.296543 -0.237846 -0.642 253 254 249
-0.285982 -0.238216 -0.643 253 254 249
-0.275437 -0.239698 -0.647 255 255 253
-0.143238 -0.237105 -0.64 198 195 188
-0.142241 -0.237475 -0.641 199 197 185
-0.0531457 -0.232289 -0.627 68 67 75
-0.03828 -0.236364 -0.638 70 69 75
-0.03496 -0.238587 -0.644 70 69 75
0.4535 -0.1945 -0.525 181 133 111
0.450748 -0.190795 -0.515 190 142 120
0.450851 -0.190425 -0.514 193 145 123
0.452906 -0.190054 -0.513 192 144 122
0.452998 -0.189684 -0.512 191 143 121
0.459 -0.188943 -0.51 193 145 122
0.4658 -0.188943 -0.51 196 145 124
0.466771 -0.188943 -0.51 194 144 121
0.467743 -0.188943 -0.51 193 143 120
0.470657 -0.188943 -0.51 193 141 120
0.4726 -0.188943 -0.51 191 141 116
-0.300851 -0.240558 -0.646 253 254 249
-0.299621 -0.240558 -0.646 253 254 249
-0.291786 -0.240186 -0.645 253 254 249
-0.286086 -0.240558 -0.646 253 254 249
-0.147933 -0.23609 -0.634 196 194 182
-0.146957 -0.236462 -0.635 196 194 182
-0.136599 -0.241675 -0.649 197 193 181
-0.0593057 -0.234228 -0.629 70 69 75
-0.04598 -0.233483 -0.627 69 68 74
-0.0415971 -0.235717 -0.633 68 67 72
0.469003 -0.204437 -0.549 156 118 107
0.450529 -0.192521 -0.517 184 136 114
0.453973 -0.190659 -0.512 194 142 120
0.469686 -0.189914 -0.51 194 142 121
0.49959 -0.194755 -0.523 150 113 95
-0.302249 -0.242911 -0.649 252 253 248
-0.29808 -0.242537 -0.648 253 254 248
-0.285381 -0.243286 -0.65 253 253 251
-0.15299 -0.239543 -0.64 228 229 223
-0.146494 -0.236923 -0.633 200 200 190
-0.0689838 -0.239917 -0.641 76 75 80
-0.05408 -0.233554 -0.624 69 68 74
0.466624 -0.203986 -0.545 165 122 113
0.45203 -0.195003 -0.521 183 134 117
0.4581 -0.190511 -0.509 192 140 119
0.49284 -0.19388 -0.518 153 115 96
0.49478 -0.194254 -0.519 150 113 94
-0.29281 -0.244524 -0.65 253 254 249
-0.142343 -0.239257 -0.636 203 199 188
-0.135757 -0.242643 -0.645 198 194 182
-0.05518 -0.234367 -0.623 69 68 74
-0.0471743 -0.235871 -0.627 70 69 75
-0.0394952 -0.24001 -0.638 69 68 74
0.469192 -0.206152 -0.548 165 120 114
0.45713 -0.191481 -0.509 192 140 119
0.465909 -0.191105 -0.508 197 145 124
0.467844 -0.191105 -0.508 195 143 122
0.473612 -0.191481 -0.509 189 137 116
0.474582 -0.191481 -0.509 183 131 110
0.497679 -0.195995 -0.521 149 112 93
-0.0835714 -0.245762 -0.65 239 235 223
-0.0550914 -0.235175 -0.622 69 68 74
-0.0450714 -0.238578 -0.631 70 69 77
0.452152 -0.19661 -0.52 183 134 119
0.451513 -0.195475 -0.517 188 140 120
0.458168 -0.192072 -0.508 193 141 120
0.459135 -0.192072 -0.508 194 142 121
0.460103 -0.192072 -0.508 195 143 122
0.462038 -0.192072 -0.508 196 144 123
0.471714 -0.192072 -0.508 191 139 118
0.472682 -0.192072 -0.508 191 139 117
0.482287 -0.193207 -0.511 171 123 100
0.495769 -0.196231 -0.519 151 114 95
-0.133694 -0.24358 -0.641 200 198 186
-0.127551 -0.24586 -0.647 223 220 201
-0.0659657 -0.23712 -0.624 69 68 76
-0.0494838 -0.23788 -0.626 71 70 75
-0.0326581 -0.24586 -0.647 72 71 77
0.457819 -0.2014 -0.53 174 126 112
0.463006 -0.19304 -0.508 197 145 124
0.467889 -0.19266 -0.507 193 141 120
0.476552 -0.19304 -0.508 184 132 110
-0.142426 -0.240982 -0.631 231 230 225
-0.140022 -0.240982 -0.631 224 221 212
-0.138054 -0.241746 -0.633 216 214 201
-0.0824143 -0.244801 -0.641 128 128 128
-0.0495629 -0.239454 -0.627 71 70 78
-0.0484457 -0.239836 -0.628 70 69 77
0.451929 -0.195917 -0.513 191 141 118
0.454143 -0.194771 -0.51 196 143 125
0.455265 -0.194008 -0.508 195 143 122
0.464026 -0.193626 -0.507 196 144 123
0.468893 -0.193244 -0.506 194 143 122
-0.143855 -0.242568 -0.632 226 227 219
-0.1422 -0.2418 -0.63 239 238 233
-0.131647 -0.244487 -0.637 211 209 196
-0.0996667 -0.249476 -0.65 243 240 225
-0.092901 -0.247941 -0.646 244 242 230
-0.0654371 -0.237578 -0.619 71 70 76
-0.0642581 -0.237578 -0.619 69 68 74
-0.0584571 -0.237962 -0.62 68 67 75
-0.0572762 -0.237962 -0.62 72 71 79
-0.0495629 -0.240649 -0.627 71 70 78
-0.0338381 -0.247941 -0.646 72 71 77
0.452023 -0.19651 -0.512 193 141 119
0.4572 -0.194975 -0.508 195 143 122
0.487131 -0.19651 -0.512 160 117 98
-0.140776 -0.242614 -0.629 234 233 229
-0.13838 -0.242614 -0.629 241 240 236
-0.0665086 -0.238371 -0.618 73 72 80
-0.0573686 -0.239529 -0.621 70 69 77
-0.0539933 -0.2403 -0.623 71 70 78
-0.0440781 -0.244543 -0.634 71 71 79
-0.0407105 -0.246086 -0.638 70 71 76
-0.0326581 -0.249557 -0.647 72 72 80
0.182954 -0.244543 -0.634 181 124 113
0.208413 -0.246086 -0.638 174 121 117
0.222238 -0.250714 -0.65 168 114 112
-0.127404 -0.24575 -0.634 241 239 227
-0.125974 -0.247689 -0.639 233 232 214
-0.121674 -0.248851 -0.642 233 232 214
-0.119414 -0.249239 -0.643 234 233 215
-0.0929657 -0.247301 -0.638 168 167 165
-0.08876 -0.24575 -0.634 82 82 84
-0.0761714 -0.240324 -0.62 76 75 81
-0.0605248 -0.239161 -0.617 72 71 77
-0.057461 -0.241099 -0.622 71 70 76
-0.05518 -0.241487 -0.623 71 70 76
-0.05408 -0.241874 -0.624 72 71 77
-0.0518686 -0.24265 -0.626 72 71 77
-0.0507571 -0.243037 -0.627 72 71 77
0.182153 -0.241487 -0.623 201 146 143
0.20395 -0.243425 -0.628 169 111 109
0.469738 -0.211252 -0.545 164 124 114
0.461426 -0.206601 -0.533 172 129 113
0.45183 -0.199236 -0.514 189 138 119
0.473712 -0.196135 -0.506 185 133 109
-0.131758 -0.243842 -0.626 224 223 218
-0.12859 -0.244621 -0.628 235 234 229
-0.114159 -0.249685 -0.641 244 242 230
-0.0894 -0.2454 -0.63 77 76 81
-0.0837943 -0.243063 -0.624 77 76 82
-0.0628752 -0.240336 -0.617 74 73 79
-0.053061 -0.243842 -0.626 72 71 77
-0.0486 -0.2454 -0.63 72 71 77
0.2047 -0.242673 -0.623 170 115 112
0.21794 -0.249685 -0.641 158 104 102
0.223331 -0.251632 -0.646 153 99 97
0.458103 -0.205669 -0.528 174 131 115
0.452606 -0.200994 -0.516 187 140 124
0.455265 -0.197878 -0.508 194 143 122
0.458231 -0.197489 -0.507 190 140 117
0.461183 -0.197099 -0.506 194 142 120
0.496812 -0.201384 -0.517 149 111 98
-0.132526 -0.244251 -0.624 180 180 180
-0.127597 -0.246209 -0.629 238 235 228
-0.0901686 -0.245426 -0.627 79 79 87
-0.0732143 -0.240729 -0.615 75 74 80
-0.04642 -0.247774 -0.633 71 72 76
-0.0303333 -0.254429 -0.65 72 72 80
0.170372 -0.242294 -0.619 184 121 114
0.2118 -0.2466 -0.63 154 100 98
0.4565 -0.2055 -0.525 175 131 118
0.4522 -0.199629 -0.51 194 142 121
0.454222 -0.199237 -0.509 198 146 124
0.47088 -0.19728 -0.504 184 132 111
0.473738 -0.197671 -0.505 181 130 109
0.499723 -0.203151 -0.519 151 112 97
-0.127976 -0.245833 -0.625 203 203 201
-0.1194 -0.2478 -0.63 217 216 211
-0.111352 -0.248587 -0.632 200 199 195
-0.110149 -0.248587 -0.632 187 186 182
-0.0815467 -0.242293 -0.616 77 76 82
-0.0790714 -0.2419 -0.615 75 74 80
-0.0707562 -0.241507 -0.614 74 73 79
-0.063079 -0.243473 -0.619 74 73 81
-0.0621 -0.24426 -0.621 73 72 80
-0.0599267 -0.245047 -0.623 74 73 81
-0.049879 -0.248193 -0.631 72 71 79
0.168721 -0.241113 -0.613 182 115 106
0.184346 -0.23718 -0.603 184 127 116
0.457266 -0.19942 -0.507 184 133 112
0.46224 -0.19824 -0.504 194 142 121
0.468 -0.19824 -0.504 191 139 118
0.47472 -0.19824 -0.504 177 126 105
0.476624 -0.198633 -0.505 177 126 105
-0.132526 -0.246629 -0.624 118 119 121
-0.129731 -0.245838 -0.622 132 132 134
-0.102811 -0.246629 -0.624 69 68 74
-0.100273 -0.246233 -0.623 66 65 71
-0.0913762 -0.244652 -0.619 74 74 82
-0.0900514 -0.244257 -0.618 77 77 85
-0.08624 -0.243467 -0.616 75 75 83
-0.0654371 -0.244652 -0.619 74 73 81
-0.043141 -0.252162 -0.638 72 71 77
0.16131 -0.247024 -0.625 197 147 148
0.165571 -0.241095 -0.61 185 120 114
0.16994 -0.2407 -0.609 171 105 93
0.184346 -0.238329 -0.603 184 127 116
0.185802 -0.238724 -0.604 180 123 114
0.19546 -0.2407 -0.609 163 105 104
0.455007 -0.205919 -0.521 178 134 121
0.45281 -0.203152 -0.514 187 140 122
0.4563 -0.200386 -0.507 192 141 120
0.46224 -0.1992 -0.504 192 141 120
0.46416 -0.1992 -0.504 191 140 121
0.482374 -0.200386 -0.507 170 123 97
-0.122031 -0.245831 -0.619 98 97 102
-0.114146 -0.246626 -0.621 79 80 84
-0.112963 -0.246626 -0.621 78 79 83
-0.104346 -0.245831 -0.619 63 64 69
-0.103167 -0.245831 -0.619 63 62 68
-0.0994686 -0.245434 -0.618 64 63 69
-0.08596 -0.243846 -0.614 71 72 77
-0.0823171 -0.243449 -0.613 77 76 82
-0.0699267 -0.245037 -0.617 74 73 79
-0.0687514 -0.245037 -0.617 74 73 79
-0.0676857 -0.245434 -0.618 74 73 79
-0.0454286 -0.252583 -0.636 73 72 78
-0.0373552 -0.255363 -0.643 73 72 80
-0.0350686 -0.256554 -0.646 74 73 79
0.16298 -0.24186 -0.609 190 129 124
0.18259 -0.238683 -0.601 187 130 119
0.196297 -0.241463 -0.608 157 98 94
0.200757 -0.242654 -0.611 156 96 95
0.203417 -0.243051 -0.612 147 87 86
0.211297 -0.245434 -0.618 170 112 110
0.218452 -0.248214 -0.625 156 98 96
0.234769 -0.256951 -0.647 141 84 90
0.45281 -0.204131 -0.514 186 140 124
0.452998 -0.203337 -0.512 190 142 122
0.454297 -0.201749 -0.508 198 147 126
0.459255 -0.200954 -0.506 191 140 119
0.467071 -0.199763 -0.503 188 136 115
0.46803 -0.199763 -0.503 187 135 114
-0.126748 -0.24701 -0.619 102 102 104
-0.0985029 -0.244217 -0.612 59 58 66
-0.0820486 -0.243818 -0.611 78 77 83
-0.0499581 -0.252198 -0.632 72 71 77
-0.0477762 -0.253395 -0.635 72 72 80
-0.0338905 -0.258184 -0.647 73 74 79
0.157438 -0.243419 -0.61 197 155 143
0.198287 -0.242222 -0.607 153 92 87
0.20126 -0.24302 -0.609 153 92 89
0.202752 -0.243419 -0.61 185 124 121
0.215176 -0.24701 -0.619 175 116 112
0.458348 -0.201519 -0.505 189 138 119
0.473778 -0.200721 -0.503 180 130 105
0.490086 -0.203514 -0.51 156 115 93
-0.119681 -0.245784 -0.613 94 95 100
-0.108816 -0.244982 -0.611 64 63 69
-0.107652 -0.244982 -0.611 63 62 68
-0.10365 -0.243779 -0.608 62 61 67
-0.0953857 -0.243378 -0.607 65 66 70
-0.0668314 -0.248991 -0.621 75 74 80
0.155546 -0.248991 -0.621 208 159 155
0.158452 -0.242576 -0.605 203 140 131
0.193855 -0.242175 -0.604 160 93 85
0.195329 -0.242576 -0.605 157 90 82
0.226559 -0.253001 -0.631 175 115 114
0.462587 -0.213307 -0.532 172 134 123
0.459243 -0.211302 -0.527 173 133 123
0.455999 -0.208896 -0.521 179 137 123
0.45369 -0.20649 -0.515 184 141 125
0.46224 -0.20208 -0.504 191 140 121
0.46803 -0.201679 -0.503 188 136 115
0.470904 -0.201679 -0.503 184 132 111
0.489125 -0.204085 -0.509 160 118 94
-0.137786 -0.259037 -0.643 112 112 110
-0.125569 -0.249369 -0.619 105 106 110
-0.11929 -0.246146 -0.611 91 92 96
-0.117933 -0.245743 -0.61 81 82 86
-0.11542 -0.24534 -0.609 69 70 74
-0.08642 -0.24534 -0.609 76 75 81
-0.08526 -0.24534 -0.609 76 75 81
-0.0702667 -0.249771 -0.62 76 75 81
-0.0613095 -0.251786 -0.625 74 73 81
0.15652 -0.24252 -0.602 195 144 140
0.170857 -0.241714 -0.6 205 152 148
0.174551 -0.240506 -0.597 202 151 150
0.182817 -0.240909 -0.598 177 119 107
0.21309 -0.246951 -0.613 175 117 113
0.220958 -0.250577 -0.622 172 117 114
0.475277 -0.221169 -0.549 168 131 122
0.452906 -0.206666 -0.513 187 139 125
0.454436 -0.203846 -0.506 198 147 128
0.45936 -0.20304 -0.504 192 141 122
0.465187 -0.202234 -0.502 186 130 113
0.47856 -0.20304 -0.504 173 126 98
0.48335 -0.203846 -0.506 172 120 96
0.484314 -0.203846 -0.506 172 121 92
-0.120454 -0.24731 -0.611 95 96 98
-0.116006 -0.245286 -0.606 73 74 78
-0.104397 -0.242452 -0.599 70 69 74
-0.101945 -0.242048 -0.598 72 71 76
-0.0861362 -0.24569 -0.607 75 74 80
-0.08512 -0.246095 -0.608 75 74 80
-0.0832124 -0.24731 -0.611 77 76 81
-0.0625 -0.252976 -0.625 76 75 81
-0.0558 -0.255 -0.63 74 73 81
-0.0501162 -0.256619 -0.634 76 75 83
-0.0455 -0.257833 -0.637 74 73 81
-0.0350686 -0.261476 -0.646 112 111 119
-0.0315229 -0.26269 -0.649 73 71 82
-0.0303333 -0.263095 -0.65 73 71 82
0.150595 -0.252976 -0.625 204 153 150
0.173967 -0.240833 -0.595 204 153 150
0.20421 -0.244476 -0.604 186 127 123
0.219892 -0.250548 -0.619 168 118 111
0.229326 -0.25581 -0.632 167 109 105
0.2343 -0.258643 -0.639 164 108 107
0.465195 -0.216548 -0.535 171 134 126
0.459373 -0.212905 -0.526 174 136 125
0.4554 -0.20481 -0.506 191 142 127
0.45744 -0.204 -0.504 191 142 125
0.463239 -0.203595 -0.503 190 139 120
0.464197 -0.203595 -0.503 188 137 118
0.469011 -0.20319 -0.502 183 131 110
0.47282 -0.203595 -0.503 179 127 105
0.476652 -0.203595 -0.503 179 127 105
0.486237 -0.205214 -0.507 169 118 89
-0.12439 -0.251727 -0.619 106 107 109
-0.10764 -0.243187 -0.598 77 78 82
-0.101433 -0.241967 -0.595 77 78 82
-0.0962495 -0.243187 -0.598 56 57 61
-0.0748695 -0.251727 -0.619 76 75 81
-0.0726286 -0.252133 -0.62 77 76 82
-0.064881 -0.254167 -0.625 76 75 81
0.144141 -0.255387 -0.628 195 136 130
0.188828 -0.243593 -0.599 157 93 81
0.216947 -0.249693 -0.614 165 110 107
0.223687 -0.253353 -0.623 166 113 107
0.228237 -0.255793 -0.629 158 103 100
0.238216 -0.261487 -0.643 153 99 99
0.453789 -0.209027 -0.514 184 141 124
0.453171 -0.2074 -0.51 187 142 123
0.455462 -0.205367 -0.505 188 139 122
0.459407 -0.204553 -0.503 193 145 125
0.462281 -0.204553 -0.503 190 139 120
0.487203 -0.20618 -0.507 169 121 98
-0.1037 -0.2431 -0.595 67 68 73
-0.0793286 -0.252089 -0.617 76 75 80
-0.0547733 -0.258217 -0.632 74 73 81
-0.0501952 -0.259443 -0.635 74 73 81
0.140329 -0.256174 -0.627 203 140 135
0.151538 -0.247186 -0.605 210 157 153
0.159429 -0.245143 -0.6 179 117 106
0.175937 -0.242691 -0.594 188 131 124
0.179633 -0.2431 -0.595 176 116 106
0.21402 -0.24882 -0.609 167 109 107
0.21624 -0.250046 -0.612 165 107 105
0.453883 -0.209597 -0.513 183 140 124
0.464197 -0.205511 -0.503 184 136 114
0.472836 -0.205103 -0.502 182 130 108
0.491064 -0.207963 -0.509 155 114 94
-0.10728 -0.244644 -0.596 65 66 71
-0.0784067 -0.254085 -0.619 76 75 80
-0.05486 -0.259831 -0.633 74 73 79
-0.0456429 -0.262294 -0.639 73 72 80
-0.0444952 -0.262705 -0.64 76 75 83
0.146317 -0.253264 -0.617 208 149 141
0.174511 -0.243412 -0.593 189 131 127
0.188512 -0.245465 -0.598 148 82 70
0.204801 -0.245875 -0.599 185 128 121
0.206286 -0.246286 -0.6 185 128 121
0.215533 -0.25039 -0.61 164 106 102
0.234411 -0.261063 -0.636 142 91 90
0.467086 -0.220015 -0.536 173 135 124
0.462867 -0.217552 -0.53 173 135 124
0.460375 -0.21591 -0.526 176 136 124
0.455452 -0.212216 -0.517 179 137 123
0.453883 -0.210574 -0.513 180 137 121
0.457386 -0.20729 -0.505 190 143 123
0.459407 -0.20647 -0.503 195 147 125
0.460365 -0.20647 -0.503 192 144 122
0.461362 -0.206059 -0.502 190 142 120
0.475705 -0.206059 -0.502 176 124 102
0.490099 -0.208522 -0.508 156 114 92
-0.121048 -0.255676 -0.62 101 104 109
-0.10561 -0.244542 -0.593 92 93 98
-0.101877 -0.243717 -0.591 87 88 93
-0.100751 -0.243717 -0.591 88 89 94
-0.08596 -0.253202 -0.614 68 69 73
-0.0717933 -0.256913 -0.623 77 76 81
-0.0639962 -0.258975 -0.628 75 74 80
-0.0617019 -0.259388 -0.629 75 74 80
-0.0374714 -0.265986 -0.645 86 85 93
0.140669 -0.254851 -0.618 188 118 110
0.14874 -0.248666 -0.603 209 154 151
0.149391 -0.247841 -0.601 206 151 148
0.15548 -0.246604 -0.598 189 132 125
0.161175 -0.246604 -0.598 209 152 145
0.162043 -0.246191 -0.597 210 153 146
0.167451 -0.24413 -0.592 201 144 137
0.226786 -0.257738 -0.625 141 90 87
0.455554 -0.212789 -0.516 180 137 120
0.454369 -0.209077 -0.507 194 147 129
0.455334 -0.209077 -0.507 192 145 125
0.4554 -0.208665 -0.506 193 146 126
-0.113322 -0.250229 -0.604 117 121 124
-0.10692 -0.246086 -0.594 120 124 127
-0.0753533 -0.2581 -0.623 76 75 80
-0.0572714 -0.262243 -0.633 74 73 79
-0.032759 -0.268871 -0.649 76 74 87
0.146686 -0.250229 -0.604 210 155 152
0.165196 -0.245257 -0.592 201 144 135
0.186433 -0.2465 -0.595 153 91 80
0.234043 -0.263071 -0.635 133 83 82
0.46636 -0.221229 -0.534 170 132 121
0.4605 -0.2175 -0.525 172 132 120
0.456424 -0.209214 -0.505 192 145 125
0.458449 -0.208386 -0.503 193 147 124
0.46426 -0.207557 -0.501 188 140 118
0.467123 -0.207557 -0.501 188 140 117
0.475711 -0.207557 -0.501 176 126 101
0.478573 -0.207971 -0.502 172 122 97
0.482401 -0.208386 -0.503 167 120 100
0.48432 -0.2088 -0.504 168 120 98
0.498831 -0.212529 -0.513 154 116 97
-0.108415 -0.24805 -0.596 122 123 127
-0.10041 -0.245136 -0.589 118 119 123
-0.0914629 -0.251379 -0.604 59 60 64
-0.0896048 -0.252628 -0.607 60 61 65
-0.0776019 -0.25887 -0.622 75 74 80
-0.0742857 -0.259703 -0.624 77 76 82
-0.0652962 -0.261784 -0.629 75 74 80
-0.0515667 -0.265113 -0.637 73 72 78
-0.0457143 -0.266362 -0.64 74 73 81
-0.0375295 -0.268859 -0.646 74 73 81
0.146857 -0.249714 -0.6 212 157 154
0.150671 -0.248466 -0.597 201 146 143
0.175049 -0.245969 -0.591 174 112 101
0.182726 -0.247217 -0.594 155 92 77
0.187251 -0.247217 -0.594 201 141 130
0.189195 -0.246801 -0.593 205 146 138
0.226786 -0.260119 -0.625 132 84 84
0.229435 -0.261784 -0.629 129 81 81
0.242643 -0.268443 -0.645 128 82 84
0.460406 -0.208928 -0.502 192 146 122
0.465214 -0.208511 -0.501 189 141 119
0.47094 -0.208511 -0.501 183 135 112
-0.124171 -0.265909 -0.636 120 121 125
-0.116178 -0.256292 -0.613 123 124 128
-0.113697 -0.253366 -0.606 124 125 129
-0.103776 -0.246258 -0.589 123 124 128
-0.0939714 -0.250021 -0.598 61 62 66
-0.0787867 -0.260055 -0.622 73 72 77
-0.0754743 -0.260891 -0.624 75 74 79
-0.0732143 -0.26131 -0.625 77 76 82
-0.0561543 -0.265072 -0.634 74 73 79
-0.0457857 -0.267999 -0.641 74 73 81
0.135584 -0.255456 -0.611 188 114 111
0.150419 -0.249185 -0.596 197 141 140
0.151554 -0.249185 -0.596 194 135 131
0.1547 -0.248767 -0.595 181 118 109
0.155833 -0.248767 -0.595 198 137 134
0.165481 -0.246258 -0.589 197 144 136
0.173629 -0.246676 -0.59 176 114 101
0.189683 -0.247094 -0.591 203 146 139
0.199361 -0.24793 -0.593 190 133 122
0.207429 -0.250857 -0.6 163 108 101
0.454436 -0.211556 -0.506 190 148 126
0.474757 -0.209466 -0.501 181 134 108
0.48624 -0.21072 -0.504 168 122 99
-0.126763 -0.27006 -0.643 111 115 118
-0.118877 -0.26082 -0.621 121 122 126
-0.10787 -0.24906 -0.593 118 119 123
-0.0972095 -0.2478 -0.59 104 105 109
-0.0505114 -0.26838 -0.639 74 73 79
-0.0422543 -0.27006 -0.643 74 73 81
0.131969 -0.26334 -0.627 209 158 157
0.143668 -0.25242 -0.601 207 150 143
0.159558 -0.24864 -0.592 211 154 147
0.163237 -0.24738 -0.589 205 148 139
0.16744 -0.24696 -0.588 191 135 120
0.174752 -0.2478 -0.59 172 108 96
0.178426 -0.24822 -0.591 161 97 85
0.187431 -0.24822 -0.591 205 145 135
0.199361 -0.24906 -0.593 187 125 114
0.237105 -0.2688 -0.64 128 75 81
0.239441 -0.27006 -0.643 124 71 77
0.243019 -0.27132 -0.646 127 74 82
0.461397 -0.21042 -0.501 192 146 123
0.471905 -0.21 -0.5 187 137 112
0.47381 -0.21 -0.5 186 136 113
0.482398 -0.21084 -0.502 167 123 98
-0.11926 -0.262847 -0.623 120 121 125
-0.111243 -0.252721 -0.599 117 118 122
-0.109367 -0.251033 -0.595 117 118 122
-0.0811562 -0.262425 -0.622 67 66 71
-0.0574524 -0.26791 -0.635 74 73 79
-0.0481524 -0.270019 -0.64 73 72 80
-0.0422543 -0.271285 -0.643 73 72 80
0.131039 -0.260315 -0.617 206 153 147
0.139091 -0.255674 -0.606 206 142 132
0.14433 -0.252721 -0.599 208 151 144
0.156439 -0.25019 -0.593 210 152 150
0.160993 -0.248502 -0.589 205 146 138
0.17109 -0.248502 -0.589 176 119 102
0.18599 -0.248924 -0.59 206 143 134
0.194981 -0.248924 -0.59 191 134 125
0.245762 -0.274238 -0.65 127 76 83
0.458203 -0.218969 -0.519 176 139 123
0.460443 -0.211374 -0.501 193 147 124
0.463306 -0.211374 -0.501 191 145 122
0.49009 -0.213062 -0.505 157 115 91
-0.0998991 -0.248352 -0.586 109 110 115
-0.0949514 -0.253014 -0.597 63 64 68
-0.0941286 -0.253862 -0.599 62 63 67
-0.09246 -0.255557 -0.603 63 64 69
-0.0833914 -0.263186 -0.621 61 60 66
-0.0516476 -0.27039 -0.638 74 73 81
-0.0446343 -0.272086 -0.642 72 71 79
0.150791 -0.251319 -0.593 173 116 105
0.157895 -0.250048 -0.59 208 150 146
0.177 -0.250048 -0.59 160 98 85
0.178124 -0.250048 -0.59 158 96 83
0.233567 -0.269967 -0.637 117 74 81
0.46811 -0.211481 -0.499 185 137 114
0.472862 -0.211481 -0.499 186 136 111
0.48431 -0.212752 -0.502 168 123 100
-0.0791667 -0.266071 -0.625 67 66 72
-0.0667057 -0.268626 -0.631 77 76 82
-0.0609848 -0.269903 -0.634 75 74 82
-0.0517286 -0.272031 -0.639 74 73 81
-0.04232 -0.27416 -0.644 72 71 79
0.129523 -0.264369 -0.621 210 150 149
0.129977 -0.260537 -0.612 203 146 137
0.132384 -0.258409 -0.607 185 118 112
0.134474 -0.257983 -0.606 169 104 100
0.141143 -0.255429 -0.6 207 148 142
0.142049 -0.255003 -0.599 208 149 143
0.14652 -0.252874 -0.594 196 137 131
0.15366 -0.251597 -0.591 209 152 143
0.16129 -0.249469 -0.586 197 139 128
0.186962 -0.249469 -0.586 203 143 135
0.19208 -0.25032 -0.588 193 137 122
0.218827 -0.26224 -0.616 126 79 89
0.236623 -0.273309 -0.642 119 78 84
0.239328 -0.275011 -0.646 122 79 88
0.465895 -0.225629 -0.53 176 136 124
0.455334 -0.215837 -0.507 191 146 127
0.465238 -0.212857 -0.5 189 143 120
0.472862 -0.212431 -0.499 186 136 111
0.479524 -0.212857 -0.5 176 129 103
0.48912 -0.21456 -0.504 162 117 94
0.499807 -0.21754 -0.511 151 110 90
-0.125929 -0.275814 -0.645 113 114 119
-0.0989514 -0.251012 -0.587 104 105 110
-0.0978333 -0.251012 -0.587 100 101 106
-0.0941286 -0.256144 -0.599 69 70 75
-0.09106 -0.26042 -0.609 67 66 72
-0.0714 -0.2694 -0.63 74 73 79
-0.0668114 -0.270255 -0.632 77 76 84
-0.05642 -0.272393 -0.637 75 74 82
-0.0540781 -0.272821 -0.638 75 74 82
0.134252 -0.25871 -0.605 172 106 107
0.135181 -0.258282 -0.604 194 128 129
0.143367 -0.254433 -0.595 207 149 145
0.157092 -0.251012 -0.587 201 143 139
0.165754 -0.250585 -0.586 187 128 112
0.16687 -0.250585 -0.586 183 124 106
0.19031 -0.250585 -0.586 192 136 121
0.200829 -0.254006 -0.594 167 109 98
0.229689 -0.270683 -0.633 111 75 79
0.237729 -0.275814 -0.645 113 78 82
0.460076 -0.222362 -0.52 178 138 126
0.50078 -0.218513 -0.511 152 111 93
-0.116178 -0.263298 -0.613 110 111 116
-0.104186 -0.251271 -0.585 109 110 115
-0.0926133 -0.259432 -0.604 70 71 76
-0.0885867 -0.264587 -0.616 63 62 68
-0.07942 -0.269311 -0.627 65 64 70
-0.0576333 -0.273607 -0.637 75 74 82
-0.0436143 -0.277043 -0.645 72 71 77
-0.0399905 -0.277472 -0.646 72 71 77
0.142233 -0.255567 -0.595 208 150 146
0.148905 -0.253419 -0.59 210 153 146
0.150029 -0.253419 -0.59 207 150 143
0.15288 -0.25256 -0.588 201 147 137
0.155974 -0.25213 -0.587 202 143 139
0.17051 -0.25213 -0.587 168 110 90
0.172746 -0.25213 -0.587 159 97 84
0.182186 -0.251271 -0.585 207 147 137
0.184414 -0.251271 -0.585 202 143 135
0.187757 -0.251271 -0.585 193 134 126
0.196105 -0.253419 -0.59 176 116 106
0.215074 -0.262869 -0.612 123 78 81
0.462617 -0.22507 -0.524 179 137 125
0.460476 -0.214762 -0.5 190 146 121
0.461429 -0.214762 -0.5 190 146 121
0.467159 -0.214332 -0.499 185 139 115
0.476657 -0.213903 -0.498 179 132 104
0.4843 -0.215191 -0.501 167 120 94
-0.0997286 -0.252386 -0.585 102 106 109
-0.0962486 -0.254974 -0.591 71 70 76
-0.0783505 -0.270937 -0.628 64 63 69
-0.0703114 -0.272231 -0.631 74 73 81
-0.0658152 -0.273526 -0.634 74 73 81
-0.0622905 -0.273957 -0.635 76 75 83
-0.0494486 -0.276546 -0.641 73 72 80
-0.0471533 -0.277409 -0.643 74 73 81
-0.0400524 -0.279134 -0.647 71 70 76
0.129829 -0.276114 -0.64 201 152 148
0.1393 -0.257563 -0.597 204 149 142
0.15064 -0.25368 -0.588 208 151 144
0.172451 -0.252817 -0.586 154 92 79
0.177729 -0.252386 -0.585 211 151 140
0.184894 -0.251523 -0.583 200 141 133
0.19031 -0.252817 -0.586 187 128 112
0.197897 -0.255406 -0.592 171 109 98
0.211005 -0.261877 -0.607 133 88 85
0.482256 -0.237717 -0.551 171 133 122
0.458534 -0.216146 -0.501 193 148 125
0.465274 -0.214851 -0.498 187 141 115
0.469069 -0.214851 -0.498 187 141 115
0.470967 -0.21442 -0.497 185 138 112
0.480466 -0.215283 -0.499 177 130 104
0.492976 -0.217871 -0.505 153 112 90
0.505678 -0.221754 -0.514 148 111 92
-0.104008 -0.253067 -0.584 101 105 108
-0.09292 -0.2626 -0.606 73 72 78
-0.0783505 -0.272133 -0.628 63 62 68
-0.076079 -0.272567 -0.629 66 65 71
-0.0738 -0.273 -0.63 68 67 73
-0.0495257 -0.2782 -0.642 73 72 80
-0.0364676 -0.281233 -0.649 72 71 77
0.129017 -0.2756 -0.636 206 152 152
0.127646 -0.2652 -0.612 205 149 148
0.129643 -0.262167 -0.605 194 131 122
0.136571 -0.26 -0.6 199 144 141
0.140626 -0.256967 -0.593 207 149 145
0.14952 -0.2548 -0.588 207 148 142
0.151244 -0.253933 -0.586 202 145 134
0.157132 -0.252633 -0.583 194 134 124
0.158243 -0.252633 -0.583 193 133 123
0.474753 -0.215367 -0.497 180 133 107
0.488135 -0.217533 -0.502 157 119 96
-0.112947 -0.262013 -0.602 101 104 109
-0.0915086 -0.266366 -0.612 71 70 76
-0.0840629 -0.272459 -0.626 60 59 64
-0.075 -0.2742 -0.63 65 64 70
-0.0704229 -0.27507 -0.632 71 70 78
-0.0692191 -0.27507 -0.632 71 70 78
0.129614 -0.280729 -0.645 204 151 145
0.12797 -0.264625 -0.608 202 147 142
0.133365 -0.261578 -0.601 194 139 132
0.171863 -0.254179 -0.584 205 145 135
0.17601 -0.253744 -0.583 204 144 136
0.205827 -0.262013 -0.602 150 89 86
0.209849 -0.26419 -0.607 136 80 81
0.461846 -0.227194 -0.522 179 137 123
0.458534 -0.218054 -0.501 193 148 125
0.460531 -0.216749 -0.498 194 148 122
0.46148 -0.216749 -0.498 194 148 122
0.464326 -0.216749 -0.498 190 144 120
0.47002 -0.216313 -0.497 186 139 113
-0.125538 -0.281083 -0.643 102 105 110
-0.12238 -0.276711 -0.633 101 104 109
-0.0852552 -0.273651 -0.626 59 58 63
-0.0784752 -0.274963 -0.629 61 60 66
-0.0612733 -0.27846 -0.637 73 72 80
-0.058939 -0.278897 -0.638 75 74 82
-0.0555533 -0.280209 -0.641 74 73 79
-0.046 -0.28152 -0.644 73 72 78
0.134977 -0.261411 -0.598 203 146 139
0.145911 -0.256603 -0.587 204 147 138
0.147895 -0.256166 -0.586 207 148 140
0.15158 -0.254854 -0.583 196 139 128
0.165731 -0.254417 -0.582 170 108 93
0.191753 -0.256603 -0.587 178 115 108
0.4554 -0.221194 -0.506 187 144 125
0.45552 -0.22032 -0.504 188 146 124
0.457537 -0.219446 -0.502 190 146 121
0.46718 -0.21726 -0.497 189 142 116
-0.119069 -0.273088 -0.622 98 101 106
-0.110314 -0.260794 -0.594 95 98 103
-0.10494 -0.255965 -0.583 94 95 99
-0.103651 -0.255526 -0.582 96 97 101
-0.102543 -0.255526 -0.582 95 96 100
-0.101434 -0.255526 -0.582 93 94 98
-0.0987829 -0.257282 -0.586 81 82 86
-0.0819391 -0.275722 -0.628 56 55 60
-0.075 -0.2766 -0.63 62 61 67
-0.0704229 -0.277478 -0.632 68 67 75
-0.0682305 -0.278356 -0.634 71 70 78
-0.0624867 -0.279673 -0.637 74 73 81
-0.0531943 -0.281869 -0.642 75 74 80
-0.0472267 -0.282747 -0.644 73 72 78
-0.0436819 -0.283625 -0.646 73 72 78
-0.0365238 -0.285381 -0.65 71 70 76
0.12702 -0.26738 -0.609 196 139 132
0.127759 -0.266502 -0.607 193 134 126
0.139026 -0.259477 -0.591 197 138 130
0.14056 -0.25816 -0.588 205 146 138
0.152429 -0.255526 -0.582 194 136 125
0.15438 -0.255087 -0.581 192 134 122
0.157429 -0.254648 -0.58 193 133 122
0.215307 -0.270453 -0.616 117 81 85
0.456161 -0.223475 -0.509 185 144 124
0.463393 -0.218207 -0.497 188 142 116
0.476632 -0.217768 -0.496 182 135 107
0.479487 -0.218207 -0.497 180 135 106
0.483297 -0.218646 -0.498 169 125 98
-0.110129 -0.261485 -0.593 96 97 102
-0.0997286 -0.257957 -0.585 85 86 90
-0.098 -0.25928 -0.588 74 75 79
-0.0972095 -0.260162 -0.59 75 74 80
-0.0964114 -0.261044 -0.592 75 74 80
-0.0936086 -0.265894 -0.603 85 84 90
-0.0926743 -0.269863 -0.612 80 79 85
-0.0901971 -0.27295 -0.619 73 72 78
-0.0819391 -0.276918 -0.628 56 55 60
-0.0774 -0.2778 -0.63 58 57 63
-0.0762 -0.2778 -0.63 60 59 65
-0.0648114 -0.280446 -0.636 72 71 79
-0.0555533 -0.28265 -0.641 75 74 80
-0.0532771 -0.283532 -0.643 75 74 80
-0.0520524 -0.283532 -0.643 74 73 79
-0.0472267 -0.283973 -0.644 74 73 79
-0.0460714 -0.284414 -0.645 73 72 78
-0.0449124 -0.284855 -0.646 72 71 77
-0.0413486 -0.285737 -0.648 71 70 76
-0.0401762 -0.286178 -0.649 71 70 76
0.137006 -0.261044 -0.592 198 139 131
0.169873 -0.256193 -0.581 204 141 134
0.174803 -0.255311 -0.579 201 141 131
0.195311 -0.260603 -0.591 166 109 100
0.206852 -0.266776 -0.605 141 87 87
0.4645 -0.2315 -0.525 176 138 125
0.461953 -0.229736 -0.521 180 141 126
0.458571 -0.220476 -0.5 189 145 120
0.4719 -0.218271 -0.495 182 135 109
0.476632 -0.218712 -0.496 183 136 110
0.477577 -0.218712 -0.496 182 135 109
0.485218 -0.220035 -0.499 166 124 99
0.508615 -0.22665 -0.514 147 110 92
-0.0997286 -0.259071 -0.585 83 84 88
-0.098 -0.2604 -0.588 74 75 79
-0.0683381 -0.281214 -0.635 69 68 76
-0.0401762 -0.287414 -0.649 71 70 76
0.134978 -0.262614 -0.593 202 143 135
0.137667 -0.261286 -0.59 209 150 144
0.142941 -0.258629 -0.584 205 146 138
0.15054 -0.256414 -0.579 193 134 126
0.227857 -0.282543 -0.638 255 248 255
0.458684 -0.227629 -0.514 185 144 126
0.456364 -0.224086 -0.506 187 144 125
0.459583 -0.220543 -0.498 188 142 118
0.460553 -0.2201 -0.497 190 144 120
0.46435 -0.219657 -0.496 189 143 119
0.486169 -0.220986 -0.499 163 121 96
0.499757 -0.224529 -0.507 150 111 96
-0.128386 -0.286871 -0.645 93 96 103
-0.107712 -0.26063 -0.586 96 97 102
-0.10476 -0.258851 -0.582 94 95 99
-0.0937638 -0.268636 -0.604 90 89 95
-0.0834 -0.2802 -0.63 58 57 62
-0.0473 -0.286871 -0.645 74 73 79
-0.0425829 -0.288206 -0.648 72 71 77
0.127946 -0.28865 -0.649 191 136 133
0.125519 -0.272639 -0.613 196 139 132
0.125447 -0.26997 -0.607 187 130 121
0.127853 -0.267747 -0.602 212 155 148
0.136543 -0.26241 -0.59 212 153 147
0.151119 -0.256628 -0.577 194 135 121
0.154416 -0.256628 -0.577 192 134 120
0.16239 -0.257072 -0.578 191 131 121
0.171198 -0.257072 -0.578 197 134 125
0.183943 -0.257962 -0.58 190 130 120
0.191753 -0.261075 -0.587 168 108 98
0.201042 -0.265968 -0.598 148 95 91
0.457654 -0.221936 -0.499 188 144 119
0.468124 -0.219712 -0.494 186 139 113
0.470947 -0.219712 -0.494 186 138 115
0.47377 -0.219712 -0.494 185 135 112
0.482327 -0.221047 -0.497 174 130 103
-0.117154 -0.27336 -0.612 97 100 105
-0.0753571 -0.28274 -0.633 57 56 62
-0.0741514 -0.28274 -0.633 58 57 63
-0.0707571 -0.283633 -0.635 65 64 70
-0.0638 -0.284973 -0.638 71 70 78
-0.0603429 -0.285867 -0.64 74 73 81
-0.0509067 -0.287653 -0.644 74 73 79
0.130421 -0.267107 -0.598 200 143 134
0.136967 -0.262193 -0.587 209 150 144
0.138491 -0.260853 -0.584 202 143 135
0.141343 -0.25996 -0.582 204 144 136
0.154149 -0.25728 -0.576 194 137 120
0.207878 -0.271573 -0.608 134 84 87
0.218103 -0.27872 -0.624 150 122 134
0.457654 -0.222887 -0.499 188 144 119
0.463393 -0.221993 -0.497 189 143 119
0.4653 -0.2211 -0.495 189 143 119
0.50662 -0.228247 -0.511 147 110 92
-0.113714 -0.269143 -0.6 96 99 104
-0.10126 -0.26062 -0.581 90 94 97
-0.0981667 -0.264209 -0.589 72 73 77
-0.0812571 -0.283497 -0.632 54 53 58
-0.0754762 -0.284394 -0.634 55 54 60
-0.0626829 -0.286637 -0.639 70 69 77
-0.0603429 -0.287086 -0.64 73 72 80
-0.0509067 -0.28888 -0.644 73 72 80
0.12511 -0.274077 -0.611 193 139 129
0.12524 -0.271834 -0.606 208 153 146
0.13496 -0.26376 -0.588 206 149 140
0.135617 -0.262863 -0.586 205 146 138
0.139126 -0.261069 -0.582 200 142 131
0.141962 -0.260171 -0.58 202 142 132
0.14282 -0.259723 -0.579 201 141 131
0.160452 -0.257929 -0.575 202 143 127
0.167314 -0.258377 -0.576 199 139 128
0.180006 -0.259274 -0.578 195 135 125
0.183943 -0.260171 -0.58 184 124 113
0.20822 -0.27318 -0.609 127 81 84
0.460469 -0.231463 -0.516 182 144 121
0.456581 -0.225183 -0.502 191 146 125
0.456626 -0.224734 -0.501 189 144 123
0.458605 -0.223837 -0.499 189 145 120
0.459583 -0.223389 -0.498 192 146 122
0.466243 -0.222043 -0.495 189 143 119
-0.1044 -0.261276 -0.58 93 97 100
-0.10126 -0.261727 -0.581 92 93 97
-0.0946 -0.271187 -0.602 93 94 99
-0.0859362 -0.28425 -0.631 66 65 71
-0.0813857 -0.285151 -0.633 53 52 57
-0.0497571 -0.290557 -0.645 74 73 81
-0.0449819 -0.291458 -0.647 73 73 81
0.124905 -0.27479 -0.61 210 158 147
0.128357 -0.269835 -0.599 200 146 134
0.13778 -0.261727 -0.581 204 146 134
0.145371 -0.259474 -0.576 195 136 122
0.178905 -0.260375 -0.578 195 137 125
0.456424 -0.22749 -0.505 188 146 124
0.48997 -0.224788 -0.499 155 114 96
-0.116006 -0.274143 -0.606 94 97 102
-0.0973743 -0.267357 -0.591 81 82 87
-0.0891162 -0.284095 -0.628 76 77 81
-0.0825914 -0.286357 -0.633 55 54 59
-0.062781 -0.289524 -0.64 71 70 78
0.126369 -0.289976 -0.641 181 131 124
0.139511 -0.261929 -0.579 200 142 130
0.145119 -0.260119 -0.575 193 134 120
0.171405 -0.260119 -0.575 193 134 120
0.177496 -0.261024 -0.577 195 137 123
0.202387 -0.272333 -0.602 134 92 93
0.493146 -0.253786 -0.561 176 140 128
0.482762 -0.247905 -0.548 175 139 127
0.46436 -0.223476 -0.494 188 142 118
0.468115 -0.223024 -0.493 183 137 113
0.469054 -0.223024 -0.493 175 129 105
0.493843 -0.226643 -0.501 154 116 95
-0.110695 -0.268029 -0.59 97 100 105
-0.106793 -0.26394 -0.581 98 99 104
-0.0995581 -0.265303 -0.584 80 81 85
-0.0912286 -0.280749 -0.618 87 88 92
-0.0663343 -0.290289 -0.639 64 63 71
-0.0593086 -0.291651 -0.642 74 73 81
-0.0569514 -0.292106 -0.643 73 72 80
0.12462 -0.273934 -0.603 202 148 136
0.152254 -0.260306 -0.573 197 138 122
0.160986 -0.260306 -0.573 200 141 125
0.464723 -0.237591 -0.523 185 142 125
0.460553 -0.22578 -0.497 191 146 123
0.469054 -0.223963 -0.493 177 131 107
0.475628 -0.223963 -0.493 183 137 113
0.488007 -0.22578 -0.497 159 118 96
-0.110695 -0.269152 -0.59 100 101 106
-0.105505 -0.26459 -0.58 98 99 104
-0.10219 -0.26459 -0.58 98 99 103
-0.101434 -0.265503 -0.582 93 94 98
-0.0997286 -0.266871 -0.585 79 80 84
-0.0981667 -0.268696 -0.589 76 77 81
-0.0940743 -0.276451 -0.606 96 97 102
-0.0840619 -0.289681 -0.635 60 59 64
-0.0732914 -0.290137 -0.636 53 52 58
0.124086 -0.276451 -0.606 199 145 135
0.150899 -0.260941 -0.572 195 136 122
0.160705 -0.260941 -0.572 201 142 126
0.17469 -0.26231 -0.575 197 138 124
0.182838 -0.26459 -0.58 174 115 107
0.196633 -0.271433 -0.595 145 94 93
0.460586 -0.225814 -0.495 192 147 124
0.464359 -0.224902 -0.493 188 142 118
0.476567 -0.224902 -0.493 183 137 113
0.483214 -0.225814 -0.495 168 126 102
0.501633 -0.230376 -0.505 148 110 89
-0.10067 -0.267528 -0.584 89 90 94
-0.0973743 -0.270734 -0.591 90 91 96
-0.0769257 -0.291349 -0.636 48 47 52
-0.0699857 -0.292723 -0.639 55 54 59
-0.0664381 -0.293181 -0.64 64 63 71
0.124934 -0.274399 -0.599 201 147 135
0.15281 -0.261572 -0.571 202 143 129
0.154986 -0.261572 -0.571 202 143 129
0.163973 -0.26203 -0.572 188 131 114
0.183153 -0.266153 -0.581 168 109 101
0.4581 -0.23317 -0.509 187 145 123
0.495751 -0.229506 -0.501 155 113 91
-0.0947571 -0.27738 -0.603 102 103 108
-0.0940743 -0.27876 -0.606 100 101 106
-0.0928257 -0.28198 -0.613 95 96 101
-0.065219 -0.2944 -0.64 64 63 71
0.124405 -0.2875 -0.625 200 148 137
0.14134 -0.26358 -0.573 182 120 105
0.147372 -0.26266 -0.571 198 135 118
0.151457 -0.2622 -0.57 201 142 128
0.18142 -0.26634 -0.579 171 112 104
0.184577 -0.26772 -0.582 163 104 96
0.458927 -0.23506 -0.511 186 143 124
0.457386 -0.2323 -0.505 187 144 125
0.46436 -0.22724 -0.494 187 141 118
0.4756 -0.22632 -0.492 184 136 113
0.496706 -0.23046 -0.501 151 109 93
0.498653 -0.23092 -0.502 151 109 93
-0.11032 -0.2716 -0.588 105 108 113
-0.0866171 -0.293771 -0.636 72 73 77
0.125473 -0.299776 -0.649 189 141 129
0.124934 -0.276681 -0.599 194 140 128
0.142183 -0.26421 -0.572 190 128 115
0.159336 -0.263748 -0.571 197 138 122
0.169717 -0.264671 -0.573 188 129 113
0.17469 -0.265595 -0.575 182 123 109
0.184894 -0.26929 -0.583 164 105 97
0.188078 -0.270676 -0.586 161 102 96
0.254929 -0.297929 -0.645 152 101 106
0.260619 -0.300238 -0.65 150 104 115
0.45744 -0.2328 -0.504 186 143 124
0.461537 -0.228181 -0.494 188 142 118
0.465291 -0.227257 -0.492 188 142 118
0.482201 -0.227719 -0.493 169 128 100
0.4899 -0.229567 -0.497 165 126 97
0.491834 -0.230029 -0.498 163 122 102
-0.126594 -0.294983 -0.636 96 99 106
-0.0997286 -0.271329 -0.585 79 80 85
-0.0959276 -0.27643 -0.596 103 104 109
-0.0949143 -0.280141 -0.604 99 100 105
-0.08862 -0.293591 -0.633 82 83 88
-0.08554 -0.295447 -0.637 62 63 67
-0.0770467 -0.295447 -0.637 45 46 51
-0.0699857 -0.296374 -0.639 54 53 59
-0.0665419 -0.297302 -0.641 56 55 63
-0.0641 -0.297302 -0.641 66 65 73
0.123134 -0.281532 -0.607 197 143 133
0.123587 -0.277358 -0.598 200 143 132
0.141093 -0.265299 -0.572 184 124 113
0.1482 -0.264371 -0.57 198 136 125
0.17469 -0.26669 -0.575 177 118 104
0.180006 -0.268082 -0.578 166 108 97
0.469281 -0.244428 -0.527 184 143 125
0.461537 -0.229122 -0.494 187 142 119
0.464359 -0.228658 -0.493 189 143 120
0.469022 -0.22773 -0.491 187 140 120
0.473667 -0.227267 -0.49 185 137 115
0.48314 -0.228658 -0.493 165 126 95
-0.126196 -0.295263 -0.634 94 97 104
-0.112009 -0.275237 -0.591 106 109 114
-0.0989514 -0.273374 -0.587 70 71 75
-0.09384 -0.285017 -0.612 94 95 99
-0.07826 -0.29666 -0.637 45 46 50
-0.0758333 -0.29666 -0.637 48 49 54
0.124003 -0.292934 -0.629 198 146 135
0.123793 -0.278963 -0.599 198 144 132
0.125023 -0.276634 -0.594 199 145 133
0.141934 -0.265923 -0.571 194 134 123
0.160424 -0.265923 -0.571 193 131 118
0.177496 -0.268717 -0.577 168 108 98
0.486619 -0.256143 -0.55 176 140 126
0.45744 -0.23472 -0.504 184 143 123
0.457686 -0.231926 -0.498 192 147 126
0.48216 -0.229131 -0.492 171 126 103
0.491793 -0.23146 -0.497 160 118 94
-0.105687 -0.271687 -0.581 111 112 117
-0.1044 -0.271219 -0.58 110 111 116
-0.0962495 -0.279636 -0.598 129 130 134
-0.0946952 -0.285248 -0.61 100 101 105
-0.0927048 -0.289924 -0.62 97 98 102
-0.084459 -0.298341 -0.638 58 59 63
-0.0699857 -0.298809 -0.639 51 50 56
0.123976 -0.296938 -0.635 194 141 133
0.153359 -0.266075 -0.569 202 143 129
0.157971 -0.266543 -0.57 204 142 131
0.164774 -0.26701 -0.571 181 119 108
0.263095 -0.303952 -0.65 218 202 229
0.48146 -0.253917 -0.543 178 140 119
0.459643 -0.231471 -0.495 192 145 125
0.46342 -0.230536 -0.493 189 143 120
0.465291 -0.230069 -0.492 190 142 120
0.483097 -0.230069 -0.492 167 123 96
0.500523 -0.234277 -0.501 153 116 97
0.502478 -0.234745 -0.502 152 115 96
0.123471 -0.302843 -0.645 197 143 131
0.157694 -0.267159 -0.569 202 140 129
0.164486 -0.267629 -0.57 180 118 107
0.178905 -0.271385 -0.578 164 106 95
0.45749 -0.23617 -0.503 188 147 127
0.457537 -0.235701 -0.502 187 146 126
0.464354 -0.231006 -0.492 189 143 120
0.466229 -0.231006 -0.492 189 143 120
0.467166 -0.231006 -0.492 190 142 120
0.470837 -0.229597 -0.489 185 139 116
0.492693 -0.232884 -0.496 154 112 90
-0.1254 -0.297 -0.63 91 94 101
-0.102543 -0.274371 -0.582 106 107 111
0.12826 -0.274843 -0.583 194 136 125
0.129149 -0.274371 -0.582 191 133 122
0.15309 -0.267771 -0.568 203 141 128
0.168037 -0.269186 -0.571 185 121 109
0.17051 -0.269657 -0.572 179 119 108
0.25539 -0.301714 -0.64 127 94 111
0.499006 -0.265886 -0.564 166 136 128
0.457537 -0.236657 -0.502 188 147 127
0.460586 -0.233357 -0.495 189 144 123
0.470837 -0.230529 -0.489 182 136 113
-0.122426 -0.29394 -0.621 90 93 100
-0.110695 -0.279267 -0.59 98 102 105
-0.107345 -0.276427 -0.584 99 100 104
-0.0781371 -0.30104 -0.636 45 46 50
-0.0757143 -0.30104 -0.636 43 44 49
0.122031 -0.292993 -0.619 193 140 126
0.121375 -0.285893 -0.604 192 138 128
0.132206 -0.27264 -0.576 187 129 117
0.133071 -0.272167 -0.575 188 129 115
0.1406 -0.2698 -0.57 187 128 114
0.143352 -0.268853 -0.568 193 134 120
0.169125 -0.270273 -0.571 183 119 107
0.172991 -0.27122 -0.573 161 104 97
0.260246 -0.305773 -0.646 140 124 150
0.26269 -0.307193 -0.649 162 146 172
0.466019 -0.246133 -0.52 177 140 122
0.458348 -0.239033 -0.505 186 148 129
0.459643 -0.2343 -0.495 190 145 124
0.4727 -0.23146 -0.489 182 135 115
0.473631 -0.23146 -0.489 182 136 113
0.501429 -0.236667 -0.5 154 116 97
-0.119681 -0.291321 -0.613 89 92 97
-0.0988333 -0.281816 -0.593 127 128 132
-0.0755952 -0.301776 -0.635 37 38 43
0.150926 -0.269935 -0.568 194 132 121
0.166657 -0.270886 -0.57 183 119 109
0.249 -0.2994 -0.63 134 93 99
0.473854 -0.252351 -0.531 177 140 124
0.457654 -0.237144 -0.499 189 146 127
0.457686 -0.236669 -0.498 189 146 127
0.461537 -0.234768 -0.494 188 143 122
0.465281 -0.233342 -0.491 190 143 123
0.470804 -0.231916 -0.488 183 136 116
0.495528 -0.235718 -0.496 157 115 93
0.510337 -0.24047 -0.506 149 112 93
-0.10041 -0.281037 -0.589 74 75 80
0.121438 -0.296783 -0.622 193 136 127
0.126931 -0.277697 -0.582 185 127 116
0.12782 -0.27722 -0.581 186 128 117
0.137343 -0.271971 -0.57 181 122 108
0.172991 -0.273403 -0.573 162 102 101
0.194532 -0.285809 -0.599 119 79 90
0.199443 -0.289626 -0.607 125 115 142
0.212472 -0.301554 -0.632 184 182 206
0.238216 -0.306803 -0.643 164 109 115
0.241894 -0.296306 -0.621 159 107 109
0.248605 -0.300123 -0.629 134 92 96
0.25701 -0.305849 -0.641 147 119 133
0.487826 -0.261951 -0.549 173 139 127
0.457619 -0.238571 -0.5 188 147 129
0.460596 -0.235709 -0.494 190 145 126
0.465281 -0.234277 -0.491 189 144 123
0.474522 -0.232846 -0.488 177 133 108
0.484921 -0.234277 -0.491 168 123 100
-0.0941886 -0.297968 -0.622 174 176 171
-0.0918 -0.3018 -0.63 157 162 156
0.120651 -0.293177 -0.612 190 133 126
0.121714 -0.287429 -0.6 184 127 118
0.122038 -0.285512 -0.596 186 129 120
0.12376 -0.28168 -0.588 193 136 127
0.1337 -0.274494 -0.573 186 126 115
0.136496 -0.273536 -0.571 183 123 112
0.175786 -0.275452 -0.575 156 98 96
0.177496 -0.27641 -0.577 156 98 96
0.259037 -0.308028 -0.643 191 181 190
0.457713 -0.238087 -0.497 188 145 126
0.465267 -0.234733 -0.49 189 144 123
0.467111 -0.234254 -0.489 188 141 121
0.469874 -0.233775 -0.488 184 138 115
0.49353 -0.23665 -0.494 162 117 94
-0.122229 -0.29819 -0.62 76 79 84
-0.104008 -0.280876 -0.584 83 84 89
-0.102306 -0.282319 -0.587 79 80 85
-0.0973762 -0.290976 -0.605 218 217 222
0.134556 -0.275105 -0.572 185 125 115
0.149844 -0.273181 -0.568 189 127 116
0.1716 -0.275105 -0.572 165 102 97
0.188238 -0.283762 -0.59 144 88 89
0.190004 -0.284724 -0.592 133 83 86
0.217057 -0.308771 -0.642 185 183 204
0.233554 -0.300114 -0.624 189 121 118
0.245047 -0.299633 -0.623 146 95 91
0.460606 -0.236629 -0.492 189 144 125
0.490652 -0.23711 -0.493 162 120 96
0.502327 -0.239995 -0.499 156 114 92
-0.120071 -0.296957 -0.615 79 83 86
-0.10548 -0.282954 -0.586 80 81 86
0.120727 -0.30758 -0.637 190 135 128
0.120983 -0.305166 -0.632 188 136 122
0.121243 -0.296957 -0.615 187 130 119
0.128261 -0.279091 -0.578 187 130 119
0.130881 -0.277643 -0.575 186 129 118
0.149844 -0.274263 -0.568 184 125 109
0.1716 -0.276194 -0.572 161 93 90
0.235767 -0.310477 -0.643 161 104 113
0.242294 -0.298889 -0.619 153 102 98
0.459255 -0.244326 -0.506 182 143 126
0.458449 -0.242877 -0.503 185 147 128
0.458682 -0.239497 -0.496 186 145 127
0.465267 -0.2366 -0.49 190 148 126
-0.115623 -0.292796 -0.604 77 81 84
-0.0982029 -0.292311 -0.603 187 186 194
-0.0776457 -0.30637 -0.632 34 35 40
0.12355 -0.284555 -0.587 189 132 121
0.128914 -0.279223 -0.576 189 131 120
0.137102 -0.27583 -0.569 187 129 117
0.154171 -0.275345 -0.568 165 101 91
0.155527 -0.27583 -0.569 164 100 90
0.160946 -0.27583 -0.569 169 100 95
0.178905 -0.280192 -0.578 159 98 93
0.230934 -0.299098 -0.617 187 126 125
0.231016 -0.29619 -0.611 193 132 131
0.257829 -0.310248 -0.64 200 182 194
0.473189 -0.255954 -0.528 175 139 127
0.45931 -0.244805 -0.505 183 144 127
0.457713 -0.240927 -0.497 188 145 126
0.460606 -0.238503 -0.492 187 144 125
0.47731 -0.236564 -0.488 173 125 102
0.4858 -0.237533 -0.49 171 124 98
0.490594 -0.238503 -0.492 168 122 98
0.495411 -0.239472 -0.494 157 115 93
-0.100922 -0.288107 -0.592 71 72 77
-0.0925571 -0.30514 -0.627 199 201 198
-0.0916543 -0.306113 -0.629 192 194 191
0.120158 -0.308547 -0.634 193 134 126
0.120454 -0.297353 -0.611 187 133 123
0.12264 -0.28616 -0.588 188 131 120
0.129786 -0.279833 -0.575 191 133 122
0.152008 -0.276427 -0.568 172 108 98
0.155527 -0.276913 -0.569 164 100 91
0.18094 -0.282753 -0.581 155 96 90
0.239168 -0.298813 -0.614 171 111 103
0.243473 -0.301247 -0.619 154 99 94
0.4671 -0.25258 -0.519 173 137 123
0.457619 -0.243333 -0.5 188 147 129
0.470767 -0.237007 -0.487 177 132 109
0.512214 -0.245767 -0.505 150 111 94
-0.124604 -0.305846 -0.626 78 82 85
-0.120852 -0.302426 -0.619 77 80 85
-0.110686 -0.291189 -0.596 74 77 82
-0.0762 -0.3078 -0.63 37 36 42
0.132609 -0.279951 -0.573 183 125 114
0.133233 -0.278974 -0.571 184 126 115
0.136861 -0.277509 -0.568 187 129 118
0.159862 -0.277997 -0.569 179 112 106
0.160946 -0.277997 -0.569 178 111 105
0.18648 -0.28728 -0.588 147 91 92
0.2024 -0.30096 -0.616 143 149 185
0.233083 -0.312197 -0.639 165 106 108
0.229504 -0.296563 -0.607 194 130 128
0.2349 -0.29754 -0.609 187 124 117
0.460605 -0.239889 -0.491 186 143 124
0.469839 -0.237934 -0.487 184 139 116
0.496352 -0.241354 -0.494 160 117 98
0.51821 -0.248683 -0.509 147 109 86
-0.1189 -0.301643 -0.615 76 79 84
0.120983 -0.309981 -0.632 193 136 125
0.12869 -0.282024 -0.575 190 132 121
0.146082 -0.27761 -0.566 188 128 118
0.15066 -0.2781 -0.567 168 101 92
0.179214 -0.283986 -0.579 152 94 90
0.193069 -0.293305 -0.598 130 83 89
0.196481 -0.296738 -0.605 131 117 143
0.230357 -0.306548 -0.625 187 121 122
0.228724 -0.29821 -0.608 189 128 125
0.229126 -0.297229 -0.606 192 131 128
0.240337 -0.301152 -0.614 155 100 97
0.250602 -0.308019 -0.628 128 95 102
0.483809 -0.265348 -0.541 170 136 124
0.457686 -0.244257 -0.498 189 148 130
0.459664 -0.241805 -0.493 188 147 127
0.462467 -0.240333 -0.49 187 145 123
0.47726 -0.238862 -0.487 174 126 104
0.480099 -0.239352 -0.488 173 125 103
0.482888 -0.239352 -0.488 175 124 103
-0.126399 -0.309708 -0.629 80 82 79
-0.124803 -0.308723 -0.627 75 77 74
-0.097859 -0.299368 -0.608 185 186 190
-0.0933029 -0.307246 -0.624 206 208 205
0.121014 -0.290997 -0.591 189 132 123
0.140691 -0.278688 -0.566 193 133 123
0.145004 -0.278688 -0.566 189 129 119
0.227566 -0.299368 -0.608 193 129 129
0.2299 -0.29789 -0.605 195 130 126
0.231052 -0.29789 -0.605 191 126 122
0.24742 -0.306753 -0.623 134 88 90
0.564807 -0.313647 -0.637 163 134 126
0.4698 -0.257023 -0.522 174 140 128
0.470767 -0.23979 -0.487 180 138 116
0.47917 -0.240282 -0.488 172 126 103
0.509111 -0.246683 -0.501 154 112 96
-0.0985286 -0.299043 -0.605 120 121 126
-0.0938857 -0.306457 -0.62 214 216 215
-0.0912171 -0.309423 -0.626 78 80 79
0.120026 -0.309917 -0.627 193 135 124
0.119486 -0.302503 -0.612 186 136 125
0.1245 -0.28718 -0.581 190 133 124
0.131288 -0.282731 -0.572 183 125 114
0.134934 -0.281249 -0.569 187 127 117
0.14742 -0.28026 -0.567 179 119 109
0.15066 -0.28026 -0.567 169 102 93
0.163909 -0.280754 -0.568 162 103 95
0.167743 -0.281743 -0.57 147 89 87
0.169125 -0.282237 -0.571 147 89 87
0.179214 -0.286191 -0.579 149 94 91
0.206217 -0.308434 -0.624 106 115 156
0.229167 -0.308929 -0.625 184 123 118
0.228146 -0.305963 -0.619 186 125 122
0.458605 -0.246649 -0.499 185 147 128
0.459669 -0.243189 -0.492 191 150 130
0.463386 -0.241706 -0.489 186 144 122
0.498234 -0.244177 -0.494 160 117 98
0.500186 -0.244671 -0.495 156 115 97
-0.11792 -0.305653 -0.616 84 85 90
-0.0938857 -0.307638 -0.62 167 169 168
0.121313 -0.291264 -0.587 188 131 122
0.135779 -0.281836 -0.568 186 126 116
0.154171 -0.281836 -0.568 180 116 106
0.188876 -0.293745 -0.592 123 72 77
0.226443 -0.300195 -0.605 195 129 130
0.23067 -0.299699 -0.604 190 123 117
0.23761 -0.302676 -0.61 164 103 98
0.258643 -0.317066 -0.639 219 199 211
0.458682 -0.24611 -0.496 187 146 126
0.478188 -0.241645 -0.487 172 126 102
-0.112914 -0.302842 -0.608 84 85 90
-0.111389 -0.301846 -0.606 83 84 89
-0.0909257 -0.310811 -0.624 64 65 67
0.124286 -0.288895 -0.58 191 133 122
0.13662 -0.28242 -0.567 189 131 120
0.142848 -0.281922 -0.566 188 128 118
0.160663 -0.282918 -0.568 164 105 99
0.170212 -0.284412 -0.571 144 86 84
0.203386 -0.308321 -0.619 106 101 133
0.246626 -0.309317 -0.621 133 87 89
0.258238 -0.317785 -0.638 210 190 202
0.458682 -0.247055 -0.496 184 143 123
0.45967 -0.244565 -0.491 188 147 127
0.47726 -0.242572 -0.487 180 132 110
0.483817 -0.24307 -0.488 175 130 109
0.485676 -0.24307 -0.488 173 128 105
0.49528 -0.245063 -0.492 163 120 101
-0.107035 -0.3005 -0.601 87 88 92
-0.0953162 -0.307 -0.614 122 123 125
0.118632 -0.298 -0.596 189 135 125
0.128243 -0.2865 -0.573 191 133 122
0.129334 -0.2865 -0.573 185 127 116
