ply
format ascii 1.0
comment Created by Open3D
element vertex 1290
property double x
property double y
property double z
property uchar red
property uchar green
property uchar blue
end_header
0.482195 -0.296376 -0.545 171 116 95
0.483233 -0.296376 -0.545 168 113 92
0.506294 -0.30399 -0.559 161 113 93
0.521513 -0.310515 -0.571 158 110 87
0.0961714 -0.333977 -0.612 190 144 144
0.103686 -0.311057 -0.57 184 133 130
0.104404 -0.309966 -0.568 184 133 130
0.114871 -0.306146 -0.561 188 133 130
0.134451 -0.304509 -0.558 179 118 113
0.142146 -0.305054 -0.559 171 108 103
0.14534 -0.305054 -0.559 169 105 103
0.146405 -0.305054 -0.559 166 105 102
0.150933 -0.3056 -0.56 165 101 99
0.15334 -0.306146 -0.561 154 93 90
0.157104 -0.307237 -0.563 148 90 86
0.162253 -0.308874 -0.566 140 82 78
0.1647 -0.30942 -0.567 137 82 77
0.20517 -0.320334 -0.587 160 99 96
0.34992 -0.353623 -0.648 197 206 223
0.352389 -0.353623 -0.648 163 178 211
0.372711 -0.354169 -0.649 253 249 255
0.49409 -0.346529 -0.635 198 197 205
0.49218 -0.344346 -0.631 193 192 206
0.451929 -0.302871 -0.555 177 122 102
0.453317 -0.299597 -0.549 189 128 100
0.46612 -0.295777 -0.542 187 130 103
0.471282 -0.295777 -0.542 189 131 109
0.493952 -0.300143 -0.55 159 111 89
0.504483 -0.303963 -0.557 161 113 91
0.0964105 -0.328024 -0.599 190 142 138
0.0981086 -0.318714 -0.582 198 143 140
0.108847 -0.30831 -0.563 186 131 128
0.112734 -0.307214 -0.561 187 132 129
0.121697 -0.305571 -0.558 185 130 125
0.124886 -0.305571 -0.558 188 133 128
0.125949 -0.305571 -0.558 186 131 126
0.134451 -0.305571 -0.558 174 113 108
0.142146 -0.306119 -0.559 168 105 100
0.14534 -0.306119 -0.559 171 108 103
0.149867 -0.306667 -0.56 160 99 96
0.153613 -0.307762 -0.562 154 93 90
0.16089 -0.309405 -0.565 145 88 81
0.170212 -0.31269 -0.571 133 80 72
0.175786 -0.314881 -0.575 131 78 72
0.177189 -0.315429 -0.576 131 78 72
0.183626 -0.317071 -0.579 146 88 86
0.185831 -0.317071 -0.579 167 101 102
0.190243 -0.317071 -0.579 175 109 111
0.196433 -0.318167 -0.581 186 115 113
0.208467 -0.323095 -0.59 141 86 83
0.212143 -0.325286 -0.594 119 76 83
0.218803 -0.330214 -0.603 115 77 90
0.221046 -0.331857 -0.606 115 74 80
0.363497 -0.354857 -0.648 142 163 208
0.375184 -0.355405 -0.649 252 254 253
0.380129 -0.355405 -0.649 252 253 255
0.391857 -0.355952 -0.65 186 201 244
0.4676 -0.322 -0.588 139 105 104
0.46185 -0.316524 -0.578 137 103 102
0.452496 -0.305024 -0.557 169 118 101
0.452407 -0.302833 -0.553 178 122 99
0.45396 -0.299 -0.546 185 129 106
0.458706 -0.297357 -0.543 193 135 111
0.46199 -0.29681 -0.542 190 132 108
0.463023 -0.29681 -0.542 188 130 106
0.465088 -0.29681 -0.542 188 130 106
0.47025 -0.29681 -0.542 191 133 109
0.121697 -0.306634 -0.558 188 133 128
0.131263 -0.306634 -0.558 181 120 115
0.133389 -0.306634 -0.558 179 118 113
0.174387 -0.315427 -0.574 131 76 69
0.177189 -0.316526 -0.576 133 80 74
0.216932 -0.330264 -0.601 113 76 83
0.37584 -0.356091 -0.648 252 253 255
0.377074 -0.356091 -0.648 253 254 249
0.393095 -0.35719 -0.65 185 199 244
0.39681 -0.35719 -0.65 183 197 236
0.403 -0.35719 -0.65 254 255 255
0.406714 -0.35719 -0.65 255 254 255
0.473167 -0.326967 -0.595 139 105 106
0.45264 -0.303337 -0.552 178 123 103
0.453535 -0.301139 -0.548 185 127 105
0.455205 -0.29949 -0.545 188 132 107
0.458893 -0.297842 -0.542 191 133 109
0.464055 -0.297842 -0.542 188 130 106
0.465088 -0.297842 -0.542 191 133 109
0.471443 -0.297292 -0.541 190 132 108
0.484563 -0.298391 -0.543 167 113 89
0.498903 -0.303337 -0.552 160 112 92
0.501766 -0.304436 -0.554 161 113 93
0.100605 -0.314866 -0.571 185 136 132
0.104929 -0.311557 -0.565 188 135 131
0.106005 -0.311557 -0.565 188 135 131
0.106891 -0.311006 -0.564 187 134 130
0.110794 -0.309903 -0.562 188 130 126
0.116591 -0.308249 -0.559 195 140 137
0.127011 -0.307697 -0.558 193 135 133
0.131263 -0.307697 -0.558 181 120 115
0.133389 -0.307697 -0.558 177 116 111
0.149867 -0.3088 -0.56 161 100 95
0.165281 -0.313763 -0.569 139 86 78
0.167743 -0.314314 -0.57 136 83 75
0.188813 -0.318726 -0.578 164 100 100
0.204052 -0.323689 -0.587 148 88 87
0.354992 -0.356223 -0.646 140 158 208
0.380777 -0.357326 -0.648 251 252 254
0.387546 -0.357877 -0.649 189 205 254
0.403 -0.358429 -0.65 251 255 255
0.477938 -0.331409 -0.601 137 108 113
0.46984 -0.32424 -0.588 143 105 104
0.45375 -0.301631 -0.547 185 128 108
0.460958 -0.298874 -0.542 190 132 108
0.467152 -0.298874 -0.542 192 134 110
0.475565 -0.298323 -0.541 184 128 105
0.479687 -0.298323 -0.541 175 121 97
0.51238 -0.309351 -0.561 160 111 94
0.0954448 -0.328127 -0.593 192 142 141
0.106891 -0.31208 -0.564 190 137 133
0.108653 -0.310973 -0.562 186 131 126
0.125949 -0.30876 -0.558 193 135 133
0.132326 -0.30876 -0.558 180 121 117
0.144275 -0.309313 -0.559 161 101 93
0.150134 -0.31042 -0.561 159 100 94
0.152543 -0.310973 -0.562 152 93 87
0.160097 -0.313187 -0.566 144 89 82
0.17051 -0.316507 -0.572 134 79 72
0.189914 -0.319827 -0.578 169 104 102
0.204052 -0.324807 -0.587 146 88 86
0.378957 -0.358007 -0.647 248 251 255
0.406089 -0.359113 -0.649 253 254 255
0.454143 -0.304333 -0.55 177 124 106
0.455603 -0.30046 -0.543 189 135 111
0.469382 -0.299353 -0.541 194 136 112
0.480717 -0.299353 -0.541 172 118 94
0.499954 -0.30544 -0.552 163 115 95
0.514364 -0.310973 -0.562 160 112 92
0.102958 -0.314265 -0.566 186 135 132
0.107774 -0.312599 -0.563 187 132 129
0.109724 -0.312044 -0.562 186 131 128
0.117656 -0.310378 -0.559 186 131 128
0.118509 -0.309823 -0.558 183 128 125
0.126784 -0.309268 -0.557 185 127 123
0.131263 -0.309823 -0.558 179 121 117
0.133389 -0.309823 -0.558 178 120 116
0.138951 -0.310378 -0.559 172 113 107
0.146667 -0.310933 -0.56 157 98 90
0.212077 -0.331477 -0.597 121 79 81
0.221343 -0.338695 -0.61 113 77 79
0.223964 -0.340916 -0.614 111 98 116
0.377141 -0.358684 -0.646 248 251 255
0.389417 -0.359794 -0.648 141 169 219
0.404852 -0.36035 -0.649 252 255 255
0.415381 -0.360905 -0.65 188 208 235
0.501348 -0.352576 -0.635 121 138 184
0.471277 -0.325925 -0.587 141 107 108
0.45437 -0.30205 -0.544 188 134 110
0.457861 -0.300939 -0.542 189 135 111
0.460958 -0.300939 -0.542 191 137 113
0.4788 -0.299829 -0.54 178 124 100
0.480717 -0.300384 -0.541 174 120 96
0.111666 -0.312557 -0.561 191 137 135
0.131028 -0.310329 -0.557 179 122 115
0.138703 -0.310886 -0.558 171 112 106
0.155234 -0.314229 -0.564 140 83 76
0.159019 -0.315343 -0.566 143 89 79
0.17051 -0.318686 -0.572 130 78 67
0.175786 -0.320357 -0.575 125 75 64
0.186611 -0.322029 -0.578 156 92 90
0.195663 -0.324257 -0.582 160 95 91
0.200014 -0.325929 -0.585 150 90 89
0.206569 -0.329271 -0.591 125 81 82
0.39621 -0.360471 -0.647 160 182 231
0.402372 -0.360471 -0.647 231 235 247
0.429 -0.362143 -0.65 145 162 206
0.46062 -0.3159 -0.567 154 111 105
0.455 -0.3042 -0.546 183 129 105
0.455205 -0.303643 -0.545 188 134 110
0.467321 -0.301414 -0.541 195 137 113
0.476743 -0.300857 -0.54 186 132 108
0.497237 -0.305871 -0.549 163 115 93
0.504931 -0.308657 -0.554 163 115 93
0.0993429 -0.318657 -0.57 190 141 137
0.111666 -0.313626 -0.561 191 138 134
0.112533 -0.313067 -0.56 185 131 129
0.116591 -0.312508 -0.559 187 133 131
0.118509 -0.311949 -0.558 187 134 130
0.12254 -0.31139 -0.557 185 130 125
0.125723 -0.31139 -0.557 180 125 120
0.141081 -0.312508 -0.559 152 93 87
0.149066 -0.313626 -0.561 149 90 82
0.157941 -0.316421 -0.566 142 88 78
0.16038 -0.31698 -0.567 140 88 77
0.179383 -0.322011 -0.576 123 75 65
0.191676 -0.324248 -0.58 160 99 96
0.193113 -0.324807 -0.581 162 99 94
0.215 -0.336547 -0.602 115 76 79
0.21982 -0.34046 -0.609 115 80 86
0.225058 -0.344932 -0.617 108 105 136
0.34722 -0.359468 -0.643 195 203 240
0.389446 -0.361145 -0.646 130 160 212
0.393137 -0.361145 -0.646 139 158 214
0.403605 -0.361704 -0.647 244 248 255
0.422159 -0.362822 -0.649 117 141 203
0.455623 -0.306358 -0.548 180 125 104
0.457861 -0.303004 -0.542 189 133 110
0.463199 -0.302445 -0.541 192 136 111
0.114667 -0.314133 -0.56 187 133 133
0.115527 -0.313572 -0.559 189 135 135
0.126784 -0.31245 -0.557 175 121 111
0.128906 -0.31245 -0.557 179 123 110
0.135514 -0.313011 -0.558 163 106 95
0.152814 -0.315816 -0.563 140 86 74
0.1593 -0.31806 -0.567 141 87 77
0.164197 -0.319182 -0.569 136 81 74
0.18551 -0.32423 -0.578 149 88 83
0.381471 -0.361814 -0.645 194 200 232
0.385157 -0.361814 -0.645 156 181 235
0.388843 -0.361814 -0.645 130 160 210
0.409767 -0.362936 -0.647 201 210 251
0.412231 -0.362936 -0.647 178 195 223
0.414696 -0.362936 -0.647 159 172 214
0.429576 -0.364058 -0.649 152 168 217
0.430812 -0.364058 -0.649 152 168 217
0.435757 -0.364058 -0.649 162 182 207
0.44881 -0.364619 -0.65 109 137 184
0.500205 -0.352839 -0.629 98 111 155
0.49662 -0.349473 -0.623 98 111 155
0.464682 -0.320865 -0.572 148 110 109
0.45756 -0.313011 -0.558 168 115 109
0.45604 -0.30628 -0.546 181 128 110
0.47894 -0.302353 -0.539 183 127 100
0.481886 -0.302914 -0.54 175 123 102
0.484839 -0.303475 -0.541 176 124 103
0.48587 -0.303475 -0.541 175 123 102
0.489734 -0.304597 -0.543 169 118 97
0.502197 -0.309085 -0.551 165 118 100
0.118509 -0.314074 -0.558 186 133 129
0.119571 -0.314074 -0.558 187 134 130
0.127845 -0.313511 -0.557 176 121 114
0.128906 -0.313511 -0.557 177 121 108
0.134451 -0.314074 -0.558 168 111 100
0.137887 -0.314637 -0.559 162 108 96
0.140016 -0.314637 -0.559 152 98 88
0.163113 -0.320266 -0.569 136 83 75
0.176881 -0.323643 -0.575 121 68 60
0.188037 -0.325894 -0.579 155 94 93
0.193446 -0.327583 -0.582 154 89 93
0.207617 -0.334337 -0.594 116 82 81
0.22352 -0.34672 -0.616 89 66 82
0.37049 -0.361917 -0.643 254 254 255
0.38088 -0.36248 -0.644 199 207 220
0.390071 -0.363043 -0.645 152 184 233
0.394368 -0.363606 -0.646 159 182 234
0.395598 -0.363606 -0.646 168 192 238
0.39929 -0.363606 -0.646 231 241 253
0.406672 -0.363606 -0.646 247 245 250
0.412825 -0.363606 -0.646 181 195 222
0.42768 -0.364731 -0.648 163 185 234
0.470076 -0.326457 -0.58 148 110 107
0.460108 -0.304506 -0.541 189 138 109
0.462169 -0.304506 -0.541 192 138 112
0.463199 -0.304506 -0.541 191 137 111
0.476887 -0.30338 -0.539 189 133 106
0.490769 -0.305631 -0.543 171 119 98
0.507042 -0.311823 -0.554 161 114 94
0.510849 -0.313511 -0.557 160 115 94
0.0964229 -0.323044 -0.572 190 145 140
0.0971714 -0.321914 -0.57 190 141 137
0.109333 -0.316267 -0.56 188 135 131
0.126784 -0.314572 -0.557 176 121 114
0.13315 -0.314572 -0.557 167 113 101
0.134451 -0.315137 -0.558 166 112 100
0.141333 -0.316267 -0.56 150 98 85
0.15067 -0.317961 -0.563 143 91 78
0.169421 -0.323044 -0.572 126 78 68
0.173293 -0.324173 -0.574 126 76 67
0.196335 -0.329821 -0.584 143 84 86
0.37294 -0.363142 -0.643 241 241 249
0.3999 -0.364271 -0.645 249 255 255
0.411594 -0.364836 -0.646 201 213 239
0.430717 -0.365401 -0.647 220 231 255
0.43195 -0.365401 -0.647 213 224 252
0.450591 -0.36653 -0.649 121 163 221
0.451828 -0.36653 -0.649 107 146 211
0.455 -0.367095 -0.65 80 123 191
0.458714 -0.367095 -0.65 109 152 221
0.47481 -0.367095 -0.65 189 187 208
0.458038 -0.314008 -0.556 162 120 108
0.459926 -0.306101 -0.542 191 135 110
0.465429 -0.304971 -0.54 194 140 114
0.484971 -0.304971 -0.54 178 123 102
0.0923067 -0.341133 -0.602 195 146 142
0.0926771 -0.3383 -0.597 194 149 144
0.0947381 -0.325833 -0.575 192 149 142
0.0979124 -0.321867 -0.568 189 140 136
0.106323 -0.3179 -0.561 189 136 132
0.108267 -0.317333 -0.56 190 137 133
0.121479 -0.315633 -0.557 180 125 118
0.127845 -0.315633 -0.557 169 115 105
0.132089 -0.315633 -0.557 171 114 103
0.142654 -0.3179 -0.561 149 97 86
0.155785 -0.320733 -0.566 140 90 79
0.169421 -0.324133 -0.572 128 80 70
0.175786 -0.325833 -0.575 125 75 68
0.192668 -0.330367 -0.583 147 89 88
0.210506 -0.339433 -0.599 116 77 80
0.214919 -0.342833 -0.605 117 76 80
0.387637 -0.364367 -0.643 162 188 239
0.396827 -0.364933 -0.644 200 221 255
0.398053 -0.364933 -0.644 245 249 255
0.400507 -0.364933 -0.644 248 251 255
0.429485 -0.366633 -0.647 194 217 255
0.434414 -0.366633 -0.647 210 212 227
0.472843 -0.367767 -0.649 196 195 211
0.478524 -0.368333 -0.65 180 197 241
0.504998 -0.358133 -0.632 88 104 153
0.474939 -0.332067 -0.586 149 112 106
0.476002 -0.304867 -0.538 188 137 110
0.478051 -0.304867 -0.538 183 131 107
0.483047 -0.305433 -0.539 178 126 104
0.09774 -0.32238 -0.567 191 142 138
0.124662 -0.316694 -0.557 174 120 110
0.136822 -0.317831 -0.559 159 105 95
0.138133 -0.3184 -0.56 153 99 89
0.169421 -0.325223 -0.572 130 80 71
0.182208 -0.328634 -0.578 133 80 76
0.210857 -0.341143 -0.6 118 76 78
0.217857 -0.346829 -0.61 107 81 80
0.385188 -0.365591 -0.643 171 193 242
0.394373 -0.36616 -0.644 171 192 235
0.420786 -0.366729 -0.645 129 154 211
0.444273 -0.367866 -0.647 182 190 211
0.448663 -0.368434 -0.648 139 180 234
0.455536 -0.369003 -0.649 105 143 205
0.458009 -0.369003 -0.649 124 162 225
0.467898 -0.369003 -0.649 228 227 243
0.476551 -0.369003 -0.649 209 210 228
0.479762 -0.369571 -0.65 152 169 215
0.48719 -0.369571 -0.65 53 84 166
0.493381 -0.369571 -0.65 147 165 215
0.508238 -0.369571 -0.65 203 207 234
0.458893 -0.308166 -0.542 191 135 110
0.460108 -0.307597 -0.541 193 139 113
0.467647 -0.30646 -0.539 194 138 113
0.493871 -0.308734 -0.543 169 122 102
0.509152 -0.314989 -0.554 160 115 96
0.0922114 -0.338863 -0.594 195 150 147
0.0930305 -0.329735 -0.578 195 150 145
0.0936429 -0.328024 -0.575 193 150 144
0.0984714 -0.322319 -0.565 191 140 137
0.10134 -0.321178 -0.563 187 136 133
0.108267 -0.319467 -0.56 186 133 129
0.112533 -0.319467 -0.56 185 129 128
0.116383 -0.318326 -0.558 182 127 122
0.123601 -0.317755 -0.557 164 109 102
0.125723 -0.317755 -0.557 173 119 109
0.132089 -0.317755 -0.557 168 114 102
0.141586 -0.320037 -0.561 146 94 83
0.142654 -0.320037 -0.561 144 92 81
0.149863 -0.321749 -0.564 138 88 79
0.162314 -0.325171 -0.57 129 79 70
0.1634 -0.325171 -0.57 132 82 75
0.194443 -0.333729 -0.585 115 74 68
0.377885 -0.365675 -0.641 232 232 242
0.379106 -0.365675 -0.641 223 223 233
0.382143 -0.366246 -0.642 172 191 231
0.384589 -0.366246 -0.642 177 195 243
0.388257 -0.366246 -0.642 181 202 247
0.39621 -0.366816 -0.643 211 230 255
0.40111 -0.366816 -0.643 251 255 255
0.402334 -0.366816 -0.643 247 255 255
0.416453 -0.367387 -0.644 130 156 207
0.429386 -0.367957 -0.645 158 178 215
0.458537 -0.369669 -0.648 138 175 230
0.464709 -0.369669 -0.648 224 223 241
0.493381 -0.37081 -0.65 115 140 194
0.508692 -0.370239 -0.649 181 190 219
0.504194 -0.358259 -0.628 116 118 143
0.46931 -0.328024 -0.575 152 115 107
0.461333 -0.319467 -0.56 158 119 114
0.45978 -0.315473 -0.553 167 124 108
0.464567 -0.307487 -0.539 194 138 113
0.46662 -0.307487 -0.539 193 139 115
0.467804 -0.306916 -0.538 193 139 115
0.480101 -0.306916 -0.538 185 133 111
0.492962 -0.309198 -0.542 170 123 103
0.0910086 -0.344001 -0.601 193 145 141
0.105254 -0.321106 -0.561 189 135 133
0.114462 -0.319961 -0.559 185 130 127
0.129137 -0.319389 -0.558 166 112 102
0.148789 -0.322823 -0.564 144 92 81
0.157417 -0.325112 -0.568 139 86 78
0.180006 -0.330836 -0.578 128 79 74
0.186794 -0.333126 -0.582 131 83 79
0.193659 -0.335415 -0.586 115 72 66
0.204223 -0.339994 -0.594 117 75 77
0.214473 -0.347435 -0.607 109 80 82
0.216695 -0.349152 -0.61 113 84 86
0.236549 -0.361745 -0.632 162 161 192
0.237752 -0.361745 -0.632 171 167 202
0.369981 -0.366324 -0.64 250 249 254
0.38399 -0.366896 -0.641 195 209 254
0.387652 -0.366896 -0.641 198 216 254
0.39866 -0.368041 -0.643 247 252 255
0.427493 -0.368613 -0.644 129 155 204
0.439214 -0.369186 -0.645 237 233 247
0.449739 -0.369758 -0.646 149 179 233
0.458537 -0.370903 -0.648 127 159 210
0.467177 -0.370903 -0.648 230 230 242
0.492622 -0.371475 -0.649 82 111 177
0.493858 -0.371475 -0.649 98 127 193
0.500039 -0.371475 -0.649 181 188 206
0.506674 -0.370903 -0.648 211 209 223
0.468769 -0.327974 -0.573 155 118 112
0.464376 -0.323395 -0.565 159 118 116
0.464567 -0.308513 -0.539 194 140 116
0.477163 -0.307369 -0.537 189 135 111
0.4842 -0.307941 -0.538 182 130 109
0.487153 -0.308513 -0.539 177 126 105
0.0901629 -0.346294 -0.603 190 146 145
0.0948333 -0.326769 -0.569 188 143 146
0.1104 -0.3216 -0.56 185 130 127
0.138133 -0.3216 -0.56 147 95 84
0.149052 -0.324471 -0.565 146 94 83
0.15498 -0.32562 -0.567 140 88 77
0.159862 -0.326769 -0.569 134 81 73
0.18142 -0.332511 -0.579 125 80 75
0.20275 -0.340551 -0.593 117 75 77
0.390094 -0.368117 -0.641 174 190 226
0.39804 -0.368691 -0.642 251 253 252
0.399263 -0.368691 -0.642 252 255 255
0.400486 -0.368691 -0.642 245 249 252
0.4066 -0.368691 -0.642 218 224 246
0.409046 -0.368691 -0.642 148 165 208
0.412714 -0.368691 -0.642 186 201 242
0.42872 -0.36984 -0.644 137 155 201
0.445357 -0.370414 -0.645 156 175 217
0.477051 -0.372137 -0.648 102 128 189
0.480754 -0.372137 -0.648 99 134 192
0.485691 -0.372137 -0.648 110 144 205
0.460984 -0.319877 -0.557 159 126 111
0.478186 -0.308391 -0.537 187 135 111
0.126784 -0.320938 -0.557 172 114 112
0.131263 -0.321514 -0.558 160 106 94
0.138133 -0.322667 -0.56 145 93 82
0.144235 -0.324395 -0.563 147 94 86
0.150129 -0.325548 -0.565 145 90 83
0.1634 -0.328429 -0.57 127 79 77
0.180317 -0.333614 -0.579 126 78 76
0.1911 -0.337071 -0.585 116 72 73
0.205254 -0.343986 -0.597 111 70 66
0.213317 -0.349748 -0.607 104 72 75
0.23978 -0.363576 -0.631 172 178 200
0.392536 -0.369338 -0.641 212 226 253
0.413937 -0.369914 -0.642 218 234 255
0.447814 -0.371643 -0.645 168 193 234
0.454661 -0.372219 -0.646 182 209 252
0.463991 -0.372795 -0.647 234 232 246
0.47385 -0.372795 -0.647 182 192 219
0.489871 -0.372795 -0.647 127 154 199
0.494801 -0.372795 -0.647 113 144 201
0.496011 -0.352629 -0.612 146 121 127
0.4845 -0.342833 -0.595 147 118 120
0.466276 -0.326124 -0.566 157 117 118
0.464051 -0.323819 -0.562 156 122 110
0.461215 -0.320362 -0.556 166 124 108
0.46473 -0.30999 -0.538 189 141 119
0.467957 -0.309414 -0.537 191 140 119
0.474094 -0.309414 -0.537 195 143 121
0.478316 -0.308838 -0.536 184 136 113
0.480358 -0.308838 -0.536 182 132 109
0.0902514 -0.344545 -0.596 194 146 146
0.0916114 -0.332983 -0.576 192 143 138
0.0981229 -0.325468 -0.563 189 138 135
0.10098 -0.324311 -0.561 189 138 135
0.117446 -0.322577 -0.558 179 126 122
0.133628 -0.323155 -0.559 165 108 99
0.143163 -0.325468 -0.563 149 94 87
0.149052 -0.326624 -0.565 144 89 82
0.183153 -0.335873 -0.581 121 77 74
0.38766 -0.369403 -0.639 185 205 240
0.394362 -0.369981 -0.64 243 250 255
0.40963 -0.370559 -0.641 201 210 243
0.422497 -0.371137 -0.642 207 221 250
0.42372 -0.371137 -0.642 199 212 244
0.427389 -0.371137 -0.642 173 187 216
0.435403 -0.371715 -0.643 241 243 255
0.445893 -0.372293 -0.644 162 177 216
0.44712 -0.372293 -0.644 167 182 221
0.459583 -0.37345 -0.646 184 199 232
0.47804 -0.37345 -0.646 149 166 212
0.491575 -0.37345 -0.646 100 121 168
0.494036 -0.37345 -0.646 104 124 175
0.474232 -0.309859 -0.536 193 141 119
0.480358 -0.309859 -0.536 184 134 111
0.481379 -0.309859 -0.536 182 132 109
0.487391 -0.310437 -0.537 182 127 106
0.4932 -0.312171 -0.54 173 125 103
0.495144 -0.31275 -0.541 169 121 99
0.507571 -0.317952 -0.55 160 118 96
0.102933 -0.3248 -0.56 193 140 136
0.104 -0.3248 -0.56 188 135 131
0.110006 -0.32364 -0.558 188 135 131
0.112131 -0.32364 -0.558 184 131 127
0.116383 -0.32364 -0.558 182 127 122
0.117235 -0.32306 -0.557 181 126 121
0.1302 -0.32364 -0.558 168 111 102
0.144491 -0.32712 -0.564 144 91 83
0.161511 -0.33118 -0.571 134 85 80
0.165063 -0.33176 -0.572 127 78 74
0.175298 -0.33466 -0.577 124 76 72
0.183153 -0.33698 -0.581 120 76 73
0.184577 -0.33756 -0.582 120 76 73
0.2322 -0.3654 -0.63 154 154 190
0.2358 -0.3654 -0.63 83 85 123
0.2382 -0.3654 -0.63 148 151 184
0.384623 -0.37004 -0.638 201 216 249
0.38766 -0.37062 -0.639 175 195 230
0.391924 -0.3712 -0.64 224 232 255
0.40963 -0.37178 -0.641 219 230 250
0.434726 -0.37236 -0.642 238 241 255
0.452027 -0.37352 -0.644 186 210 248
0.456414 -0.3741 -0.645 142 168 205
0.457643 -0.3741 -0.645 160 186 223
0.472386 -0.3741 -0.645 171 184 219
0.481858 -0.34162 -0.589 153 118 116
0.47806 -0.33814 -0.583 155 120 118
0.474239 -0.33466 -0.577 162 121 119
0.461138 -0.31378 -0.541 190 138 116
0.465754 -0.31204 -0.538 190 138 117
0.0885714 -0.349143 -0.6 195 147 143
0.0898533 -0.340996 -0.586 195 145 144
0.103814 -0.325285 -0.559 190 137 133
0.110006 -0.324703 -0.558 188 135 131
0.112131 -0.324703 -0.558 186 131 126
0.120202 -0.323539 -0.556 178 123 116
0.126784 -0.324121 -0.557 164 110 100
0.144491 -0.328194 -0.564 144 91 83
0.159057 -0.331686 -0.57 132 81 77
0.180629 -0.337505 -0.58 121 76 73
0.399831 -0.371837 -0.639 232 235 254
0.405333 -0.372419 -0.64 209 217 236
0.407771 -0.372419 -0.64 243 252 255
0.40899 -0.372419 -0.64 237 246 253
0.4224 -0.372419 -0.64 235 241 255
0.429165 -0.373001 -0.641 208 213 233
0.443286 -0.373583 -0.642 190 201 221
0.444509 -0.373583 -0.642 160 176 209
0.44765 -0.374165 -0.643 158 180 219
0.45448 -0.374747 -0.644 157 176 219
0.471157 -0.375329 -0.645 173 179 205
0.486653 -0.37591 -0.646 197 207 232
0.4945 -0.375329 -0.645 129 139 174
0.5031 -0.375329 -0.645 205 208 225
0.510471 -0.375329 -0.645 117 139 178
0.48052 -0.340996 -0.586 154 120 118
0.468432 -0.329358 -0.566 155 124 122
0.460842 -0.318884 -0.548 176 132 119
0.462343 -0.314229 -0.54 190 135 114
0.480481 -0.311319 -0.535 188 136 112
0.0988429 -0.327517 -0.561 195 142 138
0.112991 -0.325182 -0.557 187 132 127
0.114052 -0.325182 -0.557 184 129 124
0.121479 -0.325182 -0.557 169 114 107
0.144748 -0.329852 -0.565 140 90 81
0.14716 -0.330436 -0.566 139 89 80
0.175602 -0.337442 -0.578 127 79 77
0.189517 -0.342696 -0.587 117 76 74
0.192733 -0.344448 -0.59 116 74 75
0.201843 -0.348534 -0.597 116 75 73
0.366457 -0.371303 -0.636 178 181 200
0.399831 -0.373054 -0.639 200 205 227
0.402266 -0.373054 -0.639 157 164 192
0.4047 -0.373054 -0.639 226 233 249
0.409569 -0.373054 -0.639 244 247 254
0.419306 -0.373054 -0.639 243 247 255
0.422957 -0.373054 -0.639 237 241 250
0.46184 -0.375973 -0.644 231 229 243
0.463067 -0.375973 -0.644 232 230 244
0.474107 -0.375973 -0.644 214 221 250
0.477787 -0.375973 -0.644 210 217 245
0.48024 -0.375973 -0.644 207 214 242
0.4859 -0.376557 -0.645 196 204 225
0.487129 -0.376557 -0.645 202 210 231
0.488357 -0.376557 -0.645 204 212 233
0.489586 -0.376557 -0.645 207 214 240
0.492507 -0.375973 -0.644 203 210 238
0.498186 -0.376557 -0.645 125 136 166
0.499414 -0.376557 -0.645 169 180 210
0.506786 -0.376557 -0.645 208 213 233
0.510471 -0.376557 -0.645 124 142 178
0.500786 -0.359043 -0.615 154 129 133
0.46473 -0.31409 -0.538 190 138 114
0.483538 -0.312338 -0.535 186 134 110
0.49434 -0.314673 -0.539 166 121 98
0.496286 -0.315257 -0.54 166 121 98
0.498235 -0.315841 -0.541 162 122 97
0.589419 -0.36313 -0.622 191 178 172
0.087981 -0.349086 -0.596 196 145 141
0.0958076 -0.329171 -0.562 195 141 139
0.103814 -0.327414 -0.559 194 139 136
0.123601 -0.326243 -0.557 171 117 107
0.127011 -0.326829 -0.558 169 112 103
0.137311 -0.328586 -0.561 148 95 89
0.138627 -0.329171 -0.562 146 93 87
0.1485 -0.3321 -0.567 141 90 86
0.158249 -0.334443 -0.571 130 81 76
0.170606 -0.337371 -0.576 128 80 76
0.179833 -0.3403 -0.581 120 76 73
0.185529 -0.342643 -0.585 119 75 74
0.20434 -0.352014 -0.601 117 77 75
0.230267 -0.367829 -0.628 168 163 185
0.241032 -0.367829 -0.628 177 186 217
0.243425 -0.367829 -0.628 182 185 216
0.383417 -0.372514 -0.636 183 197 236
0.408928 -0.373686 -0.638 244 247 254
0.412573 -0.373686 -0.638 247 250 255
0.415004 -0.373686 -0.638 229 232 241
0.416219 -0.373686 -0.638 237 240 249
0.422957 -0.374271 -0.639 243 245 255
0.43581 -0.374857 -0.64 216 222 248
0.439467 -0.374857 -0.64 203 208 227
0.461123 -0.376614 -0.643 202 201 215
0.474107 -0.3772 -0.644 215 220 250
0.490053 -0.3772 -0.644 205 211 237
0.493733 -0.3772 -0.644 212 217 246
0.496187 -0.3772 -0.644 99 108 139
0.508453 -0.3772 -0.644 161 167 189
0.477549 -0.312771 -0.534 186 136 111
0.478566 -0.312771 -0.534 187 137 112
0.481617 -0.312771 -0.534 185 133 109
0.486595 -0.313357 -0.535 182 132 109
0.495367 -0.3157 -0.539 167 122 99
0.0876857 -0.349046 -0.594 194 141 137
0.0929257 -0.331417 -0.564 191 134 127
0.108748 -0.327304 -0.557 189 134 127
0.109809 -0.327304 -0.557 182 127 122
0.112789 -0.326716 -0.556 181 128 120
0.143671 -0.332005 -0.565 135 85 78
0.151191 -0.334355 -0.569 141 91 84
0.154714 -0.334943 -0.57 135 85 78
0.156073 -0.33553 -0.571 133 83 76
0.157161 -0.33553 -0.571 131 82 77
0.161794 -0.336118 -0.572 130 82 80
0.16426 -0.336706 -0.573 128 80 78
0.172001 -0.339056 -0.577 127 82 79
0.185846 -0.344345 -0.586 118 77 75
0.228706 -0.368437 -0.627 168 165 186
0.237444 -0.369025 -0.628 123 126 157
0.241032 -0.369025 -0.628 170 180 215
0.374348 -0.373138 -0.635 238 246 255
0.375557 -0.373138 -0.635 232 240 251
0.38584 -0.373726 -0.636 167 183 234
0.396153 -0.374313 -0.637 187 194 210
0.401007 -0.374313 -0.637 205 212 231
0.425941 -0.374901 -0.638 239 243 255
0.433911 -0.375489 -0.639 146 152 184
0.43878 -0.375489 -0.639 181 187 209
0.441905 -0.376076 -0.64 206 212 236
0.458673 -0.377839 -0.643 205 221 246
0.462348 -0.377839 -0.643 176 175 189
0.468471 -0.377839 -0.643 120 132 170
0.486843 -0.377839 -0.643 209 216 235
0.50968 -0.378427 -0.644 133 149 185
0.510907 -0.378427 -0.644 113 129 165
0.464832 -0.325541 -0.554 165 125 113
0.461809 -0.319077 -0.543 183 135 113
0.463199 -0.317902 -0.541 186 135 114
0.463705 -0.316139 -0.538 189 137 113
0.472593 -0.313201 -0.533 190 138 114
0.479583 -0.313789 -0.534 190 140 115
0.483651 -0.313789 -0.534 184 132 108
0.486703 -0.313789 -0.534 182 130 108
0.498343 -0.317314 -0.54 162 120 96
0.0976 -0.330133 -0.56 197 142 137
0.101685 -0.329544 -0.559 192 139 135
0.109809 -0.328365 -0.557 185 128 121
0.118084 -0.327775 -0.556 179 125 115
0.1876 -0.34664 -0.588 119 77 78
0.192259 -0.348998 -0.592 112 81 79
0.203871 -0.355483 -0.603 116 81 79
0.233855 -0.370221 -0.628 168 168 192
0.243037 -0.369631 -0.627 157 165 204
0.244231 -0.369631 -0.627 160 168 207
0.397954 -0.374937 -0.636 186 193 221
0.422295 -0.376116 -0.638 239 243 255
0.424726 -0.376116 -0.638 240 244 255
0.43026 -0.376706 -0.639 225 231 247
0.435129 -0.376706 -0.639 150 159 190
0.444343 -0.377295 -0.64 166 178 218
0.448 -0.377295 -0.64 162 194 241
0.452363 -0.377885 -0.641 123 152 208
0.456737 -0.378474 -0.642 191 208 228
0.468966 -0.378474 -0.642 185 195 231
0.473857 -0.378474 -0.642 217 219 240
0.476303 -0.378474 -0.642 219 224 243
0.502765 -0.379064 -0.643 132 143 171
0.489855 -0.351356 -0.596 159 122 114
0.480566 -0.343103 -0.582 159 120 113
0.473658 -0.336618 -0.571 161 121 119
0.470589 -0.33367 -0.566 163 123 121
0.468333 -0.331312 -0.562 164 125 118
0.467963 -0.329544 -0.559 163 124 117
0.46228 -0.32188 -0.546 179 132 112
0.462169 -0.318932 -0.541 185 137 117
0.470429 -0.314806 -0.534 189 137 113
0.471578 -0.314216 -0.533 190 138 114
0.472593 -0.314216 -0.533 191 139 115
0.0868 -0.34776 -0.588 193 146 140
0.0870229 -0.344211 -0.582 191 144 138
0.0976 -0.3312 -0.56 197 142 137
0.11087 -0.329426 -0.557 187 132 125
0.11193 -0.329426 -0.557 189 135 125
0.115966 -0.328834 -0.556 187 132 125
0.120202 -0.328834 -0.556 174 120 110
0.127011 -0.330017 -0.558 168 113 106
0.133867 -0.3312 -0.56 152 95 84
0.135174 -0.331791 -0.561 152 95 84
0.142595 -0.334157 -0.565 145 91 79
0.152543 -0.337114 -0.57 138 85 77
0.158803 -0.338889 -0.573 132 82 75
0.168704 -0.341254 -0.577 129 82 76
0.170902 -0.341254 -0.577 132 83 78
0.175105 -0.343029 -0.58 125 80 77
0.177926 -0.344211 -0.582 125 80 75
0.180762 -0.345394 -0.584 121 77 74
0.191131 -0.350126 -0.592 118 78 76
0.240649 -0.370826 -0.627 89 103 138
0.349707 -0.373783 -0.632 233 236 251
0.363523 -0.374374 -0.633 239 242 255
0.381004 -0.374966 -0.634 149 170 223
0.383419 -0.374966 -0.634 131 154 208
0.391281 -0.375557 -0.635 216 231 254
0.425273 -0.37674 -0.637 238 241 255
0.4277 -0.37674 -0.637 237 240 255
0.433232 -0.377331 -0.638 189 196 222
0.434448 -0.377331 -0.638 165 174 205
0.442431 -0.377923 -0.639 199 212 255
0.479971 -0.379697 -0.642 214 219 239
0.493423 -0.379697 -0.642 209 208 226
0.506874 -0.379697 -0.642 184 194 221
0.510113 -0.380289 -0.643 137 156 198
0.511338 -0.380289 -0.643 102 129 184
0.512989 -0.379697 -0.642 101 131 195
0.493965 -0.355449 -0.601 153 120 113
0.483869 -0.346577 -0.586 158 121 115
0.476147 -0.33948 -0.574 160 120 118
0.472251 -0.335931 -0.568 163 123 121
0.462471 -0.322329 -0.545 181 136 117
0.463705 -0.318189 -0.538 188 138 115
0.467086 -0.317006 -0.536 188 138 115
0.467233 -0.316414 -0.535 189 137 115
0.470429 -0.315823 -0.534 189 137 113
0.49363 -0.317006 -0.536 172 124 101
0.0954667 -0.332267 -0.56 197 144 136
0.0984905 -0.331673 -0.559 195 140 133
0.102566 -0.33108 -0.558 195 142 134
0.105565 -0.330487 -0.557 192 138 126
0.141519 -0.335233 -0.565 148 94 82
0.229533 -0.371427 -0.626 168 173 192
0.23826 -0.37202 -0.627 170 175 204
0.440524 -0.378547 -0.638 196 205 244
0.444866 -0.37914 -0.639 109 137 187
0.476782 -0.380327 -0.641 215 218 235
0.481666 -0.380327 -0.641 209 214 233
0.484108 -0.380327 -0.641 208 213 232
0.496317 -0.380327 -0.641 204 208 217
0.482502 -0.345913 -0.583 163 119 118
0.4788 -0.315653 -0.532 187 137 112
0.479813 -0.315653 -0.532 186 136 111
0.486807 -0.316247 -0.533 179 129 104
0.489754 -0.31684 -0.534 177 127 102
0.494651 -0.318027 -0.536 172 124 101
0.505249 -0.32218 -0.543 160 119 99
0.08568 -0.35 -0.588 194 147 139
0.103443 -0.331548 -0.557 198 144 134
0.104504 -0.331548 -0.557 197 143 133
0.106434 -0.330952 -0.556 194 140 130
0.112789 -0.330952 -0.556 189 135 125
0.117025 -0.330952 -0.556 183 129 117
0.118084 -0.330952 -0.556 180 126 114
0.128304 -0.332738 -0.559 157 103 91
0.14418 -0.3375 -0.567 147 93 83
0.14526 -0.3375 -0.567 144 92 81
0.154168 -0.340476 -0.572 134 84 77
0.167605 -0.343452 -0.577 130 83 77
0.1921 -0.354167 -0.595 119 81 78
0.224046 -0.371429 -0.624 122 119 138
0.225595 -0.372024 -0.625 150 148 169
0.229533 -0.372619 -0.626 169 171 192
0.250595 -0.372024 -0.625 79 99 160
0.252976 -0.372024 -0.625 87 107 168
0.352759 -0.375595 -0.631 218 219 240
0.381609 -0.376786 -0.633 106 135 193
0.39791 -0.377381 -0.634 241 246 255
0.467505 -0.380952 -0.64 220 227 246
0.473119 -0.381548 -0.641 216 222 238
0.475561 -0.381548 -0.641 215 218 233
0.506085 -0.381548 -0.641 173 181 218
0.509748 -0.381548 -0.641 81 115 176
0.50676 -0.367857 -0.618 134 122 136
0.474167 -0.33869 -0.569 159 124 118
0.472149 -0.335714 -0.564 160 125 119
0.46841 -0.331548 -0.557 166 128 119
0.462659 -0.32381 -0.544 182 133 116
0.46354 -0.320833 -0.539 189 135 111
0.468394 -0.317857 -0.534 187 135 113
0.482853 -0.316667 -0.532 181 131 108
0.488837 -0.317262 -0.533 176 128 105
0.491789 -0.317857 -0.534 175 127 105
0.495672 -0.319048 -0.536 171 125 102
0.0854714 -0.345746 -0.579 193 143 136
0.0877095 -0.337386 -0.565 196 141 136
0.0952962 -0.333803 -0.559 197 144 136
0.131733 -0.3344 -0.56 157 100 89
0.135174 -0.334997 -0.561 153 99 87
0.14177 -0.337983 -0.566 147 93 83
0.150635 -0.340969 -0.571 136 87 82
0.157711 -0.342163 -0.573 132 85 79
0.170391 -0.345746 -0.579 126 83 77
0.172895 -0.346343 -0.58 121 80 74
0.198616 -0.358883 -0.601 114 81 76
0.229167 -0.373214 -0.625 171 173 194
0.231548 -0.373214 -0.625 169 174 194
0.352759 -0.376797 -0.631 209 211 234
0.36656 -0.377394 -0.632 233 236 253
0.374987 -0.377394 -0.632 104 131 186
0.430663 -0.379783 -0.636 201 203 218
0.433086 -0.379783 -0.636 217 223 245
0.434297 -0.379783 -0.636 214 220 242
0.439833 -0.38038 -0.637 125 147 196
0.441047 -0.38038 -0.637 129 159 213
0.452169 -0.381574 -0.639 69 99 161
0.458971 -0.382171 -0.64 87 117 169
0.466286 -0.382171 -0.64 178 182 194
0.476038 -0.382171 -0.64 210 212 227
0.480914 -0.382171 -0.64 182 185 202
0.482133 -0.382171 -0.64 190 193 210
0.507733 -0.382171 -0.64 123 149 210
0.505471 -0.367243 -0.615 143 123 122
0.494603 -0.357689 -0.599 155 121 120
0.462659 -0.324846 -0.544 181 132 115
0.471707 -0.31768 -0.532 190 138 114
0.47272 -0.31768 -0.532 190 138 114
0.478911 -0.317083 -0.531 187 135 113
0.0944 -0.335467 -0.56 195 146 139
0.10026 -0.33367 -0.557 195 143 132
0.129369 -0.334868 -0.559 160 104 91
0.135415 -0.336665 -0.562 149 95 85
0.14418 -0.33966 -0.567 145 92 86
0.145516 -0.340259 -0.568 144 91 85
0.14794 -0.340858 -0.569 141 88 82
0.151989 -0.342655 -0.572 133 86 80
0.154168 -0.342655 -0.572 131 84 78
0.157987 -0.343853 -0.574 133 86 80
0.167895 -0.34625 -0.578 127 82 76
0.223687 -0.373207 -0.623 161 154 170
0.258514 -0.373806 -0.624 111 129 179
0.3498 -0.3774 -0.63 191 193 216
0.374393 -0.377999 -0.631 111 142 197
0.393666 -0.379197 -0.633 190 201 233
0.394871 -0.379197 -0.633 214 225 255
0.406929 -0.379197 -0.633 200 203 222
0.408134 -0.379197 -0.633 209 212 231
0.416025 -0.379796 -0.634 209 210 231
0.41844 -0.379796 -0.634 196 197 217
0.42327 -0.379796 -0.634 227 229 244
0.427567 -0.380395 -0.635 224 218 230
0.435509 -0.380994 -0.636 161 176 215
0.4459 -0.381593 -0.637 74 105 172
0.451461 -0.382192 -0.638 69 98 164
0.453891 -0.382192 -0.638 80 111 176
0.458254 -0.382791 -0.639 83 117 178
0.470426 -0.382791 -0.639 215 214 230
0.478946 -0.382791 -0.639 185 190 209
0.48579 -0.38339 -0.64 183 185 206
0.510171 -0.38339 -0.64 42 80 143
0.516267 -0.38339 -0.64 45 75 148
0.467153 -0.331273 -0.553 167 129 120
0.464169 -0.327679 -0.547 176 132 119
0.463023 -0.324684 -0.542 185 134 115
0.493823 -0.319891 -0.534 174 127 99
0.49484 -0.319891 -0.534 174 127 99
0.085079 -0.341942 -0.569 194 141 135
0.0901333 -0.336533 -0.56 200 147 139
0.099199 -0.33473 -0.557 200 147 139
0.111328 -0.332928 -0.554 191 134 125
0.112383 -0.332928 -0.554 182 125 116
0.123379 -0.33413 -0.556 170 113 102
0.130667 -0.336533 -0.56 155 100 93
0.140691 -0.340139 -0.566 148 95 89
0.149286 -0.342543 -0.57 137 86 82
0.155529 -0.344346 -0.573 134 87 81
0.167083 -0.347951 -0.579 128 83 78
0.196327 -0.361172 -0.601 117 82 76
0.217054 -0.373191 -0.621 125 118 136
0.218589 -0.373792 -0.622 129 122 140
0.239497 -0.374994 -0.624 130 134 171
0.249793 -0.374393 -0.623 95 125 187
0.3606 -0.3786 -0.63 232 238 250
0.394248 -0.379802 -0.632 225 235 255
0.458254 -0.384009 -0.639 78 114 176
0.460689 -0.384009 -0.639 126 151 192
0.46434 -0.384009 -0.639 201 204 221
0.468474 -0.383408 -0.638 200 198 209
0.470905 -0.383408 -0.638 210 208 219
0.479411 -0.383408 -0.638 156 162 186
0.499637 -0.384009 -0.639 184 188 200
0.504506 -0.384009 -0.639 67 92 159
0.47466 -0.34074 -0.567 159 126 121
0.463023 -0.325716 -0.542 184 133 114
0.463199 -0.325115 -0.541 187 136 117
0.468667 -0.319707 -0.532 184 132 110
0.46968 -0.319707 -0.532 185 133 111
0.495857 -0.320909 -0.534 174 127 101
0.088 -0.3376 -0.56 197 140 131
0.108162 -0.333983 -0.554 193 139 129
0.114493 -0.333983 -0.554 180 123 112
0.146856 -0.343026 -0.569 139 88 84
0.158262 -0.346643 -0.575 130 85 80
0.189017 -0.359303 -0.596 123 85 82
0.193391 -0.361111 -0.599 120 85 81
0.219773 -0.374977 -0.622 115 103 125
0.223328 -0.374977 -0.622 177 175 188
0.363622 -0.379197 -0.629 217 219 232
0.387614 -0.380403 -0.631 124 151 198
0.428101 -0.382211 -0.634 217 216 224
0.44954 -0.38402 -0.637 84 118 189
0.480627 -0.384623 -0.638 134 141 167
0.487918 -0.384623 -0.638 206 205 219
0.472 -0.3376 -0.56 164 127 119
0.463705 -0.324337 -0.538 185 134 115
0.471831 -0.320117 -0.531 191 139 117
0.481038 -0.319514 -0.53 182 130 106
0.483057 -0.319514 -0.53 180 130 105
0.485076 -0.319514 -0.53 180 130 105
0.0818905 -0.358624 -0.593 198 152 136
0.0825886 -0.351971 -0.582 194 141 133
0.114493 -0.335038 -0.554 181 125 112
0.117659 -0.335038 -0.554 171 114 103
0.118714 -0.335038 -0.554 173 116 105
0.143352 -0.343505 -0.568 143 93 86
0.180677 -0.357414 -0.591 120 81 82
0.218237 -0.375557 -0.621 167 163 180
0.21942 -0.375557 -0.621 145 133 155
0.237927 -0.376767 -0.623 174 180 212
0.355867 -0.37979 -0.628 235 239 250
0.363622 -0.380395 -0.629 192 193 211
0.3798 -0.381 -0.63 134 166 215
0.388816 -0.381605 -0.631 190 212 253
0.394826 -0.381605 -0.631 211 216 248
0.399633 -0.381605 -0.631 238 237 255
0.406845 -0.381605 -0.631 234 233 251
0.413509 -0.38221 -0.632 210 211 231
0.41778 -0.382814 -0.633 232 231 249
0.432931 -0.383419 -0.634 157 164 192
0.451967 -0.385233 -0.637 141 173 234
0.459247 -0.385233 -0.637 105 128 170
0.484272 -0.385838 -0.638 184 186 201
0.479683 -0.346529 -0.573 161 126 122
0.467517 -0.322338 -0.533 186 134 113
0.468667 -0.321733 -0.532 184 132 111
0.46968 -0.321733 -0.532 186 134 113
0.469809 -0.321129 -0.531 190 138 117
0.471831 -0.321129 -0.531 191 139 118
0.475877 -0.321129 -0.531 187 135 111
0.479923 -0.321129 -0.531 183 132 105
0.481038 -0.320524 -0.53 182 131 104
0.490124 -0.320524 -0.53 178 128 95
0.0827657 -0.344587 -0.568 195 142 134
0.119986 -0.3367 -0.555 182 124 110
0.14846 -0.346407 -0.571 135 88 82
0.153613 -0.348227 -0.574 123 78 72
0.16129 -0.350653 -0.578 128 84 81
0.172157 -0.3549 -0.585 121 82 77
0.18706 -0.36218 -0.597 118 82 82
0.191429 -0.364 -0.6 119 85 86
0.23873 -0.377347 -0.622 187 188 216
0.36424 -0.380987 -0.628 204 202 223
0.367829 -0.380987 -0.628 118 132 159
0.381593 -0.381593 -0.629 155 187 228
0.3918 -0.3822 -0.63 129 139 175
0.393 -0.3822 -0.63 127 137 173
0.41045 -0.382807 -0.631 223 221 242
0.41712 -0.383413 -0.632 232 231 249
0.432249 -0.38402 -0.633 120 127 153
0.44329 -0.385233 -0.635 98 129 176
0.448129 -0.385233 -0.635 80 119 186
0.476233 -0.386447 -0.637 202 209 227
0.488367 -0.386447 -0.637 174 173 178
0.49322 -0.386447 -0.637 206 206 216
0.502927 -0.386447 -0.637 93 116 170
0.465586 -0.330633 -0.545 179 133 118
0.46423 -0.328207 -0.541 184 137 121
0.46354 -0.326993 -0.539 183 136 120
0.467517 -0.323353 -0.533 186 134 113
0.474866 -0.32214 -0.531 191 137 111
0.478911 -0.32214 -0.531 184 132 108
0.486086 -0.321533 -0.53 183 129 103
0.491133 -0.321533 -0.53 179 129 106
0.08148 -0.354189 -0.582 196 146 135
0.0831095 -0.342626 -0.563 194 141 133
0.0887486 -0.339583 -0.558 195 142 134
0.0967286 -0.337757 -0.555 196 143 135
0.0999 -0.337757 -0.555 193 140 132
0.104996 -0.337149 -0.554 194 140 130
0.106051 -0.337149 -0.554 198 144 134
0.109217 -0.337149 -0.554 190 136 126
0.128304 -0.340191 -0.559 158 100 98
0.133274 -0.342017 -0.562 151 96 89
0.13986 -0.34506 -0.567 147 94 88
0.158812 -0.351146 -0.577 128 85 79
0.161569 -0.352363 -0.579 125 84 80
0.171043 -0.356014 -0.585 119 80 75
0.22261 -0.377314 -0.62 168 169 187
0.224971 -0.377314 -0.62 174 172 186
0.233614 -0.377923 -0.621 119 123 158
0.246626 -0.377923 -0.621 132 156 204
0.376202 -0.382183 -0.628 180 196 229
0.385188 -0.382791 -0.629 195 211 234
0.3906 -0.3834 -0.63 214 226 252
0.4086 -0.3834 -0.63 232 235 254
0.412854 -0.384009 -0.631 232 231 249
0.415258 -0.384009 -0.631 237 234 255
0.423139 -0.384617 -0.632 208 203 210
0.425547 -0.384617 -0.632 231 230 246
0.42675 -0.384617 -0.632 223 222 238
0.431043 -0.385226 -0.633 131 144 176
0.43466 -0.385226 -0.633 201 216 249
0.435866 -0.385226 -0.633 220 234 255
0.49322 -0.38766 -0.637 210 208 222
0.498073 -0.38766 -0.637 132 141 170
0.505353 -0.38766 -0.637 124 141 184
0.514653 -0.388269 -0.638 57 96 165
0.463866 -0.326803 -0.537 187 136 119
0.479019 -0.322543 -0.53 185 131 107
0.486176 -0.321934 -0.529 183 129 105
0.489199 -0.321934 -0.529 178 126 104
0.0793629 -0.360791 -0.591 197 150 140
0.113233 -0.337593 -0.553 179 121 109
0.123379 -0.339425 -0.556 161 104 93
0.135897 -0.344309 -0.564 149 96 90
0.178426 -0.360791 -0.591 121 81 79
0.215176 -0.377885 -0.619 98 91 109
0.221071 -0.377885 -0.619 170 169 187
0.229695 -0.378495 -0.62 79 84 116
0.361271 -0.382769 -0.627 220 227 237
0.380987 -0.383379 -0.628 160 186 221
0.398367 -0.38399 -0.629 234 239 255
0.430362 -0.385821 -0.632 104 118 147
0.446215 -0.387042 -0.634 108 143 199
0.466271 -0.387652 -0.635 209 210 228
0.4699 -0.387652 -0.635 184 184 186
0.494869 -0.388263 -0.636 189 188 206
0.50456 -0.388263 -0.636 149 165 198
0.470957 -0.338814 -0.555 164 129 123
0.4644 -0.329657 -0.54 188 137 120
0.465487 -0.325384 -0.533 192 141 122
0.483153 -0.322942 -0.529 181 127 103
0.484161 -0.322942 -0.529 182 128 104
0.485169 -0.322942 -0.529 182 128 104
0.510601 -0.330268 -0.541 164 117 91
1.1409 -0.39681 -0.65 202 204 190
0.0844971 -0.341709 -0.558 196 144 133
0.0875286 -0.341096 -0.557 196 144 133
0.0884305 -0.340484 -0.556 195 143 132
0.0905486 -0.340484 -0.556 195 140 133
0.0976095 -0.339259 -0.554 191 137 127
0.100775 -0.339259 -0.554 189 135 125
0.1027 -0.338647 -0.553 193 139 129
0.10586 -0.338647 -0.553 196 142 132
0.110073 -0.338647 -0.553 184 130 118
0.137457 -0.346608 -0.566 144 93 89
0.164623 -0.356406 -0.582 124 83 77
0.169103 -0.358855 -0.586 122 83 78
0.17192 -0.36008 -0.588 123 84 79
0.175049 -0.361917 -0.591 118 83 77
0.220714 -0.378451 -0.618 172 169 188
0.229325 -0.379064 -0.619 77 80 111
0.230504 -0.379064 -0.619 116 119 152
0.353541 -0.38335 -0.626 244 246 255
0.355926 -0.38335 -0.626 241 239 253
0.379186 -0.383963 -0.627 168 188 221
0.38936 -0.384575 -0.628 231 233 255
0.394145 -0.384575 -0.628 121 127 159
0.429681 -0.386412 -0.631 144 154 179
0.441894 -0.387637 -0.633 139 159 194
0.446717 -0.387637 -0.633 119 150 197
0.449129 -0.387637 -0.633 163 194 238
0.475198 -0.38825 -0.634 212 210 224
0.500926 -0.389474 -0.636 186 197 225
0.493077 -0.360692 -0.589 160 129 124
0.487487 -0.355793 -0.581 158 127 122
0.465946 -0.332523 -0.543 180 131 114
0.465487 -0.326399 -0.533 192 141 122
0.471831 -0.325174 -0.531 190 138 117
0.478009 -0.324562 -0.53 183 131 109
0.0791267 -0.3569 -0.581 194 146 136
0.0814543 -0.343386 -0.559 194 146 132
0.0863124 -0.341543 -0.556 194 144 133
0.0873714 -0.341543 -0.556 194 144 133
0.0954991 -0.340314 -0.554 195 141 129
0.0974333 -0.3397 -0.553 191 137 125
0.09954 -0.3397 -0.553 188 134 122
0.118714 -0.340314 -0.554 174 118 103
0.142521 -0.349529 -0.569 131 86 81
0.14763 -0.351371 -0.572 127 86 82
0.223069 -0.379629 -0.618 160 161 182
0.357738 -0.383929 -0.625 242 245 255
0.395341 -0.385771 -0.628 149 158 189
0.397733 -0.385771 -0.628 222 230 249
0.403714 -0.385771 -0.628 232 235 254
0.427277 -0.387614 -0.631 121 128 147
0.454669 -0.389457 -0.634 215 221 245
0.461914 -0.389457 -0.634 95 105 132
0.480786 -0.390071 -0.635 208 207 221
0.489252 -0.390071 -0.635 201 201 203
0.491671 -0.390071 -0.635 172 178 202
0.498929 -0.390071 -0.635 170 182 222
0.46748 -0.3354 -0.546 175 133 119
0.465343 -0.328029 -0.534 189 141 121
0.469809 -0.326186 -0.531 189 138 117
0.47082 -0.326186 -0.531 190 139 118
0.470943 -0.325571 -0.53 190 139 118
0.490286 -0.324343 -0.528 181 126 105
0.506826 -0.329871 -0.537 169 122 96
1.1411 -0.398057 -0.648 201 203 189
0.0788524 -0.351845 -0.571 192 146 131
0.0803895 -0.34445 -0.559 197 149 135
0.0852533 -0.342602 -0.556 194 145 131
0.0863124 -0.342602 -0.556 195 146 132
0.0872143 -0.341986 -0.555 195 146 132
0.0923333 -0.34137 -0.554 198 146 135
0.105669 -0.340137 -0.552 194 140 128
0.11408 -0.340137 -0.552 181 124 113
0.131133 -0.346299 -0.562 148 95 89
0.146541 -0.352461 -0.572 126 85 79
0.153051 -0.354926 -0.576 127 84 78
0.20944 -0.379573 -0.616 124 120 143
0.227777 -0.380806 -0.618 173 174 202
0.348846 -0.384503 -0.624 234 241 255
0.365465 -0.385735 -0.626 175 180 200
0.370234 -0.385735 -0.626 227 232 252
0.383963 -0.386351 -0.627 202 207 236
0.396537 -0.386968 -0.628 166 173 202
0.400126 -0.386968 -0.628 179 182 191
0.410348 -0.387584 -0.629 173 170 197
0.417536 -0.387584 -0.629 224 225 245
0.446011 -0.389432 -0.632 149 173 211
0.447215 -0.389432 -0.632 140 163 204
0.457569 -0.390049 -0.633 208 209 229
0.467214 -0.390049 -0.633 203 205 217
0.46842 -0.390049 -0.633 202 201 215
0.498143 -0.390665 -0.634 183 192 225
0.465593 -0.332127 -0.539 183 134 117
0.467517 -0.32843 -0.533 189 138 119
0.468797 -0.327197 -0.531 187 136 117
0.477108 -0.325965 -0.529 184 132 111
0.486263 -0.325349 -0.528 185 130 109
0.494237 -0.325965 -0.529 178 126 104
0.498129 -0.327197 -0.531 177 127 104
0.0757286 -0.364058 -0.589 193 151 137
0.09936 -0.341189 -0.552 191 139 125
0.116393 -0.341807 -0.553 175 119 104
0.117447 -0.341807 -0.553 171 116 96
0.131367 -0.347988 -0.563 147 94 86
0.13662 -0.35046 -0.567 140 90 81
0.137943 -0.351078 -0.568 137 87 78
0.139025 -0.351078 -0.568 136 87 80
0.153051 -0.356023 -0.576 126 83 77
0.171671 -0.365294 -0.591 122 83 78
0.221532 -0.381365 -0.617 120 126 160
0.230131 -0.381983 -0.618 186 184 205
0.348846 -0.385691 -0.624 227 233 255
0.352411 -0.385691 -0.624 239 241 255
0.376196 -0.386928 -0.626 184 199 232
0.38335 -0.386928 -0.626 199 208 237
0.40491 -0.388164 -0.628 232 234 246
0.41514 -0.388782 -0.629 227 230 249
0.442902 -0.390018 -0.631 152 180 220
0.463597 -0.391254 -0.633 114 118 145
0.492798 -0.362204 -0.586 158 125 116
0.465754 -0.332535 -0.538 181 134 116
0.466214 -0.330681 -0.535 185 136 119
0.4761 -0.326972 -0.529 183 131 110
0.479123 -0.326972 -0.529 185 133 112
0.489357 -0.325736 -0.527 183 129 105
0.491365 -0.325736 -0.527 179 127 103
0.0791829 -0.34596 -0.558 196 148 136
0.0879533 -0.34286 -0.553 198 149 135
0.0921667 -0.34286 -0.553 191 142 128
0.102514 -0.34224 -0.552 193 141 120
0.11408 -0.34224 -0.552 175 122 104
0.150857 -0.35712 -0.576 127 84 77
0.163243 -0.3627 -0.585 122 83 78
0.215307 -0.38192 -0.616 109 122 167
0.225058 -0.38254 -0.617 137 142 180
0.229759 -0.38254 -0.617 187 188 206
0.33825 -0.38564 -0.622 231 233 254
0.345913 -0.38626 -0.623 175 181 213
0.3471 -0.38626 -0.623 214 220 244
0.353033 -0.38626 -0.623 224 226 247
0.35422 -0.38626 -0.623 216 218 239
0.363109 -0.38688 -0.624 228 234 250
0.369643 -0.3875 -0.625 229 234 254
0.370833 -0.3875 -0.625 212 219 245
0.391129 -0.38874 -0.627 231 228 247
0.409695 -0.38936 -0.628 126 130 168
0.417536 -0.38998 -0.629 220 221 242
0.418734 -0.38998 -0.629 211 212 233
0.42113 -0.38998 -0.629 226 227 245
0.441 -0.3906 -0.63 147 176 218
0.44771 -0.39122 -0.631 119 147 187
0.453234 -0.39184 -0.632 203 213 240
0.461661 -0.39184 -0.632 160 161 179
0.474449 -0.39246 -0.633 187 185 207
0.484094 -0.39246 -0.633 198 195 212
0.487711 -0.39246 -0.633 184 187 206
0.506596 -0.39308 -0.634 114 144 182
0.46636 -0.33108 -0.534 184 137 119
0.467517 -0.33046 -0.533 188 140 120
0.471062 -0.32798 -0.529 192 141 120
0.505011 -0.33108 -0.534 172 122 95
0.0808714 -0.345157 -0.555 197 149 135
0.092 -0.343291 -0.552 194 142 128
0.0972571 -0.343291 -0.552 194 142 121
0.109675 -0.34267 -0.551 182 130 106
0.121043 -0.345157 -0.555 162 106 91
0.134223 -0.351998 -0.566 140 91 84
0.138186 -0.353864 -0.569 136 87 82
0.14976 -0.358217 -0.576 127 84 77
0.153849 -0.360083 -0.579 129 84 79
0.157971 -0.361949 -0.582 124 83 77
0.166886 -0.366924 -0.59 119 84 82
0.170834 -0.368168 -0.592 124 84 82
0.212614 -0.382471 -0.615 29 49 100
0.224693 -0.383093 -0.616 145 151 187
0.22704 -0.383093 -0.616 182 182 206
0.345358 -0.386825 -0.622 171 180 219
0.347728 -0.386825 -0.622 230 237 255
0.35778 -0.387447 -0.623 177 186 217
0.360153 -0.387447 -0.623 239 241 254
0.380357 -0.38869 -0.625 153 170 200
0.38631 -0.38869 -0.625 228 232 255
0.390505 -0.389312 -0.626 229 226 247
0.396467 -0.389312 -0.626 157 162 182
0.40546 -0.389934 -0.627 218 224 236
0.4434 -0.3918 -0.63 141 171 209
0.4446 -0.3918 -0.63 139 169 207
0.452517 -0.392422 -0.631 202 214 240
0.459729 -0.392422 -0.631 163 165 180
0.482126 -0.393044 -0.632 190 187 208
0.485737 -0.393044 -0.632 183 186 203
0.497775 -0.393044 -0.632 195 190 210
0.500974 -0.393666 -0.633 187 196 211
0.507804 -0.394288 -0.634 124 156 195
0.513842 -0.394288 -0.634 109 136 181
0.473189 -0.328366 -0.528 192 139 121
0.474194 -0.328366 -0.528 188 135 117
0.4752 -0.328366 -0.528 185 132 114
0.479223 -0.328366 -0.528 186 134 113
0.483419 -0.327122 -0.526 185 133 111
0.50312 -0.330853 -0.532 168 120 97
0.0796705 -0.34559 -0.554 196 149 133
0.105477 -0.343719 -0.551 191 139 118
0.107576 -0.343719 -0.551 186 134 113
0.118714 -0.34559 -0.554 164 108 91
0.138429 -0.355571 -0.57 133 86 78
0.158243 -0.363681 -0.583 125 84 78
0.162683 -0.366176 -0.587 123 83 81
0.164359 -0.367424 -0.589 120 85 83
0.168294 -0.368671 -0.591 121 86 84
0.210271 -0.383643 -0.615 98 106 152
0.214957 -0.383643 -0.615 115 130 169
0.2255 -0.383643 -0.615 173 181 217
0.231357 -0.383643 -0.615 190 196 210
0.237214 -0.383643 -0.615 197 195 216
0.35839 -0.38801 -0.622 222 235 255
0.3649 -0.388633 -0.623 236 239 255
0.376183 -0.389257 -0.624 172 191 231
0.37856 -0.389257 -0.624 148 171 215
0.380937 -0.389257 -0.624 146 161 194
0.395833 -0.389881 -0.625 194 202 221
0.412626 -0.391129 -0.627 201 212 242
0.42405 -0.391752 -0.628 207 214 233
0.43431 -0.392376 -0.629 217 220 239
0.4374 -0.393 -0.63 133 149 175
0.4398 -0.393 -0.63 121 147 182
0.4422 -0.393 -0.63 137 169 210
0.442696 -0.392376 -0.629 129 162 207
