ply
format ascii 1.0
comment Created by Open3D
element vertex 1287
property double x
property double y
property double z
property uchar red
property uchar green
property uchar blue
end_header
0.345709 -0.390726 -0.606 248 249 251
0.346863 -0.390726 -0.606 249 250 252
0.348017 -0.390726 -0.606 255 251 255
0.350326 -0.390726 -0.606 231 234 243
0.377496 -0.39137 -0.607 135 159 197
0.380965 -0.39137 -0.607 167 195 242
0.385067 -0.392015 -0.608 125 151 200
0.386225 -0.392015 -0.608 132 158 207
0.405912 -0.392015 -0.608 252 255 255
0.41122 -0.39266 -0.609 197 198 202
0.439781 -0.393305 -0.61 127 145 185
0.456795 -0.39395 -0.611 90 131 197
0.492151 -0.395239 -0.613 174 169 175
0.517839 -0.395239 -0.613 34 75 154
0.522894 -0.381054 -0.591 160 131 125
0.456424 -0.325605 -0.505 171 138 129
0.453763 -0.323026 -0.501 171 138 129
0.442062 -0.31013 -0.481 180 142 131
0.439185 -0.304328 -0.472 180 142 129
0.440759 -0.301104 -0.467 186 147 130
0.441463 -0.29917 -0.464 191 150 132
0.442826 -0.295946 -0.459 190 149 129
0.446767 -0.293367 -0.455 191 149 125
0.453 -0.290143 -0.45 181 139 115
0.458494 -0.288209 -0.447 185 140 117
0.460197 -0.288209 -0.447 186 141 118
0.460867 -0.287564 -0.446 183 138 115
0.463603 -0.288209 -0.447 184 139 116
0.468711 -0.288209 -0.447 180 134 110
0.474027 -0.288853 -0.448 173 131 107
0.47488 -0.288853 -0.448 175 133 109
0.479361 -0.289498 -0.449 165 124 102
0.483 -0.290143 -0.45 158 120 99
0.489671 -0.292077 -0.453 154 116 95
0.498566 -0.295301 -0.458 143 110 91
0.0816333 -0.357607 -0.553 203 160 143
0.08892 -0.35308 -0.546 204 161 142
0.09412 -0.35308 -0.546 199 156 137
0.1014 -0.35308 -0.546 199 154 135
0.117857 -0.355667 -0.55 170 120 97
0.126556 -0.359547 -0.556 155 102 88
0.129137 -0.36084 -0.558 154 98 85
0.130433 -0.361487 -0.559 152 99 81
0.131733 -0.362133 -0.56 151 98 80
0.13986 -0.36666 -0.567 139 89 78
0.188103 -0.390587 -0.604 67 85 131
0.190404 -0.390587 -0.604 56 82 139
0.191554 -0.390587 -0.604 61 87 144
0.192705 -0.390587 -0.604 50 81 136
0.214564 -0.390587 -0.604 178 175 194
0.232971 -0.390587 -0.604 199 201 213
0.23718 -0.38994 -0.603 205 206 226
0.238329 -0.38994 -0.603 206 207 227
0.272786 -0.38994 -0.603 227 229 250
0.342833 -0.391233 -0.605 251 253 252
0.375184 -0.392527 -0.607 174 186 212
0.382121 -0.392527 -0.607 179 202 246
0.398308 -0.392527 -0.607 212 221 238
0.43558 -0.39382 -0.609 221 228 254
0.457959 -0.395113 -0.611 135 174 231
0.46145 -0.395113 -0.611 96 123 170
0.464942 -0.395113 -0.611 209 220 252
0.439967 -0.303287 -0.469 186 147 132
0.443606 -0.296173 -0.458 190 149 127
0.44665 -0.293587 -0.454 188 148 123
0.453704 -0.290353 -0.449 188 143 120
0.455253 -0.289707 -0.448 186 141 120
0.45594 -0.28906 -0.447 184 139 116
0.0814857 -0.358011 -0.552 203 160 143
0.0908333 -0.353471 -0.545 204 159 140
0.0929095 -0.353471 -0.545 201 159 137
0.0981 -0.353471 -0.545 197 154 135
0.173431 -0.389791 -0.601 81 79 103
0.203871 -0.391089 -0.603 113 122 155
0.227991 -0.391089 -0.603 188 190 203
0.233734 -0.391089 -0.603 203 205 217
0.24522 -0.391089 -0.603 192 199 225
0.246369 -0.391089 -0.603 197 198 218
0.34629 -0.392386 -0.605 252 252 254
0.353205 -0.392386 -0.605 227 226 231
0.3838 -0.393034 -0.606 155 183 230
0.392527 -0.393683 -0.607 215 232 255
0.393683 -0.393683 -0.607 222 237 255
0.407557 -0.393683 -0.607 248 248 250
0.413338 -0.393683 -0.607 252 251 255
0.427212 -0.393683 -0.607 195 193 198
0.43442 -0.39498 -0.609 225 231 245
0.43674 -0.39498 -0.609 166 176 203
0.4379 -0.39498 -0.609 152 166 201
0.44602 -0.39498 -0.609 134 164 216
0.4495 -0.39498 -0.609 135 170 228
0.514663 -0.396926 -0.612 68 113 181
0.459971 -0.330771 -0.51 169 139 129
0.440187 -0.30872 -0.476 179 141 128
0.440167 -0.308071 -0.475 182 144 131
0.439114 -0.304829 -0.47 184 145 130
0.439967 -0.30418 -0.469 185 146 131
0.442121 -0.298991 -0.461 187 149 128
0.442826 -0.297694 -0.459 190 149 127
0.447391 -0.293803 -0.453 191 149 124
0.454237 -0.289911 -0.447 187 142 119
0.458138 -0.288614 -0.445 184 139 116
0.466813 -0.289263 -0.446 182 136 112
0.47191 -0.289263 -0.446 174 129 106
0.47382 -0.289911 -0.447 174 129 106
0.47744 -0.29056 -0.448 165 124 102
0.482782 -0.291209 -0.449 164 123 101
0.0780371 -0.372723 -0.573 192 150 134
0.0840267 -0.356461 -0.548 204 161 144
0.0877191 -0.35451 -0.545 205 160 141
0.0958476 -0.353859 -0.544 199 156 137
0.10764 -0.35516 -0.546 197 151 128
0.12399 -0.360364 -0.554 157 105 84
0.142771 -0.370771 -0.57 136 88 84
0.174867 -0.391587 -0.602 48 52 87
0.176013 -0.391587 -0.602 54 58 93
0.265453 -0.391587 -0.602 228 239 255
0.344568 -0.392888 -0.604 251 249 252
0.345718 -0.392888 -0.604 251 249 252
0.358967 -0.393538 -0.605 249 249 251
0.360119 -0.393538 -0.605 251 251 253
0.371643 -0.393538 -0.605 188 195 214
0.382646 -0.394189 -0.606 174 190 223
0.389571 -0.394189 -0.606 205 222 255
0.395343 -0.394189 -0.606 213 224 246
0.409194 -0.394189 -0.606 249 249 251
0.411503 -0.394189 -0.606 239 239 241
0.427212 -0.394839 -0.607 228 227 232
0.436023 -0.39549 -0.608 165 176 206
0.437181 -0.39549 -0.608 157 170 202
0.464181 -0.39679 -0.61 139 154 187
0.471152 -0.39679 -0.61 223 223 233
0.472314 -0.39679 -0.61 207 204 211
0.47658 -0.397441 -0.611 223 222 228
0.490546 -0.397441 -0.611 196 194 199
0.49171 -0.397441 -0.611 205 203 208
0.504511 -0.397441 -0.611 154 173 203
0.516994 -0.398091 -0.612 85 135 196
0.5307 -0.39614 -0.609 189 195 219
0.459971 -0.331743 -0.51 169 139 131
0.455574 -0.32719 -0.503 172 139 130
0.443508 -0.297268 -0.457 188 147 125
0.450429 -0.292714 -0.45 190 148 123
0.452534 -0.290763 -0.447 186 142 117
0.461529 -0.289462 -0.445 179 137 112
0.0777648 -0.37251 -0.571 190 159 139
0.0820886 -0.358157 -0.549 187 144 125
0.0885943 -0.354895 -0.544 201 156 137
0.129137 -0.364029 -0.558 154 100 88
0.169431 -0.390776 -0.599 86 82 99
0.196653 -0.392733 -0.602 75 91 140
0.227235 -0.392081 -0.601 198 200 213
0.234104 -0.392081 -0.601 204 207 222
0.244407 -0.392081 -0.601 214 222 241
0.330214 -0.393386 -0.603 248 248 255
0.383167 -0.39469 -0.605 171 196 237
0.388929 -0.39469 -0.605 206 219 255
0.395843 -0.39469 -0.605 187 194 210
0.396995 -0.39469 -0.605 158 167 198
0.420737 -0.395343 -0.606 250 250 255
0.430681 -0.395995 -0.607 226 229 238
0.447604 -0.396648 -0.608 140 168 216
0.44992 -0.396648 -0.608 154 190 250
0.451078 -0.396648 -0.608 140 176 236
0.4553 -0.3973 -0.609 162 194 232
0.45994 -0.3973 -0.609 221 226 248
0.480448 -0.397952 -0.61 219 223 234
0.497529 -0.398605 -0.611 210 207 226
0.51615 -0.398605 -0.611 77 129 186
0.5249 -0.3973 -0.609 191 202 232
0.486348 -0.355548 -0.545 164 135 129
0.440115 -0.308576 -0.473 182 145 129
0.439151 -0.307271 -0.471 183 146 130
0.440811 -0.305314 -0.468 183 146 130
0.441463 -0.302705 -0.464 184 145 128
0.442637 -0.298138 -0.457 186 145 123
0.445033 -0.296833 -0.455 189 147 123
0.445785 -0.296181 -0.454 188 146 122
0.452693 -0.292267 -0.448 190 146 119
0.45492 -0.290962 -0.446 188 144 119
0.4717 -0.29031 -0.445 175 133 108
0.47361 -0.290962 -0.446 172 128 103
0.508632 -0.302705 -0.464 138 109 91
0.07826 -0.365746 -0.559 197 154 137
0.0885943 -0.355931 -0.544 202 157 138
0.0915343 -0.355277 -0.543 200 155 134
0.113253 -0.358549 -0.548 183 131 110
0.115551 -0.359203 -0.549 178 125 107
0.133274 -0.367709 -0.562 149 95 83
0.137214 -0.369671 -0.565 148 94 84
0.172287 -0.393226 -0.601 42 48 74
0.186333 -0.39388 -0.602 69 75 99
0.189458 -0.393226 -0.601 96 114 152
0.21156 -0.39388 -0.602 148 157 198
0.219587 -0.39388 -0.602 189 191 206
0.232959 -0.393226 -0.601 205 206 227
0.238683 -0.393226 -0.601 127 138 166
0.239828 -0.393226 -0.601 153 164 192
0.265012 -0.393226 -0.601 236 241 255
0.268447 -0.393226 -0.601 230 238 255
0.35147 -0.395189 -0.604 255 254 255
0.392386 -0.395843 -0.605 238 248 255
0.406214 -0.395843 -0.605 215 223 225
0.432993 -0.397151 -0.607 157 163 187
0.43993 -0.397151 -0.607 223 231 250
0.497876 -0.399114 -0.61 146 153 179
0.50102 -0.399769 -0.611 96 111 150
0.513822 -0.399769 -0.611 104 144 193
0.516467 -0.399114 -0.61 110 147 202
0.52606 -0.39846 -0.609 191 204 223
0.520473 -0.384066 -0.587 157 132 128
0.440703 -0.304897 -0.466 186 149 130
0.441393 -0.302934 -0.463 190 147 128
0.443508 -0.299009 -0.457 187 146 124
0.448714 -0.294429 -0.45 190 148 123
0.452371 -0.291811 -0.446 183 139 112
0.469157 -0.291157 -0.445 177 135 110
0.470005 -0.291157 -0.445 176 134 109
0.489228 -0.295083 -0.451 158 113 94
0.0894657 -0.356311 -0.543 202 157 136
0.120389 -0.362217 -0.552 168 115 101
0.144362 -0.375341 -0.572 129 89 89
0.173431 -0.39437 -0.601 87 93 119
0.174576 -0.39437 -0.601 104 109 138
0.1803 -0.39437 -0.601 138 136 157
0.191748 -0.39437 -0.601 94 113 153
0.208919 -0.39437 -0.601 62 77 106
0.222656 -0.39437 -0.601 110 111 129
0.238286 -0.393714 -0.6 158 170 192
0.355483 -0.395683 -0.603 252 253 255
0.383684 -0.396339 -0.604 186 206 243
0.396339 -0.396339 -0.604 221 228 255
0.410145 -0.396339 -0.604 249 248 255
0.417048 -0.396339 -0.604 244 247 254
0.424652 -0.396995 -0.605 247 245 255
0.431837 -0.398308 -0.607 147 158 186
0.47386 -0.39962 -0.609 221 220 228
0.47502 -0.39962 -0.609 220 219 227
0.4843 -0.39962 -0.609 212 210 231
0.503686 -0.400276 -0.61 199 206 232
0.451124 -0.32547 -0.496 171 139 128
0.440084 -0.309722 -0.472 182 145 129
0.440643 -0.305129 -0.465 185 147 128
0.448714 -0.295286 -0.45 188 146 121
0.450987 -0.293973 -0.448 190 146 119
0.463874 -0.291349 -0.444 182 138 113
0.473395 -0.292005 -0.445 169 124 101
0.48256 -0.293973 -0.448 162 119 102
0.484267 -0.293973 -0.448 160 117 100
0.488143 -0.295286 -0.45 155 112 93
0.0808952 -0.360636 -0.548 199 156 139
0.08268 -0.35932 -0.546 204 161 142
0.118071 -0.36261 -0.551 172 119 101
0.135897 -0.371166 -0.564 145 94 90
0.140107 -0.373798 -0.568 140 90 89
0.215429 -0.394857 -0.6 167 168 189
0.231429 -0.394857 -0.6 195 206 224
0.258857 -0.394857 -0.6 158 172 209
0.358929 -0.396831 -0.603 251 248 255
0.369266 -0.396831 -0.603 227 230 249
0.371563 -0.396831 -0.603 218 221 240
0.439206 -0.398806 -0.606 229 231 252
0.464975 -0.400122 -0.608 146 154 175
0.5002 -0.401438 -0.61 137 154 182
0.50634 -0.40078 -0.609 194 201 220
0.469704 -0.344184 -0.523 164 137 130
0.440365 -0.303382 -0.461 187 149 128
0.44394 -0.298117 -0.453 188 148 123
0.444682 -0.297459 -0.452 188 148 123
0.447857 -0.296143 -0.45 190 148 124
0.46472 -0.292194 -0.444 181 137 110
0.472331 -0.292194 -0.444 166 124 99
0.505124 -0.302724 -0.46 142 105 89
0.115551 -0.36234 -0.549 179 124 103
0.127845 -0.36762 -0.557 154 100 88
0.131733 -0.3696 -0.56 148 98 87
0.147822 -0.38082 -0.577 115 84 90
0.189143 -0.396 -0.6 89 99 134
0.190286 -0.396 -0.6 112 122 157
0.200571 -0.396 -0.6 166 171 191
0.213929 -0.39534 -0.599 148 155 181
0.229902 -0.39534 -0.599 160 172 198
0.250439 -0.39534 -0.599 161 175 202
0.252721 -0.39534 -0.599 183 199 225
0.353747 -0.39732 -0.602 226 227 247
0.37668 -0.39732 -0.602 217 225 248
0.386494 -0.39798 -0.603 173 188 227
0.38994 -0.39798 -0.603 209 220 250
0.4228 -0.39864 -0.604 236 232 247
0.426957 -0.3993 -0.605 220 219 233
0.432719 -0.3993 -0.605 214 219 238
0.435024 -0.3993 -0.605 238 237 253
0.451903 -0.39996 -0.606 129 158 200
0.461898 -0.40062 -0.607 222 225 242
0.468835 -0.40062 -0.607 166 173 199
0.471148 -0.40062 -0.607 219 221 244
0.5075 -0.40194 -0.609 159 175 191
0.519708 -0.40062 -0.607 140 159 189
0.447533 -0.3234 -0.49 171 137 127
0.4439 -0.31878 -0.483 177 141 129
0.441669 -0.30096 -0.456 186 145 125
0.441567 -0.3003 -0.455 185 144 122
0.443077 -0.29898 -0.453 188 147 125
0.44394 -0.29898 -0.453 189 148 126
0.448427 -0.29568 -0.448 182 140 116
0.466205 -0.29238 -0.443 181 137 108
0.468736 -0.29238 -0.443 174 130 103
0.479556 -0.29436 -0.446 163 121 97
0.492895 -0.29832 -0.452 147 115 92
0.494849 -0.29898 -0.453 146 114 91
0.0779057 -0.363386 -0.549 202 157 138
0.0806 -0.3614 -0.546 206 161 142
0.0932581 -0.35809 -0.541 203 158 137
0.10169 -0.358752 -0.542 201 150 129
0.10621 -0.360076 -0.544 192 140 119
0.10972 -0.3614 -0.546 188 136 114
0.110963 -0.362062 -0.547 191 136 115
0.164317 -0.395157 -0.597 40 45 77
0.176277 -0.396481 -0.599 131 136 155
0.180841 -0.396481 -0.599 129 133 158
0.202519 -0.396481 -0.599 172 175 194
0.210506 -0.396481 -0.599 113 123 148
0.224962 -0.395819 -0.598 182 198 232
0.362317 -0.397805 -0.601 185 192 218
0.441938 -0.400452 -0.605 180 192 218
0.449594 -0.401114 -0.606 177 202 242
0.451903 -0.401114 -0.606 144 171 214
0.455366 -0.401114 -0.606 170 184 213
0.46421 -0.401776 -0.607 214 217 232
0.477714 -0.402438 -0.608 214 220 236
0.48662 -0.4031 -0.609 211 212 233
0.48778 -0.4031 -0.609 211 212 233
0.49242 -0.4031 -0.609 199 204 224
0.526931 -0.401114 -0.606 174 176 188
0.442049 -0.317052 -0.479 181 143 130
0.439073 -0.310433 -0.469 183 146 130
0.440643 -0.307786 -0.465 183 144 127
0.461142 -0.293224 -0.443 180 136 109
0.472111 -0.293224 -0.443 166 124 99
0.474869 -0.293886 -0.444 163 121 96
0.478481 -0.294548 -0.445 163 121 96
0.491805 -0.298519 -0.451 148 116 91
0.081341 -0.361112 -0.544 203 158 137
0.108481 -0.361776 -0.545 186 134 112
0.134584 -0.373725 -0.563 144 96 86
0.169149 -0.396958 -0.598 110 111 132
0.187687 -0.397622 -0.599 122 135 169
0.198764 -0.396958 -0.598 154 163 194
0.201042 -0.396958 -0.598 170 173 188
0.205598 -0.396958 -0.598 174 179 198
0.216989 -0.396958 -0.598 161 175 210
0.261411 -0.396958 -0.598 208 217 248
0.368041 -0.39895 -0.601 250 250 252
0.382923 -0.39895 -0.601 207 227 254
0.396173 -0.399613 -0.602 255 251 255
0.398467 -0.399613 -0.602 219 216 225
0.409933 -0.399613 -0.602 219 226 252
0.428552 -0.400941 -0.604 222 230 251
0.432004 -0.400941 -0.604 200 204 215
0.433154 -0.400941 -0.604 198 202 213
0.4477 -0.401605 -0.605 184 210 247
0.47268 -0.402269 -0.606 190 194 219
0.496584 -0.402932 -0.607 157 160 175
0.50699 -0.402932 -0.607 149 162 181
0.515389 -0.402269 -0.606 132 154 193
0.527214 -0.401605 -0.605 202 204 216
0.518926 -0.387665 -0.584 158 135 129
0.4439 -0.32062 -0.483 175 141 131
0.452205 -0.295395 -0.445 192 150 125
0.453052 -0.295395 -0.445 190 148 123
0.458417 -0.293404 -0.442 187 143 118
0.462627 -0.293404 -0.442 180 136 109
0.478481 -0.295395 -0.445 163 121 96
0.489857 -0.298714 -0.45 150 116 91
0.496806 -0.30137 -0.454 143 107 85
0.0717381 -0.382786 -0.575 195 159 127
0.07658 -0.364146 -0.547 201 159 137
0.0811914 -0.361483 -0.543 199 157 135
0.0972 -0.359486 -0.54 201 153 131
0.136138 -0.376129 -0.565 140 92 88
0.171427 -0.398097 -0.598 130 127 144
0.174844 -0.398097 -0.598 137 135 156
0.180539 -0.398097 -0.598 113 120 149
0.182817 -0.398097 -0.598 67 87 124
0.189651 -0.398097 -0.598 107 120 155
0.201843 -0.397431 -0.597 176 179 188
0.232546 -0.397431 -0.597 160 171 203
0.243917 -0.397431 -0.597 212 223 241
0.361714 -0.399429 -0.6 194 209 250
0.362857 -0.399429 -0.6 227 241 252
0.364 -0.399429 -0.6 235 249 255
0.382923 -0.400094 -0.601 210 225 255
0.39666 -0.400094 -0.601 243 240 249
0.41796 -0.40076 -0.602 216 227 249
0.431289 -0.401426 -0.603 227 231 240
0.45231 -0.402757 -0.605 160 179 219
0.462681 -0.402757 -0.605 183 186 193
0.471526 -0.403423 -0.606 165 174 207
0.49774 -0.404089 -0.607 179 181 194
0.519148 -0.402757 -0.605 153 173 206
0.4439 -0.32154 -0.483 172 139 130
0.43992 -0.311554 -0.468 183 146 130
0.452034 -0.295577 -0.444 189 147 122
0.45288 -0.295577 -0.444 188 146 121
0.457575 -0.294246 -0.442 186 142 117
0.463469 -0.294246 -0.442 178 134 107
0.472955 -0.294911 -0.443 169 123 97
0.477406 -0.295577 -0.444 163 121 96
0.480176 -0.296243 -0.445 165 126 97
0.0801571 -0.362517 -0.543 201 156 137
0.0860448 -0.361182 -0.541 204 159 140
0.114297 -0.365855 -0.548 179 121 101
0.127845 -0.371864 -0.557 151 103 93
0.165454 -0.398569 -0.597 36 53 79
0.186234 -0.399236 -0.598 93 111 151
0.19079 -0.399236 -0.598 88 101 143
0.19502 -0.398569 -0.597 80 99 141
0.215128 -0.397901 -0.596 78 107 163
0.218533 -0.397901 -0.596 119 148 208
0.220804 -0.397901 -0.596 85 107 164
0.223074 -0.397901 -0.596 126 151 205
0.227615 -0.397901 -0.596 81 112 166
0.254151 -0.398569 -0.597 186 201 234
0.260974 -0.398569 -0.597 194 205 237
0.340574 -0.399904 -0.599 170 183 202
0.357143 -0.400571 -0.6 160 183 225
0.41796 -0.401907 -0.602 208 225 253
0.450411 -0.403242 -0.604 181 204 245
0.451562 -0.403242 -0.604 164 183 225
0.460376 -0.40391 -0.605 219 225 239
0.476143 -0.404577 -0.606 184 199 228
0.490453 -0.405912 -0.608 129 154 195
0.503846 -0.404577 -0.606 196 202 218
0.51569 -0.40391 -0.605 134 160 195
0.486491 -0.363185 -0.544 161 133 129
0.472398 -0.351168 -0.526 162 133 127
0.454717 -0.334477 -0.501 167 137 129
0.440115 -0.315784 -0.473 182 144 133
0.439029 -0.312446 -0.468 183 147 131
0.439695 -0.309775 -0.464 184 145 128
0.440579 -0.309775 -0.464 184 145 128
0.44296 -0.301764 -0.452 187 146 126
0.446007 -0.299761 -0.449 189 147 125
0.44928 -0.299093 -0.448 188 146 121
0.45051 -0.29709 -0.445 191 147 122
0.451189 -0.296423 -0.444 189 145 120
0.45288 -0.296423 -0.444 191 146 123
0.467678 -0.295088 -0.442 176 132 103
0.477406 -0.296423 -0.444 164 120 93
0.486827 -0.299093 -0.448 154 114 89
0.0711143 -0.381629 -0.57 204 157 139
0.108282 -0.364221 -0.544 187 137 112
0.1118 -0.36556 -0.546 188 134 110
0.11681 -0.368238 -0.55 174 115 97
0.118071 -0.368908 -0.551 172 113 97
0.165177 -0.399036 -0.596 70 77 103
0.174551 -0.399706 -0.597 143 141 154
0.1791 -0.399706 -0.597 110 119 158
0.20491 -0.399036 -0.596 192 184 208
0.2091 -0.398367 -0.595 145 152 160
0.22421 -0.399036 -0.596 93 123 177
0.238968 -0.399036 -0.596 230 230 254
0.354266 -0.401045 -0.599 169 192 223
0.405143 -0.401714 -0.6 124 148 194
0.41796 -0.403053 -0.602 188 212 248
0.4214 -0.403053 -0.602 136 160 206
0.422547 -0.403053 -0.602 123 147 193
0.430573 -0.403053 -0.602 241 242 247
0.44811 -0.404392 -0.604 159 185 220
0.453863 -0.404392 -0.604 145 163 201
0.463067 -0.404392 -0.604 224 226 239
0.467669 -0.404392 -0.604 186 196 231
0.46997 -0.404392 -0.604 109 130 175
0.47651 -0.405062 -0.605 183 202 235
0.48076 -0.405731 -0.606 127 150 184
0.48849 -0.406401 -0.607 133 153 190
0.491959 -0.406401 -0.607 88 119 163
0.511081 -0.405062 -0.605 153 177 213
0.512233 -0.405062 -0.605 155 179 215
0.525192 -0.404392 -0.604 195 199 208
0.454717 -0.335431 -0.501 166 137 129
0.452943 -0.333423 -0.498 166 137 129
0.440286 -0.307981 -0.46 190 151 134
0.4408 -0.305303 -0.456 186 145 127
0.452704 -0.296599 -0.443 191 147 122
0.45486 -0.29526 -0.441 180 136 111
0.45654 -0.29526 -0.441 185 141 116
0.458857 -0.29459 -0.44 182 138 111
0.46242 -0.29526 -0.441 183 139 110
0.46662 -0.29526 -0.441 177 133 106
0.481871 -0.297938 -0.445 157 115 90
0.0959933 -0.3619 -0.539 198 152 129
0.0980467 -0.3619 -0.539 199 153 130
0.129369 -0.375329 -0.559 146 97 90
0.133511 -0.378014 -0.563 141 97 88
0.137943 -0.381371 -0.568 137 89 85
0.160097 -0.398829 -0.594 33 39 65
0.174259 -0.400171 -0.596 144 142 155
0.190152 -0.400171 -0.596 73 94 139
0.191288 -0.400171 -0.596 77 98 143
0.2227 -0.3995 -0.595 74 104 166
0.350843 -0.402186 -0.599 145 171 222
0.353125 -0.402186 -0.599 161 186 242
0.402857 -0.402857 -0.6 184 190 212
0.428713 -0.403529 -0.601 244 241 248
0.432148 -0.403529 -0.601 238 242 251
0.440161 -0.403529 -0.601 145 164 204
0.463067 -0.405543 -0.604 226 224 237
0.492303 -0.406886 -0.606 130 160 212
0.494948 -0.406214 -0.605 212 211 219
0.4961 -0.406214 -0.605 209 208 216
0.50071 -0.406214 -0.605 187 185 196
0.505319 -0.406214 -0.605 123 140 166
0.523174 -0.404871 -0.603 189 198 207
0.519814 -0.392786 -0.585 161 131 129
0.441093 -0.3196 -0.476 178 142 128
0.440115 -0.317586 -0.473 181 145 131
0.451189 -0.298114 -0.444 186 142 115
0.461371 -0.295429 -0.44 184 140 113
0.473571 -0.296771 -0.442 165 121 96
0.478018 -0.297443 -0.443 168 124 99
0.07436 -0.36764 -0.546 202 156 132
0.092741 -0.362253 -0.538 201 156 135
0.09684 -0.362253 -0.538 198 152 129
0.130667 -0.377067 -0.56 143 96 90
0.142431 -0.38582 -0.573 110 88 90
0.175394 -0.401307 -0.596 148 145 162
0.17653 -0.401307 -0.596 143 147 174
0.204567 -0.400633 -0.595 191 190 206
0.349118 -0.402653 -0.598 134 163 219
0.352535 -0.402653 -0.598 125 154 210
0.394199 -0.403327 -0.599 238 235 242
0.398286 -0.404 -0.6 247 246 252
0.414286 -0.404 -0.6 118 148 200
0.437871 -0.404673 -0.601 162 178 201
0.44548 -0.405347 -0.602 149 179 217
0.474571 -0.406693 -0.604 79 112 166
0.484576 -0.407367 -0.605 110 140 202
0.509086 -0.406693 -0.604 125 156 202
0.440084 -0.317813 -0.472 180 144 130
0.44416 -0.301653 -0.448 190 148 124
0.449662 -0.299633 -0.445 190 148 126
0.451016 -0.298287 -0.443 189 145 118
0.45865 -0.295593 -0.439 181 137 112
0.0895 -0.362603 -0.537 204 157 139
0.117857 -0.371381 -0.55 171 113 101
0.12166 -0.373407 -0.553 165 107 96
0.125497 -0.375432 -0.556 154 104 97
0.126784 -0.376108 -0.557 149 99 92
0.133511 -0.380159 -0.563 142 97 91
0.136379 -0.382185 -0.566 133 89 88
0.14268 -0.387587 -0.574 109 89 88
0.177367 -0.401767 -0.595 135 140 169
0.187567 -0.401767 -0.595 38 70 127
0.345123 -0.403117 -0.597 113 143 203
0.397622 -0.404468 -0.599 249 246 253
0.401045 -0.404468 -0.599 231 235 246
0.404468 -0.404468 -0.599 198 209 241
0.40675 -0.404468 -0.599 135 159 205
0.414286 -0.405143 -0.6 115 148 202
0.432571 -0.405143 -0.6 240 237 248
0.438286 -0.405143 -0.6 159 177 201
0.45924 -0.406493 -0.602 222 221 235
0.46268 -0.406493 -0.602 229 228 236
0.463827 -0.406493 -0.602 222 221 229
0.472637 -0.407169 -0.603 95 125 179
0.480324 -0.407844 -0.604 79 117 180
0.497906 -0.407169 -0.603 204 207 212
0.505946 -0.407169 -0.603 117 144 187
0.507094 -0.407169 -0.603 114 145 192
0.444819 -0.326815 -0.484 171 138 129
0.443899 -0.325465 -0.482 172 139 130
0.443307 -0.302507 -0.448 179 137 113
0.45051 -0.300481 -0.445 188 143 120
0.467238 -0.297105 -0.44 174 130 105
0.468914 -0.297105 -0.44 171 127 102
0.478862 -0.29913 -0.443 161 119 95
0.486352 -0.301156 -0.446 160 119 97
0.495241 -0.304532 -0.451 148 112 88
0.0797143 -0.365657 -0.54 200 155 134
0.08162 -0.36498 -0.539 204 159 138
0.0946143 -0.363626 -0.537 199 153 130
0.0978648 -0.364303 -0.538 197 151 127
0.110557 -0.369043 -0.545 179 127 105
0.14268 -0.38868 -0.574 111 90 89
0.165754 -0.402223 -0.594 99 106 135
0.166886 -0.402223 -0.594 106 113 142
0.179331 -0.402223 -0.594 61 79 125
0.188383 -0.402223 -0.594 43 78 136
0.191777 -0.402223 -0.594 84 114 174
0.200829 -0.402223 -0.594 188 193 213
0.357631 -0.404254 -0.597 201 224 255
0.391263 -0.404931 -0.598 243 250 255
0.403327 -0.405609 -0.599 229 236 255
0.410172 -0.405609 -0.599 100 136 194
0.418159 -0.405609 -0.599 121 153 214
0.428 -0.406286 -0.6 238 235 252
0.440571 -0.406286 -0.6 145 172 217
0.456947 -0.40764 -0.602 215 218 233
0.458477 -0.406963 -0.601 222 223 241
0.504797 -0.408317 -0.603 111 139 179
0.515427 -0.40764 -0.602 106 135 179
0.450246 -0.334509 -0.494 166 133 124
0.44202 -0.322997 -0.477 176 140 128
0.439329 -0.310809 -0.459 183 144 127
0.466176 -0.297266 -0.439 176 132 107
0.48055 -0.299974 -0.443 161 119 95
0.503337 -0.308777 -0.456 145 110 88
0.0978648 -0.365328 -0.538 195 149 125
0.109318 -0.369402 -0.544 180 126 100
0.116597 -0.372797 -0.549 174 117 100
0.12166 -0.375513 -0.553 162 105 96
0.133749 -0.382983 -0.564 133 94 89
0.163491 -0.403354 -0.594 73 89 125
0.17028 -0.403354 -0.594 109 115 141
0.175641 -0.402675 -0.593 118 129 161
0.17677 -0.402675 -0.593 113 124 156
0.183548 -0.402675 -0.593 50 81 135
0.184677 -0.402675 -0.593 43 73 133
0.190325 -0.402675 -0.593 62 97 153
0.350221 -0.404712 -0.596 101 131 201
0.384923 -0.405391 -0.597 167 188 233
0.399236 -0.40607 -0.598 228 235 251
0.418159 -0.40675 -0.599 135 167 228
0.4193 -0.40675 -0.599 170 197 250
0.425005 -0.40675 -0.599 231 232 252
0.465346 -0.408108 -0.601 217 214 231
0.46878 -0.408108 -0.601 203 209 235
0.50052 -0.408787 -0.602 197 204 223
0.505107 -0.408787 -0.602 117 146 190
0.51457 -0.408108 -0.601 104 136 183
0.4698 -0.354463 -0.522 159 130 122
0.44936 -0.334091 -0.492 168 135 126
0.443899 -0.327301 -0.482 172 138 128
0.438871 -0.315757 -0.465 179 141 128
0.439833 -0.308967 -0.455 184 143 125
0.440489 -0.307609 -0.453 189 148 130
0.445575 -0.302855 -0.446 190 145 124
0.448651 -0.301497 -0.444 191 146 123
0.451016 -0.300818 -0.443 191 147 122
0.455937 -0.297423 -0.438 184 140 113
0.457606 -0.297423 -0.438 183 139 114
0.47059 -0.298781 -0.44 168 126 101
0.483326 -0.301497 -0.444 160 118 94
0.489146 -0.303534 -0.447 156 115 93
0.0672619 -0.384738 -0.565 200 149 128
0.0689933 -0.376567 -0.553 202 157 134
0.0738152 -0.369076 -0.542 202 157 138
0.0747095 -0.368395 -0.541 203 157 134
0.0775133 -0.367033 -0.539 201 156 135
0.07854 -0.367033 -0.539 203 158 137
0.1309 -0.382014 -0.561 142 93 96
0.132439 -0.383376 -0.563 139 90 93
0.167734 -0.403805 -0.593 48 58 93
0.17677 -0.403805 -0.593 83 96 131
0.202408 -0.403124 -0.592 139 155 181
0.350221 -0.405848 -0.596 101 131 203
0.352491 -0.405848 -0.596 105 138 207
0.355897 -0.405848 -0.596 179 208 252
0.387197 -0.406529 -0.597 144 169 209
0.392883 -0.406529 -0.597 231 237 249
0.40721 -0.40721 -0.598 144 180 238
0.428851 -0.40721 -0.598 231 236 255
0.438696 -0.40789 -0.599 133 164 211
0.454286 -0.408571 -0.6 142 176 222
0.481826 -0.410614 -0.603 43 91 163
0.521439 -0.409252 -0.601 174 193 223
0.525143 -0.408571 -0.6 195 194 208
0.460943 -0.347286 -0.51 165 135 127
0.44001 -0.320048 -0.47 177 141 127
0.438454 -0.312557 -0.459 183 144 127
0.439155 -0.311195 -0.457 182 140 126
0.455103 -0.298257 -0.438 184 140 111
0.456771 -0.298257 -0.438 183 139 112
0.465114 -0.298257 -0.438 173 132 102
0.468685 -0.298938 -0.439 170 129 99
0.481393 -0.301662 -0.443 160 119 91
0.0764867 -0.36806 -0.539 207 160 140
0.0802943 -0.366694 -0.537 205 159 136
0.0988895 -0.367377 -0.538 188 138 115
0.133986 -0.385814 -0.565 125 91 89
0.159558 -0.404251 -0.592 25 37 75
0.187431 -0.403569 -0.591 34 68 131
0.194514 -0.404251 -0.592 57 89 148
0.195642 -0.404251 -0.592 77 101 147
0.203535 -0.404251 -0.592 90 111 138
0.347367 -0.4063 -0.595 100 134 198
0.380872 -0.406983 -0.596 113 152 207
0.386549 -0.406983 -0.596 142 174 215
0.407666 -0.407666 -0.597 102 138 198
0.435686 -0.408349 -0.598 138 162 198
0.445542 -0.409031 -0.599 89 135 195
0.454286 -0.409714 -0.6 138 178 229
0.475649 -0.410397 -0.601 51 93 169
0.50052 -0.41108 -0.602 189 200 220
0.506557 -0.410397 -0.601 90 129 196
0.516 -0.409714 -0.6 94 122 172
0.518286 -0.409714 -0.6 140 160 193
0.520571 -0.409714 -0.6 180 187 206
0.524 -0.409714 -0.6 196 195 213
0.439155 -0.312066 -0.457 179 140 123
0.440377 -0.308651 -0.452 189 148 130
0.441121 -0.307969 -0.451 184 143 125
0.44696 -0.303189 -0.444 187 145 120
0.450172 -0.302506 -0.443 189 145 118
0.455937 -0.299091 -0.438 186 142 113
0.455729 -0.298409 -0.437 182 138 109
0.462611 -0.299091 -0.438 173 132 104
0.468685 -0.299774 -0.439 175 131 102
0.47203 -0.299774 -0.439 167 124 92
0.47754 -0.30114 -0.441 165 121 92
0.488901 -0.304554 -0.446 156 119 93
0.0725143 -0.369771 -0.54 205 158 138
0.0792714 -0.367717 -0.537 205 160 137
0.0832076 -0.367032 -0.536 208 162 139
0.0881476 -0.366348 -0.535 208 160 137
0.0934171 -0.367032 -0.536 203 156 130
0.105624 -0.370456 -0.541 183 128 107
0.117857 -0.376619 -0.55 160 108 94
0.119121 -0.377304 -0.551 156 104 90
0.124438 -0.380728 -0.556 150 103 93
0.127011 -0.382097 -0.558 145 101 92
0.137102 -0.38963 -0.569 122 92 94
0.160414 -0.404694 -0.591 45 60 101
0.16154 -0.404694 -0.591 49 64 105
0.183238 -0.405379 -0.592 32 68 120
0.19306 -0.404694 -0.591 53 90 145
0.194186 -0.404694 -0.591 79 116 171
0.207694 -0.404694 -0.591 110 138 186
0.386549 -0.408118 -0.596 131 165 210
0.388819 -0.408118 -0.596 170 190 227
0.397901 -0.408118 -0.596 132 152 185
0.40994 -0.408803 -0.597 91 121 191
0.424723 -0.408803 -0.597 129 147 183
0.437964 -0.409488 -0.598 130 165 221
0.466079 -0.410172 -0.599 138 162 198
0.476793 -0.411542 -0.601 47 85 168
0.496254 -0.411542 -0.601 167 170 185
0.509143 -0.410857 -0.6 50 94 167
0.519704 -0.410172 -0.599 146 159 191
0.445738 -0.33211 -0.485 171 138 129
0.441976 -0.325262 -0.475 176 140 128
0.438928 -0.319099 -0.466 179 142 126
0.438867 -0.310882 -0.454 184 142 126
0.441857 -0.308143 -0.45 180 139 119
0.446797 -0.30335 -0.443 189 145 120
0.45066 -0.30198 -0.441 189 145 118
0.45989 -0.299241 -0.437 182 141 111
0.465949 -0.299926 -0.438 175 131 102
0.47203 -0.30061 -0.439 169 126 94
0.47922 -0.30198 -0.441 163 117 91
0.0879829 -0.36668 -0.534 206 158 135
0.0912048 -0.367367 -0.535 204 156 133
0.095281 -0.367367 -0.535 196 149 123
0.100939 -0.369427 -0.538 190 138 116
0.102153 -0.370113 -0.539 187 135 113
0.115341 -0.376293 -0.548 172 116 101
0.117857 -0.377667 -0.55 158 105 91
0.124438 -0.381787 -0.556 149 102 92
0.181803 -0.40582 -0.591 49 86 141
0.184054 -0.40582 -0.591 26 62 120
0.188557 -0.40582 -0.591 54 94 156
0.189683 -0.40582 -0.591 59 99 161
0.231334 -0.40582 -0.591 158 179 208
0.410389 -0.409253 -0.596 92 128 188
0.415626 -0.40994 -0.597 94 128 199
0.431546 -0.40994 -0.597 137 158 179
0.449354 -0.410627 -0.598 75 121 183
0.458467 -0.410627 -0.598 206 201 223
0.463023 -0.410627 -0.598 91 122 169
0.473714 -0.412 -0.6 48 89 168
0.484807 -0.412687 -0.601 62 103 165
0.503429 -0.412 -0.6 70 106 164
0.503483 -0.386593 -0.563 163 134 126
0.48932 -0.37492 -0.546 164 134 126
0.466285 -0.355007 -0.517 164 134 126
0.446649 -0.334407 -0.487 170 138 127
0.44001 -0.322733 -0.47 178 142 130
0.438928 -0.319987 -0.466 180 143 127
0.438748 -0.317927 -0.463 181 144 128
0.445424 -0.305567 -0.445 191 149 125
0.45066 -0.30282 -0.441 188 144 117
0.460723 -0.300073 -0.437 181 140 110
0.461555 -0.300073 -0.437 177 136 106
0.472866 -0.301447 -0.439 169 125 98
0.108083 -0.373894 -0.543 179 122 103
0.114089 -0.376649 -0.547 170 113 94
0.124438 -0.382846 -0.556 149 101 91
0.128533 -0.3856 -0.56 142 97 91
0.161267 -0.406257 -0.59 90 104 141
0.187114 -0.406257 -0.59 53 95 155
0.193857 -0.406257 -0.59 134 170 230
0.428552 -0.410389 -0.596 196 201 207
0.430823 -0.410389 -0.596 183 201 223
0.437634 -0.410389 -0.596 94 126 177
0.502286 -0.413143 -0.6 74 110 168
0.519975 -0.411766 -0.598 128 145 171
0.444817 -0.331891 -0.482 171 137 127
0.442317 -0.307791 -0.447 186 145 125
0.457177 -0.300217 -0.436 182 139 107
0.46299 -0.300217 -0.436 180 136 107
0.478971 -0.302971 -0.44 165 119 95
0.4809 -0.30366 -0.441 168 122 98
0.483674 -0.304349 -0.442 164 118 95
0.0731343 -0.370786 -0.537 208 163 140
0.0910343 -0.368714 -0.534 202 154 131
0.10318 -0.372167 -0.539 182 127 107
0.111595 -0.37631 -0.545 177 120 101
0.115341 -0.378381 -0.548 169 113 98
0.125949 -0.385286 -0.558 146 99 93
0.137584 -0.394262 -0.571 129 90 91
0.163514 -0.407381 -0.59 118 128 153
0.170257 -0.407381 -0.59 147 148 166
0.192407 -0.40669 -0.589 86 125 182
0.2006 -0.407381 -0.59 203 215 227
0.405167 -0.410833 -0.595 111 139 202
0.409253 -0.411524 -0.596 86 117 184
0.417633 -0.410833 -0.595 144 183 242
0.421033 -0.410833 -0.595 195 211 234
0.427833 -0.410833 -0.595 232 236 245
0.452014 -0.412214 -0.597 122 164 222
0.453151 -0.412214 -0.597 173 199 236
0.455426 -0.412214 -0.597 207 212 231
0.459974 -0.412214 -0.597 195 205 230
0.473274 -0.412905 -0.598 45 92 160
0.442947 -0.330048 -0.478 175 141 129
0.439155 -0.315548 -0.457 181 142 125
0.439516 -0.312095 -0.452 183 145 126
0.44173 -0.310024 -0.449 183 142 122
0.444576 -0.307262 -0.445 188 148 123
0.452152 -0.30381 -0.44 190 146 119
0.469879 -0.301738 -0.437 168 124 97
0.0703267 -0.373193 -0.539 203 158 135
0.0859486 -0.369731 -0.534 205 157 135
0.097501 -0.371116 -0.536 190 140 117
0.0997286 -0.371809 -0.537 186 135 114
0.109318 -0.376655 -0.544 178 121 102
0.11284 -0.37804 -0.546 171 115 98
0.125949 -0.386349 -0.558 147 99 95
0.1316 -0.390503 -0.564 139 95 94
0.173334 -0.407812 -0.589 155 157 169
0.1767 -0.407812 -0.589 64 87 129
0.402223 -0.411274 -0.594 200 219 252
0.4097 -0.411967 -0.595 98 128 190
0.4369 -0.411967 -0.595 120 155 209
0.438033 -0.411967 -0.595 111 159 225
0.44331 -0.412659 -0.596 73 122 191
0.451257 -0.412659 -0.596 124 169 226
0.454663 -0.412659 -0.596 214 221 240
0.467934 -0.413351 -0.597 155 175 210
0.474413 -0.414044 -0.598 52 97 165
0.486616 -0.414736 -0.599 160 193 246
0.504029 -0.414044 -0.598 75 119 190
0.468089 -0.359346 -0.519 163 134 128
0.442947 -0.330958 -0.478 171 137 125
0.438533 -0.318495 -0.46 179 142 124
0.447472 -0.306032 -0.442 186 145 117
0.455516 -0.301878 -0.436 186 142 113
0.456957 -0.301186 -0.435 181 137 108
0.471544 -0.30257 -0.437 166 125 97
0.0648971 -0.384634 -0.554 200 158 134
0.0668343 -0.377691 -0.544 204 158 135
0.0997286 -0.372831 -0.537 187 135 114
0.110354 -0.377691 -0.544 174 118 101
0.117857 -0.381857 -0.55 151 103 91
0.125949 -0.387411 -0.558 146 101 96
0.156506 -0.408934 -0.589 35 40 70
0.1652 -0.40824 -0.588 143 142 158
0.19208 -0.40824 -0.588 106 133 176
0.381214 -0.411711 -0.593 130 170 221
0.394769 -0.411711 -0.593 234 244 254
0.435767 -0.4131 -0.595 114 153 210
0.455033 -0.4131 -0.595 218 225 244
0.486616 -0.415877 -0.599 177 204 249
0.500611 -0.415183 -0.598 96 129 180
0.511146 -0.414489 -0.597 66 116 177
0.499178 -0.386717 -0.557 159 132 125
0.442907 -0.33048 -0.476 172 138 126
0.43987 -0.324231 -0.467 176 140 124
0.441466 -0.310346 -0.447 182 141 119
0.442881 -0.308957 -0.445 186 146 121
0.481486 -0.305486 -0.44 159 117 93
0.48342 -0.30618 -0.441 157 117 92
0.491195 -0.308957 -0.445 146 111 89
0.0827419 -0.37107 -0.533 203 157 133
0.097501 -0.373158 -0.536 190 139 118
0.1044 -0.375943 -0.54 178 123 103
0.105624 -0.376639 -0.541 179 122 103
0.11388 -0.38012 -0.546 166 115 98
0.119121 -0.383601 -0.551 150 102 90
0.12188 -0.38569 -0.554 148 101 91
0.15736 -0.40936 -0.588 43 50 79
0.17416 -0.40936 -0.588 108 117 134
0.408323 -0.412841 -0.593 95 131 193
0.409452 -0.412841 -0.593 97 133 195
0.417359 -0.412841 -0.593 191 212 241
0.442954 -0.413537 -0.594 88 134 196
0.444086 -0.413537 -0.594 91 137 199
0.4471 -0.414233 -0.595 103 149 211
0.472483 -0.415626 -0.597 57 100 179
0.47362 -0.415626 -0.597 59 99 184
0.492638 -0.416322 -0.598 205 214 231
0.494916 -0.416322 -0.598 202 214 230
0.522517 -0.415626 -0.597 163 164 166
0.50097 -0.38917 -0.559 159 132 123
0.470794 -0.363411 -0.522 159 132 123
0.460103 -0.353665 -0.508 161 132 124
0.439815 -0.324425 -0.466 176 140 124
0.439757 -0.323729 -0.465 176 140 124
0.4381 -0.316767 -0.455 174 137 118
0.439516 -0.314678 -0.452 180 142 121
0.440143 -0.313286 -0.45 180 142 119
0.444423 -0.309109 -0.444 186 144 119
0.445789 -0.307716 -0.442 191 149 124
0.44898 -0.30702 -0.441 182 138 111
0.450476 -0.306324 -0.44 188 144 119
0.4862 -0.307716 -0.442 150 114 90
0.490091 -0.309109 -0.444 147 112 90
0.0825867 -0.371387 -0.532 202 156 132
0.0856267 -0.371387 -0.532 206 158 135
0.163801 -0.409782 -0.587 144 145 173
0.1708 -0.41048 -0.588 173 170 177
0.18169 -0.409782 -0.587 107 135 185
0.397486 -0.413272 -0.592 201 208 226
0.425266 -0.41397 -0.593 233 239 253
0.427525 -0.41397 -0.593 238 241 255
0.43882 -0.41397 -0.593 123 166 219
0.446349 -0.414669 -0.594 127 169 227
0.449743 -0.414669 -0.594 109 149 200
0.457663 -0.414669 -0.594 222 230 243
0.462967 -0.415367 -0.595 199 202 209
0.4641 -0.415367 -0.595 207 210 217
0.477031 -0.416763 -0.597 49 90 169
0.48954 -0.416763 -0.597 204 212 223
0.490677 -0.416763 -0.597 201 213 229
0.504323 -0.416763 -0.597 80 119 184
0.51256 -0.416065 -0.596 96 136 197
0.517101 -0.416065 -0.596 174 185 187
0.45298 -0.346953 -0.497 164 136 124
0.442907 -0.332293 -0.476 168 136 123
0.441882 -0.329501 -0.472 172 139 124
0.4381 -0.317633 -0.455 174 137 118
0.438763 -0.316237 -0.453 181 145 123
0.450734 -0.305068 -0.437 187 143 114
0.453643 -0.303671 -0.435 186 143 111
0.45756 -0.302973 -0.434 183 139 110
0.465827 -0.302973 -0.434 169 128 98
0.476538 -0.305068 -0.437 159 117 92
0.499031 -0.313445 -0.449 139 108 88
0.0727257 -0.3738 -0.534 207 161 137
0.0776657 -0.3731 -0.533 208 162 138
0.0854657 -0.3717 -0.531 205 157 134
0.0928943 -0.3731 -0.533 194 143 122
0.0997286 -0.3759 -0.537 176 124 103
0.116597 -0.3843 -0.549 156 106 95
0.123379 -0.3892 -0.556 141 98 92
0.124662 -0.3899 -0.557 140 97 91
0.128763 -0.3927 -0.561 135 98 92
0.130294 -0.3941 -0.563 132 95 89
0.172746 -0.4109 -0.587 126 124 137
0.179454 -0.4109 -0.587 108 136 183
0.396358 -0.4144 -0.592 227 235 246
0.444468 -0.4151 -0.593 116 156 208
0.445597 -0.4151 -0.593 125 166 220
0.452006 -0.4158 -0.594 204 223 253
0.453137 -0.4158 -0.594 225 225 237
0.456892 -0.4151 -0.593 222 230 241
0.462189 -0.4158 -0.594 162 165 170
0.468633 -0.4165 -0.595 78 110 159
0.4709 -0.4165 -0.595 58 98 168
0.472033 -0.4165 -0.595 57 95 160
0.484991 -0.4179 -0.597 123 142 175
0.501208 -0.4172 -0.596 86 132 191
0.43868 -0.3234 -0.462 176 141 122
0.4379 -0.3171 -0.453 177 140 121
0.444266 -0.3101 -0.443 188 146 121
0.450734 -0.3059 -0.437 183 142 112
0.463104 -0.3031 -0.433 177 134 102
0.46748 -0.3038 -0.434 173 128 97
0.480131 -0.3066 -0.438 153 115 94
0.0659743 -0.376923 -0.537 203 158 135
0.08142 -0.372711 -0.531 199 153 129
0.1044 -0.379029 -0.54 175 119 102
0.106654 -0.37973 -0.541 173 116 99
0.379929 -0.414826 -0.591 154 189 221
0.395689 -0.414826 -0.591 216 222 236
0.456892 -0.41623 -0.593 216 226 238
0.468977 -0.416931 -0.594 67 107 176
0.479638 -0.418335 -0.596 62 99 167
0.480773 -0.418335 -0.596 74 108 171
0.493261 -0.418335 -0.596 202 212 222
0.500072 -0.418335 -0.596 102 122 159
0.513967 -0.417633 -0.595 87 121 167
0.50814 -0.39798 -0.567 156 131 124
0.46282 -0.358673 -0.511 160 132 121
0.455671 -0.351654 -0.501 164 134 123
0.44481 -0.337616 -0.481 170 138 125
0.440143 -0.315857 -0.45 179 141 120
0.440875 -0.315155 -0.449 182 141 121
0.451567 -0.306732 -0.437 181 140 112
0.46748 -0.304627 -0.434 175 128 98
0.468307 -0.304627 -0.434 174 127 97
0.46996 -0.304627 -0.434 172 127 98
0.479035 -0.306732 -0.437 151 113 92
0.0599438 -0.392022 -0.557 197 155 131
0.0605667 -0.389207 -0.553 197 155 131
0.06188 -0.38428 -0.546 197 155 133
0.107884 -0.381465 -0.542 172 114 100
0.130526 -0.396949 -0.564 134 96 93
0.166586 -0.411729 -0.585 169 172 177
0.169929 -0.411729 -0.585 119 120 125
0.377038 -0.415248 -0.59 188 213 254
0.378162 -0.415248 -0.59 176 209 240
0.441463 -0.416655 -0.592 153 184 228
0.44259 -0.416655 -0.592 159 192 233
0.449356 -0.416655 -0.592 194 211 241
0.46141 -0.417359 -0.593 182 188 212
0.4743 -0.418767 -0.595 99 130 185
0.51084 -0.418063 -0.594 99 133 179
0.448495 -0.343459 -0.488 168 136 123
0.442907 -0.335013 -0.476 169 137 122
0.440811 -0.329383 -0.468 173 137 121
0.439757 -0.327271 -0.465 175 140 121
0.439695 -0.326568 -0.464 175 140 121
0.438454 -0.323049 -0.459 176 141 122
0.441186 -0.313195 -0.445 181 140 120
0.447124 -0.309676 -0.44 185 143 118
0.451364 -0.306861 -0.436 188 144 119
0.451773 -0.305453 -0.434 186 142 117
0.4526 -0.305453 -0.434 185 141 114
0.463929 -0.30475 -0.433 176 131 100
0.476278 -0.306861 -0.436 160 120 95
0.48762 -0.31038 -0.441 146 111 91
0.059621 -0.390966 -0.554 199 158 130
0.06764 -0.376851 -0.534 204 159 136
0.0822762 -0.374029 -0.53 198 152 128
0.0873238 -0.374029 -0.53 196 148 126
0.0985219 -0.378263 -0.536 178 126 105
0.101964 -0.379674 -0.538 176 121 101
0.111595 -0.384614 -0.545 168 112 97
0.124662 -0.393083 -0.557 144 101 95
0.153476 -0.413549 -0.586 104 108 135
0.445973 -0.417783 -0.592 132 161 201
0.448229 -0.417783 -0.592 156 179 220
0.480291 -0.419194 -0.594 111 135 171
0.482233 -0.4199 -0.595 92 118 155
0.493567 -0.4199 -0.595 206 209 224
0.4494 -0.3458 -0.49 164 136 124
0.445735 -0.340154 -0.482 167 135 122
0.438763 -0.319689 -0.453 177 139 120
0.451364 -0.307691 -0.436 189 143 119
0.459566 -0.304869 -0.432 180 135 106
0.468877 -0.305574 -0.433 172 127 94
0.491519 -0.312631 -0.443 144 108 82
0.0713057 -0.375746 -0.531 209 164 141
0.0863143 -0.375038 -0.53 197 149 126
0.0949248 -0.377161 -0.533 186 136 113
0.11139 -0.384945 -0.544 166 110 95
0.124662 -0.394144 -0.557 145 102 95
0.161851 -0.41325 -0.584 122 125 158
0.451974 -0.418203 -0.591 221 229 240
0.476897 -0.420326 -0.594 165 182 210
0.504051 -0.420326 -0.594 150 178 217
0.506314 -0.420326 -0.594 134 157 198
0.506591 -0.419618 -0.593 139 162 203
0.521275 -0.419618 -0.593 194 192 203
0.466443 -0.364424 -0.515 158 131 122
0.438609 -0.326212 -0.461 175 139 123
0.44478 -0.31206 -0.441 188 146 121
0.449703 -0.308522 -0.436 190 144 120
0.466971 -0.305691 -0.432 173 128 95
0.467794 -0.305691 -0.432 172 127 94
0.485409 -0.310645 -0.439 147 112 90
0.500742 -0.317721 -0.449 143 110 93
0.0663733 -0.377467 -0.532 206 161 138
0.0682714 -0.376757 -0.531 207 162 139
0.0702943 -0.376757 -0.531 205 163 141
0.0790981 -0.375338 -0.529 200 154 130
0.0917067 -0.377467 -0.532 190 140 117
0.107884 -0.384562 -0.542 172 115 98
0.110151 -0.385271 -0.543 167 111 96
0.117857 -0.390238 -0.55 155 107 95
0.119337 -0.391657 -0.552 155 107 95
0.124662 -0.395205 -0.557 143 103 95
0.46098 -0.419329 -0.591 126 144 168
0.462106 -0.419329 -0.591 99 118 150
0.463231 -0.419329 -0.591 125 144 176
0.467398 -0.420038 -0.592 175 187 209
0.473036 -0.420038 -0.592 155 170 203
0.480612 -0.420748 -0.593 153 179 206
0.496131 -0.421457 -0.594 201 207 223
0.497263 -0.421457 -0.594 192 205 224
0.517887 -0.420748 -0.593 195 193 204
0.519269 -0.420038 -0.592 192 199 207
0.448495 -0.346248 -0.488 165 136 128
0.44478 -0.3129 -0.441 188 146 121
0.448042 -0.309352 -0.436 188 142 116
0.450329 -0.308643 -0.435 186 141 112
0.452382 -0.307224 -0.433 181 136 107
0.454629 -0.306514 -0.432 182 136 110
0.459323 -0.305805 -0.431 178 132 106
0.471351 -0.307224 -0.433 164 123 95
0.0580371 -0.390574 -0.549 201 163 144
0.0760752 -0.376346 -0.529 204 158 135
0.0790981 -0.376346 -0.529 200 154 131
0.087159 -0.376346 -0.529 191 143 120
0.0949248 -0.379191 -0.533 180 129 108
0.0971371 -0.379903 -0.534 176 124 103
0.104207 -0.38346 -0.539 175 119 102
0.129222 -0.400534 -0.563 134 97 91
0.164906 -0.414763 -0.583 136 148 190
0.1749 -0.414763 -0.583 107 139 180
0.337106 -0.417609 -0.587 223 232 249
0.46098 -0.420454 -0.591 120 136 159
0.466609 -0.420454 -0.591 178 189 207
0.484001 -0.421877 -0.593 105 124 156
0.490778 -0.421877 -0.593 206 216 228
0.499814 -0.421877 -0.593 122 146 172
0.512503 -0.421166 -0.592 151 175 213
0.488832 -0.385594 -0.542 157 132 127
0.447583 -0.345754 -0.486 167 138 130
0.446663 -0.344331 -0.484 165 135 124
0.44086 -0.33366 -0.469 171 138 123
0.438454 -0.326546 -0.459 173 137 121
0.44104 -0.315874 -0.444 182 142 117
0.45216 -0.307337 -0.432 180 133 107
0.453576 -0.306626 -0.431 182 135 109
0.462352 -0.305914 -0.43 173 128 97
0.475747 -0.30876 -0.434 155 118 92
0.0606333 -0.381633 -0.535 200 155 132
0.0642257 -0.37878 -0.531 205 160 139
0.0720448 -0.377353 -0.529 204 159 140
0.0750676 -0.377353 -0.529 200 156 129
0.0801057 -0.377353 -0.529 197 151 125
0.0811133 -0.377353 -0.529 198 152 128
0.0949248 -0.380207 -0.533 174 121 103
0.106654 -0.385913 -0.541 171 115 100
0.117857 -0.392333 -0.55 154 106 96
0.126174 -0.398753 -0.559 137 98 91
0.149359 -0.415873 -0.583 99 101 114
0.15269 -0.415873 -0.583 142 139 150
0.439226 -0.420153 -0.589 183 206 250
0.455705 -0.420867 -0.59 208 214 236
0.461324 -0.420867 -0.59 201 211 236
0.46886 -0.42158 -0.591 199 216 232
0.474489 -0.42158 -0.591 195 208 227
0.496426 -0.423007 -0.593 195 208 225
0.50461 -0.422293 -0.592 157 181 215
0.439165 -0.320287 -0.449 180 142 123
0.438911 -0.31886 -0.447 180 142 123
0.440478 -0.318147 -0.446 181 140 118
0.440194 -0.31672 -0.444 181 141 116
0.442421 -0.315293 -0.442 185 143 119
0.445271 -0.313153 -0.439 184 142 117
0.446381 -0.311013 -0.436 182 138 111
0.45012 -0.309587 -0.434 185 139 113
0.450732 -0.308873 -0.433 186 141 112
0.46481 -0.306733 -0.43 176 132 103
0.465629 -0.306733 -0.43 175 131 102
0.483197 -0.311727 -0.437 148 113 91
0.485137 -0.31244 -0.438 148 111 85
0.0670067 -0.378361 -0.529 208 162 139
0.0730524 -0.378361 -0.529 200 154 131
0.07392 -0.377646 -0.528 203 157 134
0.0799543 -0.377646 -0.528 196 150 126
0.0839771 -0.377646 -0.528 191 143 120
0.0849829 -0.377646 -0.528 191 143 120
0.0859886 -0.377646 -0.528 191 143 120
0.0971371 -0.381937 -0.534 175 122 104
0.0983381 -0.382652 -0.535 175 122 104
0.108916 -0.387659 -0.542 169 113 98
0.119337 -0.394811 -0.552 154 105 91
0.1264 -0.400533 -0.56 131 100 97
0.155754 -0.416269 -0.582 157 155 166
0.440348 -0.421275 -0.589 157 184 227
0.452333 -0.42199 -0.59 220 221 239
0.457952 -0.42199 -0.59 109 123 152
0.480117 -0.422706 -0.591 195 204 219
0.501506 -0.422706 -0.591 127 150 191
0.50912 -0.423421 -0.592 103 131 181
0.441843 -0.336877 -0.471 165 132 117
0.4418 -0.336162 -0.47 167 134 119
0.439165 -0.321142 -0.449 178 140 121
0.44226 -0.31542 -0.441 181 139 115
0.451934 -0.308268 -0.431 188 141 115
0.453576 -0.308268 -0.431 182 136 110
0.482091 -0.311844 -0.436 149 115 90
0.0585952 -0.383671 -0.535 201 154 134
0.0602933 -0.38152 -0.532 202 156 130
0.0759314 -0.378651 -0.528 205 159 136
0.119337 -0.395863 -0.552 155 106 92
0.147994 -0.417377 -0.582 115 110 117
0.158807 -0.41666 -0.581 173 170 189
0.43736 -0.42168 -0.588 158 182 226
0.487695 -0.424549 -0.592 99 110 142
0.494751 -0.423831 -0.591 201 213 229
0.497003 -0.423831 -0.591 160 178 202
0.50038 -0.423831 -0.591 111 135 171
0.501781 -0.423114 -0.59 127 150 194
0.504883 -0.423831 -0.591 141 163 210
0.515014 -0.423831 -0.591 192 196 207
0.488057 -0.387257 -0.54 158 129 121
0.4431 -0.31626 -0.441 184 142 118
0.459387 -0.306937 -0.428 179 134 105
0.46618 -0.307654 -0.429 164 120 93
0.472458 -0.309089 -0.431 153 116 89
0.484862 -0.313391 -0.437 151 110 82
0.0619686 -0.380376 -0.529 206 160 134
0.07378 -0.378938 -0.527 203 157 133
0.0828143 -0.378938 -0.527 195 148 122
0.0838181 -0.378938 -0.527 192 145 119
0.149953 -0.417767 -0.581 143 140 151
0.15438 -0.417767 -0.581 162 162 164
0.1577 -0.417767 -0.581 175 170 176
0.166553 -0.417767 -0.581 102 113 145
0.44072 -0.4228 -0.588 136 167 211
0.44744 -0.4228 -0.588 213 228 247
0.462 -0.4228 -0.588 216 220 232
0.46503 -0.423519 -0.589 207 214 230
0.490543 -0.424238 -0.59 188 204 230
0.502905 -0.424238 -0.59 116 143 190
0.513019 -0.424238 -0.59 184 195 213
0.51639 -0.424238 -0.59 176 188 214
0.442818 -0.34011 -0.473 167 135 120
0.44104 -0.319257 -0.444 183 142 120
0.442933 -0.316381 -0.44 183 142 120
0.450886 -0.30919 -0.43 188 142 116
0.451705 -0.30919 -0.43 183 139 112
0.457756 -0.307752 -0.428 174 128 102
0.462648 -0.307752 -0.428 171 127 100
0.476023 -0.310629 -0.432 147 111 85
0.0796514 -0.379221 -0.526 194 146 123
0.088 -0.380663 -0.528 186 139 111
0.0901819 -0.381384 -0.529 179 132 104
0.0913619 -0.382105 -0.53 179 126 108
0.1221 -0.400129 -0.555 145 105 93
0.156324 -0.418152 -0.58 152 147 151
0.437734 -0.423199 -0.587 161 192 236
0.45528 -0.42392 -0.588 125 148 180
0.46088 -0.42392 -0.588 212 224 236
0.487171 -0.425362 -0.59 102 116 155
0.49841 -0.425362 -0.59 120 143 175
0.445727 -0.346778 -0.481 162 133 119
0.440643 -0.335243 -0.465 169 136 119
0.4381 -0.328033 -0.455 173 136 120
0.439403 -0.32515 -0.451 179 141 120
0.441579 -0.318661 -0.442 180 139 117
0.444908 -0.315056 -0.437 187 142 119
0.448258 -0.312172 -0.433 181 135 111
0.450886 -0.31001 -0.43 186 142 115
0.479599 -0.312172 -0.433 142 105 79
0.4935 -0.31794 -0.441 142 110 85
0.0528086 -0.396849 -0.549 202 155 135
0.05356 -0.39468 -0.546 203 156 136
0.0617343 -0.380946 -0.527 205 159 133
0.0666267 -0.380223 -0.526 204 160 135
0.0848219 -0.380946 -0.527 190 142 119
0.120607 -0.39974 -0.553 148 108 98
0.1221 -0.401186 -0.555 145 105 95
0.15301 -0.419257 -0.58 164 163 168
0.442207 -0.424317 -0.587 139 170 216
0.443325 -0.424317 -0.587 177 199 236
0.445561 -0.424317 -0.587 199 213 239
0.460096 -0.424317 -0.587 213 227 238
0.461214 -0.424317 -0.587 216 223 229
0.497565 -0.425763 -0.589 146 166 199
0.516637 -0.425763 -0.589 94 109 142
0.47287 -0.376609 -0.521 155 130 123
0.445727 -0.347694 -0.481 163 131 118
0.438194 -0.329623 -0.456 170 133 117
0.439286 -0.325286 -0.45 177 139 118
0.442589 -0.316611 -0.438 185 143 119
0.44389 -0.315166 -0.436 187 142 119
0.44472 -0.315166 -0.436 190 145 122
0.447014 -0.314443 -0.435 186 142 117
0.44764 -0.31372 -0.434 187 143 118
0.45368 -0.309383 -0.428 181 137 110
0.462109 -0.307937 -0.426 165 124 96
0.463731 -0.307937 -0.426 165 125 99
0.479314 -0.312274 -0.432 142 108 83
0.0580476 -0.384124 -0.53 199 158 128
0.0617343 -0.38195 -0.527 205 160 131
0.0637419 -0.38195 -0.527 205 160 131
0.0755 -0.3805 -0.525 206 160 136
0.0815 -0.3805 -0.525 194 146 123
0.0868295 -0.38195 -0.527 186 136 113
0.108715 -0.392096 -0.541 170 118 104
