ply
format ascii 1.0
comment Created by Open3D
element vertex 1318
property double x
property double y
property double z
property uchar red
property uchar green
property uchar blue
end_header
0.362874 -0.213484 -0.506 164 119 126
0.358331 -0.20589 -0.488 140 92 88
0.36478 -0.20378 -0.483 127 80 74
0.36938 -0.20378 -0.483 127 80 74
0.380286 -0.204202 -0.484 120 75 69
0.384895 -0.204202 -0.484 123 80 73
0.393891 -0.205046 -0.486 126 83 76
0.394817 -0.205046 -0.486 126 83 76
0.407296 -0.207155 -0.491 125 85 77
0.409063 -0.207577 -0.492 126 86 78
0.428951 -0.211374 -0.501 129 90 85
0.456333 -0.218547 -0.518 131 97 96
-0.120217 -0.266152 -0.628 109 108 116
-0.0966667 -0.24581 -0.58 94 95 100
-0.0958914 -0.246657 -0.582 82 83 88
-0.0869876 -0.259795 -0.613 61 60 68
-0.0789133 -0.264033 -0.623 64 63 71
-0.0550333 -0.269119 -0.635 76 75 83
-0.0538238 -0.269119 -0.635 74 73 81
-0.0409019 -0.271662 -0.641 73 72 80
0.138367 -0.251319 -0.593 206 152 150
0.149953 -0.246233 -0.581 203 150 146
0.166794 -0.244962 -0.578 170 108 93
0.194889 -0.247081 -0.583 167 104 97
0.37214 -0.2047 -0.483 128 81 75
0.393891 -0.205971 -0.486 126 83 76
0.40109 -0.206819 -0.488 120 80 72
0.4046 -0.207667 -0.49 123 83 75
0.41449 -0.209362 -0.494 125 86 79
0.443557 -0.215719 -0.509 129 90 83
-0.1105 -0.2533 -0.595 103 103 111
-0.0996362 -0.246063 -0.578 98 98 106
-0.0951086 -0.248617 -0.584 71 71 79
-0.0903124 -0.257131 -0.604 70 70 78
-0.0880114 -0.260537 -0.612 64 63 71
-0.08624 -0.26224 -0.616 62 61 69
-0.0853429 -0.263091 -0.618 62 61 69
-0.0833914 -0.264369 -0.621 59 58 64
-0.0745238 -0.266497 -0.626 65 64 72
-0.0734486 -0.266923 -0.627 68 67 75
-0.0666 -0.2682 -0.63 75 74 82
-0.0608886 -0.269477 -0.633 76 75 83
-0.0597771 -0.269903 -0.634 76 75 83
-0.0550333 -0.270329 -0.635 76 75 83
-0.0467867 -0.271606 -0.638 73 72 80
-0.0397429 -0.273309 -0.642 73 72 80
-0.0314743 -0.275863 -0.648 73 72 80
0.13222 -0.255854 -0.601 195 144 143
0.139677 -0.250746 -0.589 201 148 144
0.154976 -0.244786 -0.575 192 135 126
0.157167 -0.244786 -0.575 192 134 123
0.164308 -0.245637 -0.577 177 115 102
0.175298 -0.245637 -0.577 200 141 133
0.176091 -0.245211 -0.576 206 147 139
0.185966 -0.245211 -0.576 190 132 121
0.187388 -0.245637 -0.577 186 130 115
0.212614 -0.257557 -0.605 123 83 92
0.317933 -0.213709 -0.502 186 143 153
0.357729 -0.209026 -0.491 152 99 91
0.35964 -0.206897 -0.486 136 87 82
0.36662 -0.20562 -0.483 122 75 69
0.378442 -0.206046 -0.484 120 75 69
0.384767 -0.206471 -0.485 121 78 71
0.428951 -0.213283 -0.501 130 89 83
0.45271 -0.219243 -0.515 130 92 89
-0.101838 -0.247164 -0.578 101 101 109
-0.09116 -0.257427 -0.602 75 75 83
-0.0897524 -0.259992 -0.608 71 71 79
-0.0872714 -0.262986 -0.615 64 63 71
-0.0767857 -0.267262 -0.625 60 59 67
-0.0745238 -0.26769 -0.626 64 63 71
-0.0456429 -0.273249 -0.639 73 72 80
0.130795 -0.25871 -0.605 200 142 141
0.137006 -0.25315 -0.592 203 150 146
0.142696 -0.249302 -0.583 207 154 148
0.1558 -0.245453 -0.574 189 132 123
0.177976 -0.245881 -0.575 202 143 135
0.17876 -0.245453 -0.574 203 144 136
0.188487 -0.246736 -0.577 176 118 104
0.190243 -0.247591 -0.579 172 112 102
0.196671 -0.250157 -0.585 165 102 97
0.210763 -0.257854 -0.603 123 81 83
0.239571 -0.277952 -0.65 223 225 246
0.314257 -0.218086 -0.51 185 129 138
0.3131 -0.215948 -0.505 183 128 134
0.363087 -0.217658 -0.509 168 122 133
0.36662 -0.20654 -0.483 122 75 69
0.383843 -0.207395 -0.485 119 76 69
0.407296 -0.209961 -0.491 123 83 75
0.46284 -0.223217 -0.522 132 106 109
-0.100563 -0.247835 -0.577 96 97 102
-0.0994638 -0.247835 -0.577 93 94 99
-0.0943181 -0.251701 -0.586 80 81 86
-0.0899 -0.26158 -0.609 74 74 82
-0.08652 -0.265446 -0.618 64 62 73
-0.0845743 -0.266734 -0.621 58 57 63
-0.0815476 -0.268452 -0.625 59 58 64
-0.0503533 -0.273607 -0.637 74 72 83
-0.0492171 -0.274036 -0.638 75 73 84
-0.04686 -0.274466 -0.639 71 70 78
-0.0421229 -0.275325 -0.641 73 72 78
-0.0409657 -0.275754 -0.642 74 73 79
0.13339 -0.255996 -0.596 201 143 139
0.1343 -0.255567 -0.595 200 142 138
0.145876 -0.248265 -0.578 201 148 142
0.147822 -0.247835 -0.577 198 145 137
0.1725 -0.246976 -0.575 202 142 134
0.177667 -0.246547 -0.574 205 146 138
0.183452 -0.246976 -0.575 191 132 124
0.184548 -0.246976 -0.575 181 122 114
0.196671 -0.251271 -0.585 159 98 93
0.2006 -0.253419 -0.59 154 99 94
0.206737 -0.256855 -0.598 138 93 88
0.358457 -0.211326 -0.492 152 97 90
0.362595 -0.208319 -0.485 128 81 75
0.365535 -0.20789 -0.484 124 77 71
0.36846 -0.20746 -0.483 123 78 72
0.37214 -0.20746 -0.483 126 81 75
0.389263 -0.208749 -0.486 124 81 74
0.406361 -0.210896 -0.491 124 84 76
0.41 -0.211326 -0.492 125 85 77
0.422589 -0.213903 -0.498 127 87 79
0.461067 -0.223352 -0.52 133 104 106
-0.125148 -0.276546 -0.641 104 103 111
-0.10422 -0.249797 -0.579 97 96 102
-0.100563 -0.248934 -0.577 97 96 101
-0.0968333 -0.25066 -0.581 75 74 80
-0.0914629 -0.260583 -0.604 78 79 84
-0.0891771 -0.264034 -0.612 73 72 77
-0.0758371 -0.270506 -0.627 63 62 70
-0.0679076 -0.272231 -0.631 71 70 78
-0.0620943 -0.273094 -0.633 74 72 83
-0.0515667 -0.27482 -0.637 74 73 81
0.132033 -0.2567 -0.595 200 145 138
0.142207 -0.25066 -0.581 198 148 141
0.170013 -0.24764 -0.574 201 141 133
0.192007 -0.25066 -0.581 164 107 100
0.317826 -0.223911 -0.519 185 132 138
0.31549 -0.220891 -0.512 185 130 136
0.358805 -0.215283 -0.499 163 118 125
0.374754 -0.208811 -0.484 123 78 72
0.377376 -0.209243 -0.485 120 75 69
0.3783 -0.209243 -0.485 120 75 69
0.383709 -0.209674 -0.486 118 75 68
0.384634 -0.209674 -0.486 120 77 70
0.393891 -0.209674 -0.486 125 82 75
0.396557 -0.210106 -0.487 124 81 74
0.441814 -0.218734 -0.507 132 89 82
0.451929 -0.221323 -0.513 131 93 84
0.463834 -0.225206 -0.522 143 111 112
0.46839 -0.226931 -0.526 128 121 137
-0.0921533 -0.260433 -0.601 83 84 89
-0.0876971 -0.2678 -0.618 69 68 74
-0.0679076 -0.273433 -0.631 71 70 78
-0.0645057 -0.2743 -0.633 72 70 81
-0.0469333 -0.277333 -0.64 73 72 80
-0.0457143 -0.277333 -0.64 74 73 81
-0.0421886 -0.2782 -0.642 73 72 80
-0.0338905 -0.280367 -0.647 71 70 78
0.139126 -0.2522 -0.582 201 150 146
0.143426 -0.250033 -0.577 199 149 142
0.144274 -0.2496 -0.576 197 145 134
0.145119 -0.249167 -0.575 198 146 135
0.154168 -0.247867 -0.572 192 134 123
0.160705 -0.247867 -0.572 177 118 104
0.167534 -0.2483 -0.573 200 140 132
0.190571 -0.251333 -0.58 162 107 102
0.31496 -0.220133 -0.508 181 126 131
0.314684 -0.219267 -0.506 179 123 126
0.31665 -0.217967 -0.503 177 126 131
0.370145 -0.209733 -0.484 125 80 74
0.392966 -0.2106 -0.486 125 82 75
0.397485 -0.211033 -0.487 122 82 74
0.4046 -0.212333 -0.49 123 83 75
0.409063 -0.2132 -0.492 125 82 73
0.423537 -0.2158 -0.498 127 87 79
0.427143 -0.216667 -0.5 130 90 82
0.43632 -0.2184 -0.504 131 93 84
0.462946 -0.225767 -0.521 142 110 111
-0.121607 -0.273765 -0.629 102 101 109
-0.105505 -0.252438 -0.58 97 96 104
-0.0952714 -0.254614 -0.585 79 79 87
-0.08694 -0.270283 -0.621 68 67 73
-0.0645057 -0.275506 -0.633 72 70 81
-0.0586619 -0.276376 -0.635 72 70 81
-0.0505114 -0.278117 -0.639 74 73 81
0.131654 -0.28247 -0.649 193 143 136
0.140371 -0.251568 -0.578 199 148 144
0.145706 -0.249391 -0.573 196 142 132
0.166152 -0.248956 -0.572 202 143 137
0.172086 -0.248086 -0.57 187 127 117
0.188813 -0.251568 -0.578 164 109 102
0.31558 -0.221536 -0.509 181 126 132
0.358571 -0.217619 -0.5 164 117 123
0.362235 -0.211961 -0.487 129 80 75
0.369062 -0.21109 -0.485 123 78 72
0.386486 -0.211526 -0.486 122 79 72
0.39923 -0.212396 -0.488 120 80 72
0.409063 -0.214137 -0.492 126 83 76
0.446466 -0.221536 -0.509 130 93 85
-0.129614 -0.281957 -0.645 99 100 105
-0.107529 -0.255729 -0.585 95 95 103
-0.100389 -0.251794 -0.576 93 93 101
-0.0878391 -0.270591 -0.619 72 72 80
-0.0849829 -0.272777 -0.624 63 62 70
-0.061081 -0.277586 -0.635 73 72 80
-0.0529457 -0.279334 -0.639 74 72 83
-0.0398667 -0.28152 -0.644 73 72 80
-0.0339429 -0.283269 -0.648 71 70 78
0.131249 -0.282831 -0.647 195 145 138
0.129066 -0.260974 -0.597 200 145 140
0.139886 -0.251794 -0.576 201 144 137
0.143523 -0.250483 -0.573 199 142 133
0.147372 -0.249609 -0.571 192 135 126
0.149548 -0.249609 -0.571 195 138 129
0.162884 -0.250046 -0.572 202 143 135
0.176429 -0.249171 -0.57 196 137 131
0.180316 -0.250046 -0.572 190 131 125
0.185966 -0.251794 -0.576 172 115 108
0.19768 -0.25704 -0.588 148 97 93
0.208811 -0.264034 -0.604 114 79 83
0.2117 -0.26622 -0.609 104 81 89
0.316611 -0.221194 -0.506 175 115 117
0.319846 -0.219446 -0.502 180 137 144
0.359599 -0.214637 -0.491 142 89 85
0.381715 -0.212889 -0.487 116 73 64
0.385426 -0.212889 -0.487 120 77 70
0.4046 -0.2142 -0.49 125 82 75
0.43728 -0.22032 -0.504 131 93 84
0.448314 -0.222943 -0.51 128 93 87
-0.127789 -0.281869 -0.642 95 95 103
-0.118111 -0.270892 -0.617 98 98 106
-0.0909105 -0.266941 -0.608 81 82 87
-0.0738 -0.2766 -0.63 55 54 62
-0.0692191 -0.277478 -0.632 65 64 72
-0.0587543 -0.279234 -0.636 75 73 84
-0.0445648 -0.28143 -0.641 73 72 80
-0.0351229 -0.284064 -0.647 71 70 78
-0.0339429 -0.284503 -0.648 71 70 78
0.150371 -0.250257 -0.57 196 139 128
0.173951 -0.249818 -0.569 195 136 130
0.181406 -0.251135 -0.572 179 122 113
0.18914 -0.254209 -0.579 166 111 104
0.192668 -0.255965 -0.583 159 104 99
0.31744 -0.224792 -0.512 175 123 127
0.320802 -0.220402 -0.502 186 139 145
0.358093 -0.220402 -0.502 168 119 125
0.358334 -0.219963 -0.501 168 119 125
0.360534 -0.215572 -0.491 141 88 84
0.380788 -0.213816 -0.487 117 74 65
0.401911 -0.214694 -0.489 123 80 73
0.419002 -0.217768 -0.496 126 86 78
0.43728 -0.22128 -0.504 131 93 84
0.44278 -0.222597 -0.507 132 92 80
0.456633 -0.22611 -0.515 135 97 86
-0.12339 -0.278682 -0.632 98 98 106
-0.0909105 -0.268099 -0.608 84 85 90
-0.08722 -0.274713 -0.623 70 71 76
-0.0852552 -0.276036 -0.626 64 63 69
-0.0715133 -0.278241 -0.631 58 57 65
-0.0658152 -0.279564 -0.634 67 65 76
0.127853 -0.265453 -0.602 199 146 138
0.136203 -0.255311 -0.579 203 146 137
0.144943 -0.251343 -0.57 194 135 127
0.175035 -0.250902 -0.569 194 135 129
0.184548 -0.253548 -0.575 166 111 104
0.189467 -0.255752 -0.58 166 111 106
0.19656 -0.25928 -0.588 142 91 90
0.205485 -0.265012 -0.601 116 81 85
0.208005 -0.266776 -0.605 95 72 80
0.356568 -0.224004 -0.508 163 131 146
0.358086 -0.219594 -0.498 166 111 117
0.359482 -0.218712 -0.496 154 98 97
0.361667 -0.216067 -0.49 135 86 81
0.401911 -0.215626 -0.489 121 81 73
0.419002 -0.218712 -0.496 126 86 78
0.427239 -0.220035 -0.499 129 89 81
0.429048 -0.220476 -0.5 128 90 81
0.43 -0.220476 -0.5 128 90 81
-0.106793 -0.2573 -0.581 96 99 106
-0.09464 -0.2604 -0.588 98 101 108
-0.0913114 -0.267043 -0.603 90 90 98
-0.0863095 -0.276786 -0.625 69 70 75
-0.0681229 -0.280329 -0.633 62 61 69
-0.0541629 -0.282986 -0.639 73 72 80
-0.0530286 -0.283429 -0.64 73 72 80
0.129614 -0.280329 -0.633 194 144 135
0.137452 -0.254643 -0.575 198 144 134
0.138066 -0.253757 -0.573 198 144 134
0.140004 -0.253314 -0.572 190 135 128
0.178913 -0.252871 -0.571 177 120 111
0.191229 -0.257743 -0.582 155 102 98
0.214481 -0.273243 -0.617 245 237 248
0.320134 -0.224529 -0.507 167 110 116
0.324934 -0.221871 -0.501 186 159 168
0.326843 -0.221871 -0.501 183 165 177
0.356128 -0.224086 -0.506 165 129 141
0.366873 -0.215671 -0.487 123 76 70
0.371511 -0.215671 -0.487 123 78 72
0.373367 -0.215671 -0.487 122 77 71
0.375222 -0.215671 -0.487 121 78 69
0.388076 -0.216114 -0.488 122 78 69
0.392724 -0.216114 -0.488 122 79 72
0.403667 -0.217 -0.49 121 81 73
0.419002 -0.219657 -0.496 126 86 78
0.431814 -0.221871 -0.501 129 91 82
0.43911 -0.223643 -0.505 129 91 82
0.460376 -0.228957 -0.517 132 107 110
-0.108643 -0.260186 -0.585 96 99 108
-0.0888743 -0.274863 -0.618 80 81 86
-0.0786 -0.2802 -0.63 51 50 56
-0.0647095 -0.282424 -0.635 67 65 76
-0.0541629 -0.284203 -0.639 73 72 80
-0.04708 -0.285537 -0.642 74 72 83
-0.04232 -0.286427 -0.644 73 71 82
0.126917 -0.268191 -0.603 196 146 137
0.15174 -0.25218 -0.567 197 138 130
0.15714 -0.25218 -0.567 199 139 131
0.1647 -0.25218 -0.567 189 128 123
0.1701 -0.25218 -0.567 191 132 126
0.172564 -0.252625 -0.568 192 133 127
0.181723 -0.254849 -0.573 164 109 102
0.186289 -0.256628 -0.577 162 105 96
0.193329 -0.260186 -0.585 148 97 93
0.208692 -0.26997 -0.607 123 106 116
0.323264 -0.23261 -0.523 176 123 131
0.357854 -0.221936 -0.499 168 113 118
0.35926 -0.221047 -0.497 157 101 102
0.360855 -0.219712 -0.494 138 89 84
0.362206 -0.218823 -0.492 133 86 80
0.363533 -0.217933 -0.49 127 80 74
0.363723 -0.217489 -0.489 126 79 73
0.364654 -0.217489 -0.489 126 79 73
0.373367 -0.216599 -0.487 122 77 71
0.374294 -0.216599 -0.487 122 78 69
0.37615 -0.216599 -0.487 120 77 68
0.383429 -0.217044 -0.488 117 73 64
0.397371 -0.217044 -0.488 120 77 70
0.398301 -0.217044 -0.488 120 77 70
0.401911 -0.217489 -0.489 120 80 72
0.444711 -0.225494 -0.507 133 93 83
0.448405 -0.226384 -0.509 130 93 85
0.450257 -0.226829 -0.51 134 94 84
-0.108643 -0.2613 -0.585 97 100 107
-0.104959 -0.257727 -0.577 98 101 108
-0.0939971 -0.26398 -0.591 102 100 111
-0.0864476 -0.279613 -0.626 71 72 74
-0.058939 -0.284973 -0.638 72 70 81
0.12772 -0.27604 -0.618 198 146 135
0.12702 -0.27202 -0.609 200 148 137
0.130929 -0.2613 -0.585 199 145 135
0.136974 -0.25594 -0.573 194 136 125
0.137584 -0.255047 -0.571 194 136 125
0.157941 -0.252813 -0.566 201 141 133
0.162253 -0.252813 -0.566 186 126 118
0.17226 -0.25326 -0.567 190 131 123
0.174728 -0.253707 -0.568 188 129 121
0.181723 -0.25594 -0.573 161 106 99
0.184869 -0.25728 -0.576 164 107 98
0.19012 -0.25996 -0.582 152 99 93
0.209724 -0.272467 -0.61 196 182 195
0.354269 -0.224227 -0.502 173 122 131
0.362206 -0.21976 -0.492 130 85 79
0.3654 -0.218867 -0.49 125 78 72
0.365586 -0.21842 -0.489 123 78 72
0.366517 -0.21842 -0.489 120 75 69
0.374133 -0.217973 -0.488 121 78 71
0.382499 -0.217973 -0.488 117 72 66
0.387009 -0.21842 -0.489 118 75 66
0.398301 -0.217973 -0.488 120 77 70
0.401911 -0.21842 -0.489 120 80 72
0.4046 -0.218867 -0.49 123 83 75
0.409063 -0.21976 -0.492 125 82 75
0.417214 -0.2211 -0.495 127 87 79
0.419002 -0.221547 -0.496 128 88 80
0.425434 -0.22244 -0.498 126 88 79
0.443746 -0.22646 -0.507 132 92 82
0.461361 -0.230927 -0.517 135 111 111
-0.118513 -0.274974 -0.613 97 100 107
-0.112767 -0.2669 -0.595 97 100 109
-0.09464 -0.26376 -0.588 105 103 114
-0.0884067 -0.27946 -0.623 79 80 85
-0.0834 -0.2826 -0.63 61 62 67
-0.0798 -0.2826 -0.63 50 51 56
0.126603 -0.272283 -0.607 202 150 139
0.131366 -0.261069 -0.582 194 140 130
0.134167 -0.257929 -0.575 197 140 133
0.17226 -0.25434 -0.567 184 127 118
0.323 -0.228771 -0.51 164 109 112
0.323681 -0.226529 -0.505 165 116 119
0.32496 -0.22608 -0.504 189 148 152
0.32592 -0.22608 -0.504 190 149 153
0.35381 -0.224286 -0.5 172 119 129
0.361796 -0.221594 -0.494 135 87 77
0.36838 -0.219351 -0.489 121 76 70
0.38142 -0.219351 -0.489 116 72 63
0.385146 -0.219351 -0.489 117 75 63
0.435454 -0.225631 -0.503 132 90 78
-0.106426 -0.260826 -0.579 101 101 109
-0.0941562 -0.266682 -0.592 103 102 110
-0.0914629 -0.272088 -0.604 96 94 107
-0.0901952 -0.275241 -0.611 88 88 98
-0.0885486 -0.281097 -0.624 80 81 86
-0.08764 -0.281998 -0.626 76 77 79
-0.0669171 -0.285151 -0.633 58 56 67
-0.0531114 -0.288755 -0.641 71 69 80
0.128003 -0.28425 -0.631 200 150 141
0.126186 -0.272538 -0.605 197 147 138
0.134791 -0.258123 -0.573 194 134 124
0.151205 -0.254519 -0.565 207 147 136
0.152281 -0.254519 -0.565 204 144 133
0.153357 -0.254519 -0.565 201 141 130
0.156586 -0.254519 -0.565 206 143 134
0.163043 -0.254519 -0.565 181 118 109
0.164119 -0.254519 -0.565 182 119 110
0.25252 -0.289206 -0.642 156 108 122
0.25579 -0.288755 -0.641 154 93 100
0.324607 -0.230193 -0.511 163 108 111
0.324306 -0.229292 -0.509 165 105 113
0.349048 -0.225238 -0.5 171 130 138
0.358313 -0.223887 -0.497 159 101 100
0.3682 -0.220733 -0.49 121 76 70
0.3822 -0.220733 -0.49 116 72 63
0.383133 -0.220733 -0.49 116 72 63
0.405426 -0.221184 -0.491 122 79 72
0.436412 -0.22659 -0.503 129 91 82
0.449374 -0.229292 -0.509 133 91 79
0.458595 -0.231995 -0.515 123 97 96
-0.1242 -0.285 -0.63 96 99 108
-0.100563 -0.261024 -0.577 103 103 111
-0.0971667 -0.263738 -0.583 66 65 73
-0.0836648 -0.285905 -0.632 59 60 65
-0.082461 -0.285905 -0.632 52 53 58
-0.0787248 -0.285452 -0.631 47 48 53
-0.0554667 -0.289524 -0.64 71 69 80
-0.0531114 -0.289976 -0.641 71 69 80
0.127946 -0.293595 -0.649 192 142 133
0.137102 -0.257405 -0.569 188 128 118
0.150937 -0.255143 -0.564 204 144 134
0.157383 -0.255143 -0.564 200 138 127
0.168424 -0.255595 -0.565 188 128 117
0.18204 -0.259667 -0.574 162 107 100
0.260667 -0.291333 -0.644 136 95 109
0.333963 -0.242929 -0.537 166 115 124
0.355953 -0.225738 -0.499 170 115 120
0.360643 -0.223929 -0.495 139 90 85
0.36408 -0.222571 -0.492 126 79 73
0.3822 -0.221667 -0.49 116 73 64
0.398067 -0.221667 -0.49 121 78 69
0.400867 -0.221667 -0.49 122 79 70
0.420891 -0.224381 -0.496 128 88 78
0.447524 -0.22981 -0.508 131 93 84
0.455837 -0.232071 -0.513 131 93 84
-0.120852 -0.281203 -0.619 98 101 110
-0.0788495 -0.287109 -0.632 47 48 53
-0.075119 -0.286654 -0.631 46 47 52
-0.0601543 -0.289834 -0.638 69 67 78
0.133467 -0.259851 -0.572 195 135 125
0.140691 -0.257126 -0.566 193 133 122
0.155234 -0.256217 -0.564 205 145 135
0.16168 -0.256217 -0.564 176 116 105
0.164903 -0.256217 -0.564 183 121 108
0.167348 -0.256671 -0.565 188 128 117
0.171956 -0.257126 -0.566 175 115 105
0.192871 -0.266666 -0.587 130 86 83
0.197102 -0.269391 -0.593 118 86 101
0.336233 -0.24486 -0.539 169 116 126
0.328177 -0.229869 -0.506 180 140 141
0.332276 -0.228051 -0.502 184 151 162
0.356189 -0.226234 -0.498 165 110 115
0.369133 -0.2226 -0.49 119 74 68
0.378467 -0.2226 -0.49 116 73 64
0.385933 -0.2226 -0.49 115 75 63
0.392467 -0.2226 -0.49 121 78 69
0.4018 -0.2226 -0.49 122 79 70
0.409063 -0.223509 -0.492 120 82 71
0.425434 -0.226234 -0.498 128 88 78
0.43 -0.227143 -0.5 130 90 80
0.43824 -0.22896 -0.504 130 90 80
0.460469 -0.234411 -0.516 136 98 89
-0.117933 -0.278276 -0.61 100 103 112
-0.10386 -0.263222 -0.577 110 110 120
-0.0988762 -0.26459 -0.58 78 78 86
-0.0981086 -0.265503 -0.582 68 68 76
-0.0973333 -0.266415 -0.584 71 71 79
-0.0936571 -0.27189 -0.596 105 105 115
-0.08806 -0.286944 -0.629 80 81 83
-0.0669171 -0.288769 -0.633 52 51 59
-0.0646076 -0.289225 -0.634 60 59 67
0.127354 -0.294699 -0.646 194 142 129
0.126904 -0.267784 -0.587 200 146 136
0.130881 -0.26231 -0.575 193 136 127
0.134086 -0.260029 -0.57 197 137 127
0.142595 -0.257748 -0.565 193 133 122
0.144491 -0.257291 -0.564 197 137 126
0.147714 -0.257291 -0.564 200 140 130
0.153086 -0.257291 -0.564 203 143 133
0.155234 -0.257291 -0.564 203 143 133
0.168424 -0.257748 -0.565 187 127 116
0.187257 -0.26459 -0.58 151 96 89
0.189336 -0.265959 -0.583 140 89 88
0.195642 -0.270065 -0.592 123 79 78
0.24679 -0.29333 -0.643 179 124 127
0.330237 -0.238588 -0.523 161 108 114
0.33072 -0.22992 -0.504 182 140 142
0.33198 -0.229464 -0.503 181 139 141
0.361796 -0.225358 -0.494 133 85 81
0.365954 -0.224446 -0.492 125 78 70
0.374733 -0.223533 -0.49 119 76 67
0.38485 -0.22399 -0.491 115 75 63
0.40449 -0.22399 -0.491 122 80 68
0.413549 -0.225358 -0.494 123 83 73
0.422687 -0.226727 -0.497 126 86 76
0.429048 -0.228095 -0.5 128 88 78
-0.117933 -0.279438 -0.61 101 101 111
-0.0973333 -0.267528 -0.584 69 69 79
-0.0936571 -0.273025 -0.596 103 103 111
-0.0893057 -0.284477 -0.621 89 90 95
-0.0738 -0.2886 -0.63 48 49 54
-0.0715133 -0.289058 -0.631 47 48 53
-0.0703114 -0.289058 -0.631 47 48 53
0.126992 -0.292265 -0.638 196 141 134
0.126 -0.26936 -0.588 196 141 134
0.153887 -0.257908 -0.563 206 143 134
0.157104 -0.257908 -0.563 196 134 123
0.159249 -0.257908 -0.563 181 119 108
0.163829 -0.258366 -0.564 179 117 106
0.185831 -0.265237 -0.579 150 97 91
0.191427 -0.268444 -0.586 132 81 80
0.242673 -0.285393 -0.623 171 117 115
0.265989 -0.296846 -0.648 195 199 237
0.32945 -0.235461 -0.514 160 107 115
0.330757 -0.232254 -0.507 169 125 126
0.33264 -0.23088 -0.504 175 130 133
0.3336 -0.23088 -0.504 174 135 140
0.334189 -0.229964 -0.502 176 144 155
0.339795 -0.22859 -0.499 201 180 199
0.344806 -0.228131 -0.498 164 118 128
0.360643 -0.226757 -0.495 138 87 83
0.374733 -0.224467 -0.49 118 75 68
0.393268 -0.224925 -0.491 118 78 68
0.397009 -0.224925 -0.491 118 78 68
0.416371 -0.226299 -0.494 123 83 73
0.424486 -0.228131 -0.498 127 87 77
-0.0998086 -0.26634 -0.579 97 97 105
-0.0703114 -0.29026 -0.631 47 48 53
-0.0669171 -0.29118 -0.633 51 50 58
-0.0623886 -0.29256 -0.636 62 61 69
-0.058939 -0.29348 -0.638 66 65 73
-0.0578143 -0.29394 -0.639 67 66 74
0.123683 -0.27278 -0.593 193 136 129
0.125092 -0.27094 -0.589 195 140 133
0.147452 -0.25898 -0.563 199 139 129
0.163829 -0.25944 -0.564 176 114 103
0.2418 -0.2898 -0.63 175 119 118
0.240686 -0.28704 -0.624 183 127 126
0.331092 -0.23414 -0.509 170 125 130
0.34506 -0.22862 -0.497 171 124 132
0.350034 -0.22816 -0.496 165 118 128
0.354527 -0.22862 -0.497 163 111 115
0.36556 -0.22724 -0.494 123 78 73
0.37064 -0.22632 -0.492 118 75 68
0.374563 -0.22586 -0.491 118 75 68
0.387509 -0.22632 -0.492 115 75 65
0.393131 -0.22632 -0.492 117 79 68
0.394069 -0.22632 -0.492 117 79 68
0.44016 -0.23184 -0.504 130 90 80
0.442957 -0.2323 -0.505 131 91 81
0.456814 -0.23598 -0.513 134 94 84
0.461451 -0.23736 -0.516 128 98 98
-0.115431 -0.278529 -0.603 104 104 114
-0.10661 -0.267905 -0.58 111 111 119
-0.0990467 -0.268367 -0.581 78 78 88
-0.0904886 -0.286843 -0.621 94 98 99
-0.0888324 -0.289152 -0.626 89 93 94
-0.0825914 -0.292386 -0.633 53 56 61
-0.08018 -0.292386 -0.633 53 54 59
-0.0775229 -0.291462 -0.631 52 53 58
-0.0714 -0.291 -0.63 46 45 53
0.125599 -0.291462 -0.631 194 141 135
0.124149 -0.282686 -0.612 193 138 131
0.13385 -0.262824 -0.569 190 130 122
0.148261 -0.25959 -0.562 194 134 124
0.149331 -0.25959 -0.562 193 130 121
0.18441 -0.266981 -0.578 147 94 88
0.188226 -0.26929 -0.583 141 90 86
0.239161 -0.284995 -0.617 177 127 130
0.332714 -0.235571 -0.51 162 119 128
0.338571 -0.230952 -0.5 195 173 186
0.354758 -0.229105 -0.496 159 107 111
0.37064 -0.227257 -0.492 118 75 68
0.371577 -0.227257 -0.492 118 75 68
0.379074 -0.227257 -0.492 113 73 65
0.39688 -0.227257 -0.492 115 77 66
0.403321 -0.227719 -0.493 121 81 71
0.408955 -0.227719 -0.493 122 82 72
0.409894 -0.227719 -0.493 123 81 69
0.435545 -0.231876 -0.502 130 87 78
0.44112 -0.2328 -0.504 130 90 80
0.45406 -0.236033 -0.511 131 91 81
-0.120267 -0.285707 -0.616 97 97 105
-0.102939 -0.268082 -0.578 106 106 116
-0.0990467 -0.269473 -0.581 78 78 88
-0.0925229 -0.283388 -0.611 123 125 124
-0.075 -0.2922 -0.63 41 40 48
-0.0647095 -0.294519 -0.635 49 47 58
-0.0613695 -0.29591 -0.638 62 61 69
0.125148 -0.297302 -0.641 190 137 131
0.13554 -0.26298 -0.567 185 126 118
0.143163 -0.261125 -0.563 197 137 127
0.14719 -0.260661 -0.562 198 138 127
0.148261 -0.260661 -0.562 194 134 123
0.151472 -0.260661 -0.562 200 137 128
0.154684 -0.260661 -0.562 192 132 122
0.19031 -0.271792 -0.586 124 83 89
0.197625 -0.277358 -0.598 107 83 97
0.238389 -0.283851 -0.612 173 124 127
0.335586 -0.235151 -0.507 170 128 138
0.33648 -0.23376 -0.504 186 153 162
0.338571 -0.231905 -0.5 190 166 180
0.34196 -0.230977 -0.498 195 163 176
0.355703 -0.23005 -0.496 158 102 103
0.363471 -0.229586 -0.495 131 82 78
0.367442 -0.229122 -0.494 121 76 71
0.372332 -0.228658 -0.493 118 75 68
0.372514 -0.228194 -0.492 116 76 68
0.373451 -0.228194 -0.492 116 76 68
0.392991 -0.228658 -0.493 117 79 68
0.396748 -0.228658 -0.493 116 76 66
0.397687 -0.228658 -0.493 116 76 66
0.40426 -0.228658 -0.493 119 79 67
0.408016 -0.228658 -0.493 120 80 68
0.411667 -0.229122 -0.494 122 80 68
0.429048 -0.231905 -0.5 130 86 75
0.442957 -0.234224 -0.505 133 90 81
-0.09338 -0.28362 -0.609 158 160 157
-0.0658152 -0.295263 -0.634 42 41 49
-0.0636 -0.296194 -0.636 54 53 61
0.137214 -0.263129 -0.565 181 121 113
0.151472 -0.261731 -0.562 194 134 123
0.160321 -0.262197 -0.563 170 107 98
0.17954 -0.266854 -0.573 155 100 93
0.186473 -0.27058 -0.581 141 88 82
0.236835 -0.284551 -0.611 182 132 135
0.239554 -0.285017 -0.612 163 114 117
0.247809 -0.289209 -0.621 134 97 105
0.256619 -0.295263 -0.634 157 132 151
0.341251 -0.248691 -0.534 159 122 139
0.335313 -0.23798 -0.511 158 117 123
0.337148 -0.235186 -0.505 186 153 162
0.352869 -0.230994 -0.496 163 112 121
0.358537 -0.230994 -0.496 149 94 91
0.363471 -0.230529 -0.495 129 81 77
0.368186 -0.230529 -0.495 120 77 71
0.378137 -0.229131 -0.492 114 74 64
0.396611 -0.230063 -0.494 117 77 65
0.400375 -0.230063 -0.494 117 77 65
0.402257 -0.230063 -0.494 120 80 68
0.408844 -0.230063 -0.494 119 81 68
0.432769 -0.233323 -0.501 129 85 74
0.451313 -0.237049 -0.509 133 90 81
0.12412 -0.300211 -0.642 193 140 132
0.122967 -0.278233 -0.595 186 129 122
0.12539 -0.271219 -0.58 187 130 123
0.128243 -0.267946 -0.573 187 128 122
0.130599 -0.266075 -0.569 190 131 125
0.138046 -0.263737 -0.564 181 121 113
0.154684 -0.262802 -0.562 178 115 106
0.162466 -0.26327 -0.563 170 107 98
0.185048 -0.271219 -0.58 147 94 90
0.2349 -0.28478 -0.609 194 141 137
0.342647 -0.233342 -0.499 178 138 146
0.366095 -0.231939 -0.496 123 80 71
0.36704 -0.231939 -0.496 122 79 70
0.368186 -0.231471 -0.495 120 77 68
0.370265 -0.231004 -0.494 119 76 67
0.381723 -0.230536 -0.493 111 73 62
0.384379 -0.231004 -0.494 110 72 61
0.403071 -0.231471 -0.495 118 78 66
0.414386 -0.231471 -0.495 122 82 70
0.419002 -0.231939 -0.496 126 86 74
0.42174 -0.232407 -0.497 126 84 72
0.460642 -0.240356 -0.514 135 96 89
-0.117933 -0.28641 -0.61 86 89 98
-0.0949143 -0.283592 -0.604 201 201 201
-0.0714 -0.2958 -0.63 37 36 44
0.123057 -0.277019 -0.59 191 133 129
0.13338 -0.26622 -0.567 188 129 121
0.14209 -0.264342 -0.563 196 136 128
0.151472 -0.263872 -0.562 184 124 116
0.157895 -0.263872 -0.562 171 108 101
0.181577 -0.270446 -0.576 154 95 89
0.338594 -0.242274 -0.516 153 111 115
0.339577 -0.242274 -0.516 153 111 115
0.340203 -0.235231 -0.501 190 158 169
0.359482 -0.232884 -0.496 141 90 86
0.360427 -0.232884 -0.496 138 87 83
0.363261 -0.232884 -0.496 125 82 76
0.377792 -0.231945 -0.494 113 73 63
0.380615 -0.231945 -0.494 110 72 61
0.411557 -0.232414 -0.495 120 80 68
0.450427 -0.238518 -0.508 131 91 81
0.456007 -0.239927 -0.511 134 94 84
-0.10219 -0.273429 -0.58 86 86 96
-0.10126 -0.2739 -0.581 86 86 96
-0.098 -0.2772 -0.588 64 64 74
-0.0925552 -0.291814 -0.619 174 176 173
-0.091819 -0.293229 -0.622 169 171 168
-0.08834 -0.297471 -0.631 136 138 137
-0.0872762 -0.297943 -0.632 90 94 95
0.136138 -0.266357 -0.565 187 127 119
0.136971 -0.265886 -0.564 187 127 119
0.147997 -0.264471 -0.561 188 125 118
0.151472 -0.264943 -0.562 182 122 114
0.162466 -0.265414 -0.563 172 107 103
0.1695 -0.266357 -0.565 160 101 97
0.171956 -0.266829 -0.566 155 95 94
0.239069 -0.302657 -0.642 175 108 115
0.26681 -0.305014 -0.647 203 205 226
0.347907 -0.253629 -0.538 163 123 131
0.339743 -0.238543 -0.506 184 142 146
0.353813 -0.233829 -0.496 160 106 106
0.36704 -0.233829 -0.496 121 78 71
0.369129 -0.233357 -0.495 119 76 69
0.385157 -0.233357 -0.495 112 72 62
0.398357 -0.233357 -0.495 114 74 64
0.3993 -0.233357 -0.495 116 76 66
0.413443 -0.233357 -0.495 122 82 70
0.422687 -0.2343 -0.497 126 86 76
0.431905 -0.235714 -0.5 127 87 77
0.437457 -0.236657 -0.502 130 90 78
0.439287 -0.237129 -0.503 130 90 78
0.453252 -0.239957 -0.509 132 92 82
-0.120657 -0.29252 -0.618 81 84 93
-0.103295 -0.274533 -0.58 82 82 92
-0.0872762 -0.299147 -0.632 73 77 78
-0.0658152 -0.300093 -0.634 74 73 79
0.122031 -0.292993 -0.619 182 129 125
0.127151 -0.27122 -0.573 190 133 126
0.135062 -0.267433 -0.565 189 130 124
0.139946 -0.266487 -0.563 190 130 122
0.141018 -0.266487 -0.563 191 131 123
0.141838 -0.266013 -0.562 191 131 123
0.155754 -0.266013 -0.562 168 105 98
0.162466 -0.266487 -0.563 174 109 105
0.19404 -0.28116 -0.594 140 108 123
0.231394 -0.28968 -0.612 193 129 120
0.23066 -0.287313 -0.607 192 132 131
0.239147 -0.287787 -0.608 163 109 99
0.339514 -0.2414 -0.51 161 119 123
0.340788 -0.240927 -0.509 177 132 139
0.343333 -0.236667 -0.5 169 120 126
0.352869 -0.234773 -0.496 162 107 112
0.363993 -0.235247 -0.497 126 83 77
0.365887 -0.235247 -0.497 122 79 72
0.36893 -0.234773 -0.496 118 75 68
0.3795 -0.2343 -0.495 110 70 62
0.392549 -0.234773 -0.496 113 75 62
0.397272 -0.234773 -0.496 117 77 67
0.423633 -0.235247 -0.497 128 86 74
0.433723 -0.23714 -0.501 130 88 76
0.435631 -0.23714 -0.501 130 88 76
0.437457 -0.237613 -0.502 131 89 77
0.44954 -0.23998 -0.507 133 90 81
0.454222 -0.240927 -0.509 135 92 83
-0.12282 -0.296073 -0.623 77 79 91
-0.09328 -0.292747 -0.616 201 203 202
-0.082461 -0.30035 -0.632 39 40 45
-0.0799267 -0.299875 -0.631 36 37 42
-0.0702 -0.2994 -0.63 37 36 44
0.120822 -0.28847 -0.607 186 129 122
0.121978 -0.28847 -0.607 186 129 122
0.121714 -0.285143 -0.6 187 130 123
0.121629 -0.282291 -0.594 185 130 123
0.123606 -0.276589 -0.582 187 130 123
0.124958 -0.274688 -0.578 188 131 124
0.1265 -0.273262 -0.575 192 135 128
0.128657 -0.270886 -0.57 190 133 126
0.1323 -0.26946 -0.567 190 131 125
0.136138 -0.26851 -0.565 186 127 121
0.136971 -0.268034 -0.564 189 130 124
0.144791 -0.266609 -0.561 188 127 122
0.158966 -0.267084 -0.562 167 102 98
0.162177 -0.267084 -0.562 176 111 107
0.1695 -0.26851 -0.565 153 92 91
0.170878 -0.268985 -0.566 151 91 91
0.231053 -0.286093 -0.602 198 139 135
0.233347 -0.286093 -0.602 190 129 124
0.2407 -0.28942 -0.609 152 103 98
0.255 -0.2994 -0.63 198 171 178
0.341561 -0.239045 -0.503 179 136 143
0.342111 -0.238094 -0.501 173 126 134
0.346449 -0.237144 -0.499 167 117 120
0.346953 -0.236193 -0.497 168 113 118
0.365887 -0.236193 -0.497 122 79 72
0.401996 -0.235718 -0.496 116 76 64
0.402941 -0.235718 -0.496 117 77 65
0.422687 -0.236193 -0.497 126 84 72
0.427331 -0.236669 -0.498 129 87 75
0.43381 -0.237619 -0.5 130 88 76
0.457057 -0.242371 -0.51 138 98 86
-0.1278 -0.3006 -0.63 80 83 88
-0.124604 -0.298691 -0.626 71 74 81
-0.12282 -0.29726 -0.623 73 76 83
-0.116197 -0.289626 -0.607 77 80 89
-0.0702 -0.3006 -0.63 41 40 48
-0.0681229 -0.302031 -0.633 66 65 73
0.130599 -0.271494 -0.569 185 126 120
0.138873 -0.268631 -0.563 188 129 123
0.139946 -0.268631 -0.563 188 129 123
0.146929 -0.267677 -0.561 188 125 120
0.180167 -0.274357 -0.575 152 92 91
0.181892 -0.275311 -0.577 149 89 88
0.233855 -0.299646 -0.628 186 127 123
0.22914 -0.287717 -0.603 195 135 134
0.23836 -0.289149 -0.606 166 107 99
0.342489 -0.244774 -0.513 164 117 123
0.34138 -0.241911 -0.507 171 126 131
0.346953 -0.23714 -0.497 168 113 118
0.355473 -0.23714 -0.497 154 100 98
0.35642 -0.23714 -0.497 149 96 92
0.40186 -0.23714 -0.497 115 75 63
0.431905 -0.238571 -0.5 128 86 74
0.438413 -0.239526 -0.502 131 89 77
0.450506 -0.241911 -0.507 135 93 81
0.45333 -0.242389 -0.508 137 95 83
0.458029 -0.243343 -0.51 139 100 93
-0.0969 -0.285033 -0.595 132 132 142
-0.0758371 -0.300363 -0.627 26 27 32
-0.0723695 -0.300842 -0.628 35 34 40
-0.0712867 -0.301321 -0.629 37 36 42
0.121014 -0.283117 -0.591 188 133 130
0.140768 -0.269225 -0.562 189 130 124
0.185686 -0.278806 -0.582 142 87 92
0.2291 -0.29174 -0.609 193 130 125
0.247789 -0.296051 -0.618 134 94 95
0.25098 -0.298447 -0.623 127 101 104
0.344174 -0.247668 -0.517 159 110 116
0.3431 -0.244793 -0.511 167 120 130
0.363047 -0.238087 -0.497 126 82 73
0.378006 -0.238566 -0.498 113 73 65
0.379903 -0.238566 -0.498 111 71 63
0.393183 -0.238566 -0.498 113 75 66
0.39508 -0.238566 -0.498 113 75 66
0.404566 -0.238566 -0.498 117 77 65
0.408487 -0.238087 -0.497 118 78 66
0.42458 -0.238087 -0.497 128 86 72
0.43937 -0.240482 -0.502 131 89 75
0.449617 -0.242398 -0.506 135 93 81
-0.101957 -0.281357 -0.585 74 74 84
-0.0985 -0.284243 -0.591 68 68 78
-0.0977038 -0.285205 -0.593 71 69 80
-0.09078 -0.299633 -0.623 168 170 169
-0.0823305 -0.303481 -0.631 42 42 50
0.120983 -0.303962 -0.632 194 136 132
0.134823 -0.271257 -0.564 187 128 124
0.155754 -0.270295 -0.562 183 119 117
0.16461 -0.270776 -0.563 154 91 86
0.173951 -0.273662 -0.569 153 93 93
0.180167 -0.276548 -0.575 151 89 92
0.183943 -0.278952 -0.58 142 87 93
0.232289 -0.301557 -0.627 182 122 132
0.232184 -0.28809 -0.599 183 122 119
0.256607 -0.303481 -0.631 227 212 215
0.34416 -0.2424 -0.504 166 114 116
0.350497 -0.239514 -0.498 160 109 114
0.351446 -0.239514 -0.498 160 109 114
0.360207 -0.239033 -0.497 136 88 78
0.379715 -0.239995 -0.499 113 73 65
0.386543 -0.239514 -0.498 110 70 60
0.394923 -0.239995 -0.499 114 74 64
0.401576 -0.239995 -0.499 114 74 64
0.406463 -0.239514 -0.498 116 76 64
0.411444 -0.238552 -0.496 121 81 69
0.417112 -0.238552 -0.496 124 82 68
0.419002 -0.238552 -0.496 123 84 69
0.436586 -0.240957 -0.501 131 89 77
0.442161 -0.241919 -0.503 131 89 75
0.456161 -0.244805 -0.509 139 94 73
-0.0936867 -0.295026 -0.611 223 224 226
-0.08764 -0.302269 -0.626 52 56 57
-0.0867238 -0.303234 -0.628 49 53 56
-0.0796733 -0.303717 -0.629 37 37 45
-0.0703114 -0.304683 -0.631 80 81 86
0.121806 -0.281989 -0.584 187 132 129
0.138627 -0.271366 -0.562 196 135 132
0.168424 -0.272814 -0.565 150 90 90
0.176738 -0.275711 -0.571 156 94 97
0.192584 -0.286334 -0.593 126 107 127
0.228379 -0.288749 -0.598 199 133 134
0.233714 -0.289714 -0.6 182 118 118
0.355443 -0.259294 -0.537 165 123 127
0.36188 -0.240463 -0.498 131 84 74
0.371161 -0.240946 -0.499 115 74 68
0.400626 -0.240946 -0.499 114 76 63
0.404428 -0.240946 -0.499 115 77 64
0.407411 -0.240463 -0.498 117 77 65
0.438494 -0.241911 -0.501 133 89 76
-0.11351 -0.293281 -0.605 79 79 87
-0.108051 -0.287949 -0.594 76 76 84
-0.10136 -0.28504 -0.588 76 76 84
0.119969 -0.306854 -0.633 188 135 127
0.125187 -0.278253 -0.574 193 136 129
0.127571 -0.276314 -0.57 189 130 124
0.133749 -0.273406 -0.564 187 126 121
0.137556 -0.272436 -0.562 192 131 128
0.138627 -0.272436 -0.562 196 135 132
0.151203 -0.271951 -0.561 174 111 104
0.231463 -0.30443 -0.628 193 127 129
0.239119 -0.293281 -0.605 152 98 96
0.241066 -0.29425 -0.607 147 93 91
0.261884 -0.309278 -0.638 215 212 229
0.264336 -0.310732 -0.641 210 207 224
0.351905 -0.242381 -0.5 163 105 104
0.35381 -0.242381 -0.5 164 106 105
0.359755 -0.241896 -0.499 140 91 87
0.365458 -0.241896 -0.499 123 80 73
0.374963 -0.241896 -0.499 112 72 64
0.379715 -0.241896 -0.499 113 73 65
0.381616 -0.241896 -0.499 111 71 63
0.431041 -0.241896 -0.499 128 86 74
0.448729 -0.244805 -0.505 137 93 80
0.452509 -0.24529 -0.506 144 96 82
-0.10674 -0.288593 -0.593 81 81 89
-0.105254 -0.28762 -0.591 80 80 88
-0.104129 -0.28762 -0.591 80 80 88
-0.099 -0.28908 -0.594 74 74 82
-0.0767857 -0.304167 -0.625 41 40 46
0.131833 -0.274967 -0.565 187 126 123
0.138627 -0.273507 -0.562 196 135 132
0.139449 -0.27302 -0.561 190 129 126
0.141586 -0.27302 -0.561 190 129 124
0.14586 -0.27302 -0.561 176 115 110
0.150134 -0.27302 -0.561 172 112 104
0.168424 -0.274967 -0.565 145 89 90
0.190163 -0.286647 -0.589 138 93 96
0.215705 -0.310493 -0.638 140 145 183
0.236787 -0.292973 -0.602 161 100 97
0.252571 -0.30368 -0.624 170 143 148
0.263924 -0.311467 -0.64 209 206 223
0.349814 -0.253553 -0.521 162 111 118
0.347729 -0.245767 -0.505 163 107 110
0.370952 -0.243333 -0.5 115 75 67
0.381616 -0.242847 -0.499 112 72 64
0.39381 -0.243333 -0.5 111 73 64
0.402381 -0.243333 -0.5 113 75 62
0.412154 -0.24236 -0.498 119 79 67
0.450652 -0.245767 -0.505 138 94 81
-0.121633 -0.30438 -0.623 88 88 96
-0.110653 -0.29412 -0.602 83 83 91
-0.0959057 -0.294609 -0.603 120 120 132
-0.0909333 -0.30096 -0.616 72 71 76
-0.0841971 -0.306334 -0.627 47 46 54
-0.0767857 -0.305357 -0.625 43 42 48
0.119451 -0.304869 -0.624 192 137 134
0.120462 -0.301449 -0.617 192 134 130
0.1209 -0.285814 -0.585 187 132 127
0.135656 -0.275066 -0.563 189 128 123
0.140517 -0.274089 -0.561 191 130 125
0.151203 -0.274089 -0.561 178 118 110
0.195347 -0.292166 -0.598 142 123 142
0.236787 -0.29412 -0.602 149 90 86
0.263511 -0.312197 -0.639 214 213 231
0.349652 -0.246729 -0.505 162 107 110
0.35088 -0.24624 -0.504 153 101 103
0.355225 -0.245263 -0.502 156 100 103
0.365238 -0.244286 -0.5 122 82 74
0.378571 -0.244286 -0.5 114 74 66
0.411327 -0.24282 -0.497 118 78 68
0.4488 -0.24624 -0.504 141 95 82
0.47128 -0.252103 -0.516 162 140 142
0.478749 -0.255034 -0.522 205 191 191
-0.116557 -0.301643 -0.615 89 89 97
-0.102222 -0.290852 -0.593 84 84 92
-0.0916581 -0.300662 -0.613 75 76 80
-0.0803571 -0.306548 -0.625 45 45 53
-0.0767857 -0.306548 -0.625 48 47 53
0.120693 -0.286438 -0.584 188 133 128
0.128206 -0.27859 -0.568 186 127 123
0.12906 -0.2781 -0.567 185 126 122
0.137556 -0.275648 -0.562 192 131 126
0.143723 -0.275157 -0.561 178 118 110
0.146929 -0.275157 -0.561 170 110 102
0.16461 -0.276138 -0.563 148 89 85
0.215705 -0.312924 -0.638 126 125 156
0.231866 -0.313414 -0.639 154 111 121
0.224967 -0.291833 -0.595 190 129 124
0.2261 -0.291833 -0.595 192 131 126
0.249369 -0.303605 -0.619 114 84 92
0.255387 -0.308019 -0.628 214 200 215
0.352538 -0.24769 -0.505 153 101 103
0.354016 -0.24671 -0.503 156 100 103
0.35905 -0.246219 -0.502 142 91 90
0.359289 -0.245729 -0.501 138 89 85
0.373392 -0.246219 -0.502 114 73 67
0.386369 -0.244748 -0.499 109 71 60
0.389048 -0.245238 -0.5 108 70 59
0.41013 -0.244748 -0.499 117 77 67
0.410257 -0.244257 -0.498 117 77 67
0.423726 -0.243276 -0.496 129 85 74
0.4488 -0.2472 -0.504 142 96 83
-0.118686 -0.305276 -0.62 91 90 95
-0.116936 -0.303799 -0.617 91 90 95
-0.115198 -0.302322 -0.614 89 88 93
-0.102739 -0.293459 -0.596 89 88 96
0.121866 -0.285089 -0.579 189 131 127
0.123429 -0.283611 -0.576 192 134 130
0.126486 -0.280657 -0.57 194 135 131
0.132674 -0.277703 -0.564 186 125 120
0.135415 -0.276718 -0.562 191 130 125
0.183626 -0.285089 -0.579 139 94 97
0.230777 -0.313154 -0.636 168 117 126
0.223056 -0.294936 -0.599 192 128 128
0.258217 -0.311185 -0.632 218 204 219
0.358551 -0.261454 -0.531 171 129 131
0.353665 -0.25013 -0.508 152 97 100
0.357348 -0.248652 -0.505 152 98 98
0.35952 -0.24816 -0.504 144 93 92
0.366699 -0.247175 -0.502 119 79 71
0.375305 -0.247175 -0.502 114 73 67
0.377217 -0.247175 -0.502 114 74 66
0.380086 -0.247175 -0.502 114 74 66
0.391905 -0.24619 -0.5 111 71 63
0.392857 -0.24619 -0.5 112 72 64
0.395714 -0.24619 -0.5 112 72 64
0.404286 -0.24619 -0.5 115 75 63
0.41322 -0.244713 -0.497 121 81 69
0.42742 -0.244713 -0.497 127 83 70
-0.118877 -0.306951 -0.621 97 96 101
-0.117315 -0.305963 -0.619 94 93 98
-0.115761 -0.304974 -0.617 92 91 96
-0.113843 -0.302997 -0.613 92 91 96
-0.0978771 -0.297066 -0.601 84 85 90
-0.08666 -0.305963 -0.619 55 55 63
-0.0824733 -0.30794 -0.623 40 41 46
-0.07904 -0.308434 -0.624 43 43 51
0.118388 -0.311894 -0.631 194 139 132
0.11959 -0.311894 -0.631 194 139 132
0.118964 -0.292617 -0.592 194 136 134
0.121866 -0.286191 -0.579 188 130 128
0.122544 -0.285203 -0.577 190 130 129
0.128832 -0.279766 -0.566 187 126 123
0.132674 -0.278777 -0.564 190 129 124
0.13838 -0.277294 -0.561 189 129 121
0.1488 -0.2768 -0.56 178 119 111
0.152 -0.2768 -0.56 173 114 108
0.168722 -0.279766 -0.566 133 85 85
0.187115 -0.288169 -0.583 136 96 96
0.194367 -0.2941 -0.595 126 99 108
0.227247 -0.30794 -0.623 191 126 124
0.223074 -0.294594 -0.596 197 133 131
0.246185 -0.303491 -0.614 124 82 84
0.423155 -0.317826 -0.643 195 182 199
0.368388 -0.248626 -0.503 117 79 68
0.381998 -0.248131 -0.502 114 74 66
0.3841 -0.247637 -0.501 111 71 63
0.386963 -0.247637 -0.501 110 70 62
0.399524 -0.247143 -0.5 112 72 60
0.40619 -0.247143 -0.5 115 75 63
0.415113 -0.24566 -0.497 122 80 68
0.425615 -0.245166 -0.496 128 84 71
0.439524 -0.247143 -0.5 138 92 79
0.449826 -0.248626 -0.503 147 102 83
0.463917 -0.251591 -0.509 153 111 99
-0.1144 -0.305653 -0.616 97 96 101
-0.101311 -0.29821 -0.601 94 93 98
-0.100167 -0.29821 -0.601 95 94 99
-0.0884429 -0.305157 -0.615 61 61 69
0.11868 -0.298707 -0.602 192 141 137
0.123214 -0.28531 -0.575 191 131 130
0.132439 -0.279355 -0.563 193 132 127
0.141333 -0.277867 -0.56 183 123 115
0.144533 -0.277867 -0.56 175 114 109
0.149867 -0.277867 -0.56 178 119 111
0.150933 -0.277867 -0.56 176 117 109
0.152 -0.277867 -0.56 175 116 108
0.180167 -0.28531 -0.575 140 90 91
0.181892 -0.286302 -0.577 141 91 92
0.19161 -0.292752 -0.59 116 87 91
0.222249 -0.299203 -0.603 198 137 134
0.359729 -0.251569 -0.507 145 91 91
0.37008 -0.25008 -0.504 117 79 70
0.37104 -0.25008 -0.504 118 77 71
0.37296 -0.25008 -0.504 117 76 70
0.381801 -0.249584 -0.503 115 75 67
0.3841 -0.248591 -0.501 110 70 62
0.387917 -0.248591 -0.501 109 69 61
0.399369 -0.248591 -0.501 110 72 63
0.414167 -0.246607 -0.497 121 78 69
0.417214 -0.245614 -0.495 127 83 72
0.420043 -0.245614 -0.495 129 85 74
0.42467 -0.24611 -0.496 129 85 72
0.432153 -0.246607 -0.497 132 85 75
0.441429 -0.248095 -0.5 138 92 79
0.45456 -0.25008 -0.504 152 101 97
0.459255 -0.251072 -0.506 153 103 94
0.475211 -0.256034 -0.516 201 181 183
-0.117694 -0.309317 -0.621 105 104 109
-0.114586 -0.307325 -0.617 103 102 107
-0.10998 -0.304336 -0.611 102 101 106
0.118119 -0.301348 -0.605 188 134 134
0.124532 -0.284412 -0.571 195 136 132
0.129681 -0.281424 -0.565 188 129 125
0.1316 -0.280926 -0.564 192 133 125
0.1488 -0.278933 -0.56 175 116 108
0.158683 -0.279431 -0.561 166 106 96
0.167348 -0.281424 -0.565 136 88 84
0.183309 -0.287899 -0.578 137 93 94
0.191285 -0.293378 -0.589 131 86 91
0.228122 -0.314796 -0.632 177 125 129
0.223599 -0.305332 -0.613 198 138 140
0.234466 -0.298359 -0.599 146 93 87
0.238724 -0.30085 -0.604 134 89 86
0.240669 -0.301846 -0.606 132 87 84
0.3591 -0.255523 -0.513 147 95 99
0.389826 -0.249546 -0.501 111 71 63
0.402231 -0.249546 -0.501 113 73 63
0.422871 -0.246557 -0.495 132 84 74
0.425615 -0.247055 -0.496 131 84 74
0.42845 -0.247055 -0.496 129 85 74
0.4331 -0.247553 -0.497 131 87 76
0.436817 -0.248051 -0.498 135 88 78
-0.108994 -0.306 -0.612 105 105 107
0.117891 -0.299 -0.598 190 131 127
0.12518 -0.2845 -0.569 193 135 131
0.130526 -0.282 -0.564 190 131 125
0.131367 -0.2815 -0.563 192 133 127
0.132439 -0.2815 -0.563 190 131 127
0.136243 -0.2805 -0.561 173 114 108
0.155477 -0.2805 -0.561 169 106 99
0.158683 -0.2805 -0.561 166 104 93
0.188871 -0.2925 -0.585 132 86 86
0.222505 -0.305 -0.61 199 139 139
0.2211 -0.3015 -0.603 199 139 139
0.221174 -0.2985 -0.597 197 136 135
0.223832 -0.296 -0.592 182 122 114
0.246586 -0.3075 -0.615 120 79 83
0.425686 -0.317 -0.634 185 168 184
0.3612 -0.258 -0.516 148 89 93
0.361481 -0.2575 -0.515 148 89 93
0.362031 -0.2565 -0.513 144 93 92
0.364513 -0.2555 -0.511 139 89 90
0.366965 -0.2545 -0.509 128 83 78
0.369147 -0.254 -0.508 122 77 71
0.370351 -0.2535 -0.507 118 75 68
0.376146 -0.2535 -0.507 117 74 67
0.393472 -0.251 -0.502 110 72 63
0.395385 -0.251 -0.502 109 70 63
0.407003 -0.2505 -0.501 114 74 66
0.409048 -0.25 -0.5 113 73 65
0.42656 -0.248 -0.496 131 84 74
0.447083 -0.2505 -0.501 148 100 88
0.460271 -0.2525 -0.505 157 111 98
0.462147 -0.253 -0.506 159 119 109
0.465909 -0.254 -0.508 171 140 135
0.472503 -0.256 -0.512 181 152 154
0.475328 -0.257 -0.514 147 134 141
-0.0823409 -0.312185 -0.622 77 78 83
0.127754 -0.284078 -0.566 195 136 132
0.136243 -0.281569 -0.561 176 117 111
0.146405 -0.280565 -0.559 176 116 105
0.168424 -0.283576 -0.565 139 91 89
0.429714 -0.321219 -0.64 191 174 190
0.364149 -0.258983 -0.516 142 92 91
0.365405 -0.258481 -0.515 140 89 88
0.36594 -0.257477 -0.513 137 87 86
0.373985 -0.254968 -0.508 115 74 68
0.381395 -0.253462 -0.505 112 72 64
0.384675 -0.252458 -0.503 109 71 62
0.386779 -0.251956 -0.502 109 69 61
0.390604 -0.251956 -0.502 111 70 64
0.398089 -0.252458 -0.503 109 71 62
0.399047 -0.252458 -0.503 110 72 63
0.401122 -0.251956 -0.502 111 73 64
0.40399 -0.251956 -0.502 112 74 65
0.412154 -0.249949 -0.498 119 76 69
0.4191 -0.248443 -0.495 130 86 75
0.424757 -0.248443 -0.495 133 86 76
0.427505 -0.248945 -0.496 132 85 75
0.42845 -0.248945 -0.496 130 83 73
0.434047 -0.249447 -0.497 135 89 76
0.45749 -0.252458 -0.503 154 106 92
0.465957 -0.254466 -0.507 177 140 132
-0.0986638 -0.308835 -0.613 109 110 114
-0.085619 -0.312362 -0.62 72 73 78
0.117 -0.3174 -0.63 200 142 138
0.1424 -0.282133 -0.56 173 113 105
0.143467 -0.282133 -0.56 175 115 107
0.158683 -0.282637 -0.561 161 98 89
0.16461 -0.283645 -0.563 142 92 85
0.430127 -0.320927 -0.637 188 170 182
0.369849 -0.258454 -0.513 124 80 77
0.375457 -0.256943 -0.51 115 74 68
0.37666 -0.256439 -0.509 115 74 68
0.37979 -0.255935 -0.508 115 75 67
0.38215 -0.254928 -0.506 114 74 66
0.406859 -0.252912 -0.502 114 74 64
0.407957 -0.252409 -0.501 114 74 64
0.416168 -0.24989 -0.496 124 81 72
0.417214 -0.249386 -0.495 127 84 75
0.430339 -0.24989 -0.496 134 87 77
0.433173 -0.24989 -0.496 136 90 77
0.455625 -0.252912 -0.502 158 109 95
-0.1116 -0.313543 -0.62 120 120 120
0.131133 -0.284211 -0.562 183 125 121
0.13838 -0.283706 -0.561 175 116 108
0.158683 -0.283706 -0.561 165 105 95
0.168424 -0.285729 -0.565 138 89 85
0.219951 -0.304946 -0.603 203 143 142
0.223832 -0.299383 -0.592 184 123 120
0.24186 -0.30798 -0.609 121 85 87
0.247789 -0.312531 -0.618 114 87 94
0.428479 -0.319106 -0.631 188 172 185
0.372783 -0.270051 -0.534 142 101 105
0.3717 -0.268534 -0.531 140 98 100
0.372528 -0.259937 -0.514 119 78 74
0.374004 -0.258926 -0.512 115 74 68
0.37522 -0.25842 -0.511 115 77 68
0.4008 -0.25488 -0.504 109 73 59
0.404947 -0.253869 -0.502 112 74 63
0.405903 -0.253869 -0.502 114 76 65
0.423814 -0.250329 -0.495 133 87 74
0.4257 -0.250329 -0.495 132 86 73
0.426643 -0.250329 -0.495 131 84 74
0.435063 -0.250834 -0.496 140 94 81
0.436887 -0.25134 -0.497 140 94 79
0.450952 -0.252857 -0.5 152 104 92
0.455671 -0.253363 -0.501 156 109 91
0.115807 -0.304064 -0.599 189 134 131
0.117356 -0.29645 -0.584 192 137 134
0.13838 -0.284774 -0.561 174 115 107
0.149867 -0.284267 -0.56 176 119 112
0.156267 -0.284267 -0.56 170 107 100
0.162177 -0.285282 -0.562 147 92 85
0.178137 -0.290358 -0.572 140 90 89
0.189986 -0.296957 -0.585 121 80 86
0.19208 -0.29848 -0.588 122 81 87
0.219529 -0.30711 -0.605 194 138 139
0.229886 -0.302541 -0.596 150 93 82
0.233325 -0.304064 -0.599 138 85 77
0.237573 -0.306602 -0.604 124 80 79
0.23991 -0.308125 -0.607 114 79 83
0.25098 -0.316247 -0.623 156 147 174
0.431043 -0.321323 -0.633 187 169 183
0.37496 -0.261931 -0.516 117 76 72
0.375214 -0.261424 -0.515 116 76 68
0.388129 -0.256348 -0.505 110 71 64
0.40272 -0.25584 -0.504 109 71 60
0.415 -0.252794 -0.498 121 78 69
0.41606 -0.252287 -0.497 124 81 72
0.428529 -0.251271 -0.495 132 85 75
0.4491 -0.253302 -0.499 152 104 90
0.450952 -0.25381 -0.5 152 104 92
-0.108057 -0.315905 -0.62 200 200 198
-0.105525 -0.315395 -0.619 196 196 194
-0.0937343 -0.315395 -0.619 155 155 155
-0.0893057 -0.316414 -0.621 178 178 180
0.116443 -0.298071 -0.585 191 136 131
0.117155 -0.297052 -0.583 192 137 134
0.125376 -0.287881 -0.565 183 125 121
0.131133 -0.286352 -0.562 188 130 126
0.153067 -0.285333 -0.56 172 111 108
0.158683 -0.285843 -0.561 161 101 93
0.17118 -0.2889 -0.567 140 89 86
0.214374 -0.319471 -0.627 79 75 98
0.379595 -0.272595 -0.535 131 90 94
0.396786 -0.25731 -0.505 108 71 62
0.397748 -0.25731 -0.505 105 71 59
0.409728 -0.255781 -0.502 111 71 61
0.428529 -0.252214 -0.495 132 86 73
0.4323 -0.252214 -0.495 137 91 76
0.436952 -0.252724 -0.496 142 94 80
0.45005 -0.254252 -0.499 153 104 90
0.45381 -0.254762 -0.5 159 110 93
0.461362 -0.255781 -0.502 167 119 105
0.467005 -0.25731 -0.505 166 137 133
0.115723 -0.300209 -0.587 189 139 130
0.118833 -0.294071 -0.575 187 129 127
0.121929 -0.291003 -0.569 194 139 136
0.127077 -0.287934 -0.563 185 126 122
0.16461 -0.287934 -0.563 139 90 83
0.176738 -0.292026 -0.571 142 92 91
0.180947 -0.29356 -0.574 138 88 87
0.18758 -0.29714 -0.581 128 80 80
0.218581 -0.301743 -0.59 188 126 129
0.380106 -0.265431 -0.519 115 77 68
0.38061 -0.264409 -0.517 114 75 68
0.386355 -0.260317 -0.509 111 74 66
0.388499 -0.259806 -0.508 112 74 65
0.40656 -0.25776 -0.504 110 72 59
0.414883 -0.255203 -0.499 120 78 66
0.417007 -0.25418 -0.497 125 83 71
0.417112 -0.253669 -0.496 128 86 74
0.429471 -0.253157 -0.495 136 90 75
0.440673 -0.25418 -0.497 145 98 82
0.442567 -0.25418 -0.497 151 102 87
0.444406 -0.254691 -0.498 151 102 87
0.445354 -0.254691 -0.498 152 99 81
0.46608 -0.25776 -0.504 160 129 124
0.114995 -0.302353 -0.589 188 139 135
0.118627 -0.294653 -0.574 190 132 130
0.131133 -0.288493 -0.562 190 131 125
0.136 -0.287467 -0.56 177 118 112
0.1552 -0.287467 -0.56 168 108 100
0.221952 -0.302867 -0.59 175 110 104
0.228367 -0.305433 -0.595 145 94 75
0.241886 -0.31416 -0.612 108 82 91
0.252591 -0.32186 -0.627 116 112 145
0.383035 -0.268473 -0.523 115 77 68
0.387873 -0.262313 -0.511 111 74 66
0.390233 -0.261287 -0.509 110 71 64
0.399323 -0.26026 -0.507 108 70 59
0.400289 -0.26026 -0.507 108 70 59
0.421929 -0.2541 -0.495 137 90 80
0.422958 -0.253587 -0.494 139 91 81
0.430414 -0.2541 -0.495 139 93 78
0.452902 -0.256153 -0.499 160 108 84
0.457619 -0.256667 -0.5 168 116 94
