ply
format ascii 1.0
comment Created by Open3D
element vertex 1298
property double x
property double y
property double z
property uchar red
property uchar green
property uchar blue
end_header
0.371611 -0.119177 -0.528 129 92 100
0.379942 -0.118951 -0.527 194 135 139
0.380946 -0.118951 -0.527 198 139 143
0.38195 -0.118951 -0.527 197 138 142
0.387703 -0.119177 -0.528 185 134 133
0.411129 -0.122563 -0.543 205 160 154
0.27406 -0.131791 -0.579 89 66 82
0.29645 -0.13293 -0.584 95 77 89
0.295977 -0.125646 -0.552 131 111 120
0.294338 -0.124508 -0.547 138 108 116
0.3135 -0.1195 -0.525 138 106 111
0.334929 -0.11859 -0.521 148 112 116
0.352474 -0.118817 -0.522 141 100 106
0.357817 -0.119272 -0.524 138 103 107
0.380946 -0.119955 -0.527 195 139 142
0.386969 -0.119955 -0.527 183 134 130
0.398211 -0.121549 -0.534 171 115 116
0.40502 -0.122687 -0.539 183 132 129
0.286929 -0.134271 -0.585 42 32 40
0.291797 -0.121877 -0.531 143 107 117
0.307084 -0.12073 -0.526 137 105 110
0.311091 -0.12073 -0.526 138 106 111
0.315897 -0.12027 -0.524 137 105 108
0.320275 -0.120041 -0.523 137 103 104
0.322646 -0.119811 -0.522 135 103 106
0.324634 -0.119811 -0.522 136 106 108
0.326623 -0.119811 -0.522 139 108 113
0.32699 -0.119582 -0.521 139 108 113
0.341551 -0.119123 -0.519 150 115 119
0.346494 -0.119123 -0.519 148 113 117
0.34946 -0.119123 -0.519 146 112 113
0.371911 -0.120959 -0.527 52 29 39
0.376346 -0.121418 -0.529 65 34 40
0.38195 -0.120959 -0.527 191 140 137
0.418103 -0.124861 -0.544 199 150 145
0.279914 -0.134691 -0.582 67 55 65
0.29714 -0.13446 -0.581 92 76 87
0.298247 -0.13446 -0.581 90 74 87
0.298666 -0.129369 -0.559 114 91 101
0.293267 -0.122657 -0.53 138 105 112
0.294276 -0.122657 -0.53 137 104 111
0.300206 -0.122194 -0.528 139 104 110
0.325629 -0.120806 -0.522 135 105 107
0.34122 -0.119649 -0.517 140 105 109
0.342205 -0.119649 -0.517 141 106 110
0.352733 -0.11988 -0.518 143 111 114
0.363411 -0.120806 -0.522 135 100 106
0.376346 -0.122426 -0.529 52 23 28
0.386969 -0.121963 -0.527 195 133 136
0.392468 -0.122426 -0.529 179 124 121
0.400995 -0.123814 -0.535 166 116 109
0.271687 -0.135567 -0.581 91 67 81
0.28755 -0.136267 -0.584 66 55 63
0.296033 -0.135567 -0.581 88 72 83
0.297733 -0.135333 -0.58 91 75 88
0.30336 -0.1344 -0.576 32 33 37
0.301328 -0.132067 -0.566 37 35 38
0.3085 -0.1225 -0.525 137 104 111
0.31629 -0.122033 -0.523 137 105 108
0.318283 -0.122033 -0.523 137 107 109
0.324012 -0.121567 -0.521 136 104 107
0.325005 -0.121567 -0.521 136 104 107
0.325997 -0.121567 -0.521 139 107 110
0.392468 -0.123433 -0.529 181 125 124
0.394219 -0.123667 -0.53 180 124 123
0.405293 -0.125533 -0.538 164 113 112
0.414501 -0.126467 -0.542 204 155 148
0.279914 -0.136909 -0.582 67 56 64
0.302902 -0.134321 -0.571 52 53 55
0.299637 -0.12397 -0.527 137 105 110
0.300641 -0.12397 -0.527 137 105 110
0.301645 -0.12397 -0.527 137 105 110
0.327352 -0.122324 -0.52 137 105 110
0.337611 -0.121383 -0.516 136 101 107
0.37433 -0.124441 -0.529 34 17 25
0.385965 -0.12397 -0.527 201 139 142
0.27406 -0.137306 -0.579 81 63 77
0.28324 -0.138017 -0.582 55 44 52
0.291 -0.138017 -0.582 65 53 63
0.293911 -0.137306 -0.579 73 60 70
0.296117 -0.137306 -0.579 73 60 70
0.314691 -0.123789 -0.522 137 105 108
0.33004 -0.12284 -0.518 123 98 101
0.341543 -0.122366 -0.516 137 102 108
0.342526 -0.122366 -0.516 136 101 107
0.347748 -0.122129 -0.515 136 101 105
0.34903 -0.121891 -0.514 135 103 106
0.350989 -0.121891 -0.514 134 103 108
0.382391 -0.125449 -0.529 179 123 126
0.389714 -0.125211 -0.528 189 134 131
0.4081 -0.12782 -0.539 165 115 108
0.409886 -0.128057 -0.54 172 122 115
0.41863 -0.128531 -0.542 196 147 143
0.420695 -0.128531 -0.542 191 141 140
0.42276 -0.128531 -0.542 193 144 140
0.425609 -0.128769 -0.543 197 148 141
0.275638 -0.138648 -0.58 80 59 74
0.278327 -0.138887 -0.581 75 59 70
0.288287 -0.138887 -0.581 59 48 56
0.297597 -0.13315 -0.557 129 113 116
0.297189 -0.126217 -0.528 136 105 111
0.302649 -0.125978 -0.527 138 107 112
0.307084 -0.125739 -0.526 138 106 111
0.31668 -0.124783 -0.522 135 105 107
0.335646 -0.123349 -0.516 130 98 103
0.351968 -0.12287 -0.514 135 103 108
0.355595 -0.12311 -0.515 137 102 108
0.392731 -0.126217 -0.528 184 129 126
0.425857 -0.129564 -0.542 185 136 129
0.288287 -0.139993 -0.581 57 46 54
0.296117 -0.139511 -0.579 66 53 62
0.301841 -0.137102 -0.569 55 46 49
0.29973 -0.135656 -0.563 99 90 93
0.293262 -0.131319 -0.545 137 106 112
0.302217 -0.127223 -0.528 138 107 112
0.30508 -0.126741 -0.526 137 106 111
0.3085 -0.1265 -0.525 138 106 111
0.322028 -0.125536 -0.521 141 104 111
0.331027 -0.124813 -0.518 78 64 64
0.34056 -0.124331 -0.516 133 102 107
0.355595 -0.12409 -0.515 137 102 108
0.358946 -0.124572 -0.517 126 95 101
0.378176 -0.128428 -0.533 26 15 19
0.379191 -0.128428 -0.533 29 18 22
0.276743 -0.140857 -0.58 70 60 68
0.28054 -0.1411 -0.581 53 43 51
0.284967 -0.1411 -0.581 49 37 47
0.29722 -0.140614 -0.579 65 52 61
0.299426 -0.140614 -0.579 72 56 66
0.302788 -0.140129 -0.577 62 57 61
0.303652 -0.127986 -0.527 138 107 112
0.307084 -0.127743 -0.526 138 106 111
0.3105 -0.1275 -0.525 137 106 111
0.310907 -0.127257 -0.524 137 106 111
0.314691 -0.126771 -0.522 139 107 110
0.327711 -0.126043 -0.519 107 80 85
0.336296 -0.125557 -0.517 117 86 91
0.337611 -0.125314 -0.516 124 93 98
0.338594 -0.125314 -0.516 128 97 102
0.347748 -0.125071 -0.515 138 103 107
0.35001 -0.124829 -0.514 133 104 108
0.35993 -0.125557 -0.517 126 95 101
0.379191 -0.129443 -0.533 29 18 22
0.417858 -0.131386 -0.541 188 133 128
0.42095 -0.131386 -0.541 188 134 132
0.284967 -0.142207 -0.581 49 36 46
0.298323 -0.141717 -0.579 75 62 71
0.302211 -0.141472 -0.578 90 77 84
0.301253 -0.140004 -0.572 99 90 93
0.302343 -0.140004 -0.572 99 90 93
0.294369 -0.134374 -0.549 131 108 114
0.298633 -0.12899 -0.527 137 108 113
0.302649 -0.12899 -0.527 136 107 111
0.317674 -0.127766 -0.522 137 107 109
0.329053 -0.126787 -0.518 66 50 51
0.331027 -0.126787 -0.518 60 50 49
0.351968 -0.125808 -0.514 128 97 102
0.374029 -0.129724 -0.53 29 14 21
0.388238 -0.128745 -0.526 195 136 128
0.39976 -0.130213 -0.532 174 119 114
0.290394 -0.13172 -0.534 134 109 115
0.292257 -0.130733 -0.53 139 108 114
0.302649 -0.129993 -0.527 137 106 111
0.3065 -0.1295 -0.525 138 106 111
0.310907 -0.129253 -0.524 138 108 110
0.318058 -0.128513 -0.521 136 107 109
0.331027 -0.127773 -0.518 61 53 51
0.331372 -0.127527 -0.517 127 98 103
0.333342 -0.127527 -0.517 131 102 107
0.33368 -0.12728 -0.516 115 86 91
0.34056 -0.12728 -0.516 114 85 90
0.382652 -0.131967 -0.535 57 37 39
0.382533 -0.131227 -0.532 112 80 83
0.384686 -0.13024 -0.528 190 128 129
0.411943 -0.1332 -0.54 141 91 84
0.415797 -0.133447 -0.541 170 112 108
0.437079 -0.134927 -0.547 147 88 84
0.269816 -0.143426 -0.577 84 66 78
0.274688 -0.143674 -0.578 67 51 61
0.282267 -0.144171 -0.58 50 37 46
0.295606 -0.143674 -0.578 63 48 55
0.297069 -0.138703 -0.558 126 103 111
0.290786 -0.131991 -0.531 139 108 114
0.303652 -0.130997 -0.527 137 106 111
0.309909 -0.130251 -0.524 138 106 109
0.310907 -0.130251 -0.524 137 107 109
0.320419 -0.129257 -0.52 137 107 109
0.340881 -0.128014 -0.515 116 87 92
0.355595 -0.128014 -0.515 134 103 109
0.382749 -0.133731 -0.538 36 21 24
0.383114 -0.131743 -0.53 142 97 100
0.385691 -0.131246 -0.528 200 140 140
0.38998 -0.130997 -0.527 195 137 135
0.390984 -0.130997 -0.527 192 137 134
0.424041 -0.134477 -0.541 166 108 104
0.273587 -0.144775 -0.578 68 52 62
0.283986 -0.145026 -0.579 76 60 70
0.285697 -0.144775 -0.578 72 56 66
0.30059 -0.144525 -0.577 52 40 44
0.292224 -0.13651 -0.545 138 107 115
0.311905 -0.13125 -0.524 137 107 109
0.318058 -0.130498 -0.521 136 107 111
0.320419 -0.130248 -0.52 137 106 111
0.335646 -0.129246 -0.516 116 87 92
0.346093 -0.128745 -0.514 137 102 108
0.372315 -0.132502 -0.529 38 23 26
0.383547 -0.133253 -0.532 128 83 86
0.418114 -0.135257 -0.54 166 111 106
0.419143 -0.135257 -0.54 172 117 112
0.422229 -0.135257 -0.54 172 117 112
0.268251 -0.145371 -0.576 84 66 78
0.271543 -0.145371 -0.576 70 54 65
0.27689 -0.145876 -0.578 64 49 56
0.296777 -0.145371 -0.576 55 42 49
0.297567 -0.142595 -0.565 50 33 39
0.290571 -0.136286 -0.54 141 108 117
0.291248 -0.133762 -0.53 138 107 113
0.316073 -0.13149 -0.521 139 109 111
0.320043 -0.13149 -0.521 137 106 111
0.3224 -0.131238 -0.52 140 105 111
0.347072 -0.129724 -0.514 132 100 105
0.386627 -0.13679 -0.542 56 40 41
0.420171 -0.136286 -0.54 170 112 108
0.4212 -0.136286 -0.54 174 116 112
0.428163 -0.136538 -0.541 166 111 108
0.26669 -0.146214 -0.575 80 64 75
0.297057 -0.142909 -0.562 51 32 38
0.294945 -0.141383 -0.556 113 86 93
0.28944 -0.136297 -0.536 139 106 115
0.29763 -0.134009 -0.527 136 105 110
0.302074 -0.133754 -0.526 137 106 111
0.3075 -0.1335 -0.525 138 106 111
0.310907 -0.133246 -0.524 139 108 113
0.3224 -0.132229 -0.52 140 105 109
0.3287 -0.131974 -0.519 136 104 109
0.334327 -0.131466 -0.517 130 98 103
0.345786 -0.130957 -0.515 133 102 108
0.390242 -0.133754 -0.526 196 138 137
0.401031 -0.135026 -0.531 172 117 114
0.40711 -0.136043 -0.535 166 113 107
0.411442 -0.136806 -0.538 148 95 89
0.41426 -0.13706 -0.539 141 86 81
0.426343 -0.137314 -0.54 169 114 111
0.292467 -0.147053 -0.574 57 42 45
0.295471 -0.14321 -0.559 57 36 43
0.289495 -0.13783 -0.538 139 106 113
0.304078 -0.134756 -0.526 137 105 110
0.332013 -0.132707 -0.518 138 106 111
0.335646 -0.132194 -0.516 136 104 109
0.337611 -0.132194 -0.516 137 105 110
0.363708 -0.133475 -0.521 49 30 34
0.385414 -0.135525 -0.529 164 108 109
0.422473 -0.138087 -0.539 172 114 112
0.428163 -0.138599 -0.541 169 111 109
0.264134 -0.149437 -0.579 90 74 77
0.2645 -0.148405 -0.575 86 69 77
0.277029 -0.148663 -0.576 61 46 53
0.278126 -0.148663 -0.576 58 43 50
0.28531 -0.148405 -0.575 59 42 48
0.29028 -0.148147 -0.574 60 43 49
0.292537 -0.14763 -0.572 62 45 51
0.293627 -0.14763 -0.572 61 42 48
0.296895 -0.14763 -0.572 57 45 49
0.294414 -0.143759 -0.557 71 50 55
0.288957 -0.138597 -0.537 139 106 113
0.2889 -0.138081 -0.535 138 105 112
0.288835 -0.137565 -0.533 138 105 112
0.289307 -0.137307 -0.532 138 105 112
0.301072 -0.135758 -0.526 138 106 111
0.317066 -0.134468 -0.521 137 105 108
0.3224 -0.13421 -0.52 138 108 110
0.335646 -0.133177 -0.516 130 98 103
0.385283 -0.137565 -0.533 114 75 78
0.38998 -0.136016 -0.527 185 127 126
0.403813 -0.137307 -0.532 173 118 115
0.414516 -0.138855 -0.538 136 81 78
0.422473 -0.139113 -0.539 175 117 115
0.295622 -0.13702 -0.527 140 107 114
0.311709 -0.13572 -0.522 139 109 111
0.314691 -0.13572 -0.522 137 107 109
0.326362 -0.1352 -0.52 138 109 113
0.334327 -0.13442 -0.517 135 104 109
0.343509 -0.13416 -0.516 135 103 108
0.387972 -0.13702 -0.527 190 132 131
0.392246 -0.13676 -0.526 194 134 134
0.272787 -0.150333 -0.574 66 49 59
0.278253 -0.150333 -0.574 61 44 52
0.284317 -0.150071 -0.573 64 47 55
0.294369 -0.147452 -0.563 58 43 48
0.288763 -0.139071 -0.531 137 104 111
0.290238 -0.13881 -0.53 139 106 113
0.294171 -0.138286 -0.528 136 103 110
0.331027 -0.135667 -0.518 136 96 107
0.341543 -0.135143 -0.516 136 105 110
0.35964 -0.135667 -0.518 59 38 43
0.432051 -0.141952 -0.542 164 108 107
0.276067 -0.151427 -0.574 65 48 54
0.281642 -0.150899 -0.572 84 67 73
0.283821 -0.150899 -0.572 85 70 75
0.291514 -0.150371 -0.57 100 85 92
0.287398 -0.141402 -0.536 139 104 111
0.291706 -0.139555 -0.529 138 105 112
0.293166 -0.139291 -0.528 137 104 111
0.29763 -0.139028 -0.527 138 106 111
0.309909 -0.138236 -0.524 139 107 112
0.3287 -0.136917 -0.519 129 102 107
0.334663 -0.136126 -0.516 139 106 113
0.34903 -0.135598 -0.514 133 104 108
0.361323 -0.136917 -0.519 55 34 39
0.387313 -0.14061 -0.533 132 87 92
0.387703 -0.139291 -0.528 185 130 125
0.397007 -0.139028 -0.527 186 128 126
0.41964 -0.14193 -0.538 156 101 98
0.262766 -0.153051 -0.576 90 70 79
0.269186 -0.151723 -0.571 60 43 53
0.274015 -0.151989 -0.572 58 42 52
0.277284 -0.151989 -0.572 63 46 52
0.286086 -0.151457 -0.57 112 99 106
0.294338 -0.150129 -0.565 93 78 85
0.291243 -0.147471 -0.555 83 62 69
0.28798 -0.14322 -0.539 138 103 110
0.288293 -0.14136 -0.532 138 109 113
0.288763 -0.141094 -0.531 141 112 116
0.29763 -0.140031 -0.527 138 106 111
0.326723 -0.137906 -0.519 229 210 214
0.351968 -0.136577 -0.514 141 106 113
0.38998 -0.140031 -0.527 189 129 128
0.434917 -0.144283 -0.543 167 111 112
0.286164 -0.152008 -0.568 84 71 80
0.288328 -0.152008 -0.568 84 71 80
0.315081 -0.13943 -0.521 138 106 111
0.317066 -0.13943 -0.521 140 105 111
0.388976 -0.141035 -0.527 180 122 120
0.393248 -0.140768 -0.526 187 129 127
0.403551 -0.14157 -0.529 171 113 109
0.413224 -0.143176 -0.535 177 122 119
0.4284 -0.144514 -0.54 179 119 118
0.433084 -0.14505 -0.542 173 113 112
0.434917 -0.145317 -0.543 167 108 112
0.446572 -0.147458 -0.551 154 105 101
0.264991 -0.153359 -0.569 65 50 57
0.268714 -0.153629 -0.57 60 45 50
0.271971 -0.153629 -0.57 60 44 54
0.2889 -0.15282 -0.567 64 51 61
0.290193 -0.149047 -0.553 65 48 56
0.288219 -0.142848 -0.53 141 106 112
0.3035 -0.1415 -0.525 137 105 110
0.311709 -0.140691 -0.522 138 106 111
0.314691 -0.140691 -0.522 138 106 111
0.316457 -0.140152 -0.52 141 106 112
0.317448 -0.140152 -0.52 141 106 112
0.324746 -0.139883 -0.519 132 109 117
0.33004 -0.139613 -0.518 142 120 132
0.332357 -0.139344 -0.517 118 89 94
0.347072 -0.138535 -0.514 122 90 95
0.425553 -0.145273 -0.539 175 117 115
0.306329 -0.141957 -0.523 138 106 111
0.323757 -0.140871 -0.519 137 107 115
0.328067 -0.1406 -0.518 235 224 230
0.392096 -0.146843 -0.541 81 52 56
0.389445 -0.143586 -0.529 182 124 122
0.402026 -0.143043 -0.527 174 116 114
0.431254 -0.146843 -0.541 172 117 114
0.43779 -0.147657 -0.544 162 106 105
0.442289 -0.148471 -0.547 149 98 95
0.26358 -0.15662 -0.573 96 81 86
0.27594 -0.15498 -0.567 70 54 65
0.285729 -0.154433 -0.565 67 53 66
0.290698 -0.144593 -0.529 138 105 112
0.298633 -0.144047 -0.527 139 107 112
0.299637 -0.144047 -0.527 140 108 113
0.315081 -0.142407 -0.521 140 107 114
0.329403 -0.141313 -0.517 144 123 130
0.330388 -0.141313 -0.517 133 112 119
0.343156 -0.140493 -0.514 125 100 104
0.346397 -0.14022 -0.513 118 87 92
0.350306 -0.14022 -0.513 133 104 109
0.352947 -0.140493 -0.514 137 100 108
0.358653 -0.141587 -0.518 59 42 48
0.389171 -0.144867 -0.53 170 119 116
0.389714 -0.14432 -0.528 182 124 122
0.400261 -0.143773 -0.526 171 113 112
0.42169 -0.147053 -0.538 149 98 94
0.43779 -0.148693 -0.544 160 107 103
0.44044 -0.14924 -0.546 155 102 98
0.263222 -0.158812 -0.577 85 70 75
0.263405 -0.158262 -0.575 89 74 79
0.26669 -0.156335 -0.568 64 48 59
0.27594 -0.15606 -0.567 66 50 63
0.287518 -0.149179 -0.542 139 107 118
0.295622 -0.14505 -0.527 139 106 113
0.300641 -0.14505 -0.527 139 107 112
0.3025 -0.1445 -0.525 138 106 111
0.3035 -0.1445 -0.525 139 106 113
0.329403 -0.142298 -0.517 134 111 117
0.351283 -0.141197 -0.513 139 102 110
0.39072 -0.145326 -0.528 186 125 124
0.391988 -0.14505 -0.527 186 125 124
0.409123 -0.146151 -0.531 147 97 90
0.444951 -0.151106 -0.549 150 101 97
0.447622 -0.151656 -0.551 153 104 99
0.274375 -0.156863 -0.566 64 48 59
0.304918 -0.145223 -0.524 139 107 112
0.315081 -0.144391 -0.521 139 107 112
0.341198 -0.142451 -0.514 95 72 78
0.341511 -0.142174 -0.513 87 64 70
0.342489 -0.142174 -0.513 103 80 86
0.351283 -0.142174 -0.513 135 104 110
0.391726 -0.146331 -0.528 184 124 124
0.3985 -0.1455 -0.525 172 112 111
0.419883 -0.148826 -0.537 140 89 86
0.424764 -0.149103 -0.538 161 107 105
0.272814 -0.157662 -0.565 69 52 62
0.276043 -0.157662 -0.565 70 52 64
0.295177 -0.147337 -0.528 139 106 113
0.301072 -0.146779 -0.526 139 106 113
0.315467 -0.145105 -0.52 138 107 112
0.322147 -0.144547 -0.518 136 105 110
0.327433 -0.144268 -0.517 139 110 115
0.329403 -0.144268 -0.517 137 108 113
0.331714 -0.143989 -0.516 124 99 105
0.335324 -0.14343 -0.514 116 89 96
0.340534 -0.143151 -0.513 127 100 107
0.343771 -0.142872 -0.512 133 103 111
0.351283 -0.143151 -0.513 135 104 112
0.431429 -0.167429 -0.6 70 50 59
0.392731 -0.147337 -0.528 182 124 123
0.392991 -0.147058 -0.527 184 122 123
0.409123 -0.148174 -0.531 145 94 91
0.267433 -0.158738 -0.565 70 50 62
0.285453 -0.152276 -0.542 132 106 117
0.285843 -0.15031 -0.535 138 109 114
0.295622 -0.148062 -0.527 139 106 113
0.304918 -0.147219 -0.524 137 106 112
0.309317 -0.146938 -0.523 138 107 113
0.32178 -0.145814 -0.519 136 105 110
0.322147 -0.145533 -0.518 136 105 110
0.434013 -0.169133 -0.602 58 39 43
0.455679 -0.15649 -0.557 163 112 111
0.263129 -0.159814 -0.565 61 45 55
0.264811 -0.159531 -0.564 68 48 59
0.279431 -0.158683 -0.561 91 82 99
0.287531 -0.157269 -0.556 114 112 125
0.284927 -0.153026 -0.541 135 107 119
0.29216 -0.149349 -0.528 139 106 113
0.30007 -0.148783 -0.526 138 107 113
0.301072 -0.148783 -0.526 137 106 112
0.330731 -0.145954 -0.516 135 106 111
0.337282 -0.145389 -0.514 134 104 112
0.339557 -0.145106 -0.513 134 104 112
0.354614 -0.145671 -0.515 108 85 91
0.433154 -0.170846 -0.604 69 50 56
0.3927 -0.15246 -0.539 94 55 58
0.391535 -0.151611 -0.536 107 68 71
0.394999 -0.149066 -0.527 178 117 116
0.401263 -0.148783 -0.526 140 87 83
0.405806 -0.149349 -0.528 136 87 83
0.419101 -0.151611 -0.536 131 80 77
0.430687 -0.15246 -0.539 168 115 111
0.439863 -0.153874 -0.544 153 99 97
0.277294 -0.159751 -0.561 97 84 101
0.281569 -0.159751 -0.561 99 95 110
0.293166 -0.150354 -0.528 139 106 113
0.316457 -0.148076 -0.52 138 107 112
0.325107 -0.147507 -0.518 138 107 113
0.32708 -0.147507 -0.518 137 106 112
0.348648 -0.145798 -0.512 133 102 108
0.352947 -0.146368 -0.514 136 105 113
0.4033 -0.158043 -0.555 97 68 72
0.401263 -0.149785 -0.526 136 83 79
0.283759 -0.160247 -0.559 163 165 180
0.29216 -0.15136 -0.528 139 108 116
0.298633 -0.151073 -0.527 136 107 112
0.3015 -0.1505 -0.525 136 107 112
0.316073 -0.149353 -0.521 140 109 114
0.318438 -0.149067 -0.52 137 106 112
0.328418 -0.148207 -0.517 138 107 113
0.335324 -0.147347 -0.514 133 104 109
0.337282 -0.147347 -0.514 131 102 107
0.343466 -0.14706 -0.513 133 103 111
0.345722 -0.146773 -0.512 105 80 84
0.351283 -0.14706 -0.513 135 104 112
0.39146 -0.151647 -0.529 183 123 122
0.404033 -0.151073 -0.527 124 73 69
0.425789 -0.154227 -0.538 157 106 103
0.439863 -0.155947 -0.544 154 103 100
0.444372 -0.156807 -0.547 147 96 93
0.454043 -0.1591 -0.555 163 112 108
0.26327 -0.162466 -0.563 78 58 67
0.280063 -0.161023 -0.558 111 113 128
0.285995 -0.159003 -0.551 116 115 129
0.28519 -0.152943 -0.53 148 118 126
0.29763 -0.152077 -0.527 136 107 112
0.3015 -0.1515 -0.525 136 107 112
0.308321 -0.150923 -0.523 138 107 113
0.316073 -0.150346 -0.521 138 107 112
0.33924 -0.148326 -0.514 136 107 112
0.342489 -0.148037 -0.513 136 105 111
0.343771 -0.147749 -0.512 133 102 108
0.396253 -0.151789 -0.526 173 113 112
0.267357 -0.171671 -0.591 92 76 86
0.262197 -0.163538 -0.563 81 62 68
0.274176 -0.162376 -0.559 136 124 138
0.279561 -0.161795 -0.557 119 122 141
0.281177 -0.161505 -0.556 170 175 194
0.2849 -0.156567 -0.539 136 113 123
0.290149 -0.153371 -0.528 136 106 114
0.293166 -0.153371 -0.528 138 108 116
0.297065 -0.15279 -0.526 138 109 114
0.298067 -0.15279 -0.526 138 109 114
0.305332 -0.151919 -0.523 137 108 113
0.30972 -0.151629 -0.522 138 109 114
0.351283 -0.149014 -0.513 136 105 113
0.363111 -0.151919 -0.523 45 26 32
0.410134 -0.154243 -0.531 137 88 84
0.424764 -0.156276 -0.538 144 93 90
0.427838 -0.156276 -0.538 162 111 108
0.266723 -0.163441 -0.559 114 93 98
0.283295 -0.162564 -0.556 221 229 250
0.284946 -0.161102 -0.551 151 149 163
0.311709 -0.152623 -0.522 137 108 113
0.318438 -0.152038 -0.52 139 108 113
0.320791 -0.151746 -0.519 138 105 112
0.328418 -0.151161 -0.517 136 107 112
0.329403 -0.151161 -0.517 137 106 112
0.331372 -0.151161 -0.517 134 107 114
0.334014 -0.150576 -0.515 139 110 115
0.334995 -0.150576 -0.515 137 108 113
0.341511 -0.149991 -0.513 138 105 112
0.394219 -0.154962 -0.53 175 120 117
0.394483 -0.15467 -0.529 180 120 119
0.402265 -0.153792 -0.526 134 83 79
0.278557 -0.163329 -0.555 197 206 221
0.281729 -0.163329 -0.555 203 212 229
0.293614 -0.155089 -0.527 141 110 118
0.296063 -0.154794 -0.526 138 107 115
0.3025 -0.1545 -0.525 140 109 117
0.302922 -0.154206 -0.524 140 111 115
0.309317 -0.153911 -0.523 141 106 113
0.30972 -0.153617 -0.522 135 102 109
0.330388 -0.152146 -0.517 143 113 125
0.342796 -0.150674 -0.512 132 104 116
0.352947 -0.151263 -0.514 119 89 99
0.444828 -0.181574 -0.617 85 59 60
0.447449 -0.182163 -0.619 89 63 64
0.394219 -0.155971 -0.53 177 121 120
0.402265 -0.154794 -0.526 136 80 79
0.282276 -0.16409 -0.554 236 237 255
0.293614 -0.156092 -0.527 139 109 117
0.299069 -0.155796 -0.526 137 106 114
0.312104 -0.154315 -0.521 135 105 113
0.336957 -0.152538 -0.515 128 101 106
0.339557 -0.151946 -0.513 136 105 111
0.341821 -0.15165 -0.512 136 105 113
0.442933 -0.182453 -0.616 86 64 67
0.434571 -0.159943 -0.54 158 109 104
0.259733 -0.166933 -0.56 107 85 97
0.273271 -0.165443 -0.555 210 208 221
0.274329 -0.165443 -0.555 173 180 190
0.278607 -0.164847 -0.553 217 223 235
0.28519 -0.15799 -0.53 132 105 112
0.2862 -0.15799 -0.53 132 105 112
0.289143 -0.157394 -0.528 137 107 115
0.3015 -0.1565 -0.525 137 107 115
0.309317 -0.155904 -0.523 140 107 114
0.316457 -0.15501 -0.52 139 109 117
0.318814 -0.154711 -0.519 141 110 118
0.329053 -0.154413 -0.518 134 112 124
0.345722 -0.152625 -0.512 135 108 113
0.350306 -0.152923 -0.513 138 107 115
0.451063 -0.186011 -0.624 95 69 72
0.393951 -0.158289 -0.531 175 119 118
0.394963 -0.158289 -0.531 175 119 118
0.39549 -0.157692 -0.529 180 119 116
0.404033 -0.157096 -0.527 139 83 82
0.423974 -0.160077 -0.537 140 89 86
0.427838 -0.160375 -0.538 157 106 103
0.457801 -0.166039 -0.557 150 101 97
0.259116 -0.1704 -0.568 68 56 66
0.260334 -0.1677 -0.559 104 80 93
0.288683 -0.1587 -0.529 136 106 114
0.290149 -0.1584 -0.528 138 108 116
0.298067 -0.1578 -0.526 135 105 113
0.299069 -0.1578 -0.526 136 106 114
0.310313 -0.1569 -0.523 140 109 117
0.310714 -0.1566 -0.522 130 99 107
0.311709 -0.1566 -0.522 135 108 117
0.32178 -0.1557 -0.519 137 107 115
0.323757 -0.1557 -0.519 135 104 110
0.332357 -0.1551 -0.517 135 127 140
0.337938 -0.1545 -0.515 132 107 113
0.347672 -0.1536 -0.512 135 106 111
0.3759 -0.1611 -0.537 42 25 33
0.393126 -0.1602 -0.534 154 104 103
0.39368 -0.1596 -0.532 176 120 119
0.396754 -0.1584 -0.528 176 115 110
0.263757 -0.167557 -0.555 243 219 232
0.269127 -0.166953 -0.553 252 250 255
0.275447 -0.166953 -0.553 247 247 249
0.2765 -0.166953 -0.553 255 255 255
0.282847 -0.16635 -0.551 255 253 255
0.282866 -0.16333 -0.541 127 114 121
0.283805 -0.161519 -0.535 142 109 116
0.288683 -0.159708 -0.529 139 108 116
0.290149 -0.159406 -0.528 139 108 116
0.3035 -0.1585 -0.525 140 111 116
0.32178 -0.156689 -0.519 134 104 114
0.336629 -0.155783 -0.516 131 108 114
0.352947 -0.155179 -0.514 86 60 69
0.395229 -0.16001 -0.53 181 121 120
0.396498 -0.159708 -0.529 179 118 115
0.398766 -0.159406 -0.528 171 113 109
0.436407 -0.16333 -0.541 153 102 98
0.45346 -0.166953 -0.553 149 98 95
0.259851 -0.173779 -0.572 45 33 43
0.263282 -0.16831 -0.554 163 141 154
0.264913 -0.168007 -0.553 224 204 216
0.282362 -0.165272 -0.544 221 218 225
0.282356 -0.164665 -0.542 169 156 163
0.29216 -0.160411 -0.528 136 106 114
0.299069 -0.159804 -0.526 136 106 114
0.306329 -0.158892 -0.523 138 105 114
0.307325 -0.158892 -0.523 139 106 115
0.310714 -0.158589 -0.522 136 104 115
0.324746 -0.157677 -0.519 135 108 117
0.350306 -0.155854 -0.513 138 108 118
0.393405 -0.16193 -0.533 165 117 117
0.394963 -0.161323 -0.531 175 121 121
0.4356 -0.164057 -0.54 150 101 96
0.264434 -0.168754 -0.552 255 243 255
0.26864 -0.168754 -0.552 251 249 252
0.302074 -0.160806 -0.526 139 108 116
0.304918 -0.160194 -0.524 138 108 116
0.324746 -0.158666 -0.519 138 108 120
0.341198 -0.157137 -0.514 134 109 115
0.404033 -0.161111 -0.527 150 96 96
0.412933 -0.16264 -0.532 139 83 82
0.429089 -0.164169 -0.537 160 109 105
0.43274 -0.16478 -0.539 159 108 104
0.434571 -0.165086 -0.54 154 105 100
0.446456 -0.167226 -0.547 146 97 93
0.458038 -0.169977 -0.556 148 100 96
0.263955 -0.169498 -0.551 255 248 255
0.283759 -0.163961 -0.533 138 107 115
0.2862 -0.163038 -0.53 137 108 113
0.296063 -0.161808 -0.526 143 113 121
0.3025 -0.1615 -0.525 140 110 118
0.314089 -0.16027 -0.521 159 133 142
0.331027 -0.159347 -0.518 233 231 242
0.335311 -0.159039 -0.517 230 222 237
0.337611 -0.158731 -0.516 187 171 181
0.342796 -0.157501 -0.512 132 109 117
0.454438 -0.194415 -0.632 97 66 74
0.394457 -0.166114 -0.54 98 70 69
0.422951 -0.165191 -0.537 141 85 84
0.429888 -0.165499 -0.538 163 110 106
0.433767 -0.165807 -0.539 156 107 102
0.256075 -0.173024 -0.559 18 6 18
0.2607 -0.171167 -0.553 198 180 196
0.263476 -0.170238 -0.55 255 245 255
0.279219 -0.169619 -0.548 201 208 224
0.28969 -0.163738 -0.529 133 110 120
0.2995 -0.1625 -0.525 110 97 104
0.33004 -0.160333 -0.518 230 221 238
0.332357 -0.160024 -0.517 228 222 234
0.341511 -0.158786 -0.513 138 111 116
0.343771 -0.158476 -0.512 105 83 86
0.345722 -0.158476 -0.512 136 111 117
0.398513 -0.163738 -0.529 165 115 106
0.443786 -0.16869 -0.545 140 91 87
0.256075 -0.174089 -0.559 34 22 34
0.26128 -0.171909 -0.552 255 248 255
0.296063 -0.163811 -0.526 96 86 95
0.317066 -0.162254 -0.521 187 164 174
0.331027 -0.16132 -0.518 234 225 242
0.331372 -0.161009 -0.517 227 223 237
0.333342 -0.161009 -0.517 229 221 236
0.436629 -0.168171 -0.54 154 105 100
0.45018 -0.170974 -0.549 153 104 99
0.256819 -0.174213 -0.556 153 135 151
0.261381 -0.172333 -0.55 235 214 229
0.262429 -0.172333 -0.55 187 167 179
0.270869 -0.171707 -0.548 80 94 97
0.276088 -0.171707 -0.548 197 220 226
0.28124 -0.16732 -0.534 136 115 122
0.283706 -0.16638 -0.531 132 112 114
0.305916 -0.164187 -0.524 125 110 117
0.316457 -0.162933 -0.52 155 132 142
0.328067 -0.162307 -0.518 225 221 235
0.33004 -0.162307 -0.518 232 225 243
0.334327 -0.161993 -0.517 228 221 237
0.40303 -0.165127 -0.527 147 93 91
0.409362 -0.166067 -0.53 136 82 82
0.42602 -0.16826 -0.537 156 105 102
0.44031 -0.169827 -0.542 142 93 89
0.457446 -0.173587 -0.554 151 103 99
0.464533 -0.175467 -0.56 152 104 100
0.259214 -0.180631 -0.573 29 20 21
0.266693 -0.17275 -0.548 135 113 125
0.276626 -0.172435 -0.547 108 128 137
0.27924 -0.17212 -0.546 192 204 218
0.299069 -0.165815 -0.526 191 193 208
0.3005 -0.1655 -0.525 170 172 187
0.311709 -0.164554 -0.522 133 105 117
0.316073 -0.164239 -0.521 225 206 225
0.322147 -0.163293 -0.518 136 104 115
0.332357 -0.162978 -0.517 224 222 236
0.347374 -0.161717 -0.513 135 112 118
0.396986 -0.167391 -0.531 175 126 121
0.43582 -0.169913 -0.539 155 106 101
0.453919 -0.173696 -0.551 153 105 101
0.25758 -0.17982 -0.567 56 41 44
0.255467 -0.1776 -0.56 27 12 15
0.259757 -0.174746 -0.551 138 118 130
0.263562 -0.173794 -0.548 161 144 154
0.274542 -0.173477 -0.547 51 75 79
0.28124 -0.169354 -0.534 130 107 113
0.282257 -0.169354 -0.534 130 107 113
0.294618 -0.167134 -0.527 83 96 105
0.295622 -0.167134 -0.527 123 140 150
0.309317 -0.165866 -0.523 133 106 113
0.336957 -0.163329 -0.515 224 220 235
0.405806 -0.167451 -0.528 138 82 83
0.423414 -0.169671 -0.535 145 92 88
0.453095 -0.174429 -0.55 156 108 104
-0.131654 -0.207062 -0.649 196 193 186
0.265165 -0.174519 -0.547 131 115 125
0.27404 -0.1742 -0.546 58 72 75
0.289143 -0.168457 -0.528 131 111 113
0.290149 -0.168457 -0.528 113 103 111
0.295061 -0.167819 -0.526 144 160 173
0.308321 -0.166862 -0.523 132 111 118
0.31905 -0.166224 -0.521 135 112 122
0.32141 -0.165905 -0.52 134 107 116
0.327433 -0.164948 -0.517 226 224 237
0.340534 -0.163671 -0.513 130 117 127
0.394881 -0.17069 -0.535 140 102 101
0.411381 -0.169095 -0.53 136 80 79
0.427269 -0.17101 -0.536 170 117 111
0.451448 -0.174838 -0.548 154 106 102
-0.141762 -0.208619 -0.65 185 184 179
0.255559 -0.176845 -0.551 63 43 52
0.257769 -0.176203 -0.549 181 160 169
0.258343 -0.175882 -0.548 141 120 129
0.27092 -0.17524 -0.546 110 97 106
0.280713 -0.171068 -0.533 134 109 113
0.283171 -0.170105 -0.53 134 112 115
0.290149 -0.169463 -0.528 107 106 114
0.290603 -0.169142 -0.527 100 99 107
0.293057 -0.168821 -0.526 125 137 153
0.304918 -0.168179 -0.524 219 221 234
0.315081 -0.167216 -0.521 203 178 197
0.316073 -0.167216 -0.521 210 185 204
0.33924 -0.16497 -0.514 227 221 231
0.340534 -0.164649 -0.513 134 117 127
0.34542 -0.164649 -0.513 130 109 116
0.357753 -0.167216 -0.521 47 30 38
0.398257 -0.170105 -0.53 173 120 116
0.42749 -0.17171 -0.535 169 116 110
-0.140308 -0.209534 -0.649 191 188 181
0.26731 -0.175957 -0.545 113 97 107
0.269386 -0.175957 -0.545 108 93 100
0.278229 -0.174343 -0.54 101 93 104
0.278729 -0.173374 -0.537 129 113 124
0.2812 -0.17176 -0.532 135 108 113
0.286126 -0.170469 -0.528 131 112 114
0.29261 -0.170146 -0.527 147 160 176
0.299069 -0.169823 -0.526 152 166 175
0.3055 -0.1695 -0.525 212 215 232
0.309317 -0.168854 -0.523 105 95 103
0.310313 -0.168854 -0.523 109 92 98
0.310714 -0.168531 -0.522 122 105 111
0.313697 -0.168531 -0.522 226 202 218
0.323133 -0.16724 -0.518 139 107 120
0.330388 -0.166917 -0.517 229 222 238
0.33924 -0.165949 -0.514 223 213 224
0.348051 -0.165949 -0.514 130 109 114
0.356076 -0.167886 -0.52 54 37 45
0.359127 -0.168854 -0.523 50 33 41
0.39811 -0.175957 -0.545 81 62 66
0.400276 -0.171114 -0.53 159 108 104
0.410605 -0.170791 -0.529 136 82 82
0.415191 -0.171437 -0.531 141 87 85
0.420589 -0.172406 -0.534 135 84 81
0.42931 -0.173051 -0.536 161 112 105
0.436036 -0.173697 -0.538 152 103 98
0.447938 -0.175957 -0.545 160 113 107
0.457068 -0.177894 -0.551 161 114 108
-0.130619 -0.211095 -0.65 197 194 187
0.257967 -0.176995 -0.545 147 120 129
0.26371 -0.17667 -0.544 169 143 152
0.274603 -0.176346 -0.543 117 97 108
0.294059 -0.170825 -0.526 165 172 190
0.320419 -0.168876 -0.52 133 107 120
0.32178 -0.168551 -0.519 132 108 121
0.400529 -0.171799 -0.529 159 105 103
0.402789 -0.171474 -0.528 147 92 89
0.407582 -0.171799 -0.529 140 84 87
0.464167 -0.180892 -0.557 145 97 95
-0.141108 -0.211353 -0.647 192 189 182
-0.135154 -0.21168 -0.648 195 192 185
0.256929 -0.178033 -0.545 129 99 109
0.261157 -0.17738 -0.543 131 104 111
0.267363 -0.17738 -0.543 131 105 114
0.268397 -0.17738 -0.543 122 99 107
0.27513 -0.177053 -0.542 109 88 97
0.27966 -0.17346 -0.531 133 112 117
0.294059 -0.171827 -0.526 165 172 190
0.3045 -0.1715 -0.525 171 178 188
0.318058 -0.170193 -0.521 140 108 121
0.340846 -0.167253 -0.512 121 100 105
0.344443 -0.16758 -0.513 131 110 115
0.396514 -0.1764 -0.54 92 71 78
0.397938 -0.174767 -0.535 159 113 113
0.400529 -0.172807 -0.529 155 101 101
0.4134 -0.173133 -0.53 138 84 82
0.44444 -0.177053 -0.542 152 104 100
-0.147497 -0.212914 -0.648 187 184 177
0.251494 -0.180386 -0.549 129 99 111
0.25208 -0.180057 -0.548 130 100 112
0.27769 -0.175786 -0.535 137 114 122
0.279173 -0.1748 -0.532 131 110 115
0.28512 -0.173486 -0.528 132 111 116
0.286126 -0.173486 -0.528 132 112 114
0.288595 -0.173157 -0.527 96 84 94
0.309317 -0.171843 -0.523 133 127 137
0.32178 -0.170529 -0.519 130 108 121
0.322147 -0.1702 -0.518 129 109 120
0.327433 -0.169871 -0.517 233 225 236
0.33368 -0.169543 -0.516 232 224 237
0.342796 -0.168229 -0.512 106 85 90
0.346397 -0.168557 -0.513 133 110 118
0.397983 -0.178086 -0.542 88 69 75
0.397938 -0.175786 -0.535 157 111 111
0.398211 -0.175457 -0.534 167 116 112
0.400529 -0.173814 -0.529 152 98 98
0.403551 -0.173814 -0.529 143 87 88
0.421831 -0.175129 -0.533 142 88 86
0.438086 -0.176771 -0.538 151 101 94
0.463557 -0.182357 -0.555 153 100 96
-0.136178 -0.213818 -0.647 192 192 184
0.269968 -0.179118 -0.542 140 113 122
0.276671 -0.176805 -0.535 122 99 107
0.279173 -0.175813 -0.532 134 111 117
0.27966 -0.175483 -0.531 134 111 117
0.281152 -0.175152 -0.53 133 110 116
0.293614 -0.174161 -0.527 187 190 207
0.310714 -0.172509 -0.522 130 109 124
0.315081 -0.172178 -0.521 208 191 201
0.32412 -0.171187 -0.518 142 122 134
0.326449 -0.170856 -0.517 226 210 221
0.336957 -0.170195 -0.515 154 137 147
0.396357 -0.177466 -0.537 132 97 101
0.398747 -0.175813 -0.532 169 120 115
0.407582 -0.174822 -0.529 145 91 89
0.409597 -0.174822 -0.529 141 87 85
0.415419 -0.175152 -0.53 145 91 89
0.427709 -0.176474 -0.534 171 116 111
0.430548 -0.176805 -0.535 163 110 104
0.447329 -0.179449 -0.543 149 98 94
-0.1512 -0.215383 -0.648 187 184 177
-0.136389 -0.215383 -0.648 192 192 184
0.252662 -0.181812 -0.547 130 99 107
0.255421 -0.180815 -0.544 131 100 106
0.262256 -0.179818 -0.541 132 101 109
0.283645 -0.17583 -0.529 133 110 116
0.289143 -0.175497 -0.528 153 148 155
0.293614 -0.175165 -0.527 188 191 208
0.299069 -0.174832 -0.526 163 167 176
0.3065 -0.1745 -0.525 186 182 196
0.315467 -0.172838 -0.52 139 119 130
0.332697 -0.171509 -0.516 130 110 119
0.340846 -0.170179 -0.512 132 111 118
0.347374 -0.170511 -0.513 132 111 118
0.398211 -0.177491 -0.534 167 116 112
0.435436 -0.178156 -0.536 152 99 95
0.43911 -0.178821 -0.538 151 98 94
-0.150733 -0.215949 -0.646 187 184 177
-0.147813 -0.21528 -0.644 187 184 177
-0.146587 -0.21528 -0.644 189 186 179
0.266914 -0.180514 -0.54 132 101 109
0.274124 -0.179846 -0.538 139 112 119
0.284114 -0.176503 -0.528 135 110 114
0.302074 -0.175834 -0.526 226 224 237
0.315081 -0.174163 -0.521 198 176 188
0.316457 -0.173829 -0.52 135 109 122
0.322147 -0.17316 -0.518 131 107 120
0.326093 -0.17316 -0.518 133 110 120
0.354403 -0.173494 -0.519 57 42 49
0.399229 -0.178509 -0.534 169 118 114
0.40002 -0.177506 -0.531 166 117 112
0.456667 -0.183189 -0.548 155 104 101
-0.139659 -0.217179 -0.646 191 191 183
0.248949 -0.184232 -0.548 131 98 105
0.25024 -0.182888 -0.544 130 99 105
0.253917 -0.182551 -0.543 132 101 106
0.256073 -0.181879 -0.541 130 99 104
0.275652 -0.179862 -0.535 137 107 115
0.286126 -0.177509 -0.528 137 110 115
0.286588 -0.177172 -0.527 135 108 113
0.288595 -0.177172 -0.527 106 104 109
0.341821 -0.17213 -0.512 132 110 122
0.34971 -0.173138 -0.515 127 107 116
0.39812 -0.18087 -0.538 147 102 99
0.399496 -0.17919 -0.533 167 119 109
0.401286 -0.178181 -0.53 155 101 99
0.402544 -0.177845 -0.529 150 94 93
0.403551 -0.177845 -0.529 151 95 94
0.405567 -0.177845 -0.529 144 94 87
0.41262 -0.177845 -0.529 142 91 88
0.417214 -0.178517 -0.531 137 86 83
0.42126 -0.178517 -0.531 139 88 85
0.456667 -0.184232 -0.548 155 104 101
0.468189 -0.187594 -0.558 157 103 101
-0.15272 -0.217733 -0.644 185 182 175
-0.147354 -0.217057 -0.642 186 186 178
0.252417 -0.183248 -0.542 131 99 104
0.26334 -0.182233 -0.539 130 98 103
0.265393 -0.182233 -0.539 133 101 106
0.269 -0.181895 -0.538 132 103 108
0.270546 -0.181557 -0.537 132 103 108
0.288595 -0.178176 -0.527 106 104 109
0.289599 -0.178176 -0.527 89 98 103
0.297065 -0.177838 -0.526 210 213 222
0.3025 -0.1775 -0.525 224 224 236
0.304918 -0.177162 -0.524 232 232 244
0.310714 -0.176486 -0.522 123 111 123
0.317826 -0.175471 -0.519 132 109 117
0.340846 -0.173105 -0.512 132 108 121
0.40017 -0.181895 -0.538 154 108 108
0.411612 -0.178852 -0.529 134 83 80
0.43076 -0.180543 -0.534 164 111 103
0.455833 -0.184938 -0.547 157 108 103
-0.155414 -0.2193 -0.645 182 182 174
0.26026 -0.18326 -0.539 136 101 105
0.265926 -0.18292 -0.538 130 99 104
0.270546 -0.18258 -0.537 133 104 109
0.271569 -0.18258 -0.537 132 105 110
0.276133 -0.18088 -0.532 136 109 116
0.282103 -0.17952 -0.528 140 111 115
0.286588 -0.17918 -0.527 141 112 116
0.30392 -0.17816 -0.524 206 204 217
0.331071 -0.1751 -0.515 127 104 112
0.399496 -0.18122 -0.533 166 117 110
0.40859 -0.17986 -0.529 144 90 88
0.423283 -0.18054 -0.531 170 121 114
-0.156643 -0.220529 -0.645 182 182 174
-0.153708 -0.219845 -0.643 182 181 176
0.254012 -0.18497 -0.541 129 96 103
0.267477 -0.183603 -0.537 135 104 110
0.286126 -0.180526 -0.528 137 110 115
0.289599 -0.180184 -0.527 91 112 115
0.29261 -0.180184 -0.527 168 188 197
0.402295 -0.18121 -0.53 159 104 101
0.410605 -0.180868 -0.529 134 83 79
0.41262 -0.180868 -0.529 137 87 80
0.428938 -0.182235 -0.533 160 107 99
0.446711 -0.18497 -0.541 147 94 88
-0.153469 -0.220726 -0.642 183 182 177
0.248957 -0.190814 -0.555 127 100 105
0.258752 -0.18497 -0.538 130 101 105
0.263386 -0.184626 -0.537 131 102 106
0.278124 -0.182219 -0.53 140 111 116
0.283645 -0.181875 -0.529 137 110 115
0.284114 -0.181531 -0.528 137 110 115
0.287131 -0.181531 -0.528 137 110 115
0.32116 -0.178093 -0.518 133 107 116
0.32412 -0.178093 -0.518 133 107 116
0.330731 -0.177406 -0.516 134 107 112
0.352733 -0.178093 -0.518 65 52 61
0.403305 -0.182219 -0.53 156 101 98
0.417438 -0.182219 -0.53 142 92 85
0.423283 -0.182563 -0.531 169 119 112
0.428938 -0.18325 -0.533 160 107 101
0.439317 -0.184626 -0.537 149 96 90
-0.157382 -0.222294 -0.643 183 180 173
-0.140308 -0.224369 -0.649 193 190 185
0.25129 -0.195329 -0.565 129 96 103
0.248168 -0.188069 -0.544 131 98 105
0.27512 -0.18392 -0.532 139 109 117
0.277114 -0.183229 -0.53 138 109 114
0.304918 -0.181154 -0.524 189 195 207
0.308726 -0.180463 -0.522 124 112 122
0.32116 -0.17908 -0.518 133 107 116
0.326449 -0.178734 -0.517 132 106 115
0.3268 -0.178389 -0.516 132 105 112
0.328766 -0.178389 -0.516 132 105 112
0.33924 -0.177697 -0.514 134 107 114
0.351068 -0.178734 -0.517 104 83 88
0.401031 -0.183574 -0.531 166 116 107
0.402043 -0.183574 -0.531 168 113 110
0.409597 -0.182883 -0.529 145 92 88
0.411612 -0.182883 -0.529 142 89 85
0.432794 -0.184611 -0.534 159 106 100
0.439317 -0.185649 -0.537 150 97 91
0.44034 -0.185649 -0.537 150 97 91
0.457917 -0.189106 -0.547 157 107 100
-0.155671 -0.222824 -0.641 185 182 175
0.249204 -0.189105 -0.544 131 98 105
0.250352 -0.18841 -0.542 131 98 105
0.256153 -0.187367 -0.539 131 98 105
0.260802 -0.187019 -0.538 132 101 106
0.269538 -0.185976 -0.535 132 101 107
0.278124 -0.184238 -0.53 140 111 116
0.283645 -0.18389 -0.529 137 110 115
0.29261 -0.183195 -0.527 96 107 113
0.299069 -0.182848 -0.526 123 130 140
0.30007 -0.182848 -0.526 123 130 140
0.3035 -0.1825 -0.525 160 165 169
0.312104 -0.18111 -0.521 185 172 182
0.401787 -0.184933 -0.532 168 118 111
0.402043 -0.184586 -0.531 169 113 112
0.403551 -0.18389 -0.529 158 104 102
0.425306 -0.184586 -0.531 148 95 91
0.430969 -0.185281 -0.533 158 105 99
0.442185 -0.187019 -0.538 153 100 96
0.448772 -0.188062 -0.541 142 89 83
0.453333 -0.189105 -0.544 149 94 87
-0.147354 -0.224394 -0.642 186 186 178
0.250401 -0.196782 -0.563 126 95 100
0.263386 -0.187694 -0.537 132 101 107
0.269021 -0.187345 -0.536 132 101 109
0.28163 -0.184898 -0.529 141 112 117
0.295061 -0.18385 -0.526 167 177 187
0.328766 -0.180354 -0.516 133 106 115
0.329749 -0.180354 -0.516 133 106 115
0.333366 -0.179655 -0.514 134 108 117
0.351068 -0.180704 -0.517 85 66 72
0.356451 -0.182451 -0.522 72 61 69
0.402043 -0.185597 -0.531 167 113 111
0.420467 -0.185248 -0.53 149 99 90
0.424294 -0.185597 -0.531 150 100 91
-0.148577 -0.225617 -0.642 187 187 179
-0.146359 -0.225969 -0.643 191 188 181
-0.14536 -0.22632 -0.644 189 189 181
-0.140524 -0.228429 -0.65 191 191 183
0.252982 -0.190123 -0.541 131 98 105
0.259777 -0.189069 -0.538 133 100 107
0.260802 -0.189069 -0.538 132 99 106
0.278649 -0.186609 -0.531 140 110 118
0.296063 -0.184851 -0.526 177 185 198
0.307731 -0.183446 -0.522 133 111 123
0.311111 -0.183094 -0.521 215 203 213
0.320173 -0.18204 -0.518 135 109 118
0.325464 -0.181689 -0.517 131 105 114
0.336303 -0.180634 -0.514 130 104 113
0.354776 -0.183094 -0.521 55 45 54
0.40859 -0.185906 -0.529 154 101 95
0.423283 -0.186609 -0.531 147 97 88
0.444234 -0.189069 -0.538 144 91 87
0.453534 -0.190826 -0.543 148 94 92
0.468207 -0.19434 -0.553 158 109 105
-0.162029 -0.22684 -0.642 182 179 174
-0.160806 -0.22684 -0.642 182 179 174
-0.159334 -0.226487 -0.641 182 181 176
-0.157867 -0.226133 -0.64 182 181 176
-0.156403 -0.22578 -0.639 182 181 176
-0.146587 -0.227547 -0.644 190 190 182
-0.141544 -0.229313 -0.649 191 188 179
0.251385 -0.191507 -0.542 132 99 106
0.255127 -0.190447 -0.539 130 97 104
0.256153 -0.190447 -0.539 131 98 105
0.25718 -0.190447 -0.539 132 99 106
0.273607 -0.188327 -0.533 135 104 112
0.27512 -0.187973 -0.532 141 110 118
0.277637 -0.18762 -0.531 142 112 120
0.3025 -0.1855 -0.525 189 193 204
0.30392 -0.185147 -0.524 178 173 180
0.304918 -0.185147 -0.524 155 143 157
0.305332 -0.184793 -0.523 149 137 151
0.323494 -0.182673 -0.517 133 106 113
0.327783 -0.18232 -0.516 133 106 113
0.342489 -0.18126 -0.513 132 109 117
0.400995 -0.189033 -0.535 167 114 108
0.405567 -0.186913 -0.529 158 107 106
0.406574 -0.186913 -0.529 160 107 101
0.420249 -0.18762 -0.531 158 105 97
0.437681 -0.189033 -0.535 156 103 99
0.4387 -0.189033 -0.535 154 101 97
-0.160305 -0.227352 -0.64 184 181 176
-0.140524 -0.230905 -0.65 192 189 180
0.265958 -0.190408 -0.536 131 100 106
0.272086 -0.189697 -0.534 133 102 110
0.279133 -0.188276 -0.53 141 111 119
0.290603 -0.18721 -0.527 142 111 116
0.293614 -0.18721 -0.527 121 114 122
0.306737 -0.185434 -0.522 134 107 122
0.308726 -0.185434 -0.522 134 104 116
0.310119 -0.185079 -0.521 129 108 115
0.327148 -0.182948 -0.515 134 105 110
0.336303 -0.182592 -0.514 131 105 114
0.341511 -0.182237 -0.513 167 147 156
0.345114 -0.182592 -0.514 134 113 122
0.403054 -0.188631 -0.531 172 116 115
0.404066 -0.188631 -0.531 168 112 111
0.41441 -0.188276 -0.53 149 94 89
0.418448 -0.188276 -0.53 160 107 99
0.445259 -0.191118 -0.538 140 86 86
0.454569 -0.192894 -0.543 142 97 94
-0.157373 -0.227857 -0.638 183 183 175
-0.156158 -0.227857 -0.638 184 184 176
0.254012 -0.193214 -0.541 129 98 106
0.25718 -0.1925 -0.539 131 100 106
0.265958 -0.191429 -0.536 132 99 106
0.279133 -0.189286 -0.53 140 113 120
0.283109 -0.188571 -0.528 138 111 120
0.295061 -0.187857 -0.526 149 136 146
0.2955 -0.1875 -0.525 184 171 181
0.2965 -0.1875 -0.525 180 175 182
0.30392 -0.187143 -0.524 147 124 132
0.306737 -0.186429 -0.522 133 110 120
0.313486 -0.185714 -0.52 137 117 126
0.323133 -0.185 -0.518 138 108 116
0.324479 -0.184643 -0.517 134 104 112
0.328129 -0.183929 -0.515 136 106 114
0.335324 -0.183571 -0.514 133 108 114
0.354776 -0.186071 -0.521 63 55 66
0.403596 -0.194286 -0.544 146 107 110
0.411381 -0.189286 -0.53 139 88 84
0.41441 -0.189286 -0.53 150 97 91
-0.165955 -0.230868 -0.643 179 179 171
0.266454 -0.192809 -0.537 133 100 107
0.280143 -0.190295 -0.53 141 114 121
0.30334 -0.187782 -0.523 136 110 119
0.304336 -0.187782 -0.523 136 110 121
0.306737 -0.187423 -0.522 135 109 120
0.312104 -0.187064 -0.521 221 204 212
0.317826 -0.186346 -0.519 139 109 117
0.323133 -0.185987 -0.518 138 108 116
0.324834 -0.185269 -0.516 134 104 112
0.334345 -0.18455 -0.514 134 107 116
0.339557 -0.184191 -0.513 141 124 132
0.349406 -0.185269 -0.516 93 80 89
0.417438 -0.190295 -0.53 149 98 94
0.42126 -0.190654 -0.531 147 94 88
0.423283 -0.190654 -0.531 139 86 80
0.427329 -0.190654 -0.531 151 98 92
0.42834 -0.190654 -0.531 147 94 88
0.475629 -0.200349 -0.558 141 93 91
-0.163962 -0.23101 -0.64 183 180 175
0.266979 -0.19347 -0.536 131 100 106
0.270051 -0.192749 -0.534 135 104 112
0.292055 -0.189861 -0.526 135 112 120
0.324479 -0.186612 -0.517 136 106 114
0.331408 -0.18553 -0.514 134 104 114
0.40612 -0.19708 -0.546 143 103 104
0.403557 -0.192388 -0.533 171 117 115
0.4071 -0.191666 -0.531 157 102 99
0.425093 -0.192027 -0.532 147 94 88
0.4332 -0.192027 -0.532 159 108 104
0.442583 -0.19347 -0.536 142 91 87
-0.16666 -0.232591 -0.641 177 177 169
-0.159553 -0.23114 -0.637 183 180 173
-0.152009 -0.232591 -0.641 185 185 175
0.261827 -0.195217 -0.538 131 100 105
0.266979 -0.194491 -0.536 132 99 106
0.278124 -0.192314 -0.53 146 116 124
0.280143 -0.192314 -0.53 144 114 122
0.286588 -0.191226 -0.527 136 110 119
0.309524 -0.188686 -0.52 188 171 179
0.320173 -0.18796 -0.518 138 108 118
0.325817 -0.187234 -0.516 136 106 114
0.33009 -0.186871 -0.515 134 107 116
0.341511 -0.186146 -0.513 140 119 128
0.347748 -0.186871 -0.515 126 100 109
0.404827 -0.19304 -0.532 166 112 110
0.411381 -0.192314 -0.53 152 99 95
0.429351 -0.192677 -0.531 147 94 90
0.469463 -0.200297 -0.552 145 97 95
-0.3053 -0.235271 -0.645 252 253 245
-0.300386 -0.235271 -0.645 251 252 246
0.251385 -0.197701 -0.542 129 97 102
0.259233 -0.196607 -0.539 133 101 106
0.265431 -0.195877 -0.537 134 101 108
0.268519 -0.195148 -0.535 134 101 108
0.277637 -0.193689 -0.531 126 93 102
0.287591 -0.19223 -0.527 136 108 120
0.324834 -0.188217 -0.516 138 108 116
0.325817 -0.188217 -0.516 137 107 115
0.330429 -0.187488 -0.514 133 106 115
0.334671 -0.187123 -0.513 130 107 115
0.341511 -0.187123 -0.513 126 105 112
0.409362 -0.193324 -0.53 157 104 98
0.422271 -0.193689 -0.531 150 97 91
0.434213 -0.194053 -0.532 156 105 101
0.444625 -0.195512 -0.536 144 94 87
-0.301904 -0.235767 -0.643 254 255 249
-0.295013 -0.236133 -0.644 251 254 247
-0.169976 -0.237967 -0.649 181 178 171
-0.160262 -0.232833 -0.635 184 181 174
-0.151023 -0.2354 -0.642 187 187 177
-0.14904 -0.236133 -0.644 187 187 177
0.24596 -0.2002 -0.546 126 94 99
0.247586 -0.199833 -0.545 127 95 100
0.248168 -0.199467 -0.544 128 96 101
0.25345 -0.198733 -0.542 129 96 103
0.26334 -0.197633 -0.539 132 100 105
0.270051 -0.1958 -0.534 134 103 111
0.302344 -0.191767 -0.523 141 113 125
0.305743 -0.1914 -0.522 145 115 127
0.307142 -0.191033 -0.521 135 112 122
0.320173 -0.189933 -0.518 140 110 120
0.344135 -0.188467 -0.514 134 106 118
0.345114 -0.188467 -0.514 133 105 117
0.410371 -0.194333 -0.53 154 101 95
0.422271 -0.1947 -0.531 144 91 83
0.437253 -0.195067 -0.532 151 100 96
0.463127 -0.200567 -0.547 144 96 94
-0.155913 -0.23478 -0.637 184 184 174
0.262313 -0.19866 -0.539 133 101 106
0.297931 -0.193131 -0.524 138 108 120
0.313871 -0.191289 -0.519 140 108 123
0.32251 -0.190551 -0.517 142 112 122
0.33858 -0.189077 -0.513 224 207 215
0.408048 -0.202714 -0.55 143 94 100
0.411381 -0.195343 -0.53 149 96 90
0.430562 -0.195343 -0.53 160 107 101
0.459551 -0.200503 -0.544 149 100 96
0.466911 -0.202346 -0.549 144 96 94
-0.307329 -0.236734 -0.639 249 250 244
-0.306111 -0.236734 -0.639 239 240 234
-0.296081 -0.237475 -0.641 183 184 179
-0.286178 -0.240439 -0.649 250 251 245
-0.285381 -0.24081 -0.65 254 255 249
-0.16614 -0.236734 -0.639 183 180 171
-0.161217 -0.234882 -0.634 182 182 172
-0.160262 -0.235252 -0.635 183 183 173
-0.154943 -0.236364 -0.638 184 184 172
0.264937 -0.198575 -0.536 133 100 107
0.272591 -0.197464 -0.533 134 103 111
0.276626 -0.196723 -0.531 132 101 109
0.310514 -0.192648 -0.52 184 163 172
0.31486 -0.192277 -0.519 137 105 120
0.328129 -0.190795 -0.515 137 107 119
0.341511 -0.190054 -0.513 133 110 120
0.408352 -0.196352 -0.53 155 104 100
0.415419 -0.196352 -0.53 134 81 75
0.430562 -0.196352 -0.53 162 109 103
0.43928 -0.197093 -0.532 145 94 90
-0.159052 -0.236462 -0.635 183 183 173
-0.151258 -0.239441 -0.643 186 186 176
0.149066 -0.196245 -0.527 195 137 136
0.151073 -0.196245 -0.527 184 129 126
0.162234 -0.198851 -0.534 164 105 109
0.246671 -0.207416 -0.557 125 93 98
0.24522 -0.204437 -0.549 131 90 96
0.260802 -0.200341 -0.538 131 100 105
0.264409 -0.199969 -0.537 131 100 106
0.307142 -0.19401 -0.521 134 108 121
0.308134 -0.19401 -0.521 190 164 177
0.308533 -0.193638 -0.52 195 175 186
0.319187 -0.192893 -0.518 139 109 119
0.330429 -0.191404 -0.514 134 106 118
0.335324 -0.191404 -0.514 142 119 129
0.405077 -0.197734 -0.531 166 112 110
0.407343 -0.197362 -0.53 159 106 100
0.427533 -0.197362 -0.53 150 97 91
0.47433 -0.206299 -0.554 138 93 90
-0.319547 -0.24104 -0.644 252 253 247
-0.299556 -0.238794 -0.638 144 145 139
0.144129 -0.198746 -0.531 204 144 144
0.250352 -0.202863 -0.542 129 94 100
0.25345 -0.202863 -0.542 130 95 101
0.261287 -0.20174 -0.539 132 99 106
0.264409 -0.200991 -0.537 131 100 106
0.274622 -0.199494 -0.533 134 104 112
0.277637 -0.198746 -0.531 131 101 109
0.280143 -0.198371 -0.53 142 112 120
0.288595 -0.197249 -0.527 141 109 120
0.2945 -0.1965 -0.525 144 112 123
0.326167 -0.192757 -0.515 138 108 120
0.32911 -0.192757 -0.515 139 109 121
0.342489 -0.192009 -0.513 135 112 122
0.365663 -0.199869 -0.534 79 71 86
0.408352 -0.198371 -0.53 162 109 105
0.41441 -0.198371 -0.53 144 89 84
0.415419 -0.198371 -0.53 140 85 80
0.442136 -0.199494 -0.533 143 94 89
0.466252 -0.204734 -0.547 143 99 96
-0.3003 -0.239633 -0.637 146 147 141
-0.28247 -0.244148 -0.649 252 253 248
-0.167357 -0.240386 -0.639 184 181 172
-0.159303 -0.239257 -0.636 186 183 174
-0.155429 -0.240762 -0.64 186 183 174
0.154206 -0.197124 -0.524 161 107 105
0.19812 -0.2054 -0.546 179 128 125
0.201977 -0.206152 -0.548 175 124 123
0.247131 -0.204648 -0.544 128 92 96
0.256073 -0.203519 -0.541 130 98 103
0.268519 -0.201262 -0.535 134 103 111
0.270051 -0.200886 -0.534 136 105 113
0.280143 -0.199381 -0.53 142 110 121
0.284114 -0.198629 -0.528 137 105 118
0.293057 -0.197876 -0.526 142 110 121
0.326167 -0.193738 -0.515 135 107 119
0.404052 -0.201262 -0.535 172 117 112
0.415419 -0.199381 -0.53 141 86 81
0.422271 -0.199757 -0.531 150 95 88
