ply
format ascii 1.0
comment Created by Open3D
element vertex 1290
property double x
property double y
property double z
property uchar red
property uchar green
property uchar blue
end_header
0.495647 -0.36946 -0.637 159 162 171
0.510617 -0.36888 -0.636 54 78 138
0.465754 -0.31204 -0.538 165 112 94
0.46636 -0.30972 -0.534 175 117 97
0.469047 -0.30682 -0.529 185 129 104
0.475592 -0.30392 -0.524 189 133 106
0.486703 -0.30276 -0.522 177 123 97
0.48974 -0.30218 -0.521 167 120 94
0.0352971 -0.247891 -0.426 199 153 140
0.0361086 -0.247891 -0.426 198 152 139
0.0485152 -0.244982 -0.421 198 151 141
0.0596 -0.2444 -0.42 183 139 128
0.0874143 -0.253129 -0.435 104 78 81
0.09198 -0.25662 -0.441 98 75 81
0.175986 -0.36951 -0.635 252 255 255
0.230414 -0.36951 -0.635 200 217 247
0.231989 -0.370091 -0.636 195 211 245
0.238046 -0.370091 -0.636 236 242 255
0.244103 -0.370091 -0.636 245 255 255
0.253794 -0.370091 -0.636 182 191 224
0.279673 -0.370673 -0.637 226 232 255
0.312924 -0.371255 -0.638 209 214 243
0.32143 -0.371255 -0.638 122 146 192
0.35358 -0.371837 -0.639 180 188 207
0.38766 -0.371837 -0.639 40 75 143
0.398614 -0.371837 -0.639 76 88 126
0.405917 -0.371837 -0.639 166 167 185
0.411358 -0.371255 -0.638 164 168 193
0.42351 -0.371255 -0.638 155 159 184
0.433232 -0.371255 -0.638 127 129 144
0.438093 -0.371255 -0.638 93 101 138
0.442954 -0.371255 -0.638 53 80 133
0.481087 -0.370673 -0.637 98 106 142
0.494869 -0.370091 -0.636 169 171 183
0.497291 -0.370091 -0.636 160 165 185
0.508605 -0.36951 -0.635 59 83 143
0.511024 -0.36951 -0.635 58 82 144
0.51988 -0.368928 -0.634 122 141 181
0.510657 -0.354962 -0.61 116 97 103
0.468336 -0.318302 -0.547 150 104 91
0.471289 -0.306664 -0.527 189 133 108
0.475592 -0.304918 -0.524 189 133 108
0.480737 -0.303754 -0.522 185 129 102
0.487755 -0.303172 -0.521 167 117 92
0.490732 -0.303172 -0.521 165 118 92
0.494657 -0.303754 -0.522 157 115 91
0.0337533 -0.249287 -0.427 201 155 140
0.0398829 -0.246951 -0.423 195 149 134
0.0438076 -0.246368 -0.422 201 153 139
0.050119 -0.245784 -0.421 197 151 138
0.0533267 -0.245784 -0.421 195 148 138
0.066959 -0.245784 -0.421 168 125 118
0.0721114 -0.246951 -0.423 157 114 105
0.0794857 -0.24987 -0.428 127 92 90
0.0876152 -0.254541 -0.436 103 79 79
0.218837 -0.369551 -0.633 215 221 245
0.236462 -0.370719 -0.635 184 188 215
0.243719 -0.370719 -0.635 245 254 253
0.247348 -0.370719 -0.635 245 252 255
0.25864 -0.371303 -0.636 205 217 255
0.268753 -0.371887 -0.637 236 243 251
0.285291 -0.371303 -0.636 233 241 254
0.31486 -0.371887 -0.637 179 189 224
0.322646 -0.37247 -0.638 134 164 214
0.326291 -0.37247 -0.638 101 131 181
0.335323 -0.373054 -0.639 139 149 176
0.338974 -0.373054 -0.639 117 128 160
0.342626 -0.373054 -0.639 143 151 174
0.365751 -0.373054 -0.639 174 182 201
0.376706 -0.373054 -0.639 104 117 152
0.385838 -0.37247 -0.638 44 78 149
0.404067 -0.37247 -0.638 113 112 126
0.410713 -0.371887 -0.637 146 152 176
0.411927 -0.371887 -0.637 142 148 172
0.41678 -0.371887 -0.637 118 125 153
0.42042 -0.371887 -0.637 131 137 163
0.42406 -0.371887 -0.637 146 151 173
0.472593 -0.371887 -0.637 170 168 179
0.479873 -0.371887 -0.637 100 106 138
0.515862 -0.370719 -0.635 120 147 200
0.496443 -0.343864 -0.589 125 98 89
0.484293 -0.333939 -0.572 128 98 88
0.470049 -0.320511 -0.549 147 105 93
0.466457 -0.315257 -0.54 162 111 92
0.487755 -0.304165 -0.521 164 114 89
0.49371 -0.304165 -0.521 158 116 92
0.504459 -0.307084 -0.526 156 114 92
0.0367467 -0.248343 -0.424 198 150 136
0.0382714 -0.247757 -0.423 196 150 135
0.0390771 -0.247757 -0.423 197 151 136
0.0406886 -0.247757 -0.423 200 152 138
0.050119 -0.246586 -0.421 195 149 136
0.0588 -0.246 -0.42 180 137 128
0.0645533 -0.246586 -0.421 169 126 117
0.0661571 -0.246586 -0.421 167 124 115
0.0758686 -0.249514 -0.426 140 102 93
0.08352 -0.253029 -0.432 116 85 83
0.08556 -0.2542 -0.434 108 78 78
0.193517 -0.370757 -0.633 206 219 251
0.224013 -0.371343 -0.634 217 225 248
0.24009 -0.371929 -0.635 222 228 250
0.260652 -0.371929 -0.635 177 189 227
0.263071 -0.371929 -0.635 181 191 227
0.26549 -0.371929 -0.635 218 227 255
0.289681 -0.371929 -0.635 220 223 242
0.29089 -0.371929 -0.635 230 233 252
0.305886 -0.372514 -0.636 140 149 180
0.332368 -0.373686 -0.638 186 198 222
0.343305 -0.373686 -0.638 178 185 204
0.392513 -0.3731 -0.637 49 77 142
0.40586 -0.3731 -0.637 138 135 144
0.46046 -0.3731 -0.637 71 91 141
0.4641 -0.3731 -0.637 166 168 191
0.46774 -0.3731 -0.637 177 173 188
0.469429 -0.372514 -0.636 139 138 146
0.514652 -0.371929 -0.635 77 105 155
0.517071 -0.371929 -0.635 140 162 201
0.5015 -0.3485 -0.595 126 99 90
0.467152 -0.317457 -0.542 161 110 91
0.516249 -0.312186 -0.533 157 115 93
0.0431057 -0.248563 -0.423 202 152 141
0.0612 -0.2468 -0.42 174 130 121
0.0653552 -0.247388 -0.421 166 123 114
0.0695295 -0.247975 -0.422 152 108 99
0.0740714 -0.249738 -0.425 144 105 98
0.186283 -0.371963 -0.633 192 207 236
0.222454 -0.371963 -0.633 234 240 255
0.26791 -0.373138 -0.635 238 244 255
0.28681 -0.37255 -0.634 235 238 255
0.298148 -0.373138 -0.635 225 231 255
0.32214 -0.374313 -0.637 118 148 210
0.34209 -0.374901 -0.638 184 192 211
0.34452 -0.374901 -0.638 149 158 175
0.359753 -0.374313 -0.637 172 179 205
0.362749 -0.374901 -0.638 176 184 207
0.37247 -0.374901 -0.638 173 180 199
0.386447 -0.374313 -0.637 21 52 119
0.38766 -0.374313 -0.637 18 46 111
0.416681 -0.373138 -0.635 101 114 148
0.434297 -0.373726 -0.636 164 162 184
0.441566 -0.373726 -0.636 64 87 139
0.457314 -0.373726 -0.636 98 121 173
0.465794 -0.373726 -0.636 175 172 193
0.473063 -0.373726 -0.636 173 170 181
0.506596 -0.37255 -0.634 132 150 200
0.500099 -0.34787 -0.592 125 97 93
0.467653 -0.312613 -0.532 174 115 97
0.483786 -0.30615 -0.521 184 128 103
0.485829 -0.305562 -0.52 175 121 95
0.509394 -0.310263 -0.528 154 112 88
0.0572 -0.2476 -0.42 183 136 126
0.0758686 -0.251137 -0.426 134 97 91
0.0932314 -0.263517 -0.447 94 74 76
0.176637 -0.373169 -0.633 250 254 255
0.224866 -0.373169 -0.633 210 213 228
0.298886 -0.373758 -0.634 226 230 255
0.331326 -0.374937 -0.636 114 137 187
0.33496 -0.374937 -0.636 152 161 200
0.341553 -0.375527 -0.637 185 196 216
0.359189 -0.374937 -0.636 151 158 184
0.379167 -0.375527 -0.637 43 67 127
0.433614 -0.374348 -0.635 144 146 171
0.449338 -0.374348 -0.635 50 80 140
0.450548 -0.374348 -0.635 70 100 160
0.467481 -0.374348 -0.635 171 168 189
0.46869 -0.374348 -0.635 172 169 190
0.483205 -0.374348 -0.635 168 167 183
0.50218 -0.373169 -0.633 158 163 185
0.515443 -0.373169 -0.633 139 158 198
0.521026 -0.37199 -0.631 171 176 198
0.480743 -0.332491 -0.564 138 105 98
0.469047 -0.311858 -0.529 174 117 97
0.470171 -0.311269 -0.528 179 124 103
0.4725 -0.3095 -0.525 184 128 103
0.474685 -0.308321 -0.523 187 131 106
0.479816 -0.307142 -0.521 185 129 104
0.495694 -0.307142 -0.521 162 117 96
0.502541 -0.30891 -0.524 160 116 91
0.506463 -0.31009 -0.526 155 113 89
0.0327086 -0.250766 -0.424 201 157 144
0.0342429 -0.250174 -0.423 196 153 137
0.0350486 -0.250174 -0.423 195 149 136
0.0358543 -0.250174 -0.423 195 149 136
0.03666 -0.250174 -0.423 197 151 136
0.0389848 -0.249583 -0.422 199 153 138
0.0413962 -0.249583 -0.422 201 155 142
0.0695295 -0.249583 -0.422 151 108 102
0.0808638 -0.254906 -0.431 118 88 86
0.0861514 -0.258454 -0.437 104 78 81
0.175709 -0.374966 -0.634 211 223 249
0.176637 -0.374374 -0.633 237 244 254
0.192008 -0.373783 -0.632 205 218 253
0.233306 -0.374374 -0.633 249 250 254
0.236923 -0.374374 -0.633 210 217 227
0.295263 -0.374966 -0.634 229 232 249
0.31217 -0.374966 -0.634 149 161 199
0.315792 -0.374966 -0.634 99 120 175
0.322338 -0.375557 -0.635 51 86 154
0.341017 -0.376149 -0.636 181 193 215
0.350709 -0.376149 -0.636 147 151 176
0.357977 -0.376149 -0.636 143 148 177
0.373726 -0.376149 -0.636 120 126 152
0.396119 -0.375557 -0.635 108 131 181
0.41361 -0.374966 -0.634 105 117 143
0.420855 -0.374966 -0.634 163 161 182
0.425686 -0.374966 -0.634 106 104 118
0.429309 -0.374966 -0.634 171 173 186
0.4445 -0.375557 -0.635 67 92 146
0.455386 -0.375557 -0.635 120 139 181
0.481236 -0.374966 -0.634 173 172 186
0.483651 -0.374966 -0.634 174 171 190
0.519444 -0.373783 -0.632 175 180 199
0.469217 -0.320554 -0.542 162 110 96
0.467804 -0.318189 -0.538 168 112 97
0.467957 -0.317597 -0.537 166 110 95
0.470054 -0.312866 -0.529 176 122 98
0.480809 -0.308134 -0.521 188 132 107
0.481867 -0.307543 -0.52 189 135 107
0.512374 -0.312866 -0.529 152 110 88
0.0342429 -0.25098 -0.423 200 154 138
0.0412981 -0.249793 -0.421 201 154 138
0.0588 -0.2492 -0.42 177 133 122
0.062 -0.2492 -0.42 171 127 118
0.0740714 -0.252167 -0.425 142 99 92
0.091119 -0.264033 -0.445 95 70 73
0.241746 -0.37558 -0.633 176 183 209
0.250186 -0.37558 -0.633 223 230 248
0.253402 -0.374987 -0.632 168 177 216
0.267066 -0.37558 -0.633 209 221 245
0.268271 -0.37558 -0.633 173 179 211
0.300826 -0.37558 -0.633 217 222 242
0.30806 -0.37558 -0.633 180 186 220
0.313377 -0.376173 -0.634 107 129 178
0.336322 -0.376173 -0.634 179 184 206
0.339271 -0.376767 -0.635 183 188 207
0.34169 -0.376767 -0.635 185 189 214
0.357414 -0.376767 -0.635 137 150 182
0.36951 -0.376767 -0.635 158 163 182
0.382814 -0.376767 -0.635 44 74 138
0.388263 -0.37736 -0.636 80 110 172
0.398538 -0.376767 -0.635 142 161 203
0.42327 -0.376173 -0.634 172 172 196
0.446215 -0.376173 -0.634 66 96 160
0.454669 -0.376173 -0.634 144 163 196
0.460707 -0.376173 -0.634 90 96 130
0.470368 -0.376173 -0.634 173 168 174
0.472783 -0.376173 -0.634 173 173 183
0.47399 -0.376173 -0.634 169 174 180
0.484094 -0.37558 -0.633 171 172 190
0.4853 -0.37558 -0.633 169 166 183
0.499769 -0.37558 -0.633 160 167 186
0.476243 -0.3293 -0.555 143 104 99
0.473596 -0.310907 -0.524 188 132 107
0.473689 -0.310313 -0.523 185 129 104
0.48786 -0.30794 -0.519 172 122 97
0.488849 -0.30794 -0.519 170 120 95
0.489837 -0.30794 -0.519 166 118 95
0.5065 -0.3115 -0.525 157 112 89
0.0380905 -0.250595 -0.421 202 156 140
0.0388924 -0.250595 -0.421 201 155 139
0.0532 -0.25 -0.42 194 148 133
0.0564 -0.25 -0.42 182 138 125
0.0820638 -0.257738 -0.433 113 81 82
0.0900686 -0.264286 -0.444 96 71 74
0.0913238 -0.265476 -0.446 94 69 72
0.177562 -0.37619 -0.632 213 218 247
0.182089 -0.375595 -0.631 245 248 255
0.185694 -0.375595 -0.631 190 198 234
0.252198 -0.37619 -0.632 173 184 216
0.253402 -0.37619 -0.632 154 166 206
0.279886 -0.37619 -0.632 213 216 231
0.297943 -0.37619 -0.632 220 225 245
0.302031 -0.376786 -0.633 219 224 246
0.329595 -0.377976 -0.635 57 91 163
0.341152 -0.377381 -0.634 183 188 210
0.379186 -0.377976 -0.635 83 109 160
0.390071 -0.377976 -0.635 98 121 173
0.391872 -0.377381 -0.634 129 150 195
0.399118 -0.377381 -0.634 140 149 182
0.418986 -0.376786 -0.633 164 167 184
0.427426 -0.376786 -0.633 160 162 174
0.447923 -0.376786 -0.633 82 109 156
0.465537 -0.377381 -0.634 92 104 128
0.467952 -0.377381 -0.634 106 101 131
0.481683 -0.376786 -0.633 162 168 192
0.486506 -0.376786 -0.633 167 164 181
0.510209 -0.375595 -0.631 116 139 183
0.486943 -0.339286 -0.57 140 103 94
0.482035 -0.335119 -0.563 140 103 94
0.47558 -0.329167 -0.553 144 107 99
0.47164 -0.325 -0.546 150 106 93
0.468924 -0.315476 -0.53 171 114 94
0.494743 -0.309524 -0.52 166 120 96
0.509469 -0.313095 -0.526 154 112 90
0.0373771 -0.251994 -0.422 203 157 141
0.0629495 -0.251397 -0.421 173 126 116
0.0762248 -0.255577 -0.428 129 92 86
0.0972705 -0.273491 -0.458 92 71 76
0.099 -0.27588 -0.462 93 72 77
0.1866 -0.3762 -0.63 182 194 232
0.189 -0.3762 -0.63 193 200 242
0.2238 -0.3762 -0.63 243 246 251
0.232937 -0.377394 -0.632 246 251 254
0.253001 -0.376797 -0.631 149 164 207
0.293866 -0.376797 -0.631 198 200 221
0.296739 -0.377394 -0.632 220 222 243
0.307573 -0.377394 -0.632 166 172 206
0.315294 -0.377991 -0.633 89 117 180
0.318911 -0.377991 -0.633 60 90 162
0.321323 -0.377991 -0.633 62 94 167
0.385834 -0.378589 -0.634 81 105 165
0.445511 -0.377991 -0.633 104 129 185
0.48333 -0.377394 -0.632 166 169 188
0.520572 -0.375603 -0.629 138 135 146
0.471177 -0.315291 -0.528 173 118 97
0.478824 -0.311111 -0.521 189 133 106
0.488849 -0.309917 -0.519 171 121 96
0.492803 -0.309917 -0.519 169 121 98
0.218652 -0.376801 -0.629 231 236 242
0.2346 -0.3774 -0.63 244 250 248
0.2358 -0.3774 -0.63 246 252 250
0.246991 -0.377999 -0.631 179 187 224
0.279443 -0.377999 -0.631 220 223 240
0.2898 -0.3774 -0.63 197 199 220
0.29627 -0.377999 -0.631 220 222 243
0.310692 -0.377999 -0.631 89 103 150
0.318911 -0.379197 -0.633 67 97 169
0.321323 -0.379197 -0.633 62 96 168
0.355083 -0.379197 -0.633 177 185 206
0.403878 -0.378598 -0.632 162 163 181
0.423139 -0.378598 -0.632 167 165 179
0.483767 -0.377999 -0.631 159 162 181
0.494164 -0.378598 -0.632 127 129 152
0.5142 -0.3774 -0.63 77 101 145
0.473368 -0.328278 -0.548 151 109 95
0.492803 -0.310906 -0.519 170 122 99
0.49478 -0.310906 -0.519 169 121 98
0.501649 -0.312104 -0.521 158 116 94
0.505567 -0.313302 -0.523 158 116 94
0.5095 -0.3145 -0.525 157 115 93
0.0309467 -0.253602 -0.422 203 157 141
0.0325543 -0.253602 -0.422 208 161 145
0.033279 -0.253001 -0.421 203 157 141
0.0437038 -0.253001 -0.421 195 148 130
0.054 -0.2524 -0.42 184 138 123
0.0679219 -0.253602 -0.422 156 112 103
0.0861 -0.26502 -0.441 97 75 78
0.1746 -0.3786 -0.63 223 229 241
0.176719 -0.377999 -0.629 182 193 213
0.228237 -0.377999 -0.629 245 248 255
0.2502 -0.3786 -0.63 148 161 206
0.2586 -0.3786 -0.63 123 142 198
0.2658 -0.3786 -0.63 163 177 226
0.2814 -0.3786 -0.63 210 209 227
0.2922 -0.3786 -0.63 207 209 230
0.298673 -0.379201 -0.631 220 222 243
0.336465 -0.379802 -0.632 171 184 219
0.35091 -0.379802 -0.632 151 157 173
0.488574 -0.379201 -0.631 58 62 97
0.495786 -0.379201 -0.631 169 171 184
0.478357 -0.333529 -0.555 148 109 94
0.472292 -0.316702 -0.527 173 121 99
0.478895 -0.312495 -0.52 187 133 107
0.505567 -0.314298 -0.523 159 117 95
0.507531 -0.314899 -0.524 158 116 94
0.52929 -0.323312 -0.538 153 112 94
0.0286029 -0.255009 -0.423 201 158 139
0.0688886 -0.255009 -0.423 152 109 102
0.17007 -0.380403 -0.631 252 254 253
0.218652 -0.379197 -0.629 219 220 224
0.253397 -0.379197 -0.629 134 151 205
0.2706 -0.3798 -0.63 233 235 255
0.309 -0.3798 -0.63 179 194 237
0.328721 -0.380403 -0.631 182 200 238
0.355726 -0.381006 -0.632 177 183 199
0.389432 -0.381006 -0.632 123 137 174
0.392422 -0.380403 -0.631 166 170 197
0.41646 -0.380403 -0.631 151 155 180
0.421268 -0.380403 -0.631 163 167 179
0.453719 -0.380403 -0.631 125 146 191
0.458527 -0.380403 -0.631 172 173 193
0.463334 -0.380403 -0.631 158 156 169
0.471 -0.3798 -0.63 136 143 172
0.502601 -0.379197 -0.629 96 118 159
0.497447 -0.35026 -0.581 139 105 95
0.475766 -0.314691 -0.522 185 131 107
0.48094 -0.312883 -0.519 184 128 101
0.482917 -0.312883 -0.519 181 125 98
0.496757 -0.312883 -0.519 163 118 97
0.514452 -0.317706 -0.527 154 113 95
0.0233971 -0.260652 -0.431 194 153 135
0.0277971 -0.255814 -0.423 199 156 137
0.0348 -0.254 -0.42 205 160 137
0.0388924 -0.254605 -0.421 198 153 132
0.0929619 -0.274562 -0.454 91 73 73
0.1686 -0.381 -0.63 249 251 250
0.176438 -0.37979 -0.628 217 230 238
0.180934 -0.379186 -0.627 175 184 225
0.218305 -0.37979 -0.628 225 225 235
0.226678 -0.37979 -0.628 210 209 225
0.227874 -0.37979 -0.628 207 206 222
0.231831 -0.380395 -0.629 240 242 254
0.252994 -0.37979 -0.628 137 154 206
0.255793 -0.380395 -0.629 133 153 204
0.3354 -0.381 -0.63 126 145 187
0.339538 -0.381605 -0.631 182 188 210
0.350355 -0.381605 -0.631 169 170 190
0.351557 -0.381605 -0.631 171 174 193
0.364152 -0.38221 -0.632 175 180 199
0.369586 -0.381605 -0.631 86 90 117
0.388816 -0.381605 -0.631 126 142 178
0.394826 -0.381605 -0.631 165 166 194
0.396028 -0.381605 -0.631 157 158 186
0.4218 -0.381 -0.63 137 142 171
0.4302 -0.381 -0.63 108 111 128
0.4482 -0.381 -0.63 82 104 153
0.4722 -0.381 -0.63 126 136 172
0.4782 -0.381 -0.63 45 66 119
0.483431 -0.380395 -0.629 92 111 143
0.48463 -0.380395 -0.629 58 76 116
0.519745 -0.37979 -0.628 179 178 192
0.521306 -0.379186 -0.627 180 179 197
0.481987 -0.313267 -0.518 180 126 98
0.49284 -0.313267 -0.518 174 124 101
0.506589 -0.315686 -0.522 160 117 98
0.0292695 -0.255407 -0.421 200 157 138
0.0444 -0.2548 -0.42 194 147 129
0.0548 -0.2548 -0.42 178 130 118
0.0613457 -0.255407 -0.421 173 125 111
0.0621476 -0.255407 -0.421 170 122 110
0.0671181 -0.256013 -0.422 146 105 99
0.0785829 -0.26208 -0.432 110 81 83
0.0830114 -0.26572 -0.438 94 72 74
0.08526 -0.26754 -0.441 89 69 70
0.0891733 -0.271787 -0.448 91 72 68
0.21318 -0.38038 -0.627 246 251 255
0.224286 -0.380987 -0.628 212 210 231
0.278557 -0.381593 -0.629 229 234 254
0.3414 -0.3822 -0.63 184 188 215
0.3474 -0.3822 -0.63 166 167 185
0.362374 -0.382807 -0.631 177 184 202
0.406753 -0.381593 -0.629 157 159 184
0.417 -0.3822 -0.63 157 163 195
0.4446 -0.3822 -0.63 101 127 178
0.4458 -0.3822 -0.63 103 126 178
0.485055 -0.380987 -0.628 44 63 103
0.492232 -0.380987 -0.628 168 166 177
0.498213 -0.380987 -0.628 178 178 186
0.520474 -0.379773 -0.626 176 177 198
0.47029 -0.324567 -0.535 167 116 99
0.473596 -0.317893 -0.524 182 128 104
0.477905 -0.315467 -0.52 187 131 106
0.48094 -0.31486 -0.519 181 127 101
0.496787 -0.314253 -0.518 166 119 99
0.502667 -0.315467 -0.52 164 117 97
0.507583 -0.31668 -0.522 160 115 96
0.0444 -0.2556 -0.42 194 147 129
0.0452 -0.2556 -0.42 196 149 131
0.046 -0.2556 -0.42 194 149 128
0.0516 -0.2556 -0.42 189 143 127
0.076759 -0.262294 -0.431 114 82 83
0.18303 -0.380966 -0.626 143 164 211
0.1878 -0.380966 -0.626 133 151 197
0.19257 -0.380966 -0.626 136 153 199
0.222734 -0.381574 -0.627 189 187 208
0.223929 -0.381574 -0.627 210 211 232
0.227511 -0.381574 -0.627 232 234 246
0.241032 -0.382183 -0.628 180 184 213
0.243425 -0.382183 -0.628 179 190 220
0.258563 -0.381574 -0.627 194 209 250
0.270937 -0.382183 -0.628 228 232 255
0.297253 -0.382183 -0.628 224 221 240
0.299646 -0.382183 -0.628 215 213 235
0.337264 -0.382791 -0.629 151 167 200
0.376797 -0.384009 -0.631 130 143 177
0.404357 -0.382791 -0.629 106 118 158
0.463064 -0.382791 -0.629 163 160 177
0.483859 -0.382183 -0.628 104 117 152
0.500606 -0.382183 -0.628 168 168 178
0.50539 -0.382183 -0.628 81 102 145
0.507783 -0.382183 -0.628 112 135 187
0.524754 -0.379749 -0.624 162 164 179
0.47082 -0.323151 -0.531 171 119 98
0.477831 -0.317066 -0.521 180 124 99
0.477905 -0.316457 -0.52 184 128 103
0.48401 -0.314631 -0.517 183 129 105
0.495828 -0.314631 -0.517 168 120 98
0.5017 -0.315849 -0.519 164 117 97
0.528376 -0.325586 -0.535 152 112 87
0.0276657 -0.25701 -0.421 200 158 136
0.0458905 -0.25579 -0.419 193 148 125
0.0554676 -0.25579 -0.419 180 132 122
0.0809714 -0.266168 -0.436 100 78 81
0.0856467 -0.270441 -0.443 90 70 72
0.167797 -0.382769 -0.627 242 246 255
0.214032 -0.382158 -0.626 245 247 255
0.231094 -0.382769 -0.627 242 247 253
0.235871 -0.382769 -0.627 241 245 255
0.247814 -0.382769 -0.627 197 206 235
0.264112 -0.382158 -0.626 201 214 231
0.3582 -0.3846 -0.63 180 185 204
0.3786 -0.3846 -0.63 94 112 158
0.3798 -0.3846 -0.63 103 121 167
0.392376 -0.38399 -0.629 173 174 195
0.40491 -0.383379 -0.628 115 130 173
0.408499 -0.383379 -0.628 141 152 197
0.412744 -0.38399 -0.629 27 53 110
0.413942 -0.38399 -0.629 68 94 151
0.416872 -0.383379 -0.628 110 119 162
0.437904 -0.38399 -0.629 124 133 172
0.46472 -0.383379 -0.628 117 126 169
0.510175 -0.383379 -0.628 105 128 178
0.517723 -0.382769 -0.627 173 173 185
0.522377 -0.380937 -0.624 128 133 153
0.482203 -0.340035 -0.557 147 111 99
0.48094 -0.316837 -0.519 178 124 100
0.520435 -0.322942 -0.529 153 110 91
0.02532 -0.258425 -0.422 198 156 134
0.0260619 -0.257812 -0.421 198 156 134
0.033919 -0.256588 -0.419 199 154 131
0.0570638 -0.256588 -0.419 177 129 119
0.0588 -0.2572 -0.42 176 130 117
0.0672771 -0.259037 -0.423 148 105 98
0.207738 -0.382738 -0.625 242 247 251
0.214881 -0.382738 -0.625 245 248 255
0.248611 -0.38335 -0.626 213 226 255
0.249804 -0.38335 -0.626 184 197 231
0.254573 -0.38335 -0.626 155 174 216
0.264112 -0.38335 -0.626 220 229 246
0.269311 -0.383963 -0.627 161 169 206
0.272894 -0.383963 -0.627 235 237 255
0.303461 -0.38335 -0.626 199 199 227
0.314694 -0.383963 -0.627 139 166 211
0.316392 -0.384575 -0.628 147 174 219
0.318785 -0.384575 -0.628 145 173 221
0.33912 -0.384575 -0.628 177 186 217
0.35883 -0.385188 -0.629 145 151 187
0.363622 -0.385188 -0.629 133 142 175
0.379197 -0.385188 -0.629 88 107 150
0.406654 -0.383963 -0.627 124 138 183
0.413284 -0.384575 -0.628 54 83 139
0.415676 -0.384575 -0.628 134 157 199
0.42405 -0.384575 -0.628 87 104 147
0.474729 -0.383963 -0.627 87 102 131
0.477117 -0.383963 -0.627 89 111 158
0.518452 -0.382738 -0.625 170 167 184
0.523566 -0.382126 -0.624 63 73 100
0.47422 -0.332523 -0.543 161 113 93
0.471578 -0.326399 -0.533 167 119 97
0.474685 -0.320275 -0.523 177 125 101
0.487989 -0.315989 -0.516 174 122 100
0.504666 -0.317826 -0.519 168 121 101
0.0268 -0.258 -0.42 198 156 132
0.049881 -0.257386 -0.419 187 140 122
0.0522752 -0.257386 -0.419 182 134 120
0.0578619 -0.257386 -0.419 176 128 118
0.0700238 -0.261071 -0.425 136 95 89
0.0749429 -0.264143 -0.43 118 84 83
0.0759381 -0.264757 -0.431 117 83 82
0.164214 -0.385157 -0.627 240 246 255
0.222024 -0.383929 -0.625 239 238 255
0.228341 -0.384543 -0.626 241 244 253
0.230726 -0.384543 -0.626 240 243 250
0.235495 -0.384543 -0.626 225 229 254
0.240265 -0.384543 -0.626 201 207 233
0.246227 -0.384543 -0.626 212 220 243
0.255766 -0.384543 -0.626 164 178 213
0.2625 -0.383929 -0.625 232 239 255
0.279613 -0.384543 -0.626 226 229 246
0.284383 -0.384543 -0.626 182 180 194
0.329026 -0.385157 -0.627 192 196 223
0.332609 -0.385157 -0.627 187 197 222
0.345101 -0.385771 -0.628 176 183 212
0.354037 -0.386386 -0.629 152 165 200
0.360651 -0.385771 -0.628 54 71 117
0.374405 -0.386386 -0.629 149 152 169
0.376801 -0.386386 -0.629 93 104 134
0.387584 -0.386386 -0.629 70 94 142
0.426957 -0.385157 -0.627 172 174 195
0.4396 -0.385771 -0.628 85 105 156
0.47234 -0.385157 -0.627 158 159 179
0.484703 -0.384543 -0.626 160 161 181
0.501003 -0.385157 -0.627 146 156 181
0.507358 -0.384543 -0.626 77 103 152
0.509363 -0.385157 -0.627 83 109 158
0.514512 -0.384543 -0.626 88 95 121
0.522024 -0.383929 -0.625 98 107 136
0.494963 -0.351986 -0.573 143 111 98
0.475681 -0.321271 -0.523 176 124 102
0.476914 -0.319429 -0.52 170 116 92
0.487006 -0.316971 -0.516 177 125 103
0.4988 -0.316971 -0.516 164 116 96
0.0244581 -0.259416 -0.421 199 157 133
0.0299286 -0.258184 -0.419 202 158 133
0.0355152 -0.258184 -0.419 200 155 132
0.0434962 -0.258184 -0.419 194 147 129
0.0466886 -0.258184 -0.419 190 145 124
0.0490829 -0.258184 -0.419 184 139 118
0.050679 -0.258184 -0.419 183 138 119
0.071 -0.262497 -0.426 132 95 89
0.0749429 -0.264962 -0.43 115 85 83
0.0950095 -0.285912 -0.464 91 75 78
0.163952 -0.385735 -0.626 222 228 242
0.232738 -0.385119 -0.625 237 240 255
0.243452 -0.385119 -0.625 198 201 220
0.255357 -0.385119 -0.625 176 190 225
0.266071 -0.385119 -0.625 218 224 246
0.278421 -0.385735 -0.626 232 233 251
0.280806 -0.385735 -0.626 185 191 207
0.301786 -0.385119 -0.625 209 211 232
0.33804 -0.385735 -0.626 72 83 115
0.356433 -0.387584 -0.629 157 168 196
0.382183 -0.386968 -0.628 102 129 182
0.387546 -0.386351 -0.627 139 152 187
0.3971 -0.386351 -0.627 173 172 190
0.444162 -0.385735 -0.626 115 140 194
0.48351 -0.385735 -0.626 162 163 184
0.504973 -0.385735 -0.626 85 107 156
0.514512 -0.385735 -0.626 125 135 162
0.499282 -0.356158 -0.578 144 110 100
0.486062 -0.317338 -0.515 176 124 103
0.489034 -0.316722 -0.514 174 122 101
0.497833 -0.317338 -0.515 163 115 95
0.01722 -0.27258 -0.441 195 160 138
0.0267362 -0.258982 -0.419 203 158 135
0.0371114 -0.258982 -0.419 199 153 130
0.0387076 -0.258982 -0.419 195 149 126
0.0442943 -0.258982 -0.419 188 141 121
0.0546695 -0.258982 -0.419 180 135 114
0.0656657 -0.261454 -0.423 145 105 97
0.159183 -0.386928 -0.626 244 246 255
0.277976 -0.38631 -0.625 215 218 237
0.283929 -0.38631 -0.625 158 160 183
0.293452 -0.38631 -0.625 200 205 237
0.318962 -0.386928 -0.626 126 154 201
0.357063 -0.388164 -0.628 117 133 167
0.361271 -0.387546 -0.627 98 119 172
0.391129 -0.387546 -0.627 172 174 195
0.431548 -0.38631 -0.625 177 175 199
0.493452 -0.38631 -0.625 91 93 114
0.516434 -0.385691 -0.624 106 112 126
0.52 -0.385691 -0.624 68 74 106
0.522727 -0.385073 -0.623 147 154 183
0.473211 -0.331299 -0.536 159 114 95
0.478963 -0.320791 -0.519 176 124 103
0.488055 -0.317701 -0.514 175 122 104
0.490992 -0.317701 -0.514 171 119 97
0.495888 -0.317701 -0.514 171 119 97
0.512554 -0.322646 -0.522 158 113 94
0.514532 -0.323264 -0.523 155 110 91
0.519488 -0.325118 -0.526 151 113 94
0.529447 -0.329445 -0.533 156 111 90
0.029061 -0.25916 -0.418 199 157 133
0.0370229 -0.25916 -0.418 198 153 130
0.0411019 -0.25978 -0.419 197 152 131
0.0621476 -0.26102 -0.421 154 110 97
0.0639029 -0.26164 -0.422 151 108 99
0.0741238 -0.2666 -0.43 114 84 82
0.0897 -0.2821 -0.455 93 70 76
0.163429 -0.38688 -0.624 217 221 224
0.19758 -0.38626 -0.623 242 247 255
0.21894 -0.38626 -0.623 209 212 219
0.227611 -0.38688 -0.624 243 248 254
0.247817 -0.38688 -0.624 189 198 229
0.281548 -0.3875 -0.625 214 220 244
0.28704 -0.38688 -0.624 204 207 240
0.31369 -0.3875 -0.625 134 158 206
0.318452 -0.3875 -0.625 134 163 207
0.35467 -0.38936 -0.628 161 178 221
0.366049 -0.38874 -0.627 171 178 196
0.396467 -0.38812 -0.626 164 166 187
0.403621 -0.38812 -0.626 124 139 172
0.426276 -0.38812 -0.626 148 149 177
0.452976 -0.3875 -0.625 117 118 136
0.499405 -0.3875 -0.625 157 164 190
0.504167 -0.3875 -0.625 79 104 160
0.51798 -0.38626 -0.623 93 92 123
0.475592 -0.32488 -0.524 170 119 100
0.5185 -0.3255 -0.525 154 116 97
0.608698 -0.37138 -0.599 199 199 199
0.0354305 -0.259956 -0.418 199 154 131
0.058 -0.2612 -0.42 169 124 103
0.0752914 -0.268663 -0.432 110 84 85
0.0833029 -0.276126 -0.444 96 71 75
0.0898971 -0.283589 -0.456 93 70 76
0.192524 -0.386825 -0.622 214 225 255
0.200817 -0.386825 -0.622 221 222 250
0.22962 -0.387447 -0.623 242 246 255
0.266407 -0.387447 -0.623 235 234 252
0.283474 -0.388069 -0.624 143 156 190
0.292513 -0.387447 -0.623 132 139 181
0.313189 -0.388069 -0.624 132 159 206
0.314881 -0.38869 -0.625 138 165 212
0.347579 -0.389312 -0.626 62 78 114
0.407738 -0.38869 -0.625 141 151 178
0.465767 -0.387447 -0.623 167 175 194
0.466953 -0.387447 -0.623 167 175 194
0.474073 -0.387447 -0.623 163 170 186
0.479589 -0.388069 -0.624 173 175 188
0.491071 -0.38869 -0.625 124 126 147
0.493851 -0.388069 -0.624 52 53 81
0.500983 -0.388069 -0.624 121 134 178
0.51168 -0.388069 -0.624 109 134 190
0.513233 -0.387447 -0.623 116 130 169
0.51442 -0.387447 -0.623 149 155 179
0.4755 -0.3265 -0.525 172 121 104
0.486097 -0.319659 -0.514 170 117 99
0.493946 -0.319037 -0.513 174 123 104
0.529467 -0.330853 -0.532 147 104 85
0.0386152 -0.260752 -0.418 197 152 131
0.0703533 -0.266367 -0.427 126 91 87
0.198448 -0.38801 -0.622 246 245 255
0.202002 -0.38801 -0.622 225 230 236
0.260055 -0.38801 -0.622 233 238 255
0.264794 -0.38801 -0.622 231 236 255
0.274713 -0.388633 -0.623 165 170 199
0.285393 -0.388633 -0.623 143 157 196
0.28658 -0.388633 -0.623 186 199 241
0.28849 -0.38801 -0.622 175 186 218
0.306753 -0.388633 -0.623 204 206 227
0.3115 -0.388633 -0.623 105 133 173
0.325074 -0.389257 -0.624 184 199 230
0.332206 -0.389257 -0.624 195 200 219
0.333394 -0.389257 -0.624 176 178 191
0.342262 -0.389881 -0.625 139 153 192
0.352349 -0.390505 -0.626 140 158 194
0.370234 -0.390505 -0.626 180 178 200
0.373811 -0.390505 -0.626 151 160 189
0.391071 -0.389881 -0.625 172 175 194
0.397577 -0.389257 -0.624 117 129 155
0.42016 -0.389257 -0.624 156 161 180
0.421349 -0.389257 -0.624 158 163 182
0.452713 -0.388633 -0.623 166 169 184
0.462207 -0.388633 -0.623 166 172 194
0.487909 -0.389257 -0.624 169 171 186
0.476595 -0.337481 -0.541 156 110 94
0.483074 -0.321886 -0.516 180 129 110
0.503714 -0.321886 -0.516 155 110 89
0.0173638 -0.265303 -0.424 197 156 134
0.0402076 -0.261549 -0.418 195 150 129
0.049881 -0.262174 -0.419 180 135 116
0.0546695 -0.262174 -0.419 178 133 112
0.06486 -0.264677 -0.423 140 100 90
0.183934 -0.388569 -0.621 195 204 235
0.1863 -0.388569 -0.621 184 194 229
0.189849 -0.388569 -0.621 188 203 236
0.20286 -0.388569 -0.621 224 229 251
0.218589 -0.389194 -0.622 163 165 190
0.220958 -0.389194 -0.622 214 215 245
0.269533 -0.389194 -0.622 228 233 255
0.303891 -0.389194 -0.622 208 206 227
0.341714 -0.390446 -0.624 162 170 209
0.344091 -0.390446 -0.624 167 176 207
0.347024 -0.391071 -0.625 91 105 140
0.401687 -0.38982 -0.623 168 168 192
0.442033 -0.38982 -0.623 92 114 172
0.447967 -0.38982 -0.623 126 136 172
0.455541 -0.389194 -0.622 76 75 106
0.469327 -0.38982 -0.623 174 172 193
0.472887 -0.38982 -0.623 154 158 183
0.48594 -0.38982 -0.623 160 160 170
0.490687 -0.38982 -0.623 136 139 148
0.50018 -0.38982 -0.623 76 100 148
0.502931 -0.389194 -0.622 44 70 129
0.519518 -0.389194 -0.622 93 102 133
0.52578 -0.388569 -0.621 175 174 182
0.481551 -0.343517 -0.549 154 112 98
0.475253 -0.335383 -0.536 157 114 95
0.474624 -0.333506 -0.533 162 119 100
0.477905 -0.325371 -0.52 170 119 100
0.484174 -0.320991 -0.513 177 125 104
0.487131 -0.320366 -0.512 177 125 104
0.4959 -0.320991 -0.513 172 124 102
0.507645 -0.323494 -0.517 158 113 92
0.0234876 -0.262345 -0.418 196 154 132
0.0266086 -0.261717 -0.417 195 153 129
0.0377286 -0.261717 -0.417 195 150 127
0.0410038 -0.262345 -0.418 194 149 126
0.0556 -0.2636 -0.42 174 129 108
0.074641 -0.271759 -0.433 106 81 85
0.07902 -0.275525 -0.439 97 75 78
0.206409 -0.389751 -0.621 199 201 222
0.229251 -0.390379 -0.622 159 166 194
0.239529 -0.389751 -0.621 235 239 251
0.246626 -0.389751 -0.621 167 182 211
0.275014 -0.389751 -0.621 181 187 219
0.282566 -0.390379 -0.622 123 136 171
0.28612 -0.390379 -0.622 189 203 242
0.309815 -0.390379 -0.622 114 139 179
0.31862 -0.391007 -0.623 110 137 184
0.33998 -0.391007 -0.623 169 175 209
0.348846 -0.391634 -0.624 105 120 179
0.358354 -0.391634 -0.624 177 183 209
0.359543 -0.391634 -0.624 170 176 202
0.365486 -0.391634 -0.624 162 169 197
0.372617 -0.391634 -0.624 152 163 185
0.402873 -0.391007 -0.623 165 166 187
0.4183 -0.391007 -0.623 168 174 198
0.42898 -0.391007 -0.623 96 97 128
0.433727 -0.391007 -0.623 156 160 187
0.453171 -0.390379 -0.622 95 108 143
0.459833 -0.391007 -0.623 157 158 176
0.467389 -0.390379 -0.622 168 166 187
0.468573 -0.390379 -0.622 172 170 191
0.487127 -0.391007 -0.623 119 117 122
0.509673 -0.391007 -0.623 39 68 126
0.526114 -0.389124 -0.62 165 163 166
0.476986 -0.325734 -0.519 170 119 102
0.47804 -0.325107 -0.518 172 121 102
0.497854 -0.321969 -0.513 165 117 97
0.0234876 -0.263141 -0.418 196 154 132
0.0329629 -0.262511 -0.417 193 148 125
0.049881 -0.26377 -0.419 178 133 112
0.0748133 -0.273213 -0.434 102 79 85
0.181276 -0.390305 -0.62 179 188 217
0.190724 -0.390305 -0.62 175 190 223
0.196629 -0.390305 -0.62 244 247 254
0.211981 -0.390305 -0.62 214 219 248
0.222969 -0.390934 -0.621 225 232 255
0.280929 -0.390934 -0.621 183 192 223
0.30222 -0.390934 -0.621 210 210 238
0.319293 -0.391564 -0.622 113 137 183
0.332326 -0.391564 -0.622 167 168 198
0.381513 -0.392193 -0.623 120 138 184
0.396303 -0.391564 -0.622 164 166 189
0.405781 -0.391564 -0.622 170 172 195
0.411705 -0.391564 -0.622 164 169 189
0.417629 -0.391564 -0.622 165 170 190
0.473312 -0.391564 -0.622 99 106 134
0.474497 -0.391564 -0.622 105 116 144
0.478051 -0.391564 -0.622 144 150 174
0.481606 -0.391564 -0.622 170 170 182
0.527949 -0.389046 -0.618 169 167 178
0.485937 -0.348756 -0.554 149 111 100
0.478656 -0.340572 -0.541 155 113 99
0.487131 -0.322316 -0.512 176 124 103
0.4891 -0.321687 -0.511 178 126 105
0.018 -0.2652 -0.42 195 154 134
0.021099 -0.263937 -0.418 200 158 136
0.0572 -0.2652 -0.42 160 117 98
0.0588 -0.2652 -0.42 156 113 97
0.0697029 -0.270251 -0.428 117 86 81
0.0805838 -0.279723 -0.443 93 70 78
0.157911 -0.392117 -0.621 235 238 255
0.228514 -0.391486 -0.62 164 175 205
0.24741 -0.391486 -0.62 177 192 225
0.253314 -0.391486 -0.62 166 181 214
0.254495 -0.391486 -0.62 158 173 206
0.2852 -0.391486 -0.62 201 205 242
0.287562 -0.391486 -0.62 213 214 244
0.301037 -0.392117 -0.621 207 208 238
0.30222 -0.392117 -0.621 210 210 238
0.304586 -0.392117 -0.621 204 205 233
0.309317 -0.392117 -0.621 124 142 178
0.319293 -0.392749 -0.622 120 142 189
0.329956 -0.392749 -0.622 178 183 212
0.37202 -0.39338 -0.623 134 137 156
0.38564 -0.392749 -0.622 155 163 199
0.402227 -0.392749 -0.622 166 171 190
0.41814 -0.392117 -0.621 174 181 200
0.4347 -0.392117 -0.621 110 129 172
0.446063 -0.392749 -0.622 107 133 192
0.499547 -0.361177 -0.572 145 108 99
0.478051 -0.339709 -0.538 163 118 99
0.475877 -0.335289 -0.531 171 119 105
0.477974 -0.327711 -0.519 176 125 108
0.480071 -0.326449 -0.517 180 129 112
0.522503 -0.330869 -0.524 154 111 94
0.018 -0.266 -0.42 197 156 134
0.0424943 -0.2641 -0.417 189 142 122
0.050679 -0.265367 -0.419 180 135 116
0.0669429 -0.2698 -0.426 131 94 88
0.0708476 -0.272333 -0.43 112 81 78
0.0739867 -0.274867 -0.434 100 78 81
0.19867 -0.392033 -0.619 247 247 255
0.22343 -0.392033 -0.619 182 196 225
0.245048 -0.392667 -0.62 172 180 217
0.24741 -0.392667 -0.62 169 184 217
0.249369 -0.392033 -0.619 178 191 223
0.264696 -0.392033 -0.619 229 229 253
0.28474 -0.392033 -0.619 207 211 246
0.287098 -0.392033 -0.619 216 217 245
0.31 -0.392667 -0.62 141 156 189
0.311181 -0.392667 -0.62 135 157 196
0.366684 -0.393933 -0.622 115 129 164
0.407494 -0.3933 -0.621 152 157 179
0.432334 -0.3933 -0.621 104 122 170
0.433517 -0.3933 -0.621 91 109 157
0.435883 -0.3933 -0.621 102 123 176
0.477974 -0.3287 -0.519 177 126 105
0.487153 -0.323633 -0.511 180 128 107
0.509611 -0.3268 -0.516 161 113 91
0.0118486 -0.272517 -0.429 195 154 132
0.0328838 -0.264259 -0.416 194 148 125
0.0417 -0.264894 -0.417 189 142 124
0.0465771 -0.26553 -0.418 185 139 123
0.0632486 -0.268706 -0.423 135 95 85
0.0659762 -0.269976 -0.425 126 91 89
0.0669429 -0.270611 -0.426 126 91 89
0.0751581 -0.276964 -0.436 99 77 79
0.07854 -0.28014 -0.441 98 73 77
0.0878657 -0.291574 -0.459 91 70 75
0.229325 -0.393212 -0.619 194 201 230
0.237578 -0.393212 -0.619 233 238 255
0.281203 -0.393212 -0.619 157 163 189
0.283103 -0.392577 -0.618 199 205 237
0.288989 -0.392577 -0.618 212 216 241
0.301247 -0.393212 -0.619 206 211 240
0.332438 -0.393848 -0.62 99 104 133
0.340071 -0.394483 -0.621 187 193 207
0.34362 -0.394483 -0.621 185 192 211
0.36018 -0.394483 -0.621 179 178 196
0.372608 -0.395118 -0.622 139 141 162
0.377923 -0.394483 -0.621 58 89 143
0.379106 -0.394483 -0.621 68 99 153
0.389124 -0.393848 -0.62 40 53 88
0.444629 -0.393848 -0.62 82 107 173
0.449352 -0.393848 -0.62 41 67 124
0.452443 -0.394483 -0.621 56 81 137
0.49541 -0.393848 -0.62 46 67 112
0.513124 -0.393848 -0.62 99 123 169
0.516667 -0.393848 -0.62 85 100 133
0.517848 -0.393848 -0.62 78 93 126
0.527413 -0.391307 -0.616 172 172 182
0.487167 -0.351287 -0.553 149 111 100
0.476839 -0.330959 -0.521 173 122 101
0.479087 -0.328418 -0.517 174 123 104
0.485181 -0.325242 -0.512 183 131 110
0.505678 -0.326512 -0.514 163 118 99
0.0241676 -0.265051 -0.416 198 153 130
0.02496 -0.265051 -0.416 199 153 130
0.0344686 -0.265051 -0.416 194 148 125
0.03614 -0.265689 -0.417 196 149 129
0.0465771 -0.266326 -0.418 184 139 118
0.05894 -0.268237 -0.421 148 108 96
0.207766 -0.393754 -0.618 165 167 192
0.2678 -0.393754 -0.618 178 179 207
0.301937 -0.393754 -0.618 200 207 236
0.305469 -0.393754 -0.618 176 182 206
0.341886 -0.395029 -0.62 180 189 204
0.345986 -0.395666 -0.621 181 184 201
0.353083 -0.395666 -0.621 180 188 201
0.386762 -0.395029 -0.62 119 137 183
0.410381 -0.395029 -0.62 142 147 176
0.419829 -0.395029 -0.62 179 178 192
0.428584 -0.394391 -0.619 98 115 159
0.441553 -0.394391 -0.619 40 69 129
0.493431 -0.394391 -0.619 86 95 124
0.501685 -0.394391 -0.619 42 73 127
0.506401 -0.394391 -0.619 64 95 160
0.511117 -0.394391 -0.619 121 143 184
0.52055 -0.394391 -0.619 147 154 164
0.477831 -0.331951 -0.521 169 121 99
0.478963 -0.330677 -0.519 173 122 103
0.481109 -0.328766 -0.516 172 121 102
0.483197 -0.326854 -0.513 178 126 105
0.50176 -0.326217 -0.512 168 121 95
0.613596 -0.379737 -0.596 204 196 193
0.02496 -0.265844 -0.416 199 153 129
0.0464657 -0.266483 -0.417 182 137 114
0.0616371 -0.270317 -0.423 140 97 90
0.0671 -0.272873 -0.427 121 86 82
0.0690486 -0.274151 -0.429 112 81 78
0.0827143 -0.287571 -0.45 91 71 73
0.216006 -0.394931 -0.618 161 172 200
0.230131 -0.394931 -0.618 190 197 223
0.238371 -0.394931 -0.618 235 236 255
0.24308 -0.394931 -0.618 201 207 233
0.254439 -0.394292 -0.617 188 200 226
0.286634 -0.394931 -0.618 218 223 242
0.30076 -0.394931 -0.618 186 195 228
0.326007 -0.39557 -0.619 125 130 172
0.378495 -0.39621 -0.62 45 83 145
0.387317 -0.39557 -0.619 72 90 130
0.436131 -0.394931 -0.618 37 61 123
0.500506 -0.39557 -0.619 76 94 142
0.505222 -0.39557 -0.619 58 87 155
0.512296 -0.39557 -0.619 124 146 183
0.518531 -0.394931 -0.618 91 97 121
0.477831 -0.332944 -0.521 169 121 99
0.485151 -0.327831 -0.513 172 121 102
0.488127 -0.326553 -0.511 182 131 110
0.0155257 -0.267918 -0.418 197 155 131
0.0186657 -0.267277 -0.417 200 155 132
0.0548 -0.2692 -0.42 169 124 105
0.05894 -0.269841 -0.421 141 101 93
0.0662867 -0.273687 -0.427 122 87 85
0.07686 -0.28266 -0.441 94 72 74
0.221532 -0.395468 -0.617 233 234 252
0.230934 -0.395468 -0.617 152 159 185
0.28147 -0.395468 -0.617 201 202 223
0.295572 -0.395468 -0.617 160 167 195
0.329011 -0.396109 -0.618 157 172 213
0.33372 -0.396109 -0.618 175 177 189
0.352514 -0.39739 -0.62 180 186 200
0.375527 -0.39675 -0.619 34 63 131
0.376706 -0.39675 -0.619 28 66 131
0.397929 -0.39675 -0.619 107 105 106
0.401466 -0.39675 -0.619 124 123 137
0.412589 -0.396109 -0.618 118 134 149
0.425047 -0.39675 -0.619 169 168 176
0.444371 -0.396109 -0.618 60 89 145
0.452165 -0.39675 -0.619 92 109 153
0.489103 -0.396109 -0.618 123 134 162
0.494989 -0.396109 -0.618 158 174 197
0.497343 -0.396109 -0.618 137 151 178
0.502051 -0.396109 -0.618 66 92 151
0.513823 -0.396109 -0.618 153 169 192
0.478895 -0.333295 -0.52 168 120 100
0.0147295 -0.268714 -0.418 198 156 132
0.0351762 -0.266786 -0.415 190 144 120
0.0360533 -0.267429 -0.416 194 148 124
0.0598838 -0.271286 -0.422 138 99 92
0.0664419 -0.275143 -0.428 121 87 85
0.0693705 -0.277071 -0.431 109 79 77
0.22704 -0.396 -0.616 228 234 255
0.256373 -0.396 -0.616 218 222 249
0.27632 -0.396 -0.616 218 217 235
0.278667 -0.396 -0.616 217 219 240
0.317902 -0.396643 -0.617 144 165 212
0.380806 -0.397286 -0.618 52 83 147
0.389046 -0.397286 -0.618 145 157 181
0.392577 -0.397286 -0.618 169 173 185
0.404349 -0.397286 -0.618 136 137 157
0.416622 -0.396643 -0.617 150 144 158
0.423183 -0.397286 -0.618 177 174 185
0.425537 -0.397286 -0.618 174 177 196
0.450257 -0.397286 -0.618 90 108 148
0.460418 -0.397929 -0.619 172 174 186
0.47103 -0.397929 -0.619 171 170 184
0.476925 -0.397929 -0.619 168 170 182
0.485571 -0.397286 -0.618 165 164 178
0.487926 -0.397286 -0.618 119 123 152
0.493811 -0.397286 -0.618 159 168 185
0.499697 -0.397286 -0.618 93 111 151
0.511816 -0.396643 -0.617 138 154 170
0.517692 -0.396643 -0.617 105 107 128
0.527729 -0.395357 -0.615 170 167 188
0.506636 -0.329143 -0.512 164 119 96
0.50958 -0.329786 -0.513 160 118 94
0.00852 -0.274669 -0.426 194 154 129
0.0225286 -0.267576 -0.415 202 158 131
0.0328048 -0.267576 -0.415 195 149 125
0.0384305 -0.268221 -0.416 186 140 116
0.0440829 -0.268866 -0.417 181 133 110
0.0738343 -0.282406 -0.438 95 76 72
0.291573 -0.397173 -0.616 209 212 231
0.314376 -0.397818 -0.617 62 99 167
0.327304 -0.397818 -0.617 178 187 216
0.33318 -0.397818 -0.617 192 193 211
0.339606 -0.398463 -0.618 155 157 169
0.340783 -0.398463 -0.618 161 163 175
0.389591 -0.397818 -0.617 164 174 199
0.477331 -0.398463 -0.618 164 166 179
0.484786 -0.397818 -0.617 158 157 171
0.494188 -0.397818 -0.617 161 165 177
0.495363 -0.397818 -0.617 155 160 179
0.520373 -0.397173 -0.616 67 78 96
0.477754 -0.336566 -0.522 171 123 101
0.507611 -0.330118 -0.512 162 118 93
0.512531 -0.331408 -0.514 158 113 90
0.0154514 -0.269013 -0.416 200 156 131
0.0408076 -0.269013 -0.416 186 138 116
0.0522752 -0.270953 -0.419 164 115 98
0.2091 -0.3977 -0.615 219 219 231
0.324427 -0.398347 -0.616 157 173 209
0.332005 -0.398993 -0.617 190 191 209
0.33553 -0.398993 -0.617 182 188 200
0.342582 -0.398993 -0.617 136 141 161
0.371963 -0.398993 -0.617 29 65 127
0.376053 -0.398347 -0.616 29 58 118
0.377227 -0.398347 -0.616 27 58 122
0.387787 -0.398347 -0.616 161 171 198
0.401344 -0.398993 -0.617 160 160 168
0.406045 -0.398993 -0.617 155 153 174
0.411253 -0.398347 -0.616 178 181 188
0.432373 -0.398347 -0.616 133 155 194
0.443652 -0.398993 -0.617 103 130 177
0.446003 -0.398993 -0.617 134 153 193
0.465982 -0.398993 -0.617 172 172 180
0.509466 -0.398993 -0.617 74 95 140
0.490327 -0.357607 -0.553 150 112 101
0.480358 -0.346613 -0.536 159 118 98
0.483197 -0.33174 -0.513 173 125 105
0.489125 -0.329153 -0.509 174 126 104
0.500759 -0.329153 -0.509 164 119 96
0.0177857 -0.269157 -0.415 202 156 133
0.0185762 -0.269157 -0.415 202 156 132
0.0343857 -0.269157 -0.415 190 144 121
0.0852429 -0.297694 -0.459 90 70 71
0.281729 -0.398871 -0.615 196 199 218
0.305157 -0.398871 -0.615 98 118 168
0.312186 -0.398871 -0.615 48 84 158
0.340853 -0.39952 -0.616 124 127 142
0.358453 -0.39952 -0.616 146 141 145
0.36432 -0.39952 -0.616 134 135 165
0.384267 -0.39952 -0.616 64 92 140
0.39952 -0.39952 -0.616 108 109 114
0.422987 -0.39952 -0.616 149 151 174
0.42768 -0.39952 -0.616 152 162 197
0.4488 -0.39952 -0.616 161 170 201
0.45232 -0.39952 -0.616 83 90 118
0.476154 -0.400817 -0.618 162 164 177
0.478509 -0.400817 -0.618 163 165 178
0.479307 -0.39952 -0.616 171 171 183
0.482827 -0.39952 -0.616 93 96 113
0.502414 -0.400169 -0.617 98 116 162
0.480481 -0.346986 -0.535 161 120 100
0.478749 -0.338554 -0.522 170 125 102
0.482181 -0.333366 -0.514 169 122 102
0.494929 -0.328826 -0.507 172 126 102
0.0138667 -0.270598 -0.416 196 154 129
0.0416 -0.270598 -0.416 174 126 103
0.0514771 -0.27255 -0.419 167 116 97
0.151947 -0.400693 -0.616 204 211 227
0.154043 -0.400043 -0.615 241 248 255
0.280101 -0.399392 -0.614 157 160 179
0.28244 -0.399392 -0.614 191 194 213
0.301152 -0.399392 -0.614 86 99 143
0.321557 -0.400043 -0.615 57 88 153
0.370187 -0.400693 -0.616 103 135 182
0.372533 -0.400693 -0.616 45 79 140
0.3895 -0.400043 -0.615 150 160 187
0.394827 -0.400693 -0.616 172 174 187
0.407071 -0.400043 -0.615 177 176 194
0.409414 -0.400043 -0.615 182 181 195
0.411757 -0.400043 -0.615 180 180 190
0.429329 -0.400043 -0.615 158 170 194
0.442214 -0.400043 -0.615 88 109 152
0.44528 -0.400693 -0.616 133 147 182
0.446453 -0.400693 -0.616 150 164 199
0.457013 -0.400693 -0.616 85 91 127
0.468747 -0.400693 -0.616 165 169 181
0.477734 -0.401344 -0.617 163 162 178
0.47891 -0.401344 -0.617 164 163 179
0.486347 -0.400693 -0.616 88 95 121
0.502773 -0.400693 -0.616 109 126 169
0.521023 -0.399392 -0.614 144 146 167
0.524845 -0.398742 -0.613 96 103 129
0.479223 -0.343451 -0.528 163 121 99
0.480126 -0.335646 -0.516 168 121 101
0.487171 -0.331743 -0.51 174 126 104
0.491067 -0.330442 -0.508 174 126 104
0.529457 -0.339549 -0.522 151 113 92
0.0115171 -0.272043 -0.417 194 152 128
0.0161657 -0.270086 -0.414 201 157 132
0.0304333 -0.270738 -0.415 188 142 118
0.0312238 -0.270738 -0.415 186 140 117
0.0514771 -0.273348 -0.419 158 109 92
0.0638467 -0.278567 -0.427 122 87 83
0.07434 -0.2877 -0.441 95 75 76
0.075521 -0.289005 -0.443 94 74 73
0.150529 -0.401214 -0.615 216 218 231
0.272639 -0.39991 -0.613 193 194 212
0.300662 -0.39991 -0.613 92 106 151
0.335614 -0.401214 -0.615 192 190 204
0.350843 -0.401214 -0.615 184 185 203
0.382471 -0.401214 -0.615 146 166 199
0.3977 -0.401214 -0.615 157 160 169
0.418105 -0.400562 -0.614 108 112 123
0.427461 -0.400562 -0.614 176 183 202
0.475787 -0.401867 -0.616 162 163 183
0.4961 -0.401214 -0.615 119 134 167
0.499614 -0.401214 -0.615 88 111 153
0.501957 -0.401214 -0.615 117 135 175
0.5125 -0.401214 -0.615 155 164 179
0.518684 -0.400562 -0.614 154 157 174
0.52632 -0.399257 -0.612 82 105 137
0.512057 -0.378381 -0.58 133 110 102
0.490652 -0.359462 -0.551 149 112 103
0.479223 -0.344457 -0.528 163 121 99
0.4862 -0.332714 -0.51 174 126 106
0.489131 -0.33141 -0.508 170 122 99
0.490099 -0.33141 -0.508 176 128 105
0.528443 -0.33989 -0.521 151 110 90
0.0240514 -0.270874 -0.414 190 145 122
0.0272057 -0.270874 -0.414 191 145 122
0.0287829 -0.270874 -0.414 189 143 119
0.0456714 -0.272837 -0.417 177 126 105
0.0669076 -0.281997 -0.431 107 79 78
0.0700143 -0.284614 -0.435 100 75 78
0.0721657 -0.286577 -0.438 94 74 76
0.153792 -0.401731 -0.614 241 243 255
0.238778 -0.401077 -0.613 128 143 184
0.305332 -0.401077 -0.613 60 92 167
0.328051 -0.401731 -0.614 193 190 209
0.329221 -0.401731 -0.614 192 189 208
0.351442 -0.401731 -0.614 188 187 203
0.35729 -0.401731 -0.614 148 148 158
0.367815 -0.401731 -0.614 149 167 203
0.412753 -0.401077 -0.613 176 177 197
0.415766 -0.401731 -0.614 176 178 193
0.441495 -0.401731 -0.614 82 104 145
0.452021 -0.401731 -0.614 160 165 184
0.460208 -0.401731 -0.614 166 166 194
0.467986 -0.402386 -0.615 150 154 179
0.485173 -0.40304 -0.616 114 120 146
0.4879 -0.402386 -0.615 134 132 154
0.488276 -0.401731 -0.614 170 169 185
0.491785 -0.401731 -0.614 164 162 173
0.509328 -0.401731 -0.614 89 108 138
0.516671 -0.401077 -0.613 162 171 186
0.521657 -0.400423 -0.612 112 122 157
0.519762 -0.386029 -0.59 129 104 107
0.489025 -0.358549 -0.548 150 112 91
0.484839 -0.353969 -0.541 158 117 97
0.479319 -0.344809 -0.527 165 120 97
0.478749 -0.341537 -0.522 164 118 95
0.490099 -0.332377 -0.508 171 124 104
0.507546 -0.333031 -0.509 159 117 93
0.514438 -0.334994 -0.512 157 115 93
0.526414 -0.339574 -0.519 154 112 90
0.0130429 -0.272319 -0.415 192 150 126
0.0532 -0.2756 -0.42 157 111 96
0.0549305 -0.276256 -0.421 149 105 92
0.0670629 -0.283474 -0.432 105 79 80
0.0701752 -0.286099 -0.436 99 77 79
0.0746771 -0.290692 -0.443 94 75 77
0.146536 -0.402245 -0.613 217 220 229
0.259371 -0.401589 -0.612 193 202 233
0.276857 -0.401589 -0.612 138 136 150
0.280354 -0.401589 -0.612 185 184 200
0.295509 -0.401589 -0.612 146 149 168
0.312338 -0.402245 -0.613 50 86 160
0.317009 -0.402245 -0.613 120 150 212
0.319344 -0.402245 -0.613 131 152 207
0.329852 -0.402245 -0.613 192 189 208
0.345594 -0.402901 -0.614 192 191 207
0.350272 -0.402901 -0.614 186 189 206
0.373054 -0.402245 -0.613 83 116 169
0.38006 -0.402245 -0.613 130 153 197
0.40925 -0.402245 -0.613 182 179 198
0.411586 -0.402245 -0.613 178 175 194
0.425597 -0.402245 -0.613 177 178 198
0.448512 -0.402901 -0.614 166 173 191
0.514336 -0.402245 -0.613 163 167 179
0.514663 -0.401589 -0.612 157 169 185
0.526624 -0.400932 -0.611 57 79 116
0.5054 -0.374029 -0.57 143 113 102
0.485735 -0.355655 -0.542 156 118 99
0.4795 -0.3445 -0.525 165 120 99
0.478963 -0.340563 -0.519 168 123 100
0.505581 -0.333345 -0.508 163 118 97
0.0239933 -0.271793 -0.413 191 146 123
0.0320143 -0.27311 -0.415 190 144 120
0.0400152 -0.273768 -0.416 180 132 110
0.0423924 -0.273768 -0.416 180 129 110
0.0439771 -0.273768 -0.416 177 126 107
0.0630333 -0.281007 -0.427 116 85 83
0.146536 -0.403412 -0.613 243 246 255
0.274526 -0.402754 -0.612 200 198 219
0.278023 -0.402754 -0.612 146 144 155
0.288514 -0.402754 -0.612 203 205 226
0.301337 -0.402754 -0.612 150 168 206
0.303669 -0.402754 -0.612 143 165 212
0.325817 -0.402754 -0.612 160 176 212
0.339806 -0.402754 -0.612 190 191 196
0.356708 -0.403412 -0.613 147 153 179
0.357875 -0.403412 -0.613 117 123 149
0.38006 -0.403412 -0.613 117 139 186
0.423262 -0.403412 -0.613 168 173 193
0.463716 -0.40407 -0.614 117 128 160
0.482429 -0.40407 -0.614 150 157 173
0.519641 -0.402096 -0.611 160 159 177
0.521969 -0.402096 -0.611 100 107 135
0.525762 -0.401438 -0.61 53 76 118
0.493487 -0.363927 -0.553 152 114 95
0.479411 -0.346158 -0.526 162 120 98
0.485229 -0.335629 -0.51 174 128 105
0.489134 -0.333654 -0.507 176 128 106
0.0169133 -0.27258 -0.413 202 157 134
0.0177 -0.27258 -0.413 199 154 131
0.0368457 -0.27456 -0.416 182 136 113
0.0480543 -0.27522 -0.417 168 119 102
0.063181 -0.28248 -0.428 114 83 81
0.233344 -0.40326 -0.611 208 214 240
0.29037 -0.40326 -0.611 203 204 222
0.304336 -0.40326 -0.611 115 143 193
0.310663 -0.40392 -0.612 109 144 210
0.316491 -0.40392 -0.612 145 171 230
0.35554 -0.40458 -0.613 161 158 177
0.396407 -0.40458 -0.613 175 173 195
0.421406 -0.40392 -0.612 118 121 138
0.4291 -0.40458 -0.613 151 157 179
0.435394 -0.40392 -0.612 120 144 188
0.518477 -0.40326 -0.611 159 161 176
0.507516 -0.33528 -0.508 159 114 91
0.511424 -0.33594 -0.509 158 116 92
0.00909048 -0.27469 -0.415 193 152 130
0.0264171 -0.274029 -0.414 192 146 123
