ply
format ascii 1.0
comment Created by Open3D
element vertex 1315
property double x
property double y
property double z
property uchar red
property uchar green
property uchar blue
end_header
0.48208 -0.232891 -0.552 144 96 86
0.490509 -0.235423 -0.558 145 98 88
-0.293595 -0.275052 -0.649 252 252 250
-0.284942 -0.275052 -0.649 253 253 251
-0.151771 -0.271238 -0.64 243 243 241
-0.144006 -0.27039 -0.638 207 202 196
-0.0929657 -0.27039 -0.638 76 75 80
-0.0843314 -0.266152 -0.628 73 71 82
-0.0704933 -0.26361 -0.622 72 70 81
0.0927562 -0.197495 -0.466 198 155 138
0.102964 -0.196648 -0.464 201 158 141
0.103848 -0.196648 -0.464 201 158 141
0.10868 -0.1958 -0.462 199 154 135
0.147531 -0.198343 -0.468 143 95 85
0.15386 -0.199614 -0.471 131 88 81
0.159018 -0.200462 -0.473 122 82 74
0.16116 -0.200886 -0.474 118 79 72
0.16456 -0.201733 -0.476 114 77 69
0.195714 -0.211905 -0.5 89 63 64
0.204887 -0.216567 -0.511 89 65 65
0.224517 -0.227586 -0.537 208 209 240
0.245064 -0.233519 -0.551 72 53 72
0.247762 -0.233095 -0.55 74 56 70
0.25589 -0.230976 -0.545 92 66 75
0.259566 -0.230552 -0.544 96 71 77
0.272084 -0.227162 -0.536 115 88 93
0.296063 -0.222924 -0.526 129 99 107
0.309127 -0.220805 -0.521 140 111 116
0.310119 -0.220805 -0.521 142 113 118
0.319187 -0.219533 -0.518 141 111 119
0.331071 -0.218262 -0.515 136 107 112
0.332052 -0.218262 -0.515 128 105 113
0.336303 -0.217838 -0.514 213 196 204
0.354173 -0.222924 -0.526 59 61 76
0.416571 -0.254286 -0.6 125 128 147
0.414486 -0.226314 -0.534 145 96 91
0.47372 -0.2314 -0.546 147 99 89
0.485937 -0.23479 -0.554 144 97 87
-0.142343 -0.270754 -0.636 218 215 208
-0.139363 -0.272031 -0.639 203 200 191
-0.08792 -0.267349 -0.628 71 71 81
-0.0864476 -0.266497 -0.626 66 66 76
-0.0749905 -0.263943 -0.62 74 72 83
-0.0727457 -0.264369 -0.621 73 72 80
-0.0606962 -0.268626 -0.631 70 70 80
-0.0538238 -0.270329 -0.635 69 69 79
-0.0446343 -0.273309 -0.642 72 70 81
-0.0365238 -0.276714 -0.65 70 70 80
0.0906733 -0.19966 -0.469 198 155 139
0.0958933 -0.197531 -0.464 200 157 140
0.0985448 -0.197531 -0.464 198 155 138
0.114343 -0.195829 -0.46 199 152 132
0.125733 -0.195829 -0.46 176 124 111
0.129238 -0.195829 -0.46 173 123 112
0.13596 -0.19668 -0.462 154 104 95
0.147531 -0.199234 -0.468 142 93 86
0.169247 -0.203917 -0.479 115 78 70
0.172702 -0.204769 -0.481 112 75 66
0.176545 -0.206046 -0.484 109 75 66
0.193034 -0.212006 -0.498 90 64 67
0.207471 -0.219243 -0.515 78 59 65
0.209667 -0.22052 -0.518 80 61 67
0.225771 -0.229886 -0.54 200 204 241
0.246714 -0.234143 -0.55 77 56 71
0.247762 -0.234143 -0.55 74 56 68
0.256929 -0.232014 -0.545 93 67 76
0.257967 -0.232014 -0.545 95 70 76
0.272595 -0.227757 -0.535 115 90 94
0.276652 -0.226906 -0.533 119 92 97
0.278649 -0.226054 -0.531 126 99 106
0.313096 -0.221797 -0.521 141 111 119
0.33924 -0.218817 -0.514 135 110 116
0.40849 -0.232014 -0.545 146 101 98
0.411954 -0.228183 -0.536 145 94 90
0.42104 -0.22648 -0.532 148 100 90
0.428133 -0.22648 -0.532 147 95 84
0.452967 -0.227757 -0.535 140 92 82
0.457729 -0.228609 -0.537 146 96 87
0.496351 -0.238826 -0.561 146 98 88
-0.138709 -0.271966 -0.636 227 226 221
-0.119109 -0.277097 -0.648 240 237 228
-0.105942 -0.274959 -0.643 205 205 205
-0.1001 -0.272393 -0.637 75 74 79
-0.0760486 -0.264696 -0.619 75 74 82
0.08978 -0.200553 -0.469 199 156 140
0.090981 -0.19927 -0.466 199 152 142
0.10692 -0.19756 -0.462 199 154 135
0.108445 -0.197132 -0.461 199 152 134
0.111714 -0.196705 -0.46 197 150 132
0.113467 -0.196705 -0.46 200 153 135
0.115219 -0.196705 -0.46 197 150 130
0.116971 -0.196705 -0.46 194 147 127
0.123105 -0.196705 -0.46 184 130 118
0.151743 -0.200981 -0.47 135 88 80
0.155985 -0.201836 -0.472 126 83 77
0.19037 -0.212099 -0.496 90 65 68
0.192086 -0.212954 -0.498 89 64 67
0.19381 -0.21381 -0.5 89 62 67
0.199027 -0.216375 -0.506 88 62 65
0.239011 -0.236901 -0.554 65 47 61
0.257967 -0.233052 -0.545 95 70 76
0.260602 -0.232625 -0.544 99 74 80
0.268473 -0.230487 -0.539 109 84 88
0.273103 -0.228349 -0.534 117 92 96
0.2965 -0.2245 -0.525 131 101 109
0.300351 -0.223645 -0.523 131 101 109
0.351829 -0.224072 -0.524 64 48 59
0.40716 -0.23348 -0.546 147 103 102
0.41118 -0.230487 -0.539 139 90 86
0.41777 -0.227921 -0.533 146 96 89
0.418786 -0.227921 -0.533 144 94 87
0.431173 -0.227493 -0.532 144 94 85
0.434213 -0.227493 -0.532 148 98 87
-0.12412 -0.275754 -0.642 245 244 239
-0.107549 -0.274036 -0.638 168 164 161
-0.100677 -0.271889 -0.633 67 66 72
-0.0716781 -0.267164 -0.622 73 71 82
-0.063 -0.2706 -0.63 70 70 80
-0.04232 -0.276613 -0.644 73 71 82
-0.03888 -0.278331 -0.648 71 70 78
-0.0365238 -0.27919 -0.65 71 71 81
0.0880286 -0.203594 -0.474 200 154 138
0.0886971 -0.201017 -0.468 201 155 139
0.0893971 -0.200588 -0.467 200 154 139
0.1034 -0.19844 -0.462 205 158 140
0.128362 -0.197581 -0.46 173 121 110
0.13508 -0.19844 -0.462 151 103 93
0.140386 -0.199729 -0.465 148 100 90
0.150848 -0.201876 -0.47 134 87 79
0.156884 -0.202735 -0.472 121 80 74
0.165814 -0.204883 -0.477 111 77 68
0.241122 -0.237956 -0.554 71 53 65
0.269523 -0.230654 -0.537 110 85 89
0.286126 -0.226789 -0.528 138 108 118
0.2965 -0.2255 -0.525 130 100 108
0.306737 -0.224211 -0.522 135 110 116
0.4312 -0.264587 -0.616 100 100 124
0.413996 -0.230225 -0.536 146 95 91
0.420816 -0.228936 -0.533 146 96 87
0.426107 -0.228507 -0.532 146 96 87
0.434213 -0.228507 -0.532 151 101 90
0.43542 -0.228077 -0.531 152 102 91
0.438454 -0.228077 -0.531 149 99 88
0.456876 -0.230225 -0.536 141 93 79
0.458751 -0.230654 -0.537 144 96 84
-0.134225 -0.272663 -0.632 236 236 236
-0.112057 -0.274389 -0.636 157 157 159
-0.102111 -0.270506 -0.627 72 71 77
-0.0838933 -0.26576 -0.616 75 74 82
-0.0769781 -0.266191 -0.617 73 72 80
-0.0727457 -0.267917 -0.621 72 72 80
-0.0716781 -0.268349 -0.622 72 72 80
0.0880419 -0.208811 -0.484 200 154 138
0.0941257 -0.200183 -0.464 199 154 135
0.109086 -0.198457 -0.46 197 150 132
0.11934 -0.198026 -0.459 182 135 115
0.120214 -0.198026 -0.459 184 130 120
0.138316 -0.200183 -0.464 147 98 91
0.1615 -0.204929 -0.475 118 81 73
0.168334 -0.206654 -0.479 111 76 70
0.189807 -0.21442 -0.497 89 64 67
0.257967 -0.235129 -0.545 95 70 74
0.27512 -0.22952 -0.532 119 92 97
0.276133 -0.22952 -0.532 116 89 94
0.279133 -0.228657 -0.53 132 105 112
0.291607 -0.227363 -0.527 128 98 106
0.300926 -0.226069 -0.524 133 103 111
0.318814 -0.223911 -0.519 140 113 120
0.32911 -0.222186 -0.515 137 110 119
0.426536 -0.263603 -0.611 88 86 108
0.409813 -0.234697 -0.544 142 93 89
0.41777 -0.229951 -0.533 144 96 86
0.419801 -0.229951 -0.533 144 94 85
0.421831 -0.229951 -0.533 148 98 89
0.440477 -0.229089 -0.531 150 98 85
-0.129 -0.273 -0.63 216 217 221
-0.102647 -0.269967 -0.623 69 68 74
-0.0771029 -0.2678 -0.618 74 73 81
-0.0728629 -0.269533 -0.622 72 72 80
-0.0685619 -0.271267 -0.626 72 72 80
-0.0459286 -0.278633 -0.643 72 70 81
0.0878057 -0.2028 -0.468 203 154 139
0.0939229 -0.200633 -0.463 198 155 136
0.124586 -0.1989 -0.459 177 125 112
0.13508 -0.2002 -0.462 150 100 93
0.149057 -0.203667 -0.47 134 89 84
0.154187 -0.204533 -0.472 124 84 76
0.163653 -0.206267 -0.476 117 80 74
0.19057 -0.216233 -0.499 88 63 66
0.247762 -0.238333 -0.55 81 59 72
0.253704 -0.237033 -0.547 90 67 77
0.256929 -0.236167 -0.545 92 69 75
0.291607 -0.228367 -0.527 129 99 107
0.293057 -0.227933 -0.526 133 103 111
0.304749 -0.2262 -0.522 136 109 116
0.319187 -0.224467 -0.518 136 111 117
0.32911 -0.223167 -0.515 136 110 119
0.412207 -0.233567 -0.539 139 92 84
0.415262 -0.231833 -0.535 138 89 82
0.42712 -0.230533 -0.532 147 97 86
0.439466 -0.2301 -0.531 151 99 85
-0.121413 -0.27333 -0.628 92 91 97
-0.11268 -0.272459 -0.626 71 70 76
-0.0882991 -0.267236 -0.614 76 75 83
-0.0730971 -0.271589 -0.624 73 74 79
-0.0563314 -0.276811 -0.636 73 71 82
-0.041221 -0.281164 -0.646 72 70 81
0.0883181 -0.202821 -0.466 197 154 137
0.0939229 -0.201515 -0.463 201 156 135
0.099 -0.20108 -0.462 204 157 137
0.10821 -0.20021 -0.46 197 150 130
0.116717 -0.199774 -0.459 189 140 125
0.121089 -0.199774 -0.459 184 132 118
0.127209 -0.199774 -0.459 173 123 112
0.130397 -0.200645 -0.461 161 109 96
0.13332 -0.20108 -0.462 152 102 93
0.153288 -0.205432 -0.472 127 84 78
0.157216 -0.205868 -0.473 122 83 76
0.191334 -0.218054 -0.501 91 66 69
0.2115 -0.2285 -0.525 214 212 233
0.240963 -0.244169 -0.561 66 53 70
0.260602 -0.23677 -0.544 98 73 79
0.269523 -0.233723 -0.537 112 87 91
0.272084 -0.233288 -0.536 116 89 94
0.280143 -0.230676 -0.53 131 104 111
0.282162 -0.230676 -0.53 131 104 111
0.313096 -0.226759 -0.521 144 117 124
0.327783 -0.224583 -0.516 136 111 117
0.423284 -0.264625 -0.608 105 103 125
0.408651 -0.23851 -0.548 142 96 96
0.4082 -0.23764 -0.546 146 98 96
0.409529 -0.237205 -0.545 145 97 95
0.413491 -0.234158 -0.538 137 90 84
0.429147 -0.231547 -0.532 146 98 88
0.432187 -0.231547 -0.532 151 102 88
0.455005 -0.232852 -0.535 146 97 83
0.457897 -0.233288 -0.536 146 97 83
0.484524 -0.239381 -0.55 145 95 86
-0.131758 -0.273651 -0.626 95 96 100
-0.125394 -0.272777 -0.624 90 91 96
-0.116887 -0.27234 -0.623 75 76 81
-0.112963 -0.271466 -0.621 72 71 79
-0.1116 -0.271029 -0.62 72 71 79
-0.106187 -0.26928 -0.616 65 64 72
-0.0901952 -0.267094 -0.611 75 74 82
-0.0891771 -0.267531 -0.612 76 75 83
0.100542 -0.201523 -0.461 203 156 136
0.11322 -0.200649 -0.459 194 146 126
0.114094 -0.200649 -0.459 195 147 127
0.114969 -0.200649 -0.459 196 145 128
0.158451 -0.207206 -0.474 121 82 75
0.165251 -0.208954 -0.478 113 78 72
0.167422 -0.209391 -0.479 111 78 71
0.244363 -0.244363 -0.559 75 57 69
0.245786 -0.242614 -0.555 81 58 74
0.246843 -0.242614 -0.555 81 58 74
0.25636 -0.23868 -0.546 95 70 76
0.26426 -0.237369 -0.543 103 78 84
0.266914 -0.236057 -0.54 111 84 89
0.280143 -0.231686 -0.53 136 106 114
0.29893 -0.229063 -0.524 133 103 113
0.307731 -0.228189 -0.522 138 111 120
0.423862 -0.232997 -0.533 145 95 84
0.468514 -0.236057 -0.54 143 93 82
0.491213 -0.242177 -0.554 145 97 87
-0.138054 -0.277917 -0.633 112 113 117
-0.13295 -0.274844 -0.626 107 108 112
-0.122229 -0.27221 -0.62 81 82 87
-0.0882991 -0.269575 -0.614 76 75 83
-0.0753533 -0.273527 -0.623 74 74 82
-0.0377619 -0.285381 -0.65 74 72 83
0.09372 -0.20284 -0.462 200 155 134
0.107974 -0.201523 -0.459 199 152 134
0.126334 -0.201523 -0.459 167 117 106
0.130397 -0.202401 -0.461 154 104 97
0.136549 -0.203718 -0.464 148 99 94
0.144857 -0.205474 -0.468 134 91 85
0.146953 -0.205913 -0.469 132 89 83
0.169037 -0.211182 -0.481 108 74 72
0.19038 -0.219963 -0.501 86 65 64
0.193824 -0.221719 -0.505 86 62 60
0.205524 -0.228305 -0.52 78 65 74
0.247288 -0.24411 -0.556 83 59 72
0.267943 -0.237086 -0.54 110 85 89
0.282162 -0.232695 -0.53 134 104 112
0.290149 -0.231817 -0.528 139 109 119
0.291607 -0.231378 -0.527 131 101 111
0.30334 -0.229622 -0.523 139 112 121
0.303754 -0.229183 -0.522 144 117 126
0.308726 -0.229183 -0.522 138 111 120
0.34319 -0.226988 -0.517 136 112 125
0.408071 -0.259477 -0.591 131 128 147
0.411886 -0.238842 -0.544 137 89 85
0.41808 -0.23533 -0.536 137 88 81
0.436431 -0.233134 -0.531 152 100 87
-0.124189 -0.272509 -0.618 92 93 97
-0.105617 -0.267217 -0.606 59 60 65
-0.0962238 -0.266776 -0.605 66 65 73
-0.0495257 -0.283091 -0.642 73 72 80
-0.0425171 -0.285296 -0.647 68 66 77
0.0840429 -0.210334 -0.477 199 158 138
0.0863571 -0.205043 -0.465 200 157 138
0.0902 -0.20372 -0.462 199 156 137
0.0970295 -0.203279 -0.461 204 159 138
0.0996638 -0.203279 -0.461 201 156 135
0.112101 -0.201956 -0.458 193 145 125
0.116717 -0.202397 -0.459 188 134 124
0.120214 -0.202397 -0.459 180 131 117
0.138912 -0.205484 -0.466 145 96 91
0.144857 -0.206366 -0.468 134 89 86
0.146953 -0.206807 -0.469 130 86 83
0.160027 -0.209893 -0.476 117 80 74
0.17066 -0.21298 -0.483 103 72 69
0.19114 -0.221799 -0.503 89 68 67
0.198461 -0.225768 -0.512 84 58 59
0.2626 -0.24076 -0.546 99 74 78
0.27816 -0.234587 -0.532 129 102 109
0.293057 -0.231941 -0.526 132 105 114
0.2945 -0.2315 -0.525 133 106 115
0.316457 -0.229295 -0.52 141 114 123
0.32911 -0.22709 -0.515 135 109 118
0.333033 -0.22709 -0.515 203 183 192
0.4354 -0.274272 -0.622 89 86 107
0.410381 -0.24517 -0.556 142 97 94
0.41028 -0.24076 -0.546 137 92 87
0.415533 -0.238996 -0.542 135 88 82
0.417837 -0.236791 -0.537 133 84 79
0.420357 -0.23591 -0.535 140 91 84
0.422623 -0.235469 -0.534 140 92 82
0.426908 -0.235028 -0.533 142 94 84
0.444523 -0.234146 -0.531 146 96 85
0.454154 -0.235469 -0.534 149 99 88
0.456024 -0.23591 -0.535 147 97 86
0.465754 -0.237232 -0.538 143 93 84
0.483806 -0.241642 -0.548 144 94 83
0.494214 -0.244729 -0.555 149 99 90
-0.138362 -0.283429 -0.64 108 109 113
-0.127157 -0.275014 -0.621 98 99 103
-0.10987 -0.267486 -0.604 61 62 67
-0.1 -0.265714 -0.6 57 57 65
-0.0939191 -0.267929 -0.605 66 65 73
-0.0789133 -0.2759 -0.623 77 76 84
0.08668 -0.2046 -0.462 200 157 140
0.0985714 -0.203714 -0.46 204 157 137
0.108611 -0.202829 -0.458 197 150 130
0.261474 -0.242686 -0.548 97 74 80
0.26468 -0.2418 -0.546 100 78 81
0.268397 -0.240471 -0.543 109 84 90
0.26947 -0.239586 -0.541 111 86 92
0.276154 -0.236486 -0.534 113 86 93
0.290603 -0.233386 -0.527 139 109 119
0.30334 -0.231614 -0.523 139 112 119
0.306737 -0.231171 -0.522 139 112 119
0.307731 -0.231171 -0.522 139 112 119
0.311111 -0.230729 -0.521 142 115 124
0.32116 -0.2294 -0.518 132 105 114
0.32251 -0.228957 -0.517 131 104 113
0.348497 -0.231171 -0.522 68 51 59
0.424676 -0.270143 -0.61 82 78 101
0.415797 -0.239586 -0.541 132 85 79
0.418615 -0.238257 -0.538 131 84 78
0.422847 -0.236043 -0.533 139 92 84
0.463866 -0.237814 -0.537 147 97 88
-0.102286 -0.266857 -0.6 63 63 73
-0.0811562 -0.276642 -0.622 77 76 82
-0.0778514 -0.277531 -0.624 77 76 82
0.08844 -0.20548 -0.462 200 157 140
0.0994476 -0.20459 -0.46 202 155 137
0.101854 -0.204146 -0.459 201 154 138
0.106226 -0.204146 -0.459 197 150 130
0.127486 -0.20459 -0.46 159 109 98
0.135665 -0.20637 -0.464 148 98 89
0.258342 -0.247732 -0.557 96 73 83
0.275147 -0.238392 -0.536 118 91 98
0.285729 -0.236169 -0.531 139 112 121
0.306737 -0.232166 -0.522 141 114 121
0.309127 -0.231721 -0.521 141 114 123
0.313096 -0.231721 -0.521 136 109 118
0.32251 -0.229942 -0.517 131 104 113
0.323494 -0.229942 -0.517 130 103 112
0.3399 -0.229052 -0.515 143 120 130
0.41153 -0.248622 -0.559 144 96 96
0.418615 -0.239282 -0.538 129 82 76
0.425892 -0.237058 -0.533 142 93 86
0.4484 -0.236613 -0.532 144 92 81
0.4716 -0.240171 -0.54 147 97 88
-0.114472 -0.269787 -0.604 73 72 80
-0.11047 -0.268447 -0.601 67 66 74
-0.0912095 -0.272467 -0.61 68 67 75
-0.0823409 -0.277827 -0.622 75 74 82
-0.0530286 -0.285867 -0.64 72 71 77
-0.0414124 -0.289887 -0.649 87 86 94
-0.0402381 -0.290333 -0.65 72 71 79
-0.039 -0.290333 -0.65 76 75 83
0.0824571 -0.20904 -0.468 201 159 145
0.08492 -0.20636 -0.462 203 160 143
0.106867 -0.204573 -0.458 198 150 128
0.112973 -0.204573 -0.458 193 143 120
0.133609 -0.206807 -0.463 146 98 86
0.138025 -0.208147 -0.466 142 94 84
0.1401 -0.208593 -0.467 139 91 81
0.15059 -0.210827 -0.472 129 86 77
0.158213 -0.212613 -0.476 120 81 76
0.16252 -0.213507 -0.478 111 78 73
0.1826 -0.22244 -0.498 90 64 63
0.19418 -0.228247 -0.511 93 67 76
0.257072 -0.258173 -0.578 89 68 75
0.25728 -0.25728 -0.576 90 69 78
0.258824 -0.252367 -0.565 94 70 83
0.264337 -0.247453 -0.554 99 73 82
0.276683 -0.23986 -0.537 115 88 95
0.291154 -0.23584 -0.528 141 111 121
0.308726 -0.23316 -0.522 142 112 120
0.318814 -0.23182 -0.519 134 107 116
0.331071 -0.230033 -0.515 139 109 119
0.412669 -0.251027 -0.562 140 94 94
0.409695 -0.244773 -0.548 139 91 91
0.416828 -0.241647 -0.541 131 83 79
0.417858 -0.241647 -0.541 129 82 76
0.452289 -0.238073 -0.533 152 100 89
-0.114472 -0.270937 -0.604 60 60 68
-0.078101 -0.280806 -0.626 76 75 83
-0.0679076 -0.283049 -0.631 73 72 78
-0.0645057 -0.283946 -0.633 72 71 79
-0.0473 -0.289329 -0.645 76 75 83
-0.0461429 -0.289777 -0.646 83 82 90
-0.0437495 -0.290226 -0.647 81 80 88
0.0811467 -0.21352 -0.476 200 161 146
0.0838581 -0.206791 -0.461 206 160 145
0.0854286 -0.206343 -0.46 204 158 142
0.0992314 -0.205894 -0.459 201 156 135
0.1401 -0.209483 -0.467 136 89 79
0.15484 -0.212623 -0.474 121 82 77
0.170443 -0.217557 -0.485 99 70 66
0.184286 -0.224286 -0.5 91 67 67
0.193207 -0.22922 -0.511 90 64 73
0.285309 -0.239537 -0.534 138 111 120
0.2985 -0.2355 -0.525 136 109 118
0.302344 -0.234603 -0.523 137 110 119
0.305743 -0.234154 -0.522 139 112 121
0.319803 -0.232809 -0.519 132 105 114
0.323133 -0.23236 -0.518 131 104 113
0.334345 -0.230566 -0.514 151 136 141
0.43624 -0.23864 -0.532 151 101 90
0.444347 -0.23864 -0.532 145 93 82
0.474534 -0.242677 -0.541 146 96 85
0.492594 -0.247611 -0.552 151 101 92
-0.0691095 -0.28425 -0.631 74 73 79
0.0913629 -0.206769 -0.459 205 160 139
0.0974829 -0.206769 -0.459 206 159 139
0.136843 -0.209471 -0.465 141 95 82
0.169869 -0.218931 -0.486 101 70 68
0.267618 -0.259925 -0.577 91 76 83
0.269935 -0.25587 -0.568 94 75 79
0.270183 -0.254069 -0.564 98 79 83
0.273897 -0.248663 -0.552 107 81 90
0.288835 -0.240104 -0.533 140 113 122
0.292713 -0.238302 -0.529 138 111 120
0.30334 -0.235599 -0.523 138 111 120
0.308134 -0.234698 -0.521 140 113 122
0.317448 -0.234248 -0.52 137 110 119
0.334345 -0.231545 -0.514 208 193 198
0.413595 -0.269835 -0.599 106 105 123
0.423514 -0.27479 -0.61 85 81 104
0.40879 -0.248212 -0.551 140 94 94
0.410443 -0.247311 -0.549 132 87 84
0.41548 -0.24596 -0.546 133 86 80
0.41863 -0.244158 -0.542 120 75 70
0.426471 -0.241005 -0.535 133 86 78
0.43706 -0.240104 -0.533 149 99 88
0.438267 -0.239653 -0.532 148 98 87
0.486937 -0.246861 -0.548 148 98 91
0.499341 -0.250465 -0.556 145 101 92
-0.11658 -0.2755 -0.609 117 120 127
-0.0904905 -0.27731 -0.613 62 61 69
-0.0804857 -0.28319 -0.626 74 73 81
-0.07942 -0.283643 -0.627 74 73 81
-0.074881 -0.284548 -0.629 75 74 82
-0.0726 -0.285 -0.63 77 76 82
-0.0715133 -0.285452 -0.631 76 75 81
-0.0426486 -0.293595 -0.649 70 69 75
0.0799533 -0.212167 -0.469 203 162 144
0.08298 -0.208548 -0.461 201 158 139
0.0843686 -0.207643 -0.459 202 159 140
0.0861171 -0.207643 -0.459 205 160 139
0.0939857 -0.207643 -0.459 206 161 142
0.127486 -0.208095 -0.46 154 106 92
0.141291 -0.211714 -0.468 137 91 78
0.149691 -0.213524 -0.472 132 85 79
0.15181 -0.213976 -0.473 130 83 77
0.16354 -0.217595 -0.481 104 73 71
0.272622 -0.263738 -0.583 90 73 83
0.272957 -0.261929 -0.579 91 71 80
0.28029 -0.246095 -0.544 109 89 100
0.287934 -0.242929 -0.537 142 109 118
0.290394 -0.241571 -0.534 139 113 122
0.295177 -0.238857 -0.528 143 113 125
0.299069 -0.237952 -0.526 140 110 118
0.3268 -0.233429 -0.516 130 103 112
0.334345 -0.232524 -0.514 180 158 170
0.409731 -0.252429 -0.558 145 99 102
0.410443 -0.248357 -0.549 133 84 87
0.417067 -0.246095 -0.544 127 79 75
0.474686 -0.244286 -0.54 148 100 90
0.49454 -0.250167 -0.553 146 102 89
0.499341 -0.251524 -0.556 145 101 92
-0.105789 -0.269846 -0.594 120 121 126
-0.0588467 -0.28938 -0.637 74 73 79
-0.0485286 -0.293014 -0.645 70 69 75
0.0792714 -0.211243 -0.465 202 161 143
0.0843686 -0.208517 -0.459 204 161 142
0.0868019 -0.208063 -0.458 203 161 139
0.0946533 -0.208063 -0.458 203 158 137
0.121697 -0.208063 -0.458 161 115 100
0.128641 -0.209426 -0.461 152 104 90
0.13921 -0.212151 -0.467 137 91 78
0.169638 -0.221691 -0.488 98 70 69
0.170917 -0.222146 -0.489 97 69 68
0.182517 -0.228506 -0.503 93 68 71
0.189313 -0.23214 -0.511 95 70 73
0.281729 -0.252129 -0.555 100 77 85
0.283394 -0.248949 -0.548 105 82 92
0.308321 -0.237591 -0.523 135 108 117
0.311709 -0.237137 -0.522 135 108 117
0.312104 -0.236683 -0.521 134 107 116
0.320173 -0.23532 -0.518 134 104 114
0.333366 -0.233503 -0.514 212 190 202
0.4233 -0.26394 -0.581 136 94 96
0.413063 -0.256217 -0.564 137 95 97
0.435846 -0.242589 -0.534 146 96 87
0.450258 -0.242134 -0.533 143 91 80
0.480426 -0.246677 -0.543 151 103 93
-0.0849829 -0.284663 -0.624 66 65 73
0.0944467 -0.208479 -0.457 203 158 137
0.143686 -0.21441 -0.47 136 89 79
0.151229 -0.216234 -0.474 125 80 75
0.152131 -0.216234 -0.474 125 80 75
0.162962 -0.219884 -0.482 100 70 70
0.286514 -0.251817 -0.552 103 80 86
0.293995 -0.244062 -0.535 138 112 121
0.296854 -0.242237 -0.531 140 114 123
0.302074 -0.239956 -0.526 142 112 120
0.310714 -0.238131 -0.522 133 107 116
0.323133 -0.236307 -0.518 136 106 116
0.326449 -0.23585 -0.517 134 107 116
0.328766 -0.235394 -0.516 135 108 117
0.333033 -0.234938 -0.515 165 142 150
0.333366 -0.234482 -0.514 191 169 181
0.337938 -0.234938 -0.515 140 115 121
0.364273 -0.246799 -0.541 64 62 75
0.41652 -0.24908 -0.546 123 78 72
0.419403 -0.247711 -0.543 124 79 74
0.424527 -0.245887 -0.539 129 82 76
0.465044 -0.244518 -0.536 147 98 84
-0.124791 -0.289974 -0.633 121 124 129
-0.1189 -0.281729 -0.615 123 126 133
-0.0993333 -0.273025 -0.596 67 70 75
-0.0861714 -0.285851 -0.624 63 61 72
-0.085119 -0.28631 -0.625 65 64 72
-0.0840629 -0.286768 -0.626 66 65 73
-0.0806143 -0.287226 -0.627 72 71 79
-0.0554667 -0.293181 -0.64 74 73 79
0.0772733 -0.214847 -0.469 203 164 149
0.0935762 -0.20935 -0.457 202 160 138
0.0985829 -0.208891 -0.456 202 157 136
0.0992333 -0.208433 -0.455 202 157 136
0.103567 -0.208433 -0.455 198 151 131
0.13213 -0.212556 -0.464 146 98 86
0.15368 -0.218053 -0.476 123 79 76
0.154587 -0.218053 -0.476 109 79 79
0.158298 -0.219428 -0.479 104 74 74
0.1649 -0.222176 -0.485 98 72 75
0.293357 -0.254243 -0.555 99 79 88
0.300453 -0.243707 -0.532 139 112 119
0.309317 -0.239584 -0.523 135 109 118
0.312306 -0.239584 -0.523 135 109 118
0.319803 -0.237751 -0.519 136 109 118
0.42198 -0.24783 -0.541 127 82 76
0.42658 -0.246913 -0.539 131 84 78
0.430111 -0.245997 -0.537 133 84 77
0.433394 -0.245539 -0.536 137 88 81
0.436863 -0.244623 -0.534 139 89 80
0.438897 -0.244623 -0.534 141 91 82
0.439914 -0.244623 -0.534 142 92 83
0.484271 -0.249662 -0.545 149 101 91
-0.107688 -0.27232 -0.592 119 122 127
-0.0967324 -0.27646 -0.601 64 62 73
-0.076321 -0.29026 -0.631 75 74 82
-0.0705343 -0.29118 -0.633 75 74 82
0.0848714 -0.21022 -0.457 204 163 145
0.09424 -0.20976 -0.456 203 161 139
0.11248 -0.20976 -0.456 192 145 125
0.115086 -0.20976 -0.456 184 139 118
0.116823 -0.20976 -0.456 179 134 113
0.11969 -0.21022 -0.457 162 114 100
0.120561 -0.21022 -0.457 164 116 102
0.1298 -0.21252 -0.462 150 100 89
0.143686 -0.2162 -0.47 131 88 79
0.145786 -0.21666 -0.471 130 87 80
0.184086 -0.2346 -0.51 98 72 73
0.19092 -0.23828 -0.518 96 80 83
0.298658 -0.25622 -0.557 98 76 88
0.299548 -0.25162 -0.547 102 79 89
0.304805 -0.24334 -0.529 138 108 116
0.348834 -0.24104 -0.524 60 43 49
0.36562 -0.24978 -0.543 59 55 69
0.421471 -0.24978 -0.543 126 81 76
0.430111 -0.24702 -0.537 130 83 77
0.441757 -0.2461 -0.535 143 94 87
0.466065 -0.24656 -0.536 144 95 81
-0.112384 -0.276681 -0.599 116 119 124
-0.105076 -0.272524 -0.59 112 115 120
-0.10205 -0.273448 -0.592 106 109 114
-0.0918076 -0.28361 -0.614 60 58 69
-0.0864476 -0.289152 -0.626 61 59 70
-0.07174 -0.292386 -0.633 75 74 80
0.0754867 -0.216633 -0.469 202 166 152
0.0900943 -0.21109 -0.457 207 164 145
0.104433 -0.210167 -0.455 198 153 132
0.126885 -0.212938 -0.461 155 105 94
0.133013 -0.214324 -0.464 147 97 86
0.143686 -0.217095 -0.47 130 87 81
0.149108 -0.218481 -0.473 121 82 77
0.155236 -0.22079 -0.478 107 77 77
0.172767 -0.229567 -0.497 92 67 71
0.303086 -0.251276 -0.544 114 91 99
0.320791 -0.239729 -0.519 137 107 117
0.332052 -0.237881 -0.515 157 136 143
0.339577 -0.238343 -0.516 136 111 117
0.407936 -0.257281 -0.557 138 97 101
0.426343 -0.249429 -0.54 131 84 78
0.4387 -0.247119 -0.535 137 88 81
0.448228 -0.246195 -0.533 143 93 86
0.455334 -0.246195 -0.533 149 99 90
-0.129182 -0.301012 -0.649 114 117 126
-0.114093 -0.279213 -0.602 116 119 124
-0.0901971 -0.287098 -0.619 60 58 69
-0.0865857 -0.290809 -0.627 61 59 70
-0.0820695 -0.291736 -0.629 64 62 73
-0.0613695 -0.29591 -0.638 74 73 79
-0.05564 -0.297766 -0.642 72 71 77
-0.0509857 -0.299157 -0.645 71 70 76
0.0798229 -0.212425 -0.458 204 165 150
0.0864229 -0.211497 -0.456 206 165 145
0.100745 -0.21057 -0.454 199 154 131
0.114833 -0.211033 -0.455 180 135 114
0.123711 -0.212889 -0.459 155 107 95
0.135362 -0.216135 -0.466 143 93 84
0.164061 -0.226339 -0.488 100 71 73
0.168901 -0.229122 -0.494 95 69 72
0.17914 -0.235151 -0.507 94 69 73
0.182857 -0.23747 -0.512 97 73 73
0.323446 -0.297766 -0.642 199 205 241
0.314694 -0.244428 -0.527 140 110 120
0.34122 -0.23979 -0.517 141 116 122
0.429429 -0.250457 -0.54 128 81 75
0.437061 -0.24953 -0.538 129 82 76
0.45635 -0.24721 -0.533 150 100 89
0.461274 -0.247674 -0.534 155 103 90
0.462291 -0.247674 -0.534 155 103 90
0.491112 -0.254168 -0.548 150 97 89
-0.102829 -0.274771 -0.59 108 109 114
-0.100131 -0.276634 -0.594 71 72 77
-0.0912286 -0.287811 -0.618 62 60 71
-0.08778 -0.292003 -0.627 59 57 68
-0.0579952 -0.298523 -0.641 72 71 77
-0.0545019 -0.299454 -0.643 71 70 76
0.0766667 -0.214229 -0.46 206 164 150
0.0838171 -0.212366 -0.456 205 167 148
0.0890286 -0.212366 -0.456 205 164 144
0.0983667 -0.2119 -0.455 202 157 134
0.110257 -0.211434 -0.454 191 147 122
0.129199 -0.215626 -0.463 150 102 90
0.138617 -0.217954 -0.468 137 86 85
0.141593 -0.21842 -0.469 134 86 86
0.154971 -0.223543 -0.48 108 74 73
0.15621 -0.224009 -0.481 105 75 75
0.176859 -0.235651 -0.506 95 70 74
0.31189 -0.258937 -0.556 99 81 93
0.312295 -0.252417 -0.542 123 106 116
0.316702 -0.245431 -0.527 139 109 119
0.320657 -0.243103 -0.522 144 114 124
0.447815 -0.297126 -0.638 91 83 104
0.408 -0.2608 -0.56 138 89 93
0.420948 -0.253814 -0.545 127 80 74
0.423792 -0.252417 -0.542 127 80 74
0.433767 -0.25102 -0.539 124 79 74
0.43582 -0.25102 -0.539 127 79 75
0.440541 -0.249623 -0.536 139 90 83
0.443604 -0.249623 -0.536 144 94 85
0.452289 -0.248226 -0.533 141 91 80
0.464326 -0.248691 -0.534 155 103 90
0.472049 -0.250089 -0.537 145 96 82
0.47586 -0.25102 -0.539 145 96 82
0.497851 -0.257074 -0.552 144 98 82
-0.1189 -0.287586 -0.615 109 112 117
-0.112009 -0.279169 -0.597 109 112 117
-0.110129 -0.277298 -0.593 107 110 115
-0.108448 -0.275895 -0.59 106 109 114
-0.0776457 -0.295535 -0.632 66 65 73
-0.0592162 -0.299744 -0.641 74 73 79
-0.0579952 -0.299744 -0.641 73 72 78
0.0735829 -0.221651 -0.474 202 168 158
0.0750771 -0.215572 -0.461 204 168 156
0.105933 -0.212299 -0.454 197 155 133
0.122837 -0.214637 -0.459 161 107 97
0.1333 -0.217443 -0.465 145 96 91
0.136542 -0.218378 -0.467 136 91 86
0.186071 -0.24363 -0.521 131 115 118
0.411783 -0.256255 -0.548 126 78 76
0.431486 -0.252514 -0.54 125 80 75
0.433543 -0.252514 -0.54 124 79 73
0.437061 -0.251579 -0.538 132 85 79
0.439317 -0.251111 -0.537 131 84 76
0.445833 -0.250176 -0.535 139 89 82
0.485455 -0.254385 -0.544 152 100 87
0.509333 -0.261867 -0.56 142 96 83
-0.0983629 -0.280306 -0.597 75 73 84
-0.08792 -0.294861 -0.628 59 57 68
-0.0499114 -0.303782 -0.647 72 71 77
-0.0487543 -0.304251 -0.648 72 72 80
0.074199 -0.21645 -0.461 204 168 156
0.100745 -0.213164 -0.454 202 157 138
0.103339 -0.213164 -0.454 199 154 135
0.122837 -0.215511 -0.459 158 105 97
0.151594 -0.224432 -0.478 105 75 77
0.154699 -0.22631 -0.482 101 75 78
0.161933 -0.230067 -0.49 96 71 74
0.163531 -0.231006 -0.492 95 70 74
0.175623 -0.238518 -0.508 89 64 67
0.321326 -0.247909 -0.528 144 111 120
0.322725 -0.247439 -0.527 143 110 119
0.334663 -0.242274 -0.516 129 102 111
0.335646 -0.242274 -0.516 127 100 109
0.40548 -0.261994 -0.558 135 83 85
0.40774 -0.258708 -0.551 132 84 82
0.413115 -0.25683 -0.547 130 82 80
0.437873 -0.253073 -0.539 130 83 75
0.451273 -0.250256 -0.533 141 91 80
0.454319 -0.250256 -0.533 143 94 80
0.457365 -0.250256 -0.533 151 99 86
0.474977 -0.252604 -0.538 145 96 82
0.482638 -0.254482 -0.542 149 97 84
-0.10696 -0.2772 -0.588 104 104 112
-0.0924057 -0.291343 -0.618 67 65 76
-0.0915238 -0.292286 -0.62 66 64 75
-0.0847343 -0.297471 -0.631 59 57 68
-0.079099 -0.298886 -0.634 62 60 71
0.073321 -0.217329 -0.461 204 167 158
0.0777371 -0.214971 -0.456 201 164 148
0.101386 -0.213557 -0.453 199 156 139
0.103339 -0.214029 -0.454 197 154 137
0.107426 -0.213557 -0.453 194 151 132
0.110257 -0.214029 -0.454 189 144 123
0.13802 -0.2211 -0.469 128 87 85
0.15502 -0.2277 -0.483 98 73 76
0.15974 -0.230529 -0.489 95 69 72
0.162925 -0.232414 -0.493 98 72 75
0.177351 -0.241843 -0.513 87 67 69
0.350831 -0.248443 -0.527 54 41 48
0.404357 -0.261643 -0.555 131 85 85
0.412073 -0.257871 -0.547 130 82 78
0.425857 -0.255514 -0.542 136 89 83
0.459395 -0.251271 -0.533 154 103 86
0.499954 -0.260229 -0.552 144 96 82
-0.10566 -0.277847 -0.587 102 102 110
-0.0993333 -0.282107 -0.596 69 69 77
-0.0977143 -0.284 -0.6 84 82 93
-0.0955429 -0.287787 -0.608 80 78 89
-0.0836648 -0.299147 -0.632 58 56 67
-0.0641 -0.303407 -0.641 73 72 80
0.0886381 -0.214893 -0.454 203 161 145
0.0893057 -0.21442 -0.453 199 157 141
0.0987971 -0.21442 -0.453 205 163 147
0.123105 -0.217733 -0.46 154 104 97
0.127435 -0.219153 -0.463 152 99 95
0.131529 -0.2201 -0.465 143 94 89
0.135652 -0.221047 -0.467 131 88 82
0.337281 -0.244713 -0.517 132 102 110
0.366967 -0.257967 -0.545 53 42 46
0.390594 -0.270747 -0.572 62 54 67
0.4186 -0.25844 -0.546 132 84 80
0.427132 -0.256073 -0.541 134 90 81
0.43911 -0.254653 -0.538 135 87 73
0.445833 -0.253233 -0.535 139 91 77
0.462441 -0.252287 -0.533 154 103 84
0.482778 -0.256073 -0.541 149 97 83
0.484703 -0.256547 -0.542 145 96 82
0.496191 -0.25986 -0.549 145 93 80
-0.10808 -0.27944 -0.588 98 98 106
-0.102654 -0.279915 -0.589 86 86 94
-0.0803067 -0.301301 -0.634 59 58 66
-0.0723067 -0.303202 -0.638 70 69 75
-0.0664381 -0.304152 -0.64 72 71 79
0.11795 -0.217184 -0.457 157 107 100
0.146427 -0.226213 -0.476 112 79 74
0.1504 -0.228114 -0.48 104 76 73
0.154738 -0.23049 -0.485 98 73 69
0.259381 -0.308905 -0.65 214 219 249
0.366067 -0.307004 -0.646 190 187 206
0.32843 -0.253302 -0.533 140 113 120
0.330755 -0.25045 -0.527 132 105 112
0.3485 -0.2495 -0.525 63 47 48
0.401607 -0.267559 -0.563 136 97 98
0.40157 -0.264708 -0.557 143 95 91
0.403223 -0.262331 -0.552 136 91 88
0.41444 -0.25948 -0.546 135 87 83
0.42689 -0.257579 -0.542 134 90 81
0.431254 -0.257104 -0.541 129 85 74
0.434793 -0.256153 -0.539 129 82 72
0.468394 -0.253777 -0.534 154 103 84
0.473211 -0.254728 -0.536 145 94 75
0.481886 -0.256629 -0.54 149 98 81
-0.0963829 -0.289149 -0.606 84 82 93
-0.0943 -0.293443 -0.615 78 76 87
-0.0676571 -0.305371 -0.64 72 71 79
0.0744257 -0.218054 -0.457 201 163 152
0.0784333 -0.2171 -0.455 201 163 152
0.0801667 -0.2171 -0.455 202 164 151
0.0834495 -0.216623 -0.454 205 166 151
0.109151 -0.216146 -0.453 183 138 119
0.112851 -0.216623 -0.454 166 119 101
0.113716 -0.216623 -0.454 163 114 100
0.12628 -0.22044 -0.462 153 97 96
0.128317 -0.220917 -0.463 150 96 94
0.173443 -0.244774 -0.513 115 98 114
0.333266 -0.253363 -0.531 137 107 115
0.335218 -0.249546 -0.523 137 107 115
0.33562 -0.247637 -0.519 137 107 117
0.34221 -0.248114 -0.52 128 106 108
0.358865 -0.255749 -0.536 53 43 54
0.363243 -0.258134 -0.541 51 41 52
0.406564 -0.261474 -0.548 141 93 91
0.41548 -0.26052 -0.546 137 89 85
0.447871 -0.255271 -0.535 146 94 80
0.448051 -0.254794 -0.534 145 93 79
0.474232 -0.255749 -0.536 150 97 79
0.484839 -0.258134 -0.541 148 95 79
0.501148 -0.262906 -0.551 147 99 79
-0.121829 -0.298926 -0.624 98 101 106
-0.0977143 -0.287429 -0.6 89 87 98
-0.0944533 -0.295093 -0.616 80 78 89
-0.0654229 -0.307549 -0.642 71 70 78
-0.0643 -0.308028 -0.643 72 71 79
-0.0525381 -0.310902 -0.649 73 72 80
0.0712543 -0.219883 -0.459 201 163 152
0.0793 -0.217967 -0.455 203 165 154
0.106563 -0.217009 -0.453 194 148 132
0.138314 -0.225152 -0.47 125 85 83
0.139506 -0.225631 -0.471 123 83 81
0.150109 -0.230901 -0.482 95 74 73
0.151653 -0.231859 -0.484 95 73 75
0.157909 -0.235691 -0.492 94 69 73
0.255667 -0.311381 -0.65 248 253 255
0.337567 -0.255332 -0.533 132 103 108
0.338898 -0.249584 -0.521 134 104 114
0.342531 -0.250063 -0.522 123 101 103
0.350491 -0.252937 -0.528 61 45 46
0.408948 -0.262039 -0.547 140 92 88
0.40924 -0.26156 -0.546 141 93 89
0.437873 -0.258207 -0.539 137 89 77
0.442386 -0.257249 -0.537 143 94 80
0.450086 -0.255811 -0.534 155 102 86
0.462587 -0.254853 -0.532 155 102 84
0.469411 -0.255811 -0.534 153 102 85
0.479076 -0.257728 -0.538 145 94 77
0.480993 -0.258207 -0.539 146 95 78
0.505073 -0.264913 -0.553 148 95 79
-0.0965419 -0.291938 -0.607 87 85 96
-0.0958571 -0.293381 -0.61 87 85 96
-0.0736371 -0.307329 -0.639 66 64 75
-0.0689838 -0.30829 -0.641 69 67 78
-0.0525381 -0.312138 -0.649 72 71 79
0.0758333 -0.218833 -0.455 201 161 151
0.0808552 -0.218352 -0.454 203 165 152
0.0873867 -0.21739 -0.452 201 162 147
0.0908305 -0.21739 -0.452 202 163 146
0.09944 -0.21739 -0.452 201 158 141
0.110877 -0.217871 -0.453 166 121 100
0.120214 -0.220757 -0.459 154 106 94
0.151967 -0.233262 -0.485 92 72 74
0.15855 -0.23759 -0.494 92 69 75
0.340488 -0.25779 -0.536 134 105 110
0.3405 -0.2525 -0.525 136 106 118
0.396949 -0.271257 -0.564 131 103 99
0.398731 -0.26741 -0.556 148 107 111
0.400793 -0.265967 -0.553 141 97 96
0.413681 -0.262119 -0.545 140 93 87
0.420437 -0.261157 -0.543 140 93 85
0.437873 -0.259233 -0.539 139 91 79
0.466502 -0.256348 -0.533 153 100 86
0.467517 -0.256348 -0.533 157 104 90
0.48587 -0.260195 -0.541 147 91 76
0.496468 -0.263081 -0.547 149 102 82
-0.115431 -0.291163 -0.603 97 97 105
-0.0878286 -0.307097 -0.636 62 61 69
-0.0621391 -0.311926 -0.646 72 70 81
-0.0609086 -0.311926 -0.646 72 71 79
0.0741 -0.2197 -0.455 201 163 152
0.111987 -0.219217 -0.454 163 114 99
0.129757 -0.224529 -0.465 139 95 86
0.251952 -0.313857 -0.65 247 249 248
0.394851 -0.269434 -0.558 138 108 98
0.397297 -0.267503 -0.554 143 106 113
0.403857 -0.265571 -0.55 140 92 92
0.420437 -0.262191 -0.543 140 93 85
0.42966 -0.26026 -0.539 137 88 81
0.430687 -0.26026 -0.539 134 85 78
0.434793 -0.26026 -0.539 141 91 82
0.45448 -0.25688 -0.532 154 98 85
0.472463 -0.257846 -0.534 157 102 82
0.477295 -0.258811 -0.536 147 91 74
0.479209 -0.259294 -0.537 148 92 75
-0.106232 -0.283101 -0.584 95 95 103
-0.099 -0.287949 -0.594 95 95 105
-0.0981981 -0.288918 -0.596 97 96 104
0.0680486 -0.226384 -0.467 198 160 151
0.0716571 -0.221051 -0.456 201 163 152
0.0968571 -0.219112 -0.452 202 160 144
0.100301 -0.219112 -0.452 197 154 138
0.110877 -0.219597 -0.453 161 114 98
0.132094 -0.226384 -0.467 130 89 83
0.156986 -0.239957 -0.495 84 66 78
0.357489 -0.260317 -0.537 55 40 47
0.39343 -0.270982 -0.559 143 103 103
0.403123 -0.266134 -0.549 136 92 91
0.426343 -0.261771 -0.54 141 93 83
0.428633 -0.261287 -0.539 137 88 81
0.432962 -0.260802 -0.538 141 91 82
0.443409 -0.260317 -0.537 151 99 86
0.44889 -0.259348 -0.535 158 105 91
0.45212 -0.258863 -0.534 156 103 87
0.476405 -0.259348 -0.535 149 96 78
0.500507 -0.26565 -0.548 150 98 84
0.503381 -0.266619 -0.55 148 96 82
0.506263 -0.267589 -0.552 146 97 82
-0.120462 -0.300273 -0.617 94 97 102
-0.0958571 -0.296867 -0.61 91 90 98
-0.0832438 -0.310493 -0.638 55 53 64
-0.0714257 -0.311953 -0.641 63 61 72
-0.0573057 -0.314873 -0.647 72 71 79
0.0839429 -0.219973 -0.452 196 157 142
0.0914886 -0.219487 -0.451 204 162 148
0.107426 -0.22046 -0.453 172 126 110
0.110014 -0.22046 -0.453 160 112 98
0.12771 -0.225813 -0.464 137 93 84
0.138903 -0.229707 -0.472 112 80 83
0.150738 -0.237007 -0.487 84 65 69
0.35114 -0.26426 -0.543 129 103 114
0.388738 -0.273993 -0.563 110 88 90
0.401443 -0.268153 -0.551 145 104 102
0.411605 -0.265233 -0.545 143 98 93
0.425314 -0.2628 -0.54 141 93 83
0.443409 -0.26134 -0.537 158 105 91
0.444431 -0.26134 -0.537 157 104 90
0.44889 -0.260367 -0.535 158 102 87
0.45448 -0.258907 -0.532 160 104 87
0.47348 -0.25988 -0.534 158 102 87
0.487029 -0.2628 -0.54 149 96 80
0.492837 -0.26426 -0.543 151 98 82
-0.0714257 -0.313174 -0.641 62 60 71
-0.0690914 -0.313663 -0.642 66 64 75
0.0897705 -0.220346 -0.451 203 164 149
0.141893 -0.23256 -0.476 107 77 77
0.144914 -0.234514 -0.48 99 73 72
0.14674 -0.23598 -0.483 99 73 72
0.402372 -0.316106 -0.647 116 92 106
0.366899 -0.267737 -0.548 59 46 53
0.387967 -0.276043 -0.565 112 86 89
0.395554 -0.271646 -0.556 145 104 102
0.3959 -0.271157 -0.555 144 103 101
0.401443 -0.269203 -0.551 148 104 101
0.404476 -0.267737 -0.548 142 97 94
0.420695 -0.264806 -0.542 144 97 89
0.424286 -0.263829 -0.54 142 93 86
0.433987 -0.262851 -0.538 152 100 89
0.453137 -0.260897 -0.534 160 104 89
0.455493 -0.25992 -0.532 160 104 89
0.478443 -0.261386 -0.535 153 100 84
-0.10605 -0.285948 -0.583 97 97 105
-0.0958571 -0.29919 -0.61 94 93 101
-0.08094 -0.313414 -0.639 50 48 59
-0.0785057 -0.313414 -0.639 52 50 61
-0.0596781 -0.316848 -0.646 71 70 78
-0.0585381 -0.317338 -0.647 70 69 77
0.0746371 -0.222186 -0.453 203 163 151
0.100079 -0.221205 -0.451 193 151 135
0.128871 -0.228071 -0.465 129 90 83
0.133553 -0.230033 -0.469 118 83 81
0.242163 -0.317338 -0.647 238 238 250
0.404837 -0.317338 -0.647 131 103 115
0.356852 -0.26829 -0.547 133 110 120
0.360076 -0.266819 -0.544 68 51 59
0.377458 -0.274176 -0.559 69 50 52
0.380554 -0.275648 -0.562 75 55 57
0.382304 -0.276138 -0.563 85 65 67
0.42658 -0.264367 -0.539 145 97 87
0.441363 -0.263386 -0.537 158 105 91
0.458533 -0.260933 -0.532 158 105 87
0.459547 -0.260933 -0.532 157 104 86
0.464751 -0.260443 -0.531 156 100 83
0.472593 -0.261424 -0.533 160 104 89
0.476531 -0.261914 -0.534 155 99 82
0.492962 -0.265838 -0.542 152 101 84
0.496853 -0.266819 -0.544 152 101 84
0.515092 -0.273195 -0.557 150 102 88
-0.11929 -0.300845 -0.611 96 96 104
-0.1139 -0.292967 -0.595 95 98 105
-0.104008 -0.28755 -0.584 92 92 102
-0.0951609 -0.30183 -0.613 93 91 102
-0.0933029 -0.307246 -0.624 87 87 97
-0.069199 -0.316601 -0.643 62 60 71
0.0667276 -0.228465 -0.464 197 157 149
0.0777438 -0.222064 -0.451 204 166 153
0.0889114 -0.222064 -0.451 203 164 149
0.100938 -0.222064 -0.451 191 150 132
0.102656 -0.222064 -0.451 182 140 124
0.107189 -0.222556 -0.452 165 118 102
0.137105 -0.232404 -0.472 110 79 77
0.149189 -0.240282 -0.488 93 72 81
0.15478 -0.244713 -0.497 97 81 92
0.360905 -0.27081 -0.55 147 124 132
0.389429 -0.277703 -0.564 154 110 111
0.395554 -0.273764 -0.556 147 103 102
0.40849 -0.268348 -0.545 144 97 91
0.44991 -0.263424 -0.535 157 104 88
0.464751 -0.261454 -0.531 160 104 87
0.467786 -0.261454 -0.531 161 105 88
0.481379 -0.263916 -0.536 153 100 84
-0.108457 -0.288663 -0.584 96 99 106
-0.0951609 -0.302997 -0.613 94 93 101
0.0777438 -0.222923 -0.451 204 166 153
0.0828981 -0.222923 -0.451 201 161 149
0.100938 -0.222923 -0.451 190 149 131
0.147955 -0.240717 -0.487 92 71 80
0.151656 -0.243683 -0.493 94 72 84
0.392365 -0.276306 -0.559 152 106 106
0.412922 -0.268891 -0.544 145 98 90
0.41603 -0.268891 -0.544 148 99 92
0.43952 -0.264937 -0.536 159 103 90
0.442583 -0.264937 -0.536 159 103 88
0.45635 -0.263454 -0.533 162 106 89
0.471707 -0.26296 -0.532 158 102 85
0.500881 -0.269386 -0.545 151 100 83
-0.103071 -0.290271 -0.585 83 84 89
-0.0946067 -0.30615 -0.617 92 92 100
-0.0836352 -0.318058 -0.641 51 51 59
-0.0763095 -0.318058 -0.641 48 48 58
0.0729114 -0.224774 -0.453 201 161 149
0.0964286 -0.223286 -0.45 201 159 143
0.0981429 -0.223286 -0.45 195 153 137
0.107426 -0.224774 -0.453 167 118 103
0.147028 -0.241645 -0.487 92 69 79
0.235271 -0.320043 -0.645 228 231 250
0.373867 -0.277867 -0.56 90 59 64
0.415266 -0.269431 -0.543 149 100 93
0.420695 -0.268935 -0.542 149 100 93
0.429089 -0.266454 -0.537 157 105 94
0.432157 -0.266454 -0.537 164 110 98
0.454154 -0.264966 -0.534 164 107 90
0.463876 -0.262981 -0.53 156 103 87
0.469809 -0.263477 -0.531 162 109 93
0.474747 -0.263973 -0.532 157 101 84
0.479583 -0.264966 -0.534 154 102 81
-0.1139 -0.296367 -0.595 102 105 114
-0.0872981 -0.319279 -0.641 67 68 73
-0.0775305 -0.319279 -0.641 43 43 51
-0.0646 -0.32177 -0.646 68 67 75
0.0878571 -0.224143 -0.45 203 164 149
0.0895714 -0.224143 -0.45 203 164 147
0.0972857 -0.224143 -0.45 198 156 140
0.114217 -0.227131 -0.456 163 114 99
0.125671 -0.230618 -0.463 130 88 76
0.126827 -0.231116 -0.464 126 89 81
0.131767 -0.233607 -0.469 114 83 80
0.372716 -0.282918 -0.568 136 96 105
0.398731 -0.276941 -0.556 146 101 98
0.400463 -0.275945 -0.554 153 105 103
0.409813 -0.270964 -0.544 146 97 92
0.417334 -0.270466 -0.543 150 102 92
0.423257 -0.268971 -0.54 152 102 93
0.43318 -0.267477 -0.537 165 112 98
0.459547 -0.264987 -0.532 159 103 90
0.459694 -0.264489 -0.531 159 103 90
0.471831 -0.264489 -0.531 157 101 84
0.49126 -0.268473 -0.539 151 98 82
-0.0836352 -0.3205 -0.641 51 51 59
0.0668829 -0.2295 -0.459 201 161 153
0.0681829 -0.228 -0.456 203 163 153
0.0727505 -0.226 -0.452 202 162 150
0.0736114 -0.226 -0.452 203 163 151
0.0792857 -0.225 -0.45 202 165 149
0.105467 -0.226 -0.452 177 123 111
0.116463 -0.229 -0.458 159 110 95
0.376653 -0.287 -0.574 131 85 96
0.379208 -0.284 -0.568 128 89 94
0.383127 -0.2845 -0.569 141 96 99
0.38421 -0.2845 -0.569 142 97 100
0.385971 -0.285 -0.57 142 98 99
0.392651 -0.282 -0.564 150 105 102
0.393769 -0.2805 -0.561 146 101 98
0.397689 -0.2795 -0.559 143 98 95
0.401847 -0.2765 -0.553 151 101 100
0.404169 -0.2745 -0.549 147 99 95
0.425553 -0.2695 -0.539 153 100 92
0.44973 -0.268 -0.536 156 103 89
0.461717 -0.2655 -0.531 162 106 91
0.476773 -0.266 -0.532 155 102 86
0.477787 -0.266 -0.532 156 103 87
-0.11851 -0.304656 -0.607 102 105 114
-0.113709 -0.298131 -0.594 108 108 118
-0.0872981 -0.321721 -0.641 69 70 75
-0.0860771 -0.321721 -0.641 64 64 72
-0.0703143 -0.322223 -0.642 50 48 59
0.0801429 -0.225857 -0.45 203 164 149
0.0835714 -0.225857 -0.45 203 164 147
0.0844286 -0.225857 -0.45 203 164 147
0.105467 -0.226861 -0.452 176 124 111
0.11934 -0.230374 -0.459 146 99 83
0.1271 -0.233386 -0.465 121 86 80
0.385147 -0.28709 -0.572 139 95 96
0.391797 -0.285584 -0.569 142 96 96
0.393726 -0.283074 -0.564 145 100 97
0.438499 -0.269021 -0.536 161 108 94
0.446852 -0.268519 -0.535 153 100 84
0.459547 -0.267013 -0.532 162 106 89
0.467914 -0.26601 -0.53 163 107 90
0.474866 -0.266511 -0.531 156 100 85
-0.0985276 -0.301278 -0.598 118 117 125
-0.0944914 -0.314377 -0.624 96 96 104
-0.0774095 -0.322438 -0.64 50 50 58
-0.0749714 -0.322438 -0.64 49 49 59
0.0654181 -0.232256 -0.461 198 160 151
0.0904286 -0.226714 -0.45 199 163 147
0.099 -0.226714 -0.45 185 139 123
0.106563 -0.228226 -0.453 172 123 109
0.221781 -0.32143 -0.638 227 225 249
0.38472 -0.29624 -0.588 121 74 82
0.398752 -0.283141 -0.562 139 94 91
0.430331 -0.270042 -0.536 159 107 96
0.433394 -0.270042 -0.536 158 106 95
0.441757 -0.269538 -0.535 156 103 89
0.454154 -0.269034 -0.534 162 106 89
0.463876 -0.267019 -0.53 166 110 93
0.468039 -0.266515 -0.529 161 105 88
-0.104008 -0.295337 -0.584 109 109 117
-0.0849886 -0.324669 -0.642 64 64 72
-0.0836352 -0.324163 -0.641 60 60 68
0.0801429 -0.227571 -0.45 202 163 148
0.0979248 -0.227066 -0.449 182 139 123
0.117335 -0.231617 -0.458 148 98 87
0.118466 -0.232123 -0.459 144 96 84
0.125059 -0.234651 -0.464 122 85 79
0.392081 -0.303934 -0.601 125 78 84
0.387152 -0.298371 -0.59 121 78 85
0.389187 -0.292303 -0.578 136 90 90
0.39291 -0.291797 -0.577 137 92 89
0.399097 -0.285223 -0.564 141 93 91
0.445833 -0.270557 -0.535 154 101 85
0.450929 -0.270557 -0.535 158 105 89
0.45212 -0.270051 -0.534 161 105 90
0.473971 -0.268029 -0.53 156 100 83
0.476889 -0.268534 -0.531 153 100 82
0.482746 -0.269546 -0.533 151 98 80
-0.108829 -0.297465 -0.586 111 111 119
-0.10512 -0.29645 -0.584 108 108 116
0.08082 -0.227921 -0.449 202 163 148
0.09878 -0.227921 -0.449 181 133 119
0.1105 -0.230967 -0.455 161 112 98
0.143317 -0.24721 -0.487 90 75 78
0.39072 -0.30051 -0.592 125 80 87
0.404027 -0.282236 -0.556 144 97 91
0.409695 -0.278175 -0.548 140 91 84
0.423792 -0.27513 -0.542 148 98 89
0.455171 -0.271069 -0.534 157 104 88
0.495472 -0.273099 -0.538 154 102 81
-0.129626 -0.325586 -0.639 95 95 103
-0.1053 -0.298071 -0.585 103 101 112
0.0628457 -0.238457 -0.468 193 157 143
0.0799648 -0.228776 -0.449 201 162 145
0.08082 -0.228776 -0.449 202 163 146
0.0895714 -0.229286 -0.45 202 160 144
0.0979248 -0.228776 -0.449 177 134 118
0.134074 -0.241514 -0.474 103 77 80
0.396995 -0.297052 -0.583 133 88 85
0.39758 -0.295014 -0.579 136 91 86
0.39852 -0.292467 -0.574 135 90 85
0.42354 -0.276671 -0.543 147 97 88
0.424574 -0.276671 -0.543 149 99 90
0.431937 -0.274124 -0.538 151 101 90
0.432157 -0.273614 -0.537 151 101 90
0.440541 -0.273105 -0.536 150 98 84
0.445646 -0.273105 -0.536 151 100 83
0.458533 -0.271067 -0.532 165 109 92
0.471177 -0.269029 -0.528 161 106 86
0.47599 -0.270048 -0.53 163 108 88
0.485791 -0.271576 -0.533 153 101 80
0.501429 -0.275143 -0.54 158 105 87
0.510224 -0.27769 -0.545 162 112 89
-0.0918943 -0.326803 -0.639 92 93 95
-0.0786286 -0.327314 -0.64 38 38 48
-0.0774095 -0.327314 -0.64 38 38 48
0.0693067 -0.231166 -0.452 203 165 152
0.0708714 -0.230654 -0.451 200 162 149
0.08082 -0.229631 -0.449 202 163 146
0.0850962 -0.229631 -0.449 204 162 146
0.102884 -0.231166 -0.452 168 123 104
0.11559 -0.234234 -0.458 139 92 84
0.135831 -0.243951 -0.477 97 72 78
0.144494 -0.251111 -0.491 98 87 104
0.398286 -0.306857 -0.6 120 78 80
0.400196 -0.295606 -0.578 129 86 79
0.40879 -0.281797 -0.551 143 93 84
0.41444 -0.27924 -0.546 140 90 79
0.420948 -0.278729 -0.545 142 92 81
0.426643 -0.277706 -0.543 150 100 89
0.440541 -0.274126 -0.536 147 98 83
0.44889 -0.273614 -0.535 157 106 89
0.44991 -0.273614 -0.535 157 106 89
0.462867 -0.271057 -0.53 165 109 92
0.470171 -0.270034 -0.528 166 111 90
0.49363 -0.274126 -0.536 159 103 86
-0.098181 -0.313133 -0.61 189 189 191
-0.0958333 -0.320833 -0.625 146 148 145
0.0708714 -0.231513 -0.451 203 163 151
0.0885171 -0.230487 -0.449 202 160 144
0.106563 -0.23254 -0.453 169 117 103
0.116717 -0.23562 -0.459 134 95 88
0.403596 -0.312107 -0.608 120 79 75
0.401907 -0.309027 -0.602 116 76 76
0.403354 -0.30492 -0.594 120 81 76
0.405173 -0.291573 -0.568 134 90 81
0.405543 -0.28952 -0.564 134 89 83
0.410889 -0.282847 -0.551 139 91 79
0.41358 -0.28182 -0.549 141 93 81
0.427429 -0.279253 -0.544 149 99 88
0.443409 -0.27566 -0.537 142 93 76
0.450929 -0.274633 -0.535 156 105 86
0.45752 -0.273093 -0.532 161 108 90
0.458533 -0.273093 -0.532 161 105 88
0.468039 -0.271553 -0.529 165 110 90
0.478115 -0.271553 -0.529 157 102 82
0.49271 -0.274633 -0.535 162 107 87
0.515222 -0.280793 -0.547 164 111 93
-0.119486 -0.315326 -0.612 91 91 99
-0.0918943 -0.329237 -0.639 132 134 131
-0.0725333 -0.329752 -0.64 32 32 42
0.0693067 -0.232888 -0.452 204 164 152
0.09088 -0.230827 -0.448 191 154 135
0.09344 -0.230827 -0.448 185 142 125
0.096 -0.230827 -0.448 182 133 118
0.115843 -0.236494 -0.459 136 93 86
0.122408 -0.23907 -0.464 120 89 84
0.132269 -0.244223 -0.474 92 65 72
0.406157 -0.301414 -0.585 124 79 74
0.406491 -0.296777 -0.576 130 83 73
0.407313 -0.294201 -0.571 134 90 81
0.436036 -0.277198 -0.538 149 100 86
0.455334 -0.274622 -0.533 162 109 91
0.466149 -0.272046 -0.528 164 111 93
0.0849067 -0.23168 -0.448 201 159 147
0.09344 -0.23168 -0.448 185 139 123
0.105933 -0.234783 -0.454 168 116 102
0.106798 -0.234783 -0.454 163 114 100
0.113846 -0.236851 -0.458 142 93 86
0.410494 -0.298391 -0.577 124 83 77
0.4107 -0.287014 -0.555 133 86 76
0.414789 -0.285463 -0.552 138 92 79
0.423534 -0.282877 -0.547 145 97 85
0.4356 -0.279257 -0.54 149 101 87
0.447688 -0.277189 -0.536 148 99 84
0.448709 -0.277189 -0.536 147 98 83
0.45752 -0.27512 -0.532 159 106 88
0.460848 -0.274086 -0.53 155 102 84
0.471289 -0.272534 -0.527 167 112 92
0.502646 -0.278223 -0.538 161 104 85
0.510512 -0.280291 -0.542 165 112 94
-0.103003 -0.306757 -0.591 74 72 83
-0.0747371 -0.331152 -0.638 31 30 38
0.0623752 -0.237724 -0.458 202 164 151
0.0700124 -0.23409 -0.451 202 162 152
0.0891733 -0.232533 -0.448 195 153 141
0.104837 -0.235129 -0.453 166 117 102
0.126407 -0.243433 -0.469 110 80 80
0.136054 -0.249662 -0.481 91 70 75
0.137825 -0.251219 -0.484 92 71 76
0.417297 -0.320771 -0.618 114 84 84
0.415897 -0.313505 -0.604 120 79 77
0.413074 -0.298971 -0.576 131 87 78
0.413558 -0.28859 -0.556 131 87 76
0.424309 -0.284438 -0.548 144 96 84
0.440743 -0.280286 -0.54 147 98 83
0.4475 -0.278729 -0.537 147 98 84
0.463001 -0.274576 -0.529 166 110 93
0.464009 -0.274576 -0.529 166 110 93
0.470285 -0.273538 -0.527 170 115 95
0.479223 -0.274057 -0.528 162 107 87
0.493823 -0.277171 -0.534 155 104 83
0.50367 -0.279248 -0.538 164 108 91
0.0691533 -0.23495 -0.451 202 164 155
0.0814933 -0.233387 -0.448 202 159 150
0.0849067 -0.233387 -0.448 202 159 150
0.0915286 -0.232866 -0.447 183 137 121
0.105933 -0.236512 -0.454 162 113 98
0.423726 -0.325074 -0.624 112 87 90
0.417699 -0.304236 -0.584 121 86 80
0.413003 -0.292254 -0.561 129 86 77
0.413333 -0.291733 -0.56 130 87 78
0.42822 -0.286003 -0.549 144 96 84
0.441559 -0.281835 -0.541 144 95 81
0.45075 -0.27923 -0.536 143 94 80
-0.120852 -0.323649 -0.619 81 79 90
-0.0990171 -0.317897 -0.608 229 228 233
-0.0985029 -0.319989 -0.612 226 227 229
0.0607629 -0.239991 -0.459 203 164 159
