ply
format ascii 1.0
comment Created by Open3D
element vertex 1297
property double x
property double y
property double z
property uchar red
property uchar green
property uchar blue
end_header
0.47037 -0.359113 -0.649 169 172 191
0.481245 -0.358007 -0.647 30 58 121
0.467786 -0.3071 -0.555 142 94 82
0.464471 -0.294927 -0.533 165 108 89
0.4745 -0.2905 -0.525 175 117 93
0.4755 -0.2905 -0.525 176 118 94
0.478587 -0.289947 -0.524 175 117 93
0.4855 -0.2905 -0.525 169 113 88
0.518017 -0.297693 -0.538 157 109 89
-0.114586 -0.342582 -0.617 100 99 104
-0.112053 -0.342027 -0.616 98 99 103
-0.0176486 -0.354797 -0.639 210 208 209
0.00182571 -0.354797 -0.639 222 220 221
0.00426 -0.354797 -0.639 225 223 224
0.00547714 -0.354797 -0.639 227 225 226
0.00912857 -0.354797 -0.639 230 228 229
0.0103457 -0.354797 -0.639 233 228 232
0.0188657 -0.354797 -0.639 242 237 243
0.0774095 -0.355352 -0.64 252 255 255
0.0786286 -0.355352 -0.64 254 250 251
0.106654 -0.300384 -0.541 180 126 126
0.111393 -0.299273 -0.539 176 122 122
0.113236 -0.298718 -0.538 171 117 117
0.114049 -0.298163 -0.537 171 117 115
0.116899 -0.297608 -0.536 174 121 117
0.141402 -0.297608 -0.536 139 86 80
0.175272 -0.308712 -0.556 155 97 95
0.260673 -0.355908 -0.641 164 183 225
0.2668 -0.357573 -0.644 188 200 242
0.273357 -0.358129 -0.645 252 252 255
0.278703 -0.358684 -0.646 245 249 248
0.286086 -0.358684 -0.646 201 215 242
0.299621 -0.358684 -0.646 147 161 210
0.300851 -0.358684 -0.646 166 180 229
0.34992 -0.359794 -0.648 148 168 205
0.356091 -0.359794 -0.648 42 74 147
0.362263 -0.359794 -0.648 33 70 140
0.364731 -0.359794 -0.648 41 78 146
0.373371 -0.359794 -0.648 82 93 139
0.37584 -0.359794 -0.648 134 144 169
0.378309 -0.359794 -0.648 165 170 200
0.380777 -0.359794 -0.648 100 111 139
0.390018 -0.36035 -0.649 27 74 142
0.397435 -0.36035 -0.649 48 80 141
0.403616 -0.36035 -0.649 144 149 187
0.407325 -0.36035 -0.649 105 110 142
0.4543 -0.36035 -0.649 26 64 127
0.477548 -0.359239 -0.647 113 129 165
0.482477 -0.359239 -0.647 29 58 124
0.491104 -0.359239 -0.647 72 93 146
0.497266 -0.359239 -0.647 124 125 146
0.51086 -0.345913 -0.623 139 130 133
0.505819 -0.340916 -0.614 104 86 86
0.481097 -0.319817 -0.576 119 86 81
0.463866 -0.298163 -0.537 157 100 83
0.464023 -0.297608 -0.536 159 102 83
0.4745 -0.2915 -0.525 178 122 99
0.500283 -0.293721 -0.529 156 104 83
-0.03828 -0.355457 -0.638 197 197 199
-0.00789905 -0.355457 -0.638 216 215 213
0.0590314 -0.356014 -0.639 249 249 255
0.0602486 -0.356014 -0.639 237 237 249
0.0760714 -0.356014 -0.639 251 255 255
0.0999114 -0.312557 -0.561 182 132 133
0.112211 -0.299743 -0.538 172 121 120
0.1246 -0.297514 -0.534 160 102 98
0.149657 -0.300857 -0.54 137 87 80
0.155947 -0.303086 -0.544 128 77 73
0.172095 -0.309771 -0.556 129 78 74
0.17845 -0.309771 -0.556 154 90 90
0.204972 -0.321471 -0.577 95 64 69
0.285643 -0.359357 -0.645 216 231 254
0.289329 -0.359357 -0.645 143 157 202
0.291786 -0.359357 -0.645 137 154 206
0.293014 -0.359357 -0.645 133 150 204
0.295471 -0.359357 -0.645 135 152 208
0.307757 -0.359357 -0.645 228 234 250
0.320043 -0.359357 -0.645 153 177 223
0.323729 -0.359357 -0.645 114 152 214
0.331613 -0.359914 -0.646 108 146 211
0.345683 -0.360471 -0.647 101 118 161
0.361029 -0.361029 -0.648 34 68 140
0.37033 -0.360471 -0.647 66 91 148
0.372795 -0.360471 -0.647 74 90 139
0.379543 -0.361029 -0.648 134 144 171
0.416571 -0.361029 -0.648 44 70 121
0.432049 -0.361586 -0.649 144 158 193
0.44496 -0.361029 -0.648 124 137 172
0.455365 -0.360471 -0.647 42 77 143
0.462759 -0.360471 -0.647 100 128 191
0.480012 -0.360471 -0.647 34 59 115
0.500643 -0.359357 -0.645 176 179 188
0.467154 -0.294171 -0.528 170 112 90
0.477589 -0.291943 -0.524 175 119 96
0.49538 -0.293614 -0.527 165 113 92
0.498331 -0.294171 -0.528 161 110 89
0.504257 -0.295286 -0.53 161 110 91
0.00668381 -0.356672 -0.638 228 226 227
0.0687686 -0.357231 -0.639 200 216 241
0.100809 -0.34605 -0.619 188 141 147
0.11792 -0.29965 -0.536 168 117 116
0.127651 -0.298531 -0.534 154 99 92
0.1391 -0.29909 -0.535 136 85 81
0.146029 -0.300768 -0.538 142 89 81
0.15889 -0.305799 -0.547 124 73 69
0.160225 -0.306358 -0.548 122 71 67
0.1659 -0.309153 -0.553 120 69 66
0.265161 -0.359468 -0.643 183 195 243
0.3053 -0.360586 -0.645 198 212 241
0.336535 -0.361145 -0.646 106 148 196
0.351845 -0.361704 -0.647 45 79 151
0.366067 -0.361145 -0.646 46 79 148
0.371563 -0.361704 -0.647 118 133 174
0.372795 -0.361704 -0.647 114 129 170
0.374028 -0.361704 -0.647 97 103 127
0.381422 -0.361704 -0.647 143 157 186
0.406697 -0.362263 -0.648 168 175 203
0.42209 -0.361704 -0.647 21 53 110
0.444273 -0.361704 -0.647 126 133 162
0.450435 -0.361704 -0.647 54 88 149
0.463274 -0.361145 -0.646 148 162 173
0.471386 -0.361704 -0.647 155 153 166
0.47385 -0.361704 -0.647 158 161 178
0.480012 -0.361704 -0.647 49 72 126
0.491575 -0.361145 -0.646 63 83 134
0.478502 -0.318098 -0.569 131 94 85
0.466911 -0.306917 -0.549 153 100 82
0.463866 -0.300209 -0.537 157 100 80
0.468277 -0.294618 -0.527 182 124 100
0.493438 -0.294059 -0.526 166 115 94
0.49444 -0.294059 -0.526 164 113 94
0.513149 -0.298531 -0.534 154 105 88
1.1316 -0.351641 -0.629 201 203 190
1.13159 -0.350523 -0.627 203 205 191
-0.0394333 -0.357327 -0.637 199 199 199
0.0139533 -0.357327 -0.637 241 236 242
0.0151667 -0.357327 -0.637 242 237 243
0.01638 -0.357327 -0.637 243 238 244
0.0650152 -0.357888 -0.638 233 241 255
0.100593 -0.310207 -0.553 173 122 121
0.105819 -0.304036 -0.542 178 127 126
0.115071 -0.301231 -0.537 172 118 118
0.123583 -0.299549 -0.534 159 106 100
0.164549 -0.309646 -0.552 121 72 68
0.176014 -0.311329 -0.555 146 87 83
0.180568 -0.31189 -0.556 164 97 89
0.192492 -0.315816 -0.563 132 83 78
0.265161 -0.360692 -0.643 183 195 243
0.292106 -0.360692 -0.643 131 147 206
0.304827 -0.361253 -0.644 160 174 211
0.31464 -0.361253 -0.644 164 171 199
0.322 -0.361253 -0.644 96 131 187
0.328133 -0.361253 -0.644 76 115 182
0.345843 -0.361814 -0.645 139 154 187
0.35007 -0.362375 -0.646 108 144 196
0.362375 -0.362375 -0.646 25 64 141
0.364836 -0.362375 -0.646 45 84 161
0.390676 -0.362375 -0.646 45 87 161
0.402372 -0.362936 -0.647 175 177 202
0.418977 -0.362375 -0.646 25 55 117
0.422669 -0.362375 -0.646 26 55 113
0.434973 -0.362375 -0.646 145 138 154
0.473118 -0.362375 -0.646 158 160 175
0.484192 -0.362375 -0.646 61 90 148
0.487884 -0.362375 -0.646 72 98 149
0.494036 -0.362375 -0.646 77 93 145
0.5031 -0.361814 -0.645 190 188 201
0.469281 -0.295622 -0.527 180 122 98
0.4734 -0.295061 -0.526 184 126 102
0.484575 -0.293939 -0.524 162 110 89
0.500343 -0.296183 -0.528 162 114 92
-0.0405829 -0.357977 -0.636 199 199 199
-0.0357371 -0.357977 -0.636 201 201 201
0.10498 -0.305631 -0.543 173 119 119
0.109543 -0.303943 -0.54 178 124 124
0.114049 -0.302254 -0.537 172 118 118
0.137062 -0.301129 -0.535 145 92 86
0.146029 -0.302817 -0.538 139 86 78
0.147327 -0.30338 -0.539 140 87 79
0.149934 -0.304506 -0.541 138 85 79
0.161857 -0.309571 -0.55 114 65 61
0.171786 -0.312386 -0.555 136 81 78
0.206393 -0.32702 -0.581 106 65 73
0.223667 -0.343343 -0.61 183 194 240
0.253774 -0.359666 -0.639 169 185 234
0.315867 -0.36248 -0.644 163 177 216
0.334786 -0.363043 -0.645 117 148 212
0.347071 -0.363043 -0.645 176 187 217
0.358129 -0.363043 -0.645 26 63 141
0.364271 -0.363043 -0.645 43 85 161
0.366729 -0.363043 -0.645 120 155 219
0.378371 -0.363606 -0.646 178 180 203
0.384524 -0.363606 -0.646 51 101 170
0.402372 -0.364169 -0.647 172 178 200
0.404837 -0.364169 -0.647 165 177 193
0.414055 -0.363606 -0.646 60 84 146
0.446048 -0.363606 -0.646 79 95 129
0.449739 -0.363606 -0.646 66 97 154
0.4601 -0.363043 -0.645 109 136 191
0.481731 -0.363606 -0.646 112 133 186
0.500643 -0.363043 -0.645 155 152 159
0.46881 -0.309571 -0.55 150 98 85
0.467294 -0.307883 -0.547 152 96 81
0.464567 -0.30338 -0.539 159 104 84
0.465895 -0.298314 -0.53 171 115 92
0.498391 -0.296626 -0.527 163 115 93
0.504313 -0.297751 -0.529 158 110 87
0.0758333 -0.359753 -0.637 247 254 255
0.107685 -0.305536 -0.541 177 123 121
0.110367 -0.304407 -0.539 177 123 123
0.111393 -0.304407 -0.539 174 120 120
0.118941 -0.302712 -0.536 169 115 115
0.148629 -0.304971 -0.54 136 86 79
0.161857 -0.310619 -0.55 118 69 65
0.196711 -0.32135 -0.569 106 72 71
0.200627 -0.324173 -0.574 99 67 72
0.25539 -0.361448 -0.64 157 177 227
0.257829 -0.361448 -0.64 150 170 220
0.264749 -0.362577 -0.642 150 171 224
0.27006 -0.363142 -0.643 163 183 218
0.27251 -0.363142 -0.643 184 189 211
0.335493 -0.363707 -0.644 170 202 255
0.346533 -0.363707 -0.644 191 200 231
0.371067 -0.363707 -0.644 184 191 219
0.391907 -0.364836 -0.646 65 104 173
0.392529 -0.364271 -0.645 74 114 183
0.393757 -0.364271 -0.645 63 103 172
0.407903 -0.364836 -0.646 150 148 170
0.431843 -0.364271 -0.645 91 108 151
0.463786 -0.364271 -0.645 169 176 195
0.4687 -0.364271 -0.645 168 166 177
0.469929 -0.364271 -0.645 160 166 182
0.488357 -0.364271 -0.645 127 144 187
0.4945 -0.364271 -0.645 81 94 129
0.495729 -0.364271 -0.645 81 94 129
0.472865 -0.314008 -0.556 145 96 82
0.464751 -0.299889 -0.531 171 114 94
0.479585 -0.295935 -0.524 182 125 98
0.52206 -0.304407 -0.539 152 111 91
0.528975 -0.30723 -0.544 156 113 94
0.0672343 -0.3604 -0.636 215 224 253
0.0732914 -0.3604 -0.636 197 213 246
0.0757143 -0.3604 -0.636 247 254 255
0.08056 -0.3604 -0.636 252 252 252
0.0829829 -0.3604 -0.636 252 250 253
0.109543 -0.306 -0.54 174 120 120
0.114261 -0.304867 -0.538 174 120 120
0.116899 -0.303733 -0.536 176 122 122
0.155195 -0.308833 -0.545 121 72 67
0.164549 -0.3128 -0.552 121 72 68
0.186466 -0.3179 -0.561 143 85 81
0.199186 -0.3247 -0.573 103 72 70
0.298989 -0.3638 -0.642 146 166 219
0.339871 -0.364367 -0.643 207 213 237
0.34776 -0.364933 -0.644 183 192 223
0.353893 -0.364933 -0.644 41 74 151
0.3588 -0.364933 -0.644 41 80 147
0.4085 -0.3655 -0.645 152 157 179
0.415871 -0.3655 -0.645 62 92 154
0.42504 -0.364933 -0.644 58 89 146
0.490814 -0.3655 -0.645 119 133 168
0.493271 -0.3655 -0.645 115 128 162
0.499414 -0.3655 -0.645 175 181 213
0.50232 -0.364933 -0.644 181 180 194
0.506 -0.364933 -0.644 186 186 198
0.520736 -0.363233 -0.641 157 172 205
0.469192 -0.310533 -0.548 152 101 84
0.469166 -0.2992 -0.528 179 123 96
0.4755 -0.2975 -0.525 183 125 101
0.486639 -0.296367 -0.523 176 120 95
0.4965 -0.2975 -0.525 168 116 94
0.49945 -0.298067 -0.526 165 114 93
0.505371 -0.2992 -0.528 161 110 91
0.0985286 -0.343986 -0.605 185 138 144
0.0972657 -0.328066 -0.577 177 134 141
0.113236 -0.305891 -0.538 177 123 123
0.114261 -0.305891 -0.538 179 125 125
0.124046 -0.304754 -0.536 159 104 99
0.132986 -0.304186 -0.535 151 98 90
0.145273 -0.30646 -0.539 134 84 75
0.146571 -0.307029 -0.54 133 83 76
0.1659 -0.31442 -0.553 119 71 69
0.169366 -0.314989 -0.554 128 77 74
0.180892 -0.316694 -0.557 146 88 84
0.18228 -0.317263 -0.558 147 89 85
0.219166 -0.343417 -0.604 159 165 201
0.268417 -0.365023 -0.642 163 184 229
0.305103 -0.365023 -0.642 235 236 254
0.31244 -0.365023 -0.642 205 204 222
0.321 -0.365023 -0.642 107 150 205
0.32956 -0.365023 -0.642 107 150 218
0.355793 -0.365591 -0.643 76 112 188
0.364367 -0.365591 -0.643 50 83 154
0.367387 -0.36616 -0.644 79 102 154
0.36984 -0.36616 -0.644 164 178 204
0.3772 -0.36616 -0.644 191 189 202
0.378427 -0.36616 -0.644 176 174 187
0.398053 -0.36616 -0.644 173 175 196
0.406043 -0.366729 -0.645 143 140 149
0.420133 -0.36616 -0.644 67 88 135
0.436628 -0.365591 -0.643 169 170 188
0.444667 -0.36616 -0.644 117 127 154
0.449573 -0.36616 -0.644 106 134 184
0.49128 -0.36616 -0.644 139 150 180
0.493733 -0.36616 -0.644 148 154 186
0.497413 -0.36616 -0.644 101 109 145
0.499867 -0.36616 -0.644 149 155 187
0.505214 -0.365591 -0.643 190 189 203
0.511338 -0.365591 -0.643 112 131 171
0.4687 -0.309871 -0.545 158 102 89
0.465195 -0.304186 -0.535 166 109 89
0.48365 -0.297363 -0.523 181 124 95
0.492616 -0.297363 -0.523 173 119 95
0.519154 -0.304754 -0.536 151 108 89
0.0743857 -0.362252 -0.635 219 224 246
0.09936 -0.314903 -0.552 178 127 126
0.105819 -0.309198 -0.542 178 124 122
0.125067 -0.305775 -0.536 158 103 98
0.136297 -0.305775 -0.536 146 94 83
0.15548 -0.31148 -0.546 120 71 67
0.170421 -0.316044 -0.554 120 71 67
0.20888 -0.33544 -0.588 108 86 99
0.253774 -0.364534 -0.639 168 185 231
0.254991 -0.364534 -0.639 164 188 236
0.261486 -0.365105 -0.64 147 170 222
0.278988 -0.365675 -0.641 241 250 255
0.289524 -0.365105 -0.64 145 163 213
0.303407 -0.365675 -0.641 228 235 255
0.305849 -0.365675 -0.641 234 237 254
0.307549 -0.366246 -0.642 233 236 253
0.325384 -0.365675 -0.641 103 138 192
0.335674 -0.366246 -0.642 201 211 236
0.340566 -0.366246 -0.642 202 214 230
0.357018 -0.366816 -0.643 92 124 197
0.365591 -0.366816 -0.643 48 81 152
0.37539 -0.366816 -0.643 187 187 195
0.383963 -0.366816 -0.643 82 107 161
0.392536 -0.366816 -0.643 66 97 151
0.40664 -0.367387 -0.644 170 168 179
0.441527 -0.366816 -0.643 159 156 173
0.47288 -0.367387 -0.644 104 109 147
0.47827 -0.366816 -0.643 157 166 195
0.494191 -0.366816 -0.643 157 161 190
0.502765 -0.366816 -0.643 176 182 208
0.48307 -0.32403 -0.568 141 99 87
0.46816 -0.301211 -0.528 180 124 97
0.472398 -0.30007 -0.526 183 127 102
0.502455 -0.30007 -0.526 160 113 93
0.503457 -0.30007 -0.526 159 112 92
0.512289 -0.302923 -0.531 149 111 90
1.13036 -0.356548 -0.625 200 204 189
0.0658152 -0.36289 -0.634 171 192 239
0.0706457 -0.36289 -0.634 200 213 248
0.073061 -0.36289 -0.634 197 211 248
0.0978143 -0.352014 -0.615 187 142 145
0.097859 -0.348008 -0.608 187 142 145
0.0970505 -0.32225 -0.563 180 128 130
0.104137 -0.311375 -0.544 177 123 123
0.132986 -0.306224 -0.535 148 95 87
0.146843 -0.309658 -0.541 131 81 74
0.151802 -0.311375 -0.544 126 77 72
0.155765 -0.313092 -0.547 122 73 69
0.161857 -0.31481 -0.55 114 69 66
0.163201 -0.315382 -0.551 111 66 63
0.293181 -0.366324 -0.64 146 163 215
0.296838 -0.366324 -0.64 128 151 203
0.301714 -0.366324 -0.64 196 207 239
0.30707 -0.366896 -0.641 235 238 255
0.33812 -0.367469 -0.642 207 211 236
0.381513 -0.368041 -0.643 101 115 144
0.418829 -0.367469 -0.642 114 127 161
0.427389 -0.367469 -0.642 122 136 173
0.476303 -0.367469 -0.642 164 169 198
0.478749 -0.367469 -0.642 167 173 199
0.4922 -0.367469 -0.642 169 170 198
0.494646 -0.367469 -0.642 177 178 206
0.504429 -0.367469 -0.642 145 145 169
0.514211 -0.367469 -0.642 110 128 176
0.524399 -0.366896 -0.641 195 201 215
0.52562 -0.366896 -0.641 190 196 210
0.526414 -0.365751 -0.639 131 136 165
0.46816 -0.302217 -0.528 178 122 95
0.47659 -0.299928 -0.524 190 133 106
0.477673 -0.299355 -0.523 187 131 104
0.48365 -0.299355 -0.523 184 128 103
0.503457 -0.301072 -0.526 159 114 93
0.54292 -0.317099 -0.554 151 109 95
0.113236 -0.308966 -0.538 177 123 123
0.145812 -0.310689 -0.541 129 79 72
0.158426 -0.315283 -0.549 119 72 66
0.163201 -0.316431 -0.551 111 66 61
0.164549 -0.317006 -0.552 109 64 61
0.17877 -0.319877 -0.557 139 84 79
0.244103 -0.365246 -0.636 254 248 255
0.309029 -0.367543 -0.64 231 231 255
0.324876 -0.367543 -0.64 144 172 220
0.337593 -0.368117 -0.641 210 212 237
0.348582 -0.368117 -0.641 70 91 148
0.363233 -0.368117 -0.641 103 134 181
0.369914 -0.368691 -0.642 171 190 232
0.388257 -0.368691 -0.642 115 146 193
0.425502 -0.368117 -0.641 153 162 193
0.43527 -0.368117 -0.641 147 157 192
0.455514 -0.368691 -0.642 85 108 152
0.487309 -0.368691 -0.642 173 176 195
0.4922 -0.368691 -0.642 169 169 195
0.495869 -0.368691 -0.642 156 162 188
0.49998 -0.368117 -0.641 88 94 126
0.507306 -0.368117 -0.641 155 166 198
0.517073 -0.368117 -0.641 118 136 186
0.471462 -0.314134 -0.547 162 107 86
0.467031 -0.303797 -0.529 179 123 98
0.479666 -0.300351 -0.523 192 136 109
0.484714 -0.299777 -0.522 182 128 100
0.487697 -0.299777 -0.522 180 126 98
0.49068 -0.299777 -0.522 176 125 98
1.12785 -0.356631 -0.621 204 206 192
0.0971781 -0.352052 -0.611 189 143 154
0.0996838 -0.315752 -0.548 178 127 126
0.103101 -0.313448 -0.544 177 126 123
0.132213 -0.308838 -0.536 152 97 92
0.138597 -0.309414 -0.537 141 88 82
0.145812 -0.311719 -0.541 132 79 73
0.15605 -0.315752 -0.548 121 72 67
0.164549 -0.318057 -0.552 112 65 59
0.170729 -0.319786 -0.555 114 67 61
0.19062 -0.3267 -0.567 108 70 67
0.211011 -0.342257 -0.594 154 149 181
0.244103 -0.366457 -0.636 250 243 255
0.245314 -0.366457 -0.636 251 244 255
0.264729 -0.368186 -0.639 181 198 244
0.270019 -0.368762 -0.64 236 242 255
0.279334 -0.368186 -0.639 226 234 236
0.282543 -0.36761 -0.638 164 175 221
0.284973 -0.36761 -0.638 150 168 214
0.323151 -0.368186 -0.639 145 172 217
0.326803 -0.368186 -0.639 160 184 228
0.330971 -0.368762 -0.64 124 157 198
0.335151 -0.369338 -0.641 207 210 227
0.341256 -0.369338 -0.641 200 212 228
0.351695 -0.368762 -0.64 163 187 223
0.376029 -0.369914 -0.642 188 186 207
0.379697 -0.369914 -0.642 184 185 205
0.394371 -0.369914 -0.642 121 141 178
0.401709 -0.369914 -0.642 175 177 198
0.407188 -0.369338 -0.641 128 137 178
0.417524 -0.368762 -0.64 109 114 143
0.428495 -0.368762 -0.64 172 172 198
0.447479 -0.369338 -0.641 79 106 151
0.451142 -0.369338 -0.641 92 113 166
0.464572 -0.369338 -0.641 138 137 171
0.473119 -0.369338 -0.641 164 170 196
0.498759 -0.369338 -0.641 118 128 153
0.502422 -0.369338 -0.641 104 107 140
0.520736 -0.369338 -0.641 159 172 216
0.526019 -0.368762 -0.64 131 137 169
0.467031 -0.304805 -0.529 178 121 94
0.470394 -0.303076 -0.526 181 125 98
0.501543 -0.301924 -0.524 159 117 95
0.5035 -0.3025 -0.525 156 115 95
0.507426 -0.303652 -0.527 154 113 93
0.509394 -0.304229 -0.528 150 109 89
0.09882 -0.317374 -0.549 177 127 126
0.102065 -0.314484 -0.544 178 127 126
0.117117 -0.310437 -0.537 177 123 121
0.135529 -0.310437 -0.537 144 91 85
0.150005 -0.315062 -0.545 125 76 69
0.167255 -0.320265 -0.554 106 61 55
0.169366 -0.320265 -0.554 112 67 62
0.175588 -0.321999 -0.557 126 81 76
0.214643 -0.347435 -0.601 158 163 203
0.273249 -0.369403 -0.639 243 246 253
0.286189 -0.368825 -0.638 186 200 239
0.3456 -0.369981 -0.64 98 109 141
0.369338 -0.370559 -0.641 113 126 160
0.379106 -0.370559 -0.641 186 190 217
0.393757 -0.370559 -0.641 114 137 178
0.39742 -0.370559 -0.641 177 185 208
0.413867 -0.369981 -0.64 167 171 200
0.43581 -0.369981 -0.64 92 98 130
0.450438 -0.369981 -0.64 103 134 191
0.477257 -0.369981 -0.64 172 175 194
0.478476 -0.369981 -0.64 163 168 188
0.517486 -0.369981 -0.64 80 105 161
0.521218 -0.356685 -0.617 126 107 103
0.469166 -0.305234 -0.528 182 122 98
0.47659 -0.302922 -0.524 190 134 107
0.478749 -0.301766 -0.522 193 137 110
0.479743 -0.301766 -0.522 190 134 107
0.481801 -0.301188 -0.521 187 130 103
0.530128 -0.313328 -0.542 149 112 94
0.53508 -0.31564 -0.546 148 111 93
0.0963286 -0.35554 -0.613 188 145 152
0.0951667 -0.33118 -0.571 186 135 131
0.09864 -0.31784 -0.548 178 127 124
0.101214 -0.3161 -0.545 176 125 122
0.10498 -0.31494 -0.543 177 126 123
0.141429 -0.3132 -0.54 132 83 78
0.152639 -0.31726 -0.547 122 75 69
0.178348 -0.32422 -0.559 121 77 74
0.183913 -0.32654 -0.563 108 69 64
0.263099 -0.37004 -0.638 174 192 232
0.297873 -0.36946 -0.637 161 174 209
0.342626 -0.37062 -0.639 148 154 186
0.366324 -0.3712 -0.64 184 194 221
0.37178 -0.37178 -0.641 100 113 147
0.43026 -0.37062 -0.639 150 156 190
0.431477 -0.37062 -0.639 126 132 166
0.441905 -0.3712 -0.64 159 166 182
0.47286 -0.37062 -0.639 168 171 190
0.475294 -0.37062 -0.639 167 172 191
0.51261 -0.3712 -0.64 77 93 152
0.521546 -0.37062 -0.639 128 149 192
0.530833 -0.36946 -0.637 201 197 211
0.468673 -0.31262 -0.539 156 110 95
0.467957 -0.31146 -0.537 156 110 95
0.470285 -0.30566 -0.527 177 123 99
0.478749 -0.30276 -0.522 197 141 114
0.485771 -0.30218 -0.521 186 130 103
0.491771 -0.3016 -0.52 174 123 96
1.12667 -0.36018 -0.621 202 204 191
0.0961714 -0.356126 -0.612 187 144 151
0.114261 -0.313065 -0.538 176 122 120
0.127346 -0.312483 -0.537 153 98 95
0.130414 -0.312483 -0.537 149 94 91
0.1404 -0.314229 -0.54 129 80 75
0.173466 -0.324121 -0.557 114 70 67
0.19941 -0.337505 -0.58 103 68 66
0.208397 -0.34507 -0.593 175 164 181
0.238881 -0.36951 -0.635 234 233 251
0.24168 -0.370091 -0.636 237 236 252
0.255407 -0.370673 -0.637 178 187 226
0.27482 -0.370673 -0.637 238 242 253
0.28408 -0.370091 -0.636 196 209 244
0.29256 -0.370091 -0.636 214 223 255
0.298617 -0.370091 -0.636 188 197 230
0.30758 -0.370673 -0.637 222 225 255
0.317287 -0.370673 -0.637 151 161 197
0.329937 -0.371255 -0.638 150 172 219
0.351811 -0.371255 -0.638 186 193 219
0.369403 -0.371837 -0.639 77 89 129
0.372419 -0.372419 -0.64 90 103 138
0.410786 -0.371837 -0.639 168 174 198
0.425941 -0.371255 -0.638 167 173 195
0.433911 -0.371837 -0.639 114 124 151
0.444866 -0.371837 -0.639 105 126 179
0.449734 -0.371837 -0.639 95 125 187
0.452169 -0.371837 -0.639 62 91 147
0.47286 -0.371837 -0.639 168 173 192
0.477729 -0.371837 -0.639 170 176 198
0.487466 -0.371837 -0.639 166 174 195
0.4899 -0.371837 -0.639 166 173 192
0.499637 -0.371837 -0.639 162 165 184
0.504506 -0.371837 -0.639 86 98 136
0.50694 -0.371837 -0.639 107 125 173
0.509374 -0.371837 -0.639 69 90 145
0.514243 -0.371837 -0.639 70 92 150
0.522763 -0.371837 -0.639 89 105 156
0.52398 -0.371837 -0.639 82 98 149
0.528021 -0.371255 -0.638 175 181 195
0.467914 -0.30841 -0.53 174 119 99
0.471396 -0.306082 -0.526 180 126 102
0.47676 -0.303754 -0.522 195 139 112
0.481801 -0.303172 -0.521 189 133 106
0.516334 -0.308991 -0.531 153 112 92
0.103946 -0.317009 -0.543 180 126 124
0.106851 -0.316425 -0.542 181 127 125
0.11836 -0.31409 -0.538 169 115 113
0.130657 -0.31409 -0.538 146 93 87
0.14169 -0.315841 -0.541 126 77 70
0.147929 -0.318176 -0.545 120 75 69
0.165145 -0.32343 -0.554 113 68 62
0.188792 -0.331604 -0.568 105 65 63
0.263486 -0.371303 -0.636 171 184 218
0.278023 -0.371303 -0.636 181 183 204
0.287262 -0.370719 -0.635 208 214 240
0.289681 -0.370719 -0.635 192 197 226
0.29089 -0.370719 -0.635 208 213 242
0.31486 -0.371887 -0.637 177 184 213
0.32578 -0.371887 -0.637 118 142 188
0.341409 -0.373054 -0.639 91 100 133
0.357888 -0.37247 -0.638 185 196 218
0.379733 -0.373638 -0.64 168 179 201
0.382171 -0.373638 -0.64 106 119 151
0.385829 -0.373638 -0.64 105 127 176
0.38766 -0.373054 -0.639 79 109 169
0.4047 -0.373054 -0.639 160 167 193
0.408928 -0.37247 -0.638 169 175 197
0.425273 -0.371887 -0.637 166 172 194
0.430802 -0.37247 -0.638 169 171 194
0.459968 -0.37247 -0.638 96 105 146
0.461906 -0.373054 -0.639 88 97 138
0.470426 -0.373054 -0.639 166 171 190
0.47212 -0.37247 -0.638 170 175 194
0.478196 -0.37247 -0.638 163 167 192
0.490349 -0.37247 -0.638 170 175 194
0.503716 -0.37247 -0.638 68 82 121
0.504931 -0.37247 -0.638 60 80 131
0.52559 -0.37247 -0.638 143 153 188
0.52962 -0.371887 -0.637 182 184 196
0.48418 -0.328685 -0.563 136 103 98
0.4697 -0.314673 -0.539 155 111 98
0.467914 -0.309419 -0.53 171 120 99
0.476839 -0.304165 -0.521 194 138 111
0.5075 -0.3065 -0.525 154 113 95
0.512411 -0.308251 -0.528 152 114 95
1.12776 -0.361378 -0.619 202 204 190
0.0702 -0.369 -0.63 179 199 249
0.114261 -0.315114 -0.538 177 123 121
0.119385 -0.315114 -0.538 170 117 113
0.13398 -0.3157 -0.539 145 95 88
0.155571 -0.322143 -0.55 117 74 68
0.192637 -0.335614 -0.573 106 66 66
0.251371 -0.372514 -0.636 175 179 214
0.259851 -0.372514 -0.636 192 205 239
0.260652 -0.371929 -0.635 177 190 224
0.310731 -0.372514 -0.636 216 221 250
0.31871 -0.371929 -0.635 129 146 189
0.319919 -0.371929 -0.635 134 151 194
0.359103 -0.373686 -0.638 185 193 216
0.373054 -0.374271 -0.639 79 93 128
0.374271 -0.374271 -0.639 79 93 128
0.381574 -0.374271 -0.639 111 126 157
0.389484 -0.373686 -0.638 109 139 199
0.399206 -0.373686 -0.638 103 112 143
0.4095 -0.3731 -0.637 167 173 195
0.41678 -0.3731 -0.637 163 169 193
0.426487 -0.3731 -0.637 165 171 193
0.450246 -0.373686 -0.638 42 72 136
0.457537 -0.373686 -0.638 83 105 155
0.470905 -0.373686 -0.638 167 170 185
0.47866 -0.3731 -0.637 138 142 169
0.506147 -0.373686 -0.638 62 82 133
0.517084 -0.373686 -0.638 71 97 148
0.518299 -0.373686 -0.638 81 107 158
0.48762 -0.3321 -0.567 142 105 97
0.475681 -0.306329 -0.523 190 136 110
0.477831 -0.305157 -0.521 189 135 107
0.479816 -0.305157 -0.521 188 134 106
0.482857 -0.304571 -0.52 190 136 110
0.485883 -0.303986 -0.519 182 130 106
0.486871 -0.303986 -0.519 180 128 104
0.488849 -0.303986 -0.519 181 131 106
1.12722 -0.363143 -0.62 202 204 190
1.12647 -0.361386 -0.617 202 204 190
0.0939143 -0.334943 -0.57 186 137 140
0.09932 -0.32084 -0.546 183 129 129
0.101214 -0.320252 -0.545 179 125 125
0.103101 -0.319665 -0.544 183 129 129
0.114261 -0.316139 -0.538 170 119 116
0.132953 -0.316727 -0.539 141 90 86
0.13398 -0.316727 -0.539 140 91 86
0.157953 -0.323778 -0.551 118 75 69
0.161687 -0.324953 -0.553 113 72 66
0.165145 -0.325541 -0.554 109 70 65
0.172714 -0.327891 -0.558 111 72 67
0.176533 -0.329067 -0.56 108 68 66
0.177917 -0.329654 -0.561 107 67 65
0.181017 -0.331417 -0.564 108 68 66
0.205443 -0.347283 -0.591 140 124 135
0.207617 -0.349046 -0.594 198 195 216
0.237671 -0.373138 -0.635 205 211 243
0.2413 -0.373138 -0.635 224 225 246
0.265909 -0.373726 -0.636 210 216 250
0.271538 -0.373138 -0.635 230 232 255
0.283187 -0.37255 -0.634 228 233 255
0.298886 -0.37255 -0.634 219 224 253
0.300093 -0.37255 -0.634 221 226 255
0.309033 -0.373138 -0.635 215 222 250
0.31629 -0.373138 -0.635 129 141 179
0.323548 -0.373138 -0.635 106 133 178
0.324757 -0.373138 -0.635 106 133 178
0.32648 -0.373726 -0.636 106 133 178
0.34034 -0.374313 -0.637 127 136 167
0.37247 -0.374901 -0.638 118 131 163
0.382192 -0.374901 -0.638 114 130 166
0.39313 -0.374901 -0.638 129 150 203
0.399793 -0.374313 -0.637 148 157 188
0.418549 -0.373726 -0.636 167 173 197
0.420971 -0.373726 -0.636 167 172 194
0.424606 -0.373726 -0.636 167 172 192
0.433086 -0.373726 -0.636 122 129 139
0.434297 -0.373726 -0.636 145 152 162
0.462887 -0.374313 -0.637 157 169 207
0.468953 -0.374313 -0.637 159 162 171
0.47138 -0.374313 -0.637 165 168 183
0.472593 -0.374313 -0.637 169 172 187
0.49686 -0.374313 -0.637 163 162 178
0.519913 -0.374313 -0.637 70 95 149
0.529167 -0.373138 -0.635 171 169 180
0.531956 -0.37255 -0.634 196 193 200
0.4715 -0.3085 -0.525 177 125 101
0.480876 -0.305562 -0.52 187 133 107
0.484894 -0.304974 -0.519 186 135 108
0.490867 -0.304387 -0.518 176 128 105
1.12486 -0.364324 -0.62 202 204 190
0.0700886 -0.37081 -0.629 177 198 243
0.0940629 -0.328954 -0.558 185 134 130
0.101214 -0.32129 -0.545 176 124 126
0.10934 -0.317753 -0.539 175 124 123
0.114473 -0.317753 -0.539 167 116 113
0.122459 -0.317164 -0.538 157 107 100
0.125533 -0.317164 -0.538 153 102 98
0.126558 -0.317164 -0.538 150 99 95
0.129632 -0.317164 -0.538 146 97 92
0.140146 -0.320111 -0.543 129 82 76
0.144814 -0.32129 -0.545 122 77 71
0.160633 -0.326007 -0.553 115 74 68
0.21412 -0.357251 -0.606 175 181 205
0.238881 -0.374348 -0.635 192 197 227
0.243719 -0.374348 -0.635 223 221 243
0.287563 -0.373169 -0.633 206 210 235
0.289974 -0.373169 -0.633 218 222 247
0.293591 -0.373169 -0.633 229 229 253
0.314585 -0.373758 -0.634 171 180 211
0.361611 -0.374937 -0.636 184 189 208
0.408857 -0.374937 -0.636 169 176 194
0.420971 -0.374937 -0.636 146 152 176
0.423394 -0.374937 -0.636 155 162 181
0.424606 -0.374937 -0.636 168 175 194
0.459247 -0.375527 -0.637 44 68 128
0.470167 -0.375527 -0.637 158 162 165
0.47912 -0.374937 -0.636 112 113 141
0.486389 -0.374937 -0.636 142 147 167
0.517886 -0.374937 -0.636 103 129 178
0.527577 -0.374937 -0.636 184 187 206
0.480471 -0.327186 -0.555 152 110 98
0.0953857 -0.358997 -0.607 191 146 153
0.0951543 -0.326469 -0.552 186 134 136
0.0960314 -0.325877 -0.551 183 133 132
0.101214 -0.322329 -0.545 182 131 130
0.103946 -0.321146 -0.543 177 123 121
0.114261 -0.318189 -0.538 169 115 113
0.121434 -0.318189 -0.538 162 111 107
0.124509 -0.318189 -0.538 153 104 99
0.14144 -0.321737 -0.544 125 82 73
0.171959 -0.330609 -0.559 108 69 64
0.239712 -0.374966 -0.634 162 168 204
0.256619 -0.374966 -0.634 165 177 215
0.260242 -0.374966 -0.634 155 164 195
0.293591 -0.374374 -0.633 222 222 246
0.312883 -0.374374 -0.633 183 192 225
0.335643 -0.375557 -0.635 125 138 173
0.366457 -0.376149 -0.636 183 186 205
0.376149 -0.376149 -0.636 73 87 122
0.408214 -0.375557 -0.635 160 168 187
0.428776 -0.375557 -0.635 160 163 172
0.47064 -0.376149 -0.636 162 167 173
0.471851 -0.376149 -0.636 172 177 183
0.476697 -0.376149 -0.636 141 143 166
0.508605 -0.375557 -0.635 68 93 147
0.523119 -0.375557 -0.635 100 112 152
0.524329 -0.375557 -0.635 80 91 123
0.527957 -0.375557 -0.635 178 180 203
0.487189 -0.333566 -0.564 149 109 97
0.498734 -0.306951 -0.519 163 118 97
0.517412 -0.312866 -0.529 150 111 94
0.0960314 -0.326927 -0.551 183 132 131
0.0991381 -0.323367 -0.545 179 128 127
0.107685 -0.320993 -0.541 178 124 124
0.147699 -0.325147 -0.548 123 80 73
0.15006 -0.32574 -0.549 118 75 68
0.160924 -0.328707 -0.554 116 75 71
0.163329 -0.3293 -0.555 113 74 69
0.169526 -0.33108 -0.558 109 70 65
0.172267 -0.332267 -0.56 109 70 65
0.192549 -0.34176 -0.576 104 66 63
0.243335 -0.376173 -0.634 200 205 234
0.249373 -0.376173 -0.634 179 186 215
0.259034 -0.376173 -0.634 155 163 202
0.276711 -0.37558 -0.633 196 197 217
0.286357 -0.37558 -0.633 224 229 249
0.291924 -0.374987 -0.632 219 224 246
0.293128 -0.374987 -0.632 219 225 247
0.315294 -0.37558 -0.633 145 158 203
0.323734 -0.37558 -0.633 79 108 166
0.343568 -0.376173 -0.634 148 146 157
0.356851 -0.376173 -0.634 177 184 203
0.375557 -0.376767 -0.635 64 71 113
0.402167 -0.376767 -0.635 172 170 181
0.407005 -0.376767 -0.635 160 163 180
0.42031 -0.376767 -0.635 118 125 153
0.423938 -0.376767 -0.635 157 162 184
0.45368 -0.37736 -0.636 74 98 160
0.463371 -0.37736 -0.636 155 158 191
0.492881 -0.376767 -0.635 162 170 183
0.511024 -0.376767 -0.635 61 93 150
0.52152 -0.37736 -0.636 170 188 224
0.531117 -0.37558 -0.633 176 175 181
0.515715 -0.356593 -0.601 139 106 97
0.473862 -0.309127 -0.521 184 130 106
0.0951543 -0.328571 -0.552 185 134 133
0.10498 -0.323214 -0.543 175 124 121
0.107685 -0.322024 -0.541 173 122 121
0.110571 -0.321429 -0.54 176 122 120
0.115286 -0.320238 -0.538 165 114 111
0.12782 -0.320833 -0.539 147 99 95
0.133447 -0.322024 -0.541 133 88 83
0.13679 -0.322619 -0.542 127 84 77
0.14404 -0.325 -0.546 122 79 72
0.153755 -0.327976 -0.551 114 73 69
0.17811 -0.33631 -0.565 110 72 69
0.19958 -0.349405 -0.587 97 72 68
0.228237 -0.374405 -0.629 195 199 224
0.232937 -0.37619 -0.632 200 203 222
0.236923 -0.376786 -0.633 149 153 180
0.244157 -0.376786 -0.633 193 198 230
0.247774 -0.376786 -0.633 197 204 233
0.24898 -0.376786 -0.633 181 188 217
0.288312 -0.37619 -0.632 217 222 242
0.293128 -0.37619 -0.632 221 228 247
0.322529 -0.376786 -0.633 70 100 162
0.352021 -0.377381 -0.634 139 145 167
0.358059 -0.377381 -0.634 159 167 190
0.359267 -0.377381 -0.634 155 163 184
0.360474 -0.377381 -0.634 164 172 193
0.364097 -0.377381 -0.634 178 183 203
0.377976 -0.377976 -0.635 42 67 123
0.406364 -0.377381 -0.634 124 124 134
0.442592 -0.377381 -0.634 92 119 172
0.446215 -0.377381 -0.634 55 84 140
0.44863 -0.377381 -0.634 49 75 136
0.472319 -0.377976 -0.635 174 168 180
0.487274 -0.377381 -0.634 148 147 153
0.500558 -0.377381 -0.634 128 140 178
0.510219 -0.377381 -0.634 66 97 151
0.517465 -0.377381 -0.634 141 165 211
0.529911 -0.376786 -0.633 181 182 202
0.479977 -0.328571 -0.552 151 111 99
0.475847 -0.310119 -0.521 184 130 106
0.482973 -0.308333 -0.518 188 134 110
0.484947 -0.308333 -0.518 186 132 108
0.514478 -0.313095 -0.526 155 114 96
0.520409 -0.315476 -0.53 152 111 93
0.09454 -0.36366 -0.609 190 150 151
0.0967286 -0.327831 -0.549 181 130 127
0.143262 -0.326637 -0.547 123 80 73
0.146655 -0.327234 -0.548 123 80 73
0.155086 -0.329623 -0.552 115 74 68
0.163623 -0.332011 -0.556 111 74 66
0.190354 -0.343954 -0.576 102 67 65
0.236923 -0.377991 -0.633 180 184 209
0.269051 -0.377394 -0.632 159 165 191
0.28425 -0.376797 -0.631 220 225 245
0.309981 -0.377394 -0.632 123 131 167
0.314796 -0.377394 -0.632 103 120 172
0.32563 -0.377394 -0.632 85 114 170
0.329242 -0.377394 -0.632 71 97 158
0.332174 -0.377991 -0.633 125 144 200
0.33338 -0.377991 -0.633 179 189 224
0.338203 -0.377991 -0.633 184 189 208
0.355083 -0.377991 -0.633 132 142 169
0.373758 -0.378589 -0.634 95 110 151
0.374966 -0.378589 -0.634 52 67 108
0.377381 -0.378589 -0.634 39 68 126
0.39791 -0.378589 -0.634 163 173 209
0.402106 -0.377991 -0.633 184 183 197
0.410546 -0.377991 -0.633 144 151 170
0.423809 -0.377991 -0.633 173 171 182
0.433454 -0.377991 -0.633 94 107 139
0.43466 -0.377991 -0.633 51 64 96
0.439483 -0.377991 -0.633 101 117 166
0.440689 -0.377991 -0.633 98 120 167
0.4431 -0.377991 -0.633 64 95 149
0.449838 -0.378589 -0.634 58 88 150
0.467481 -0.379186 -0.635 173 174 192
0.486506 -0.377991 -0.633 171 175 178
0.488482 -0.378589 -0.634 165 165 167
0.492105 -0.378589 -0.634 169 171 183
0.495728 -0.378589 -0.634 108 119 149
0.516257 -0.378589 -0.634 137 158 201
0.518672 -0.378589 -0.634 150 161 189
0.523503 -0.378589 -0.634 168 173 195
0.51772 -0.35948 -0.602 136 108 105
0.474379 -0.323651 -0.542 153 114 97
0.479027 -0.30932 -0.518 188 134 110
0.506611 -0.311111 -0.521 159 116 97
0.0974181 -0.327679 -0.547 181 127 125
0.10498 -0.325283 -0.543 174 120 120
0.114473 -0.322887 -0.539 163 109 107
0.133693 -0.324684 -0.542 132 89 83
0.14196 -0.32708 -0.546 122 79 72
0.15642 -0.331273 -0.553 114 73 67
0.174262 -0.337264 -0.563 108 71 65
0.189257 -0.345051 -0.576 104 66 63
0.226678 -0.376202 -0.628 190 188 209
0.253402 -0.378598 -0.632 113 127 174
0.261414 -0.377999 -0.631 172 190 236
0.275837 -0.377999 -0.631 210 212 235
0.285 -0.3774 -0.63 201 203 224
0.332853 -0.378598 -0.632 156 164 200
0.34128 -0.378598 -0.632 175 184 201
0.348503 -0.378598 -0.632 149 150 170
0.355726 -0.378598 -0.632 140 151 179
0.358133 -0.378598 -0.632 140 147 173
0.364729 -0.379197 -0.633 178 181 200
0.378589 -0.379796 -0.634 46 82 142
0.39246 -0.379197 -0.633 55 86 141
0.412305 -0.378598 -0.632 143 149 175
0.421935 -0.378598 -0.632 171 170 188
0.436381 -0.378598 -0.632 162 175 217
0.438789 -0.378598 -0.632 129 141 179
0.445511 -0.379197 -0.633 69 99 151
0.470368 -0.379796 -0.634 168 169 174
0.471575 -0.379796 -0.634 165 163 174
0.482889 -0.379197 -0.633 172 172 184
0.496151 -0.379197 -0.633 65 79 118
0.500974 -0.379197 -0.633 156 163 181
0.517854 -0.379197 -0.633 143 153 180
0.471578 -0.319292 -0.533 166 119 99
0.473689 -0.313302 -0.523 175 124 103
0.475847 -0.312104 -0.521 179 127 105
0.475924 -0.311505 -0.52 182 130 108
0.496812 -0.309708 -0.517 165 119 96
0.106851 -0.325716 -0.542 174 120 118
0.110571 -0.324514 -0.54 174 120 120
0.1116 -0.324514 -0.54 172 118 118
0.112629 -0.324514 -0.54 161 107 107
0.117335 -0.323312 -0.538 160 109 106
0.123713 -0.323913 -0.539 153 102 99
0.179055 -0.341341 -0.568 109 72 66
0.184351 -0.343144 -0.571 110 72 69
0.207317 -0.362374 -0.603 159 152 160
0.27103 -0.379201 -0.631 205 211 233
0.2982 -0.3786 -0.63 206 211 231
0.3102 -0.3786 -0.63 99 112 157
0.3114 -0.3786 -0.63 88 103 162
0.34074 -0.379201 -0.631 177 186 203
0.38221 -0.379802 -0.632 58 87 143
0.396655 -0.379802 -0.632 118 130 172
0.40147 -0.379802 -0.632 167 170 189
0.405082 -0.379802 -0.632 169 169 179
0.412854 -0.379201 -0.631 153 154 174
0.418324 -0.379802 -0.632 170 171 192
0.427954 -0.379802 -0.632 174 177 192
0.433973 -0.379802 -0.632 86 100 137
0.441196 -0.379802 -0.632 143 157 194
0.47731 -0.379802 -0.632 142 146 158
0.506202 -0.379802 -0.632 105 123 159
0.527871 -0.379802 -0.632 106 107 125
0.52546 -0.367182 -0.611 128 108 109
0.473689 -0.314298 -0.523 174 123 102
0.482041 -0.310692 -0.517 184 132 108
0.486023 -0.310091 -0.516 176 125 98
0.488971 -0.310091 -0.516 183 132 105
0.500751 -0.310692 -0.517 164 119 96
0.518468 -0.316702 -0.527 152 114 95
0.528406 -0.320909 -0.534 147 106 88
0.09828 -0.32916 -0.546 179 125 125
0.103946 -0.327351 -0.543 177 123 121
0.108514 -0.325543 -0.54 174 120 120
0.11242 -0.32494 -0.539 165 114 113
0.122687 -0.32494 -0.539 152 103 99
0.130355 -0.326146 -0.541 136 88 84
0.155367 -0.33338 -0.553 116 76 68
0.161795 -0.335791 -0.557 112 73 66
0.16557 -0.336997 -0.559 112 75 67
0.208349 -0.365331 -0.606 167 161 171
0.236174 -0.380403 -0.631 186 191 211
0.2526 -0.3798 -0.63 69 88 146
0.2562 -0.3798 -0.63 82 102 163
0.279755 -0.379197 -0.629 182 184 197
0.286944 -0.379197 -0.629 172 173 194
0.290538 -0.379197 -0.629 184 185 206
0.310906 -0.379197 -0.629 83 99 158
0.3366 -0.3798 -0.63 182 189 208
0.339 -0.3798 -0.63 181 188 207
0.349153 -0.380403 -0.631 144 150 172
0.361172 -0.380403 -0.631 177 182 201
0.363576 -0.380403 -0.631 177 180 197
0.373783 -0.381006 -0.632 124 139 180
0.38221 -0.381006 -0.632 71 102 149
0.404441 -0.380403 -0.631 171 173 185
0.423671 -0.380403 -0.631 163 166 181
0.459253 -0.381006 -0.632 151 151 175
0.474903 -0.381006 -0.632 164 167 184
0.478514 -0.381006 -0.632 94 101 120
0.509813 -0.381006 -0.632 106 127 174
0.513425 -0.381006 -0.632 109 128 171
0.525463 -0.381006 -0.632 169 167 178
0.49215 -0.341217 -0.566 146 112 103
0.47207 -0.318911 -0.529 170 122 102
0.475997 -0.312883 -0.519 181 131 108
0.480013 -0.31228 -0.518 186 135 108
0.482041 -0.311677 -0.517 183 131 107
0.487006 -0.311074 -0.516 176 126 101
0.488971 -0.311074 -0.516 179 129 104
0.614515 -0.365934 -0.607 207 205 206
0.110571 -0.326571 -0.54 168 117 116
0.11242 -0.325967 -0.539 168 117 116
0.155648 -0.335038 -0.554 116 75 69
0.159387 -0.336248 -0.556 112 73 68
0.1909 -0.351367 -0.581 109 74 68
0.197229 -0.35681 -0.59 137 125 129
0.2358 -0.381 -0.63 189 192 211
0.2646 -0.381 -0.63 97 110 162
0.273 -0.381 -0.63 203 208 227
0.282151 -0.380395 -0.629 165 160 180
0.302519 -0.380395 -0.629 200 202 223
0.3294 -0.381 -0.63 95 112 164
0.3342 -0.381 -0.63 171 185 214
0.336066 -0.380395 -0.629 185 191 215
0.3486 -0.381 -0.63 111 116 135
0.352759 -0.381605 -0.631 168 173 193
0.353961 -0.381605 -0.631 175 182 201
0.36598 -0.381605 -0.631 132 135 152
0.368384 -0.381605 -0.631 135 143 164
0.39723 -0.381605 -0.631 71 83 123
0.408047 -0.381605 -0.631 171 173 186
0.4218 -0.381 -0.63 169 171 184
0.4254 -0.381 -0.63 129 130 150
0.442902 -0.381605 -0.631 94 112 158
0.468884 -0.38221 -0.632 168 171 188
0.47295 -0.381605 -0.631 167 165 186
0.506603 -0.381605 -0.631 90 114 158
0.509813 -0.38221 -0.632 117 135 181
0.525833 -0.381605 -0.631 182 178 193
0.531 -0.381 -0.63 118 123 153
0.5322 -0.381 -0.63 147 152 182
0.472593 -0.322338 -0.533 167 122 101
0.476986 -0.313871 -0.519 180 130 107
0.499783 -0.312057 -0.516 166 120 96
0.51058 -0.315081 -0.521 156 114 92
0.5175 -0.3175 -0.525 154 115 100
0.101877 -0.32942 -0.543 177 126 125
0.111393 -0.326993 -0.539 168 117 116
0.11858 -0.326993 -0.539 159 110 106
0.123713 -0.326993 -0.539 147 98 94
0.141178 -0.331847 -0.547 126 83 77
0.14719 -0.333667 -0.55 117 76 70
0.151931 -0.33488 -0.552 116 75 69
0.159673 -0.337913 -0.557 113 76 68
0.162086 -0.33852 -0.558 114 75 70
0.1786 -0.3458 -0.57 109 74 68
0.188037 -0.35126 -0.579 106 73 66
0.191886 -0.354293 -0.584 107 76 73
0.248605 -0.381593 -0.629 69 89 140
0.302038 -0.380987 -0.628 201 203 224
0.306823 -0.380987 -0.628 125 130 160
0.337264 -0.381593 -0.629 178 184 208
0.33966 -0.381593 -0.629 185 186 206
0.344452 -0.381593 -0.629 175 182 201
0.3642 -0.3822 -0.63 177 178 199
0.3858 -0.3822 -0.63 137 152 193
0.387 -0.3822 -0.63 137 152 193
0.4302 -0.3822 -0.63 108 116 139
0.4386 -0.3822 -0.63 135 139 176
0.4446 -0.3822 -0.63 116 134 180
0.4482 -0.3822 -0.63 103 125 174
0.451315 -0.382807 -0.631 114 133 173
0.4542 -0.3822 -0.63 167 173 199
0.464536 -0.382807 -0.631 94 96 117
0.47295 -0.382807 -0.631 166 164 185
0.4842 -0.3822 -0.63 164 163 171
0.4962 -0.3822 -0.63 166 168 183
0.510209 -0.382807 -0.631 122 139 183
0.521026 -0.382807 -0.631 131 129 143
0.525 -0.3822 -0.63 179 175 189
0.483131 -0.33488 -0.552 155 112 103
0.47272 -0.322747 -0.532 167 122 99
0.47207 -0.320927 -0.529 175 124 105
0.472292 -0.319713 -0.527 172 121 102
0.4725 -0.3185 -0.525 177 126 107
0.476986 -0.31486 -0.519 183 131 107
0.491948 -0.312433 -0.515 175 128 102
0.0915257 -0.342017 -0.562 185 130 133
0.0991381 -0.331671 -0.545 185 134 133
0.13651 -0.331671 -0.545 131 86 81
0.14248 -0.333497 -0.548 123 78 73
0.183452 -0.349929 -0.575 114 76 73
0.192871 -0.357231 -0.587 95 78 71
0.242614 -0.382791 -0.629 99 107 144
0.250602 -0.382183 -0.628 80 100 159
0.260171 -0.382183 -0.628 87 109 169
0.317589 -0.382183 -0.628 81 115 179
0.321177 -0.382183 -0.628 76 106 168
0.331273 -0.382791 -0.629 63 82 122
0.336728 -0.382183 -0.628 179 186 214
0.33912 -0.382183 -0.628 184 187 204
0.3522 -0.3834 -0.63 179 183 208
0.3546 -0.3834 -0.63 182 185 200
0.3678 -0.3834 -0.63 74 80 114
0.38399 -0.382791 -0.629 103 126 170
0.38998 -0.382791 -0.629 166 172 208
0.39597 -0.382791 -0.629 91 107 143
0.4014 -0.3834 -0.63 158 161 180
0.4458 -0.3834 -0.63 114 141 184
0.483 -0.3834 -0.63 140 147 173
0.501 -0.3834 -0.63 169 166 185
0.5034 -0.3834 -0.63 78 96 146
0.528959 -0.382791 -0.629 182 180 201
0.482429 -0.334714 -0.55 160 114 101
0.472398 -0.320109 -0.526 172 124 101
0.473689 -0.318283 -0.523 179 129 106
0.486062 -0.313414 -0.515 180 130 105
0.51059 -0.316457 -0.52 155 113 88
0.536463 -0.327411 -0.538 151 110 88
0.540485 -0.329237 -0.541 152 111 89
0.0921667 -0.337593 -0.553 182 133 129
0.09724 -0.33332 -0.546 178 128 127
0.09828 -0.33332 -0.546 180 130 129
0.101877 -0.331489 -0.543 177 126 123
0.162376 -0.341256 -0.559 116 79 73
0.166459 -0.343088 -0.562 115 75 73
0.170274 -0.344309 -0.564 106 75 70
0.176429 -0.347971 -0.57 108 71 65
0.219291 -0.380937 -0.624 100 100 124
0.227874 -0.383379 -0.628 133 130 151
0.239836 -0.383379 -0.628 185 187 210
0.252994 -0.383379 -0.628 61 85 147
0.26334 -0.382769 -0.627 103 122 165
0.305846 -0.382158 -0.626 173 180 209
0.317083 -0.382769 -0.627 87 119 178
0.324766 -0.383379 -0.628 139 158 201
0.349245 -0.38399 -0.629 169 171 184
0.380395 -0.38399 -0.629 112 133 176
0.38936 -0.383379 -0.628 169 177 213
0.408499 -0.383379 -0.628 162 164 185
0.410891 -0.383379 -0.628 98 104 128
0.416872 -0.383379 -0.628 170 167 184
0.422853 -0.383379 -0.628 158 158 182
0.449885 -0.38399 -0.629 80 103 153
0.458271 -0.38399 -0.629 173 169 186
0.464262 -0.38399 -0.629 141 146 168
0.494214 -0.38399 -0.629 152 154 167
0.5166 -0.3846 -0.63 116 130 177
0.5238 -0.3846 -0.63 177 181 193
0.531355 -0.38399 -0.629 111 115 150
0.534099 -0.383379 -0.628 117 131 160
0.534443 -0.382769 -0.627 118 132 161
0.475253 -0.327215 -0.536 165 123 107
0.482138 -0.314395 -0.515 184 134 111
0.490992 -0.313785 -0.514 177 127 102
0.49393 -0.313785 -0.514 176 126 101
0.513557 -0.318058 -0.521 156 115 93
0.533471 -0.326605 -0.535 151 110 88
0.091099 -0.346608 -0.566 181 126 129
0.106457 -0.330686 -0.54 172 121 118
0.115286 -0.329461 -0.538 161 112 108
0.140392 -0.335585 -0.548 127 82 77
0.141694 -0.336197 -0.549 127 82 77
0.152482 -0.339259 -0.554 117 76 70
0.153814 -0.339871 -0.555 117 76 70
0.216567 -0.381513 -0.623 136 137 157
0.256174 -0.383963 -0.627 80 109 167
0.258563 -0.383963 -0.627 125 148 198
0.259757 -0.383963 -0.627 115 138 188
0.265729 -0.383963 -0.627 93 101 137
0.318277 -0.383963 -0.627 98 128 182
0.343357 -0.383963 -0.627 152 158 172
0.366632 -0.384575 -0.628 101 108 137
0.372613 -0.384575 -0.628 172 177 199
0.37979 -0.384575 -0.628 114 137 178
0.401322 -0.384575 -0.628 146 150 177
0.407303 -0.384575 -0.628 160 166 188
0.407849 -0.383963 -0.627 155 161 183
0.411431 -0.383963 -0.627 48 69 122
0.412626 -0.383963 -0.627 91 112 165
0.428834 -0.384575 -0.628 133 134 152
0.447973 -0.384575 -0.628 76 96 147
0.458739 -0.384575 -0.628 147 140 156
0.461866 -0.385188 -0.629 166 166 174
0.472649 -0.385188 -0.629 143 156 190
0.473847 -0.385188 -0.629 137 150 184
0.475045 -0.385188 -0.629 98 115 159
0.48463 -0.385188 -0.629 70 86 122
0.51578 -0.385188 -0.629 99 113 160
0.476887 -0.330073 -0.539 163 121 105
0.474194 -0.323337 -0.528 171 126 103
0.47804 -0.317213 -0.518 176 128 106
0.491971 -0.314764 -0.514 175 123 99
0.0922114 -0.364886 -0.594 179 129 128
0.0910371 -0.343386 -0.559 182 131 130
0.0937619 -0.337857 -0.55 187 136 135
0.110162 -0.330486 -0.538 167 116 112
0.12041 -0.330486 -0.538 156 105 102
0.12166 -0.3311 -0.539 155 106 102
0.126233 -0.332329 -0.541 139 91 87
0.132114 -0.334171 -0.544 136 88 84
0.138305 -0.336629 -0.548 128 83 77
0.145359 -0.338471 -0.551 122 81 75
0.157834 -0.342771 -0.558 116 78 75
0.162957 -0.344614 -0.561 112 74 73
0.195829 -0.366114 -0.596 163 155 166
0.200426 -0.370414 -0.603 174 168 180
0.216567 -0.3827 -0.623 146 147 167
0.248611 -0.384543 -0.626 127 152 206
0.259343 -0.384543 -0.626 144 165 210
0.266497 -0.384543 -0.626 95 105 141
0.273651 -0.384543 -0.626 204 207 226
0.278421 -0.384543 -0.626 204 205 223
0.304167 -0.383929 -0.625 144 149 171
0.308929 -0.383929 -0.625 163 175 199
0.310119 -0.383929 -0.625 161 173 197
0.322539 -0.384543 -0.626 137 154 197
0.327309 -0.384543 -0.626 183 189 205
0.334463 -0.384543 -0.626 78 87 118
0.351717 -0.385157 -0.627 144 158 185
0.3553 -0.385157 -0.627 180 181 201
0.366632 -0.385771 -0.628 101 108 137
0.367829 -0.385771 -0.628 117 122 142
0.370221 -0.385771 -0.628 143 145 157
0.376801 -0.386386 -0.629 117 129 167
0.406654 -0.385157 -0.627 160 170 195
0.411431 -0.385157 -0.627 54 78 138
0.424569 -0.385157 -0.627 128 132 159
0.434123 -0.385157 -0.627 169 172 189
0.437208 -0.385771 -0.628 106 116 151
0.440796 -0.385771 -0.628 80 100 150
0.447973 -0.385771 -0.628 80 103 155
0.453954 -0.385771 -0.628 159 174 197
0.456347 -0.385771 -0.628 168 170 183
0.459935 -0.385771 -0.628 172 172 182
0.463524 -0.385771 -0.628 172 171 187
0.476682 -0.385771 -0.628 37 57 110
0.526922 -0.385771 -0.628 177 183 197
0.528118 -0.385771 -0.628 137 144 173
0.53359 -0.384543 -0.626 158 169 189
0.482762 -0.336629 -0.548 157 117 107
0.477771 -0.331714 -0.54 163 121 105
0.4735 -0.3225 -0.525 173 126 106
0.474594 -0.321886 -0.524 175 128 108
0.477974 -0.318814 -0.519 179 128 107
0.480071 -0.317586 -0.517 182 131 110
0.483119 -0.316357 -0.515 178 127 106
0.485118 -0.315743 -0.514 178 128 105
0.495888 -0.315743 -0.514 175 125 102
0.0904981 -0.350612 -0.569 175 124 123
0.124971 -0.332743 -0.54 143 92 88
0.13701 -0.337056 -0.547 127 83 74
0.146674 -0.340137 -0.552 121 80 76
0.1517 -0.341986 -0.555 115 74 70
0.171784 -0.350612 -0.569 109 75 74
0.198947 -0.370947 -0.602 172 165 181
0.216914 -0.384503 -0.624 175 172 191
0.222379 -0.385735 -0.626 138 139 157
0.229533 -0.385735 -0.626 181 182 200
0.26131 -0.385119 -0.625 189 200 230
0.274405 -0.385119 -0.625 200 201 221
0.307738 -0.385119 -0.625 193 196 211
0.327976 -0.385119 -0.625 181 184 199
0.34281 -0.385735 -0.626 129 132 147
0.357689 -0.386351 -0.627 172 177 196
0.36366 -0.386351 -0.627 81 95 124
0.394711 -0.386351 -0.627 169 171 192
0.397733 -0.386968 -0.628 155 161 183
0.402518 -0.386968 -0.628 134 140 176
0.41793 -0.385735 -0.626 112 127 158
0.425084 -0.385735 -0.626 164 169 198
0.456814 -0.386351 -0.627 143 141 154
0.458009 -0.386351 -0.627 169 167 180
0.465916 -0.386968 -0.628 79 92 126
0.467112 -0.386968 -0.628 45 67 106
0.475486 -0.386968 -0.628 67 86 119
0.476682 -0.386968 -0.628 41 58 112
0.488644 -0.386968 -0.628 127 138 170
0.492232 -0.386968 -0.628 168 171 190
0.524889 -0.386351 -0.627 174 180 194
0.521114 -0.368482 -0.598 141 116 111
0.475092 -0.325965 -0.529 172 125 107
0.479027 -0.319187 -0.518 178 127 108
0.480126 -0.317954 -0.516 175 124 103
0.48316 -0.316722 -0.514 178 127 106
0.485118 -0.316722 -0.514 178 127 106
0.487076 -0.316722 -0.514 177 126 105
0.493946 -0.316106 -0.513 174 123 102
0.503719 -0.317338 -0.515 159 114 93
0.5225 -0.3235 -0.525 150 113 94
0.0905486 -0.343661 -0.556 184 135 131
0.0912781 -0.342425 -0.554 185 136 132
0.0953343 -0.338098 -0.547 183 133 132
0.0981 -0.336862 -0.545 183 133 132
0.103563 -0.33439 -0.541 176 125 122
0.12166 -0.333153 -0.539 156 106 99
0.123943 -0.333771 -0.54 149 99 92
0.128769 -0.335626 -0.543 137 90 84
0.135969 -0.338098 -0.547 129 85 76
0.139603 -0.339334 -0.549 126 82 73
0.149316 -0.342425 -0.554 117 76 74
0.163248 -0.34737 -0.562 113 75 74
0.234303 -0.386928 -0.626 180 182 205
0.2375 -0.38631 -0.625 75 81 115
0.242262 -0.38631 -0.625 173 176 207
0.324405 -0.38631 -0.625 165 174 205
0.333929 -0.38631 -0.625 149 154 184
0.356494 -0.387546 -0.627 175 176 197
0.360077 -0.387546 -0.627 169 175 207
0.369631 -0.387546 -0.627 163 163 173
0.39289 -0.386928 -0.626 169 169 193
0.403071 -0.387546 -0.627 86 100 149
0.406654 -0.387546 -0.627 147 161 188
0.421507 -0.386928 -0.626 57 74 117
0.447739 -0.386928 -0.626 81 105 149
0.454426 -0.387546 -0.627 151 154 163
0.456814 -0.387546 -0.627 147 150 159
0.469951 -0.387546 -0.627 130 144 179
0.493429 -0.388164 -0.628 165 167 190
