ply
format ascii 1.0
comment Created by Open3D
element vertex 1291
property double x
property double y
property double z
property uchar red
property uchar green
property uchar blue
end_header
0.50568 -0.438846 -0.516 133 101 86
0.497079 -0.417584 -0.491 158 121 94
0.498866 -0.409079 -0.481 172 127 98
0.506613 -0.401425 -0.472 176 129 99
0.509129 -0.400574 -0.471 171 124 94
0.516583 -0.398023 -0.468 179 133 99
0.543326 -0.398023 -0.468 151 110 78
0.866349 -0.494977 -0.582 101 102 97
0.868948 -0.495828 -0.583 108 109 104
-0.32619 -0.467105 -0.548 224 225 217
-0.320971 -0.467105 -0.548 225 226 218
-0.293832 -0.467105 -0.548 226 227 221
-0.288613 -0.467105 -0.548 226 227 221
-0.280263 -0.467105 -0.548 225 226 218
-0.276088 -0.467105 -0.548 226 227 219
-0.259387 -0.467105 -0.548 227 228 220
-0.07124 -0.4654 -0.546 182 141 113
-0.04488 -0.337543 -0.396 181 136 105
-0.02128 -0.334133 -0.392 185 139 106
0.00652476 -0.34351 -0.403 155 108 88
0.00729238 -0.34351 -0.403 153 106 86
0.0223657 -0.351181 -0.412 121 89 76
0.02478 -0.352033 -0.413 122 85 77
0.0307267 -0.357148 -0.419 111 80 75
0.0591533 -0.398062 -0.467 86 68 64
0.0656438 -0.410848 -0.482 83 72 76
0.463333 -0.473924 -0.556 210 219 218
0.485386 -0.474776 -0.557 132 138 160
0.488383 -0.475629 -0.558 158 161 168
0.497949 -0.475629 -0.558 178 177 182
0.504326 -0.475629 -0.558 174 174 176
0.508424 -0.476481 -0.559 172 172 174
0.515323 -0.452614 -0.531 115 97 87
0.508595 -0.44409 -0.521 120 100 91
0.498653 -0.427895 -0.502 145 109 93
0.496472 -0.422781 -0.496 155 113 89
0.497154 -0.419371 -0.492 156 120 94
0.517038 -0.39721 -0.466 176 132 95
0.538341 -0.39721 -0.466 147 108 79
0.544217 -0.398914 -0.468 149 110 79
-0.311577 -0.468149 -0.548 225 226 220
-0.305314 -0.468149 -0.548 226 227 219
-0.289129 -0.467294 -0.547 225 226 220
-0.26565 -0.468149 -0.548 227 228 222
-0.0505286 -0.345986 -0.405 183 140 108
-0.0322314 -0.332317 -0.389 188 144 109
-0.0307495 -0.332317 -0.389 185 141 104
-0.02346 -0.334026 -0.391 181 136 103
-0.00942857 -0.338297 -0.396 171 124 96
0.00729238 -0.344277 -0.403 152 105 85
0.01276 -0.34684 -0.406 144 99 80
0.0183076 -0.349403 -0.409 132 93 78
0.0199143 -0.350257 -0.41 130 91 76
0.026481 -0.354529 -0.415 120 83 77
0.0438 -0.374177 -0.438 90 69 68
0.0533 -0.3887 -0.455 88 68 67
0.0686 -0.4186 -0.49 223 221 226
0.0858857 -0.461314 -0.54 153 182 212
0.454043 -0.474129 -0.555 198 206 209
0.461215 -0.474983 -0.556 185 189 192
0.462274 -0.474983 -0.556 183 187 190
0.463333 -0.474983 -0.556 177 181 184
0.473924 -0.474983 -0.556 164 168 169
0.477959 -0.475837 -0.557 177 177 177
0.508424 -0.477546 -0.559 162 162 162
0.5291 -0.474129 -0.555 116 107 102
0.507631 -0.443374 -0.519 121 101 90
0.498614 -0.427997 -0.501 144 108 92
0.497526 -0.425434 -0.498 148 111 92
0.497079 -0.419454 -0.491 156 120 94
0.49926 -0.407494 -0.477 177 132 101
0.503916 -0.403223 -0.472 176 129 99
0.504815 -0.403223 -0.472 177 130 100
0.513017 -0.399806 -0.468 177 131 97
-0.32188 -0.46748 -0.546 224 227 220
-0.306358 -0.469192 -0.548 225 226 220
-0.276626 -0.468336 -0.547 226 227 219
-0.262039 -0.468336 -0.547 227 228 222
-0.260997 -0.468336 -0.547 227 228 222
-0.0492657 -0.343332 -0.401 181 141 106
-0.0406933 -0.335627 -0.392 185 141 106
-0.0314905 -0.333058 -0.389 189 145 108
-0.0182933 -0.335627 -0.392 178 131 101
0.00267333 -0.343332 -0.401 159 111 89
0.00421143 -0.344189 -0.402 154 107 87
0.00884952 -0.345901 -0.404 152 105 87
0.01276 -0.347613 -0.406 145 99 83
0.0265448 -0.356175 -0.416 120 83 77
0.0408257 -0.37073 -0.433 89 69 68
0.0631457 -0.408403 -0.477 79 63 66
0.476898 -0.476898 -0.557 185 189 190
0.4976 -0.479467 -0.56 167 166 171
0.508267 -0.479467 -0.56 154 154 154
0.5104 -0.479467 -0.56 154 154 154
0.512533 -0.479467 -0.56 152 152 152
0.503711 -0.43837 -0.512 125 104 87
0.50171 -0.434945 -0.508 136 110 93
0.497574 -0.427239 -0.499 145 108 89
0.497149 -0.412684 -0.482 173 128 99
0.500169 -0.408403 -0.477 177 132 101
0.503343 -0.405834 -0.474 178 131 101
0.503182 -0.404978 -0.473 178 131 101
0.507334 -0.403266 -0.471 175 129 96
0.516814 -0.398129 -0.465 177 131 97
0.546891 -0.400697 -0.468 150 109 81
0.55932 -0.405834 -0.474 140 104 78
-0.311009 -0.469378 -0.547 224 225 219
-0.270374 -0.469378 -0.547 226 227 221
-0.26572 -0.46852 -0.546 227 228 222
-0.248494 -0.469378 -0.547 227 228 220
-0.244327 -0.469378 -0.547 227 228 220
-0.0472619 -0.340664 -0.397 182 142 107
-0.0439029 -0.33809 -0.394 183 143 107
-0.0307495 -0.333799 -0.389 188 144 107
-0.0292676 -0.333799 -0.389 189 145 108
-0.0242048 -0.335515 -0.391 180 135 102
-0.00491524 -0.340664 -0.397 168 121 93
0.00038 -0.34238 -0.399 162 114 91
0.0232067 -0.354393 -0.413 119 85 75
0.0265448 -0.356968 -0.416 121 84 78
0.0418429 -0.373271 -0.435 90 71 67
0.0490667 -0.384427 -0.448 86 68 68
0.0512267 -0.387859 -0.452 87 67 69
0.425789 -0.475385 -0.554 173 176 183
0.435014 -0.476243 -0.555 162 166 167
0.447448 -0.477101 -0.556 190 195 198
0.460156 -0.477101 -0.556 194 195 199
0.463333 -0.477101 -0.556 194 194 196
0.471593 -0.477959 -0.557 194 193 191
0.51711 -0.484824 -0.565 129 129 129
0.524134 -0.481391 -0.561 110 105 109
0.497571 -0.417034 -0.486 166 122 95
0.49795 -0.412744 -0.481 170 125 96
0.50169 -0.407595 -0.475 172 125 95
0.53223 -0.397298 -0.463 160 116 79
0.551914 -0.403305 -0.47 147 106 76
0.5644 -0.408453 -0.476 131 100 79
-0.31356 -0.46956 -0.546 225 226 218
-0.29692 -0.46956 -0.546 226 227 221
-0.29588 -0.46956 -0.546 226 227 221
-0.27924 -0.46956 -0.546 227 228 220
-0.27769 -0.4687 -0.545 227 228 220
-0.276652 -0.4687 -0.545 226 227 219
-0.27196 -0.46956 -0.546 225 226 220
-0.2626 -0.46956 -0.546 226 227 221
-0.04902 -0.34314 -0.399 183 141 103
-0.0462714 -0.3397 -0.395 184 142 104
-0.0439029 -0.33884 -0.394 183 141 103
-0.0322314 -0.33454 -0.389 190 146 109
-0.0277857 -0.33454 -0.389 180 136 99
-0.0160943 -0.33798 -0.393 178 129 96
0.00114286 -0.344 -0.4 159 111 91
0.00421143 -0.34572 -0.402 152 105 87
0.00574286 -0.34572 -0.402 153 106 88
0.00961905 -0.34744 -0.404 147 100 82
0.0317505 -0.36292 -0.422 102 77 72
0.0469371 -0.38184 -0.444 86 68 66
0.0490667 -0.38528 -0.448 86 68 66
0.0546429 -0.39474 -0.459 83 68 65
0.0719048 -0.43 -0.5 217 226 233
0.452743 -0.47816 -0.556 194 196 193
0.52077 -0.48934 -0.569 101 101 103
0.523857 -0.4902 -0.57 98 98 100
0.530257 -0.47644 -0.554 54 52 57
0.504694 -0.44118 -0.513 123 102 85
0.49674 -0.41882 -0.487 161 119 94
0.500169 -0.41022 -0.477 176 131 100
0.500933 -0.40936 -0.476 177 130 100
0.515479 -0.40162 -0.467 178 132 98
0.517237 -0.39818 -0.463 175 129 95
0.52052 -0.39732 -0.462 172 126 93
0.524662 -0.39646 -0.461 173 125 89
0.52756 -0.39732 -0.462 169 123 87
0.543667 -0.40076 -0.466 151 114 85
-0.31044 -0.4706 -0.546 224 225 219
-0.274576 -0.469738 -0.545 227 228 222
-0.25844 -0.4706 -0.546 227 228 222
-0.0422943 -0.338729 -0.393 183 141 101
-0.0344543 -0.335281 -0.389 190 148 110
-0.0337133 -0.335281 -0.389 191 147 110
-0.0131333 -0.33959 -0.394 176 127 97
-0.0116324 -0.33959 -0.394 174 124 97
-0.0108819 -0.33959 -0.394 173 123 96
-0.00491524 -0.342176 -0.397 167 120 94
0.00806 -0.347348 -0.403 148 101 85
0.0119867 -0.349933 -0.406 142 96 80
0.0135667 -0.350795 -0.407 140 97 81
0.03718 -0.369757 -0.429 93 72 67
0.04092 -0.374067 -0.434 91 70 65
0.416291 -0.477495 -0.554 193 195 192
0.448507 -0.479219 -0.556 192 191 189
0.4784 -0.482667 -0.56 168 166 167
0.489542 -0.485252 -0.563 156 154 157
0.490614 -0.485252 -0.563 156 154 157
0.50764 -0.446467 -0.518 117 97 88
0.499647 -0.433538 -0.503 143 106 88
0.496548 -0.418024 -0.485 160 121 92
0.507334 -0.405957 -0.471 177 130 100
0.511433 -0.404233 -0.469 178 132 99
0.52554 -0.397338 -0.461 170 126 89
0.538682 -0.399924 -0.464 161 115 81
0.543667 -0.401648 -0.466 150 114 82
0.552527 -0.404233 -0.469 142 106 74
0.555495 -0.405095 -0.47 141 107 80
-0.319214 -0.470776 -0.545 225 226 218
-0.31091 -0.470776 -0.545 225 226 218
-0.305719 -0.470776 -0.545 227 228 222
-0.29949 -0.470776 -0.545 225 226 220
-0.283919 -0.470776 -0.545 227 228 222
-0.281326 -0.469912 -0.544 226 227 219
-0.273036 -0.469912 -0.544 226 227 221
-0.266271 -0.470776 -0.545 227 228 222
-0.262119 -0.470776 -0.545 227 228 222
-0.260043 -0.470776 -0.545 227 228 222
-0.259005 -0.470776 -0.545 227 228 222
-0.0256286 -0.336886 -0.39 179 135 100
-0.020481 -0.33775 -0.391 182 136 103
-0.0116324 -0.340341 -0.394 172 125 95
0.0318257 -0.365391 -0.423 102 77 70
0.0327086 -0.366255 -0.424 101 76 69
0.0362781 -0.36971 -0.428 94 73 70
0.0470429 -0.384395 -0.445 86 67 63
0.0536514 -0.395625 -0.458 83 67 67
0.056001 -0.399944 -0.463 83 69 68
0.0833629 -0.463866 -0.537 161 188 215
0.418402 -0.47855 -0.554 198 197 202
0.447448 -0.480278 -0.556 183 184 179
0.534334 -0.500146 -0.579 54 53 59
0.53351 -0.486325 -0.563 45 43 48
0.495812 -0.420675 -0.487 156 120 88
0.500786 -0.41031 -0.475 175 129 96
0.506437 -0.406854 -0.471 176 130 97
0.51459 -0.403399 -0.467 182 136 102
0.515703 -0.400808 -0.464 174 130 95
0.52115 -0.398216 -0.461 168 122 88
0.537521 -0.399944 -0.463 158 114 79
0.543386 -0.401671 -0.465 155 112 77
0.54633 -0.402535 -0.466 149 109 74
0.551349 -0.404263 -0.468 142 106 74
0.554313 -0.405127 -0.469 140 106 78
-0.327954 -0.470949 -0.544 224 225 217
-0.0537467 -0.35148 -0.406 184 145 104
-0.0495305 -0.343689 -0.397 184 144 108
-0.0469048 -0.341091 -0.394 183 144 105
-0.0437914 -0.340226 -0.393 187 145 107
-0.0226571 -0.337629 -0.39 181 135 102
-0.0168 -0.33936 -0.392 175 129 96
-0.00415905 -0.343689 -0.397 163 118 87
0.0292 -0.3636 -0.42 108 79 71
0.0420352 -0.378317 -0.437 89 70 64
0.054881 -0.399094 -0.461 87 68 62
0.38394 -0.47874 -0.553 192 193 188
0.384993 -0.47874 -0.553 192 193 188
0.397297 -0.479606 -0.554 188 192 191
0.404684 -0.479606 -0.554 192 191 196
0.405739 -0.479606 -0.554 194 193 198
0.422329 -0.480471 -0.555 187 189 184
0.450374 -0.482203 -0.557 170 169 175
0.464167 -0.482203 -0.557 141 139 144
0.494543 -0.493457 -0.57 93 91 96
0.5405 -0.497786 -0.575 42 41 46
0.509588 -0.451037 -0.521 119 96 82
0.50862 -0.449306 -0.519 121 98 84
0.499609 -0.434589 -0.502 143 107 91
0.497 -0.4242 -0.49 153 116 89
0.504246 -0.410349 -0.474 177 130 100
0.506437 -0.407751 -0.471 175 130 97
0.508048 -0.406886 -0.47 178 133 100
0.516587 -0.401691 -0.464 175 129 96
0.525276 -0.398229 -0.46 164 118 84
0.52993 -0.399094 -0.461 165 121 86
-0.314484 -0.471985 -0.544 225 226 218
-0.265294 -0.471117 -0.543 225 226 220
-0.26371 -0.471985 -0.544 226 227 221
-0.25024 -0.471985 -0.544 227 228 220
-0.246095 -0.471985 -0.544 227 229 218
-0.0452886 -0.340974 -0.393 185 143 105
-0.0336267 -0.336636 -0.388 187 143 104
-0.0168 -0.340107 -0.392 175 129 96
-0.01456 -0.340107 -0.392 176 130 97
-0.00940476 -0.34271 -0.395 170 124 91
0.00729238 -0.34965 -0.403 150 103 83
0.0135667 -0.353121 -0.407 137 95 81
0.0232629 -0.359194 -0.414 123 87 73
0.0241095 -0.360062 -0.415 123 87 73
0.0258143 -0.361797 -0.417 118 84 72
0.0275343 -0.363532 -0.419 113 81 70
0.0283324 -0.363532 -0.419 110 82 71
0.055 -0.40084 -0.462 87 68 64
0.381833 -0.479793 -0.553 182 189 199
0.386047 -0.479793 -0.553 191 195 194
0.389207 -0.479793 -0.553 187 192 195
0.439765 -0.483264 -0.557 168 163 160
0.449313 -0.483264 -0.557 145 143 144
0.450374 -0.483264 -0.557 145 144 149
0.453557 -0.483264 -0.557 130 128 133
0.463106 -0.483264 -0.557 106 107 112
0.538509 -0.491072 -0.566 47 42 49
0.513449 -0.457235 -0.527 114 91 83
0.497033 -0.417325 -0.481 168 125 93
0.49795 -0.417325 -0.481 167 124 92
0.500027 -0.412987 -0.476 172 127 96
0.499881 -0.412119 -0.475 170 125 94
0.50244 -0.411251 -0.474 180 134 101
0.503182 -0.410384 -0.473 176 130 97
0.505714 -0.409516 -0.472 174 128 95
0.508943 -0.407781 -0.47 180 135 102
0.511921 -0.405178 -0.467 178 132 98
0.5126 -0.40431 -0.466 180 134 100
0.521771 -0.399105 -0.46 168 122 88
0.545157 -0.403443 -0.465 151 108 73
-0.320111 -0.472151 -0.543 225 228 219
-0.298391 -0.472151 -0.543 226 227 221
-0.281843 -0.472151 -0.543 226 227 221
-0.279774 -0.472151 -0.543 227 228 222
-0.276671 -0.472151 -0.543 226 227 221
-0.274603 -0.472151 -0.543 226 227 221
-0.272534 -0.472151 -0.543 226 227 221
-0.251276 -0.473021 -0.544 228 229 221
-0.247711 -0.472151 -0.543 227 229 218
-0.0397429 -0.339114 -0.39 188 144 107
-0.0263038 -0.338245 -0.389 180 134 100
-0.0197362 -0.339984 -0.391 178 132 99
-0.0108819 -0.342592 -0.394 171 125 92
-0.00189524 -0.34607 -0.398 158 112 89
0.0431619 -0.38259 -0.44 87 68 62
0.048321 -0.390416 -0.449 85 67 63
0.352754 -0.479977 -0.552 193 192 197
0.353806 -0.479977 -0.552 195 195 197
0.357607 -0.480847 -0.553 195 195 197
0.35866 -0.480847 -0.553 194 194 196
0.359713 -0.480847 -0.553 194 194 196
0.370247 -0.480847 -0.553 196 195 200
0.38991 -0.481716 -0.554 193 191 194
0.404357 -0.482586 -0.555 180 178 181
0.406471 -0.482586 -0.555 181 179 182
0.424149 -0.483455 -0.556 162 160 161
0.427326 -0.483455 -0.556 156 154 155
0.445869 -0.485194 -0.558 119 118 123
0.453557 -0.484325 -0.557 99 98 103
0.472843 -0.487803 -0.561 68 67 72
0.479443 -0.491281 -0.565 66 64 69
0.540665 -0.49215 -0.566 35 32 41
0.498474 -0.433023 -0.498 143 108 88
0.511031 -0.406068 -0.467 175 131 96
0.520895 -0.399981 -0.46 168 122 88
0.521771 -0.399981 -0.46 167 121 87
0.523524 -0.399981 -0.46 167 123 88
0.536077 -0.40085 -0.461 161 115 81
0.557589 -0.406937 -0.468 137 100 71
-0.32218 -0.473186 -0.543 223 226 217
-0.311837 -0.473186 -0.543 225 226 218
-0.298391 -0.473186 -0.543 226 227 219
-0.282877 -0.473186 -0.543 226 227 219
-0.281843 -0.473186 -0.543 226 227 221
-0.277706 -0.473186 -0.543 226 227 221
-0.251849 -0.473186 -0.543 228 229 221
-0.192894 -0.473186 -0.543 228 229 223
-0.038159 -0.338986 -0.389 186 144 104
-0.0263038 -0.338986 -0.389 181 135 101
-0.0182467 -0.340729 -0.391 175 129 95
-0.0175019 -0.340729 -0.391 175 129 96
-0.01456 -0.3416 -0.392 177 130 100
0.0159705 -0.356414 -0.409 131 94 76
0.0452457 -0.386914 -0.444 87 68 64
0.0495048 -0.393886 -0.452 85 67 63
0.0563638 -0.406086 -0.466 84 66 62
0.0653971 -0.424386 -0.487 218 213 217
0.341189 -0.481029 -0.552 193 194 198
0.396613 -0.484514 -0.556 176 174 175
0.40085 -0.484514 -0.556 173 171 174
0.404027 -0.484514 -0.556 169 167 170
0.443473 -0.487129 -0.559 90 88 93
0.461811 -0.486257 -0.558 60 59 64
0.503668 -0.443557 -0.509 128 100 88
0.497226 -0.429614 -0.493 144 109 89
0.49674 -0.424386 -0.487 155 115 89
0.53988 -0.4026 -0.462 156 112 75
-0.322619 -0.473347 -0.542 225 226 218
-0.294745 -0.473347 -0.542 225 226 218
-0.281324 -0.473347 -0.542 226 227 221
-0.250814 -0.47422 -0.543 227 228 220
-0.1626 -0.473347 -0.542 231 232 224
-0.0475343 -0.34322 -0.393 182 142 106
-0.0451733 -0.342347 -0.392 181 139 101
-0.0443133 -0.341473 -0.391 184 142 104
-0.0167571 -0.341473 -0.391 177 128 96
0.00652476 -0.351953 -0.403 148 101 83
0.0336743 -0.37204 -0.426 94 74 67
0.0507 -0.397367 -0.455 85 67 63
0.0564848 -0.407847 -0.467 81 66 61
0.0653971 -0.425313 -0.487 220 218 221
0.343913 -0.482953 -0.553 189 190 192
0.375814 -0.4847 -0.555 176 176 178
0.413241 -0.486447 -0.557 120 118 123
0.417485 -0.486447 -0.557 113 111 116
0.419607 -0.486447 -0.557 104 102 107
0.43815 -0.488193 -0.559 72 70 75
0.506662 -0.449767 -0.515 122 96 83
0.49674 -0.425313 -0.487 154 114 88
0.497575 -0.417453 -0.478 165 122 88
0.502281 -0.413087 -0.473 173 129 94
0.503182 -0.413087 -0.473 172 128 93
0.506967 -0.409593 -0.469 176 130 97
0.556093 -0.406973 -0.466 132 97 69
-0.289583 -0.474379 -0.542 226 227 219
-0.259644 -0.474379 -0.542 226 227 221
-0.202863 -0.474379 -0.542 228 229 221
-0.190474 -0.474379 -0.542 231 232 224
-0.18841 -0.474379 -0.542 230 231 223
-0.038061 -0.339592 -0.388 186 144 104
-0.024081 -0.340468 -0.389 179 133 97
-0.01456 -0.343093 -0.392 175 130 99
0.00421143 -0.351846 -0.402 151 106 87
0.0104143 -0.354471 -0.405 137 99 80
0.0119867 -0.355347 -0.406 135 97 78
0.0241676 -0.364099 -0.416 117 85 72
0.0266724 -0.36585 -0.418 110 80 70
0.0474657 -0.392982 -0.449 85 67 65
0.0496143 -0.396483 -0.453 85 67 65
0.0553571 -0.406986 -0.465 81 66 63
0.0566057 -0.409611 -0.468 81 66 63
0.336983 -0.483131 -0.552 190 191 193
0.354671 -0.485757 -0.555 178 178 178
0.364842 -0.486632 -0.556 168 168 168
0.369078 -0.486632 -0.556 168 168 170
0.383905 -0.486632 -0.556 148 148 148
0.457067 -0.490133 -0.56 58 57 63
0.492923 -0.505012 -0.577 55 54 60
0.507056 -0.513765 -0.587 54 55 59
0.516497 -0.519891 -0.594 37 36 42
0.5185 -0.520767 -0.595 37 36 42
0.51058 -0.455999 -0.521 119 95 85
0.499423 -0.435869 -0.498 137 104 85
0.496917 -0.427991 -0.489 151 111 86
0.496 -0.420114 -0.48 165 122 90
0.496791 -0.419239 -0.479 166 123 89
0.500786 -0.415738 -0.475 166 121 88
0.508753 -0.410487 -0.469 176 130 96
0.50856 -0.409611 -0.468 177 131 95
0.540468 -0.403485 -0.461 155 111 74
-0.329237 -0.474534 -0.541 224 225 217
-0.320993 -0.474534 -0.541 224 225 217
-0.308628 -0.474534 -0.541 224 225 217
-0.285453 -0.475411 -0.542 226 227 219
-0.252982 -0.474534 -0.541 228 229 221
-0.05358 -0.34998 -0.399 181 143 106
-0.0474133 -0.34384 -0.392 181 141 105
-0.0196857 -0.342086 -0.39 176 131 98
-0.0175019 -0.342963 -0.391 174 129 98
-0.0131 -0.344717 -0.393 171 124 94
-0.0116029 -0.344717 -0.393 169 122 92
-0.00716571 -0.347349 -0.396 163 118 89
0.00887143 -0.355243 -0.405 136 97 80
0.0175714 -0.359629 -0.41 127 91 75
0.0475714 -0.394714 -0.45 84 66 64
0.317481 -0.483306 -0.551 185 184 182
0.331726 -0.484183 -0.552 181 182 186
0.350443 -0.486814 -0.555 170 168 171
0.359132 -0.488569 -0.557 164 164 166
0.360193 -0.488569 -0.557 163 163 165
0.392365 -0.490323 -0.559 101 101 103
0.505938 -0.514883 -0.587 49 48 54
0.519106 -0.523654 -0.597 12 11 19
0.515397 -0.464009 -0.529 105 87 83
0.511544 -0.458746 -0.523 117 92 85
0.499524 -0.438571 -0.5 135 104 86
0.500634 -0.415766 -0.474 173 128 97
0.506257 -0.412257 -0.47 172 128 93
0.509252 -0.409626 -0.467 173 127 91
0.510825 -0.408749 -0.466 174 128 92
0.518889 -0.402609 -0.459 167 123 86
0.532877 -0.402609 -0.459 161 117 78
0.537543 -0.403486 -0.46 163 117 81
0.551055 -0.406994 -0.464 137 102 74
-0.324514 -0.474686 -0.54 224 225 217
-0.302445 -0.475565 -0.541 223 224 216
-0.268439 -0.475565 -0.541 226 227 221
-0.197336 -0.475565 -0.541 230 232 221
-0.195275 -0.475565 -0.541 229 231 220
-0.191153 -0.475565 -0.541 230 232 221
-0.173635 -0.475565 -0.541 228 230 219
-0.0328029 -0.340191 -0.387 186 142 105
-0.0277143 -0.34107 -0.388 183 137 101
-0.0269752 -0.34107 -0.388 182 136 100
-0.0182467 -0.343708 -0.391 173 128 97
-0.00938095 -0.346345 -0.394 167 122 93
-0.00641143 -0.348103 -0.396 163 117 91
-0.00567143 -0.348982 -0.397 161 115 89
0.023319 -0.364805 -0.415 117 85 74
0.0404629 -0.385023 -0.438 86 68 64
0.0444 -0.390297 -0.444 84 66 64
0.0498333 -0.399967 -0.455 82 67 64
0.0579886 -0.41491 -0.472 79 65 64
0.319109 -0.485234 -0.552 174 182 184
0.339259 -0.486992 -0.554 165 164 169
0.406981 -0.497541 -0.566 57 56 62
0.408059 -0.497541 -0.566 59 58 64
0.409137 -0.497541 -0.566 59 58 64
0.419176 -0.496662 -0.565 59 58 64
0.425826 -0.493146 -0.561 56 55 61
0.448233 -0.496662 -0.565 56 56 64
0.452811 -0.495783 -0.564 55 55 63
0.456034 -0.495783 -0.564 53 53 61
0.499423 -0.437766 -0.498 135 104 84
0.499367 -0.436887 -0.497 135 103 80
0.496917 -0.429854 -0.489 146 109 83
0.49912 -0.418427 -0.476 170 125 94
0.500479 -0.41579 -0.473 172 127 94
0.504467 -0.413152 -0.47 172 127 94
0.513271 -0.408757 -0.465 172 126 90
0.51371 -0.406999 -0.463 171 127 90
0.54604 -0.40612 -0.462 141 104 75
0.552823 -0.407878 -0.464 135 100 78
-0.328629 -0.475714 -0.54 223 224 216
-0.2988 -0.475714 -0.54 225 226 220
-0.279774 -0.476595 -0.541 226 227 221
-0.272561 -0.476595 -0.541 226 227 221
-0.243257 -0.475714 -0.54 226 227 219
-0.236494 -0.476595 -0.541 226 227 221
-0.225159 -0.476595 -0.541 228 229 223
-0.216915 -0.476595 -0.541 227 228 222
-0.160971 -0.475714 -0.54 230 231 223
-0.0387 -0.340929 -0.387 184 142 104
-0.0269752 -0.34181 -0.388 181 135 101
-0.0262362 -0.34181 -0.388 180 134 101
-0.0218581 -0.34269 -0.389 178 132 99
-0.0167571 -0.344452 -0.391 171 124 96
0.00731048 -0.355905 -0.404 140 97 80
0.00964286 -0.356786 -0.405 139 97 81
0.0233752 -0.366476 -0.416 117 85 72
0.0510343 -0.403476 -0.458 82 67 64
0.300183 -0.486286 -0.552 188 184 185
0.304389 -0.486286 -0.552 186 184 187
0.343218 -0.49069 -0.557 143 141 146
0.358933 -0.493333 -0.56 114 112 117
0.361711 -0.494214 -0.561 110 108 113
0.37092 -0.495095 -0.562 89 86 93
0.374131 -0.495095 -0.562 80 77 84
0.376272 -0.495095 -0.562 74 71 78
0.405173 -0.500381 -0.568 57 56 62
0.412751 -0.503024 -0.571 57 56 62
0.425633 -0.497738 -0.565 56 55 61
0.431326 -0.496857 -0.564 55 54 62
0.439324 -0.498619 -0.566 56 54 65
0.442558 -0.498619 -0.566 55 53 64
0.473083 -0.501262 -0.569 18 18 28
0.500476 -0.440476 -0.5 135 104 83
0.498165 -0.43431 -0.493 141 106 84
0.497307 -0.419333 -0.476 163 120 88
0.548986 -0.407881 -0.463 137 100 73
-0.32494 -0.47586 -0.539 224 225 217
-0.32186 -0.47586 -0.539 224 225 217
-0.27 -0.476743 -0.54 227 228 222
-0.266914 -0.476743 -0.54 225 226 220
-0.245314 -0.476743 -0.54 226 227 221
-0.198 -0.476743 -0.54 227 229 218
-0.0783943 -0.474977 -0.538 176 138 102
-0.0496533 -0.34608 -0.392 184 144 108
-0.0464286 -0.344314 -0.39 185 142 107
-0.0456857 -0.344314 -0.39 185 142 107
-0.0433457 -0.343431 -0.389 185 143 105
-0.0277143 -0.342549 -0.388 181 135 101
-0.0204286 -0.344314 -0.39 179 132 102
-0.0167571 -0.345197 -0.391 170 123 93
-0.0131 -0.346963 -0.393 171 124 94
-0.00641143 -0.349611 -0.396 161 115 89
-0.00567143 -0.350494 -0.397 153 107 83
0.00731048 -0.356674 -0.404 140 97 80
0.0258762 -0.369034 -0.418 111 82 68
0.0276 -0.3708 -0.42 107 80 69
0.0404629 -0.386691 -0.438 86 68 66
0.04242 -0.38934 -0.441 86 68 66
0.0499429 -0.402583 -0.456 82 67 64
0.295441 -0.486454 -0.551 179 175 176
0.309153 -0.48822 -0.553 169 168 166
0.326129 -0.489986 -0.555 147 151 154
0.345515 -0.493517 -0.559 112 111 117
0.354231 -0.495283 -0.561 94 92 97
0.366443 -0.498814 -0.565 73 70 77
0.369671 -0.498814 -0.565 68 65 72
0.383535 -0.501463 -0.568 60 57 64
0.387462 -0.502346 -0.569 59 56 63
0.42973 -0.502346 -0.569 54 53 59
0.4347 -0.50058 -0.567 53 52 58
0.436549 -0.501463 -0.568 50 49 55
0.43763 -0.501463 -0.568 49 48 54
0.49683 -0.430834 -0.488 148 111 85
0.496548 -0.428186 -0.485 152 112 86
0.497307 -0.42024 -0.476 163 120 88
0.50518 -0.41406 -0.469 164 119 86
0.510614 -0.410529 -0.465 172 126 92
0.513051 -0.409646 -0.464 172 126 92
0.51371 -0.408763 -0.463 172 123 90
0.530555 -0.403466 -0.457 160 115 76
0.551939 -0.409646 -0.464 136 99 73
-0.320833 -0.476887 -0.539 224 225 219
-0.285429 -0.477771 -0.54 226 227 221
-0.245314 -0.477771 -0.54 226 228 217
-0.237086 -0.477771 -0.54 227 228 220
-0.224743 -0.477771 -0.54 227 228 220
-0.218571 -0.477771 -0.54 227 229 218
-0.20174 -0.476887 -0.539 229 231 220
-0.201086 -0.477771 -0.54 228 230 219
0.00190952 -0.35479 -0.401 149 104 83
0.00267333 -0.35479 -0.401 149 104 83
0.00497714 -0.355674 -0.402 146 103 84
0.0144124 -0.361868 -0.409 129 92 76
0.0167905 -0.362752 -0.41 128 92 78
0.0347286 -0.379563 -0.429 90 69 64
0.0522467 -0.407875 -0.461 83 68 61
0.309712 -0.490158 -0.554 155 152 159
0.313933 -0.490158 -0.554 148 146 151
0.316044 -0.490158 -0.554 141 140 146
0.44538 -0.505199 -0.571 15 15 25
0.502627 -0.44769 -0.506 126 99 80
0.500371 -0.440611 -0.498 134 104 80
0.504467 -0.415838 -0.47 167 121 88
0.515391 -0.406106 -0.459 173 127 91
0.52185 -0.404336 -0.457 169 125 88
0.527073 -0.404336 -0.457 165 120 81
0.555474 -0.41053 -0.464 139 100 71
-0.308513 -0.477913 -0.539 225 226 218
-0.290033 -0.477913 -0.539 225 226 218
-0.253073 -0.477913 -0.539 226 227 221
-0.238114 -0.4788 -0.54 227 229 218
-0.22022 -0.477913 -0.539 226 228 217
-0.213033 -0.477913 -0.539 228 229 221
-0.19866 -0.477913 -0.539 228 229 221
-0.193527 -0.477913 -0.539 228 230 219
-0.178127 -0.477913 -0.539 228 229 221
-0.163753 -0.477913 -0.539 229 231 220
-0.0546857 -0.35112 -0.396 184 140 105
-0.0371295 -0.342253 -0.386 187 143 108
-0.0334533 -0.342253 -0.386 184 138 104
-0.02838 -0.34314 -0.387 175 129 95
-0.0269057 -0.34314 -0.387 176 127 94
-0.0153067 -0.347573 -0.392 168 123 92
0.00575714 -0.357327 -0.403 142 99 80
0.0259381 -0.371513 -0.419 110 82 70
0.0302857 -0.375947 -0.424 98 75 69
0.0405552 -0.389247 -0.439 87 68 64
0.273952 -0.487667 -0.55 173 173 175
0.275 -0.487667 -0.55 172 170 173
0.278143 -0.487667 -0.55 173 171 174
0.279698 -0.488553 -0.551 171 169 172
0.283896 -0.488553 -0.551 169 169 171
0.331791 -0.49742 -0.561 83 80 87
0.333929 -0.49742 -0.561 81 78 85
0.355406 -0.503627 -0.568 68 67 73
0.357115 -0.504513 -0.569 67 66 72
0.400749 -0.51604 -0.582 61 59 70
0.436114 -0.51072 -0.576 19 18 26
0.437444 -0.507173 -0.572 11 11 21
0.504657 -0.4522 -0.51 126 97 79
0.498014 -0.435353 -0.491 143 107 85
0.498829 -0.42028 -0.474 167 122 91
0.500479 -0.419393 -0.473 169 124 93
0.514517 -0.40698 -0.459 172 128 93
0.537823 -0.406093 -0.458 156 112 77
0.546614 -0.408753 -0.461 141 104 78
-0.326387 -0.478051 -0.538 224 225 217
-0.298718 -0.478051 -0.538 225 226 218
-0.28798 -0.47894 -0.539 224 225 217
-0.286953 -0.47894 -0.539 224 225 217
-0.2849 -0.47894 -0.539 225 226 218
-0.273607 -0.47894 -0.539 225 226 220
-0.262851 -0.478051 -0.538 225 226 220
-0.261827 -0.478051 -0.538 226 227 221
-0.253629 -0.478051 -0.538 225 226 218
-0.24178 -0.47894 -0.539 227 229 218
-0.2387 -0.47894 -0.539 227 229 218
-0.213033 -0.47894 -0.539 228 229 221
-0.196242 -0.478051 -0.538 229 231 220
-0.1925 -0.47894 -0.539 229 231 220
-0.16345 -0.478051 -0.538 229 231 220
-0.152177 -0.478051 -0.538 230 231 223
-0.0495267 -0.347431 -0.391 184 144 108
-0.0409114 -0.343877 -0.387 182 140 102
-0.01456 -0.34832 -0.392 168 123 92
-0.0116029 -0.349209 -0.393 167 122 93
-0.0108819 -0.350097 -0.394 165 120 91
-0.00641143 -0.351874 -0.396 155 111 86
-0.00415905 -0.352763 -0.397 153 109 84
-0.00341143 -0.353651 -0.398 154 110 85
0.01044 -0.36076 -0.406 137 96 78
0.0377 -0.386529 -0.435 88 69 65
0.0535857 -0.413186 -0.465 78 67 63
0.0559524 -0.417629 -0.47 84 65 61
0.0583571 -0.422071 -0.475 84 66 62
0.251494 -0.487826 -0.549 180 180 182
0.253586 -0.487826 -0.549 180 180 182
0.261381 -0.488714 -0.55 175 175 177
0.268153 -0.489603 -0.551 172 170 173
0.28336 -0.490491 -0.552 155 155 157
0.312508 -0.496711 -0.559 95 92 99
0.332491 -0.501154 -0.564 67 64 71
0.360881 -0.510929 -0.575 62 61 67
0.365433 -0.512706 -0.577 62 61 66
0.499307 -0.440731 -0.496 137 105 84
0.498014 -0.436289 -0.491 143 107 85
0.497307 -0.42296 -0.476 163 119 90
0.503571 -0.417629 -0.47 171 125 92
0.504467 -0.417629 -0.47 170 124 91
0.506777 -0.415851 -0.468 175 130 97
0.513247 -0.409631 -0.461 171 127 92
0.517498 -0.406077 -0.457 170 128 90
0.519239 -0.406077 -0.457 170 128 90
0.55132 -0.41052 -0.462 135 99 73
0.553395 -0.411409 -0.463 138 103 75
-0.326803 -0.478186 -0.537 224 225 217
-0.324757 -0.478186 -0.537 224 225 217
-0.319643 -0.478186 -0.537 224 225 217
-0.303842 -0.479076 -0.538 224 225 219
-0.289495 -0.479076 -0.538 224 225 217
-0.2849 -0.479967 -0.539 225 226 218
-0.280793 -0.479967 -0.539 226 227 219
-0.256703 -0.479076 -0.538 226 227 219
-0.231084 -0.479076 -0.538 226 227 219
-0.220836 -0.479076 -0.538 226 227 219
-0.218787 -0.479076 -0.538 226 227 219
-0.205083 -0.478186 -0.537 228 229 221
-0.16345 -0.479076 -0.538 229 231 220
-0.0791238 -0.477295 -0.536 177 137 102
-0.0525057 -0.348176 -0.391 182 139 104
-0.0510162 -0.348176 -0.391 183 140 105
-0.0486571 -0.347286 -0.39 186 142 105
-0.0463095 -0.346395 -0.389 185 143 105
-0.0455686 -0.346395 -0.389 186 144 106
-0.0167571 -0.348176 -0.391 170 123 95
-0.0152676 -0.348176 -0.391 167 120 92
-0.00938095 -0.350848 -0.394 158 113 84
0.000380952 -0.35619 -0.4 149 105 78
0.0357943 -0.384686 -0.432 89 70 66
0.0489667 -0.405167 -0.455 84 66 64
0.0501619 -0.407838 -0.458 84 66 64
0.22326 -0.488871 -0.549 185 185 187
0.255095 -0.489762 -0.55 167 167 169
0.272351 -0.490652 -0.551 144 142 147
0.284387 -0.493324 -0.554 122 121 126
0.288071 -0.494214 -0.555 113 112 118
0.30186 -0.497776 -0.559 87 86 94
0.32828 -0.50401 -0.566 66 63 70
0.336523 -0.506681 -0.569 64 63 69
0.353829 -0.512914 -0.576 61 60 68
0.45423 -0.549424 -0.617 12 12 20
0.509613 -0.461267 -0.518 112 93 76
0.496646 -0.432771 -0.486 146 108 85
0.496548 -0.431881 -0.485 149 109 84
0.496665 -0.425648 -0.478 161 117 88
0.498829 -0.422086 -0.474 168 125 93
0.500479 -0.421195 -0.473 168 123 92
0.507473 -0.415852 -0.467 173 128 95
0.5104 -0.413181 -0.464 174 130 95
0.542185 -0.407838 -0.458 147 108 79
-0.326194 -0.478316 -0.536 224 225 217
-0.324152 -0.478316 -0.536 224 225 217
-0.311015 -0.480101 -0.538 225 226 220
-0.300209 -0.479209 -0.537 224 225 217
-0.294071 -0.479209 -0.537 225 227 216
-0.283873 -0.480993 -0.539 226 227 221
-0.28182 -0.480993 -0.539 226 227 221
-0.252134 -0.479209 -0.537 226 227 221
-0.251111 -0.479209 -0.537 226 227 221
-0.243381 -0.480101 -0.538 226 227 221
-0.187019 -0.480101 -0.538 228 229 221
-0.174397 -0.479209 -0.537 229 230 224
-0.173374 -0.479209 -0.537 230 231 223
-0.0431229 -0.345351 -0.387 187 141 105
-0.0408057 -0.344459 -0.386 182 136 102
-0.0400705 -0.344459 -0.386 182 136 102
-0.0371295 -0.344459 -0.386 185 139 103
-0.0203762 -0.347136 -0.389 178 127 98
-0.0160124 -0.348921 -0.391 171 120 93
0.00114286 -0.356952 -0.4 150 106 81
0.00190952 -0.357845 -0.401 147 102 79
0.00654095 -0.360522 -0.404 141 100 78
0.0572105 -0.422096 -0.473 80 65 62
0.220123 -0.489917 -0.549 180 180 180
0.222214 -0.489917 -0.549 179 179 179
0.271233 -0.493487 -0.553 120 117 124
0.2765 -0.493487 -0.553 107 106 112
0.285413 -0.496164 -0.556 90 89 95
0.300803 -0.500626 -0.561 70 69 77
0.497149 -0.430128 -0.482 151 110 82
0.4964 -0.424773 -0.476 162 118 89
0.497307 -0.424773 -0.476 161 117 88
0.498976 -0.423881 -0.475 165 121 92
0.50032 -0.421204 -0.472 167 122 91
0.504287 -0.418527 -0.469 172 127 96
0.506777 -0.417634 -0.468 173 128 97
0.512369 -0.411388 -0.461 175 130 97
0.513643 -0.409603 -0.459 167 123 88
0.517234 -0.406926 -0.456 170 126 89
0.525633 -0.406033 -0.455 165 119 83
0.533737 -0.406926 -0.456 159 114 73
-0.32211 -0.479337 -0.536 225 226 218
-0.320069 -0.479337 -0.536 224 225 217
-0.318027 -0.479337 -0.536 224 225 217
-0.289495 -0.481126 -0.538 225 226 218
-0.266454 -0.480231 -0.537 225 226 220
-0.231677 -0.480231 -0.537 227 228 220
-0.229034 -0.481126 -0.538 227 228 222
-0.205722 -0.479337 -0.536 228 229 221
-0.171329 -0.480231 -0.537 230 231 225
-0.150871 -0.480231 -0.537 230 231 223
-0.14678 -0.480231 -0.537 230 231 223
-0.145757 -0.480231 -0.537 230 231 223
-0.0431229 -0.346089 -0.387 188 142 106
-0.0370333 -0.3443 -0.385 184 138 102
-0.0355667 -0.3443 -0.385 183 137 101
-0.00641143 -0.354137 -0.396 154 106 83
-0.00565714 -0.354137 -0.396 153 107 83
-0.00415905 -0.355031 -0.397 153 108 85
0.000380952 -0.357714 -0.4 150 105 82
0.00268 -0.359503 -0.402 145 100 77
0.00344571 -0.359503 -0.402 145 100 79
0.0151914 -0.365763 -0.409 130 93 75
0.0192267 -0.368446 -0.412 119 87 74
0.0348905 -0.385437 -0.431 88 69 63
0.0416743 -0.395274 -0.442 88 69 65
0.0469219 -0.404217 -0.452 86 68 64
0.0586029 -0.426574 -0.477 83 68 65
0.227857 -0.491857 -0.55 169 169 171
0.242524 -0.491857 -0.55 148 147 153
0.265392 -0.495434 -0.554 101 100 108
0.274329 -0.496329 -0.555 80 79 85
0.275386 -0.496329 -0.555 79 78 84
0.415766 -0.549091 -0.614 10 9 17
0.458739 -0.561611 -0.628 11 11 19
0.51254 -0.467711 -0.523 102 89 81
0.499175 -0.441777 -0.494 142 104 85
0.497849 -0.437306 -0.489 145 109 85
0.497033 -0.430151 -0.481 151 112 83
0.496914 -0.429257 -0.48 153 114 83
0.502676 -0.420314 -0.47 161 114 84
0.51149 -0.412266 -0.461 174 128 94
0.513247 -0.412266 -0.461 173 127 93
0.522167 -0.4069 -0.455 164 118 82
0.5265 -0.4069 -0.455 167 121 85
0.533433 -0.4069 -0.455 158 112 78
0.546866 -0.410477 -0.459 141 100 68
0.548933 -0.411371 -0.46 139 98 66
-0.318027 -0.480358 -0.536 224 225 217
-0.301231 -0.481254 -0.537 224 226 215
-0.277198 -0.48215 -0.538 225 226 218
-0.265431 -0.481254 -0.537 225 226 220
-0.255749 -0.480358 -0.536 227 228 222
-0.221036 -0.480358 -0.536 226 227 219
-0.204701 -0.480358 -0.536 228 229 221
-0.203037 -0.481254 -0.537 229 230 222
-0.197923 -0.481254 -0.537 228 229 221
-0.191786 -0.481254 -0.537 228 229 223
-0.18974 -0.481254 -0.537 227 228 222
-0.188717 -0.481254 -0.537 228 229 223
-0.0453343 -0.346826 -0.387 186 140 104
-0.0269057 -0.346826 -0.387 179 128 99
-0.00415905 -0.355788 -0.397 153 107 84
0.0042219 -0.361165 -0.403 145 100 79
0.04074 -0.39522 -0.441 87 68 64
0.0469219 -0.405078 -0.452 85 67 63
0.218429 -0.492905 -0.55 168 168 170
0.225531 -0.494697 -0.552 160 159 164
0.238149 -0.494697 -0.552 134 133 139
0.2392 -0.494697 -0.552 131 130 136
0.243406 -0.494697 -0.552 121 120 128
0.25273 -0.49649 -0.554 102 101 109
0.261055 -0.498282 -0.556 84 83 91
0.274749 -0.500074 -0.558 64 63 71
0.280565 -0.50097 -0.559 64 63 71
0.285333 -0.501867 -0.56 62 61 69
0.321483 -0.518894 -0.579 59 58 66
0.416286 -0.555638 -0.62 10 9 17
0.445581 -0.562808 -0.628 8 8 16
0.499367 -0.445407 -0.497 133 100 81
0.499029 -0.440926 -0.492 141 103 80
0.498071 -0.42569 -0.475 161 117 88
0.512769 -0.411351 -0.459 168 122 88
0.515757 -0.409559 -0.457 175 129 93
0.516967 -0.407767 -0.455 169 123 87
0.517833 -0.407767 -0.455 170 124 88
0.524767 -0.407767 -0.455 164 118 82
0.525633 -0.407767 -0.455 165 119 83
0.5343 -0.407767 -0.455 159 115 80
-0.317433 -0.480481 -0.535 224 225 217
-0.311901 -0.481379 -0.536 220 221 213
-0.296587 -0.481379 -0.536 225 226 218
-0.295566 -0.481379 -0.536 225 226 218
-0.287934 -0.482277 -0.537 226 227 221
-0.263916 -0.481379 -0.536 225 226 220
-0.260853 -0.481379 -0.536 225 226 220
-0.253707 -0.481379 -0.536 227 228 222
-0.252686 -0.481379 -0.536 225 226 218
-0.210827 -0.481379 -0.536 227 228 220
-0.201638 -0.481379 -0.536 229 230 222
-0.166926 -0.481379 -0.536 228 229 221
-0.153653 -0.481379 -0.536 229 230 222
-0.14957 -0.481379 -0.536 229 230 224
-0.141402 -0.481379 -0.536 229 230 224
-0.0507552 -0.349359 -0.389 184 140 105
-0.0392333 -0.345767 -0.385 182 133 100
-0.0108819 -0.35385 -0.394 159 112 86
-0.00938095 -0.35385 -0.394 156 108 85
0.000380952 -0.359238 -0.4 149 104 81
0.0233752 -0.373608 -0.416 110 80 72
0.0259381 -0.376302 -0.419 105 78 71
0.0322019 -0.384385 -0.428 90 69 64
0.0387057 -0.392468 -0.437 88 67 62
0.0538162 -0.41941 -0.467 70 60 58
0.190495 -0.492156 -0.548 174 172 177
0.216333 -0.493952 -0.55 153 152 157
0.236901 -0.497545 -0.554 109 108 114
0.243232 -0.497545 -0.554 93 92 100
0.246398 -0.497545 -0.554 87 86 94
0.269917 -0.502035 -0.559 64 61 70
0.279431 -0.503831 -0.561 58 57 65
0.281569 -0.503831 -0.561 59 58 66
0.299673 -0.511016 -0.569 56 56 64
0.309405 -0.516405 -0.575 57 57 67
0.481087 -0.572087 -0.637 9 9 19
0.507636 -0.461621 -0.514 114 92 81
0.504637 -0.45713 -0.509 120 91 77
0.496117 -0.431984 -0.481 149 109 84
0.508632 -0.416716 -0.464 168 122 89
0.508418 -0.415818 -0.463 170 124 91
0.519567 -0.408633 -0.455 166 120 84
0.531396 -0.407735 -0.454 161 115 81
0.532261 -0.407735 -0.454 161 117 82
0.548291 -0.411328 -0.458 141 99 74
0.550363 -0.412226 -0.459 140 98 73
-0.32151 -0.4815 -0.535 223 224 216
-0.223078 -0.4824 -0.536 226 227 219
-0.217973 -0.4824 -0.536 226 227 219
-0.207376 -0.4815 -0.535 227 228 222
-0.191429 -0.4824 -0.536 227 228 220
-0.187345 -0.4824 -0.536 229 230 222
-0.174767 -0.4815 -0.535 229 230 224
-0.147252 -0.4815 -0.535 230 231 225
-0.095281 -0.4815 -0.535 228 228 218
-0.0932429 -0.4815 -0.535 225 228 217
-0.056661 -0.3546 -0.394 183 140 105
-0.0392333 -0.3465 -0.385 181 135 101
-0.0276429 -0.3483 -0.387 177 128 98
-0.0247581 -0.3492 -0.388 176 127 97
-0.0131 -0.3537 -0.393 160 114 88
-0.0108543 -0.3537 -0.393 157 111 85
-0.00716571 -0.3564 -0.396 153 107 83
-0.00189524 -0.3582 -0.398 150 106 81
0.00887143 -0.3645 -0.405 132 94 75
0.00966667 -0.3654 -0.406 130 93 75
0.0120162 -0.3663 -0.407 130 93 75
0.0136333 -0.3681 -0.409 130 93 77
0.0192733 -0.3717 -0.413 116 83 74
0.0285352 -0.3798 -0.422 102 77 70
0.0426124 -0.3987 -0.443 86 67 63
0.0478886 -0.4077 -0.453 84 66 64
0.191889 -0.4941 -0.549 156 155 160
0.218171 -0.4968 -0.552 125 125 133
0.237329 -0.4995 -0.555 82 79 88
0.250915 -0.5013 -0.557 71 68 77
0.259733 -0.504 -0.56 67 66 72
0.262334 -0.5049 -0.561 69 68 74
0.279271 -0.5085 -0.565 65 64 72
0.284078 -0.5094 -0.566 65 64 72
0.294201 -0.5139 -0.571 61 61 69
0.30012 -0.5166 -0.574 64 64 72
0.31099 -0.522 -0.58 60 60 70
0.312633 -0.5229 -0.581 60 60 70
0.365451 -0.5508 -0.612 10 11 16
0.4146 -0.567 -0.63 10 11 16
0.420066 -0.5679 -0.631 8 11 16
0.427426 -0.5697 -0.633 10 10 18
0.43897 -0.5706 -0.634 10 10 18
0.446919 -0.5715 -0.635 8 9 14
0.465793 -0.5769 -0.641 11 11 19
0.481245 -0.5823 -0.647 11 11 21
0.504613 -0.4572 -0.508 119 91 79
0.500426 -0.4491 -0.499 127 99 85
0.496117 -0.4329 -0.481 147 110 84
0.517833 -0.4095 -0.455 169 123 87
0.524478 -0.4086 -0.454 166 120 84
0.538633 -0.4095 -0.455 154 109 78
0.549164 -0.4122 -0.458 143 99 74
-0.32049 -0.482519 -0.535 223 224 216
-0.317857 -0.481617 -0.534 223 224 216
-0.287398 -0.483421 -0.536 226 227 221
-0.282293 -0.483421 -0.536 225 226 218
-0.25731 -0.482519 -0.535 226 227 221
-0.229204 -0.483421 -0.536 227 228 220
-0.161519 -0.482519 -0.535 230 231 223
-0.151329 -0.482519 -0.535 230 231 223
-0.148271 -0.482519 -0.535 230 231 223
-0.146233 -0.482519 -0.535 229 230 224
-0.0859486 -0.481617 -0.534 175 138 109
-0.06148 -0.366173 -0.406 175 132 98
-0.0354743 -0.346331 -0.384 185 139 105
0.011241 -0.367075 -0.407 129 94 75
0.0128229 -0.367977 -0.408 127 91 75
0.0303571 -0.38331 -0.425 97 73 69
0.0377867 -0.39323 -0.436 90 71 67
0.0457552 -0.404955 -0.449 84 66 64
0.0468181 -0.406759 -0.451 84 66 66
0.190143 -0.496048 -0.55 132 131 137
0.19119 -0.496048 -0.55 129 128 134
0.20938 -0.49695 -0.551 115 114 122
0.21043 -0.49695 -0.551 114 113 121
0.227166 -0.501459 -0.556 81 80 88
0.228225 -0.501459 -0.556 78 78 88
0.231818 -0.502361 -0.557 72 70 81
0.244363 -0.504165 -0.559 68 65 74
0.266829 -0.510478 -0.566 66 65 73
0.275345 -0.512282 -0.568 65 64 72
0.284412 -0.514988 -0.571 63 62 70
0.30001 -0.521301 -0.578 61 60 68
0.39289 -0.564592 -0.626 9 9 17
0.422729 -0.57271 -0.635 8 11 16
0.427029 -0.573611 -0.636 11 12 17
0.457247 -0.578121 -0.641 10 11 16
0.488827 -0.580827 -0.644 13 13 23
0.49776 -0.44013 -0.488 145 109 87
0.5161 -0.410367 -0.455 168 122 86
0.525343 -0.409465 -0.454 167 121 87
0.545029 -0.411269 -0.456 147 101 77
0.552317 -0.41217 -0.457 128 93 65
-0.280748 -0.483538 -0.535 225 226 218
-0.279729 -0.483538 -0.535 225 226 218
-0.273105 -0.484442 -0.536 226 227 219
-0.271576 -0.483538 -0.535 226 227 219
-0.211452 -0.483538 -0.535 228 229 221
-0.198205 -0.483538 -0.535 227 228 222
-0.182919 -0.483538 -0.535 229 230 222
-0.176805 -0.483538 -0.535 228 229 221
-0.146977 -0.482634 -0.534 230 231 225
-0.0951029 -0.482634 -0.534 226 229 222
-0.0879829 -0.482634 -0.534 182 145 116
-0.0825867 -0.480827 -0.532 180 137 103
-0.06256 -0.368754 -0.408 178 133 100
-0.0347429 -0.347063 -0.384 185 136 104
-0.02838 -0.349774 -0.387 177 128 96
-0.00641143 -0.357909 -0.396 150 105 84
0.00114571 -0.362428 -0.401 144 102 80
0.00575714 -0.364235 -0.403 138 97 79
0.0120457 -0.368754 -0.408 129 92 76
0.0322019 -0.38683 -0.428 92 71 68
0.0387943 -0.395869 -0.438 89 70 66
0.0598857 -0.433829 -0.48 206 204 209
0.151597 -0.494384 -0.547 168 169 173
0.163058 -0.494384 -0.547 158 159 164
0.179667 -0.497095 -0.55 126 125 131
0.184191 -0.497999 -0.551 118 117 123
0.185241 -0.497999 -0.551 115 114 120
0.18629 -0.497999 -0.551 112 111 117
0.191886 -0.498903 -0.552 98 97 105
0.206299 -0.50071 -0.554 72 71 79
0.22227 -0.503422 -0.557 70 69 77
0.22333 -0.503422 -0.557 70 69 77
0.236267 -0.506133 -0.56 65 65 77
0.250401 -0.508845 -0.563 67 65 76
0.375004 -0.565785 -0.626 8 9 14
0.387584 -0.568496 -0.629 8 9 14
0.424726 -0.57663 -0.638 8 11 18
0.427826 -0.577534 -0.639 8 11 18
0.43459 -0.578438 -0.64 10 11 16
0.454805 -0.579342 -0.641 10 11 16
0.468196 -0.583861 -0.646 12 12 20
0.499104 -0.445578 -0.493 136 101 81
0.49776 -0.441059 -0.488 145 109 87
0.496534 -0.431117 -0.477 151 111 86
0.497023 -0.428406 -0.474 154 114 89
0.498677 -0.427502 -0.473 159 117 92
0.501951 -0.425694 -0.471 161 116 87
0.5025 -0.423887 -0.469 167 122 93
0.50996 -0.41756 -0.462 170 124 91
0.514629 -0.412137 -0.456 167 121 87
0.525049 -0.409426 -0.453 167 121 87
0.536266 -0.409426 -0.453 154 109 76
0.551447 -0.413041 -0.457 131 96 68
-0.323353 -0.482746 -0.533 223 224 216
-0.322338 -0.482746 -0.533 223 224 216
-0.319891 -0.483651 -0.534 222 223 215
-0.290938 -0.484557 -0.535 224 225 217
-0.279729 -0.484557 -0.535 225 226 218
-0.258863 -0.483651 -0.534 225 226 220
-0.251743 -0.483651 -0.534 226 227 219
-0.242589 -0.483651 -0.534 225 226 218
-0.233871 -0.484557 -0.535 227 228 222
-0.218177 -0.483651 -0.534 227 228 220
-0.215126 -0.483651 -0.534 227 228 220
-0.208006 -0.483651 -0.534 227 228 220
-0.206989 -0.483651 -0.534 227 228 220
-0.166303 -0.483651 -0.534 228 229 221
-0.142909 -0.483651 -0.534 228 229 223
-0.0562295 -0.354134 -0.391 180 137 103
-0.053719 -0.352323 -0.389 183 139 104
-0.0528419 -0.351417 -0.388 182 138 103
-0.0475457 -0.350511 -0.387 187 141 107
-0.0369371 -0.347794 -0.384 186 140 107
-0.0326333 -0.3487 -0.385 178 132 99
-0.022541 -0.351417 -0.388 169 122 94
-0.0160124 -0.354134 -0.391 159 113 87
-0.01456 -0.35504 -0.392 162 112 87
-0.0131 -0.355946 -0.393 160 112 89
-0.0079 -0.357757 -0.395 148 102 79
-0.00565714 -0.358663 -0.396 147 104 85
0.00887143 -0.366814 -0.405 133 94 77
0.01044 -0.36772 -0.406 131 92 77
0.0548229 -0.423874 -0.468 70 52 50
0.141178 -0.495426 -0.547 168 167 172
0.173696 -0.499049 -0.551 107 106 112
0.174746 -0.499049 -0.551 105 104 110
0.18486 -0.50086 -0.553 86 85 93
0.186967 -0.50086 -0.553 82 81 89
0.216965 -0.504483 -0.557 68 67 75
0.218026 -0.504483 -0.557 67 66 74
0.220543 -0.505389 -0.558 69 68 76
0.240103 -0.510823 -0.564 62 64 77
0.282394 -0.523503 -0.578 38 38 48
0.28779 -0.525314 -0.58 25 25 35
0.293217 -0.527126 -0.582 18 18 28
0.299186 -0.529843 -0.585 11 11 21
0.361271 -0.567883 -0.627 10 10 18
0.377991 -0.573317 -0.633 7 8 13
0.387652 -0.575129 -0.635 8 8 16
0.399166 -0.576034 -0.636 9 9 17
0.446426 -0.582374 -0.643 10 10 18
0.499307 -0.449234 -0.496 128 99 83
0.497023 -0.429309 -0.474 154 114 89
0.497926 -0.429309 -0.474 155 115 89
0.5025 -0.42478 -0.469 164 118 92
0.507957 -0.421157 -0.465 170 125 94
0.508632 -0.420251 -0.464 168 123 92
0.50908 -0.41844 -0.462 168 121 91
0.514016 -0.413911 -0.457 170 124 90
0.51929 -0.411194 -0.454 166 120 86
0.523323 -0.410289 -0.453 169 123 87
-0.319292 -0.483761 -0.533 221 222 214
-0.308703 -0.484669 -0.534 224 225 217
-0.285309 -0.484669 -0.534 224 225 217
-0.283274 -0.484669 -0.534 226 227 219
-0.254794 -0.484669 -0.534 225 226 220
-0.209023 -0.484669 -0.534 227 229 218
-0.206601 -0.483761 -0.533 227 229 218
-0.189697 -0.484669 -0.534 229 230 222
-0.180543 -0.484669 -0.534 228 229 221
-0.175457 -0.484669 -0.534 229 231 220
-0.163251 -0.484669 -0.534 228 230 219
-0.0868029 -0.483761 -0.533 180 139 109
-0.0451 -0.349433 -0.385 185 139 105
-0.0427886 -0.348526 -0.384 183 137 103
-0.0203762 -0.353064 -0.389 170 123 95
-0.0196857 -0.353971 -0.39 169 122 94
-0.0152676 -0.354879 -0.391 159 115 88
-0.0131 -0.356694 -0.393 158 112 89
-0.00865238 -0.35851 -0.395 149 104 85
-0.00491524 -0.360325 -0.397 147 104 85
-0.00415905 -0.360325 -0.397 146 103 86
0.000380952 -0.363048 -0.4 143 102 82
0.0201086 -0.375754 -0.414 110 81 73
0.0322019 -0.388461 -0.428 93 72 67
0.11492 -0.49556 -0.546 175 174 179
0.1378 -0.49556 -0.546 155 154 160
0.162905 -0.49919 -0.55 101 99 110
0.171909 -0.501006 -0.552 79 78 86
0.174327 -0.501913 -0.553 76 75 83
0.192217 -0.504636 -0.556 63 61 72
0.197868 -0.505544 -0.557 62 62 72
0.205663 -0.506451 -0.558 65 65 73
0.23922 -0.51462 -0.567 62 64 77
0.242888 -0.515528 -0.568 62 64 77
0.27406 -0.525511 -0.579 26 24 35
0.278952 -0.526419 -0.58 19 18 26
0.307276 -0.53731 -0.592 11 11 19
0.344373 -0.559093 -0.616 14 14 24
0.363576 -0.572708 -0.631 9 9 19
0.365934 -0.574523 -0.633 9 9 17
0.378547 -0.579061 -0.638 6 9 14
0.461329 -0.585414 -0.645 9 9 17
0.5145 -0.4765 -0.525 77 75 76
0.502595 -0.458348 -0.505 118 90 79
0.501522 -0.455625 -0.502 121 92 84
0.497933 -0.444733 -0.49 137 102 82
0.49776 -0.442918 -0.488 142 105 86
0.501781 -0.426581 -0.47 162 118 93
0.50232 -0.424766 -0.468 165 120 91
0.508418 -0.420228 -0.463 169 122 92
0.5093 -0.420228 -0.463 169 122 92
0.511257 -0.417505 -0.46 174 128 95
0.512524 -0.41569 -0.458 167 121 88
0.515233 -0.412967 -0.455 169 123 89
0.520734 -0.411151 -0.453 164 118 84
0.548503 -0.413874 -0.456 138 99 68
-0.3026 -0.485686 -0.534 225 226 218
-0.289377 -0.485686 -0.534 225 226 218
-0.28836 -0.485686 -0.534 225 226 218
-0.261424 -0.484776 -0.533 226 227 219
-0.251271 -0.484776 -0.533 225 226 220
-0.24721 -0.484776 -0.533 226 227 219
-0.230383 -0.485686 -0.534 227 228 220
-0.209647 -0.484776 -0.533 227 229 218
-0.198479 -0.484776 -0.533 228 230 219
-0.197464 -0.484776 -0.533 227 229 218
-0.173098 -0.484776 -0.533 229 230 222
-0.170052 -0.484776 -0.533 228 229 221
-0.152793 -0.484776 -0.533 229 231 220
-0.0473 -0.350167 -0.385 186 142 105
-0.0413257 -0.349257 -0.384 182 136 102
-0.0312476 -0.351076 -0.386 177 130 100
-0.0269057 -0.351986 -0.387 173 123 96
-0.0218019 -0.352895 -0.388 172 122 95
-0.0123514 -0.357443 -0.393 156 110 87
-0.00340286 -0.361081 -0.397 146 103 84
-0.00189524 -0.36199 -0.398 147 102 81
0.00498952 -0.366538 -0.403 137 98 81
0.0184867 -0.375633 -0.413 115 82 73
0.0388829 -0.399281 -0.439 87 67 66
0.0527 -0.422929 -0.465 79 63 64
0.0601352 -0.43839 -0.482 207 205 208
0.11596 -0.4966 -0.546 161 160 165
0.122424 -0.49751 -0.547 144 141 148
0.141436 -0.498419 -0.548 123 122 130
0.170113 -0.502967 -0.553 66 64 75
0.180568 -0.505695 -0.556 63 61 74
0.181627 -0.505695 -0.556 63 61 74
0.209278 -0.511152 -0.562 62 62 72
0.21318 -0.510243 -0.561 61 61 71
0.222914 -0.512971 -0.564 61 61 71
0.255293 -0.522067 -0.574 34 34 44
0.259474 -0.523886 -0.576 25 25 35
0.273263 -0.529343 -0.582 11 11 21
0.275953 -0.530252 -0.583 13 13 23
0.402931 -0.583914 -0.642 6 9 16
0.4945 -0.586643 -0.645 10 13 22
0.511581 -0.472952 -0.52 94 80 77
0.497033 -0.437481 -0.481 144 108 86
0.497307 -0.432933 -0.476 151 111 86
0.506387 -0.423838 -0.466 169 124 95
0.5082 -0.4202 -0.462 166 121 92
0.51756 -0.412924 -0.454 165 119 85
0.528194 -0.411105 -0.452 165 121 86
0.530777 -0.411105 -0.452 160 115 82
0.551109 -0.414743 -0.456 133 97 71
-0.308125 -0.485791 -0.533 224 225 217
-0.237058 -0.485791 -0.533 227 228 220
-0.235028 -0.485791 -0.533 227 228 220
-0.232997 -0.485791 -0.533 227 228 220
-0.227921 -0.485791 -0.533 226 227 219
-0.19912 -0.48488 -0.532 227 228 220
-0.192388 -0.485791 -0.533 228 230 219
-0.163961 -0.485791 -0.533 229 230 222
-0.0620952 -0.364571 -0.4 180 137 105
-0.0465667 -0.3509 -0.385 185 141 104
-0.0354743 -0.349989 -0.384 184 138 104
-0.0319 -0.3509 -0.385 179 130 100
-0.0153067 -0.35728 -0.392 164 117 91
-0.0101314 -0.359103 -0.394 151 106 85
-0.00415905 -0.361837 -0.397 148 103 84
-0.000380952 -0.364571 -0.4 145 100 81
0.00575714 -0.367306 -0.403 136 97 80
0.00966667 -0.37004 -0.406 129 96 81
0.0399 -0.40194 -0.441 88 68 69
0.0603848 -0.441131 -0.484 204 202 203
0.11284 -0.49764 -0.546 141 140 146
0.15088 -0.503109 -0.552 76 74 85
0.152983 -0.503109 -0.552 71 69 80
0.232207 -0.520426 -0.571 52 54 66
0.28168 -0.53592 -0.588 12 12 24
0.284403 -0.536831 -0.589 14 14 26
0.309769 -0.545946 -0.599 7 10 17
0.344248 -0.565086 -0.62 10 13 22
0.352349 -0.570554 -0.626 8 11 20
0.376557 -0.587871 -0.645 4 7 14
0.38019 -0.589694 -0.647 4 7 14
0.448509 -0.588783 -0.646 9 9 19
0.4522 -0.588783 -0.646 8 8 18
0.457122 -0.588783 -0.646 8 8 16
0.513536 -0.476677 -0.523 85 75 73
0.505607 -0.463917 -0.509 114 88 75
0.5082 -0.42108 -0.462 166 121 90
0.511651 -0.417434 -0.458 166 121 88
0.519009 -0.412877 -0.453 166 120 86
0.522168 -0.411966 -0.452 163 117 83
0.525611 -0.411966 -0.452 165 119 85
0.531321 -0.411054 -0.451 158 114 79
0.53218 -0.411054 -0.451 159 114 81
-0.321733 -0.485893 -0.532 221 222 214
-0.30914 -0.486807 -0.533 223 224 216
-0.286805 -0.486807 -0.533 224 225 217
-0.277668 -0.486807 -0.533 226 228 217
-0.245733 -0.485893 -0.532 226 228 217
-0.243707 -0.485893 -0.532 227 229 218
-0.231982 -0.486807 -0.533 227 228 220
