ply
format ascii 1.0
comment Created by Open3D
element vertex 1288
property double x
property double y
property double z
property uchar red
property uchar green
property uchar blue
end_header
0.390999 -0.450818 -0.571 215 216 221
0.405138 -0.450818 -0.571 134 153 185
0.431241 -0.450818 -0.571 215 219 231
0.454876 -0.451608 -0.572 180 185 204
0.466586 -0.452397 -0.573 196 199 206
0.482957 -0.452397 -0.573 37 75 140
0.49083 -0.451608 -0.572 46 85 140
0.497368 -0.451608 -0.572 178 174 171
0.518857 -0.378971 -0.48 176 129 101
0.5216 -0.378971 -0.48 171 126 95
0.526171 -0.378971 -0.48 174 127 97
0.00822 -0.325277 -0.411 174 127 101
0.0209981 -0.329234 -0.416 161 113 91
0.0226371 -0.330026 -0.417 160 112 90
0.0242838 -0.330817 -0.418 156 110 87
0.0266724 -0.330817 -0.418 151 104 84
0.0325543 -0.333983 -0.422 142 97 78
0.0368333 -0.336357 -0.425 132 93 78
0.04588 -0.34348 -0.434 109 80 72
0.0729886 -0.381469 -0.482 87 68 70
0.0817543 -0.397297 -0.502 82 80 91
0.193052 -0.451906 -0.571 100 112 138
0.199928 -0.452697 -0.572 175 181 203
0.230031 -0.451906 -0.571 122 150 190
0.327917 -0.451906 -0.571 207 214 222
0.336618 -0.451906 -0.571 162 169 185
0.339881 -0.451906 -0.571 92 99 127
0.4446 -0.451114 -0.57 177 186 201
0.448643 -0.451906 -0.571 148 160 176
0.473398 -0.452697 -0.572 66 98 159
0.485383 -0.452697 -0.572 37 67 137
0.502815 -0.452697 -0.572 183 189 185
0.508263 -0.452697 -0.572 171 172 177
0.511725 -0.451906 -0.571 164 167 174
0.519514 -0.451114 -0.57 176 177 181
0.521722 -0.430537 -0.544 123 98 91
0.512289 -0.420249 -0.531 139 109 98
0.500043 -0.390174 -0.493 174 128 104
0.500982 -0.390174 -0.493 177 131 107
0.516429 -0.381469 -0.482 179 132 102
0.525988 -0.379094 -0.479 173 128 97
0.547954 -0.386217 -0.488 149 112 86
-0.0304333 -0.329233 -0.415 188 145 111
-0.0277914 -0.32606 -0.411 184 148 114
-0.0181733 -0.322093 -0.406 188 150 113
-0.0135 -0.3213 -0.405 190 150 114
0.00116571 -0.32368 -0.408 181 136 105
0.00978571 -0.32606 -0.411 170 123 97
0.0489171 -0.348273 -0.439 99 76 68
0.0596276 -0.362553 -0.457 87 68 64
0.0866457 -0.407773 -0.514 189 196 222
0.196315 -0.452993 -0.571 177 189 211
0.19849 -0.452993 -0.571 195 199 224
0.23547 -0.452993 -0.571 204 205 225
0.332771 -0.4522 -0.57 207 210 217
0.343629 -0.4522 -0.57 193 207 242
0.371857 -0.4522 -0.57 207 212 218
0.372943 -0.4522 -0.57 206 211 217
0.387057 -0.4522 -0.57 191 201 213
0.415286 -0.4522 -0.57 74 107 161
0.442429 -0.4522 -0.57 169 176 186
0.448643 -0.452993 -0.571 151 158 176
0.48671 -0.452993 -0.571 85 124 181
0.49106 -0.452993 -0.571 65 93 133
0.511725 -0.452993 -0.571 174 177 184
0.512812 -0.452993 -0.571 173 176 181
0.515171 -0.4522 -0.57 177 178 182
0.524943 -0.4522 -0.57 166 164 165
0.526029 -0.4522 -0.57 172 170 171
0.513253 -0.422053 -0.532 137 109 97
0.516273 -0.381593 -0.481 179 132 104
0.528725 -0.380007 -0.479 163 120 88
0.532571 -0.3808 -0.48 160 120 94
-0.0312238 -0.330024 -0.415 186 145 113
-0.0285743 -0.326843 -0.411 183 147 113
-0.01972 -0.322867 -0.406 190 152 115
-0.0111857 -0.322071 -0.405 191 151 116
-0.00812 -0.322867 -0.406 191 148 114
-0.00116571 -0.324457 -0.408 184 139 106
0.0105686 -0.326843 -0.411 169 122 96
0.0325543 -0.33559 -0.422 142 97 78
0.0449495 -0.344338 -0.433 106 81 74
0.0478619 -0.347519 -0.437 100 77 71
0.0666952 -0.373762 -0.47 89 71 71
0.0866457 -0.408752 -0.514 180 190 215
0.191629 -0.453286 -0.57 153 169 185
0.192714 -0.453286 -0.57 105 121 137
0.202841 -0.454081 -0.571 189 197 220
0.207914 -0.453286 -0.57 186 191 220
0.237229 -0.453286 -0.57 206 208 223
0.249171 -0.453286 -0.57 199 207 218
0.2546 -0.453286 -0.57 152 156 157
0.257857 -0.453286 -0.57 171 178 194
0.365343 -0.453286 -0.57 183 194 216
0.3762 -0.453286 -0.57 204 208 220
0.4142 -0.453286 -0.57 72 103 160
0.466045 -0.454081 -0.571 202 202 210
0.469308 -0.454081 -0.571 105 116 144
0.489972 -0.454081 -0.571 121 151 187
0.515171 -0.453286 -0.57 176 177 181
0.516257 -0.453286 -0.57 179 180 184
0.515183 -0.424657 -0.534 135 108 97
0.497619 -0.397619 -0.5 168 124 99
0.499175 -0.392848 -0.494 174 128 102
0.513674 -0.383305 -0.482 177 130 102
0.51551 -0.383305 -0.482 178 131 103
0.531462 -0.380919 -0.479 161 120 92
0.533486 -0.381714 -0.48 159 118 90
-0.0341619 -0.336394 -0.422 188 150 114
-0.0189 -0.322843 -0.405 188 150 114
-0.0150429 -0.322843 -0.405 188 150 114
-0.0135 -0.322843 -0.405 188 148 113
-0.0119571 -0.322843 -0.405 190 150 115
0.00349714 -0.325234 -0.408 177 132 101
0.0193667 -0.330814 -0.415 161 113 90
0.0226371 -0.332409 -0.417 160 112 90
0.0377314 -0.339583 -0.426 125 89 75
0.0583714 -0.361903 -0.454 89 69 68
0.0607629 -0.365889 -0.459 87 69 67
0.0619057 -0.367483 -0.461 87 69 67
0.205743 -0.454371 -0.57 164 173 188
0.236143 -0.454371 -0.57 198 202 213
0.319182 -0.453574 -0.569 163 166 175
0.33002 -0.453574 -0.569 211 210 226
0.451114 -0.454371 -0.57 206 208 220
0.458431 -0.455169 -0.571 207 208 213
0.464957 -0.455169 -0.571 208 206 211
0.471743 -0.454371 -0.57 137 160 194
0.488029 -0.454371 -0.57 140 162 185
0.495629 -0.454371 -0.57 161 173 185
0.498886 -0.454371 -0.57 190 187 196
0.502741 -0.409731 -0.514 157 116 96
0.497473 -0.39618 -0.497 171 125 101
0.499966 -0.392194 -0.492 178 131 105
0.532374 -0.381831 -0.479 156 115 85
-0.0150429 -0.323614 -0.405 189 150 117
-0.0119571 -0.323614 -0.405 189 148 116
-0.0111857 -0.323614 -0.405 188 149 116
0.0105686 -0.328409 -0.411 170 123 95
0.0161657 -0.330806 -0.414 163 115 93
0.0386333 -0.341193 -0.427 121 85 73
0.0490286 -0.351581 -0.44 98 78 71
0.0509352 -0.353179 -0.442 96 76 69
0.0631924 -0.370758 -0.464 87 69 67
0.0695057 -0.381146 -0.477 84 70 70
0.0707095 -0.382744 -0.479 85 70 67
0.189125 -0.454658 -0.569 185 189 198
0.204298 -0.454658 -0.569 201 207 223
0.466314 -0.455457 -0.57 137 149 165
0.489114 -0.455457 -0.57 176 192 207
0.494759 -0.454658 -0.569 130 147 165
0.51898 -0.430687 -0.539 125 104 99
0.50469 -0.413108 -0.517 155 114 96
0.500743 -0.405916 -0.508 167 122 99
0.498689 -0.401921 -0.503 172 128 103
0.4983 -0.395529 -0.495 174 128 102
0.512756 -0.385141 -0.482 176 129 101
-0.0337571 -0.333997 -0.417 186 147 116
-0.0309981 -0.329992 -0.412 187 148 115
-0.03014 -0.329191 -0.411 187 148 117
-0.0196714 -0.324386 -0.405 188 148 113
0.00584286 -0.32759 -0.409 174 129 100
0.01534 -0.330793 -0.413 165 117 94
0.0169543 -0.331594 -0.414 163 115 95
0.0334371 -0.338803 -0.423 135 93 71
0.0377314 -0.341206 -0.426 121 87 75
0.0469219 -0.349215 -0.436 103 78 73
0.112174 -0.455742 -0.569 216 218 233
0.185873 -0.455742 -0.569 205 209 221
0.23898 -0.455742 -0.569 79 98 141
0.44304 -0.454941 -0.568 211 211 219
0.469831 -0.455742 -0.569 187 202 225
0.491508 -0.455742 -0.569 157 173 188
0.493675 -0.455742 -0.569 100 118 142
0.513364 -0.454941 -0.568 176 179 186
0.514446 -0.454941 -0.568 176 179 186
0.517691 -0.454941 -0.568 176 177 182
0.49968 -0.40368 -0.504 171 127 100
0.499966 -0.394069 -0.492 176 130 104
0.515357 -0.385258 -0.481 175 130 99
0.516114 -0.384457 -0.48 176 126 99
0.527426 -0.382054 -0.477 171 127 98
-0.0275886 -0.327566 -0.408 186 147 114
-0.0134667 -0.324354 -0.404 190 150 115
-0.00271333 -0.326763 -0.407 181 137 108
0.00116286 -0.326763 -0.407 177 131 105
0.00272 -0.327566 -0.408 177 131 105
0.0258762 -0.335594 -0.418 151 103 81
0.0377314 -0.342017 -0.426 121 87 75
0.0403543 -0.343623 -0.428 115 82 73
0.0575067 -0.364497 -0.454 90 71 67
0.11109 -0.456826 -0.569 220 219 233
0.234232 -0.456023 -0.568 198 203 223
0.42066 -0.45522 -0.567 164 189 219
0.44118 -0.45522 -0.567 215 215 223
0.44845 -0.456023 -0.568 216 217 222
0.474415 -0.456023 -0.568 101 140 183
0.486316 -0.456023 -0.568 167 176 193
0.493675 -0.456826 -0.569 96 110 136
0.504709 -0.456023 -0.568 184 187 196
0.499647 -0.403837 -0.503 171 127 100
0.4983 -0.397414 -0.495 172 128 99
0.499885 -0.394203 -0.491 175 129 103
0.500733 -0.3934 -0.49 181 135 109
0.505903 -0.390189 -0.486 183 136 108
0.516114 -0.385371 -0.48 176 129 101
0.518516 -0.383766 -0.478 174 129 98
0.521974 -0.382963 -0.477 173 128 97
-0.027521 -0.327538 -0.407 185 149 115
0.0066381 -0.329952 -0.41 173 126 100
0.0308 -0.338 -0.42 144 98 82
0.0781 -0.399967 -0.497 87 75 77
0.08112 -0.4056 -0.504 124 118 130
0.199611 -0.457105 -0.568 207 209 222
0.203939 -0.457105 -0.568 202 203 221
0.43362 -0.4563 -0.567 213 217 229
0.43686 -0.4563 -0.567 215 212 221
0.48848 -0.457105 -0.568 184 191 199
0.496053 -0.457105 -0.568 93 106 141
0.508577 -0.420086 -0.522 146 114 103
0.50372 -0.413648 -0.514 153 114 97
0.50082 -0.395138 -0.491 176 132 103
0.508166 -0.387895 -0.482 177 131 98
0.509084 -0.387895 -0.482 175 128 98
0.520157 -0.383871 -0.477 177 131 98
0.522693 -0.383067 -0.476 175 129 96
0.993862 -0.45469 -0.565 185 188 177
0.994938 -0.45469 -0.565 184 187 176
1.02149 -0.45791 -0.569 150 151 143
1.02581 -0.455495 -0.566 152 155 148
-0.0374657 -0.34122 -0.423 184 148 116
-0.02992 -0.32912 -0.408 186 147 114
-0.0258429 -0.3267 -0.405 186 147 114
-0.0081 -0.3267 -0.405 185 141 112
-0.00732857 -0.3267 -0.405 183 139 110
-0.00425333 -0.327507 -0.406 183 139 110
0.000387619 -0.328313 -0.407 177 132 101
0.0113514 -0.33154 -0.411 171 125 99
0.0177429 -0.33396 -0.414 161 113 90
0.0325543 -0.340413 -0.422 137 94 78
0.0351314 -0.342027 -0.424 125 92 77
0.0432 -0.34848 -0.432 109 80 74
0.0511657 -0.35816 -0.444 91 73 71
0.0672629 -0.38236 -0.474 85 69 69
0.081281 -0.407367 -0.505 146 142 156
0.194202 -0.458187 -0.568 200 189 197
0.19494 -0.45738 -0.567 196 196 208
0.21114 -0.45738 -0.567 109 126 154
0.42423 -0.456573 -0.566 179 191 205
0.427465 -0.456573 -0.566 139 153 179
0.431777 -0.456573 -0.566 193 200 219
0.4455 -0.45738 -0.567 214 215 220
0.463596 -0.458187 -0.568 114 130 156
0.47574 -0.45738 -0.567 126 164 203
0.4833 -0.45738 -0.567 97 127 163
0.48438 -0.45738 -0.567 101 131 167
0.48762 -0.45738 -0.567 186 193 203
0.520181 -0.456573 -0.566 169 167 181
0.5047 -0.415433 -0.515 149 119 95
0.502727 -0.412207 -0.511 162 118 93
0.50171 -0.409787 -0.508 168 124 97
0.498525 -0.402527 -0.499 169 127 102
0.501574 -0.39446 -0.489 182 136 110
0.534694 -0.38478 -0.477 164 120 85
1.00602 -0.45738 -0.567 153 156 149
1.0233 -0.45738 -0.567 133 134 128
1.02727 -0.458187 -0.568 125 126 120
-0.0195743 -0.325854 -0.403 187 144 109
-0.0149686 -0.325854 -0.403 187 144 109
-0.0134333 -0.325854 -0.403 188 145 110
0.000387619 -0.329089 -0.407 176 131 100
0.0082 -0.331514 -0.41 170 123 95
0.0275343 -0.338791 -0.419 147 100 82
0.0377314 -0.344451 -0.426 122 88 76
0.07544 -0.397817 -0.492 86 74 74
0.0846876 -0.415606 -0.514 158 170 194
0.20034 -0.45846 -0.567 208 211 220
0.371404 -0.457651 -0.566 210 210 222
0.372482 -0.457651 -0.566 211 211 223
0.429621 -0.457651 -0.566 133 153 180
0.431777 -0.457651 -0.566 159 174 197
0.45306 -0.45846 -0.567 216 216 226
0.48137 -0.457651 -0.566 92 127 165
0.49518 -0.45846 -0.567 124 132 151
0.5049 -0.45846 -0.567 186 189 198
0.513712 -0.457651 -0.566 174 178 190
0.527929 -0.384071 -0.475 166 120 86
0.971691 -0.456034 -0.564 165 166 160
-0.0282267 -0.329053 -0.406 185 145 110
-0.0126657 -0.326622 -0.403 186 144 106
-0.00270667 -0.329053 -0.406 182 139 107
0.00194286 -0.330674 -0.408 177 132 103
0.0266724 -0.338779 -0.418 145 100 81
0.0316752 -0.34121 -0.421 133 96 80
0.0351314 -0.343642 -0.424 123 91 78
0.03692 -0.345263 -0.426 122 90 77
0.0386333 -0.346073 -0.427 116 86 76
0.0433 -0.350936 -0.433 108 80 76
0.180581 -0.45873 -0.566 206 210 222
0.198909 -0.45873 -0.566 205 207 219
0.429938 -0.457919 -0.565 107 127 154
0.451183 -0.45873 -0.566 217 216 222
0.4563 -0.45954 -0.567 212 210 221
0.4671 -0.45954 -0.567 167 166 171
0.479213 -0.45873 -0.566 153 182 216
0.493229 -0.45873 -0.566 190 195 214
0.494307 -0.45873 -0.566 170 175 194
0.502931 -0.45873 -0.566 163 169 183
0.51711 -0.457919 -0.565 132 138 162
0.500251 -0.401996 -0.496 172 133 104
0.501574 -0.396323 -0.489 183 138 109
0.502306 -0.394702 -0.487 177 132 101
0.504743 -0.39227 -0.484 177 130 100
0.50646 -0.39146 -0.483 176 131 100
0.517776 -0.388218 -0.479 175 130 97
0.527929 -0.384976 -0.475 167 121 88
0.96759 -0.45873 -0.566 148 152 137
0.975337 -0.46035 -0.568 137 142 136
-0.02418 -0.32739 -0.403 182 142 107
0.00506381 -0.332264 -0.409 172 125 97
0.00741905 -0.333076 -0.41 171 124 96
0.0082 -0.333076 -0.41 170 123 95
0.00898095 -0.333076 -0.41 168 121 93
0.0145181 -0.334701 -0.412 162 115 89
0.01534 -0.335513 -0.413 163 113 88
0.02502 -0.338763 -0.417 144 102 80
0.0471371 -0.355823 -0.438 100 75 71
0.0637371 -0.380194 -0.468 85 70 67
0.0702343 -0.391568 -0.482 86 72 69
0.0787286 -0.407003 -0.501 88 78 86
0.0885 -0.4265 -0.525 128 154 191
0.18705 -0.459808 -0.566 208 210 225
0.263129 -0.458995 -0.565 195 199 208
0.431014 -0.458995 -0.565 96 117 146
0.43209 -0.458995 -0.565 111 132 161
0.434243 -0.458995 -0.565 203 214 234
0.44931 -0.458995 -0.565 214 212 223
0.451462 -0.458995 -0.565 217 215 220
0.45846 -0.46062 -0.567 174 186 210
0.465198 -0.459808 -0.566 204 207 216
0.46951 -0.459808 -0.566 187 189 201
0.506348 -0.458995 -0.565 163 171 194
0.502714 -0.414314 -0.51 156 115 93
0.499524 -0.40619 -0.5 167 127 102
0.500116 -0.401316 -0.494 175 135 109
0.499966 -0.399691 -0.492 180 136 109
0.50633 -0.391568 -0.482 178 133 104
0.5088 -0.389943 -0.48 179 134 101
0.510629 -0.389943 -0.48 178 132 99
0.51139 -0.38913 -0.479 176 130 97
0.519249 -0.387506 -0.477 175 130 97
0.522693 -0.386693 -0.476 170 124 91
0.523206 -0.385069 -0.474 169 123 90
0.525914 -0.385069 -0.474 167 122 89
-0.0218229 -0.327343 -0.402 186 146 110
-0.0179943 -0.327343 -0.402 187 144 109
-0.014201 -0.328157 -0.403 182 139 105
0.05032 -0.361543 -0.444 90 72 70
0.06636 -0.385971 -0.474 85 70 67
0.0835457 -0.417729 -0.513 120 144 180
0.232995 -0.460071 -0.565 55 94 159
0.428103 -0.459257 -0.564 134 149 170
0.430251 -0.459257 -0.564 107 127 152
0.446081 -0.460071 -0.565 158 167 176
0.453614 -0.460071 -0.565 200 202 215
0.47729 -0.460071 -0.565 159 184 206
0.482671 -0.460071 -0.565 111 134 165
0.498814 -0.460071 -0.565 94 108 134
0.518343 -0.459257 -0.564 59 82 124
0.499569 -0.407957 -0.501 167 126 104
0.503126 -0.395743 -0.486 179 134 103
0.506971 -0.390857 -0.48 179 134 103
0.51834 -0.388414 -0.477 174 129 96
0.539237 -0.388414 -0.477 161 117 82
0.546286 -0.390857 -0.48 158 114 87
0.990643 -0.468214 -0.575 110 110 108
-0.0338886 -0.333822 -0.409 186 145 113
-0.0321724 -0.33219 -0.407 190 147 115
-0.0233543 -0.328109 -0.402 185 145 109
-0.0179943 -0.328109 -0.402 188 145 110
-0.0164629 -0.328109 -0.402 187 144 109
-0.00348 -0.331373 -0.406 181 136 103
0.00116286 -0.33219 -0.407 174 127 97
0.00584286 -0.333822 -0.409 171 124 94
0.0284 -0.3428 -0.42 137 95 79
0.0343238 -0.346065 -0.424 125 87 74
0.0405429 -0.350962 -0.43 110 80 69
0.0567667 -0.371367 -0.455 87 69 67
0.191024 -0.461148 -0.565 134 141 159
0.197481 -0.461148 -0.565 191 194 211
0.411989 -0.460331 -0.564 154 176 213
0.43992 -0.460331 -0.564 206 210 222
0.443143 -0.460331 -0.564 189 195 207
0.455767 -0.461148 -0.565 159 171 195
0.48504 -0.460331 -0.564 163 172 187
0.490411 -0.460331 -0.564 194 199 203
0.495783 -0.460331 -0.564 187 193 205
0.502229 -0.460331 -0.564 116 131 170
0.499423 -0.406463 -0.498 168 127 99
0.499243 -0.404014 -0.495 172 128 99
0.50554 -0.39422 -0.483 177 132 101
0.505411 -0.393404 -0.482 178 133 102
0.515785 -0.390139 -0.478 175 130 97
0.556817 -0.396669 -0.486 147 111 75
1.00352 -0.471758 -0.578 103 102 98
-0.0393171 -0.341146 -0.417 178 135 101
-0.0338057 -0.333783 -0.408 187 147 112
-0.0264829 -0.329692 -0.403 191 151 116
-0.0233543 -0.328874 -0.402 187 144 109
-0.0195257 -0.328874 -0.402 188 145 110
0.00194286 -0.333783 -0.408 173 128 97
0.00584286 -0.334601 -0.409 174 125 95
0.0145181 -0.337055 -0.412 161 111 86
0.0343238 -0.346872 -0.424 126 88 75
0.0483 -0.36078 -0.441 91 72 65
0.212171 -0.461406 -0.564 101 118 148
0.418765 -0.460588 -0.563 160 183 214
0.426271 -0.460588 -0.563 211 217 231
0.436995 -0.460588 -0.563 172 183 203
0.452811 -0.461406 -0.564 174 186 210
0.488263 -0.461406 -0.564 194 203 212
0.497931 -0.461406 -0.564 162 174 200
0.513134 -0.460588 -0.563 90 118 168
0.516351 -0.460588 -0.563 48 72 116
0.504686 -0.418865 -0.512 149 113 97
0.499423 -0.407411 -0.498 168 124 97
0.501274 -0.397594 -0.486 179 134 103
0.504493 -0.394322 -0.482 178 133 100
0.517431 -0.390231 -0.477 176 131 98
0.518881 -0.388595 -0.475 174 130 95
0.527508 -0.386959 -0.473 165 119 85
-0.0256514 -0.32964 -0.402 189 149 114
-0.00577143 -0.33128 -0.404 181 135 102
0.0161267 -0.33866 -0.413 158 110 87
0.0209476 -0.3403 -0.415 152 104 82
0.0217905 -0.34112 -0.416 146 100 84
0.0370067 -0.35014 -0.427 117 82 76
0.0406371 -0.35342 -0.431 109 78 73
0.0720381 -0.40016 -0.488 86 71 76
0.43485 -0.46166 -0.563 142 151 180
0.445574 -0.46166 -0.563 175 190 211
0.451737 -0.46248 -0.564 166 183 213
0.491687 -0.46166 -0.563 191 195 206
0.494904 -0.46166 -0.563 187 186 191
0.51099 -0.46166 -0.563 80 108 156
0.512062 -0.46166 -0.563 70 103 157
0.517264 -0.43706 -0.533 120 101 95
0.500523 -0.41082 -0.501 164 124 99
0.861803 -0.46002 -0.561 184 184 172
-0.03894 -0.339447 -0.413 182 142 107
-0.03364 -0.333693 -0.406 185 145 110
-0.0172286 -0.330406 -0.402 187 143 108
-0.0164629 -0.330406 -0.402 187 143 108
-0.00116 -0.333693 -0.406 176 131 98
0.00427429 -0.335337 -0.408 172 125 97
0.0185314 -0.340269 -0.414 156 108 86
0.0225829 -0.341912 -0.416 142 99 82
0.0242257 -0.342734 -0.417 135 92 76
0.0300714 -0.346022 -0.421 135 93 81
0.0493629 -0.364104 -0.443 96 71 64
0.433008 -0.46191 -0.562 125 136 166
0.442357 -0.462732 -0.563 198 206 229
0.466777 -0.463554 -0.564 208 211 216
0.471311 -0.462732 -0.563 117 145 184
0.491884 -0.46191 -0.562 195 195 205
0.500523 -0.411774 -0.501 164 123 101
0.499966 -0.404377 -0.492 171 130 100
0.503575 -0.396158 -0.482 179 134 103
0.519594 -0.389583 -0.474 166 120 87
0.520998 -0.387939 -0.472 175 129 96
0.521897 -0.387939 -0.472 174 128 95
0.844706 -0.461089 -0.561 183 185 174
0.87131 -0.462732 -0.563 157 157 149
-0.0320143 -0.333643 -0.405 179 139 104
-0.00577143 -0.332819 -0.404 182 136 103
-0.00116 -0.334467 -0.406 175 130 97
0.0209476 -0.341881 -0.415 151 103 80
0.0242257 -0.343529 -0.417 131 89 73
0.0387238 -0.35259 -0.428 112 79 70
0.0570162 -0.376481 -0.457 88 69 65
0.0811143 -0.420143 -0.51 105 127 174
0.189275 -0.463805 -0.563 155 161 175
0.359145 -0.462981 -0.562 208 211 218
0.426585 -0.462981 -0.562 209 214 220
0.436219 -0.462981 -0.562 96 124 164
0.450135 -0.462981 -0.562 114 137 187
0.464877 -0.463805 -0.563 212 213 218
0.496166 -0.462981 -0.562 186 189 198
0.524134 -0.462157 -0.561 164 171 177
0.505003 -0.394605 -0.479 178 135 101
0.508501 -0.393781 -0.478 174 129 96
0.518691 -0.390486 -0.474 172 126 93
0.533814 -0.389662 -0.473 164 120 85
0.627224 -0.440738 -0.535 203 195 182
0.843 -0.462981 -0.562 165 166 158
-0.0327857 -0.334414 -0.405 177 137 102
-0.0210048 -0.331111 -0.401 190 146 111
-0.00115714 -0.334414 -0.405 174 128 95
0.0097619 -0.338543 -0.41 167 117 92
0.0129486 -0.340194 -0.412 161 111 86
0.0242257 -0.344323 -0.417 128 87 69
0.0292 -0.3468 -0.42 134 95 80
0.0300714 -0.347626 -0.421 133 94 79
0.0406371 -0.355883 -0.431 110 80 70
0.0505467 -0.368269 -0.446 92 71 68
0.0515114 -0.369094 -0.447 92 71 68
0.0682562 -0.397169 -0.481 87 69 69
0.0737152 -0.407077 -0.493 84 72 74
0.197503 -0.464051 -0.562 202 205 220
0.201785 -0.464051 -0.562 206 212 226
0.203926 -0.464051 -0.562 205 208 223
0.438649 -0.463226 -0.561 141 165 201
0.451206 -0.464051 -0.562 89 119 171
0.456298 -0.464877 -0.563 157 185 224
0.46191 -0.464051 -0.562 210 216 216
0.485666 -0.463226 -0.561 160 178 202
0.496166 -0.464051 -0.562 195 198 205
0.511311 -0.463226 -0.561 33 71 133
0.517307 -0.43928 -0.532 128 103 96
0.500566 -0.414509 -0.502 160 122 103
0.499885 -0.405426 -0.491 174 133 105
0.50045 -0.402123 -0.487 176 135 105
0.505003 -0.395517 -0.479 178 135 101
0.50577 -0.394691 -0.478 176 131 98
0.534484 -0.389737 -0.472 161 117 80
0.535383 -0.389737 -0.472 161 117 80
0.838066 -0.464877 -0.563 146 147 139
0.857186 -0.466529 -0.565 128 128 120
0.877344 -0.469831 -0.569 111 111 103
-0.0343286 -0.335186 -0.405 183 140 105
-0.0217686 -0.331875 -0.401 190 146 111
-0.0194771 -0.331875 -0.401 186 142 107
-0.00423238 -0.334358 -0.404 178 131 101
0.00584286 -0.338496 -0.409 168 118 93
0.0066219 -0.338496 -0.409 168 118 93
0.0284 -0.3476 -0.42 135 96 79
0.0308733 -0.348428 -0.421 130 93 77
0.0334371 -0.350083 -0.423 123 85 72
0.0516267 -0.370773 -0.448 92 71 68
0.0696038 -0.400568 -0.484 82 68 65
0.0723333 -0.405533 -0.49 82 72 73
0.188939 -0.465122 -0.562 188 190 203
0.42262 -0.464294 -0.561 177 177 175
0.456558 -0.465122 -0.562 209 214 218
0.48246 -0.464294 -0.561 96 128 175
0.488871 -0.464294 -0.561 175 179 182
0.510566 -0.432017 -0.522 135 105 94
0.506662 -0.426224 -0.515 145 109 95
0.501274 -0.402223 -0.486 174 130 101
0.501977 -0.400568 -0.484 178 135 103
0.505003 -0.39643 -0.479 177 134 99
0.509093 -0.393947 -0.476 176 130 96
0.521201 -0.391464 -0.473 177 131 97
0.52438 -0.389809 -0.471 170 124 90
0.542166 -0.392291 -0.474 156 113 79
0.805867 -0.463467 -0.56 178 179 173
0.808 -0.463467 -0.56 177 178 170
0.822661 -0.465122 -0.562 165 165 155
0.83889 -0.467605 -0.565 122 123 117
0.85439 -0.468432 -0.566 121 122 116
0.874092 -0.470915 -0.569 117 117 109
0.0019381 -0.337616 -0.407 173 123 96
0.0105686 -0.340934 -0.411 165 115 88
0.0169133 -0.342593 -0.413 156 109 83
0.02502 -0.345911 -0.417 139 98 80
0.0335162 -0.351718 -0.424 122 86 72
0.0475676 -0.36665 -0.442 95 75 68
0.0740143 -0.410614 -0.495 83 77 79
0.0754114 -0.413103 -0.498 79 80 100
0.207837 -0.465363 -0.561 116 132 165
0.434374 -0.465363 -0.561 89 116 159
0.441067 -0.464533 -0.56 95 122 175
0.491009 -0.465363 -0.561 183 185 184
0.495283 -0.465363 -0.561 190 191 196
0.498667 -0.464533 -0.56 165 178 195
0.502933 -0.464533 -0.56 38 74 132
0.506662 -0.427205 -0.515 143 107 93
0.499711 -0.405637 -0.489 173 134 103
0.50186 -0.40066 -0.483 176 133 101
0.50728 -0.394853 -0.476 176 132 97
0.514357 -0.394024 -0.475 176 130 96
0.521689 -0.390706 -0.471 174 128 95
0.536043 -0.390706 -0.471 166 118 82
0.798039 -0.463704 -0.559 161 160 155
0.826663 -0.467851 -0.564 131 132 124
0.834985 -0.46951 -0.566 117 120 113
0.84078 -0.47034 -0.567 120 121 115
0.84618 -0.47034 -0.567 116 117 111
0.85158 -0.47034 -0.567 122 123 117
0.866065 -0.47117 -0.568 120 121 115
0.867147 -0.47117 -0.568 119 120 114
-0.0385629 -0.340054 -0.409 183 143 107
-0.0186667 -0.332571 -0.4 185 141 106
-0.0118686 -0.334234 -0.402 182 137 106
0.0426714 -0.361671 -0.435 102 77 72
0.0538095 -0.375806 -0.452 90 71 65
0.0632486 -0.391603 -0.471 85 70 67
0.0645543 -0.394097 -0.474 85 70 67
0.424 -0.4656 -0.56 195 197 196
0.4496 -0.4656 -0.56 90 129 186
0.473067 -0.4656 -0.56 111 147 197
0.479467 -0.4656 -0.56 86 123 176
0.503646 -0.422366 -0.508 148 112 96
0.504229 -0.399086 -0.48 177 134 100
0.513452 -0.394929 -0.475 176 130 96
0.525057 -0.390771 -0.47 171 125 91
0.536043 -0.391603 -0.471 166 116 81
0.800894 -0.466431 -0.561 123 122 118
-0.0413 -0.344167 -0.413 185 146 113
-0.027879 -0.334167 -0.401 187 144 109
-0.0255238 -0.333333 -0.4 190 147 112
-0.024 -0.333333 -0.4 191 148 113
0.0446343 -0.365 -0.438 100 78 67
0.430696 -0.465833 -0.559 201 210 219
0.437085 -0.465833 -0.559 71 104 158
0.443473 -0.465833 -0.559 69 105 167
0.4624 -0.466667 -0.56 215 216 221
0.467733 -0.466667 -0.56 89 130 182
0.510553 -0.465833 -0.559 51 85 133
0.52206 -0.449167 -0.539 118 97 96
0.50094 -0.4025 -0.483 173 133 97
0.530193 -0.390833 -0.469 164 118 85
0.80375 -0.469167 -0.563 101 102 97
0.813062 -0.470833 -0.565 99 101 96
0.822048 -0.471667 -0.566 119 122 113
0.852149 -0.475833 -0.571 116 116 108
0.889454 -0.4825 -0.579 122 123 115
-0.0286429 -0.33493 -0.401 188 149 110
-0.016381 -0.334095 -0.4 184 138 104
-0.00577143 -0.337436 -0.404 174 128 95
-0.00192857 -0.338271 -0.405 173 127 94
0.00895905 -0.341612 -0.409 163 113 86
0.0137333 -0.344118 -0.412 157 110 84
0.0233752 -0.347459 -0.416 139 96 79
0.0267362 -0.349965 -0.419 137 95 79
0.0318257 -0.353306 -0.423 124 88 76
0.0727762 -0.411772 -0.493 76 72 71
0.437085 -0.466898 -0.559 69 102 156
0.446668 -0.466898 -0.559 65 91 152
0.450927 -0.466898 -0.559 169 195 220
0.45625 -0.466898 -0.559 211 214 221
0.522394 -0.466063 -0.558 129 145 158
0.529834 -0.466063 -0.558 49 69 102
0.501055 -0.404255 -0.484 163 120 88
0.504229 -0.400914 -0.48 179 134 101
0.50562 -0.398409 -0.477 173 129 92
0.517402 -0.394232 -0.472 175 129 96
0.522371 -0.392562 -0.47 171 125 91
0.525727 -0.391727 -0.469 168 124 89
0.536695 -0.392562 -0.47 157 114 80
0.841273 -0.476921 -0.571 114 114 106
0.87084 -0.479427 -0.574 122 123 117
-0.0366429 -0.339043 -0.405 181 141 106
-0.02394 -0.33402 -0.399 189 146 112
-0.00346286 -0.338206 -0.404 169 123 90
0.0113514 -0.344066 -0.411 164 114 89
0.02502 -0.349089 -0.417 139 96 79
0.0327086 -0.354949 -0.424 121 87 75
0.0335952 -0.355786 -0.425 119 85 75
0.0352971 -0.356623 -0.426 113 85 74
0.0389048 -0.359971 -0.43 106 79 70
0.0417467 -0.36332 -0.434 104 77 68
0.0507733 -0.37504 -0.448 91 72 65
0.196449 -0.467963 -0.559 201 205 216
0.422486 -0.467126 -0.558 209 212 221
0.493517 -0.467963 -0.559 138 143 162
0.499711 -0.409363 -0.489 169 128 98
0.500133 -0.405177 -0.484 172 129 97
0.501055 -0.405177 -0.484 167 124 92
0.520581 -0.393457 -0.47 174 128 94
0.533767 -0.39262 -0.469 157 116 86
0.53759 -0.393457 -0.47 154 113 81
0.8127 -0.47466 -0.567 100 100 98
0.82207 -0.476334 -0.569 117 118 113
0.874548 -0.481357 -0.575 119 120 114
-0.02546 -0.33478 -0.399 188 145 111
-0.02318 -0.33478 -0.399 189 145 110
-0.0194286 -0.335619 -0.4 185 141 104
-0.00423238 -0.338975 -0.404 167 121 87
-0.0027 -0.339814 -0.405 172 126 93
0.00740095 -0.34317 -0.409 165 115 90
0.0209476 -0.348205 -0.415 147 100 80
0.0309467 -0.354078 -0.422 123 89 77
0.0344048 -0.356595 -0.425 115 83 72
0.0563914 -0.385123 -0.459 87 69 65
0.0599143 -0.390996 -0.466 89 71 67
0.424611 -0.468189 -0.558 216 213 222
0.43524 -0.468189 -0.558 147 164 192
0.449057 -0.468189 -0.558 148 163 182
0.49476 -0.468189 -0.558 71 94 138
0.505389 -0.468189 -0.558 33 68 122
0.526763 -0.46735 -0.557 113 129 144
0.523997 -0.453925 -0.541 119 96 90
0.49895 -0.411972 -0.491 164 123 93
0.500243 -0.406938 -0.485 178 135 103
0.501614 -0.403582 -0.481 179 135 100
0.509833 -0.398548 -0.475 179 133 99
0.523047 -0.393513 -0.469 172 126 92
0.546428 -0.39687 -0.473 150 111 80
0.837299 -0.479935 -0.572 119 119 111
-0.03484 -0.338063 -0.402 180 137 103
-0.0333086 -0.338063 -0.402 184 141 107
-0.011839 -0.337222 -0.401 179 133 97
-0.000386667 -0.341427 -0.406 171 125 92
0.00116 -0.341427 -0.406 169 122 92
0.0169133 -0.347313 -0.413 152 106 83
0.01932 -0.348154 -0.414 148 103 80
0.0209476 -0.348995 -0.415 146 101 78
0.03718 -0.360769 -0.429 108 79 71
0.0408257 -0.364132 -0.433 103 78 71
0.19716 -0.469251 -0.558 206 213 223
0.427033 -0.46841 -0.557 187 197 198
0.460984 -0.46841 -0.557 186 192 206
0.494934 -0.46841 -0.557 70 97 144
0.505661 -0.430568 -0.512 143 107 93
0.504657 -0.428886 -0.51 144 108 94
0.498867 -0.412067 -0.49 168 127 97
0.513806 -0.39693 -0.472 180 134 100
0.517402 -0.39693 -0.472 168 122 88
0.520367 -0.394407 -0.469 177 131 97
0.529711 -0.392725 -0.467 163 118 85
0.53352 -0.393566 -0.468 160 116 87
0.540276 -0.395248 -0.47 155 114 84
0.834397 -0.481866 -0.573 118 117 113
0.891846 -0.489434 -0.582 102 105 96
-0.031619 -0.337143 -0.4 185 142 108
-0.02394 -0.3363 -0.399 187 143 108
-0.00577143 -0.340514 -0.404 173 124 92
-0.0050019 -0.340514 -0.404 171 122 90
-0.00346286 -0.340514 -0.404 173 127 94
-0.0027 -0.341357 -0.405 173 127 94
0.354889 -0.469471 -0.557 184 193 208
0.358071 -0.469471 -0.557 208 208 210
0.428094 -0.469471 -0.557 173 178 181
0.433399 -0.469471 -0.557 144 163 196
0.437643 -0.469471 -0.557 57 91 162
0.460984 -0.469471 -0.557 160 169 186
0.484131 -0.470314 -0.558 89 118 160
0.519336 -0.469471 -0.557 149 162 171
0.506662 -0.434071 -0.515 136 104 91
0.503038 -0.402886 -0.478 174 129 98
0.504711 -0.402043 -0.477 180 135 104
0.509833 -0.400357 -0.475 178 131 101
0.51129 -0.398671 -0.473 179 133 100
0.516306 -0.396986 -0.471 169 123 89
0.525264 -0.393614 -0.467 169 125 90
0.557921 -0.403729 -0.479 151 110 80
0.866599 -0.486329 -0.577 113 115 110
-0.0406 -0.342973 -0.406 185 139 113
-0.0331429 -0.337905 -0.4 184 141 109
-0.031619 -0.337905 -0.4 186 143 109
-0.03002 -0.33706 -0.399 189 146 112
-0.00957143 -0.339594 -0.402 179 130 98
0.00818 -0.345508 -0.409 164 114 87
0.0105686 -0.347197 -0.411 160 113 87
0.03718 -0.362403 -0.429 107 80 73
0.0468314 -0.37423 -0.443 91 70 65
0.0553962 -0.386901 -0.458 86 68 64
0.06776 -0.408865 -0.484 85 69 69
0.0691076 -0.411399 -0.487 86 70 70
0.0747619 -0.422381 -0.5 201 209 222
0.425208 -0.469688 -0.556 139 154 175
0.430503 -0.469688 -0.556 117 135 155
0.435798 -0.469688 -0.556 64 94 158
0.444009 -0.470532 -0.557 61 91 163
0.455679 -0.470532 -0.557 101 136 178
0.472865 -0.469688 -0.556 58 102 165
0.491751 -0.470532 -0.557 126 141 160
0.519463 -0.469688 -0.556 161 174 182
0.527935 -0.469688 -0.556 120 130 142
0.503668 -0.429984 -0.509 144 108 94
0.50256 -0.42576 -0.504 148 111 95
0.500349 -0.410554 -0.486 172 127 98
0.50094 -0.40802 -0.483 177 130 100
0.501614 -0.40633 -0.481 176 129 99
0.507119 -0.401262 -0.475 178 132 99
0.542962 -0.397038 -0.47 157 116 86
0.64082 -0.453637 -0.537 161 158 153
0.868101 -0.488272 -0.578 89 92 85
0.873606 -0.488272 -0.578 103 106 97
-0.02774 -0.33782 -0.399 188 143 112
-0.0261543 -0.336973 -0.398 190 145 112
-0.0186667 -0.338667 -0.4 187 141 108
-0.0171429 -0.338667 -0.4 185 138 108
-0.0110752 -0.339513 -0.401 178 129 99
0.000386667 -0.343747 -0.406 170 123 93
0.0520876 -0.382693 -0.452 87 69 67
0.0627486 -0.40132 -0.474 84 68 68
0.436857 -0.470747 -0.556 62 93 160
0.443211 -0.470747 -0.556 59 88 156
0.44533 -0.470747 -0.556 60 92 153
0.462274 -0.470747 -0.556 160 176 201
0.528043 -0.4699 -0.555 95 108 125
0.500426 -0.422487 -0.499 153 115 94
0.505467 -0.403013 -0.476 176 131 98
0.507119 -0.402167 -0.475 176 130 96
0.507857 -0.40132 -0.474 177 131 98
0.525914 -0.394547 -0.466 167 122 89
0.845349 -0.48768 -0.576 104 105 99
0.870706 -0.49022 -0.579 97 99 94
0.875117 -0.49022 -0.579 103 105 100
0.876909 -0.489373 -0.578 103 106 99
-0.03306 -0.33858 -0.399 188 145 110
-0.01938 -0.33858 -0.399 186 141 108
-0.016381 -0.339429 -0.4 183 136 106
-0.00954762 -0.340277 -0.401 178 129 99
-0.00880571 -0.341126 -0.402 178 129 99
0.00898095 -0.347914 -0.41 160 112 89
0.0301429 -0.358097 -0.422 124 91 76
0.0428676 -0.370826 -0.437 95 75 68
0.208103 -0.471806 -0.556 206 208 223
0.420214 -0.470957 -0.555 137 150 167
0.440034 -0.471806 -0.556 57 91 155
0.456157 -0.470957 -0.555 190 208 222
0.47816 -0.471806 -0.556 111 150 209
0.485386 -0.472654 -0.557 186 205 222
0.520522 -0.471806 -0.556 167 174 182
0.524871 -0.470957 -0.555 164 165 170
0.501055 -0.410709 -0.484 176 131 98
0.50094 -0.40986 -0.483 176 130 97
0.500698 -0.408163 -0.481 176 131 100
0.501353 -0.406466 -0.479 174 129 96
0.502266 -0.406466 -0.479 174 130 95
0.508024 -0.403071 -0.475 179 133 97
0.511469 -0.402223 -0.474 171 125 91
0.51879 -0.398829 -0.47 176 130 96
0.521706 -0.396283 -0.467 173 127 93
0.525027 -0.395434 -0.466 172 126 90
0.527443 -0.394586 -0.465 167 121 85
0.530352 -0.395434 -0.466 163 119 84
0.844618 -0.489626 -0.577 100 103 94
0.876629 -0.492171 -0.58 116 118 113
-0.036281 -0.341041 -0.401 183 141 103
-0.0140952 -0.34019 -0.4 185 138 108
-0.00575714 -0.342742 -0.403 173 123 98
-0.00192381 -0.343592 -0.404 173 123 96
0.00738286 -0.346994 -0.408 160 114 90
0.02508 -0.355499 -0.418 132 93 76
0.0276 -0.3572 -0.42 128 91 75
0.0301429 -0.358901 -0.422 124 90 78
0.0391762 -0.368256 -0.433 105 78 71
0.0410143 -0.369957 -0.435 100 75 68
0.0469371 -0.377611 -0.444 91 71 64
0.0556381 -0.391219 -0.46 86 68 64
0.0615848 -0.401425 -0.472 85 67 65
0.451684 -0.472865 -0.556 176 191 212
0.515429 -0.449051 -0.528 118 99 92
0.502478 -0.426939 -0.502 149 110 93
0.49895 -0.417584 -0.491 163 121 96
0.498867 -0.416733 -0.49 165 124 96
0.49878 -0.415883 -0.489 167 126 98
0.499423 -0.413331 -0.486 168 124 97
0.501486 -0.408229 -0.48 175 130 97
0.501353 -0.407378 -0.479 173 128 95
0.50562 -0.405677 -0.477 179 133 100
0.506954 -0.403126 -0.474 179 133 100
0.512191 -0.402275 -0.473 160 115 76
0.517895 -0.399724 -0.47 177 132 93
0.523014 -0.395471 -0.465 173 129 92
0.525671 -0.395471 -0.465 169 125 88
0.525425 -0.394621 -0.464 168 124 87
0.532128 -0.396322 -0.466 159 116 82
0.557147 -0.404827 -0.476 142 108 83
0.845717 -0.490725 -0.577 103 104 98
0.853789 -0.491575 -0.578 69 72 65
0.873713 -0.494127 -0.581 84 86 81
0.888936 -0.495828 -0.583 33 36 27
-0.04292 -0.346067 -0.406 182 142 107
-0.0386686 -0.342657 -0.402 184 142 104
-0.0291867 -0.339248 -0.398 189 147 109
-0.0246381 -0.339248 -0.398 185 142 107
-0.0118095 -0.340952 -0.4 177 130 100
-0.0103114 -0.341805 -0.401 175 128 98
0.00660571 -0.347771 -0.408 163 116 90
0.0121343 -0.350329 -0.411 155 109 86
0.0259381 -0.357148 -0.419 131 89 77
0.0381743 -0.367376 -0.431 107 78 70
0.0479981 -0.380162 -0.446 90 69 64
0.0655076 -0.409995 -0.481 80 69 67
0.401518 -0.472219 -0.554 103 136 181
0.435286 -0.472219 -0.554 82 120 183
0.47816 -0.473924 -0.556 117 147 199
0.5013 -0.474776 -0.557 72 97 127
0.524871 -0.473071 -0.555 145 145 143
0.499029 -0.419371 -0.492 165 123 98
0.502128 -0.407438 -0.478 179 134 101
0.505467 -0.405733 -0.476 178 132 99
0.506214 -0.404881 -0.475 180 134 100
0.519257 -0.398914 -0.468 177 131 95
0.523014 -0.396357 -0.465 175 131 94
0.884086 -0.496086 -0.582 102 103 97
-0.0253962 -0.340006 -0.398 184 141 106
-0.0216057 -0.340006 -0.398 183 140 105
-0.00575714 -0.344277 -0.403 172 122 97
-0.00498952 -0.344277 -0.403 172 122 97
-0.00269333 -0.345131 -0.404 173 123 96
0.0327857 -0.363071 -0.425 116 83 76
0.0618457 -0.404931 -0.474 85 70 67
0.355088 -0.473274 -0.554 108 123 152
0.43423 -0.473274 -0.554 126 156 190
0.446643 -0.474129 -0.555 117 140 192
0.457214 -0.474129 -0.555 205 215 216
0.460386 -0.474129 -0.555 204 212 215
0.466729 -0.474129 -0.555 124 148 184
0.5013 -0.475837 -0.557 147 148 152
0.504483 -0.475837 -0.557 154 160 160
0.523699 -0.474983 -0.556 155 155 153
0.516405 -0.451917 -0.529 116 99 91
0.501563 -0.429706 -0.503 143 110 91
0.501522 -0.428851 -0.502 143 110 91
0.500371 -0.425434 -0.498 155 114 92
0.499523 -0.416037 -0.487 169 125 96
0.501486 -0.410057 -0.48 174 129 96
0.526309 -0.396389 -0.464 167 123 88
0.538341 -0.398097 -0.466 159 114 81
0.544217 -0.399806 -0.468 157 114 80
0.86154 -0.49634 -0.581 37 39 34
0.868566 -0.497194 -0.582 105 110 104
0.878543 -0.497194 -0.582 119 119 117
-0.0454629 -0.349326 -0.408 184 141 107
-0.0427086 -0.345901 -0.404 181 141 106
-0.03534 -0.34162 -0.399 183 144 105
-0.015619 -0.342476 -0.4 180 134 101
-0.0148571 -0.342476 -0.4 179 133 100
-0.00954762 -0.343332 -0.401 174 127 99
-0.00192381 -0.345901 -0.404 170 123 95
0.000385714 -0.346757 -0.405 169 122 94
0.0185762 -0.355319 -0.415 146 101 82
0.02514 -0.358744 -0.419 127 87 77
0.0441 -0.37758 -0.441 91 72 68
0.0481057 -0.382717 -0.447 87 69 67
0.0491762 -0.38443 -0.449 86 68 64
0.413433 -0.473473 -0.553 104 145 199
0.428954 -0.47433 -0.554 203 210 226
0.431065 -0.47433 -0.554 196 209 225
0.439243 -0.475186 -0.555 52 85 156
0.446643 -0.475186 -0.555 102 126 174
0.486257 -0.477754 -0.558 158 163 169
0.50863 -0.44265 -0.517 129 102 93
0.500371 -0.426383 -0.498 154 113 95
0.50002 -0.41354 -0.483 173 128 97
0.502128 -0.409259 -0.478 176 131 98
0.516306 -0.403266 -0.471 176 130 94
0.86524 -0.498303 -0.582 99 100 95
0.886866 -0.504296 -0.589 89 90 92
-0.0216057 -0.341522 -0.398 182 139 104
0.00503905 -0.349245 -0.407 162 115 89
0.0193667 -0.35611 -0.415 143 97 81
0.0310933 -0.363832 -0.424 118 85 76
0.0401857 -0.373271 -0.435 100 76 72
0.34602 -0.474527 -0.553 78 110 167
0.347073 -0.474527 -0.553 87 119 176
0.356553 -0.474527 -0.553 193 204 222
0.357607 -0.474527 -0.553 191 202 220
0.360767 -0.474527 -0.553 145 165 189
0.432393 -0.474527 -0.553 134 159 189
0.443471 -0.476243 -0.555 54 95 159
0.459329 -0.476243 -0.555 196 196 194
0.461443 -0.476243 -0.555 186 190 191
0.518007 -0.479675 -0.559 156 155 153
0.530257 -0.475385 -0.554 118 114 111
0.514478 -0.451358 -0.526 118 98 87
0.511109 -0.405021 -0.472 178 133 100
0.521243 -0.399014 -0.465 172 126 93
0.523657 -0.398156 -0.464 168 123 90
0.524292 -0.397298 -0.463 169 124 91
0.525174 -0.397298 -0.463 171 126 93
0.555162 -0.405021 -0.472 139 103 79
0.5605 -0.407595 -0.475 137 103 78
-0.03762 -0.34314 -0.399 183 140 106
-0.00498952 -0.34658 -0.403 172 125 99
0.00115714 -0.3483 -0.405 163 117 91
0.00503905 -0.35002 -0.407 160 114 90
0.0105429 -0.3526 -0.41 153 106 88
0.0461952 -0.3827 -0.445 89 71 71
0.054881 -0.39646 -0.461 84 68 71
0.3555 -0.47558 -0.553 191 206 229
0.406377 -0.47472 -0.552 73 117 164
0.442414 -0.4773 -0.555 76 106 160
0.449814 -0.4773 -0.555 146 154 167
0.452986 -0.4773 -0.555 175 175 175
0.487129 -0.48074 -0.559 185 183 186
0.496711 -0.48074 -0.559 168 172 173
0.52452 -0.47988 -0.558 132 128 127
0.527824 -0.47902 -0.557 121 117 116
0.500371 -0.42828 -0.498 149 112 94
0.502128 -0.41108 -0.478 176 131 100
0.507687 -0.40678 -0.473 179 133 99
0.509489 -0.40678 -0.473 172 128 91
0.51182 -0.40506 -0.471 180 136 101
0.518148 -0.40162 -0.467 179 133 99
0.52341 -0.39818 -0.463 171 126 93
0.572161 -0.41366 -0.481 133 104 86
-0.0432629 -0.346486 -0.402 185 145 110
-0.0416276 -0.345624 -0.401 183 143 108
-0.03838 -0.3439 -0.399 182 142 107
-0.0260886 -0.342176 -0.397 187 145 107
-0.02382 -0.342176 -0.397 180 138 100
-0.01482 -0.3439 -0.399 172 125 97
-0.00192381 -0.34821 -0.404 171 124 96
0.0105429 -0.353381 -0.41 153 106 88
0.0169543 -0.356829 -0.414 143 100 83
0.0202057 -0.358552 -0.416 139 96 80
0.0277314 -0.363724 -0.422 123 87 75
0.03744 -0.372343 -0.432 99 75 73
0.39376 -0.475771 -0.552 197 210 219
0.406377 -0.475771 -0.552 86 123 176
0.41554 -0.476633 -0.553 121 142 169
0.4187 -0.476633 -0.553 180 183 188
0.436341 -0.477495 -0.554 159 167 170
0.448757 -0.478357 -0.555 192 197 191
0.459329 -0.478357 -0.555 192 196 197
0.468843 -0.478357 -0.555 195 193 196
0.520787 -0.48439 -0.562 128 126 127
0.528885 -0.480081 -0.557 95 91 92
0.508629 -0.444743 -0.516 125 101 91
0.50531 -0.409405 -0.475 177 131 98
0.509489 -0.407681 -0.473 172 128 93
0.516583 -0.403371 -0.468 176 132 95
0.531348 -0.399062 -0.463 165 119 86
0.534875 -0.399062 -0.463 162 118 83
0.538682 -0.399924 -0.464 159 115 80
0.568592 -0.41199 -0.478 131 99 78
0.576105 -0.415438 -0.482 88 62 47
-0.0441381 -0.348115 -0.403 185 145 110
-0.0335657 -0.342069 -0.396 187 147 111
-0.01558 -0.34466 -0.399 180 135 104
-0.00650857 -0.347251 -0.402 170 123 95
0.00818 -0.353298 -0.409 154 108 85
0.0105429 -0.354162 -0.41 154 105 88
0.0145533 -0.356753 -0.413 146 99 83
0.0286029 -0.365391 -0.423 123 84 77
0.0375267 -0.37403 -0.433 99 76 70
0.0412971 -0.378349 -0.438 91 72 65
0.052779 -0.395625 -0.458 83 68 75
0.0538857 -0.397352 -0.46 84 68 69
0.0609429 -0.409446 -0.474 80 71 66
0.426073 -0.477687 -0.553 191 186 193
0.436341 -0.47855 -0.554 194 196 195
0.461443 -0.479414 -0.555 194 198 201
0.473715 -0.481142 -0.557 185 190 193
0.476691 -0.482006 -0.558 178 188 189
0.477754 -0.482006 -0.558 179 189 190
0.501154 -0.487189 -0.564 153 147 151
0.505271 -0.488052 -0.565 145 140 134
0.50256 -0.43536 -0.504 144 108 94
0.500186 -0.427586 -0.495 154 116 97
0.501217 -0.412901 -0.478 175 130 97
0.514113 -0.405127 -0.469 174 129 96
0.5159 -0.405127 -0.469 174 129 96
0.516369 -0.403399 -0.467 178 134 99
0.533993 -0.399944 -0.463 164 118 85
-0.04142 -0.34542 -0.399 184 144 108
-0.0382838 -0.344554 -0.398 183 143 107
-0.03432 -0.342823 -0.396 188 145 110
-0.0335657 -0.342823 -0.396 187 144 109
-0.0320571 -0.342823 -0.396 188 145 110
-0.00952381 -0.346286 -0.4 175 129 96
-0.000384762 -0.349749 -0.404 167 120 92
0.00426381 -0.352346 -0.407 156 109 89
0.00660571 -0.353211 -0.408 155 108 88
0.00895905 -0.354077 -0.409 154 107 89
0.0235438 -0.362734 -0.419 128 88 78
0.0302857 -0.367063 -0.424 121 87 78
0.0484286 -0.389571 -0.45 85 67 63
0.36432 -0.477874 -0.552 204 210 222
0.365371 -0.477874 -0.552 192 198 210
0.376937 -0.477874 -0.552 72 99 152
0.39974 -0.47874 -0.553 173 180 188
0.42186 -0.47874 -0.553 194 192 197
0.482667 -0.4848 -0.56 172 172 174
0.483733 -0.4848 -0.56 171 171 173
0.500775 -0.489994 -0.566 126 120 122
0.5296 -0.4848 -0.56 53 53 55
0.510597 -0.449306 -0.519 121 96 89
0.501477 -0.433723 -0.501 141 108 89
0.49869 -0.422469 -0.488 157 120 93
0.513419 -0.406886 -0.47 177 131 98
0.517038 -0.403423 -0.466 179 133 100
0.52668 -0.39996 -0.462 171 125 92
0.561455 -0.408617 -0.472 131 101 77
0.563253 -0.408617 -0.472 128 100 79
-0.0422857 -0.347048 -0.4 186 144 106
-0.0398 -0.345312 -0.398 186 144 106
-0.029719 -0.34271 -0.395 187 143 106
-0.0214971 -0.343577 -0.396 181 136 103
-0.0207429 -0.343577 -0.396 183 138 105
-0.00115429 -0.350518 -0.404 166 121 90
0.00270667 -0.352253 -0.406 157 109 86
0.0121343 -0.356591 -0.411 150 103 87
0.0129486 -0.357459 -0.412 147 100 84
0.0177429 -0.359194 -0.414 140 97 81
0.0218952 -0.362665 -0.418 130 90 78
0.0433581 -0.383488 -0.442 91 71 70
0.0454495 -0.386958 -0.446 90 71 67
0.0474657 -0.389561 -0.449 87 68 62
0.0624981 -0.41559 -0.479 75 62 56
0.0649943 -0.419928 -0.484 82 67 64
0.37168 -0.478926 -0.552 137 141 144
0.403953 -0.479793 -0.553 194 189 193
0.41238 -0.479793 -0.553 193 191 196
0.414487 -0.479793 -0.553 188 188 190
0.4187 -0.479793 -0.553 195 194 199
0.420512 -0.480661 -0.554 193 192 197
0.46735 -0.483264 -0.557 173 168 174
0.485252 -0.48847 -0.563 150 148 149
0.491486 -0.489337 -0.564 138 138 138
0.516791 -0.497146 -0.573 77 75 78
0.53323 -0.482396 -0.556 49 43 47
0.532368 -0.480661 -0.554 49 43 47
0.504586 -0.439883 -0.507 134 106 92
0.501477 -0.434677 -0.501 140 109 91
0.501376 -0.432942 -0.499 144 111 92
0.499966 -0.426869 -0.492 155 118 92
0.49869 -0.423398 -0.488 155 118 91
0.499903 -0.418192 -0.482 169 126 92
0.502894 -0.413854 -0.477 175 130 97
0.511109 -0.409516 -0.472 178 132 99
0.516369 -0.405178 -0.467 182 138 103
0.52316 -0.40084 -0.462 169 123 89
0.5346 -0.40084 -0.462 164 118 84
0.5561 -0.406913 -0.469 138 104 77
0.558181 -0.407781 -0.47 137 103 76
0.559076 -0.407781 -0.47 134 102 77
-0.0506171 -0.358244 -0.412 182 142 106
-0.0267095 -0.343462 -0.395 184 141 106
-0.0259571 -0.343462 -0.395 182 139 104
-0.0214971 -0.344331 -0.396 180 135 102
-0.0192829 -0.345201 -0.397 182 136 103
-0.0177705 -0.345201 -0.397 184 137 107
-0.00725619 -0.348679 -0.401 173 127 94
0.0185762 -0.360852 -0.415 135 96 81
0.0235438 -0.36433 -0.419 128 90 77
0.03124 -0.370417 -0.426 113 83 73
0.0339114 -0.373026 -0.429 103 78 71
0.33681 -0.478238 -0.55 112 137 159
0.34057 -0.479108 -0.551 112 136 172
0.347497 -0.479977 -0.552 119 139 174
0.354447 -0.480847 -0.553 166 167 171
0.360114 -0.479977 -0.552 176 177 181
0.384297 -0.479977 -0.552 192 193 197
0.418402 -0.481716 -0.554 194 195 197
0.421568 -0.481716 -0.554 190 191 193
0.423678 -0.481716 -0.554 186 186 186
0.429729 -0.482586 -0.555 183 183 183
0.466289 -0.484325 -0.557 151 149 154
0.50662 -0.444327 -0.511 130 102 90
0.504613 -0.441718 -0.508 132 103 89
0.4998 -0.426067 -0.49 155 115 89
0.49829 -0.42085 -0.484 164 123 93
0.4991 -0.41998 -0.483 166 125 93
0.500571 -0.417371 -0.48 170 127 93
0.510026 -0.409546 -0.471 179 133 100
0.510923 -0.409546 -0.471 181 135 102
0.522028 -0.40085 -0.461 168 122 88
-0.0267095 -0.344214 -0.395 183 139 102
-0.0259571 -0.344214 -0.395 183 139 102
-0.0222514 -0.345086 -0.396 179 135 100
-0.0207429 -0.345086 -0.396 180 136 101
-0.0147829 -0.346829 -0.398 176 129 99
-0.0087619 -0.348571 -0.4 174 128 95
0.0386171 -0.379943 -0.436 94 73 68
0.05202 -0.399986 -0.459 88 68 67
0.0577429 -0.409571 -0.47 83 67 67
0.334714 -0.479286 -0.55 141 150 149
0.3496 -0.481029 -0.552 179 184 187
0.357607 -0.4819 -0.553 188 187 192
0.363927 -0.4819 -0.553 190 191 195
0.369193 -0.4819 -0.553 189 190 194
0.395187 -0.482771 -0.554 192 193 195
0.404684 -0.482771 -0.554 188 188 190
0.428671 -0.483643 -0.555 174 172 175
0.453309 -0.486257 -0.558 140 138 141
0.454618 -0.485386 -0.557 138 136 139
0.460749 -0.486257 -0.558 131 126 130
0.519333 -0.4636 -0.532 114 97 87
0.499885 -0.427871 -0.491 151 113 90
0.506051 -0.413057 -0.474 176 132 97
0.508411 -0.411314 -0.472 176 130 97
0.510026 -0.410443 -0.471 179 133 100
0.54076 -0.4026 -0.462 157 114 82
0.547814 -0.405214 -0.465 148 107 75
0.556697 -0.407829 -0.468 139 103 71
-0.0525667 -0.362433 -0.415 181 143 106
-0.0214971 -0.34584 -0.396 181 135 99
-0.0192829 -0.346713 -0.397 181 135 102
-0.00115429 -0.352827 -0.404 164 117 91
0.00115714 -0.3537 -0.405 159 111 89
0.0121343 -0.35894 -0.411 142 99 82
0.0145533 -0.360687 -0.413 141 98 81
0.0455514 -0.39038 -0.447 89 70 64
0.311667 -0.480333 -0.55 88 107 140
0.317374 -0.47946 -0.549 124 137 154
0.324694 -0.47946 -0.549 174 174 176
0.335323 -0.481207 -0.551 183 186 193
0.337422 -0.481207 -0.551 186 186 194
0.346446 -0.48208 -0.552 188 183 189
0.359713 -0.482953 -0.553 189 188 193
0.363927 -0.482953 -0.553 187 188 192
0.413126 -0.483827 -0.554 174 172 173
0.424443 -0.4847 -0.555 159 157 160
0.426557 -0.4847 -0.555 157 155 158
0.43368 -0.485573 -0.556 144 142 145
0.444009 -0.486447 -0.557 127 125 130
0.45756 -0.48732 -0.558 98 96 99
0.499711 -0.42706 -0.489 154 116 93
0.501077 -0.41658 -0.477 172 127 96
0.508588 -0.413087 -0.473 175 129 96
0.51788 -0.40348 -0.462 170 124 90
0.519393 -0.402607 -0.461 171 125 91
0.520019 -0.401733 -0.46 168 122 88
0.520895 -0.401733 -0.46 168 122 88
0.550471 -0.4061 -0.465 149 106 74
0.552543 -0.406973 -0.466 146 105 75
-0.0357381 -0.345719 -0.395 184 142 104
-0.0095 -0.34922 -0.399 175 130 99
-0.008 -0.350095 -0.4 171 126 95
0.00818 -0.357972 -0.409 152 105 89
0.0235438 -0.366725 -0.419 126 90 76
0.0269276 -0.36935 -0.422 123 87 73
0.0322019 -0.374602 -0.428 107 80 69
0.0367867 -0.379853 -0.434 98 75 69
0.0668695 -0.429742 -0.491 146 148 163
0.301689 -0.480506 -0.549 148 152 163
0.30378 -0.480506 -0.549 142 145 152
0.32574 -0.480506 -0.549 187 185 186
0.329476 -0.481381 -0.55 189 187 188
0.357198 -0.484882 -0.554 190 190 192
0.3811 -0.485757 -0.555 175 175 177
0.385329 -0.485757 -0.555 173 173 175
0.393786 -0.485757 -0.555 168 170 169
0.441887 -0.487508 -0.557 91 89 94
0.456497 -0.488383 -0.558 66 65 70
0.532549 -0.483131 -0.552 18 18 28
0.501129 -0.433243 -0.495 147 109 90
0.498985 -0.421865 -0.482 161 120 92
0.513909 -0.409611 -0.468 176 130 96
0.555206 -0.407861 -0.466 141 99 74
-0.0428324 -0.349103 -0.398 181 141 105
-0.0404562 -0.348226 -0.397 186 144 106
-0.0244524 -0.346471 -0.395 184 140 105
-0.0199886 -0.347349 -0.396 177 133 98
0.00348 -0.35612 -0.406 156 110 86
0.00816 -0.357874 -0.408 152 105 85
0.0269276 -0.370154 -0.422 120 87 72
0.0521333 -0.403486 -0.46 84 69 66
0.295414 -0.481551 -0.549 172 176 179
0.304333 -0.482429 -0.55 182 181 189
0.313762 -0.482429 -0.55 180 179 184
0.326333 -0.482429 -0.55 183 183 183
0.355729 -0.486814 -0.555 178 176 177
0.362071 -0.486814 -0.555 175 173 174
0.376871 -0.486814 -0.555 167 167 169
0.437366 -0.489446 -0.558 71 69 74
0.439491 -0.489446 -0.558 71 69 74
0.448797 -0.490323 -0.559 63 60 67
0.451991 -0.490323 -0.559 61 60 66
0.454933 -0.4912 -0.56 62 61 66
0.519891 -0.521023 -0.594 51 52 57
0.523286 -0.521023 -0.594 51 52 57
0.4998 -0.4298 -0.49 150 112 91
0.50184 -0.41752 -0.476 167 120 90
0.515929 -0.407871 -0.465 172 128 91
0.516587 -0.406994 -0.464 172 128 91
0.530254 -0.402609 -0.459 166 120 84
0.549288 -0.406994 -0.464 152 108 79
0.554014 -0.407871 -0.465 139 97 73
0.555786 -0.407871 -0.465 135 94 72
-0.0477381 -0.352498 -0.401 180 140 104
-0.0363981 -0.346345 -0.394 185 143 105
-0.0356476 -0.346345 -0.394 186 144 106
-0.0273924 -0.346345 -0.394 185 141 104
-0.00268667 -0.354256 -0.403 164 119 90
-0.000384762 -0.355135 -0.404 160 115 86
0.0145533 -0.363047 -0.413 139 98 80
0.0416743 -0.388539 -0.442 90 71 67
0.0522467 -0.405241 -0.461 81 70 68
0.220766 -0.481718 -0.548 100 134 180
0.330075 -0.484355 -0.551 183 185 184
0.375047 -0.48963 -0.557 156 154 159
0.377169 -0.48963 -0.557 150 148 153
0.383534 -0.48963 -0.557 140 138 143
0.406543 -0.490509 -0.558 93 91 96
0.408669 -0.490509 -0.558 89 87 92
0.409731 -0.490509 -0.558 86 84 89
0.430989 -0.490509 -0.558 59 58 64
0.451471 -0.493146 -0.561 57 56 62
0.464877 -0.494904 -0.563 55 54 60
