ply
format ascii 1.0
comment Created by Open3D
element vertex 1272
property double x
property double y
property double z
property uchar red
property uchar green
property uchar blue
end_header
0.956028 -0.433778 -0.563 205 207 193
0.959245 -0.433778 -0.563 204 206 192
0.972113 -0.433778 -0.563 204 206 192
-0.337983 -0.437168 -0.566 226 229 220
-0.32778 -0.43794 -0.567 229 230 222
-0.3213 -0.43794 -0.567 228 229 221
-0.315343 -0.437168 -0.566 229 230 222
-0.313187 -0.437168 -0.566 229 230 222
-0.2997 -0.43794 -0.567 230 231 225
-0.0175714 -0.316676 -0.41 191 152 119
-0.00971429 -0.315131 -0.408 194 153 121
-0.00582857 -0.315131 -0.408 196 152 123
-0.00349714 -0.315131 -0.408 190 144 118
0.00194762 -0.315904 -0.409 188 141 115
0.00273333 -0.316676 -0.41 187 140 114
0.01534 -0.318993 -0.413 171 127 100
0.0392619 -0.328262 -0.425 128 88 76
0.05166 -0.34062 -0.441 101 74 67
0.0592362 -0.350661 -0.454 91 70 69
0.0626476 -0.355295 -0.46 91 69 71
0.0662695 -0.360702 -0.467 94 69 72
0.5017 -0.400866 -0.519 156 120 98
0.505589 -0.380011 -0.492 179 132 104
0.515024 -0.374605 -0.485 177 130 100
0.549046 -0.381556 -0.494 152 113 82
0.805894 -0.43485 -0.563 209 211 197
0.908843 -0.43485 -0.563 205 208 191
0.935061 -0.434078 -0.562 204 207 190
0.951118 -0.434078 -0.562 204 207 190
0.965034 -0.434078 -0.562 204 206 192
0.968246 -0.434078 -0.562 204 206 192
0.976809 -0.434078 -0.562 204 206 192
0.983232 -0.434078 -0.562 204 207 190
0.982551 -0.433306 -0.561 204 207 190
1.01428 -0.434078 -0.562 203 205 191
-0.302406 -0.438246 -0.566 229 230 224
-0.0276 -0.3252 -0.42 185 149 117
-0.0167495 -0.316683 -0.409 192 153 120
-0.00505143 -0.315909 -0.408 195 151 122
-0.00272 -0.315909 -0.408 188 142 116
0.00822 -0.318231 -0.411 179 135 106
0.0177429 -0.320554 -0.414 169 123 100
0.0456686 -0.334491 -0.432 114 81 74
0.0787286 -0.383271 -0.495 88 69 73
0.503799 -0.381723 -0.493 179 132 104
0.506526 -0.380949 -0.492 176 129 101
0.519493 -0.374754 -0.484 173 127 94
0.52394 -0.37398 -0.483 167 122 89
0.813401 -0.435923 -0.563 209 211 197
0.899735 -0.435149 -0.562 205 207 193
0.926497 -0.435149 -0.562 206 208 194
0.93399 -0.435149 -0.562 205 208 191
0.948357 -0.434374 -0.561 203 206 189
0.959682 -0.435149 -0.562 205 208 191
0.972528 -0.435149 -0.562 203 205 191
0.976809 -0.435149 -0.562 203 205 191
0.992169 -0.434374 -0.561 204 207 190
0.999289 -0.435149 -0.562 202 206 191
1.00036 -0.435149 -0.562 202 206 191
-0.337386 -0.438548 -0.565 226 229 220
-0.334749 -0.439324 -0.566 227 230 221
-0.33367 -0.439324 -0.566 228 231 222
-0.318014 -0.438548 -0.565 228 229 223
-0.316938 -0.438548 -0.565 228 229 223
-0.31371 -0.438548 -0.565 229 230 224
-0.298093 -0.439324 -0.566 229 230 224
-0.0256905 -0.322119 -0.415 184 148 116
-0.0167495 -0.317462 -0.409 193 152 120
-0.00738286 -0.316686 -0.408 187 142 113
-0.00505143 -0.316686 -0.408 193 149 120
-0.00427429 -0.316686 -0.408 188 143 114
0.0283324 -0.325224 -0.419 150 103 87
0.0292 -0.326 -0.42 150 103 87
0.0333581 -0.327552 -0.422 148 100 86
0.0376429 -0.329881 -0.425 136 92 81
0.0717714 -0.372571 -0.48 90 72 72
0.0773143 -0.381886 -0.492 86 67 73
0.500751 -0.40129 -0.517 157 116 98
0.496872 -0.394305 -0.508 169 125 96
0.49686 -0.393529 -0.507 165 126 97
0.49584 -0.3912 -0.504 166 122 95
0.499307 -0.38499 -0.496 175 128 100
0.500186 -0.384214 -0.495 179 132 102
0.505496 -0.38111 -0.491 177 130 104
0.509844 -0.378781 -0.488 183 136 108
0.51934 -0.3749 -0.483 178 131 101
0.884749 -0.436219 -0.562 207 209 195
0.890654 -0.435443 -0.561 205 207 193
0.914722 -0.436219 -0.562 205 208 191
0.933397 -0.435443 -0.561 205 208 191
0.949426 -0.435443 -0.561 203 206 189
0.96866 -0.435443 -0.561 203 205 191
0.970797 -0.435443 -0.561 203 205 191
0.982551 -0.435443 -0.561 204 207 190
0.993237 -0.435443 -0.561 202 206 191
-0.334157 -0.439624 -0.565 226 229 220
-0.320167 -0.439624 -0.565 227 228 222
-0.318014 -0.439624 -0.565 229 230 224
-0.0283324 -0.326022 -0.419 185 149 115
-0.0206952 -0.319019 -0.41 191 150 118
-0.0151543 -0.317463 -0.408 195 155 120
-0.00660571 -0.317463 -0.408 189 144 115
-0.00582857 -0.317463 -0.408 190 145 116
0.00351429 -0.319019 -0.41 184 138 112
0.00429524 -0.319019 -0.41 182 136 110
0.0114067 -0.321353 -0.413 176 130 104
0.01534 -0.321353 -0.413 169 123 99
0.0350486 -0.329134 -0.423 144 98 83
0.0411695 -0.333025 -0.428 125 88 80
0.0497533 -0.341584 -0.439 99 75 75
0.0746733 -0.378932 -0.487 84 72 76
0.0835343 -0.394494 -0.507 84 86 99
0.530784 -0.434955 -0.559 129 107 96
0.527091 -0.431065 -0.554 134 112 101
0.495814 -0.391382 -0.503 171 127 100
0.513176 -0.377376 -0.485 180 133 105
0.526528 -0.375042 -0.482 170 124 91
0.540338 -0.378932 -0.487 145 111 83
0.814097 -0.43729 -0.562 209 211 197
0.889586 -0.436511 -0.561 205 208 191
0.894929 -0.436511 -0.561 205 208 191
0.895997 -0.436511 -0.561 205 208 191
0.899203 -0.436511 -0.561 206 209 192
0.921643 -0.436511 -0.561 204 207 190
0.9552 -0.435733 -0.56 204 206 192
0.97614 -0.436511 -0.561 204 206 192
0.977209 -0.436511 -0.561 203 206 189
0.978277 -0.436511 -0.561 203 206 189
0.992169 -0.436511 -0.561 202 205 188
0.995374 -0.436511 -0.561 202 206 191
1.00072 -0.436511 -0.561 203 207 192
1.01247 -0.436511 -0.561 202 204 190
1.01354 -0.436511 -0.561 202 204 190
-0.330929 -0.4407 -0.565 229 230 224
-0.328776 -0.4407 -0.565 228 229 223
-0.309931 -0.43992 -0.564 229 230 222
-0.0238771 -0.32058 -0.411 189 150 117
-0.0174857 -0.31824 -0.408 192 152 117
-0.0136 -0.31824 -0.408 193 153 118
-0.0128229 -0.31824 -0.408 195 152 118
-0.00116571 -0.31824 -0.408 190 145 114
0.00116857 -0.31902 -0.409 186 141 112
0.00824 -0.32136 -0.412 178 132 106
0.0105943 -0.32136 -0.412 175 129 103
0.0385429 -0.33228 -0.426 133 91 77
0.0449495 -0.33774 -0.433 110 81 77
0.05082 -0.34398 -0.441 95 75 74
0.0539448 -0.34788 -0.446 92 72 73
0.0746733 -0.37986 -0.487 85 72 79
0.0776286 -0.38532 -0.494 86 69 75
0.0790467 -0.38766 -0.497 85 68 74
0.511227 -0.41496 -0.532 145 113 100
0.499243 -0.3861 -0.495 176 129 103
0.504651 -0.38376 -0.492 177 130 104
0.506333 -0.3822 -0.49 179 132 104
0.510531 -0.37908 -0.486 180 133 105
0.637017 -0.43368 -0.556 198 198 188
0.807306 -0.43758 -0.561 208 210 197
0.847911 -0.43758 -0.561 207 209 196
0.875694 -0.43758 -0.561 208 210 196
0.89386 -0.43758 -0.561 206 209 192
0.899203 -0.43758 -0.561 206 209 192
0.900271 -0.43758 -0.561 206 209 192
0.902409 -0.43758 -0.561 205 208 191
0.910957 -0.43758 -0.561 204 207 190
0.9163 -0.43758 -0.561 205 208 191
0.918437 -0.43758 -0.561 204 207 190
0.922711 -0.43758 -0.561 203 206 189
0.926986 -0.43758 -0.561 205 208 191
0.928533 -0.4368 -0.56 205 208 191
0.943467 -0.4368 -0.56 204 207 190
0.947733 -0.4368 -0.56 203 206 189
0.957753 -0.43602 -0.559 204 206 192
0.972267 -0.4368 -0.56 204 207 190
0.978667 -0.4368 -0.56 204 207 190
-0.311006 -0.440994 -0.564 229 230 224
-0.308857 -0.440994 -0.564 229 230 222
-0.295966 -0.440994 -0.564 230 231 225
-0.0222029 -0.319799 -0.409 189 148 116
-0.00349714 -0.319017 -0.408 189 144 113
0.00665429 -0.321363 -0.411 179 134 105
0.0226371 -0.326054 -0.417 160 113 93
0.0478619 -0.341692 -0.437 103 75 71
0.0630562 -0.362022 -0.463 89 69 70
0.06936 -0.372187 -0.476 89 70 66
0.0792057 -0.389389 -0.498 87 71 74
0.496706 -0.391734 -0.501 170 125 102
0.51842 -0.37766 -0.483 181 131 104
0.641434 -0.436303 -0.558 199 200 192
0.807306 -0.438649 -0.561 208 210 197
0.81158 -0.438649 -0.561 209 211 197
0.876267 -0.437867 -0.56 206 208 194
0.886933 -0.437867 -0.56 206 209 192
0.943467 -0.437867 -0.56 204 207 190
0.946667 -0.437867 -0.56 203 206 189
0.950933 -0.437867 -0.56 204 207 190
0.962012 -0.437085 -0.559 204 206 192
0.973333 -0.437867 -0.56 203 205 191
0.988267 -0.437867 -0.56 203 206 189
0.995733 -0.437867 -0.56 203 206 189
1.00533 -0.437867 -0.56 203 205 191
-0.322823 -0.442069 -0.564 228 229 223
-0.28952 -0.442069 -0.564 229 230 224
-0.0229819 -0.320578 -0.409 190 149 117
-0.0135667 -0.31901 -0.407 196 153 121
-0.0127914 -0.31901 -0.407 195 151 122
-0.0104657 -0.31901 -0.407 189 146 114
0.000389524 -0.320578 -0.409 187 142 113
0.00824 -0.32293 -0.412 177 131 105
0.01298 -0.323713 -0.413 168 122 99
0.0333581 -0.330768 -0.422 143 95 83
0.0488057 -0.343309 -0.438 98 74 70
0.0551629 -0.35193 -0.449 92 71 68
0.0668371 -0.369174 -0.471 89 70 72
0.07498 -0.383283 -0.489 90 74 77
0.0793648 -0.391121 -0.499 90 74 75
0.0824057 -0.396608 -0.506 94 84 92
0.496624 -0.391121 -0.499 162 117 94
0.507985 -0.382499 -0.488 179 132 104
0.51304 -0.379364 -0.484 177 128 98
0.5175 -0.37858 -0.483 184 135 105
0.523603 -0.377012 -0.481 170 123 95
0.806933 -0.438933 -0.56 209 211 197
0.872 -0.438933 -0.56 208 211 194
0.8976 -0.438933 -0.56 206 209 192
0.9264 -0.438933 -0.56 204 207 190
0.9328 -0.438933 -0.56 204 207 190
0.944976 -0.43815 -0.559 203 205 191
0.954559 -0.43815 -0.559 203 205 191
0.964142 -0.43815 -0.559 204 206 192
1.0046 -0.43815 -0.559 202 204 190
-0.337264 -0.442357 -0.563 226 227 221
-0.321178 -0.442357 -0.563 229 230 222
-0.309382 -0.442357 -0.563 228 229 221
-0.205361 -0.442357 -0.563 231 232 226
-0.0333257 -0.339429 -0.432 186 147 118
-0.0197686 -0.319786 -0.407 192 152 117
-0.0189933 -0.319786 -0.407 192 152 117
-0.00581429 -0.319786 -0.407 192 147 116
0.00507619 -0.322143 -0.41 181 134 106
0.00587143 -0.322929 -0.411 180 133 105
0.0137667 -0.3245 -0.413 164 118 95
0.0234314 -0.327643 -0.417 157 108 91
0.0563924 -0.355143 -0.452 93 72 69
0.0723695 -0.380286 -0.484 90 71 75
0.0835343 -0.398357 -0.507 103 97 111
0.509394 -0.414857 -0.528 153 115 102
0.5075 -0.4125 -0.525 152 114 101
0.497473 -0.3905 -0.497 176 132 107
0.499243 -0.388929 -0.495 177 131 105
0.50184 -0.386571 -0.492 178 131 105
0.503714 -0.386571 -0.492 174 127 99
0.5054 -0.385 -0.49 178 131 103
0.510405 -0.381071 -0.485 177 127 100
0.522687 -0.377929 -0.481 173 126 98
0.5291 -0.377929 -0.481 169 122 94
0.543121 -0.382643 -0.487 148 112 86
0.645778 -0.439214 -0.559 201 198 191
0.7472 -0.44 -0.56 208 210 197
0.809067 -0.44 -0.56 208 210 197
0.810133 -0.44 -0.56 207 209 196
0.931134 -0.439214 -0.559 204 207 190
0.948171 -0.439214 -0.559 204 206 192
0.960291 -0.438429 -0.558 202 204 190
0.969466 -0.439214 -0.559 203 205 191
-0.337735 -0.442642 -0.562 227 228 220
-0.336665 -0.442642 -0.562 227 228 220
-0.335119 -0.44343 -0.563 228 229 221
-0.328685 -0.44343 -0.563 227 228 220
-0.307762 -0.442642 -0.562 228 229 221
-0.30455 -0.442642 -0.562 229 230 222
-0.297057 -0.442642 -0.562 229 230 224
-0.295441 -0.44343 -0.563 228 229 223
-0.293296 -0.44343 -0.563 228 229 223
-0.290079 -0.44343 -0.563 229 230 222
-0.03294 -0.336313 -0.427 186 147 118
-0.0158533 -0.319773 -0.406 192 152 116
-0.00966667 -0.319773 -0.406 191 148 114
0.0258762 -0.329225 -0.418 151 104 88
0.0450533 -0.341827 -0.434 108 81 74
0.0575067 -0.357579 -0.454 91 70 67
0.0762219 -0.386721 -0.491 91 72 74
0.497526 -0.392234 -0.498 175 129 105
0.50269 -0.386721 -0.491 172 126 100
0.506944 -0.38357 -0.487 179 129 104
0.549267 -0.385933 -0.49 143 106 77
0.864054 -0.440279 -0.559 206 209 192
0.871508 -0.440279 -0.559 206 209 192
0.888544 -0.440279 -0.559 205 207 193
0.889609 -0.440279 -0.559 206 208 194
0.920487 -0.440279 -0.559 204 207 190
0.939652 -0.440279 -0.559 204 206 193
0.944976 -0.440279 -0.559 204 206 192
0.9503 -0.440279 -0.559 204 206 192
0.954559 -0.440279 -0.559 204 206 192
-0.317396 -0.443712 -0.562 228 229 221
-0.298128 -0.443712 -0.562 229 230 224
-0.0205438 -0.321336 -0.407 191 151 116
-0.0119867 -0.320547 -0.406 191 151 115
0.00272667 -0.322915 -0.409 182 139 107
0.00902476 -0.325284 -0.412 176 130 104
0.0169543 -0.326863 -0.414 162 116 93
0.0360238 -0.335548 -0.425 130 94 80
0.0855 -0.405026 -0.513 186 194 217
0.506126 -0.385288 -0.488 183 132 105
0.508557 -0.382919 -0.485 185 135 108
0.51719 -0.379761 -0.481 177 130 102
0.519022 -0.379761 -0.481 179 129 102
0.5216 -0.378971 -0.48 168 121 93
0.543857 -0.383709 -0.486 149 114 84
0.643468 -0.439765 -0.557 196 201 194
0.794845 -0.441344 -0.559 208 210 196
0.798039 -0.441344 -0.559 208 210 197
0.799104 -0.441344 -0.559 208 210 197
0.835937 -0.440554 -0.558 207 209 195
0.843377 -0.440554 -0.558 208 210 196
0.935846 -0.440554 -0.558 204 206 192
-0.333929 -0.443991 -0.561 227 228 220
-0.322749 -0.444783 -0.562 227 228 220
-0.320608 -0.444783 -0.562 228 229 221
-0.31042 -0.443991 -0.561 229 230 222
-0.299734 -0.443991 -0.561 228 229 223
-0.29546 -0.443991 -0.561 228 229 223
-0.284211 -0.444783 -0.562 230 232 221
-0.0268771 -0.323694 -0.409 186 147 114
-0.00812 -0.32132 -0.406 186 143 109
-0.0058 -0.32132 -0.406 186 143 109
0.00507619 -0.324486 -0.41 180 135 104
0.00587143 -0.325277 -0.411 178 133 102
0.0121638 -0.326069 -0.412 167 121 97
0.0234314 -0.330026 -0.417 156 108 88
0.0308733 -0.333191 -0.421 143 100 81
0.0386333 -0.33794 -0.427 121 87 75
0.0423771 -0.341897 -0.432 115 85 75
0.0521286 -0.352186 -0.445 96 72 68
0.0779429 -0.392549 -0.496 88 74 74
0.0824057 -0.400463 -0.506 92 89 108
0.0840286 -0.403629 -0.51 161 158 177
0.507531 -0.414709 -0.524 147 114 99
0.49842 -0.39334 -0.497 176 129 103
0.503437 -0.387009 -0.489 179 129 104
0.506944 -0.385426 -0.487 181 131 104
0.51198 -0.38226 -0.483 180 130 103
0.534597 -0.380677 -0.481 158 117 89
0.544783 -0.384634 -0.486 153 113 87
0.833811 -0.441617 -0.558 208 211 194
0.837 -0.441617 -0.558 207 209 195
0.871011 -0.441617 -0.558 206 209 192
0.872074 -0.441617 -0.558 206 209 192
-0.0293571 -0.32606 -0.411 188 150 113
-0.0260343 -0.32368 -0.408 187 148 115
-0.000388571 -0.32368 -0.408 181 136 103
0.00429524 -0.325267 -0.41 178 133 102
0.00902476 -0.326853 -0.412 170 122 99
0.011379 -0.326853 -0.412 168 122 99
0.0129486 -0.326853 -0.412 166 118 96
0.04914 -0.34986 -0.441 100 76 72
0.0624429 -0.3689 -0.465 88 68 67
0.0874886 -0.41174 -0.519 189 200 230
0.520836 -0.429987 -0.542 129 104 97
0.49979 -0.403807 -0.509 168 126 104
0.498525 -0.395873 -0.499 156 109 83
0.500982 -0.391113 -0.493 180 133 107
0.500903 -0.39032 -0.492 177 130 104
0.503626 -0.389527 -0.491 181 131 106
0.506829 -0.38556 -0.486 182 132 105
0.50843 -0.383973 -0.484 182 132 107
0.509352 -0.383973 -0.484 183 133 108
0.522514 -0.3808 -0.48 173 126 98
0.547759 -0.386353 -0.487 151 112 83
0.759411 -0.44268 -0.558 208 210 197
0.785983 -0.44268 -0.558 209 211 197
0.793423 -0.44268 -0.558 209 211 197
0.797674 -0.44268 -0.558 208 210 197
0.828497 -0.44268 -0.558 208 210 196
0.836561 -0.441887 -0.557 207 209 195
-0.3408 -0.445333 -0.56 225 228 217
-0.328586 -0.446129 -0.561 226 229 222
-0.303467 -0.445333 -0.56 228 229 223
-0.3024 -0.445333 -0.56 227 228 222
-0.296 -0.445333 -0.56 228 229 223
-0.0462343 -0.443743 -0.558 186 150 118
-0.0284352 -0.325252 -0.409 187 148 115
-0.0165857 -0.322071 -0.405 193 150 115
-0.00964286 -0.322071 -0.405 193 150 116
0.00980952 -0.327638 -0.412 168 120 97
0.0209981 -0.330819 -0.416 160 112 90
0.0334371 -0.336386 -0.423 134 91 75
0.03782 -0.339567 -0.427 122 88 76
0.0544286 -0.357857 -0.45 92 71 68
0.518017 -0.427838 -0.538 133 110 102
0.499243 -0.393643 -0.495 177 127 102
0.512756 -0.383305 -0.482 179 129 102
0.514441 -0.38251 -0.481 180 130 103
0.519771 -0.381714 -0.48 178 131 103
0.53643 -0.38251 -0.481 156 115 87
0.643271 -0.441357 -0.555 195 198 189
0.649937 -0.443743 -0.558 201 201 193
0.653126 -0.443743 -0.558 202 202 194
0.840805 -0.442948 -0.557 208 211 194
0.848231 -0.442948 -0.557 207 210 193
0.860963 -0.442948 -0.557 207 209 195
0.865207 -0.442948 -0.557 207 209 195
-0.00964286 -0.322843 -0.405 190 147 113
0.00507619 -0.326829 -0.41 175 130 101
0.0066381 -0.326829 -0.41 174 129 100
0.0275343 -0.334003 -0.419 147 102 83
0.0284 -0.3348 -0.42 145 100 81
0.0317505 -0.336394 -0.422 139 96 80
0.0768429 -0.394586 -0.495 87 76 72
0.5133 -0.423283 -0.531 135 108 97
0.502741 -0.409731 -0.514 157 116 96
0.498571 -0.398571 -0.5 172 124 101
0.504369 -0.389803 -0.489 179 132 104
0.505903 -0.387411 -0.486 181 134 106
0.505786 -0.386614 -0.485 182 135 107
0.732588 -0.444009 -0.557 209 211 200
0.760172 -0.444009 -0.557 208 210 197
-0.332267 -0.447467 -0.56 226 229 220
-0.308249 -0.446668 -0.559 229 230 224
-0.298133 -0.447467 -0.56 228 229 223
-0.0308476 -0.32761 -0.41 184 146 107
-0.0157752 -0.322815 -0.404 192 152 116
-0.0119571 -0.323614 -0.405 189 149 114
0.00585714 -0.32761 -0.41 173 127 101
0.05032 -0.354777 -0.444 94 73 72
0.0565171 -0.361969 -0.453 89 69 70
0.0623086 -0.370758 -0.464 87 68 70
0.0647667 -0.374753 -0.469 85 69 70
0.0685971 -0.381146 -0.477 82 70 72
0.0769981 -0.396328 -0.496 88 77 75
0.499367 -0.397127 -0.497 174 127 101
0.50671 -0.387538 -0.485 187 137 110
0.511692 -0.384342 -0.481 181 132 102
0.513525 -0.384342 -0.481 179 130 100
0.5152 -0.383543 -0.48 178 129 99
0.531263 -0.381945 -0.478 161 117 88
0.640846 -0.441074 -0.552 198 195 186
0.793756 -0.44427 -0.556 208 210 197
0.838236 -0.44427 -0.556 207 209 195
-0.32635 -0.447732 -0.559 226 229 220
-0.303446 -0.446931 -0.558 227 228 220
-0.295471 -0.447732 -0.559 228 229 223
-0.283759 -0.447732 -0.559 229 230 224
-0.0345514 -0.333997 -0.417 187 148 115
-0.0282962 -0.325988 -0.407 189 146 112
-0.0235286 -0.324386 -0.405 191 148 114
-0.00348857 -0.325988 -0.407 183 136 110
0.00585714 -0.32839 -0.41 172 125 99
0.0105686 -0.329191 -0.411 171 124 96
0.0145533 -0.330793 -0.413 163 117 91
0.0292695 -0.337201 -0.421 142 99 82
0.0309467 -0.338002 -0.422 139 97 81
0.0414581 -0.34521 -0.431 109 80 74
0.0769981 -0.397272 -0.496 89 77 77
0.498571 -0.400476 -0.5 172 126 100
0.504977 -0.389263 -0.486 184 134 107
0.5083 -0.38686 -0.483 180 131 101
0.50986 -0.385258 -0.481 180 130 103
0.513525 -0.385258 -0.481 179 130 100
0.532173 -0.382855 -0.478 164 119 88
0.645278 -0.443728 -0.554 202 198 189
0.648557 -0.444529 -0.555 198 200 189
0.758808 -0.44533 -0.556 209 211 200
0.830823 -0.44533 -0.556 208 210 197
-0.333803 -0.448797 -0.559 225 228 219
-0.32422 -0.448797 -0.559 227 228 220
-0.306634 -0.447994 -0.558 227 228 220
-0.00502667 -0.32596 -0.406 181 135 102
-0.00116286 -0.326763 -0.407 179 132 104
0.000388571 -0.327566 -0.408 177 130 102
0.00898095 -0.329171 -0.41 171 125 99
0.0209981 -0.333989 -0.416 162 116 92
0.0387238 -0.343623 -0.428 116 83 74
0.0601495 -0.370117 -0.461 86 68 66
0.0700886 -0.386174 -0.481 80 73 81
0.49968 -0.40464 -0.504 168 124 97
0.499647 -0.403837 -0.503 168 124 97
0.498614 -0.402231 -0.501 172 126 100
0.505786 -0.389386 -0.485 182 132 107
0.5152 -0.385371 -0.48 179 129 102
0.517776 -0.384569 -0.479 177 130 100
0.521066 -0.382963 -0.477 178 129 99
0.531969 -0.382963 -0.477 162 116 83
0.618052 -0.429529 -0.535 180 169 151
0.741586 -0.445586 -0.555 209 211 198
-0.338974 -0.448252 -0.557 224 227 218
-0.305024 -0.448252 -0.557 227 228 220
-0.282189 -0.449057 -0.558 228 229 221
-0.273686 -0.449057 -0.558 229 231 220
-0.0234705 -0.325124 -0.404 188 146 108
-0.022701 -0.325124 -0.404 188 146 108
-0.0142362 -0.325124 -0.404 192 149 114
-0.0103886 -0.325124 -0.404 189 145 110
0.0193667 -0.333976 -0.415 162 114 91
0.0414581 -0.346852 -0.431 109 79 71
0.517167 -0.430548 -0.535 135 108 99
0.502727 -0.411233 -0.511 167 123 98
0.503233 -0.391919 -0.487 181 134 106
0.50986 -0.38709 -0.481 178 129 99
0.512302 -0.385481 -0.479 178 133 100
0.55974 -0.395138 -0.491 144 109 81
0.640619 -0.442619 -0.55 203 200 191
0.739471 -0.446643 -0.555 208 210 197
0.755329 -0.446643 -0.555 208 210 199
0.7881 -0.446643 -0.555 208 210 197
0.7955 -0.446643 -0.555 209 211 200
1.03269 -0.459519 -0.571 121 124 117
-0.322577 -0.45012 -0.558 227 228 220
-0.317263 -0.45012 -0.558 227 228 220
-0.313511 -0.449313 -0.557 228 229 223
-0.307146 -0.449313 -0.557 227 228 222
-0.303963 -0.449313 -0.557 227 228 220
-0.293353 -0.449313 -0.557 228 229 221
-0.0535781 -0.449313 -0.557 187 149 113
-0.0525171 -0.449313 -0.557 187 149 113
-0.0350914 -0.33396 -0.414 187 147 111
-0.0298467 -0.328313 -0.407 187 148 109
-0.0211619 -0.325893 -0.404 186 142 105
-0.0126657 -0.325087 -0.403 190 146 109
-0.0119276 -0.325893 -0.404 189 145 108
-0.00116286 -0.328313 -0.407 179 132 102
0.00741905 -0.330733 -0.41 169 122 94
0.0145533 -0.333153 -0.413 167 120 94
0.0169543 -0.33396 -0.414 165 117 94
0.0396314 -0.34606 -0.429 115 81 72
0.0614248 -0.374293 -0.464 87 69 69
0.0676886 -0.38478 -0.477 87 71 72
0.502714 -0.4114 -0.51 163 122 92
0.499609 -0.404947 -0.502 171 127 100
0.499175 -0.398493 -0.494 179 133 107
0.518516 -0.385587 -0.478 179 133 100
0.534694 -0.38478 -0.477 165 120 89
0.539673 -0.386393 -0.479 158 115 83
0.545808 -0.388813 -0.482 158 114 85
0.638289 -0.442053 -0.548 201 199 187
0.65161 -0.446893 -0.554 201 201 191
0.6845 -0.4477 -0.555 206 208 197
-0.335791 -0.450374 -0.557 224 227 218
-0.307653 -0.449566 -0.556 227 228 220
-0.294414 -0.450374 -0.557 228 229 223
-0.275317 -0.450374 -0.557 229 230 222
-0.24455 -0.450374 -0.557 229 231 220
-0.190441 -0.450374 -0.557 231 232 226
-0.056659 -0.449566 -0.556 185 149 117
-0.0556 -0.449566 -0.556 191 152 119
-0.0188067 -0.325854 -0.403 185 141 104
-0.00270667 -0.32828 -0.406 181 134 104
0.0121638 -0.333131 -0.412 164 117 91
0.0201571 -0.335557 -0.415 156 108 85
0.0343238 -0.342834 -0.424 128 88 78
0.03692 -0.344451 -0.426 124 87 79
0.0387238 -0.346069 -0.428 118 83 77
0.0557771 -0.367091 -0.454 88 68 67
0.0732667 -0.3962 -0.49 93 75 75
0.0790429 -0.406711 -0.503 92 86 96
0.50568 -0.417223 -0.516 161 119 97
0.501574 -0.395391 -0.489 184 137 109
0.502408 -0.394583 -0.488 174 127 97
0.504862 -0.392157 -0.485 178 131 101
0.508028 -0.388923 -0.481 176 129 99
0.512302 -0.387306 -0.479 175 131 96
0.521787 -0.38488 -0.476 174 125 95
0.535603 -0.385689 -0.477 164 121 89
0.551976 -0.392157 -0.485 153 113 78
0.752912 -0.447949 -0.554 208 210 199
0.753968 -0.447949 -0.554 209 211 200
0.756078 -0.447949 -0.554 209 211 200
0.978771 -0.460886 -0.57 140 137 128
0.994191 -0.462503 -0.572 113 115 114
-0.319877 -0.451435 -0.557 227 228 220
-0.26789 -0.451435 -0.557 229 231 220
-0.0509943 -0.447383 -0.552 185 147 111
-0.02418 -0.326622 -0.403 185 145 109
-0.0203419 -0.326622 -0.403 187 145 107
-0.0165038 -0.326622 -0.403 188 146 108
-0.0118981 -0.326622 -0.403 187 143 108
-0.0103629 -0.326622 -0.403 186 141 108
-0.00501429 -0.328243 -0.405 183 136 106
0.0066219 -0.331485 -0.409 169 122 96
0.0082 -0.332295 -0.41 172 125 99
0.0145533 -0.334727 -0.413 162 115 89
0.0193667 -0.336348 -0.415 157 109 86
0.0568914 -0.369577 -0.456 88 70 68
0.0592714 -0.37363 -0.461 89 71 69
0.0718905 -0.394702 -0.487 86 70 70
0.50568 -0.418206 -0.516 158 117 95
0.499243 -0.401186 -0.495 174 130 103
0.499966 -0.398754 -0.492 180 135 106
0.501574 -0.396323 -0.489 183 136 108
0.514874 -0.387408 -0.478 179 135 100
0.516695 -0.387408 -0.478 176 130 97
0.517431 -0.386597 -0.477 175 129 96
0.519973 -0.385787 -0.476 172 126 93
0.5497 -0.39146 -0.483 155 115 80
0.645982 -0.446572 -0.551 200 200 190
0.654775 -0.449004 -0.554 201 203 192
0.65583 -0.449004 -0.554 201 203 192
0.684322 -0.449004 -0.554 206 208 195
0.692764 -0.449004 -0.554 205 207 194
0.976758 -0.463592 -0.572 127 123 111
0.978937 -0.463592 -0.572 121 121 113
0.987357 -0.466024 -0.575 115 116 110
0.992452 -0.462782 -0.571 110 114 113
1.00204 -0.465213 -0.574 111 113 110
-0.329893 -0.451684 -0.556 226 227 219
-0.312949 -0.451684 -0.556 227 228 220
-0.309771 -0.451684 -0.556 227 228 220
-0.308712 -0.451684 -0.556 227 228 220
-0.304986 -0.450871 -0.555 227 228 220
-0.2997 -0.450871 -0.555 227 228 220
-0.296529 -0.450871 -0.555 227 228 222
-0.290709 -0.451684 -0.556 228 229 223
-0.26635 -0.451684 -0.556 229 231 220
-0.252583 -0.451684 -0.556 229 230 222
-0.249406 -0.451684 -0.556 228 229 221
-0.14456 -0.451684 -0.556 234 235 229
-0.0347524 -0.333076 -0.41 187 147 112
-0.0111305 -0.32739 -0.403 185 140 107
0.0137667 -0.335513 -0.413 162 115 89
0.0193667 -0.337138 -0.415 156 108 85
0.0201571 -0.337138 -0.415 155 107 84
0.0258762 -0.339575 -0.418 145 100 79
0.0308733 -0.342012 -0.421 133 91 75
0.0396314 -0.348511 -0.429 112 79 70
0.0525971 -0.364759 -0.449 88 69 63
0.0547914 -0.368009 -0.453 88 69 63
0.518186 -0.434624 -0.535 124 106 96
0.513417 -0.428937 -0.528 135 107 96
0.501663 -0.411065 -0.506 164 123 101
0.499307 -0.402941 -0.496 172 128 99
0.510322 -0.388318 -0.478 178 132 99
0.519973 -0.386693 -0.476 174 127 97
0.65254 -0.449247 -0.553 200 200 190
1.00553 -0.467931 -0.576 110 111 106
1.00838 -0.468744 -0.577 111 111 109
-0.336093 -0.451114 -0.554 225 226 218
-0.318729 -0.451929 -0.555 227 228 222
-0.304986 -0.451929 -0.555 227 228 220
-0.287014 -0.451929 -0.555 229 230 222
-0.273271 -0.451929 -0.555 228 229 221
-0.25576 -0.452743 -0.556 229 230 222
-0.250465 -0.452743 -0.556 227 228 220
-0.249406 -0.452743 -0.556 228 229 221
-0.0564552 -0.451114 -0.554 183 141 116
-0.0346676 -0.333043 -0.409 187 144 110
-0.0329476 -0.331414 -0.407 188 148 113
-0.0280876 -0.328971 -0.404 182 139 104
-0.0264829 -0.328157 -0.403 183 140 106
-0.0149314 -0.327343 -0.402 182 139 105
-0.000387619 -0.331414 -0.407 176 129 99
0.00584286 -0.333043 -0.409 172 125 97
0.0258762 -0.340371 -0.418 143 97 81
0.0292 -0.342 -0.42 138 96 80
0.0444305 -0.355029 -0.436 102 77 70
0.0681143 -0.390857 -0.48 87 69 69
0.0809552 -0.414471 -0.509 158 169 191
0.0825686 -0.417729 -0.513 148 159 181
0.51439 -0.430757 -0.529 135 106 98
0.502306 -0.396557 -0.487 177 133 104
0.50462 -0.3933 -0.483 178 131 101
0.507886 -0.390857 -0.48 178 131 101
0.511232 -0.389229 -0.478 175 129 96
0.513964 -0.389229 -0.478 178 133 100
0.519786 -0.386786 -0.475 171 126 95
0.521595 -0.386786 -0.475 170 125 94
0.534262 -0.386786 -0.475 167 122 89
0.654647 -0.4503 -0.553 201 201 191
0.66202 -0.4503 -0.553 202 204 193
0.998767 -0.4731 -0.581 110 110 108
-0.304436 -0.45217 -0.554 227 228 220
-0.298643 -0.452986 -0.555 226 227 219
-0.269043 -0.452986 -0.555 229 230 224
-0.264814 -0.452986 -0.555 229 230 224
-0.263757 -0.452986 -0.555 228 229 223
-0.245786 -0.452986 -0.555 229 230 222
-0.0264829 -0.328925 -0.403 184 144 108
-0.0226448 -0.328925 -0.403 189 146 111
-0.00424286 -0.330557 -0.405 182 136 103
0.000387619 -0.33219 -0.407 175 128 98
0.0137667 -0.337087 -0.413 161 114 88
0.060541 -0.378712 -0.464 88 70 68
0.0827295 -0.419522 -0.514 137 151 178
0.0958571 -0.448905 -0.55 180 204 238
0.530446 -0.450537 -0.552 123 98 91
0.499423 -0.406463 -0.498 169 125 98
0.5022 -0.396669 -0.486 179 134 103
0.507886 -0.391771 -0.48 176 131 98
0.525011 -0.386874 -0.474 169 123 90
0.529526 -0.386874 -0.474 166 121 88
0.530429 -0.386874 -0.474 166 121 88
0.55246 -0.39422 -0.483 146 111 79
-0.32343 -0.453225 -0.554 225 226 220
-0.313933 -0.453225 -0.554 228 229 223
-0.304436 -0.453225 -0.554 227 228 220
-0.298105 -0.453225 -0.554 227 228 220
-0.269043 -0.454043 -0.555 229 230 224
-0.264337 -0.453225 -0.554 229 230 224
-0.260586 -0.454043 -0.555 228 229 223
-0.055 -0.449952 -0.55 170 130 95
-0.03536 -0.333783 -0.408 190 147 113
-0.0264829 -0.329692 -0.403 189 146 111
-0.00116 -0.332147 -0.406 175 130 97
0.0193667 -0.33951 -0.415 154 106 84
0.0326314 -0.346054 -0.423 129 89 79
0.0334371 -0.346054 -0.423 128 88 78
0.0494743 -0.363234 -0.444 94 70 66
0.0657333 -0.389413 -0.476 84 70 69
0.500549 -0.39923 -0.488 177 133 104
0.503821 -0.395958 -0.484 181 136 105
0.5037 -0.39514 -0.483 180 135 104
0.506057 -0.392686 -0.48 178 131 101
0.511232 -0.39105 -0.478 174 129 96
0.546972 -0.391868 -0.479 151 112 81
-0.335487 -0.45346 -0.553 225 226 218
-0.316044 -0.45428 -0.554 227 228 222
-0.260116 -0.45428 -0.554 229 230 224
-0.259061 -0.45428 -0.554 229 230 224
-0.25484 -0.45428 -0.554 228 229 223
-0.245343 -0.45428 -0.554 230 231 225
-0.243232 -0.45428 -0.554 229 230 224
-0.220017 -0.45428 -0.554 230 231 225
-0.217907 -0.45428 -0.554 229 230 222
-0.0225886 -0.32964 -0.402 193 148 115
-0.0141657 -0.32964 -0.402 183 138 105
-0.0118686 -0.32964 -0.402 188 143 110
-0.0111305 -0.33046 -0.403 185 140 107
-0.0027 -0.3321 -0.405 177 132 99
-0.00193333 -0.33292 -0.406 176 131 98
0.0153771 -0.33948 -0.414 157 110 84
0.0258762 -0.34276 -0.418 137 93 80
0.0275343 -0.34358 -0.419 138 94 81
0.0308733 -0.34522 -0.421 130 90 78
0.0352143 -0.3485 -0.425 121 84 76
0.0608019 -0.38212 -0.466 87 69 67
0.0711086 -0.40016 -0.488 79 68 66
0.07526 -0.40754 -0.497 88 78 79
0.529571 -0.451 -0.55 114 99 92
0.511524 -0.42968 -0.524 136 106 95
0.505279 -0.39442 -0.481 177 132 101
0.537651 -0.38868 -0.474 159 114 81
0.64782 -0.45018 -0.549 199 201 190
-0.31758 -0.454513 -0.553 226 227 221
-0.302833 -0.454513 -0.553 226 227 219
-0.28598 -0.454513 -0.553 229 230 224
-0.259061 -0.455335 -0.554 229 230 224
-0.229514 -0.455335 -0.554 229 230 224
-0.0210571 -0.330406 -0.402 192 147 114
-0.0141657 -0.330406 -0.402 184 139 106
-0.00347143 -0.332871 -0.405 178 132 99
0.00116286 -0.334515 -0.407 173 127 94
0.00427429 -0.335337 -0.408 172 126 93
0.00741905 -0.336981 -0.41 166 119 89
0.0234314 -0.342734 -0.417 138 94 81
0.0425733 -0.356707 -0.434 107 78 72
0.0436 -0.35835 -0.436 104 75 69
0.0799857 -0.41835 -0.509 160 163 182
0.0832124 -0.424925 -0.517 108 130 171
0.501563 -0.413418 -0.503 167 122 103
0.500643 -0.401911 -0.489 177 136 108
0.511071 -0.392049 -0.477 178 132 99
-0.331726 -0.454743 -0.552 224 225 219
-0.321211 -0.454743 -0.552 226 227 221
-0.32016 -0.454743 -0.552 226 227 221
-0.300183 -0.454743 -0.552 227 228 222
-0.294407 -0.455567 -0.553 229 230 224
-0.27966 -0.455567 -0.553 228 229 223
-0.255433 -0.455567 -0.553 228 229 221
-0.20698 -0.455567 -0.553 230 231 225
-0.183807 -0.455567 -0.553 232 233 227
-0.1817 -0.455567 -0.553 232 233 227
-0.0626733 -0.455567 -0.553 190 160 134
-0.06162 -0.455567 -0.553 185 155 129
-0.0405133 -0.340233 -0.413 187 144 112
-0.0343286 -0.333643 -0.405 186 143 111
-0.0217686 -0.330348 -0.401 192 149 115
-0.0194771 -0.330348 -0.401 185 142 108
-0.0171857 -0.330348 -0.401 185 142 108
0.0105686 -0.338586 -0.411 160 113 87
0.0129486 -0.33941 -0.412 157 109 86
0.0275343 -0.345176 -0.419 136 94 82
0.0741638 -0.40861 -0.496 94 78 81
0.511524 -0.431676 -0.524 143 107 91
0.502654 -0.417671 -0.507 156 114 98
0.500426 -0.411081 -0.499 166 121 98
0.499885 -0.40449 -0.491 174 132 107
0.505279 -0.396252 -0.481 179 134 105
0.513452 -0.39131 -0.475 181 134 104
0.655286 -0.453095 -0.55 200 200 190
0.864093 -0.466276 -0.566 125 122 113
-0.32016 -0.455794 -0.552 226 227 221
-0.319109 -0.455794 -0.552 226 227 221
-0.318057 -0.455794 -0.552 226 227 221
-0.289669 -0.455794 -0.552 228 229 223
-0.281257 -0.455794 -0.552 228 229 223
-0.279154 -0.455794 -0.552 227 228 222
-0.261753 -0.45662 -0.553 227 228 222
-0.259647 -0.45662 -0.553 228 229 223
-0.249113 -0.45662 -0.553 228 229 221
-0.24806 -0.45662 -0.553 228 229 221
-0.23858 -0.45662 -0.553 228 229 223
-0.233313 -0.45662 -0.553 229 230 224
-0.21962 -0.45662 -0.553 230 231 225
-0.0431057 -0.349277 -0.423 190 143 115
-0.0319352 -0.333589 -0.404 182 139 107
-0.0271152 -0.331111 -0.401 189 146 112
-0.0248238 -0.331111 -0.401 190 147 113
-0.0141657 -0.331937 -0.402 184 139 106
0.0019381 -0.336066 -0.407 170 123 93
0.00348857 -0.336066 -0.407 172 123 93
0.00505143 -0.336891 -0.408 169 119 92
0.00584286 -0.337717 -0.409 169 119 92
0.01534 -0.34102 -0.413 157 109 87
0.0573905 -0.379829 -0.46 88 70 68
0.4998 -0.4046 -0.49 174 134 108
0.510907 -0.39304 -0.476 179 133 100
0.519399 -0.390563 -0.473 177 130 100
0.524594 -0.389737 -0.472 171 124 94
0.533585 -0.389737 -0.472 163 119 84
0.538319 -0.390563 -0.473 158 118 83
0.64532 -0.45084 -0.546 198 200 189
0.647544 -0.451666 -0.547 198 200 189
-0.332174 -0.456018 -0.551 225 226 220
-0.330075 -0.456018 -0.551 225 226 220
-0.306986 -0.456018 -0.551 227 228 222
-0.26864 -0.456846 -0.552 227 228 222
-0.263383 -0.456846 -0.552 228 229 223
-0.262331 -0.456846 -0.552 227 228 222
-0.236046 -0.456846 -0.552 228 229 221
-0.205554 -0.456846 -0.552 228 229 223
-0.06256 -0.456846 -0.552 187 153 125
-0.0405133 -0.341807 -0.413 186 142 113
-0.0232962 -0.331875 -0.401 192 147 116
-0.00577143 -0.334358 -0.404 179 132 102
0.00116 -0.336013 -0.406 173 124 94
0.00427429 -0.337669 -0.408 169 119 92
0.0398162 -0.356704 -0.431 110 77 68
0.0507733 -0.370773 -0.448 90 70 69
0.0648267 -0.393947 -0.476 85 69 69
0.0729238 -0.408844 -0.494 83 72 70
0.515397 -0.43781 -0.529 127 102 98
0.502657 -0.398912 -0.482 179 134 105
0.503447 -0.398085 -0.481 180 135 106
0.504229 -0.397257 -0.48 179 134 103
0.511643 -0.393119 -0.475 180 133 103
0.514357 -0.393119 -0.475 177 130 100
0.518691 -0.392291 -0.474 175 128 98
0.528866 -0.389809 -0.471 167 122 89
0.531557 -0.389809 -0.471 165 121 86
0.642956 -0.450225 -0.544 198 200 189
0.84834 -0.46926 -0.567 120 120 112
0.866506 -0.470915 -0.569 119 119 109
-0.331125 -0.457068 -0.551 226 227 221
-0.315857 -0.456238 -0.55 226 227 221
-0.303837 -0.457068 -0.551 227 228 222
-0.285995 -0.457068 -0.551 227 228 223
-0.284946 -0.457068 -0.551 228 229 224
-0.281797 -0.457068 -0.551 228 229 224
-0.258126 -0.457897 -0.552 228 229 221
-0.0613971 -0.457068 -0.551 193 149 120
-0.0424943 -0.345911 -0.417 187 146 116
-0.0294067 -0.332639 -0.401 186 141 108
-0.00806 -0.334298 -0.403 179 132 102
0.0417467 -0.360013 -0.434 103 75 72
0.0446343 -0.363331 -0.438 95 74 73
0.0508867 -0.372456 -0.449 91 71 70
0.0587733 -0.384899 -0.464 89 71 71
0.0636514 -0.393194 -0.474 85 69 69
0.521091 -0.446284 -0.538 125 100 95
0.502627 -0.419739 -0.506 153 114 97
0.501563 -0.41725 -0.503 159 118 100
0.500426 -0.413932 -0.499 162 121 99
0.499523 -0.403978 -0.487 175 134 106
0.503447 -0.399001 -0.481 180 135 104
0.504229 -0.398171 -0.48 178 133 102
0.508187 -0.394853 -0.476 175 130 97
0.511643 -0.394024 -0.475 180 133 103
0.523483 -0.390706 -0.471 171 125 92
0.525057 -0.389876 -0.47 169 124 91
0.531557 -0.390706 -0.471 166 122 87
0.549231 -0.395683 -0.477 154 113 83
0.8397 -0.47034 -0.567 122 122 114
0.84186 -0.47034 -0.567 118 118 110
0.863686 -0.472829 -0.57 113 114 106
0.878054 -0.475317 -0.573 121 121 113
-0.330524 -0.457286 -0.55 225 226 220
-0.300143 -0.457286 -0.55 227 228 222
-0.283381 -0.457286 -0.55 229 230 224
-0.272351 -0.458117 -0.551 226 227 219
-0.256609 -0.458117 -0.551 228 229 221
-0.25346 -0.458117 -0.551 229 230 222
-0.0634962 -0.458117 -0.551 185 151 126
-0.0601286 -0.456454 -0.549 189 146 114
-0.0422905 -0.345043 -0.415 188 148 113
-0.0383743 -0.338391 -0.407 184 143 111
-0.0309343 -0.333403 -0.401 179 136 101
-0.0247619 -0.332571 -0.4 189 146 112
-0.0103371 -0.334234 -0.402 178 132 99
-0.0027 -0.336729 -0.405 177 128 98
0.000386667 -0.33756 -0.406 174 124 97
0.00348857 -0.338391 -0.407 170 123 93
0.0121638 -0.342549 -0.412 158 110 87
0.01298 -0.34338 -0.413 157 109 86
0.0209981 -0.345874 -0.416 140 94 78
0.0600429 -0.388277 -0.467 87 71 71
0.0703229 -0.406569 -0.489 82 66 69
0.504657 -0.424029 -0.51 146 113 96
0.499175 -0.410726 -0.494 161 125 99
0.498867 -0.4074 -0.49 170 131 102
0.50186 -0.40158 -0.483 179 135 106
0.507437 -0.396591 -0.477 178 133 100
0.526848 -0.390771 -0.47 169 124 91
0.534249 -0.391603 -0.471 157 112 79
0.825282 -0.470589 -0.566 120 120 112
0.829205 -0.469757 -0.565 113 113 105
0.837935 -0.472251 -0.568 117 116 111
0.848081 -0.473083 -0.569 118 118 110
0.854325 -0.474746 -0.571 116 117 109
0.858675 -0.474746 -0.571 121 122 114
0.887481 -0.479734 -0.577 120 120 112
-0.333667 -0.458333 -0.55 225 226 220
-0.332619 -0.458333 -0.55 225 226 220
-0.325286 -0.458333 -0.55 225 226 218
-0.304333 -0.458333 -0.55 227 228 220
-0.302238 -0.458333 -0.55 226 227 221
-0.288619 -0.458333 -0.55 226 227 221
-0.287571 -0.458333 -0.55 226 227 221
-0.27919 -0.458333 -0.55 228 229 223
-0.269762 -0.458333 -0.55 227 228 220
-0.256609 -0.459167 -0.551 228 229 221
-0.25451 -0.459167 -0.551 228 229 221
-0.25346 -0.459167 -0.551 229 230 222
-0.250905 -0.458333 -0.55 228 229 221
-0.207281 -0.459167 -0.551 230 231 225
-0.189439 -0.459167 -0.551 230 231 223
-0.18839 -0.459167 -0.551 231 232 224
-0.063381 -0.458333 -0.55 184 148 122
-0.0316981 -0.334167 -0.401 183 140 106
-0.0293333 -0.333333 -0.4 187 144 110
-0.0224762 -0.333333 -0.4 187 142 109
-0.0050019 -0.336667 -0.404 173 126 98
0.0121638 -0.343333 -0.412 161 111 86
0.0217905 -0.346667 -0.416 143 97 84
0.0284 -0.35 -0.42 128 90 81
0.0344048 -0.354167 -0.425 115 81 72
0.0531829 -0.378333 -0.454 91 72 68
0.0565143 -0.383333 -0.46 89 70 66
0.05764 -0.385 -0.462 89 71 69
0.0662857 -0.4 -0.48 84 70 70
0.5249 -0.4525 -0.543 120 97 91
0.50362 -0.4225 -0.507 152 115 97
0.500349 -0.405 -0.486 172 131 103
0.50186 -0.4025 -0.483 180 136 107
0.50668 -0.398333 -0.478 179 134 103
0.510738 -0.395833 -0.475 179 132 102
0.512548 -0.395833 -0.475 175 128 98
0.513452 -0.395833 -0.475 174 127 97
0.533114 -0.391667 -0.47 159 114 83
0.8127 -0.4725 -0.567 103 102 98
0.82458 -0.4725 -0.567 120 119 114
0.849974 -0.475833 -0.571 118 119 111
0.855821 -0.476667 -0.572 113 112 107
-0.315283 -0.458546 -0.549 225 226 218
-0.3111 -0.458546 -0.549 227 228 220
-0.29281 -0.459381 -0.55 226 227 221
-0.277095 -0.459381 -0.55 225 226 220
-0.237286 -0.459381 -0.55 228 229 221
-0.0610629 -0.45771 -0.548 189 145 116
-0.0316981 -0.33493 -0.401 186 143 109
-0.0300952 -0.334095 -0.4 187 144 110
-0.0262857 -0.334095 -0.4 190 147 113
-0.0255238 -0.334095 -0.4 190 147 113
-0.011839 -0.33493 -0.401 179 133 100
-0.00957143 -0.335766 -0.402 177 130 100
0.0019381 -0.339942 -0.407 169 122 92
0.00505143 -0.340777 -0.408 169 119 92
0.0082 -0.342448 -0.41 165 115 88
0.00898095 -0.342448 -0.41 164 114 87
0.0105686 -0.343283 -0.411 163 113 88
0.0129486 -0.344118 -0.412 157 109 86
0.0161657 -0.345789 -0.414 152 105 85
0.0226371 -0.348294 -0.417 141 95 80
0.0408257 -0.361658 -0.433 101 77 65
0.506657 -0.429312 -0.514 137 108 94
0.499029 -0.410937 -0.492 165 128 102
0.514894 -0.395068 -0.473 172 125 95
0.523483 -0.393397 -0.471 174 128 95
0.5293 -0.391727 -0.469 168 121 91
0.544626 -0.395068 -0.473 147 111 79
0.815567 -0.47525 -0.569 100 99 95
0.81665 -0.47525 -0.569 100 99 95
0.817734 -0.47525 -0.569 100 99 95
0.821707 -0.474415 -0.568 118 117 112
-0.314237 -0.459591 -0.549 226 227 219
-0.312146 -0.459591 -0.549 226 227 219
-0.305871 -0.459591 -0.549 226 227 219
-0.28235 -0.458754 -0.548 227 228 220
-0.262997 -0.459591 -0.549 228 229 221
-0.250449 -0.459591 -0.549 226 228 217
-0.246714 -0.460429 -0.55 228 229 221
-0.244619 -0.460429 -0.55 229 230 222
-0.240429 -0.460429 -0.55 227 228 220
-0.232048 -0.460429 -0.55 227 228 220
-0.228905 -0.460429 -0.55 228 229 221
-0.21319 -0.460429 -0.55 230 231 225
-0.197476 -0.460429 -0.55 230 231 225
-0.175476 -0.460429 -0.55 231 232 226
-0.166048 -0.460429 -0.55 231 232 226
-0.0399248 -0.340717 -0.407 182 139 105
-0.0381857 -0.339043 -0.405 184 141 107
-0.0364619 -0.337369 -0.403 184 141 107
-0.0340743 -0.336531 -0.402 187 144 110
-0.0308571 -0.334857 -0.4 185 145 110
-0.0300952 -0.334857 -0.4 185 145 110
-0.0042219 -0.337369 -0.403 170 123 95
0.0082 -0.343229 -0.41 164 114 89
0.0121638 -0.344903 -0.412 158 110 87
0.0129486 -0.344903 -0.412 156 108 85
0.0209981 -0.348251 -0.416 139 96 79
0.03718 -0.359134 -0.429 109 82 75
0.0566371 -0.385923 -0.461 87 69 65
0.0577648 -0.387597 -0.463 87 69 67
0.0679 -0.406014 -0.485 84 70 70
0.50863 -0.432803 -0.517 140 106 94
0.50362 -0.424431 -0.507 150 114 98
0.501429 -0.418571 -0.5 158 121 95
0.500116 -0.413549 -0.494 162 123 94
0.499523 -0.407689 -0.487 173 129 102
0.50094 -0.40434 -0.483 171 127 98
0.50577 -0.400154 -0.478 181 136 105
0.511469 -0.396806 -0.474 177 130 100
0.525727 -0.39262 -0.469 168 123 90
0.530193 -0.39262 -0.469 167 122 89
0.822784 -0.478009 -0.571 99 98 94
0.850067 -0.48052 -0.574 123 124 118
-0.329923 -0.460637 -0.549 225 226 218
-0.302734 -0.460637 -0.549 227 228 222
-0.290701 -0.459798 -0.548 226 227 219
-0.288613 -0.459798 -0.548 226 227 219
-0.271363 -0.460637 -0.549 227 228 222
-0.264043 -0.460637 -0.549 227 228 220
-0.244174 -0.460637 -0.549 228 229 223
-0.2379 -0.460637 -0.549 227 228 220
-0.233717 -0.460637 -0.549 228 229 223
-0.0339895 -0.336458 -0.401 183 143 107
-0.0217143 -0.335619 -0.4 184 141 106
-0.0140952 -0.335619 -0.4 183 139 104
0.00116 -0.340653 -0.406 169 122 94
0.00348857 -0.341492 -0.407 166 119 91
0.0113514 -0.344849 -0.411 158 111 85
0.0177429 -0.347366 -0.414 149 104 85
0.0185762 -0.348205 -0.415 145 102 83
0.0362781 -0.359112 -0.428 110 81 75
0.0533 -0.381767 -0.455 89 69 68
0.507643 -0.43211 -0.515 138 106 91
0.499423 -0.407777 -0.486 171 127 100
0.506529 -0.400226 -0.477 176 129 99
0.514894 -0.39687 -0.473 177 131 98
0.523267 -0.394352 -0.47 174 128 95
0.524162 -0.394352 -0.47 172 126 93
0.528407 -0.393513 -0.469 171 125 92
0.557009 -0.401904 -0.479 150 109 79
0.65468 -0.45812 -0.546 189 190 182
0.828583 -0.479935 -0.572 118 117 112
0.843129 -0.480774 -0.573 117 118 110
0.860709 -0.483291 -0.576 91 92 87
0.862903 -0.483291 -0.576 89 89 87
0.867698 -0.48413 -0.577 95 95 93
0.870167 -0.482452 -0.575 128 129 124
-0.268781 -0.460842 -0.548 228 229 223
-0.262518 -0.460842 -0.548 227 228 220
-0.24522 -0.461683 -0.549 227 228 220
-0.203391 -0.461683 -0.549 229 230 224
-0.196071 -0.461683 -0.549 229 230 222
-0.182477 -0.461683 -0.549 231 232 226
-0.180386 -0.461683 -0.549 230 231 225
-0.175157 -0.461683 -0.549 230 231 225
-0.167837 -0.461683 -0.549 230 231 223
-0.0397286 -0.340586 -0.405 182 142 107
-0.0339895 -0.337222 -0.401 181 141 105
-0.02926 -0.33554 -0.399 189 150 111
-0.02318 -0.33554 -0.399 186 143 108
-0.02166 -0.33554 -0.399 183 140 105
-0.01786 -0.33554 -0.399 181 137 102
-0.0148571 -0.336381 -0.4 181 138 103
0.000386667 -0.341427 -0.406 170 123 93
0.0267362 -0.352359 -0.419 131 93 80
0.0667 -0.40618 -0.483 82 68 67
0.0707543 -0.413749 -0.492 81 72 73
0.0736619 -0.419635 -0.499 139 141 156
0.0766229 -0.425522 -0.506 162 188 225
0.507645 -0.434772 -0.517 137 105 90
0.504613 -0.427204 -0.508 147 112 93
0.500313 -0.417953 -0.497 159 118 90
0.503314 -0.403657 -0.48 174 129 98
0.504859 -0.401975 -0.478 181 136 105
0.508187 -0.400293 -0.476 179 133 100
0.515795 -0.39777 -0.473 176 130 97
0.516696 -0.39777 -0.473 173 127 94
0.517402 -0.39693 -0.472 167 121 88
0.532629 -0.393566 -0.468 162 117 84
0.834397 -0.481866 -0.573 124 125 120
0.84132 -0.482707 -0.574 110 111 106
-0.332453 -0.461886 -0.548 225 226 220
-0.286003 -0.461043 -0.547 226 227 221
-0.274 -0.461886 -0.548 227 228 222
-0.261474 -0.461886 -0.548 227 228 220
-0.250578 -0.461043 -0.547 227 228 220
-0.248949 -0.461886 -0.548 226 227 221
-0.240598 -0.461886 -0.548 226 227 219
-0.207196 -0.461886 -0.548 229 230 224
-0.176926 -0.461886 -0.548 230 231 225
-0.168575 -0.461886 -0.548 230 231 225
-0.147699 -0.461886 -0.548 232 233 227
-0.0433429 -0.345571 -0.41 182 144 108
-0.038861 -0.340514 -0.404 180 140 105
-0.01938 -0.3363 -0.399 183 139 102
-0.0148571 -0.337143 -0.4 180 136 101
-0.0126029 -0.337986 -0.401 178 134 99
-0.00575714 -0.339671 -0.403 171 124 94
0.0161657 -0.348943 -0.414 151 106 83
0.0193667 -0.349786 -0.415 144 101 82
0.0209981 -0.350629 -0.416 142 99 80
0.0390857 -0.364114 -0.432 105 78 71
0.062881 -0.400357 -0.475 82 68 67
0.0783533 -0.4307 -0.511 131 157 192
0.091 -0.4602 -0.546 118 147 187
0.5096 -0.438286 -0.52 126 104 93
0.49895 -0.413843 -0.491 166 125 97
0.50728 -0.4012 -0.476 178 132 99
0.5181 -0.396986 -0.471 175 129 96
0.519894 -0.396986 -0.471 177 131 98
0.521476 -0.396143 -0.47 180 134 101
0.529711 -0.393614 -0.467 165 120 87
0.534159 -0.393614 -0.467 161 116 83
0.54913 -0.398671 -0.473 155 112 80
0.832573 -0.4838 -0.574 120 123 114
0.864798 -0.487171 -0.578 97 99 94
0.873606 -0.487171 -0.578 116 119 112
0.875391 -0.486329 -0.577 103 106 99
-0.32247 -0.462085 -0.547 225 226 220
-0.320386 -0.462085 -0.547 226 227 221
-0.313092 -0.462085 -0.547 225 226 220
-0.297464 -0.462085 -0.547 226 227 221
-0.272458 -0.462085 -0.547 227 228 222
-0.255788 -0.462085 -0.547 229 230 222
-0.240598 -0.46293 -0.548 226 227 219
-0.234335 -0.46293 -0.548 228 230 219
-0.210328 -0.46293 -0.548 228 229 223
-0.205776 -0.462085 -0.547 228 229 223
-0.181101 -0.46293 -0.548 231 232 226
-0.0253962 -0.336215 -0.398 184 145 106
-0.01938 -0.33706 -0.399 184 140 105
-0.01862 -0.33706 -0.399 183 139 104
-0.0133667 -0.33875 -0.401 178 134 99
-0.00269333 -0.341284 -0.404 172 125 97
0.00898095 -0.346352 -0.41 160 113 85
0.0105686 -0.347197 -0.411 160 113 85
0.0145533 -0.348887 -0.413 152 106 82
0.0185762 -0.350576 -0.415 145 102 83
0.0202057 -0.351421 -0.416 142 99 82
0.0284676 -0.355645 -0.421 125 91 79
0.0420352 -0.369161 -0.437 99 74 67
0.0490667 -0.378453 -0.448 89 70 64
0.0523181 -0.383522 -0.454 89 71 67
0.0708981 -0.416468 -0.493 72 70 81
0.5096 -0.439276 -0.52 126 103 95
0.50002 -0.40802 -0.483 174 131 99
0.505467 -0.402107 -0.476 178 133 100
0.508024 -0.401262 -0.475 177 131 98
0.519686 -0.397038 -0.47 180 134 101
0.53327 -0.394504 -0.467 161 116 83
0.553262 -0.401262 -0.475 155 112 80
0.558577 -0.403796 -0.478 148 108 73
0.834377 -0.486583 -0.576 119 122 115
0.836947 -0.484893 -0.574 128 129 124
0.840227 -0.484893 -0.574 100 102 97
0.855609 -0.487428 -0.577 101 102 97
0.87801 -0.488272 -0.578 91 94 87
0.885467 -0.489962 -0.58 32 37 30
-0.33124 -0.46228 -0.546 225 226 220
-0.31356 -0.46228 -0.546 225 226 220
-0.296422 -0.463127 -0.547 225 226 220
-0.28236 -0.46228 -0.546 227 228 222
-0.272458 -0.463127 -0.547 226 227 221
-0.271416 -0.463127 -0.547 226 227 221
-0.270374 -0.463127 -0.547 227 228 222
-0.239117 -0.463127 -0.547 226 227 219
-0.238075 -0.463127 -0.547 227 228 220
-0.232866 -0.463127 -0.547 227 228 222
-0.22974 -0.463127 -0.547 227 228 222
-0.225572 -0.463127 -0.547 227 228 222
-0.221405 -0.463127 -0.547 229 230 224
-0.217237 -0.463127 -0.547 228 229 223
-0.216195 -0.463127 -0.547 227 228 222
-0.203692 -0.463127 -0.547 229 230 224
-0.149513 -0.463127 -0.547 232 233 227
-0.148471 -0.463127 -0.547 233 234 228
-0.143262 -0.463127 -0.547 231 232 226
-0.138052 -0.463127 -0.547 232 233 227
-0.0439086 -0.34544 -0.408 185 140 107
-0.0430257 -0.344593 -0.407 183 140 106
-0.0387648 -0.341207 -0.403 181 138 103
-0.0231219 -0.336973 -0.398 184 138 105
-0.0140952 -0.338667 -0.4 181 134 104
-0.00878381 -0.339513 -0.401 176 129 99
-0.00346286 -0.342053 -0.404 172 126 93
0.00271333 -0.344593 -0.407 165 118 90
0.0177429 -0.35052 -0.414 145 102 83
0.0284676 -0.356447 -0.421 125 91 79
0.0336743 -0.36068 -0.426 111 81 71
0.0354629 -0.362373 -0.428 105 80 73
0.504657 -0.4318 -0.51 144 109 90
0.5024 -0.4064 -0.48 175 130 99
0.506373 -0.403013 -0.476 177 131 98
0.519686 -0.397933 -0.47 181 135 101
0.520581 -0.397933 -0.47 179 133 99
0.55624 -0.403013 -0.476 145 102 67
0.558317 -0.40386 -0.477 139 103 71
0.568354 -0.409787 -0.484 135 104 75
0.837193 -0.491913 -0.581 30 24 24
0.837274 -0.489373 -0.578 115 117 112
0.836571 -0.48768 -0.576 120 121 113
0.865191 -0.49022 -0.579 106 108 103
0.871105 -0.491067 -0.58 106 108 103
0.883257 -0.491067 -0.58 30 33 26
0.8881 -0.491913 -0.581 80 83 74
-0.32604 -0.46332 -0.546 225 226 220
-0.30108 -0.46332 -0.546 226 227 219
-0.299 -0.46332 -0.546 227 228 220
-0.29588 -0.46332 -0.546 225 226 218
-0.27508 -0.46332 -0.546 227 228 222
-0.238075 -0.464169 -0.547 227 228 220
-0.231824 -0.464169 -0.547 228 229 223
-0.228698 -0.464169 -0.547 228 229 223
-0.203692 -0.464169 -0.547 229 230 224
-0.188064 -0.464169 -0.547 229 230 222
-0.163058 -0.464169 -0.547 230 231 225
-0.153681 -0.464169 -0.547 231 232 226
-0.14404 -0.46332 -0.546 232 233 227
-0.138052 -0.464169 -0.547 232 233 227
-0.0386686 -0.341126 -0.402 182 139 104
-0.00878381 -0.340277 -0.401 175 128 98
-0.00498952 -0.341974 -0.403 170 123 95
0.0234876 -0.354703 -0.418 133 96 78
0.0345667 -0.36234 -0.427 114 82 69
0.0524333 -0.3861 -0.455 87 68 64
0.0742524 -0.426831 -0.503 177 191 218
0.51156 -0.442954 -0.522 121 102 95
0.502478 -0.425983 -0.502 149 113 91
0.517 -0.398829 -0.47 174 128 92
0.519686 -0.398829 -0.47 180 134 100
0.525027 -0.395434 -0.466 166 120 86
0.544487 -0.39798 -0.469 158 113 82
0.838024 -0.489626 -0.577 116 117 111
0.843154 -0.488777 -0.576 101 104 97
0.846446 -0.488777 -0.576 100 101 95
0.84864 -0.488777 -0.576 102 103 97
0.86779 -0.492171 -0.58 95 97 94
-0.331671 -0.46351 -0.545 224 225 219
-0.323367 -0.46351 -0.545 224 225 219
-0.3161 -0.46351 -0.545 225 226 220
-0.312986 -0.46351 -0.545 225 226 220
-0.305719 -0.46351 -0.545 226 227 221
-0.3042 -0.46436 -0.546 226 227 221
-0.2943 -0.46351 -0.545 226 227 219
-0.287543 -0.462659 -0.544 225 226 220
-0.283919 -0.46351 -0.545 226 227 221
-0.27769 -0.46351 -0.545 226 227 221
-0.247 -0.46436 -0.546 227 228 222
-0.2418 -0.46436 -0.546 227 228 220
-0.2262 -0.46436 -0.546 228 229 223
