ply
format ascii 1.0
comment Created by Open3D
element vertex 1313
property double x
property double y
property double z
property uchar red
property uchar green
property uchar blue
end_header
-0.143014 -0.257426 -0.639 197 193 181
-0.128143 -0.261857 -0.65 224 219 200
-0.100439 -0.260649 -0.647 250 248 233
-0.0976714 -0.259843 -0.645 243 241 229
-0.094919 -0.259037 -0.643 216 213 208
-0.0398667 -0.25944 -0.644 72 71 77
0.247453 -0.223183 -0.554 117 92 113
0.24908 -0.21996 -0.546 121 95 108
0.250921 -0.217946 -0.541 129 101 113
0.251579 -0.216737 -0.538 128 100 112
0.258943 -0.213514 -0.53 132 102 112
0.2655 -0.2115 -0.525 136 106 116
0.284104 -0.208277 -0.517 150 120 130
0.287058 -0.208277 -0.517 141 111 121
0.293795 -0.207471 -0.515 140 110 118
0.312927 -0.20586 -0.511 144 117 124
0.350389 -0.207874 -0.516 65 47 59
0.357134 -0.210694 -0.523 76 67 84
0.44519 -0.212306 -0.527 136 91 85
0.46662 -0.21714 -0.539 132 89 83
0.47946 -0.221169 -0.549 136 88 74
-0.315847 -0.26269 -0.649 253 254 248
-0.305773 -0.261476 -0.646 253 254 249
-0.154445 -0.255405 -0.631 234 235 230
-0.146031 -0.255405 -0.631 206 203 194
-0.142567 -0.257833 -0.637 197 195 183
-0.121765 -0.26269 -0.649 229 223 207
-0.115762 -0.263095 -0.65 236 230 216
-0.0882 -0.255 -0.63 79 78 86
-0.0500371 -0.256214 -0.633 69 68 76
-0.0433438 -0.259452 -0.641 72 71 77
0.25992 -0.215333 -0.532 135 104 112
0.291833 -0.208452 -0.515 141 114 123
0.303015 -0.208048 -0.514 141 114 121
0.312564 -0.207238 -0.512 147 117 127
0.319114 -0.206429 -0.51 142 115 124
0.324636 -0.205619 -0.508 136 109 116
0.326894 -0.205214 -0.507 131 108 118
0.328826 -0.205214 -0.507 133 109 123
0.335888 -0.20481 -0.506 184 171 181
0.409052 -0.21331 -0.527 151 100 96
0.435669 -0.212095 -0.524 131 86 80
0.45838 -0.215738 -0.533 134 87 81
0.468514 -0.218571 -0.54 138 91 85
0.474929 -0.220595 -0.545 135 90 84
-0.148926 -0.255387 -0.628 229 228 223
-0.144083 -0.25742 -0.633 202 199 190
-0.11646 -0.263113 -0.647 232 228 216
-0.103331 -0.26108 -0.642 235 231 222
-0.10195 -0.260673 -0.641 226 223 216
-0.08764 -0.254573 -0.626 74 74 86
-0.0352857 -0.264333 -0.65 72 71 79
0.222996 -0.259453 -0.638 154 106 106
0.256547 -0.220413 -0.542 121 94 103
0.262466 -0.21594 -0.531 133 103 111
0.2645 -0.215127 -0.529 134 104 112
0.270983 -0.213093 -0.524 141 111 121
0.287058 -0.210247 -0.517 141 114 123
0.2987 -0.209433 -0.515 138 111 118
0.317171 -0.2074 -0.51 144 117 126
0.329791 -0.20618 -0.507 132 108 121
0.331069 -0.205773 -0.506 173 151 164
0.334924 -0.205773 -0.506 158 142 153
0.341086 -0.206587 -0.508 130 103 112
0.405588 -0.216753 -0.533 150 101 94
0.407343 -0.215533 -0.53 149 98 94
0.409052 -0.214313 -0.527 149 98 94
0.414709 -0.213093 -0.524 156 103 97
0.42968 -0.213093 -0.524 134 85 78
-0.110496 -0.261894 -0.641 239 235 226
-0.0844381 -0.253314 -0.62 77 76 84
-0.0831229 -0.252906 -0.619 76 75 83
-0.0557114 -0.256991 -0.629 70 69 77
-0.0523657 -0.258217 -0.632 70 69 77
-0.0489857 -0.259443 -0.635 70 69 77
-0.0433438 -0.261894 -0.641 72 71 79
-0.03876 -0.263937 -0.646 74 73 81
0.260123 -0.221854 -0.543 118 94 107
0.263949 -0.218177 -0.534 134 104 114
0.267523 -0.216134 -0.529 137 106 114
0.270013 -0.214909 -0.526 138 106 117
0.275914 -0.213274 -0.522 149 119 129
0.281249 -0.212049 -0.519 147 120 129
0.283667 -0.21164 -0.518 150 120 130
0.297719 -0.210414 -0.515 139 112 117
0.303403 -0.209597 -0.513 144 117 124
0.315847 -0.20878 -0.511 146 119 128
0.325929 -0.207146 -0.507 135 110 116
0.32786 -0.207146 -0.507 134 108 117
0.3434 -0.208371 -0.51 116 95 104
0.41238 -0.22594 -0.553 129 95 93
0.408026 -0.221854 -0.543 143 99 96
0.407343 -0.216543 -0.53 149 100 95
0.430678 -0.214091 -0.524 133 84 77
0.448046 -0.215726 -0.528 138 91 83
0.464889 -0.219403 -0.537 140 91 84
-0.155186 -0.262294 -0.639 191 190 195
-0.130433 -0.261473 -0.637 227 225 212
-0.122514 -0.262705 -0.64 231 229 217
-0.0933029 -0.256137 -0.624 76 76 84
-0.0524486 -0.259831 -0.633 71 70 76
-0.0467867 -0.261884 -0.638 71 70 76
-0.0456429 -0.262294 -0.639 72 71 77
-0.0421886 -0.263526 -0.642 73 72 78
0.202911 -0.249159 -0.607 164 109 106
0.2214 -0.2586 -0.63 144 95 98
0.235636 -0.265168 -0.646 148 93 99
0.263876 -0.220836 -0.538 125 99 112
0.270034 -0.216731 -0.528 137 106 114
0.2745 -0.2155 -0.525 147 115 126
0.2755 -0.2155 -0.525 147 115 126
0.287058 -0.212216 -0.517 147 120 129
0.289451 -0.211806 -0.516 141 111 121
0.292814 -0.211395 -0.515 140 113 122
0.295757 -0.211395 -0.515 143 113 123
0.303403 -0.210574 -0.513 146 119 126
0.306712 -0.210164 -0.512 150 120 128
0.416533 -0.229867 -0.56 132 97 93
0.409829 -0.216731 -0.528 148 99 92
0.418701 -0.21509 -0.524 150 97 91
0.45091 -0.217142 -0.529 135 88 80
0.468673 -0.221247 -0.539 142 95 87
0.472314 -0.222478 -0.542 138 94 85
-0.125186 -0.261862 -0.635 239 236 227
-0.121557 -0.261862 -0.635 239 238 233
-0.119326 -0.262274 -0.636 241 240 236
-0.11551 -0.261862 -0.635 237 236 234
-0.0790714 -0.253614 -0.615 75 74 80
-0.057 -0.2598 -0.63 70 69 75
-0.0457143 -0.263924 -0.64 72 71 77
0.271553 -0.21815 -0.529 137 105 116
0.277903 -0.215263 -0.522 150 120 130
0.296738 -0.212376 -0.515 143 116 125
0.302426 -0.211551 -0.513 147 120 127
0.315847 -0.210727 -0.511 146 116 126
0.319114 -0.210314 -0.51 136 108 120
0.329791 -0.209077 -0.507 139 113 124
0.330757 -0.209077 -0.507 193 171 184
0.407867 -0.219387 -0.532 148 97 94
0.417703 -0.216088 -0.524 148 98 91
0.426868 -0.215675 -0.523 137 89 79
0.430852 -0.215675 -0.523 139 91 81
-0.157371 -0.268457 -0.648 114 114 116
-0.155173 -0.2668 -0.644 121 122 124
-0.0615057 -0.259757 -0.627 71 70 78
0.182 -0.2436 -0.588 190 141 136
0.18648 -0.2436 -0.588 183 130 124
0.213306 -0.255614 -0.617 137 85 89
0.219643 -0.258929 -0.625 133 82 89
0.269762 -0.227857 -0.55 109 91 107
0.274542 -0.218329 -0.527 142 110 121
0.287058 -0.214186 -0.517 152 122 132
0.288043 -0.214186 -0.517 149 122 131
0.322701 -0.210457 -0.508 134 106 118
0.33462 -0.210043 -0.507 202 186 197
0.406586 -0.222471 -0.537 148 99 92
0.419699 -0.217086 -0.524 147 97 88
0.423691 -0.217086 -0.524 145 95 86
0.431676 -0.217086 -0.524 139 92 82
0.44519 -0.218329 -0.527 140 92 82
0.470571 -0.223714 -0.54 140 96 87
0.495467 -0.232 -0.56 142 93 88
-0.155173 -0.268027 -0.644 121 122 124
-0.133286 -0.25887 -0.622 218 218 220
-0.0747486 -0.257206 -0.618 73 72 78
-0.0637924 -0.260535 -0.626 72 71 79
0.205224 -0.252628 -0.607 132 78 78
0.219994 -0.260535 -0.626 131 78 88
0.278029 -0.218916 -0.526 147 117 127
0.281424 -0.217668 -0.523 152 122 132
0.313539 -0.21309 -0.512 144 114 122
0.314873 -0.212673 -0.511 147 117 125
0.319114 -0.212257 -0.51 135 108 115
0.421695 -0.218084 -0.524 148 98 91
0.4375 -0.2185 -0.525 145 97 85
0.441339 -0.218916 -0.526 140 92 82
0.47892 -0.22724 -0.546 138 90 80
-0.153947 -0.269253 -0.644 116 117 119
-0.135001 -0.258801 -0.619 167 167 169
-0.128133 -0.259219 -0.62 168 167 172
-0.113778 -0.258801 -0.619 77 76 82
-0.109885 -0.257965 -0.617 70 69 75
-0.0881552 -0.256292 -0.613 77 76 82
-0.0727457 -0.259637 -0.621 73 72 78
-0.0649848 -0.261728 -0.626 73 72 78
-0.0594 -0.2634 -0.63 71 70 76
-0.0352857 -0.271762 -0.65 73 72 78
0.170257 -0.253366 -0.606 195 152 143
0.174456 -0.246258 -0.589 192 147 142
0.184414 -0.244586 -0.585 180 125 120
0.281034 -0.219918 -0.526 147 117 127
0.2815 -0.2195 -0.525 151 121 131
0.284762 -0.21741 -0.52 150 123 132
0.300662 -0.215319 -0.515 146 119 126
0.312564 -0.214065 -0.512 141 114 119
0.3139 -0.213647 -0.511 144 117 122
0.319458 -0.21281 -0.509 133 106 111
0.320428 -0.21281 -0.509 131 106 110
0.328826 -0.211974 -0.507 136 106 116
0.336551 -0.211974 -0.507 127 107 116
0.3431 -0.213647 -0.511 118 91 98
0.410583 -0.230789 -0.552 138 95 86
0.407343 -0.224935 -0.538 143 94 87
0.408383 -0.223263 -0.534 139 90 93
0.414071 -0.220336 -0.527 142 94 84
0.419699 -0.219082 -0.524 148 95 87
0.4375 -0.2195 -0.525 148 100 88
0.465044 -0.224099 -0.536 135 93 81
0.466934 -0.224517 -0.537 139 97 85
0.472473 -0.22619 -0.541 143 101 89
0.487337 -0.230789 -0.552 145 94 90
-0.122613 -0.25872 -0.616 85 84 92
-0.106663 -0.25704 -0.612 67 67 75
-0.0878676 -0.25662 -0.611 78 77 83
-0.0639962 -0.26376 -0.628 73 72 78
-0.0583848 -0.26544 -0.632 71 70 76
0.1749 -0.24486 -0.583 191 146 141
0.175709 -0.24444 -0.582 189 144 139
0.279774 -0.22722 -0.541 113 89 111
0.2825 -0.2205 -0.525 147 117 127
0.2835 -0.2205 -0.525 146 116 126
0.283325 -0.21882 -0.521 152 122 132
0.290434 -0.21672 -0.516 143 116 125
0.2924 -0.21672 -0.516 145 115 125
0.295349 -0.21672 -0.516 145 115 125
0.309638 -0.21504 -0.512 145 115 123
0.325929 -0.21294 -0.507 135 110 114
0.336551 -0.21294 -0.507 127 107 116
0.349098 -0.21714 -0.517 57 47 56
0.407906 -0.22974 -0.547 141 97 94
0.407829 -0.2268 -0.54 142 98 95
0.408368 -0.22596 -0.538 141 94 88
0.4195 -0.2205 -0.525 145 97 87
0.4385 -0.2205 -0.525 142 94 82
0.448046 -0.22176 -0.528 139 92 82
0.45752 -0.22344 -0.532 137 90 80
-0.145059 -0.266644 -0.632 111 112 116
-0.122983 -0.258206 -0.612 80 79 87
-0.11561 -0.257362 -0.61 69 69 79
-0.0988543 -0.256096 -0.607 69 68 76
-0.0684524 -0.26369 -0.625 73 72 80
-0.0640981 -0.265378 -0.629 73 72 80
-0.0583848 -0.266644 -0.632 72 71 79
-0.0550333 -0.26791 -0.635 72 71 79
-0.0480771 -0.269597 -0.639 91 89 100
0.165177 -0.251455 -0.596 194 149 143
0.172383 -0.245549 -0.582 193 150 143
0.279767 -0.227407 -0.539 112 88 110
0.291982 -0.218125 -0.517 148 117 125
0.299681 -0.217281 -0.515 148 118 128
0.300662 -0.217281 -0.515 148 118 128
0.302036 -0.216859 -0.514 149 119 129
0.315847 -0.215593 -0.511 135 108 115
0.317171 -0.215171 -0.51 136 109 116
0.328507 -0.214328 -0.508 137 110 115
0.409531 -0.232891 -0.552 139 95 94
0.407553 -0.22825 -0.541 140 96 93
0.408368 -0.226985 -0.538 140 92 88
0.474379 -0.228672 -0.542 142 98 87
-0.11716 -0.256829 -0.606 68 68 78
-0.113322 -0.255981 -0.604 66 66 76
-0.102797 -0.255557 -0.603 65 65 75
-0.0861 -0.260643 -0.615 77 76 82
-0.0516476 -0.27039 -0.638 76 74 85
-0.03876 -0.273781 -0.646 72 71 79
0.172597 -0.245386 -0.579 192 149 140
0.195829 -0.25259 -0.596 142 88 86
0.21761 -0.265305 -0.626 121 72 78
0.238097 -0.273781 -0.646 112 69 76
0.240069 -0.274629 -0.648 111 66 73
0.290146 -0.219957 -0.519 149 122 131
0.292547 -0.219533 -0.518 148 118 126
0.292967 -0.21911 -0.517 148 118 126
0.312927 -0.216567 -0.511 143 113 121
0.319458 -0.215719 -0.509 132 105 112
0.320428 -0.215719 -0.509 131 104 111
0.410664 -0.22589 -0.533 140 93 87
0.426686 -0.222076 -0.524 144 94 83
0.443343 -0.222924 -0.526 140 92 80
0.45091 -0.224195 -0.529 137 90 80
-0.147354 -0.273309 -0.642 116 117 119
-0.118877 -0.256706 -0.603 64 64 72
-0.116193 -0.255854 -0.601 64 64 72
-0.0968933 -0.25628 -0.602 69 68 76
-0.0797143 -0.263943 -0.62 76 75 83
-0.0607924 -0.269051 -0.632 72 70 81
-0.05278 -0.27118 -0.637 78 76 87
-0.0492943 -0.272031 -0.639 129 127 138
0.158212 -0.260963 -0.613 200 153 147
0.183784 -0.248191 -0.583 170 113 104
0.19404 -0.252874 -0.594 143 87 86
0.296906 -0.220094 -0.517 148 115 122
0.3139 -0.21754 -0.511 144 114 122
0.327539 -0.216263 -0.508 135 108 115
0.329474 -0.216263 -0.508 146 125 134
0.337215 -0.216263 -0.508 139 111 123
0.346767 -0.219243 -0.515 56 46 57
0.40879 -0.234569 -0.551 139 95 94
0.409912 -0.228183 -0.536 137 89 85
0.4134 -0.225629 -0.53 135 88 82
0.417083 -0.224351 -0.527 140 92 82
0.4395 -0.2235 -0.525 146 97 83
0.454637 -0.226054 -0.531 137 90 80
0.462291 -0.227331 -0.534 139 92 82
0.473504 -0.230311 -0.541 143 99 88
0.483806 -0.233291 -0.548 141 97 88
-0.124827 -0.258282 -0.604 71 71 79
-0.0978771 -0.256999 -0.601 67 66 74
-0.09338 -0.26042 -0.609 75 74 82
-0.0808952 -0.265124 -0.62 76 75 83
-0.0619962 -0.270255 -0.632 73 71 82
-0.0492943 -0.273249 -0.639 113 111 122
-0.0446343 -0.274531 -0.642 131 129 140
0.183784 -0.249302 -0.583 167 108 100
0.288595 -0.225355 -0.527 125 100 106
0.296493 -0.221507 -0.518 149 119 127
0.304973 -0.219796 -0.514 145 115 125
0.31682 -0.218513 -0.511 133 106 113
0.333345 -0.21723 -0.508 183 163 174
0.411679 -0.227921 -0.533 134 86 82
0.4215 -0.2245 -0.525 142 94 84
0.4275 -0.2245 -0.525 146 96 87
0.4285 -0.2245 -0.525 148 98 89
-0.0978771 -0.258144 -0.601 66 65 73
-0.0935333 -0.26201 -0.61 73 72 78
-0.0686714 -0.269311 -0.627 74 73 81
-0.0586619 -0.272748 -0.635 74 72 83
-0.0458571 -0.275754 -0.642 135 133 144
-0.0435467 -0.276613 -0.644 75 73 84
0.156137 -0.278331 -0.648 198 161 153
0.16598 -0.248694 -0.579 199 151 141
0.171703 -0.247406 -0.576 188 138 127
0.224211 -0.274036 -0.638 107 60 70
0.301643 -0.221205 -0.515 144 117 126
0.307311 -0.220346 -0.513 141 111 121
0.309266 -0.220346 -0.513 140 110 120
0.314873 -0.219487 -0.511 144 114 122
0.319458 -0.218628 -0.509 131 104 111
0.332377 -0.218198 -0.508 177 162 169
0.4225 -0.2255 -0.525 140 92 82
0.4265 -0.2255 -0.525 145 95 86
0.4355 -0.2255 -0.525 146 96 87
0.4375 -0.2255 -0.525 147 95 82
0.453781 -0.227648 -0.53 139 92 82
-0.11923 -0.258426 -0.599 68 70 82
-0.104657 -0.256269 -0.594 69 70 75
-0.0970543 -0.260151 -0.603 65 64 70
-0.0953857 -0.261877 -0.607 70 69 75
-0.0926743 -0.264034 -0.612 73 72 78
-0.0789133 -0.26878 -0.623 77 76 84
-0.072139 -0.270074 -0.626 74 73 79
-0.0664943 -0.271369 -0.629 74 72 83
-0.0632 -0.272663 -0.632 72 70 81
0.152186 -0.260151 -0.603 199 154 151
0.152792 -0.255406 -0.592 200 154 139
0.154856 -0.253249 -0.587 191 143 131
0.157402 -0.251954 -0.584 188 138 127
0.22684 -0.276977 -0.642 106 59 69
0.235494 -0.279997 -0.649 109 71 86
0.296367 -0.225637 -0.523 148 122 131
0.301427 -0.22348 -0.518 146 119 128
0.326571 -0.219166 -0.508 133 107 110
0.409643 -0.239443 -0.555 142 96 96
0.412694 -0.229951 -0.533 134 86 82
0.41665 -0.228226 -0.529 139 90 83
0.417874 -0.227794 -0.528 140 91 84
0.418087 -0.227363 -0.527 141 92 85
0.433324 -0.226931 -0.526 147 97 86
0.435328 -0.226931 -0.526 149 99 88
0.440337 -0.226931 -0.526 145 96 82
0.442341 -0.226931 -0.526 141 92 78
0.449051 -0.227794 -0.528 137 89 77
0.481157 -0.235129 -0.545 142 95 87
-0.0918076 -0.266067 -0.614 71 70 76
-0.068781 -0.272133 -0.628 74 73 79
-0.0540781 -0.276467 -0.638 73 71 82
-0.0364676 -0.281233 -0.649 70 69 77
0.15022 -0.2639 -0.609 199 158 154
0.155177 -0.253067 -0.584 192 143 129
0.176397 -0.250033 -0.577 177 114 99
0.179214 -0.2509 -0.579 177 113 101
0.315847 -0.221433 -0.511 141 114 123
0.318143 -0.221 -0.51 132 105 114
0.334312 -0.220133 -0.508 167 150 158
0.40849 -0.236167 -0.545 140 92 90
0.413224 -0.231833 -0.535 134 86 82
0.413469 -0.2314 -0.534 133 85 81
0.429316 -0.227933 -0.526 149 99 88
0.433324 -0.227933 -0.526 152 100 89
0.447197 -0.228367 -0.527 136 86 75
0.467086 -0.232267 -0.536 135 87 77
0.485893 -0.237467 -0.548 142 95 87
0.492433 -0.239633 -0.553 140 96 87
-0.134437 -0.275506 -0.633 93 94 98
-0.113134 -0.257226 -0.591 90 93 100
-0.0789133 -0.271153 -0.623 76 75 83
-0.0778514 -0.271589 -0.624 77 76 84
-0.0767857 -0.272024 -0.625 76 75 83
-0.0633 -0.275506 -0.633 73 72 80
-0.0447733 -0.280293 -0.644 74 73 81
0.147836 -0.262884 -0.604 203 160 153
0.150986 -0.254614 -0.585 195 148 140
0.167827 -0.249827 -0.574 199 150 136
0.187919 -0.256355 -0.589 152 94 92
0.191454 -0.258096 -0.593 135 79 80
0.209619 -0.269848 -0.62 99 54 61
0.301971 -0.235899 -0.542 96 83 101
0.310243 -0.223277 -0.513 140 113 122
0.31682 -0.222407 -0.511 139 112 121
0.319458 -0.221536 -0.509 135 108 115
0.325275 -0.221536 -0.509 131 106 112
0.339514 -0.221971 -0.51 127 101 110
0.407452 -0.237205 -0.545 142 92 91
0.409886 -0.235029 -0.54 134 86 84
0.411442 -0.234158 -0.538 136 85 81
0.414725 -0.231982 -0.533 131 83 79
0.416203 -0.231111 -0.531 131 82 77
0.433324 -0.228935 -0.526 154 102 89
0.4365 -0.2285 -0.525 147 98 84
0.4375 -0.2285 -0.525 146 97 83
0.4385 -0.2285 -0.525 144 95 80
0.442341 -0.228935 -0.526 141 92 77
0.444345 -0.228935 -0.526 138 89 75
0.448201 -0.22937 -0.527 137 88 73
0.46056 -0.231547 -0.532 136 88 78
0.500074 -0.242863 -0.558 138 100 87
-0.103177 -0.258789 -0.592 73 74 79
-0.0943848 -0.265783 -0.608 63 62 70
-0.0723695 -0.274526 -0.628 74 73 81
-0.0712867 -0.274963 -0.629 74 73 81
-0.069 -0.2754 -0.63 73 72 80
-0.0667057 -0.275837 -0.631 72 71 79
-0.0436143 -0.281957 -0.645 72 71 79
-0.0423857 -0.281957 -0.645 74 73 81
0.165351 -0.250483 -0.573 195 147 135
0.184414 -0.255729 -0.585 161 102 96
0.326571 -0.222069 -0.508 131 108 116
0.332377 -0.222069 -0.508 189 170 176
0.337879 -0.222506 -0.509 128 107 114
0.420891 -0.230811 -0.528 135 86 81
0.428314 -0.229937 -0.526 148 98 89
0.4355 -0.2295 -0.525 149 97 84
0.4395 -0.2295 -0.525 146 96 85
0.464326 -0.233434 -0.534 139 89 80
0.475714 -0.236057 -0.54 144 97 89
-0.129167 -0.274405 -0.625 127 130 135
-0.123946 -0.268258 -0.611 127 130 135
-0.0995 -0.262111 -0.597 56 55 61
-0.0921067 -0.270453 -0.616 67 66 74
-0.0645057 -0.277917 -0.633 74 73 81
-0.0541629 -0.280551 -0.639 73 72 80
-0.0518095 -0.28099 -0.64 74 73 81
0.152482 -0.25377 -0.578 192 143 129
0.15744 -0.252891 -0.576 205 156 142
0.176397 -0.25333 -0.577 175 115 104
0.177804 -0.25377 -0.578 169 109 98
0.181251 -0.255526 -0.582 164 105 97
0.18648 -0.25816 -0.588 151 95 94
0.23055 -0.284942 -0.649 108 60 74
0.310692 -0.226988 -0.517 145 115 123
0.31744 -0.224792 -0.512 135 109 118
0.328507 -0.223036 -0.508 172 146 155
0.344805 -0.22611 -0.515 70 53 59
0.413491 -0.236208 -0.538 131 81 80
0.422102 -0.231378 -0.527 136 87 82
0.482347 -0.238842 -0.544 140 91 84
0.49081 -0.241476 -0.55 141 94 86
0.497386 -0.243671 -0.555 144 99 96
-0.110871 -0.257957 -0.585 121 124 129
-0.1036 -0.25928 -0.588 89 90 95
-0.09454 -0.26854 -0.609 60 59 67
-0.0891619 -0.27339 -0.62 69 68 74
-0.0814171 -0.275154 -0.624 76 75 83
-0.0802286 -0.275154 -0.624 76 75 83
-0.0735657 -0.276918 -0.628 75 74 80
-0.0657114 -0.279123 -0.633 74 73 81
-0.0588467 -0.280887 -0.637 72 71 79
-0.0530286 -0.28221 -0.64 71 70 78
-0.0448429 -0.284414 -0.645 73 72 80
0.141811 -0.26369 -0.598 197 153 144
0.142885 -0.261485 -0.593 193 146 136
0.145414 -0.257957 -0.585 195 146 132
0.163973 -0.252225 -0.572 198 147 130
0.1725 -0.253548 -0.575 173 115 103
0.176397 -0.25443 -0.577 171 113 101
0.310906 -0.228854 -0.519 146 116 128
0.311293 -0.228413 -0.518 144 114 122
0.409339 -0.238996 -0.542 130 85 82
0.415262 -0.23591 -0.535 127 79 75
0.416755 -0.235028 -0.533 128 79 75
0.416987 -0.234587 -0.532 130 81 77
0.419237 -0.234146 -0.531 134 87 81
0.43214 -0.232382 -0.527 146 96 87
0.43633 -0.231941 -0.526 149 96 88
0.476743 -0.238114 -0.54 143 94 87
0.484271 -0.240319 -0.545 143 94 87
0.495593 -0.243847 -0.553 148 98 97
-0.139071 -0.287414 -0.649 116 117 121
-0.123946 -0.270586 -0.611 119 122 129
-0.120772 -0.266157 -0.601 120 123 130
-0.111986 -0.259071 -0.585 120 123 130
-0.104364 -0.259514 -0.586 106 107 112
-0.0995 -0.264386 -0.597 59 60 65
-0.0929771 -0.271914 -0.614 60 59 67
-0.0922562 -0.273243 -0.617 62 61 69
-0.0903429 -0.274571 -0.62 65 64 72
-0.08366 -0.2759 -0.623 73 72 80
-0.0646076 -0.280771 -0.634 73 72 78
-0.03888 -0.286971 -0.648 71 70 76
0.146129 -0.256414 -0.579 194 142 128
0.181251 -0.257743 -0.582 157 100 91
0.209783 -0.276343 -0.624 80 40 49
0.21488 -0.279886 -0.632 83 43 51
0.337571 -0.225857 -0.51 133 106 115
0.404476 -0.242686 -0.548 135 93 94
0.405376 -0.241357 -0.545 136 92 93
0.40906 -0.240471 -0.543 132 87 84
0.421897 -0.233829 -0.528 133 86 80
0.42592 -0.233829 -0.528 137 90 84
0.427121 -0.233386 -0.527 140 93 85
0.428125 -0.233386 -0.527 141 92 85
0.442341 -0.232943 -0.526 140 90 83
0.448201 -0.233386 -0.527 143 95 85
-0.1003 -0.264633 -0.595 63 66 71
-0.0948505 -0.27175 -0.611 60 59 67
-0.0759581 -0.27931 -0.628 77 76 82
-0.0530286 -0.284648 -0.64 71 70 76
-0.0518905 -0.285092 -0.641 74 73 79
-0.0495257 -0.285537 -0.642 73 72 78
-0.0472267 -0.286427 -0.644 73 72 78
-0.0460714 -0.286871 -0.645 71 70 76
-0.0377038 -0.28865 -0.649 71 70 76
0.316486 -0.235724 -0.53 137 116 125
0.328184 -0.226384 -0.509 157 136 143
0.404905 -0.244619 -0.55 137 95 97
0.408026 -0.241506 -0.543 130 86 85
0.4173 -0.237948 -0.535 124 79 74
0.42126 -0.236169 -0.531 130 82 78
0.43633 -0.233945 -0.526 148 95 87
-0.135757 -0.2881 -0.645 116 119 126
-0.1148 -0.26264 -0.588 113 118 124
-0.1036 -0.26264 -0.588 72 72 80
-0.0982029 -0.26934 -0.603 63 63 71
-0.0804857 -0.279613 -0.626 75 74 80
-0.07942 -0.28006 -0.627 76 75 81
-0.076079 -0.280953 -0.629 75 74 82
-0.0715133 -0.281847 -0.631 75 74 82
-0.0647095 -0.283633 -0.635 74 73 81
-0.0554667 -0.285867 -0.64 73 72 77
0.138729 -0.2613 -0.585 195 146 132
0.141472 -0.258173 -0.578 188 136 123
0.142573 -0.258173 -0.578 193 141 128
0.150071 -0.25594 -0.573 183 127 112
0.160946 -0.254153 -0.569 195 143 130
0.178111 -0.25862 -0.579 164 107 98
0.21556 -0.283187 -0.634 87 45 55
0.322024 -0.241647 -0.541 101 93 104
0.324943 -0.2278 -0.51 133 106 115
0.325914 -0.2278 -0.51 133 106 115
0.327214 -0.227353 -0.509 134 104 114
0.338233 -0.228247 -0.511 132 105 114
0.419801 -0.238073 -0.533 127 82 76
0.428937 -0.23584 -0.528 140 91 86
0.433966 -0.23584 -0.528 146 95 91
0.437159 -0.235393 -0.527 145 95 88
0.450057 -0.23584 -0.528 141 93 83
0.4788 -0.2412 -0.54 146 99 91
0.492009 -0.24522 -0.549 150 99 95
-0.116511 -0.265106 -0.591 114 117 122
-0.114605 -0.263311 -0.587 110 115 121
-0.100469 -0.267349 -0.596 68 68 76
-0.0990219 -0.269591 -0.601 65 65 73
-0.0951609 -0.274974 -0.613 58 58 66
-0.0895933 -0.27946 -0.623 63 62 70
-0.0863095 -0.280357 -0.625 69 68 76
-0.0840629 -0.280806 -0.626 70 69 75
-0.0636 -0.285291 -0.636 73 72 80
0.143773 -0.25748 -0.574 195 139 126
0.154714 -0.255686 -0.57 199 145 133
0.178419 -0.260171 -0.58 162 103 95
0.203573 -0.27632 -0.616 72 31 39
0.218819 -0.287086 -0.64 93 51 63
0.322769 -0.232809 -0.519 137 111 120
0.405814 -0.249854 -0.557 126 84 85
0.421831 -0.239089 -0.533 129 84 78
0.42408 -0.23864 -0.532 129 86 77
0.424294 -0.238191 -0.531 133 86 80
0.427533 -0.237743 -0.53 133 85 81
0.430757 -0.237294 -0.529 141 92 85
0.443182 -0.236397 -0.527 138 88 81
0.47029 -0.239986 -0.535 143 93 84
0.476887 -0.24178 -0.539 145 96 89
-0.136178 -0.291458 -0.647 113 116 123
-0.112907 -0.263078 -0.584 110 113 120
-0.102829 -0.265781 -0.59 65 65 73
-0.0990219 -0.270736 -0.601 67 67 75
-0.0960143 -0.275241 -0.611 59 58 66
-0.0875 -0.281548 -0.625 65 64 72
-0.0727152 -0.28425 -0.631 73 72 80
0.133849 -0.267132 -0.593 198 143 136
0.134068 -0.26533 -0.589 198 145 139
0.142431 -0.258123 -0.573 194 142 129
0.149286 -0.256771 -0.57 202 149 135
0.153359 -0.256321 -0.569 198 145 131
0.196481 -0.272538 -0.605 114 74 82
0.21726 -0.287854 -0.639 90 48 60
0.325464 -0.232896 -0.517 133 107 116
0.3298 -0.229743 -0.51 131 105 114
0.406207 -0.251816 -0.559 124 84 84
0.419571 -0.240554 -0.534 123 80 73
0.429351 -0.239203 -0.531 137 90 82
0.451063 -0.237851 -0.528 142 92 83
0.483529 -0.244609 -0.543 145 96 89
-0.390018 -0.293595 -0.649 249 250 242
-0.38631 -0.293595 -0.649 250 251 245
-0.379476 -0.294048 -0.65 250 251 245
-0.367095 -0.294048 -0.65 252 253 247
-0.362143 -0.294048 -0.65 252 253 248
-0.112907 -0.26419 -0.584 107 110 117
-0.0909257 -0.282286 -0.624 59 58 66
-0.0853914 -0.283643 -0.627 65 64 70
-0.0728305 -0.285905 -0.632 73 72 80
-0.0578143 -0.289071 -0.639 71 70 78
-0.0565971 -0.289071 -0.639 72 71 79
0.13272 -0.266 -0.588 196 142 132
0.136594 -0.260571 -0.576 192 140 127
0.137452 -0.260119 -0.575 191 139 126
0.1593 -0.2565 -0.567 201 148 134
0.166657 -0.257857 -0.57 179 123 108
0.195006 -0.273238 -0.604 109 70 73
0.213481 -0.287262 -0.635 90 44 57
0.327874 -0.237048 -0.524 136 113 123
0.328418 -0.233881 -0.517 132 105 112
0.329143 -0.231619 -0.512 135 109 118
0.332714 -0.230714 -0.51 127 100 109
0.402492 -0.249262 -0.551 130 88 89
0.414 -0.244286 -0.54 125 77 73
0.417837 -0.242929 -0.537 125 82 75
0.419101 -0.242476 -0.536 127 82 76
0.422623 -0.241571 -0.534 129 85 76
0.424877 -0.241119 -0.533 129 85 76
0.426107 -0.240667 -0.532 131 89 77
0.429147 -0.240667 -0.532 127 85 73
0.441174 -0.238405 -0.527 138 89 82
0.44519 -0.238405 -0.527 138 90 80
0.447197 -0.238405 -0.527 136 88 78
0.452069 -0.238857 -0.528 143 95 83
0.465627 -0.240667 -0.532 139 93 80
-0.38631 -0.294831 -0.649 250 251 245
-0.372711 -0.294831 -0.649 251 252 246
-0.12037 -0.272117 -0.599 106 109 116
-0.106977 -0.264394 -0.582 100 100 108
-0.10205 -0.268937 -0.592 75 75 83
-0.097019 -0.277114 -0.61 64 64 72
-0.0954714 -0.279386 -0.615 60 60 68
-0.0671286 -0.288471 -0.635 74 73 81
-0.0601543 -0.289834 -0.638 73 72 80
0.134167 -0.261214 -0.575 196 142 130
0.165281 -0.258489 -0.569 177 123 111
0.178727 -0.26394 -0.581 153 98 93
0.211937 -0.288017 -0.634 91 51 60
0.330869 -0.238046 -0.524 136 110 119
0.331233 -0.237591 -0.523 135 108 115
0.336945 -0.232594 -0.512 130 104 113
0.344174 -0.234866 -0.517 73 56 62
0.402968 -0.252583 -0.556 124 83 81
0.406991 -0.246677 -0.543 127 82 79
0.407274 -0.246223 -0.542 126 81 78
0.410371 -0.246223 -0.542 123 80 74
0.417837 -0.243951 -0.537 126 83 76
0.441174 -0.239409 -0.527 137 90 80
0.450209 -0.239409 -0.527 140 93 83
0.470429 -0.242589 -0.534 143 96 86
-0.386949 -0.295611 -0.648 250 251 245
-0.383246 -0.295611 -0.648 251 252 246
-0.382011 -0.295611 -0.648 251 252 244
-0.137623 -0.295611 -0.648 105 106 111
-0.135757 -0.294243 -0.645 107 110 117
-0.11122 -0.265047 -0.581 100 103 110
-0.0971781 -0.278732 -0.611 65 68 75
-0.0956267 -0.281013 -0.616 62 62 70
-0.0912171 -0.285575 -0.626 57 57 65
-0.0820695 -0.286944 -0.629 67 66 74
-0.0752381 -0.288312 -0.632 71 70 78
-0.0740343 -0.288312 -0.632 72 71 79
-0.0624867 -0.290593 -0.637 74 73 81
-0.0601543 -0.29105 -0.638 74 73 81
0.153357 -0.257748 -0.565 191 138 124
0.154433 -0.257748 -0.565 191 138 124
0.238097 -0.294699 -0.646 174 122 126
0.333044 -0.23357 -0.512 131 101 111
0.401909 -0.253642 -0.556 126 86 86
0.402262 -0.248624 -0.545 130 86 87
0.419101 -0.244518 -0.536 126 81 75
0.450209 -0.240412 -0.527 139 92 82
0.453074 -0.240869 -0.528 141 94 84
0.46664 -0.242693 -0.532 142 94 84
0.472329 -0.244062 -0.535 141 94 86
-0.390049 -0.296388 -0.647 250 251 243
-0.385119 -0.296388 -0.647 251 252 246
-0.11592 -0.26936 -0.588 98 101 106
-0.0973371 -0.280354 -0.612 69 69 77
-0.0941886 -0.284935 -0.622 60 60 68
-0.0922619 -0.28631 -0.625 57 57 65
-0.0741514 -0.289974 -0.633 71 70 78
-0.0461429 -0.29593 -0.646 71 70 78
0.12848 -0.267528 -0.584 198 146 133
0.131517 -0.262489 -0.573 191 139 125
0.150129 -0.258824 -0.565 193 140 126
0.159814 -0.258824 -0.565 185 131 119
0.16254 -0.25974 -0.567 179 125 113
0.200053 -0.282187 -0.616 79 41 54
0.24009 -0.29089 -0.635 168 109 115
0.24168 -0.291349 -0.636 161 101 111
0.245638 -0.293181 -0.64 155 104 113
0.368366 -0.249204 -0.544 50 39 47
0.391797 -0.260656 -0.569 81 79 93
0.401229 -0.255617 -0.558 127 88 89
0.424657 -0.244623 -0.534 125 82 73
0.428938 -0.244165 -0.533 126 81 75
0.429953 -0.244165 -0.533 124 79 73
0.432187 -0.243707 -0.532 127 83 74
0.437989 -0.241874 -0.528 139 92 82
0.448201 -0.241416 -0.527 133 86 76
0.451212 -0.241416 -0.527 139 92 82
0.465763 -0.243249 -0.531 142 94 82
0.479967 -0.246913 -0.539 142 98 87
-0.131027 -0.29164 -0.634 100 103 112
-0.108819 -0.2668 -0.58 91 94 101
-0.102829 -0.2714 -0.59 82 82 90
-0.098181 -0.2806 -0.61 73 73 81
-0.0764419 -0.29072 -0.632 70 69 77
-0.04968 -0.29624 -0.644 72 71 79
0.128467 -0.26404 -0.574 189 137 123
0.133615 -0.26128 -0.568 191 139 125
0.13662 -0.26082 -0.567 189 136 122
0.157383 -0.25944 -0.564 199 145 133
0.165281 -0.26174 -0.569 172 118 106
0.175602 -0.26588 -0.578 152 97 90
0.181381 -0.26956 -0.586 136 86 87
0.233381 -0.299 -0.65 145 95 106
0.23368 -0.29624 -0.644 175 118 125
0.235033 -0.29486 -0.641 182 125 132
0.241746 -0.29118 -0.633 150 95 101
0.401224 -0.2507 -0.545 133 89 90
0.402854 -0.24978 -0.543 134 88 90
0.40521 -0.24932 -0.542 126 82 79
0.411675 -0.24886 -0.541 125 82 75
0.421143 -0.24656 -0.536 126 83 76
0.426691 -0.24564 -0.534 127 82 76
0.4346 -0.2438 -0.53 133 86 76
0.440833 -0.24334 -0.529 140 92 82
0.446034 -0.24288 -0.528 140 92 82
0.449205 -0.24242 -0.527 138 90 80
0.45897 -0.24334 -0.529 147 99 85
0.459978 -0.24334 -0.529 146 98 84
0.461857 -0.2438 -0.53 144 96 84
0.512971 -0.25944 -0.564 135 92 83
-0.118234 -0.274371 -0.594 95 98 103
-0.106793 -0.268367 -0.581 88 88 96
-0.0915086 -0.290076 -0.628 58 58 66
-0.0788495 -0.291924 -0.632 67 66 74
-0.0777686 -0.292386 -0.633 69 68 76
-0.0579952 -0.296081 -0.641 74 73 81
-0.0497571 -0.297929 -0.645 73 72 78
-0.0426486 -0.299776 -0.649 69 68 76
-0.0414762 -0.300238 -0.65 69 68 76
0.126 -0.2716 -0.588 197 148 141
0.141269 -0.260514 -0.564 197 144 130
0.147452 -0.260052 -0.563 187 131 118
0.153086 -0.260514 -0.564 188 134 122
0.159814 -0.260976 -0.565 182 128 116
0.1722 -0.265133 -0.574 161 107 97
0.193343 -0.279914 -0.606 78 37 45
0.232659 -0.290076 -0.628 177 122 125
0.242568 -0.291924 -0.632 140 94 104
0.375886 -0.254971 -0.552 41 30 38
0.381412 -0.257281 -0.557 33 23 31
0.396849 -0.253586 -0.549 131 92 93
0.404177 -0.250352 -0.542 130 86 85
0.408584 -0.24989 -0.541 125 81 78
0.41886 -0.248043 -0.537 127 84 77
0.428938 -0.246195 -0.533 122 77 71
0.437629 -0.24481 -0.53 137 90 80
0.442011 -0.243886 -0.528 136 87 80
-0.386386 -0.299157 -0.645 251 252 246
-0.379014 -0.299157 -0.645 251 252 244
-0.130613 -0.293128 -0.632 98 101 108
-0.114019 -0.270865 -0.584 96 97 102
-0.108819 -0.26901 -0.58 92 93 98
-0.107714 -0.26901 -0.58 89 90 95
-0.101433 -0.275967 -0.595 83 83 91
-0.0858 -0.2922 -0.63 57 56 64
-0.0835324 -0.292664 -0.631 61 60 68
-0.0788495 -0.293128 -0.632 67 66 74
-0.0615619 -0.296838 -0.64 74 73 81
-0.05336 -0.298693 -0.644 72 71 77
-0.0450514 -0.300549 -0.648 69 69 77
0.135062 -0.262052 -0.565 188 134 122
0.184054 -0.274111 -0.591 120 71 74
0.243386 -0.292664 -0.631 137 91 102
0.25651 -0.301012 -0.649 186 194 217
0.3888 -0.259733 -0.56 80 65 72
0.3941 -0.261125 -0.563 109 86 96
0.407553 -0.250921 -0.541 127 83 80
0.412971 -0.250457 -0.54 127 84 78
0.415287 -0.249993 -0.539 127 84 78
0.434409 -0.246283 -0.531 132 85 77
0.460986 -0.245355 -0.529 148 100 90
-0.391311 -0.299454 -0.643 251 252 246
-0.382107 -0.29992 -0.644 251 252 244
-0.364271 -0.300386 -0.645 252 253 247
-0.123337 -0.283154 -0.608 95 98 103
-0.115526 -0.272909 -0.586 93 96 101
-0.114019 -0.271977 -0.584 96 96 104
-0.105869 -0.271046 -0.582 77 77 85
-0.0990171 -0.283154 -0.608 80 81 86
-0.0789743 -0.294797 -0.633 66 65 73
-0.0743857 -0.295729 -0.635 70 69 77
-0.0638 -0.297126 -0.638 74 73 81
0.123857 -0.269183 -0.578 201 152 138
0.135897 -0.262663 -0.564 194 141 125
0.148525 -0.262197 -0.563 185 128 117
0.189458 -0.279894 -0.601 87 44 51
0.192189 -0.282223 -0.606 77 40 48
0.21505 -0.301317 -0.647 83 42 48
0.346816 -0.245431 -0.527 123 97 108
0.3913 -0.260334 -0.559 131 101 109
0.399751 -0.252883 -0.543 132 91 89
0.407553 -0.251951 -0.541 127 86 82
0.425452 -0.249157 -0.535 128 84 75
0.433397 -0.247294 -0.531 135 88 82
0.443017 -0.245897 -0.528 138 91 83
0.454224 -0.245431 -0.527 146 98 86
0.456231 -0.245431 -0.527 145 97 85
0.461993 -0.246363 -0.529 151 103 91
-0.123134 -0.283845 -0.607 95 98 103
-0.117637 -0.276363 -0.591 92 95 100
-0.115329 -0.273557 -0.585 91 94 99
-0.113824 -0.272622 -0.583 94 94 102
-0.108631 -0.270751 -0.579 90 90 98
-0.0985029 -0.286183 -0.612 79 80 85
-0.08834 -0.295068 -0.631 53 53 61
-0.0848686 -0.295535 -0.632 55 54 62
-0.0696571 -0.297406 -0.636 72 71 79
-0.0639 -0.298809 -0.639 72 71 79
-0.0545867 -0.301147 -0.644 72 71 79
-0.0510648 -0.302082 -0.646 71 70 78
-0.0439524 -0.303952 -0.65 69 69 77
0.12518 -0.266075 -0.569 191 138 124
0.149331 -0.262802 -0.562 186 130 117
0.152543 -0.262802 -0.562 195 138 127
0.166365 -0.266075 -0.569 172 115 104
0.177926 -0.272154 -0.582 137 82 85
0.19314 -0.28478 -0.609 79 45 59
0.210614 -0.299744 -0.641 70 37 44
0.350107 -0.248773 -0.532 120 93 102
0.35112 -0.248773 -0.532 114 87 96
0.39468 -0.25532 -0.546 139 99 100
0.410645 -0.252982 -0.541 130 86 83
0.412207 -0.252047 -0.539 129 84 78
0.426691 -0.249709 -0.534 127 82 76
0.450209 -0.246435 -0.527 139 93 80
0.464886 -0.247838 -0.53 147 97 86
0.466774 -0.248306 -0.531 146 96 85
0.472463 -0.249709 -0.534 141 93 81
-0.390703 -0.301434 -0.642 249 250 242
-0.388257 -0.301434 -0.642 250 251 243
-0.383366 -0.301434 -0.642 249 250 242
-0.10661 -0.272324 -0.58 80 81 86
-0.104186 -0.274671 -0.585 70 71 76
-0.0662305 -0.299556 -0.638 72 71 79
-0.0651171 -0.300026 -0.639 72 71 79
-0.0580857 -0.301434 -0.642 74 73 81
-0.0545867 -0.302373 -0.644 71 70 78
0.126676 -0.26575 -0.566 193 137 124
0.131367 -0.264342 -0.563 193 140 126
0.139697 -0.263872 -0.562 199 143 130
0.16499 -0.26669 -0.568 170 113 102
0.168037 -0.268098 -0.571 167 110 99
0.229643 -0.301904 -0.643 162 114 114
0.226233 -0.289696 -0.617 187 126 131
0.228689 -0.286879 -0.611 149 100 103
0.354055 -0.252604 -0.538 125 95 105
0.380728 -0.261055 -0.556 130 98 101
0.383905 -0.261055 -0.556 136 100 104
0.394995 -0.25589 -0.545 141 99 100
0.399015 -0.254482 -0.542 133 89 88
0.403431 -0.254012 -0.541 134 93 91
0.425452 -0.251195 -0.535 131 86 80
0.426691 -0.250726 -0.534 129 84 78
0.430969 -0.250256 -0.533 131 84 76
0.432999 -0.250256 -0.533 133 86 78
0.436619 -0.248848 -0.53 136 88 78
0.438638 -0.248848 -0.53 136 88 76
0.440657 -0.248848 -0.53 137 89 79
0.443856 -0.248378 -0.529 139 91 79
0.452216 -0.247439 -0.527 144 96 84
0.46968 -0.249787 -0.532 142 94 82
0.47348 -0.250726 -0.534 139 91 79
0.48202 -0.253073 -0.539 141 97 86
0.483943 -0.253543 -0.54 141 97 86
0.48587 -0.254012 -0.541 144 94 85
0.4887 -0.254951 -0.543 142 92 83
-0.134073 -0.3003 -0.637 96 99 106
-0.099681 -0.285214 -0.605 86 87 92
-0.0971143 -0.291343 -0.618 78 79 84
-0.093901 -0.296057 -0.628 64 65 70
-0.0721933 -0.3003 -0.637 71 70 78
-0.0510648 -0.304543 -0.646 72 71 79
0.121907 -0.2706 -0.574 200 148 135
0.129222 -0.265414 -0.563 196 140 127
0.135415 -0.264943 -0.562 194 138 123
0.154684 -0.264943 -0.562 182 124 112
0.16362 -0.2673 -0.567 168 111 102
0.178231 -0.274843 -0.583 119 71 69
0.250514 -0.301714 -0.64 243 243 253
0.376871 -0.261643 -0.555 130 98 99
0.379669 -0.262114 -0.556 146 110 112
0.405771 -0.254571 -0.54 137 92 89
0.407829 -0.254571 -0.54 137 92 89
0.413491 -0.253629 -0.538 131 88 82
0.418615 -0.253629 -0.538 133 90 83
0.422164 -0.252686 -0.536 134 90 81
0.422395 -0.252214 -0.535 135 91 82
0.423414 -0.252214 -0.535 134 90 81
0.425452 -0.252214 -0.535 133 86 78
0.426691 -0.251743 -0.534 133 86 78
0.427923 -0.251271 -0.533 131 84 76
0.430969 -0.251271 -0.533 132 85 77
0.434014 -0.251271 -0.533 133 86 76
0.449051 -0.248914 -0.528 142 93 79
0.450057 -0.248914 -0.528 141 92 78
0.450209 -0.248443 -0.527 141 92 78
0.46968 -0.2508 -0.532 141 93 81
-0.38399 -0.303407 -0.641 249 251 240
-0.138 -0.304827 -0.644 93 93 101
-0.109545 -0.273587 -0.578 94 95 100
-0.105869 -0.27548 -0.582 71 72 77
-0.0965581 -0.294413 -0.622 77 78 83
-0.0825914 -0.29962 -0.633 52 51 59
-0.0605314 -0.30388 -0.642 73 72 78
-0.0499114 -0.306247 -0.647 72 71 77
0.12366 -0.26838 -0.567 191 137 125
0.136486 -0.266013 -0.562 198 142 129
0.137311 -0.26554 -0.561 198 142 129
0.13838 -0.26554 -0.561 201 143 131
0.1456 -0.265067 -0.56 183 125 111
0.150933 -0.265067 -0.56 191 131 120
0.15334 -0.26554 -0.561 187 127 116
0.162253 -0.267907 -0.566 169 112 103
0.207523 -0.30246 -0.639 78 54 78
0.2291 -0.28826 -0.609 151 98 106
0.258143 -0.307667 -0.65 187 195 218
0.372028 -0.273113 -0.577 131 89 101
0.360114 -0.26128 -0.552 136 100 112
0.357624 -0.257967 -0.545 136 104 115
0.359785 -0.256547 -0.542 66 41 45
0.360817 -0.256547 -0.542 68 47 46
0.363185 -0.257493 -0.544 70 49 48
0.368238 -0.260333 -0.55 81 57 55
0.379971 -0.26412 -0.558 152 113 114
0.384271 -0.2627 -0.555 148 106 108
0.39162 -0.25986 -0.549 144 102 103
0.3926 -0.25844 -0.546 141 97 98
0.393957 -0.257967 -0.545 143 99 100
0.407073 -0.255127 -0.539 138 93 88
0.410153 -0.255127 -0.539 137 92 87
0.446879 -0.250393 -0.529 142 92 81
0.454224 -0.249447 -0.527 149 100 85
0.46112 -0.24992 -0.528 148 99 84
0.463001 -0.250393 -0.529 150 101 86
-0.389486 -0.304152 -0.64 249 251 240
-0.128133 -0.294648 -0.62 96 96 106
-0.103424 -0.278965 -0.587 100 99 105
-0.0850029 -0.300826 -0.633 51 50 58
-0.0664381 -0.304152 -0.64 72 71 79
-0.05704 -0.306053 -0.644 71 70 76
0.125154 -0.268034 -0.564 189 135 123
0.128992 -0.267084 -0.562 194 138 125
0.205337 -0.302251 -0.636 141 145 182
0.224138 -0.287519 -0.605 183 129 129
0.231016 -0.29037 -0.611 141 85 94
0.369686 -0.270886 -0.57 129 87 99
0.362474 -0.263282 -0.554 129 91 102
0.363104 -0.259955 -0.547 75 49 52
0.375814 -0.263757 -0.555 144 108 108
0.383214 -0.263757 -0.555 149 109 110
0.388153 -0.262807 -0.553 147 105 106
0.39364 -0.25948 -0.546 144 100 99
0.394995 -0.259005 -0.545 142 98 97
0.39695 -0.257579 -0.542 139 94 91
0.397983 -0.257579 -0.542 136 91 88
0.41118 -0.256153 -0.539 137 92 86
0.432999 -0.253302 -0.533 140 92 82
0.456231 -0.25045 -0.527 148 97 80
0.477295 -0.254728 -0.536 142 93 78
0.478316 -0.254728 -0.536 142 93 78
-0.130774 -0.299169 -0.627 97 97 105
-0.116443 -0.279129 -0.585 97 98 102
-0.109545 -0.275789 -0.578 97 97 105
-0.101433 -0.2839 -0.595 95 94 102
-0.0618505 -0.306803 -0.643 72 71 79
-0.0559867 -0.308234 -0.646 71 70 76
-0.0512229 -0.309189 -0.648 71 70 75
0.136243 -0.267677 -0.561 196 139 128
0.138133 -0.2672 -0.56 200 144 131
0.14534 -0.266723 -0.559 180 122 110
0.14747 -0.266723 -0.559 181 121 110
0.148534 -0.266723 -0.559 182 123 109
0.16089 -0.269586 -0.565 167 109 98
0.227023 -0.308234 -0.646 163 112 119
0.224866 -0.302031 -0.633 182 126 127
0.366154 -0.266246 -0.558 140 105 109
0.366695 -0.264337 -0.554 134 104 106
0.367087 -0.26386 -0.553 90 60 62
0.374373 -0.265291 -0.556 140 100 101
0.382846 -0.265291 -0.556 149 111 110
0.384634 -0.264337 -0.554 148 108 108
0.414769 -0.256226 -0.537 139 94 88
0.420357 -0.255271 -0.535 137 90 84
0.426908 -0.254317 -0.533 137 88 81
0.429147 -0.25384 -0.532 139 90 83
0.45322 -0.251454 -0.527 150 101 86
0.464009 -0.252409 -0.529 149 98 81
-0.13281 -0.302279 -0.631 98 98 106
-0.105869 -0.278806 -0.582 69 69 77
-0.10494 -0.279285 -0.583 67 67 75
-0.101433 -0.285033 -0.595 98 97 105
-0.0986638 -0.293656 -0.613 88 87 95
-0.0967133 -0.298447 -0.623 80 80 88
-0.0827219 -0.303716 -0.634 51 50 58
-0.0768048 -0.304195 -0.635 59 58 66
0.127694 -0.268746 -0.561 197 139 127
0.136 -0.268267 -0.56 195 137 125
0.138133 -0.268267 -0.56 204 146 134
0.152 -0.268267 -0.56 176 114 103
0.155477 -0.268746 -0.561 167 107 97
0.221511 -0.287908 -0.601 193 139 137
0.224546 -0.288866 -0.603 175 116 120
0.36985 -0.269225 -0.562 162 121 125
0.388153 -0.264913 -0.553 149 105 102
0.3926 -0.26156 -0.546 146 102 101
0.394995 -0.261081 -0.545 144 99 96
0.414769 -0.257249 -0.537 138 93 87
0.440657 -0.253895 -0.53 146 97 82
0.447887 -0.253416 -0.529 149 97 83
0.448046 -0.252937 -0.528 150 98 84
0.451212 -0.252458 -0.527 150 98 84
-0.118361 -0.283281 -0.589 100 101 105
-0.0757143 -0.305886 -0.636 59 58 66
-0.0734067 -0.306367 -0.637 65 64 72
-0.0723067 -0.306848 -0.638 65 64 72
0.118056 -0.312138 -0.649 194 144 137
0.118373 -0.309733 -0.644 194 135 129
0.117943 -0.277029 -0.576 192 135 124
0.119303 -0.275105 -0.572 190 133 122
0.137067 -0.269333 -0.56 198 140 128
0.14534 -0.268852 -0.559 176 118 106
0.158176 -0.270776 -0.563 166 104 93
0.169717 -0.275586 -0.573 154 94 93
0.18748 -0.289533 -0.602 202 197 229
0.224173 -0.289533 -0.602 177 117 119
0.386707 -0.28761 -0.598 132 84 96
0.383467 -0.269333 -0.56 151 110 108
0.383847 -0.268852 -0.559 150 109 107
0.386386 -0.266929 -0.555 148 104 101
0.396343 -0.261638 -0.544 145 100 97
0.396649 -0.261157 -0.543 144 99 96
0.399015 -0.260676 -0.542 138 93 90
0.402686 -0.259714 -0.54 141 94 88
0.419338 -0.25731 -0.535 142 95 87
0.431173 -0.255867 -0.532 145 97 87
0.434409 -0.255386 -0.531 147 97 86
0.446879 -0.254424 -0.529 149 98 81
0.463131 -0.253943 -0.528 150 98 85
0.471707 -0.255867 -0.532 148 95 81
-0.140235 -0.310477 -0.643 102 103 107
-0.102829 -0.284886 -0.59 102 102 110
-0.07462 -0.30758 -0.637 61 60 68
-0.0596781 -0.311926 -0.646 69 68 76
-0.0560733 -0.312409 -0.647 71 70 78
0.11727 -0.308063 -0.638 191 132 126
0.11542 -0.29406 -0.609 198 140 136
0.115049 -0.290197 -0.601 197 142 135
0.123006 -0.272331 -0.564 179 121 110
0.133867 -0.2704 -0.56 193 135 124
0.138133 -0.2704 -0.56 195 137 126
0.140267 -0.2704 -0.56 190 128 117
0.154133 -0.2704 -0.56 173 109 100
0.156825 -0.271366 -0.562 171 104 96
0.159249 -0.271849 -0.563 169 105 96
0.162253 -0.273297 -0.566 171 104 98
0.1731 -0.278609 -0.577 136 82 80
0.184476 -0.287783 -0.596 219 217 254
0.187791 -0.291163 -0.603 201 199 236
0.217942 -0.293094 -0.607 195 135 134
0.218857 -0.289714 -0.6 198 143 138
0.246179 -0.305166 -0.632 178 177 211
0.254929 -0.311443 -0.645 226 229 248
0.380338 -0.281506 -0.583 126 83 93
0.380834 -0.272331 -0.564 143 103 104
0.3856 -0.2704 -0.56 148 102 102
0.39468 -0.26364 -0.546 149 101 99
0.399015 -0.261709 -0.542 139 94 89
0.408368 -0.259777 -0.538 143 95 85
0.415017 -0.258811 -0.536 143 96 88
0.433397 -0.256397 -0.531 152 100 87
0.450209 -0.254466 -0.527 151 98 84
0.467031 -0.255431 -0.529 151 98 84
0.475639 -0.257363 -0.533 142 89 75
0.484323 -0.259294 -0.537 146 92 80
0.495817 -0.262674 -0.544 143 94 80
-0.113043 -0.280677 -0.579 108 108 116
-0.109545 -0.280192 -0.578 107 107 115
-0.1005 -0.292311 -0.603 98 98 106
-0.0995057 -0.29619 -0.611 95 94 102
-0.0734067 -0.308793 -0.637 62 61 69
-0.0688762 -0.310248 -0.64 68 67 75
0.141333 -0.271467 -0.56 187 124 115
0.177121 -0.282616 -0.583 122 82 90
0.208889 -0.313641 -0.647 201 213 251
0.381454 -0.277769 -0.573 139 93 103
0.38394 -0.27486 -0.567 141 96 99
0.387778 -0.270012 -0.557 146 101 98
0.39026 -0.268073 -0.553 142 98 95
0.398415 -0.26371 -0.544 145 98 92
0.409392 -0.260802 -0.538 144 96 86
0.419571 -0.258863 -0.534 144 96 84
0.423862 -0.258378 -0.533 148 99 85
0.440657 -0.256924 -0.53 153 100 86
0.460247 -0.25547 -0.527 149 96 80
0.469933 -0.256924 -0.53 156 103 89
0.48818 -0.261287 -0.539 144 95 81
0.492962 -0.262741 -0.542 143 94 80
-0.138578 -0.311953 -0.641 96 97 102
-0.129314 -0.301733 -0.62 100 100 108
-0.104364 -0.285187 -0.586 98 98 106
-0.10205 -0.288107 -0.592 106 106 114
-0.0977429 -0.302707 -0.622 89 90 95
-0.0902514 -0.30952 -0.636 50 51 56
-0.0876905 -0.309033 -0.635 47 48 53
-0.0723067 -0.310493 -0.638 64 63 71
0.1148 -0.28616 -0.588 190 133 124
0.117738 -0.279833 -0.575 191 132 124
0.137067 -0.272533 -0.56 192 134 123
0.169717 -0.27886 -0.573 158 94 92
0.2214 -0.3066 -0.63 178 119 121
0.216506 -0.29346 -0.603 192 134 132
0.223056 -0.291513 -0.599 176 119 110
0.387337 -0.288107 -0.592 127 86 90
0.392709 -0.26864 -0.552 143 99 98
0.39676 -0.26572 -0.546 144 99 94
0.418319 -0.260367 -0.535 146 98 88
0.427329 -0.25842 -0.531 157 105 92
0.442676 -0.257933 -0.53 154 101 87
0.451212 -0.256473 -0.527 154 101 87
0.454364 -0.255987 -0.526 154 101 85
0.496853 -0.264747 -0.544 147 98 84
0.502594 -0.266693 -0.548 141 91 80
-0.12586 -0.29754 -0.609 103 103 113
-0.10605 -0.284837 -0.583 67 67 75
-0.103003 -0.288746 -0.591 107 107 115
-0.102394 -0.290211 -0.594 105 105 113
-0.0986095 -0.302914 -0.62 93 92 98
-0.0940333 -0.31122 -0.637 74 75 80
-0.0757143 -0.310731 -0.636 52 51 59
0.112956 -0.291189 -0.596 191 134 125
0.115329 -0.285814 -0.585 190 132 121
0.122148 -0.276043 -0.565 192 133 125
0.127467 -0.2736 -0.56 192 133 125
0.140267 -0.2736 -0.56 173 108 102
0.154133 -0.2736 -0.56 162 97 93
0.156546 -0.274089 -0.561 161 97 95
0.171405 -0.280929 -0.575 140 88 92
0.222684 -0.292166 -0.598 174 117 108
0.22837 -0.295097 -0.604 151 101 92
0.23066 -0.296563 -0.607 134 92 93
0.232962 -0.298029 -0.61 131 89 90
0.248557 -0.310243 -0.635 248 244 255
0.3906 -0.272623 -0.558 141 96 93
0.394757 -0.268226 -0.549 142 97 92
0.40137 -0.264317 -0.541 138 91 83
0.410153 -0.26334 -0.539 143 95 85
0.41808 -0.261874 -0.536 146 98 88
0.441667 -0.258943 -0.53 154 101 87
0.454364 -0.256989 -0.526 154 101 85
0.491143 -0.263829 -0.54 146 94 81
-0.116045 -0.285948 -0.583 110 111 115
-0.107714 -0.284476 -0.58 91 94 101
-0.103177 -0.290362 -0.592 117 117 125
-0.0734067 -0.312433 -0.637 57 56 64
-0.0723067 -0.312924 -0.638 61 60 68
0.113111 -0.318319 -0.649 178 144 143
0.113962 -0.304095 -0.62 187 135 124
0.115131 -0.286438 -0.584 191 134 125
0.116643 -0.282024 -0.575 190 132 121
0.117329 -0.281043 -0.573 190 133 122
0.122148 -0.277119 -0.565 191 134 123
0.123006 -0.276629 -0.564 190 133 122
0.168037 -0.280062 -0.571 153 91 94
0.215788 -0.294776 -0.601 194 136 134
0.253743 -0.314886 -0.642 225 224 230
0.392313 -0.284967 -0.581 136 91 94
0.391389 -0.283495 -0.578 138 93 96
0.3915 -0.2781 -0.567 141 95 95
0.391955 -0.276138 -0.563 139 94 91
0.392 -0.274667 -0.56 139 91 89
0.427329 -0.260443 -0.531 161 112 98
0.434409 -0.260443 -0.531 158 106 92
-0.113043 -0.285089 -0.579 109 112 119
-0.102739 -0.293459 -0.596 130 130 132
-0.100483 -0.303799 -0.617 103 104 108
-0.0966 -0.3102 -0.63 79 80 85
-0.0735219 -0.314139 -0.638 52 51 59
0.114054 -0.308723 -0.627 183 131 120
0.113335 -0.294444 -0.598 190 136 126
0.141081 -0.275241 -0.559 167 103 94
0.150664 -0.275241 -0.559 164 99 95
0.162253 -0.278688 -0.566 162 97 95
0.209534 -0.319555 -0.649 188 194 230
0.214564 -0.297398 -0.604 189 131 129
0.213929 -0.294936 -0.599 192 134 132
0.227991 -0.296906 -0.603 147 92 87
0.23258 -0.29986 -0.609 127 85 86
0.398097 -0.294444 -0.598 126 83 90
0.396814 -0.290997 -0.591 137 87 98
0.39569 -0.288535 -0.586 133 88 93
0.395451 -0.28755 -0.584 134 89 92
0.394271 -0.285089 -0.579 137 92 95
0.399148 -0.268348 -0.545 141 94 88
0.400488 -0.267855 -0.544 143 94 89
0.420589 -0.262931 -0.534 149 99 88
0.422847 -0.262439 -0.533 153 103 92
0.42408 -0.261947 -0.532 154 104 93
0.436431 -0.261454 -0.531 159 107 93
0.438638 -0.260962 -0.53 152 99 85
0.442676 -0.260962 -0.53 157 104 90
0.444695 -0.260962 -0.53 155 102 88
0.451212 -0.259485 -0.527 157 104 90
0.46816 -0.259977 -0.528 156 102 90
0.489324 -0.264901 -0.538 148 96 82
-0.1079 -0.28718 -0.581 90 93 98
-0.106977 -0.287674 -0.582 76 77 82
-0.0789743 -0.312883 -0.633 45 44 52
-0.0678686 -0.317331 -0.642 62 61 67
0.11329 -0.317826 -0.643 190 138 127
0.114019 -0.288663 -0.584 187 132 125
0.118677 -0.281249 -0.569 186 129 120
0.147206 -0.275811 -0.558 179 116 107
0.1998 -0.3114 -0.63 209 220 252
0.232198 -0.300526 -0.608 130 85 88
0.397847 -0.28718 -0.581 133 88 91
0.395122 -0.279766 -0.566 132 86 86
0.401224 -0.269386 -0.545 142 93 88
0.402854 -0.268397 -0.543 139 90 85
0.406523 -0.267409 -0.541 139 90 83
0.423067 -0.26296 -0.532 156 106 95
0.443856 -0.261477 -0.529 153 101 87
0.455366 -0.259994 -0.526 151 98 84
0.463381 -0.259994 -0.526 155 102 88
0.46627 -0.260489 -0.527 159 105 93
0.46816 -0.260983 -0.528 157 103 91
0.47207 -0.261477 -0.529 154 100 88
0.474981 -0.261971 -0.53 151 98 84
0.492287 -0.26642 -0.539 149 100 85
-0.114934 -0.289279 -0.583 104 105 110
-0.106414 -0.290271 -0.585 66 67 72
-0.08904 -0.315577 -0.636 47 47 55
0.113625 -0.31657 -0.638 184 132 121
0.11376 -0.313592 -0.632 180 128 115
0.127239 -0.27737 -0.559 186 128 117
0.141081 -0.27737 -0.559 175 110 104
0.14747 -0.27737 -0.559 177 117 107
0.161967 -0.280348 -0.565 162 97 95
0.177729 -0.290271 -0.585 118 79 84
0.209211 -0.321531 -0.648 190 196 232
0.214723 -0.303172 -0.611 191 137 137
0.214767 -0.295233 -0.595 195 135 135
0.2193 -0.295233 -0.595 182 117 113
0.227613 -0.298707 -0.602 148 88 88
0.403805 -0.294241 -0.593 127 87 88
0.397633 -0.274393 -0.553 137 92 87
0.401224 -0.270424 -0.545 142 93 88
0.407553 -0.268439 -0.541 138 89 82
0.42834 -0.263477 -0.531 158 106 93
0.4555 -0.2605 -0.525 152 99 85
0.470171 -0.261989 -0.528 154 100 88
-0.10566 -0.292382 -0.587 75 76 80
-0.0723067 -0.317785 -0.638 45 44 52
0.112198 -0.294872 -0.592 186 131 128
0.116919 -0.284412 -0.571 189 132 125
0.118469 -0.282918 -0.568 185 128 121
0.144275 -0.278435 -0.559 182 117 111
0.169717 -0.285409 -0.573 143 83 75
0.219529 -0.31629 -0.635 180 132 132
0.213317 -0.302344 -0.607 194 136 135
0.252952 -0.318781 -0.64 250 247 255
0.261454 -0.323264 -0.649 198 202 249
0.407553 -0.26947 -0.541 138 89 82
0.411943 -0.268971 -0.54 141 92 85
0.41808 -0.266979 -0.536 145 95 86
0.423067 -0.264987 -0.532 160 108 95
0.432386 -0.264489 -0.531 164 111 97
0.441667 -0.26399 -0.53 152 100 86
0.445871 -0.263492 -0.529 157 106 89
-0.118763 -0.2955 -0.591 92 93 98
-0.0992457 -0.312 -0.624 151 153 150
-0.0985286 -0.3135 -0.627 147 149 148
-0.0745029 -0.318 -0.636 41 40 48
0.112734 -0.3165 -0.633 184 135 130
0.112009 -0.2955 -0.591 187 132 129
0.131498 -0.2795 -0.559 188 129 121
