ply
format ascii 1.0
comment Created by Open3D
element vertex 1315
property double x
property double y
property double z
property uchar red
property uchar green
property uchar blue
end_header
0.410677 -0.234746 -0.537 141 92 85
0.424294 -0.232123 -0.531 148 99 85
0.429351 -0.232123 -0.531 151 102 88
-0.139356 -0.275722 -0.628 215 216 218
-0.116351 -0.277917 -0.633 86 85 90
-0.102647 -0.273527 -0.623 75 74 79
-0.0934314 -0.270892 -0.617 77 76 81
-0.0806343 -0.271331 -0.618 74 75 80
-0.0752324 -0.273088 -0.622 72 73 78
-0.0741667 -0.273527 -0.623 72 73 78
-0.0426486 -0.284942 -0.649 71 71 79
0.0981505 -0.199328 -0.454 206 163 146
0.155324 -0.206352 -0.47 129 86 79
0.237757 -0.246306 -0.561 73 60 78
0.253 -0.241476 -0.55 85 64 71
0.25636 -0.23972 -0.546 89 66 74
0.2574 -0.23972 -0.546 90 67 75
0.261081 -0.239281 -0.545 93 70 78
0.262674 -0.238842 -0.544 98 73 79
0.271553 -0.236647 -0.539 111 84 91
0.273099 -0.236208 -0.538 111 84 93
0.278189 -0.234451 -0.534 130 100 110
0.279698 -0.234012 -0.533 131 101 111
0.295622 -0.231378 -0.527 125 98 105
0.3015 -0.2305 -0.525 131 104 111
0.306914 -0.230061 -0.524 138 112 121
0.310313 -0.229622 -0.523 141 113 125
0.32178 -0.227866 -0.519 139 111 123
0.360514 -0.237086 -0.54 85 83 97
0.408669 -0.244989 -0.558 149 99 92
0.446197 -0.234012 -0.533 143 94 80
0.477713 -0.240159 -0.547 148 99 85
-0.125201 -0.277359 -0.629 103 105 104
-0.103167 -0.27295 -0.619 62 65 72
-0.0894686 -0.270745 -0.614 75 74 80
-0.0872714 -0.271186 -0.615 76 75 81
-0.0785333 -0.27339 -0.62 73 73 81
0.109529 -0.19887 -0.451 199 152 134
0.122094 -0.199751 -0.453 182 139 120
0.13072 -0.201074 -0.456 159 109 98
0.240322 -0.247815 -0.562 81 60 69
0.254048 -0.242524 -0.55 87 66 73
0.274126 -0.23635 -0.536 116 86 96
0.279698 -0.235028 -0.533 131 101 111
0.283227 -0.234587 -0.532 133 103 113
0.289229 -0.233705 -0.53 126 99 108
0.298067 -0.231941 -0.526 128 98 108
0.307912 -0.231059 -0.524 140 114 123
0.31131 -0.230618 -0.523 140 114 125
0.322769 -0.228854 -0.519 138 110 122
0.329749 -0.227531 -0.516 217 191 202
0.336296 -0.227972 -0.517 133 113 124
0.435119 -0.275595 -0.625 81 77 102
0.40552 -0.241642 -0.548 141 96 91
0.41118 -0.237673 -0.539 136 89 83
0.413491 -0.237232 -0.538 130 86 75
0.414486 -0.235469 -0.534 137 90 80
0.41777 -0.235028 -0.533 144 98 85
0.42712 -0.234587 -0.532 150 100 89
0.435227 -0.234587 -0.532 150 98 87
0.440293 -0.234587 -0.532 147 95 84
0.46354 -0.237673 -0.539 143 93 82
0.468185 -0.238996 -0.542 151 99 88
0.473021 -0.239878 -0.544 148 98 87
0.48822 -0.243847 -0.553 145 97 85
0.493873 -0.24561 -0.557 148 100 88
-0.142651 -0.279886 -0.632 99 100 105
-0.121829 -0.276343 -0.624 71 70 75
-0.0950057 -0.271029 -0.612 72 73 78
-0.09384 -0.271029 -0.612 70 71 76
-0.0850667 -0.2728 -0.616 75 75 83
-0.0678 -0.279 -0.63 73 72 80
-0.0565971 -0.282986 -0.639 69 68 76
0.0817457 -0.203271 -0.459 202 165 147
0.0944829 -0.200614 -0.453 210 168 152
0.0970714 -0.200614 -0.453 206 165 147
0.126688 -0.201057 -0.454 160 112 98
0.13072 -0.201943 -0.456 159 109 98
0.152313 -0.2077 -0.469 132 91 85
0.168686 -0.212571 -0.48 102 74 73
0.246398 -0.245343 -0.554 82 61 68
0.24806 -0.2449 -0.553 82 61 66
0.25683 -0.242243 -0.547 90 67 75
0.260043 -0.241357 -0.545 93 70 78
0.267903 -0.240029 -0.542 108 81 88
0.268935 -0.240029 -0.542 110 83 90
0.280713 -0.236043 -0.533 133 103 113
0.282744 -0.236043 -0.533 130 100 110
0.285729 -0.235157 -0.531 138 108 118
0.290698 -0.234271 -0.529 129 102 109
0.291706 -0.234271 -0.529 130 103 110
0.2995 -0.2325 -0.525 131 101 111
0.30392 -0.232057 -0.524 134 106 118
0.309317 -0.231614 -0.523 141 113 125
0.31131 -0.231614 -0.523 142 114 126
0.316073 -0.230729 -0.521 137 111 120
0.319803 -0.229843 -0.519 136 108 120
0.331714 -0.228514 -0.516 215 199 210
0.339574 -0.229843 -0.519 126 109 119
0.361182 -0.239586 -0.541 110 108 121
0.413233 -0.2387 -0.539 131 84 78
0.415017 -0.237371 -0.536 135 91 80
0.418786 -0.236043 -0.533 139 92 82
0.426107 -0.2356 -0.532 147 97 86
0.435227 -0.2356 -0.532 152 100 89
0.44232 -0.2356 -0.532 145 93 80
0.472151 -0.240471 -0.543 152 100 89
0.47684 -0.2418 -0.546 142 90 79
0.480674 -0.242686 -0.548 142 92 83
-0.113043 -0.273529 -0.615 60 59 64
-0.102997 -0.27175 -0.611 53 54 59
-0.08638 -0.274418 -0.617 75 75 85
-0.0841657 -0.274863 -0.618 75 76 80
-0.0777267 -0.277087 -0.623 73 74 79
-0.0745238 -0.278421 -0.626 73 74 79
-0.069 -0.2802 -0.63 72 71 79
-0.0508276 -0.285982 -0.643 71 70 78
0.0843143 -0.201922 -0.454 205 167 148
0.0858543 -0.201477 -0.453 204 165 148
0.0918943 -0.201477 -0.453 206 164 148
0.106092 -0.200588 -0.451 202 157 138
0.112965 -0.200588 -0.451 197 152 131
0.114683 -0.200588 -0.451 197 152 131
0.116659 -0.201032 -0.452 196 151 130
0.119242 -0.201032 -0.452 188 142 126
0.152313 -0.208593 -0.469 129 90 85
0.168121 -0.21393 -0.481 103 73 73
0.178526 -0.218823 -0.492 94 69 65
0.186563 -0.222826 -0.501 95 69 68
0.26947 -0.240616 -0.541 110 83 90
0.291706 -0.235279 -0.529 128 101 108
0.295177 -0.234834 -0.528 129 102 109
0.312703 -0.232166 -0.522 142 115 124
0.317448 -0.231276 -0.52 134 106 118
0.319803 -0.230831 -0.519 134 106 118
0.330388 -0.229942 -0.517 140 116 129
0.333342 -0.229942 -0.517 148 131 141
0.415897 -0.268636 -0.604 107 104 125
0.409529 -0.242395 -0.545 135 87 83
0.411675 -0.240616 -0.541 128 81 75
0.417537 -0.237503 -0.534 138 91 83
0.419801 -0.237058 -0.533 138 90 80
0.43016 -0.236613 -0.532 152 102 91
0.441307 -0.236613 -0.532 143 94 80
0.451948 -0.237948 -0.535 151 99 88
0.458751 -0.238837 -0.537 141 91 80
-0.134687 -0.278273 -0.623 103 102 108
-0.1335 -0.278273 -0.623 101 100 106
-0.106948 -0.271127 -0.607 60 59 64
-0.0935333 -0.272467 -0.61 75 74 80
-0.0767857 -0.279167 -0.625 74 73 79
-0.0669171 -0.28274 -0.633 72 71 79
-0.0578143 -0.28542 -0.639 74 73 81
-0.0566857 -0.285867 -0.64 74 73 81
-0.0439524 -0.290333 -0.65 144 143 151
0.100938 -0.201447 -0.451 205 162 145
0.101797 -0.201447 -0.451 205 162 145
0.103515 -0.201447 -0.451 202 159 142
0.108429 -0.201 -0.45 198 155 136
0.11726 -0.201447 -0.451 191 149 127
0.124683 -0.20234 -0.453 164 116 102
0.199197 -0.23182 -0.519 97 75 77
0.243934 -0.25594 -0.573 83 62 69
0.246229 -0.248347 -0.556 83 64 70
0.250619 -0.247453 -0.554 85 64 71
0.255095 -0.245667 -0.55 89 66 74
0.27769 -0.238967 -0.535 128 98 108
0.279206 -0.23852 -0.534 131 101 111
0.301924 -0.234053 -0.524 139 112 121
0.316457 -0.232267 -0.52 133 107 118
0.320173 -0.231373 -0.518 132 106 117
0.325107 -0.231373 -0.518 133 109 122
0.409067 -0.250133 -0.56 141 97 98
0.407 -0.245667 -0.55 136 91 88
0.427923 -0.238073 -0.533 150 102 90
0.432187 -0.237627 -0.532 154 104 93
0.437253 -0.237627 -0.532 150 100 89
0.44232 -0.237627 -0.532 144 92 81
0.451103 -0.23852 -0.534 154 102 91
0.458751 -0.23986 -0.537 143 93 82
0.464567 -0.240753 -0.539 145 95 84
0.47025 -0.242093 -0.542 150 97 89
0.475093 -0.242987 -0.544 145 92 84
0.495995 -0.248793 -0.557 150 100 91
-0.135119 -0.280357 -0.625 105 106 111
-0.128689 -0.276769 -0.617 95 94 100
-0.11929 -0.274077 -0.611 60 61 66
-0.08976 -0.27632 -0.616 77 76 84
0.0908305 -0.202754 -0.452 207 166 146
0.109286 -0.201857 -0.45 195 154 134
0.110143 -0.201857 -0.45 195 154 134
0.111857 -0.201857 -0.45 197 156 134
0.12382 -0.203203 -0.453 163 115 101
0.157216 -0.212174 -0.473 111 77 75
0.1679 -0.21666 -0.483 97 71 72
0.245428 -0.250751 -0.559 81 64 74
0.27258 -0.24178 -0.539 117 87 97
0.309909 -0.235051 -0.524 145 115 125
0.31131 -0.234603 -0.523 141 113 125
0.319803 -0.232809 -0.519 132 104 116
0.322147 -0.23236 -0.518 135 109 120
0.327433 -0.231911 -0.517 139 115 128
0.338586 -0.232809 -0.519 142 119 129
0.34716 -0.235949 -0.526 58 38 49
0.367569 -0.246266 -0.549 99 101 116
0.417274 -0.271834 -0.606 89 86 107
0.411643 -0.253443 -0.565 140 96 97
0.415541 -0.241331 -0.538 126 83 76
0.417837 -0.240883 -0.537 134 89 83
0.43624 -0.23864 -0.532 150 100 89
0.465593 -0.24178 -0.539 150 97 89
0.497056 -0.249854 -0.557 150 100 91
-0.132101 -0.280196 -0.622 103 104 109
-0.10589 -0.270736 -0.601 70 71 75
-0.1005 -0.271637 -0.603 55 56 60
-0.0986914 -0.272989 -0.606 65 64 70
-0.0976981 -0.273439 -0.607 66 65 71
-0.0647095 -0.286052 -0.635 73 72 80
-0.0521333 -0.290107 -0.644 71 69 80
-0.045121 -0.292359 -0.649 129 127 140
0.0856648 -0.203615 -0.452 206 165 147
0.0949248 -0.203165 -0.451 204 163 143
0.106714 -0.202714 -0.45 201 160 140
0.118119 -0.203165 -0.451 183 134 119
0.126967 -0.204967 -0.455 161 112 98
0.190287 -0.230193 -0.511 90 69 74
0.2705 -0.243708 -0.541 109 82 89
0.280223 -0.240554 -0.534 131 101 111
0.289229 -0.238752 -0.53 134 104 116
0.312703 -0.235149 -0.522 141 111 123
0.344184 -0.235599 -0.523 81 64 74
0.408351 -0.247311 -0.549 132 88 85
0.411605 -0.24551 -0.545 131 86 81
0.416566 -0.242356 -0.538 128 85 78
0.43624 -0.239653 -0.532 150 100 91
0.44232 -0.239653 -0.532 148 95 87
0.468514 -0.243257 -0.54 148 98 87
0.484689 -0.247311 -0.549 144 94 85
-0.119469 -0.274143 -0.606 78 78 86
-0.116773 -0.273238 -0.604 80 79 85
-0.0899057 -0.279119 -0.617 72 71 79
-0.0747619 -0.284095 -0.628 74 73 81
-0.0579048 -0.289524 -0.64 75 73 84
-0.05336 -0.291333 -0.644 72 70 83
-0.0474467 -0.29269 -0.647 136 134 145
0.082221 -0.204476 -0.452 202 163 146
0.0846162 -0.204024 -0.451 207 165 149
0.0955714 -0.203571 -0.45 201 160 142
0.0981429 -0.203571 -0.45 203 162 142
0.118978 -0.204024 -0.451 174 127 111
0.12382 -0.204929 -0.453 161 113 99
0.137422 -0.208548 -0.461 149 100 86
0.14036 -0.209 -0.462 144 96 84
0.156315 -0.213976 -0.473 107 76 74
0.164798 -0.218048 -0.482 97 68 70
0.167671 -0.219405 -0.485 94 68 71
0.170917 -0.221214 -0.489 94 69 73
0.184934 -0.229357 -0.507 84 64 66
0.258708 -0.249262 -0.551 91 70 75
0.259286 -0.24881 -0.55 91 70 75
0.264123 -0.247452 -0.547 98 73 79
0.271 -0.24519 -0.542 110 83 90
0.30392 -0.237048 -0.524 139 111 123
0.316457 -0.235238 -0.52 132 106 117
0.318814 -0.234786 -0.519 131 103 115
-0.0958571 -0.277114 -0.61 61 60 66
-0.0804857 -0.284383 -0.626 76 75 81
-0.0613695 -0.289834 -0.638 72 71 79
-0.0545019 -0.292106 -0.643 70 68 79
-0.05336 -0.29256 -0.644 71 69 82
0.080499 -0.205337 -0.452 202 163 148
0.082039 -0.204883 -0.451 200 161 144
0.0895714 -0.204429 -0.45 206 165 147
0.0972857 -0.204429 -0.45 203 162 144
0.106477 -0.203974 -0.449 201 158 139
0.115286 -0.204429 -0.45 188 143 124
0.139178 -0.209426 -0.461 146 98 86
0.143619 -0.210789 -0.464 134 91 84
0.160699 -0.217149 -0.478 101 72 74
0.253707 -0.258034 -0.568 79 56 66
0.264524 -0.249857 -0.55 95 74 81
0.265089 -0.249403 -0.549 98 73 79
0.26884 -0.24804 -0.546 106 79 86
0.281767 -0.243043 -0.535 134 106 118
0.284291 -0.242589 -0.534 135 105 115
0.293267 -0.240771 -0.53 130 102 114
0.298067 -0.238954 -0.526 134 108 117
0.3005 -0.2385 -0.525 135 109 118
0.313096 -0.236683 -0.521 137 109 121
0.322147 -0.23532 -0.518 130 104 115
0.323133 -0.23532 -0.518 131 105 116
0.329749 -0.234411 -0.516 153 130 140
0.423952 -0.278931 -0.614 92 87 107
0.414564 -0.259851 -0.572 136 98 95
0.40606 -0.25122 -0.553 136 94 95
0.41734 -0.24486 -0.539 125 82 75
0.43503 -0.242134 -0.533 150 98 87
0.43624 -0.24168 -0.532 149 97 86
0.43928 -0.24168 -0.532 146 94 83
0.471443 -0.245769 -0.541 152 102 93
0.48485 -0.248949 -0.548 146 98 88
-0.135924 -0.291962 -0.64 111 112 116
-0.116193 -0.27417 -0.601 65 64 70
-0.1071 -0.271433 -0.595 88 89 93
-0.0986914 -0.276451 -0.606 56 55 60
-0.0958571 -0.278276 -0.61 58 57 62
-0.0882648 -0.28375 -0.622 72 71 77
-0.0783505 -0.286488 -0.628 76 75 81
-0.0579952 -0.292418 -0.641 71 70 78
-0.0568629 -0.292874 -0.642 72 71 79
-0.048679 -0.295155 -0.647 72 70 81
0.080499 -0.206198 -0.452 202 163 148
0.0912857 -0.205286 -0.45 208 167 149
0.0936486 -0.20483 -0.449 205 164 146
0.108188 -0.20483 -0.449 197 154 137
0.109043 -0.20483 -0.449 196 153 136
0.121825 -0.206198 -0.452 164 114 103
0.137422 -0.210304 -0.461 148 99 85
0.1383 -0.210304 -0.461 148 99 85
0.157307 -0.217147 -0.476 101 75 76
0.160123 -0.218515 -0.479 98 72 73
0.166166 -0.221709 -0.486 95 70 73
0.254417 -0.265503 -0.582 83 67 78
0.280774 -0.244974 -0.537 131 103 115
0.281272 -0.244518 -0.536 133 105 117
0.294276 -0.241781 -0.53 131 104 113
0.30007 -0.239956 -0.526 135 109 118
0.307325 -0.238588 -0.523 136 108 120
0.313096 -0.237675 -0.521 136 108 120
0.314089 -0.237675 -0.521 134 106 118
0.325107 -0.236307 -0.518 133 110 120
0.34782 -0.240412 -0.527 50 33 41
0.420029 -0.278276 -0.61 80 75 95
0.406875 -0.254098 -0.557 137 98 93
0.410143 -0.250905 -0.55 124 80 77
0.4163 -0.247711 -0.543 123 79 70
0.454154 -0.243606 -0.534 151 98 90
0.485893 -0.249992 -0.548 147 99 89
-0.116193 -0.275315 -0.601 123 124 129
-0.0739171 -0.289058 -0.631 75 74 82
-0.065919 -0.29089 -0.635 73 72 78
-0.0534429 -0.295471 -0.645 69 68 76
-0.0463571 -0.297304 -0.649 72 70 81
0.0756257 -0.210266 -0.459 204 163 145
0.0773962 -0.207975 -0.454 203 166 150
0.087 -0.206143 -0.45 205 166 149
0.0910829 -0.205685 -0.449 208 167 149
0.096 -0.205227 -0.448 204 163 145
0.122957 -0.207517 -0.453 163 113 102
0.125823 -0.207975 -0.454 160 110 99
0.13948 -0.21164 -0.462 141 97 84
0.153612 -0.216679 -0.473 104 78 79
0.172071 -0.226757 -0.495 92 70 73
0.174063 -0.228131 -0.498 90 68 71
0.266723 -0.256075 -0.559 90 69 78
0.268073 -0.253327 -0.553 99 73 84
0.304918 -0.240042 -0.524 139 111 123
0.308321 -0.239584 -0.523 134 106 118
0.341537 -0.239126 -0.522 107 81 90
0.425333 -0.282187 -0.616 85 82 101
0.413474 -0.26203 -0.572 133 97 99
0.412827 -0.251036 -0.548 125 80 75
0.418889 -0.24783 -0.541 121 78 72
0.44232 -0.243707 -0.532 145 93 82
0.44536 -0.243707 -0.532 143 91 80
0.450258 -0.244165 -0.533 149 99 88
0.466779 -0.246455 -0.538 149 99 88
0.470571 -0.247371 -0.54 151 101 90
0.478357 -0.248746 -0.543 150 102 92
-0.0569514 -0.29578 -0.643 69 68 76
-0.0534429 -0.2967 -0.645 72 71 79
-0.0487543 -0.29808 -0.648 71 69 80
-0.0464286 -0.299 -0.65 70 68 79
0.0818571 -0.207 -0.45 203 164 149
0.09856 -0.20608 -0.448 207 164 147
0.10624 -0.20608 -0.448 196 154 138
0.1386 -0.21252 -0.462 142 98 87
0.159875 -0.22126 -0.481 101 72 74
0.168217 -0.22632 -0.492 93 68 71
0.280805 -0.24886 -0.541 130 102 114
0.305916 -0.24104 -0.524 135 107 119
0.317448 -0.2392 -0.52 131 101 113
0.320791 -0.23874 -0.519 131 103 115
0.326093 -0.23828 -0.518 132 109 119
0.332357 -0.23782 -0.517 158 142 153
0.447479 -0.29486 -0.641 89 84 104
0.40949 -0.2599 -0.565 135 91 90
0.410143 -0.253 -0.55 126 82 79
0.434829 -0.24564 -0.534 142 92 83
0.449243 -0.24518 -0.533 147 97 86
0.454154 -0.24564 -0.534 151 101 90
-0.122215 -0.28361 -0.614 129 128 136
-0.117729 -0.278529 -0.603 126 127 131
-0.103874 -0.275295 -0.596 94 95 99
-0.09686 -0.2813 -0.609 58 57 62
-0.0915238 -0.286381 -0.62 61 60 66
-0.0884067 -0.287767 -0.623 66 65 70
-0.0819391 -0.290076 -0.628 74 73 81
-0.0649133 -0.294233 -0.637 73 72 80
-0.0558133 -0.297467 -0.644 74 73 81
0.0752962 -0.21109 -0.457 198 165 150
0.0772257 -0.209243 -0.453 202 164 151
0.0801429 -0.207857 -0.45 202 165 149
0.0885171 -0.207395 -0.449 205 166 149
0.0951467 -0.206933 -0.448 206 164 148
0.147847 -0.216633 -0.469 114 81 76
0.154587 -0.219867 -0.476 100 75 71
0.165329 -0.225871 -0.489 94 70 68
0.169243 -0.228643 -0.495 94 70 70
0.174852 -0.232338 -0.503 94 72 74
0.273263 -0.268829 -0.582 93 72 81
0.273507 -0.25959 -0.562 95 73 85
0.284927 -0.24989 -0.541 130 102 114
0.285429 -0.249429 -0.54 131 103 115
0.285927 -0.248967 -0.539 130 102 114
0.291957 -0.247119 -0.535 135 107 119
0.293446 -0.246657 -0.534 136 108 120
0.310313 -0.241576 -0.523 133 105 117
0.408041 -0.260052 -0.563 135 93 94
0.407113 -0.255433 -0.553 136 95 93
0.410889 -0.25451 -0.551 126 82 79
0.436863 -0.246657 -0.534 138 90 80
0.43909 -0.246195 -0.533 143 93 84
0.450258 -0.246195 -0.533 144 94 83
0.476444 -0.250352 -0.542 152 104 94
-0.115807 -0.277822 -0.599 120 121 125
-0.102911 -0.276894 -0.597 70 71 75
-0.0995162 -0.280141 -0.604 63 62 68
-0.0960143 -0.283388 -0.611 59 58 63
-0.0831352 -0.291272 -0.628 72 71 79
-0.07174 -0.293591 -0.633 75 73 84
-0.05704 -0.298693 -0.644 71 71 81
0.09344 -0.207787 -0.448 204 162 146
0.105387 -0.207787 -0.448 201 160 142
0.113319 -0.20825 -0.449 171 128 112
0.118978 -0.209178 -0.451 166 117 103
0.120964 -0.209642 -0.452 167 115 102
0.145749 -0.217063 -0.468 115 80 76
0.153357 -0.22031 -0.475 101 73 72
0.154911 -0.221237 -0.477 98 73 69
0.156473 -0.222165 -0.479 97 72 68
0.283394 -0.254168 -0.548 101 75 86
0.289049 -0.250921 -0.541 130 104 115
0.289543 -0.250457 -0.54 131 105 116
0.290033 -0.249993 -0.539 132 106 117
0.29052 -0.24953 -0.538 133 107 118
0.30891 -0.243036 -0.524 135 107 119
0.320419 -0.241181 -0.52 133 105 117
0.331372 -0.23979 -0.517 201 185 195
0.442777 -0.294983 -0.636 97 93 110
0.447479 -0.297302 -0.641 86 82 99
0.40848 -0.256023 -0.552 127 83 80
0.41119 -0.255095 -0.55 126 82 79
0.412534 -0.254631 -0.549 124 81 75
0.424527 -0.249993 -0.539 127 80 72
0.432157 -0.249066 -0.537 131 84 76
0.43909 -0.24721 -0.533 142 92 83
-0.122215 -0.285949 -0.614 121 120 126
-0.0971781 -0.284551 -0.611 62 61 67
-0.09078 -0.29014 -0.623 60 59 65
-0.0886905 -0.291071 -0.625 62 61 67
-0.0787248 -0.293866 -0.631 74 73 81
-0.0661267 -0.29666 -0.637 72 72 80
-0.0593086 -0.298989 -0.642 70 70 78
0.0770552 -0.210503 -0.452 201 162 147
0.0832 -0.20864 -0.448 206 167 150
0.0874667 -0.20864 -0.448 205 163 147
0.09088 -0.20864 -0.448 200 157 140
0.109409 -0.208174 -0.447 181 144 126
0.133619 -0.214229 -0.46 144 94 85
0.148477 -0.219351 -0.471 106 75 73
0.155561 -0.223077 -0.479 97 71 72
0.286178 -0.302249 -0.649 243 248 255
0.28914 -0.255677 -0.549 96 72 85
0.297972 -0.248226 -0.533 136 110 119
0.300333 -0.246829 -0.53 135 112 118
0.3075 -0.2445 -0.525 129 101 113
0.315294 -0.243569 -0.523 140 112 124
0.32708 -0.24124 -0.518 132 106 117
0.33004 -0.24124 -0.518 143 117 128
0.420695 -0.252417 -0.542 128 84 75
0.424286 -0.251486 -0.54 124 80 71
0.42658 -0.25102 -0.539 130 83 75
0.438897 -0.248691 -0.534 140 91 84
0.471753 -0.25102 -0.539 144 96 84
0.504165 -0.260334 -0.559 146 98 94
-0.104481 -0.277298 -0.593 99 100 104
-0.0909257 -0.291794 -0.624 60 59 65
-0.0513019 -0.303485 -0.649 69 72 81
0.11503 -0.209961 -0.449 166 117 103
0.125823 -0.212299 -0.454 165 113 99
0.133619 -0.215105 -0.46 143 95 85
0.168371 -0.232874 -0.498 90 74 77
0.294905 -0.25719 -0.55 94 72 84
0.29538 -0.255788 -0.547 104 83 88
0.308086 -0.245968 -0.526 133 105 119
0.3115 -0.2455 -0.525 139 112 121
0.331372 -0.241759 -0.517 166 144 156
0.382453 -0.265608 -0.568 114 116 131
0.447479 -0.299744 -0.641 86 79 95
0.417283 -0.255788 -0.547 119 74 68
0.42198 -0.252982 -0.541 125 80 74
0.432157 -0.251111 -0.537 128 81 73
0.441949 -0.249709 -0.534 142 92 83
0.461119 -0.250176 -0.535 155 103 89
0.466934 -0.251111 -0.537 153 100 86
0.471753 -0.252047 -0.539 145 96 82
0.502361 -0.260464 -0.557 147 99 87
-0.107324 -0.277019 -0.59 108 109 114
-0.104481 -0.278428 -0.593 94 95 100
-0.0930038 -0.292044 -0.622 60 59 65
-0.0823305 -0.29627 -0.631 70 69 75
-0.0800533 -0.296739 -0.632 70 69 75
-0.0754762 -0.297678 -0.634 74 73 81
-0.0719667 -0.298148 -0.635 76 75 83
0.109409 -0.209877 -0.447 178 136 120
0.163864 -0.231475 -0.493 90 70 72
0.29916 -0.260116 -0.554 86 65 74
0.299977 -0.255421 -0.544 118 97 106
0.300857 -0.253543 -0.54 133 110 116
0.303277 -0.252134 -0.537 137 110 117
0.309257 -0.247909 -0.528 134 106 120
0.312093 -0.24697 -0.526 137 110 119
0.315294 -0.245561 -0.523 139 112 121
0.318669 -0.245091 -0.522 134 108 119
0.326723 -0.243683 -0.519 132 106 117
0.3287 -0.243683 -0.519 186 160 171
0.392066 -0.271854 -0.579 103 102 116
0.421406 -0.287349 -0.612 86 87 107
0.405007 -0.259647 -0.553 134 88 88
0.418325 -0.25683 -0.547 123 76 70
0.42276 -0.254482 -0.542 125 80 74
0.427371 -0.253543 -0.54 125 78 70
0.436457 -0.251665 -0.536 133 86 78
0.44536 -0.249787 -0.532 142 92 83
0.460257 -0.250726 -0.534 161 107 95
0.47278 -0.253073 -0.539 147 95 82
0.479541 -0.254482 -0.542 148 96 83
0.492905 -0.258238 -0.55 147 98 83
-0.104481 -0.279557 -0.593 90 91 96
-0.0766838 -0.298886 -0.634 73 72 78
-0.0697667 -0.3003 -0.637 74 73 79
-0.0606257 -0.303129 -0.643 71 72 77
-0.054841 -0.305014 -0.647 70 70 78
-0.0525381 -0.305957 -0.649 70 70 78
0.0728438 -0.215914 -0.458 198 160 147
0.0870762 -0.210257 -0.446 203 161 145
0.0904743 -0.210257 -0.446 201 162 145
0.100043 -0.210729 -0.447 206 162 149
0.122957 -0.213557 -0.453 165 116 102
0.138018 -0.218271 -0.463 122 87 83
0.152824 -0.225814 -0.479 94 72 74
0.314097 -0.247971 -0.526 141 115 126
0.315897 -0.247029 -0.524 142 116 125
0.316895 -0.247029 -0.524 138 112 121
0.3287 -0.244671 -0.519 172 149 159
0.33562 -0.244671 -0.519 134 110 123
0.35112 -0.2508 -0.532 54 39 44
0.377343 -0.264943 -0.562 135 134 142
0.402291 -0.263057 -0.558 131 87 86
0.413286 -0.259286 -0.55 125 80 75
0.426102 -0.255043 -0.541 124 80 71
0.460257 -0.251743 -0.534 158 104 92
0.463157 -0.252214 -0.535 154 100 88
0.48531 -0.256929 -0.545 145 95 84
-0.107142 -0.278793 -0.589 107 108 113
-0.087 -0.2982 -0.63 60 59 64
-0.0836648 -0.299147 -0.632 63 62 67
-0.0789743 -0.29962 -0.633 71 70 76
-0.0777686 -0.29962 -0.633 72 71 77
-0.0618505 -0.304353 -0.643 73 72 78
-0.0583571 -0.3053 -0.645 71 72 77
0.0713229 -0.22294 -0.471 196 152 139
0.0726848 -0.216313 -0.457 196 160 148
0.0782543 -0.212527 -0.449 203 164 147
0.0904743 -0.211107 -0.446 204 162 146
0.0947219 -0.211107 -0.446 207 165 149
0.104916 -0.211107 -0.446 194 155 138
0.13391 -0.218207 -0.461 135 90 87
0.320297 -0.30672 -0.648 145 158 200
0.321219 -0.302933 -0.64 146 163 217
0.31328 -0.24992 -0.528 135 109 118
0.325005 -0.246607 -0.521 137 111 122
0.325371 -0.246133 -0.52 139 113 124
0.346469 -0.24992 -0.528 53 38 43
0.372255 -0.263173 -0.556 91 86 93
0.403953 -0.261753 -0.553 127 83 84
0.404274 -0.26128 -0.552 132 82 81
0.422506 -0.25702 -0.543 129 82 74
0.452453 -0.251813 -0.532 150 98 85
0.455334 -0.252287 -0.533 153 99 87
-0.11163 -0.279915 -0.589 106 107 112
-0.109014 -0.278965 -0.587 106 107 112
-0.0859362 -0.299875 -0.631 59 58 63
-0.0836648 -0.30035 -0.632 62 61 66
-0.068661 -0.303202 -0.638 74 73 79
0.0732333 -0.216233 -0.455 198 161 145
0.0753333 -0.214808 -0.452 199 162 144
0.116143 -0.213857 -0.45 172 123 108
0.14099 -0.221936 -0.467 109 79 77
0.31146 -0.255203 -0.537 137 110 119
0.316702 -0.25045 -0.527 136 113 121
0.317103 -0.249975 -0.526 142 119 127
0.372255 -0.264232 -0.556 91 86 93
0.4029 -0.262807 -0.553 132 86 86
0.405641 -0.261856 -0.551 130 85 82
0.410143 -0.261381 -0.55 126 81 76
0.426102 -0.257104 -0.541 123 78 72
0.430224 -0.257104 -0.541 122 77 71
0.433543 -0.256629 -0.54 127 83 74
0.448228 -0.253302 -0.533 142 93 79
0.459395 -0.253302 -0.533 158 105 91
0.463309 -0.253777 -0.534 159 106 92
0.49695 -0.261856 -0.551 149 99 88
-0.114647 -0.282946 -0.593 106 107 112
-0.10602 -0.281037 -0.589 92 93 98
-0.1005 -0.287717 -0.603 80 81 86
-0.0959371 -0.294874 -0.618 67 66 72
-0.0894 -0.3006 -0.63 57 56 62
-0.0813857 -0.302031 -0.633 66 65 70
-0.0723067 -0.304417 -0.638 74 73 79
-0.0630752 -0.306803 -0.643 72 73 78
0.096421 -0.212806 -0.446 205 164 146
0.105766 -0.212806 -0.446 186 148 129
0.248325 -0.308711 -0.647 250 251 255
0.325 -0.310143 -0.65 177 191 228
0.313906 -0.259089 -0.543 141 115 126
0.314229 -0.257657 -0.54 139 113 122
0.31871 -0.251454 -0.527 140 114 123
0.3215 -0.2505 -0.525 139 112 121
0.3425 -0.2505 -0.525 98 82 85
0.36348 -0.26052 -0.546 53 43 51
0.394527 -0.27722 -0.581 73 70 87
0.412687 -0.286763 -0.601 65 64 82
0.40018 -0.267677 -0.561 125 83 84
0.417283 -0.260997 -0.547 129 82 76
0.41964 -0.26052 -0.546 129 82 76
0.428163 -0.258134 -0.541 125 80 74
0.436847 -0.25718 -0.539 128 84 73
0.440541 -0.255749 -0.536 138 90 78
0.442966 -0.254794 -0.534 141 92 78
0.447212 -0.254317 -0.533 141 92 78
0.455334 -0.254317 -0.533 154 102 88
0.45635 -0.254317 -0.533 157 105 91
0.46041 -0.254317 -0.533 156 103 87
0.4788 -0.257657 -0.54 145 96 81
0.482638 -0.258611 -0.542 145 96 81
-0.0983419 -0.292698 -0.611 77 76 82
-0.0906 -0.3018 -0.63 57 56 62
-0.0804333 -0.304195 -0.635 65 64 70
-0.0710914 -0.305632 -0.638 72 71 77
0.125233 -0.217967 -0.455 150 104 89
0.241514 -0.307549 -0.642 240 240 248
0.341943 -0.30659 -0.64 200 200 224
0.321326 -0.252937 -0.528 141 114 123
0.347781 -0.253895 -0.53 50 38 40
0.399103 -0.267309 -0.558 133 88 85
0.403542 -0.263955 -0.551 137 93 94
0.42276 -0.259644 -0.542 135 90 84
0.424825 -0.259644 -0.542 134 87 81
0.443795 -0.25629 -0.535 143 94 80
0.447212 -0.255332 -0.533 143 94 79
0.452453 -0.254853 -0.532 153 101 87
0.461426 -0.255332 -0.533 156 103 87
0.479829 -0.258686 -0.54 144 95 81
0.481748 -0.259165 -0.541 146 94 80
-0.11256 -0.2828 -0.588 98 99 104
-0.104305 -0.284724 -0.592 67 68 72
-0.0960924 -0.29771 -0.619 70 71 76
-0.0770467 -0.306367 -0.637 68 67 73
-0.0585381 -0.311176 -0.647 73 72 78
0.0758571 -0.216429 -0.45 204 162 148
0.0787571 -0.214986 -0.447 207 165 149
0.081979 -0.214505 -0.446 206 164 148
0.0828286 -0.214505 -0.446 206 164 148
0.0921733 -0.214505 -0.446 201 163 144
0.108314 -0.214505 -0.446 183 131 117
0.11026 -0.214986 -0.447 180 126 114
0.1342 -0.2222 -0.462 117 86 84
0.152575 -0.232781 -0.484 90 70 79
0.162381 -0.240476 -0.5 103 106 137
0.323151 -0.255386 -0.531 139 113 122
0.391131 -0.277029 -0.576 53 49 64
0.398043 -0.269814 -0.561 135 93 95
0.399071 -0.266929 -0.555 137 94 87
0.400463 -0.266448 -0.554 131 88 82
0.400069 -0.265486 -0.552 131 86 81
0.40112 -0.265486 -0.552 131 86 81
0.408351 -0.264043 -0.549 130 82 80
0.411489 -0.264043 -0.549 130 85 80
0.422506 -0.261157 -0.543 135 90 84
0.424825 -0.260676 -0.542 134 87 79
0.440541 -0.25779 -0.536 142 94 82
0.442776 -0.25731 -0.535 146 94 81
0.447212 -0.256348 -0.533 149 97 84
0.45144 -0.255867 -0.532 154 102 89
0.474094 -0.258271 -0.537 149 97 84
0.477027 -0.258752 -0.538 144 92 79
0.484703 -0.260676 -0.542 140 92 80
-0.109945 -0.282954 -0.586 97 98 103
-0.0962476 -0.299371 -0.62 72 73 77
-0.0928524 -0.303717 -0.629 65 66 71
0.0720486 -0.218734 -0.453 202 162 152
0.11026 -0.215837 -0.447 177 129 115
0.115286 -0.217286 -0.45 172 123 109
0.13099 -0.222114 -0.46 127 89 86
0.1407 -0.22646 -0.469 113 77 79
0.146427 -0.22984 -0.476 91 75 78
0.153206 -0.234669 -0.486 84 62 65
0.191526 -0.267503 -0.554 249 253 255
0.339851 -0.253017 -0.524 130 109 116
0.395906 -0.270883 -0.561 131 91 102
0.397297 -0.267503 -0.554 132 89 82
0.403857 -0.265571 -0.55 133 93 94
0.407 -0.265571 -0.55 138 90 88
0.423792 -0.261709 -0.542 137 90 84
0.441363 -0.259294 -0.537 144 95 81
0.441562 -0.258811 -0.536 144 95 81
0.448228 -0.257363 -0.533 153 101 87
0.455649 -0.256397 -0.531 154 102 89
0.465487 -0.257363 -0.533 154 100 88
0.469271 -0.258329 -0.535 153 100 86
0.478051 -0.259777 -0.538 147 94 80
-0.11125 -0.284555 -0.587 97 98 103
-0.103526 -0.287949 -0.594 68 69 73
-0.0998457 -0.293766 -0.606 87 88 92
-0.093901 -0.30443 -0.628 69 70 74
-0.093 -0.3054 -0.63 66 67 71
-0.0899676 -0.307339 -0.634 56 57 62
-0.0852714 -0.307824 -0.635 56 55 61
-0.0609086 -0.313156 -0.646 73 72 78
0.069381 -0.227838 -0.47 197 158 151
0.06992 -0.221051 -0.456 198 160 151
0.0727505 -0.219112 -0.452 203 163 151
0.0995952 -0.215719 -0.445 199 156 140
0.102986 -0.215719 -0.445 191 143 129
0.126377 -0.221051 -0.456 138 97 91
0.138025 -0.225899 -0.466 110 80 80
0.1407 -0.227353 -0.469 108 78 78
0.142197 -0.228323 -0.471 100 74 75
0.336214 -0.25353 -0.523 144 110 124
0.372255 -0.269528 -0.556 48 38 46
0.408351 -0.266134 -0.549 133 88 85
0.416241 -0.265165 -0.547 134 87 81
0.447034 -0.258863 -0.534 152 100 87
0.45144 -0.257893 -0.532 153 99 87
-0.128003 -0.307087 -0.631 100 101 106
-0.100667 -0.293947 -0.604 91 92 96
-0.0998457 -0.29492 -0.606 89 90 92
-0.0655248 -0.312927 -0.643 71 70 75
0.0697667 -0.221433 -0.455 198 160 149
0.0727505 -0.219973 -0.452 201 161 151
0.0748333 -0.218513 -0.449 196 158 147
0.0970524 -0.216567 -0.445 201 160 142
0.11026 -0.21754 -0.447 178 129 115
0.1235 -0.221433 -0.455 145 98 88
0.128676 -0.222893 -0.458 129 91 88
0.241675 -0.315847 -0.649 253 252 255
0.369571 -0.316333 -0.65 165 167 192
0.335585 -0.266693 -0.548 126 111 118
0.335774 -0.256473 -0.527 137 112 118
0.364811 -0.266693 -0.548 50 40 49
0.376671 -0.27302 -0.561 47 37 45
0.385699 -0.276427 -0.568 29 19 28
0.38963 -0.276913 -0.569 34 24 35
0.394144 -0.271073 -0.557 141 101 101
0.422506 -0.26426 -0.543 135 88 82
0.427132 -0.263287 -0.541 133 84 77
0.436847 -0.262313 -0.539 139 91 81
0.45448 -0.258907 -0.532 156 103 89
0.462587 -0.258907 -0.532 153 100 84
0.466502 -0.259393 -0.533 154 101 85
-0.114067 -0.288257 -0.59 96 97 101
-0.108643 -0.285814 -0.585 92 93 97
-0.1005 -0.294609 -0.603 93 94 98
-0.0749714 -0.312686 -0.64 67 66 72
-0.0690914 -0.313663 -0.642 71 70 76
0.0683476 -0.226209 -0.463 198 161 153
0.0770543 -0.218391 -0.447 205 165 153
0.0833029 -0.216926 -0.444 205 163 147
0.0885762 -0.217414 -0.445 205 164 146
0.0894238 -0.217414 -0.445 205 164 144
0.0953571 -0.217414 -0.445 202 161 143
0.102986 -0.217414 -0.445 185 136 122
0.338833 -0.261386 -0.535 138 115 125
0.338056 -0.258454 -0.529 139 112 119
0.372925 -0.272134 -0.557 54 44 53
0.389043 -0.276043 -0.565 79 62 70
0.391259 -0.274577 -0.562 131 99 100
0.401031 -0.268226 -0.549 134 90 87
0.409695 -0.267737 -0.548 138 93 88
0.40999 -0.267249 -0.547 140 95 90
0.415199 -0.267249 -0.547 136 89 83
0.41548 -0.26676 -0.546 136 89 83
0.417833 -0.266271 -0.545 137 90 82
0.418871 -0.266271 -0.545 139 92 86
0.449243 -0.260409 -0.533 153 99 87
0.452453 -0.25992 -0.532 158 105 91
0.458683 -0.259431 -0.531 155 102 86
0.467517 -0.260409 -0.533 159 106 90
-0.108643 -0.286929 -0.585 92 93 97
-0.103351 -0.290852 -0.593 72 73 77
-0.0972714 -0.303605 -0.619 82 83 88
-0.0878286 -0.311943 -0.636 56 55 60
-0.0714257 -0.314395 -0.641 68 67 73
-0.0668533 -0.315867 -0.644 72 71 76
0.07552 -0.219733 -0.448 204 165 150
0.0816114 -0.217771 -0.444 202 160 144
0.0833029 -0.217771 -0.444 203 161 145
0.0866857 -0.217771 -0.444 205 164 146
0.0909143 -0.217771 -0.444 204 163 143
0.10129 -0.218262 -0.445 181 138 122
0.112464 -0.220224 -0.449 169 119 108
0.125784 -0.224148 -0.457 130 89 83
0.126654 -0.224148 -0.457 128 90 87
0.132727 -0.22709 -0.463 113 83 83
0.137431 -0.229052 -0.467 105 80 83
0.14858 -0.2369 -0.483 96 73 81
0.150429 -0.238371 -0.486 87 71 81
0.341357 -0.260443 -0.531 143 113 121
0.389118 -0.275648 -0.562 130 99 97
0.390189 -0.275648 -0.562 132 101 99
0.41444 -0.2678 -0.546 139 92 86
0.4284 -0.264857 -0.54 137 87 78
0.440541 -0.262895 -0.536 156 103 89
0.442583 -0.262895 -0.536 154 101 87
0.45448 -0.260933 -0.532 158 102 87
0.46664 -0.260933 -0.532 159 106 92
0.4966 -0.2678 -0.546 146 93 79
-0.0943495 -0.310692 -0.631 75 74 79
0.0665838 -0.227972 -0.463 199 162 154
0.08584 -0.218617 -0.444 204 163 145
0.106854 -0.220094 -0.447 176 127 113
0.237967 -0.319555 -0.649 233 232 238
0.380834 -0.277703 -0.564 54 41 48
0.384057 -0.277703 -0.564 68 47 52
0.389494 -0.276226 -0.561 142 102 100
0.394131 -0.272779 -0.554 141 101 99
0.39658 -0.272287 -0.553 143 102 100
0.430457 -0.265886 -0.54 144 94 85
0.431486 -0.265886 -0.54 145 93 80
0.442776 -0.263424 -0.535 157 101 88
0.455649 -0.261454 -0.531 158 102 87
0.461717 -0.261454 -0.531 156 100 87
0.47348 -0.262931 -0.534 155 99 84
0.48793 -0.266378 -0.541 154 96 82
-0.10957 -0.288663 -0.584 92 93 97
-0.108457 -0.288663 -0.584 91 92 96
-0.1005 -0.298054 -0.603 96 97 102
-0.09918 -0.30102 -0.609 93 92 97
-0.0621391 -0.319309 -0.646 72 71 77
-0.0610029 -0.319803 -0.647 72 71 77
0.0678838 -0.224406 -0.454 200 160 148
0.0700124 -0.222923 -0.451 202 162 150
0.0753514 -0.220946 -0.447 202 163 148
0.103217 -0.220451 -0.446 183 134 120
0.120634 -0.224406 -0.454 138 95 88
0.140999 -0.233797 -0.473 99 76 84
0.390235 -0.276306 -0.559 144 103 101
0.39658 -0.27334 -0.553 144 100 99
0.40924 -0.26988 -0.546 144 96 92
0.432962 -0.265926 -0.538 151 99 88
0.443604 -0.264937 -0.536 158 102 89
0.446852 -0.264443 -0.535 155 102 88
0.453304 -0.263454 -0.533 157 101 86
0.453467 -0.26296 -0.532 158 102 87
0.460706 -0.262466 -0.531 157 101 86
0.468667 -0.26296 -0.532 158 105 89
0.481254 -0.265431 -0.537 152 99 83
0.4851 -0.26642 -0.539 152 96 79
0.500635 -0.270374 -0.547 154 101 85
-0.0998457 -0.300691 -0.606 96 95 101
-0.0870257 -0.317066 -0.639 53 54 58
0.0900686 -0.220309 -0.444 201 159 143
0.09176 -0.220309 -0.444 204 163 145
0.0951429 -0.220309 -0.444 197 154 138
0.104067 -0.221301 -0.446 182 130 117
0.106854 -0.221797 -0.447 174 125 111
0.35114 -0.269431 -0.543 127 104 112
0.351526 -0.268935 -0.542 108 87 96
0.386977 -0.278859 -0.562 152 108 105
0.397966 -0.273897 -0.552 146 101 98
0.410567 -0.270424 -0.545 143 96 90
0.413681 -0.270424 -0.545 142 95 89
0.420695 -0.268935 -0.542 147 98 91
0.42966 -0.267447 -0.539 151 98 90
0.435226 -0.266454 -0.537 157 103 91
0.441562 -0.265958 -0.536 158 102 89
0.443795 -0.265462 -0.535 157 101 88
0.451273 -0.26447 -0.533 157 101 88
0.497767 -0.270424 -0.545 150 97 81
0.49972 -0.27092 -0.546 152 99 83
-0.123184 -0.305332 -0.613 96 97 102
-0.117694 -0.297363 -0.597 99 98 104
-0.110682 -0.290888 -0.584 98 99 104
-0.0774095 -0.318781 -0.64 52 51 57
-0.0634676 -0.322268 -0.647 71 70 76
0.0682943 -0.224641 -0.451 202 164 153
0.0751829 -0.22215 -0.446 205 166 151
0.09176 -0.221154 -0.444 199 160 143
0.104916 -0.22215 -0.446 180 127 113
0.106854 -0.222649 -0.447 178 126 113
0.110507 -0.223147 -0.448 172 120 107
0.122034 -0.227131 -0.456 130 91 84
0.137419 -0.234105 -0.47 98 78 80
0.369078 -0.276941 -0.556 63 44 50
0.38286 -0.28242 -0.567 134 99 103
0.390235 -0.278435 -0.559 151 105 105
0.396242 -0.275945 -0.554 148 104 105
0.413681 -0.271462 -0.545 143 96 88
0.413958 -0.270964 -0.544 143 96 88
0.440541 -0.266979 -0.536 156 103 89
0.451273 -0.265485 -0.533 157 101 88
0.457671 -0.264489 -0.531 158 102 89
0.46374 -0.264489 -0.531 163 107 92
0.490114 -0.268971 -0.54 152 99 85
0.498805 -0.271462 -0.545 155 104 87
-0.13206 -0.3195 -0.639 98 97 102
-0.129205 -0.3155 -0.631 98 97 102
-0.119827 -0.301 -0.602 99 98 104
-0.110682 -0.292 -0.584 99 100 105
-0.0975857 -0.3105 -0.621 91 92 97
-0.0906771 -0.3195 -0.639 66 67 71
0.0712533 -0.224 -0.448 202 164 153
0.0848029 -0.2215 -0.443 206 163 147
0.0856467 -0.2215 -0.443 205 162 146
0.1088 -0.224 -0.448 170 118 105
0.373466 -0.2805 -0.561 87 58 62
0.376537 -0.282 -0.564 103 74 78
0.386593 -0.2815 -0.563 153 109 110
0.389867 -0.28 -0.56 150 104 104
0.399017 -0.276 -0.552 149 101 99
0.403123 -0.2745 -0.549 141 93 89
0.419663 -0.271 -0.542 147 96 92
0.436249 -0.2685 -0.537 157 104 90
0.448051 -0.267 -0.534 159 103 90
0.452453 -0.266 -0.532 159 103 90
0.457671 -0.2655 -0.531 157 101 88
0.460706 -0.2655 -0.531 159 103 90
0.478443 -0.2675 -0.535 154 98 85
0.479462 -0.2675 -0.535 153 97 84
0.489207 -0.2695 -0.539 150 97 83
0.500881 -0.2725 -0.545 153 100 84
-0.117497 -0.299135 -0.596 100 99 105
-0.0671648 -0.324732 -0.647 68 67 73
-0.0648 -0.325234 -0.648 69 68 74
0.083959 -0.222344 -0.443 207 163 150
0.0873343 -0.222344 -0.443 203 160 144
0.093241 -0.222344 -0.443 196 154 138
0.102138 -0.223348 -0.445 182 133 119
0.104067 -0.22385 -0.446 181 129 116
0.146726 -0.243926 -0.486 155 151 168
0.364029 -0.280063 -0.558 109 82 89
0.382043 -0.285584 -0.569 133 97 97
0.388426 -0.281569 -0.561 148 104 101
0.404169 -0.275546 -0.549 142 94 90
0.41028 -0.27404 -0.546 144 95 90
0.411605 -0.273538 -0.545 147 98 93
0.423257 -0.271029 -0.54 144 94 85
0.461857 -0.26601 -0.53 162 106 93
0.469809 -0.266511 -0.531 159 103 90
0.484323 -0.269523 -0.537 155 99 84
0.485346 -0.269523 -0.537 156 100 85
1.13798 -0.321219 -0.64 205 206 190
-0.117497 -0.30027 -0.596 102 101 107
-0.11519 -0.297248 -0.59 100 101 106
-0.106596 -0.295232 -0.586 88 89 94
-0.10584 -0.29624 -0.588 76 77 82
-0.0810667 -0.322438 -0.64 46 45 51
-0.0786286 -0.322438 -0.64 48 47 53
-0.0705333 -0.324453 -0.644 60 59 65
-0.0694143 -0.324957 -0.645 63 62 68
-0.0682914 -0.325461 -0.646 66 65 71
0.0719457 -0.225203 -0.447 203 163 153
0.0756914 -0.223691 -0.444 204 164 152
0.0788962 -0.223188 -0.443 202 163 148
0.0822714 -0.223188 -0.443 204 162 150
0.0856467 -0.223188 -0.443 203 161 147
0.125733 -0.231752 -0.46 119 80 81
0.12804 -0.23276 -0.462 117 79 78
0.130362 -0.233768 -0.464 118 83 81
0.14008 -0.239813 -0.476 88 69 75
0.224744 -0.32395 -0.643 168 178 205
0.226671 -0.324957 -0.645 203 206 239
0.369686 -0.287171 -0.57 123 90 99
0.37746 -0.28566 -0.567 139 99 100
0.386781 -0.286164 -0.568 149 105 104
0.38718 -0.28566 -0.567 148 104 103
0.395205 -0.280622 -0.557 146 98 96
0.405214 -0.276591 -0.549 144 95 91
0.413681 -0.274576 -0.545 148 97 93
0.419663 -0.273065 -0.542 143 94 87
0.425553 -0.271553 -0.539 156 103 95
0.440541 -0.270042 -0.536 152 96 83
0.441562 -0.270042 -0.536 154 96 84
0.447034 -0.269034 -0.534 159 103 88
0.453467 -0.268027 -0.532 155 99 84
0.466905 -0.267019 -0.53 157 101 86
0.498124 -0.273065 -0.542 156 100 85
0.500077 -0.273569 -0.543 156 100 85
1.13854 -0.322942 -0.641 203 205 192
-0.112177 -0.296349 -0.586 103 103 111
-0.10584 -0.29736 -0.588 75 75 83
-0.0958543 -0.320117 -0.633 83 84 89
-0.0931114 -0.323151 -0.639 76 77 82
-0.0886571 -0.324669 -0.642 56 57 62
-0.0860771 -0.324163 -0.641 50 49 55
0.0772086 -0.224031 -0.443 203 163 151
0.0822714 -0.224031 -0.443 204 162 150
0.0881781 -0.224031 -0.443 203 161 147
0.0923971 -0.224031 -0.443 195 153 139
0.0940848 -0.224031 -0.443 192 148 135
0.104067 -0.225549 -0.446 175 123 112
0.109898 -0.227066 -0.449 163 113 102
0.116917 -0.229089 -0.453 143 95 83
0.125733 -0.232629 -0.46 118 80 79
0.137395 -0.239203 -0.473 95 73 75
0.380123 -0.288763 -0.571 139 94 97
0.395559 -0.282694 -0.559 147 99 95
0.397327 -0.281683 -0.557 145 97 93
0.398731 -0.281177 -0.556 150 102 98
0.407906 -0.276626 -0.547 140 91 86
0.434203 -0.271569 -0.537 158 105 91
0.447034 -0.270051 -0.534 161 105 90
0.456809 -0.268029 -0.53 162 106 91
0.468924 -0.268029 -0.53 160 104 89
0.497205 -0.273591 -0.541 157 101 84
0.617084 -0.326691 -0.646 216 216 216
1.13854 -0.324163 -0.641 203 205 192
-0.10957 -0.29645 -0.584 107 106 112
-0.104305 -0.30051 -0.592 66 65 73
-0.0989857 -0.312186 -0.615 100 101 106
-0.0886571 -0.325891 -0.642 56 57 62
-0.0774095 -0.324876 -0.64 46 45 51
-0.0681857 -0.327414 -0.645 62 61 67
0.0642829 -0.229951 -0.453 201 164 158
0.0686933 -0.227413 -0.448 206 168 159
0.228253 -0.327922 -0.646 230 232 255
0.37818 -0.290866 -0.573 120 83 91
0.39974 -0.280713 -0.553 149 101 97
0.452289 -0.270561 -0.533 158 102 87
0.453626 -0.269546 -0.531 161 105 90
0.467914 -0.269038 -0.53 161 105 90
0.49046 -0.272591 -0.537 155 102 84
0.496286 -0.274114 -0.54 156 103 85
1.13964 -0.326399 -0.643 201 205 191
1.13798 -0.324876 -0.64 202 206 192
-0.1173 -0.303167 -0.595 108 107 115
-0.107712 -0.298581 -0.586 108 107 115
-0.105076 -0.300619 -0.59 62 61 69
-0.0836352 -0.326605 -0.641 52 51 56
0.06854 -0.227757 -0.447 206 167 160
0.0772086 -0.225719 -0.443 204 166 157
0.0983038 -0.225719 -0.443 180 131 117
0.10129 -0.226738 -0.445 179 127 116
0.104916 -0.227248 -0.446 170 118 105
0.1183 -0.231833 -0.455 131 87 78
0.123981 -0.234381 -0.46 112 80 83
0.130036 -0.237438 -0.466 116 82 83
0.38059 -0.295524 -0.58 120 80 89
0.393348 -0.287881 -0.565 142 94 92
0.396267 -0.285333 -0.56 141 93 91
0.414719 -0.27769 -0.545 143 95 85
0.415757 -0.27769 -0.545 143 95 85
0.424041 -0.275652 -0.541 155 103 90
0.43952 -0.273105 -0.536 152 101 84
0.456809 -0.270048 -0.53 159 103 88
0.459838 -0.270048 -0.53 168 112 97
0.465016 -0.269538 -0.529 164 108 93
-0.125163 -0.315551 -0.617 104 103 111
-0.101 -0.309926 -0.606 110 109 117
-0.0973343 -0.320666 -0.627 92 91 99
-0.0822857 -0.327314 -0.64 61 60 66
-0.0810667 -0.327314 -0.64 57 56 62
0.06342 -0.231677 -0.453 202 163 156
0.0647143 -0.230143 -0.45 203 166 160
0.0654257 -0.229631 -0.449 202 163 158
0.0822714 -0.226563 -0.443 200 157 148
0.100217 -0.227074 -0.444 180 128 117
0.112965 -0.230654 -0.451 148 101 91
0.122837 -0.234746 -0.459 117 83 82
0.133838 -0.240371 -0.47 104 75 79
0.138557 -0.243951 -0.477 84 69 76
0.220382 -0.327826 -0.641 227 229 242
0.223867 -0.32936 -0.644 242 249 255
0.384328 -0.298674 -0.584 119 79 87
0.395874 -0.288446 -0.564 138 88 87
0.3984 -0.2864 -0.56 140 91 87
0.401847 -0.28282 -0.553 145 96 91
0.404274 -0.282309 -0.552 143 94 89
0.40626 -0.280774 -0.549 138 89 82
0.408351 -0.280774 -0.549 142 93 86
0.412073 -0.279751 -0.547 143 93 84
0.414719 -0.278729 -0.545 143 93 84
0.417067 -0.278217 -0.544 145 95 84
0.42301 -0.276683 -0.541 154 102 91
0.443795 -0.273614 -0.535 157 104 88
0.445833 -0.273614 -0.535 157 101 86
0.4558 -0.271057 -0.53 158 102 87
0.458829 -0.271057 -0.53 165 109 94
0.493529 -0.274637 -0.537 157 104 86
-0.10584 -0.30184 -0.588 71 70 78
-0.102911 -0.30646 -0.597 200 200 208
-0.0976448 -0.322887 -0.629 96 95 103
-0.0848562 -0.329047 -0.641 63 62 68
-0.0750886 -0.329047 -0.641 42 41 47
0.0612924 -0.237673 -0.463 205 168 162
0.06328 -0.232027 -0.452 202 163 156
0.0683867 -0.228947 -0.446 205 165 157
0.075521 -0.227407 -0.443 202 163 148
0.0947143 -0.226893 -0.442 181 137 124
0.09746 -0.227407 -0.443 178 130 118
0.114076 -0.232027 -0.452 143 99 90
0.126827 -0.238187 -0.464 114 80 78
0.3894 -0.302867 -0.59 117 81 85
0.3892 -0.30184 -0.588 121 81 82
0.394551 -0.29414 -0.573 139 91 89
0.417833 -0.279767 -0.545 148 95 87
0.420437 -0.27874 -0.543 140 92 82
0.421728 -0.278227 -0.542 148 98 89
0.43318 -0.27566 -0.537 153 102 85
0.434203 -0.27566 -0.537 151 100 83
-0.0944762 -0.329752 -0.64 90 90 98
-0.0810667 -0.329752 -0.64 45 44 50
0.0607629 -0.236494 -0.459 207 166 160
0.0645705 -0.231342 -0.449 203 164 157
0.0699286 -0.229281 -0.445 204 164 156
0.088821 -0.227735 -0.442 198 156 140
0.0896629 -0.227735 -0.442 198 156 140
0.0985257 -0.228766 -0.444 175 126 112
0.115191 -0.233403 -0.453 128 91 83
0.129426 -0.240616 -0.467 100 71 76
0.133226 -0.242677 -0.471 88 66 78
0.215705 -0.328722 -0.638 184 190 212
0.396314 -0.299869 -0.582 134 85 89
0.397131 -0.294716 -0.572 126 85 81
0.399097 -0.290594 -0.564 137 89 85
0.40879 -0.283896 -0.551 141 92 87
0.42966 -0.277713 -0.539 147 95 84
0.433987 -0.277198 -0.538 145 96 82
0.435011 -0.277198 -0.538 145 96 82
0.44034 -0.276683 -0.537 144 95 80
0.464137 -0.272046 -0.528 164 109 89
0.471062 -0.272561 -0.529 161 106 86
-0.120026 -0.311837 -0.603 102 102 110
-0.0999514 -0.321146 -0.621 120 121 125
-0.0797229 -0.330454 -0.639 37 36 42
0.0706171 -0.229611 -0.444 203 163 153
0.0721457 -0.229094 -0.443 203 163 153
0.09114 -0.22806 -0.441 186 144 128
0.119952 -0.236851 -0.458 115 86 82
0.1271 -0.240471 -0.465 111 79 82
0.132048 -0.243057 -0.47 92 65 72
0.215705 -0.329937 -0.638 180 186 208
0.398789 -0.302011 -0.584 129 83 86
0.398267 -0.299943 -0.58 130 82 82
0.39931 -0.295806 -0.572 132 87 84
0.403692 -0.288049 -0.557 141 90 86
0.412238 -0.284429 -0.55 138 89 82
0.481038 -0.274086 -0.53 156 104 83
0.506383 -0.280291 -0.542 171 114 95
-0.108643 -0.303643 -0.585 97 96 104
-0.10602 -0.305719 -0.589 79 78 86
-0.101333 -0.315581 -0.608 194 193 201
-0.0836352 -0.33271 -0.641 38 37 43
-0.0797229 -0.331671 -0.639 35 34 40
0.0606305 -0.237724 -0.458 209 166 159
0.0651343 -0.232014 -0.447 201 163 154
0.0812438 -0.229419 -0.442 201 159 147
0.0846114 -0.229419 -0.442 200 158 144
0.08862 -0.2289 -0.441 194 155 138
0.0903 -0.2289 -0.441 189 147 131
0.108188 -0.233052 -0.449 154 105 91
0.110143 -0.233571 -0.45 145 97 83
0.112354 -0.23461 -0.452 142 95 85
0.113466 -0.235129 -0.453 135 95 87
0.115446 -0.235648 -0.454 125 90 84
0.131152 -0.243952 -0.47 97 71 80
0.402438 -0.315581 -0.608 118 77 83
0.403053 -0.312467 -0.602 124 79 84
0.402203 -0.305719 -0.589 127 82 85
0.401991 -0.300529 -0.579 127 79 79
0.412988 -0.285995 -0.551 137 88 81
0.415958 -0.284438 -0.548 142 94 84
0.420409 -0.283919 -0.547 144 94 83
0.42172 -0.2834 -0.546 146 96 85
0.42689 -0.281324 -0.542 151 102 88
0.430457 -0.280286 -0.54 148 96 83
0.445646 -0.27821 -0.536 150 97 81
0.467273 -0.273538 -0.527 168 111 91
0.469281 -0.273538 -0.527 165 108 88
0.479123 -0.274576 -0.529 158 103 83
0.486907 -0.276133 -0.532 159 107 86
-0.10602 -0.306841 -0.589 74 73 81
-0.105254 -0.307883 -0.591 74 73 81
-0.0835048 -0.33341 -0.64 35 34 40
0.0659857 -0.232866 -0.447 200 162 153
0.0666876 -0.232345 -0.446 200 162 153
0.09114 -0.22974 -0.441 183 141 125
0.105387 -0.233387 -0.448 156 106 95
0.109286 -0.234429 -0.45 148 100 88
0.216719 -0.33393 -0.641 234 236 251
0.407733 -0.320907 -0.616 117 78 79
0.405896 -0.293296 -0.563 134 89 83
0.415381 -0.286524 -0.55 137 90 80
0.419854 -0.286003 -0.549 142 95 85
0.4251 -0.283919 -0.545 147 97 86
0.432285 -0.281835 -0.541 148 99 85
0.433543 -0.281314 -0.54 148 99 85
0.440953 -0.280793 -0.539 142 93 79
0.446667 -0.27923 -0.536 148 97 80
0.463131 -0.275063 -0.528 166 109 90
0.483057 -0.276105 -0.53 163 108 87
0.488933 -0.277147 -0.532 158 103 82
0.494748 -0.27871 -0.535 152 100 79
1.13514 -0.330805 -0.635 203 205 191
-0.131853 -0.333583 -0.638 90 91 96
-0.0835048 -0.334629 -0.64 35 34 40
-0.0821571 -0.334106 -0.639 33 32 38
0.06286 -0.234763 -0.449 204 165 158
0.0704581 -0.231626 -0.443 203 163 155
0.08442 -0.23058 -0.441 197 155 143
0.08526 -0.23058 -0.441 198 156 142
0.102368 -0.233194 -0.446 161 109 96
0.114581 -0.237377 -0.454 129 90 83
0.125329 -0.243129 -0.465 110 78 81
0.13199 -0.247311 -0.473 95 72 80
0.409197 -0.309009 -0.591 123 82 80
0.415236 -0.289663 -0.554 133 86 78
0.4209 -0.287049 -0.549 142 95 85
0.42796 -0.28548 -0.546 144 94 83
0.428465 -0.284434 -0.544 151 101 90
0.431019 -0.283389 -0.542 147 97 86
0.436629 -0.282343 -0.54 144 95 81
0.443007 -0.28182 -0.539 145 93 79
0.445454 -0.280774 -0.537 149 97 83
0.446477 -0.280774 -0.537 145 96 81
0.455493 -0.27816 -0.532 152 99 81
0.459978 -0.276591 -0.529 166 111 91
0.471289 -0.275546 -0.527 165 110 89
0.472292 -0.275546 -0.527 160 105 84
0.478217 -0.276069 -0.528 159 104 83
0.487003 -0.277637 -0.531 161 106 85
-0.127597 -0.330075 -0.629 83 86 93
-0.122414 -0.322729 -0.615 82 85 94
-0.116557 -0.313283 -0.597 83 86 93
-0.102154 -0.318006 -0.606 228 228 236
0.05852 -0.24244 -0.462 202 163 156
0.0588857 -0.240341 -0.458 203 164 157
0.0614219 -0.236668 -0.451 205 166 161
0.06272 -0.235093 -0.448 203 164 159
0.0672343 -0.232994 -0.444 203 162 156
0.071141 -0.231945 -0.442 206 163 154
0.0829276 -0.231945 -0.442 195 152 143
0.0957724 -0.23247 -0.443 174 126 112
0.103449 -0.234569 -0.447 157 109 99
0.108429 -0.236143 -0.45 148 100 90
0.115954 -0.239291 -0.456 120 86 84
0.11934 -0.240866 -0.459 115 84 82
0.123026 -0.242965 -0.463 109 79 77
0.129362 -0.246638 -0.47 103 74 78
0.210513 -0.334273 -0.637 178 184 210
0.417 -0.3306 -0.63 103 83 84
0.417262 -0.327976 -0.625 111 87 87
0.41814 -0.325877 -0.621 120 84 86
0.417797 -0.323778 -0.617 117 81 83
0.413241 -0.292292 -0.557 132 85 77
0.417647 -0.290193 -0.553 136 89 79
0.421097 -0.289669 -0.552 139 92 82
0.426396 -0.28757 -0.548 145 97 87
0.432849 -0.284946 -0.543 146 96 85
0.459978 -0.277599 -0.529 165 110 90
0.460114 -0.277074 -0.528 165 110 90
0.46627 -0.27655 -0.527 173 118 97
0.471289 -0.27655 -0.527 170 113 93
0.472292 -0.27655 -0.527 163 106 86
0.476308 -0.27655 -0.527 162 105 85
0.512577 -0.284421 -0.542 175 126 111
1.13577 -0.332699 -0.634 202 204 190
0.0745086 -0.232787 -0.442 207 164 155
0.0787181 -0.232787 -0.442 203 161 149
0.08442 -0.23226 -0.441 194 150 139
0.104533 -0.235947 -0.448 156 109 99
0.129637 -0.24806 -0.471 101 73 72
0.210844 -0.336013 -0.638 212 218 254
0.422183 -0.33496 -0.636 149 138 152
0.422063 -0.333907 -0.634 126 110 121
0.420927 -0.322847 -0.613 111 81 83
0.4179 -0.31442 -0.597 118 79 80
0.414665 -0.308627 -0.586 123 84 79
0.429528 -0.288613 -0.548 144 96 86
0.431329 -0.287033 -0.545 143 93 82
0.43261 -0.286507 -0.544 144 94 83
0.436181 -0.285453 -0.542 139 87 76
0.438468 -0.284927 -0.541 142 93 79
0.44362 -0.284927 -0.541 139 90 76
0.446087 -0.283873 -0.539 142 93 78
1.13756 -0.334433 -0.635 202 204 190
-0.120849 -0.324014 -0.613 78 81 88
-0.104833 -0.3145 -0.595 66 64 77
-0.0845914 -0.337757 -0.639 37 38 43
-0.0794733 -0.3367 -0.637 34 35 40
0.0578867 -0.241557 -0.457 205 164 158
0.0719829 -0.233629 -0.442 205 167 158
0.0736667 -0.233629 -0.442 204 164 154
0.0761924 -0.233629 -0.442 206 163 154
0.0957724 -0.234157 -0.443 173 125 111
0.106477 -0.237329 -0.449 151 102 88
0.118466 -0.242614 -0.459 116 81 79
0.131643 -0.251071 -0.475 106 89 95
0.426226 -0.327186 -0.619 106 80 83
0.417919 -0.295471 -0.559 128 85 76
0.418984 -0.295471 -0.559 126 83 74
0.426073 -0.2923 -0.553 137 89 79
0.427127 -0.2923 -0.553 139 91 81
