ply
format ascii 1.0
comment Created by Open3D
element vertex 1284
property double x
property double y
property double z
property uchar red
property uchar green
property uchar blue
end_header
0.505665 -0.384895 -0.484 183 133 106
0.50554 -0.3841 -0.483 184 134 107
0.507248 -0.383305 -0.482 178 131 103
0.515039 -0.380919 -0.479 176 129 101
0.0233143 -0.433646 -0.544 194 153 123
0.0464143 -0.408934 -0.513 200 157 125
0.0473914 -0.408934 -0.513 200 157 125
0.0503229 -0.408934 -0.513 197 154 122
0.0642524 -0.410529 -0.515 184 137 111
0.0683086 -0.411326 -0.516 182 132 107
0.125598 -0.451183 -0.566 59 71 95
0.127754 -0.451183 -0.566 98 114 147
0.130989 -0.451183 -0.566 165 176 198
0.136379 -0.451183 -0.566 98 116 152
0.140443 -0.450386 -0.565 198 204 226
0.224783 -0.451183 -0.566 188 206 242
0.412029 -0.454371 -0.57 104 141 193
0.417457 -0.454371 -0.57 80 118 180
0.435591 -0.455169 -0.571 208 213 219
0.456763 -0.456763 -0.573 189 195 207
0.460037 -0.456763 -0.573 186 189 194
0.513517 -0.456763 -0.573 114 129 150
0.522249 -0.456763 -0.573 134 138 137
0.52334 -0.456763 -0.573 166 168 167
0.529889 -0.456763 -0.573 163 164 169
0.49683 -0.389006 -0.488 183 136 110
0.503821 -0.385817 -0.484 182 132 105
0.515951 -0.381831 -0.479 177 130 102
0.516864 -0.381831 -0.479 179 132 102
0.525988 -0.381831 -0.479 167 123 88
0.0532543 -0.409911 -0.513 192 147 118
0.0673257 -0.412309 -0.516 184 134 109
0.0749248 -0.416304 -0.521 179 131 109
0.0912048 -0.42749 -0.535 146 104 90
0.0923962 -0.42829 -0.536 146 104 90
0.121286 -0.452261 -0.566 134 137 154
0.122364 -0.452261 -0.566 137 145 158
0.147714 -0.450663 -0.564 217 215 229
0.157383 -0.450663 -0.564 178 199 228
0.236642 -0.452261 -0.566 223 231 250
0.430486 -0.455457 -0.57 208 216 227
0.463311 -0.457854 -0.573 194 197 204
0.488414 -0.457854 -0.573 51 87 149
0.489506 -0.457854 -0.573 51 87 149
0.497146 -0.457854 -0.573 126 125 123
0.503694 -0.457854 -0.573 178 181 190
0.530053 -0.457055 -0.572 162 161 169
0.509305 -0.423495 -0.53 141 113 102
0.4942 -0.391533 -0.49 180 132 109
0.494971 -0.389935 -0.488 176 129 103
0.501167 -0.387538 -0.485 180 130 103
0.503014 -0.387538 -0.485 182 132 105
0.511543 -0.383543 -0.48 178 129 99
0.5269 -0.382744 -0.479 163 117 83
0.0241267 -0.431713 -0.539 192 151 119
0.0273952 -0.418898 -0.523 194 153 123
0.0338429 -0.41249 -0.515 201 158 126
0.0561857 -0.410889 -0.513 193 148 117
0.0591171 -0.410889 -0.513 189 142 114
0.0673257 -0.413291 -0.516 184 134 109
0.0683086 -0.413291 -0.516 182 132 109
0.07266 -0.415694 -0.519 183 133 110
0.0737905 -0.416495 -0.52 181 131 108
0.0923962 -0.42931 -0.536 144 104 92
0.0937657 -0.430912 -0.538 136 103 96
0.157383 -0.451737 -0.564 173 194 223
0.42973 -0.455742 -0.569 205 210 216
0.448943 -0.456543 -0.57 152 165 184
0.451906 -0.457344 -0.571 171 184 203
0.457055 -0.458145 -0.572 191 201 210
0.465771 -0.458145 -0.572 186 185 191
0.473398 -0.458145 -0.572 50 91 155
0.495189 -0.458145 -0.572 125 131 131
0.500636 -0.458145 -0.572 189 190 194
0.497859 -0.410088 -0.512 159 118 98
0.493338 -0.393268 -0.491 176 130 106
0.494123 -0.391666 -0.489 176 130 106
0.503821 -0.387661 -0.484 183 133 106
0.5037 -0.38686 -0.483 182 132 105
0.509714 -0.384457 -0.48 175 129 96
0.0348238 -0.413471 -0.515 203 159 130
0.0404724 -0.411063 -0.512 204 160 131
0.0704105 -0.415077 -0.517 183 133 110
0.09792 -0.436754 -0.544 123 98 93
0.121071 -0.453614 -0.565 145 147 160
0.129451 -0.452811 -0.564 184 186 199
0.425395 -0.456826 -0.569 110 141 196
0.431898 -0.456826 -0.569 206 204 205
0.43515 -0.456826 -0.569 185 185 185
0.448943 -0.457629 -0.57 167 176 193
0.450029 -0.457629 -0.57 175 184 201
0.46822 -0.458431 -0.571 163 180 208
0.5148 -0.459234 -0.572 169 172 179
0.514988 -0.458431 -0.571 181 184 193
0.520426 -0.458431 -0.571 176 179 184
0.530214 -0.458431 -0.571 128 136 155
0.527193 -0.44398 -0.553 132 107 100
0.519729 -0.435951 -0.543 128 103 96
0.5065 -0.4215 -0.525 148 116 103
0.50172 -0.41588 -0.518 153 117 101
0.500766 -0.414274 -0.516 153 117 101
0.494971 -0.391794 -0.488 177 130 104
0.505411 -0.386977 -0.482 181 132 102
0.507111 -0.386174 -0.481 180 131 101
0.509565 -0.384569 -0.479 177 128 98
0.519249 -0.382963 -0.477 169 123 90
0.527621 -0.383766 -0.478 160 115 82
0.53866 -0.38778 -0.483 147 111 87
0.03762 -0.412843 -0.513 201 156 127
0.0570514 -0.412038 -0.512 189 144 115
0.0737905 -0.418476 -0.52 177 130 104
0.0749248 -0.419281 -0.521 178 131 103
0.09394 -0.433767 -0.539 134 107 100
0.111865 -0.452276 -0.562 59 54 61
0.117843 -0.45469 -0.565 131 129 142
0.158176 -0.453081 -0.563 153 173 208
0.46387 -0.459519 -0.571 210 210 212
0.470395 -0.459519 -0.571 62 93 140
0.47257 -0.459519 -0.571 86 125 180
0.483447 -0.459519 -0.571 45 90 155
0.484534 -0.459519 -0.571 34 79 144
0.485622 -0.459519 -0.571 40 85 150
0.48671 -0.459519 -0.571 88 127 184
0.49106 -0.459519 -0.571 71 100 134
0.494099 -0.460324 -0.572 104 118 131
0.499547 -0.460324 -0.572 194 193 199
0.501726 -0.460324 -0.572 193 192 200
0.504994 -0.460324 -0.572 185 193 196
0.514988 -0.459519 -0.571 185 188 195
0.526951 -0.459519 -0.571 177 175 186
0.527114 -0.458714 -0.57 164 167 184
0.524426 -0.441814 -0.549 130 106 96
0.498834 -0.412038 -0.512 157 120 104
0.494856 -0.404795 -0.503 167 127 102
0.497668 -0.391919 -0.487 183 133 106
0.499319 -0.39031 -0.485 176 129 101
0.501055 -0.389505 -0.484 183 133 106
0.504493 -0.387895 -0.482 178 131 103
0.519067 -0.383067 -0.476 173 127 94
0.522883 -0.383871 -0.477 169 122 92
0.029919 -0.415433 -0.515 203 158 127
0.0365714 -0.413013 -0.512 204 159 128
0.0570514 -0.413013 -0.512 189 142 112
0.0620486 -0.41382 -0.513 188 142 109
0.0673257 -0.41624 -0.516 182 135 107
0.0694257 -0.417047 -0.517 183 136 106
0.0704105 -0.417047 -0.517 181 134 106
0.111865 -0.453347 -0.562 79 73 75
0.14505 -0.453347 -0.562 214 216 231
0.40986 -0.45738 -0.567 74 105 170
0.422484 -0.458187 -0.568 74 107 174
0.426811 -0.458187 -0.568 206 224 248
0.433303 -0.458187 -0.568 206 202 199
0.442736 -0.458993 -0.569 206 209 214
0.448155 -0.458993 -0.569 183 190 200
0.458714 -0.4598 -0.57 209 207 212
0.4598 -0.4598 -0.57 203 201 206
0.478257 -0.4598 -0.57 52 97 156
0.497586 -0.460607 -0.571 196 193 200
0.517343 -0.4598 -0.57 182 183 188
0.518429 -0.4598 -0.57 183 186 193
0.5226 -0.44044 -0.546 115 92 86
0.511277 -0.42834 -0.531 138 115 109
0.505567 -0.421887 -0.523 141 114 105
0.497857 -0.4114 -0.51 154 117 99
0.499211 -0.390427 -0.484 180 133 105
0.507886 -0.3872 -0.48 166 119 89
0.53643 -0.388007 -0.481 150 113 84
0.0210467 -0.43582 -0.539 198 151 125
0.0271333 -0.41884 -0.518 197 152 121
0.0365714 -0.413989 -0.512 203 158 127
0.0500286 -0.412371 -0.51 191 144 114
0.051 -0.412371 -0.51 190 143 113
0.05694 -0.41318 -0.511 188 141 111
0.0863143 -0.428543 -0.53 151 112 97
0.149331 -0.454417 -0.562 175 177 190
0.377872 -0.457651 -0.566 192 200 203
0.4239 -0.45846 -0.567 100 139 178
0.42498 -0.45846 -0.567 138 162 188
0.4293 -0.45846 -0.567 180 175 181
0.460886 -0.460886 -0.57 188 191 196
0.473914 -0.460886 -0.57 146 174 211
0.477171 -0.460886 -0.57 64 106 164
0.483686 -0.460886 -0.57 60 107 159
0.511016 -0.460077 -0.569 187 190 195
0.513 -0.460886 -0.57 186 189 194
0.531609 -0.460077 -0.569 130 136 158
0.532692 -0.460077 -0.569 160 166 180
0.493267 -0.3962 -0.49 179 132 106
0.50278 -0.39054 -0.483 178 131 103
0.505143 -0.388114 -0.48 181 131 104
0.509411 -0.386497 -0.478 180 131 101
0.0383714 -0.413343 -0.51 199 154 123
0.0559667 -0.414153 -0.511 188 141 111
0.0694257 -0.419016 -0.517 183 136 106
0.0736486 -0.420637 -0.519 177 130 102
0.111865 -0.455488 -0.562 98 93 99
0.118498 -0.456298 -0.563 152 148 149
0.366443 -0.457919 -0.565 227 227 225
0.369671 -0.457919 -0.565 213 213 213
0.399434 -0.45873 -0.566 208 211 216
0.40159 -0.45873 -0.566 166 177 197
0.402669 -0.45873 -0.566 128 148 185
0.416684 -0.45873 -0.566 70 106 166
0.44304 -0.46035 -0.568 219 218 224
0.446286 -0.46035 -0.568 210 210 218
0.52077 -0.461161 -0.569 179 182 187
0.524022 -0.461161 -0.569 157 160 169
0.493772 -0.404428 -0.499 172 127 104
0.493338 -0.397944 -0.491 175 127 104
0.49674 -0.394702 -0.487 181 134 108
0.499211 -0.39227 -0.484 180 133 107
0.509565 -0.388218 -0.479 178 129 99
0.51198 -0.386597 -0.477 178 132 99
0.513797 -0.386597 -0.477 180 131 99
0.516347 -0.385787 -0.476 178 129 97
0.530151 -0.386597 -0.477 165 121 92
0.543463 -0.39227 -0.484 155 116 87
0.0326705 -0.415939 -0.512 201 156 125
0.0480857 -0.414314 -0.51 193 148 117
0.0529429 -0.414314 -0.51 190 143 113
0.078201 -0.424875 -0.523 174 127 101
0.0913752 -0.435436 -0.536 135 102 95
0.110597 -0.455746 -0.561 89 84 90
0.188603 -0.455746 -0.561 219 223 234
0.189671 -0.455746 -0.561 221 225 236
0.192877 -0.455746 -0.561 215 218 225
0.389043 -0.458995 -0.565 230 228 239
0.414528 -0.459808 -0.566 105 147 197
0.427465 -0.459808 -0.566 156 167 187
0.459269 -0.461432 -0.568 209 212 217
0.467664 -0.462245 -0.569 149 167 189
0.491508 -0.462245 -0.569 170 182 194
0.49801 -0.462245 -0.569 166 178 200
0.49353 -0.401316 -0.494 168 122 98
0.493406 -0.399691 -0.492 167 119 96
0.493338 -0.398879 -0.491 174 126 103
0.498395 -0.394005 -0.485 183 136 110
0.499211 -0.393192 -0.484 181 134 108
0.510322 -0.388318 -0.478 176 129 99
0.51198 -0.387506 -0.477 180 131 101
0.0316333 -0.4161 -0.511 202 157 126
0.0344857 -0.415286 -0.51 203 156 126
0.0402352 -0.414471 -0.509 202 155 125
0.0630257 -0.417729 -0.513 187 140 112
0.0671952 -0.419357 -0.515 185 138 110
0.121499 -0.457629 -0.562 169 169 179
0.127694 -0.456814 -0.561 187 185 186
0.36472 -0.459257 -0.564 203 211 222
0.37224 -0.459257 -0.564 227 227 239
0.435011 -0.460886 -0.566 220 221 226
0.4509 -0.4617 -0.567 217 218 223
0.470088 -0.462514 -0.568 193 206 223
0.490424 -0.463329 -0.569 202 202 212
0.507954 -0.462514 -0.568 189 192 201
0.526347 -0.462514 -0.568 78 89 111
0.516091 -0.436457 -0.536 133 112 109
0.501757 -0.419357 -0.515 150 118 107
0.49981 -0.416914 -0.512 154 117 101
0.494885 -0.396557 -0.487 180 132 109
0.497471 -0.394929 -0.485 181 134 108
0.50409 -0.390043 -0.479 181 134 106
0.52069 -0.386786 -0.475 173 126 96
0.56355 -0.403886 -0.496 148 106 82
0.0259448 -0.419522 -0.514 196 151 120
0.0344857 -0.416257 -0.51 203 157 124
0.0421743 -0.415441 -0.509 200 155 122
0.0509 -0.415441 -0.509 189 142 112
0.05694 -0.417073 -0.511 190 143 115
0.0620486 -0.418706 -0.513 189 142 114
0.0651067 -0.419522 -0.514 189 142 112
0.0715333 -0.422787 -0.518 178 131 105
0.0828143 -0.430132 -0.527 163 118 95
0.0942886 -0.441559 -0.541 120 99 94
0.118077 -0.457883 -0.561 159 160 162
0.127694 -0.457883 -0.561 195 195 197
0.134692 -0.45625 -0.559 205 209 218
0.14321 -0.45625 -0.559 95 114 156
0.146405 -0.45625 -0.559 170 182 208
0.204267 -0.457067 -0.56 241 245 254
0.343698 -0.459515 -0.563 167 196 226
0.414871 -0.461148 -0.565 123 160 202
0.4181 -0.461148 -0.565 175 208 243
0.44148 -0.461964 -0.566 219 222 231
0.447949 -0.461964 -0.566 220 219 225
0.45738 -0.46278 -0.567 215 216 220
0.462514 -0.463596 -0.568 114 131 159
0.469006 -0.463596 -0.568 207 215 228
0.504709 -0.463596 -0.568 191 194 201
0.50579 -0.463596 -0.568 191 194 203
0.517691 -0.463596 -0.568 184 184 194
0.526347 -0.463596 -0.568 92 103 121
0.517054 -0.438294 -0.537 132 111 108
0.51272 -0.388507 -0.476 177 128 98
0.520497 -0.386874 -0.474 172 125 95
0.538971 -0.391771 -0.48 158 114 87
0.54101 -0.392588 -0.481 158 114 87
0.559006 -0.401566 -0.492 146 102 77
0.0159429 -0.441771 -0.54 191 147 120
0.0363571 -0.41641 -0.509 204 158 125
0.0382962 -0.41641 -0.509 202 156 123
0.0401562 -0.415592 -0.508 200 154 120
0.043059 -0.415592 -0.508 198 151 121
0.0579133 -0.418047 -0.511 192 147 114
0.0903543 -0.438499 -0.536 136 103 88
0.0929133 -0.440953 -0.539 128 98 87
0.12 -0.458133 -0.56 166 170 181
0.130667 -0.458133 -0.56 171 169 172
0.132563 -0.457315 -0.559 208 208 210
0.151729 -0.457315 -0.559 112 133 178
0.45954 -0.46386 -0.567 156 166 178
0.487398 -0.464678 -0.568 149 167 187
0.5157 -0.46386 -0.567 185 185 197
0.496646 -0.397594 -0.486 178 131 105
0.496548 -0.396776 -0.485 184 137 111
0.497471 -0.396776 -0.485 185 138 112
0.499903 -0.394322 -0.482 186 136 111
0.0230524 -0.4223 -0.515 194 148 115
0.0344181 -0.41738 -0.509 202 156 122
0.0391886 -0.41656 -0.508 201 155 122
0.043059 -0.41656 -0.508 197 150 120
0.0459619 -0.41656 -0.508 194 148 115
0.0509 -0.41738 -0.509 190 143 113
0.05986 -0.41902 -0.511 194 145 113
0.0930857 -0.4428 -0.54 124 99 92
0.111467 -0.4592 -0.56 119 117 122
0.122133 -0.4592 -0.56 124 127 146
0.134692 -0.45838 -0.559 204 214 216
0.140829 -0.45756 -0.558 196 205 214
0.39839 -0.46166 -0.563 143 155 179
0.401607 -0.46166 -0.563 196 202 218
0.404824 -0.46166 -0.563 193 208 227
0.419509 -0.46248 -0.564 197 218 247
0.42488 -0.46248 -0.564 200 210 220
0.427029 -0.46248 -0.564 121 138 166
0.429177 -0.46248 -0.564 112 135 176
0.435319 -0.4633 -0.565 223 223 235
0.436395 -0.4633 -0.565 224 224 236
0.45738 -0.46494 -0.567 213 216 221
0.4833 -0.46494 -0.567 102 132 166
0.48654 -0.46494 -0.567 150 170 194
0.50166 -0.46494 -0.567 185 192 208
0.50382 -0.46494 -0.567 188 187 203
0.507244 -0.46412 -0.566 183 185 200
0.51894 -0.46494 -0.567 165 164 180
0.522758 -0.44608 -0.544 132 111 110
0.493406 -0.40344 -0.492 177 130 104
0.4942 -0.4018 -0.49 175 128 102
0.520497 -0.38868 -0.474 176 127 94
0.535603 -0.39114 -0.477 159 115 86
0.548994 -0.39688 -0.484 156 112 83
0.0158248 -0.440541 -0.536 195 151 124
0.0176333 -0.434788 -0.529 193 150 118
0.0248686 -0.420815 -0.512 192 145 119
0.0469295 -0.417528 -0.508 191 145 112
0.0587714 -0.419171 -0.51 190 144 111
0.05986 -0.419993 -0.511 191 144 114
0.0608333 -0.419993 -0.511 191 144 114
0.0619276 -0.420815 -0.512 190 143 113
0.0930857 -0.443829 -0.54 122 97 90
0.115527 -0.459445 -0.559 144 149 155
0.116591 -0.459445 -0.559 144 148 157
0.183343 -0.458623 -0.558 210 216 228
0.406969 -0.462732 -0.563 136 163 190
0.415548 -0.462732 -0.563 130 159 193
0.417692 -0.462732 -0.563 166 187 214
0.419837 -0.462732 -0.563 196 210 221
0.4324 -0.463554 -0.564 161 167 183
0.467354 -0.465198 -0.566 210 207 216
0.48762 -0.46602 -0.567 176 181 203
0.502931 -0.465198 -0.566 175 173 194
0.494971 -0.40109 -0.488 178 134 107
0.49572 -0.399446 -0.486 179 133 107
0.506529 -0.392049 -0.477 176 130 97
0.512548 -0.390405 -0.475 176 130 96
0.513274 -0.389583 -0.474 174 128 94
0.0257933 -0.420967 -0.511 199 149 122
0.0267667 -0.420967 -0.511 201 152 122
0.0469295 -0.418495 -0.508 193 147 114
0.0587714 -0.420143 -0.51 190 143 113
0.0619276 -0.42179 -0.512 191 144 114
0.0638781 -0.42179 -0.512 187 140 112
0.0747809 -0.428381 -0.52 176 129 101
0.12276 -0.459686 -0.558 105 110 132
0.151186 -0.458862 -0.557 77 110 164
0.209914 -0.459686 -0.558 117 140 171
0.261399 -0.46051 -0.559 236 243 255
0.406246 -0.462981 -0.562 138 165 195
0.433474 -0.464629 -0.564 195 213 237
0.436697 -0.464629 -0.564 216 220 221
0.43992 -0.464629 -0.564 223 222 236
0.45873 -0.466276 -0.566 112 134 157
0.460886 -0.466276 -0.566 161 172 194
0.468432 -0.466276 -0.566 215 212 223
0.495385 -0.466276 -0.566 195 198 217
0.499697 -0.466276 -0.566 113 124 146
0.5085 -0.465452 -0.565 155 165 190
0.511729 -0.465452 -0.565 175 185 210
0.518186 -0.465452 -0.565 93 113 148
0.4998 -0.420143 -0.51 157 116 110
0.49572 -0.400371 -0.486 183 138 109
0.525706 -0.389662 -0.473 166 121 90
0.529526 -0.390486 -0.474 163 118 87
0.0165314 -0.434326 -0.526 194 149 120
0.0352486 -0.418637 -0.507 200 154 121
0.0537029 -0.419463 -0.508 193 146 116
0.0659571 -0.423591 -0.513 185 138 112
0.108943 -0.460749 -0.558 111 105 107
0.110006 -0.460749 -0.558 117 115 118
0.111268 -0.461574 -0.559 125 123 126
0.136332 -0.459923 -0.557 207 210 225
0.38522 -0.463226 -0.561 223 223 235
0.418021 -0.464051 -0.562 165 192 221
0.428416 -0.464877 -0.563 177 191 204
0.429489 -0.464877 -0.563 140 154 167
0.452538 -0.466529 -0.565 194 197 216
0.461964 -0.467354 -0.566 201 210 225
0.462224 -0.466529 -0.565 209 218 233
0.475138 -0.466529 -0.565 144 170 205
0.492357 -0.466529 -0.565 202 201 215
0.49989 -0.466529 -0.565 82 91 120
0.503303 -0.465703 -0.564 136 160 198
0.518343 -0.465703 -0.564 62 90 137
0.521566 -0.465703 -0.564 143 146 151
0.52364 -0.45084 -0.546 135 107 106
0.516091 -0.442583 -0.536 136 111 104
0.50853 -0.432674 -0.524 140 112 101
0.4968 -0.41616 -0.504 165 123 101
0.494633 -0.41038 -0.497 170 128 104
0.493957 -0.402123 -0.487 183 139 110
0.498067 -0.397994 -0.482 177 132 101
0.498985 -0.397994 -0.482 180 135 104
0.499782 -0.397169 -0.481 180 133 103
0.500571 -0.396343 -0.48 182 137 106
0.511469 -0.391389 -0.474 177 131 98
0.512371 -0.391389 -0.474 178 132 99
0.523003 -0.390563 -0.473 169 124 91
0.0164371 -0.432845 -0.523 193 148 119
0.0333171 -0.419603 -0.507 200 154 121
0.0478029 -0.419603 -0.507 192 146 113
0.0487686 -0.419603 -0.507 192 146 113
0.0618067 -0.422913 -0.511 189 144 115
0.0747809 -0.430362 -0.52 171 125 99
0.078201 -0.432845 -0.523 167 122 99
0.106434 -0.460156 -0.556 99 90 91
0.138206 -0.460156 -0.556 219 216 225
0.153032 -0.460156 -0.556 88 121 175
0.212721 -0.460984 -0.557 168 191 222
0.425514 -0.465122 -0.562 220 224 236
0.43914 -0.46595 -0.563 192 198 220
0.456843 -0.467605 -0.565 125 149 175
0.478367 -0.467605 -0.565 180 198 220
0.491281 -0.467605 -0.565 203 203 203
0.495586 -0.467605 -0.565 195 198 213
0.500967 -0.467605 -0.565 74 97 129
0.5085 -0.4345 -0.525 137 110 99
0.494042 -0.403878 -0.488 171 134 105
0.493869 -0.402223 -0.486 177 133 104
0.498866 -0.398085 -0.481 180 135 106
0.500571 -0.397257 -0.48 179 134 105
0.501353 -0.39643 -0.479 179 132 102
0.503653 -0.393947 -0.476 175 130 99
0.515795 -0.391464 -0.473 177 131 97
0.520998 -0.390636 -0.472 170 126 91
0.526607 -0.391464 -0.473 165 121 86
0.544235 -0.39643 -0.479 157 116 84
0.553824 -0.401395 -0.485 152 111 81
0.0478029 -0.420569 -0.507 194 148 115
0.0691571 -0.427205 -0.515 175 129 103
0.0713952 -0.428864 -0.517 169 123 99
0.108748 -0.462045 -0.557 121 119 120
0.11087 -0.462045 -0.557 137 137 139
0.114052 -0.462045 -0.557 148 152 163
0.123601 -0.462045 -0.557 154 154 166
0.128906 -0.462045 -0.557 203 202 210
0.131028 -0.462045 -0.557 208 212 224
0.213782 -0.462045 -0.557 188 209 236
0.338062 -0.463704 -0.559 226 232 246
0.340191 -0.463704 -0.559 185 198 217
0.464629 -0.467851 -0.564 205 212 220
0.475371 -0.467851 -0.564 172 190 210
0.493634 -0.467851 -0.564 196 203 213
0.528148 -0.467022 -0.563 168 177 174
0.493957 -0.403978 -0.487 179 135 106
0.496548 -0.402319 -0.485 181 137 110
0.49726 -0.40066 -0.483 182 137 108
0.501217 -0.396512 -0.478 176 131 100
0.501986 -0.395683 -0.477 176 131 100
0.502747 -0.394853 -0.476 177 132 101
0.503653 -0.394853 -0.476 177 132 101
0.512191 -0.392365 -0.473 179 133 100
0.537881 -0.394024 -0.475 162 117 86
0.541963 -0.395683 -0.477 156 115 85
0.554748 -0.402319 -0.485 151 111 85
0.0116971 -0.443983 -0.534 190 147 113
0.01898 -0.42486 -0.511 198 151 123
0.0199143 -0.424029 -0.51 196 149 121
0.0284886 -0.421534 -0.507 201 155 122
0.0342152 -0.420703 -0.506 200 153 123
0.0535971 -0.421534 -0.507 189 144 113
0.0735067 -0.43068 -0.518 169 123 99
0.0805 -0.4365 -0.525 157 114 97
0.107493 -0.462274 -0.556 116 114 115
0.123379 -0.462274 -0.556 181 181 191
0.139014 -0.461443 -0.555 188 198 223
0.43943 -0.467263 -0.562 185 201 227
0.444783 -0.467263 -0.562 165 185 210
0.457109 -0.468926 -0.564 185 214 254
0.473456 -0.468094 -0.563 153 183 211
0.474529 -0.468094 -0.563 170 191 212
0.48418 -0.468094 -0.563 121 141 168
0.495976 -0.468094 -0.563 176 175 183
0.50241 -0.468094 -0.563 64 98 146
0.512333 -0.440657 -0.53 134 110 100
0.509469 -0.437331 -0.526 134 110 100
0.504666 -0.431511 -0.519 142 113 105
0.4947 -0.403243 -0.485 176 132 105
0.496446 -0.402411 -0.484 178 134 105
0.49726 -0.40158 -0.483 181 136 107
0.498743 -0.399086 -0.48 178 135 103
0.501217 -0.397423 -0.478 178 133 102
0.502595 -0.394929 -0.475 178 133 102
0.50876 -0.394097 -0.474 178 132 99
0.535846 -0.394097 -0.474 165 120 89
0.536749 -0.394097 -0.474 161 116 85
0.555671 -0.403243 -0.485 152 111 83
0.02366 -0.4225 -0.507 201 154 124
0.0265571 -0.4225 -0.507 201 155 122
0.0456905 -0.420833 -0.505 192 147 116
0.0566057 -0.423333 -0.508 190 145 112
0.0597429 -0.425 -0.51 190 144 111
0.0607143 -0.425 -0.51 189 143 110
0.0735067 -0.431667 -0.518 168 124 99
0.0746371 -0.4325 -0.519 168 123 100
0.0757714 -0.433333 -0.52 168 123 100
0.1443 -0.4625 -0.555 194 210 233
0.341709 -0.465 -0.558 142 163 190
0.425067 -0.466667 -0.56 224 227 236
0.441571 -0.468333 -0.562 187 213 250
0.474529 -0.469167 -0.563 164 186 210
0.477746 -0.469167 -0.563 168 189 216
0.480963 -0.469167 -0.563 114 142 179
0.48847 -0.469167 -0.563 200 200 208
0.493831 -0.469167 -0.563 194 204 206
0.50241 -0.469167 -0.563 58 90 139
0.512062 -0.469167 -0.563 50 86 144
0.516505 -0.468333 -0.562 59 94 148
0.517575 -0.468333 -0.562 94 114 141
0.523998 -0.468333 -0.562 173 175 188
0.505638 -0.433333 -0.52 141 112 104
0.493112 -0.406667 -0.488 178 131 101
0.493957 -0.405833 -0.487 178 134 107
0.493869 -0.405 -0.486 177 133 106
0.513806 -0.393333 -0.472 173 128 95
0.52438 -0.3925 -0.471 166 120 87
0.550172 -0.400833 -0.481 152 113 80
0.0180067 -0.426807 -0.511 199 154 125
0.0208038 -0.424301 -0.508 200 155 124
0.0217286 -0.423466 -0.507 201 156 125
0.0312619 -0.421795 -0.505 198 152 119
0.0341476 -0.421795 -0.505 197 151 118
0.0370333 -0.421795 -0.505 199 153 120
0.0477086 -0.42263 -0.506 196 149 119
0.0555286 -0.423466 -0.507 194 148 115
0.0618067 -0.426807 -0.511 189 142 114
0.0780514 -0.435994 -0.522 164 119 100
0.108552 -0.464392 -0.556 133 134 139
0.109611 -0.464392 -0.556 141 139 142
0.121043 -0.463557 -0.555 181 183 182
0.1295 -0.463557 -0.555 213 214 218
0.145095 -0.462722 -0.554 203 216 232
0.2035 -0.463557 -0.555 136 153 183
0.2183 -0.463557 -0.555 165 185 218
0.401948 -0.466898 -0.559 178 195 221
0.403012 -0.466898 -0.559 155 172 198
0.412595 -0.466898 -0.559 166 196 230
0.441854 -0.468569 -0.561 146 177 223
0.449065 -0.469404 -0.562 118 149 193
0.454153 -0.470239 -0.563 86 122 180
0.45737 -0.470239 -0.563 201 202 204
0.459515 -0.470239 -0.563 185 187 182
0.467263 -0.469404 -0.562 164 185 206
0.493831 -0.470239 -0.563 196 203 209
0.494904 -0.470239 -0.563 200 200 210
0.50687 -0.469404 -0.562 50 89 146
0.510082 -0.469404 -0.562 38 79 135
0.520787 -0.469404 -0.562 172 176 177
0.520906 -0.451864 -0.541 132 106 107
0.495714 -0.417619 -0.5 155 118 102
0.494602 -0.404255 -0.484 180 136 107
0.527969 -0.393397 -0.471 166 121 88
1.00768 -0.476921 -0.571 124 125 119
1.01707 -0.477756 -0.572 111 111 109
1.02867 -0.478591 -0.573 119 121 118
0.0115438 -0.441174 -0.527 191 150 122
0.0142238 -0.431129 -0.515 188 144 117
0.0303 -0.422757 -0.505 200 154 121
0.0351095 -0.422757 -0.505 198 152 119
0.0370333 -0.422757 -0.505 198 152 119
0.0418429 -0.422757 -0.505 192 146 113
0.0659571 -0.429454 -0.513 182 136 110
0.0793486 -0.438663 -0.524 157 114 95
0.0829714 -0.442011 -0.528 142 105 87
0.0868029 -0.446197 -0.533 127 101 88
0.1073 -0.464614 -0.555 122 122 130
0.110471 -0.464614 -0.555 161 159 162
0.115757 -0.464614 -0.555 177 175 176
0.116814 -0.464614 -0.555 179 177 178
0.118714 -0.463777 -0.554 169 169 169
0.12399 -0.463777 -0.554 196 201 205
0.189415 -0.463777 -0.554 242 246 255
0.344279 -0.466289 -0.557 164 193 227
0.45977 -0.470474 -0.562 201 204 197
0.473911 -0.469637 -0.561 163 188 228
0.477117 -0.469637 -0.561 114 146 187
0.485461 -0.470474 -0.562 145 162 178
0.489743 -0.470474 -0.562 192 197 203
0.494025 -0.470474 -0.562 201 202 207
0.499557 -0.469637 -0.561 128 156 195
0.51238 -0.469637 -0.561 36 66 136
0.514517 -0.469637 -0.561 91 117 144
0.50853 -0.438663 -0.524 138 109 101
0.498791 -0.424431 -0.507 153 113 103
0.495629 -0.416897 -0.498 159 118 100
0.497033 -0.402666 -0.481 181 136 103
0.517895 -0.393457 -0.47 171 125 92
0.521689 -0.394294 -0.471 172 125 97
0.935343 -0.477171 -0.57 175 176 162
0.939686 -0.477171 -0.57 172 172 162
0.953933 -0.48052 -0.574 165 165 155
0.953878 -0.478846 -0.572 161 161 151
0.979857 -0.477171 -0.57 117 119 116
1.00182 -0.478846 -0.572 113 114 109
1.00509 -0.478846 -0.572 110 111 106
1.03117 -0.481357 -0.575 103 105 104
0.0274143 -0.423719 -0.505 199 153 120
0.0303 -0.423719 -0.505 200 154 121
0.0534914 -0.424558 -0.506 193 148 117
0.0680438 -0.43127 -0.514 176 130 106
0.0712571 -0.432949 -0.516 172 126 102
0.106243 -0.465671 -0.555 107 109 124
0.128211 -0.464832 -0.554 207 214 222
0.217907 -0.464832 -0.554 159 183 217
0.366559 -0.46735 -0.557 131 152 181
0.430696 -0.469028 -0.559 198 212 221
0.432826 -0.469028 -0.559 114 141 184
0.44506 -0.470706 -0.561 98 134 192
0.446129 -0.470706 -0.561 81 117 175
0.449334 -0.470706 -0.561 82 125 178
0.466667 -0.469867 -0.56 124 141 157
0.467733 -0.469867 -0.56 101 139 186
0.476049 -0.470706 -0.561 119 160 204
0.477117 -0.470706 -0.561 108 139 183
0.479254 -0.470706 -0.561 109 141 182
0.485461 -0.471545 -0.562 111 141 175
0.499557 -0.470706 -0.561 152 177 208
0.514517 -0.470706 -0.561 90 114 142
0.493191 -0.410294 -0.489 163 123 98
0.500027 -0.399387 -0.476 182 137 104
0.500933 -0.399387 -0.476 180 135 102
0.502595 -0.398548 -0.475 176 131 98
0.51021 -0.39603 -0.472 178 133 100
0.528866 -0.395191 -0.471 167 122 91
0.890949 -0.476579 -0.568 189 189 179
0.964449 -0.485809 -0.579 139 140 126
0.99354 -0.479096 -0.571 106 106 104
0.994628 -0.479096 -0.571 105 105 103
1.00466 -0.480774 -0.573 104 104 102
1.03585 -0.48413 -0.577 101 102 106
0.014141 -0.430568 -0.512 195 151 122
0.03504 -0.42384 -0.504 199 153 120
0.04464 -0.42384 -0.504 195 149 116
0.04752 -0.42384 -0.504 197 151 118
0.0534914 -0.425522 -0.506 193 148 117
0.0616857 -0.428886 -0.51 190 143 113
0.117659 -0.465888 -0.554 187 185 188
0.129033 -0.465047 -0.553 206 213 223
0.18486 -0.465047 -0.553 213 218 224
0.424611 -0.469251 -0.558 209 213 212
0.4432 -0.470933 -0.56 127 165 228
0.445333 -0.470933 -0.56 66 105 164
0.449334 -0.471774 -0.561 69 110 166
0.46002 -0.471774 -0.561 215 220 224
0.472 -0.470933 -0.56 110 152 194
0.474133 -0.470933 -0.56 110 156 205
0.488871 -0.471774 -0.561 164 164 166
0.496533 -0.470933 -0.56 188 197 206
0.499733 -0.470933 -0.56 137 157 182
0.511311 -0.471774 -0.561 36 75 132
0.52 -0.470933 -0.56 183 181 186
0.497808 -0.425522 -0.506 153 118 96
0.496741 -0.422158 -0.502 154 119 97
0.494123 -0.411226 -0.489 169 127 102
0.495312 -0.405339 -0.482 179 136 104
0.510026 -0.396089 -0.471 179 134 101
0.513419 -0.395248 -0.47 174 128 95
0.517 -0.395248 -0.47 165 119 86
0.51858 -0.394407 -0.469 173 126 98
0.520367 -0.394407 -0.469 173 126 98
0.522153 -0.394407 -0.469 168 121 93
0.524162 -0.395248 -0.47 167 120 92
0.531324 -0.395248 -0.47 164 119 86
0.87858 -0.47682 -0.567 180 180 168
0.905827 -0.482707 -0.574 168 168 158
0.920103 -0.481025 -0.572 153 149 138
0.96889 -0.490275 -0.583 123 122 117
0.976109 -0.492798 -0.586 122 119 114
0.97349 -0.481025 -0.572 106 108 103
0.997214 -0.483548 -0.575 109 111 110
0.0095 -0.4425 -0.525 184 148 114
0.0159657 -0.428171 -0.508 198 155 123
0.0169 -0.427329 -0.507 200 155 122
0.0264 -0.4248 -0.504 199 153 120
0.02736 -0.4248 -0.504 197 151 118
0.02832 -0.4248 -0.504 199 153 120
0.04272 -0.4248 -0.504 193 147 114
0.0505 -0.425643 -0.505 194 149 118
0.0626571 -0.429857 -0.51 187 142 111
0.0679114 -0.432386 -0.513 177 131 107
0.0831286 -0.445871 -0.529 137 100 82
0.122713 -0.4661 -0.553 200 203 210
0.130087 -0.4661 -0.553 205 213 224
0.215407 -0.4661 -0.553 169 195 220
0.345779 -0.468629 -0.556 177 205 244
0.372255 -0.468629 -0.556 101 133 180
0.419607 -0.469471 -0.557 222 225 232
0.4496 -0.472 -0.56 107 149 209
0.456 -0.472 -0.56 200 201 203
0.486734 -0.472843 -0.561 197 200 209
0.50078 -0.4307 -0.511 151 116 97
0.498808 -0.428171 -0.508 152 117 95
0.495629 -0.419743 -0.498 160 122 99
0.493776 -0.408786 -0.485 174 133 103
0.497704 -0.403729 -0.479 179 134 103
0.503343 -0.399514 -0.474 176 131 100
0.548323 -0.402043 -0.477 148 112 78
0.876884 -0.478743 -0.568 184 184 172
0.9792 -0.485486 -0.576 110 109 104
0.991738 -0.484643 -0.575 108 110 109
0.0168667 -0.42745 -0.506 199 156 121
0.03696 -0.42576 -0.504 198 152 119
0.039761 -0.424915 -0.503 196 150 117
0.0435933 -0.424915 -0.503 193 147 114
0.04656 -0.42576 -0.504 196 150 117
0.0605952 -0.429984 -0.509 189 144 111
0.0616857 -0.430829 -0.51 187 142 111
0.078201 -0.44181 -0.523 149 109 84
0.0795 -0.4435 -0.525 145 107 86
0.0857876 -0.450258 -0.533 127 98 84
0.130903 -0.466309 -0.552 198 206 219
0.139314 -0.466309 -0.552 218 227 236
0.14221 -0.465464 -0.551 223 230 240
0.345157 -0.468843 -0.555 166 198 239
0.416424 -0.470532 -0.557 113 151 200
0.42385 -0.470532 -0.557 213 217 216
0.425972 -0.470532 -0.557 181 183 180
0.4624 -0.473067 -0.56 218 219 221
0.466898 -0.472222 -0.559 97 139 189
0.483733 -0.473067 -0.56 80 127 179
0.492267 -0.473067 -0.56 178 176 179
0.496711 -0.472222 -0.559 170 174 185
0.519071 -0.472222 -0.559 129 143 169
0.496772 -0.424915 -0.503 154 119 100
0.495751 -0.423226 -0.501 155 118 99
0.495312 -0.407175 -0.482 177 138 107
0.499396 -0.403796 -0.478 182 137 106
0.499731 -0.400417 -0.474 179 134 103
0.506613 -0.398728 -0.472 176 131 100
0.507334 -0.397883 -0.471 178 131 101
0.509129 -0.397883 -0.471 180 133 103
0.514314 -0.397038 -0.47 176 130 97
0.519257 -0.395349 -0.468 176 130 97
0.531087 -0.396193 -0.469 163 119 82
0.827052 -0.47729 -0.565 185 187 176
0.841043 -0.47729 -0.565 181 181 169
0.842119 -0.47729 -0.565 181 181 169
0.981581 -0.489962 -0.58 112 110 98
0.99974 -0.489117 -0.579 105 104 109
0.0149686 -0.42926 -0.507 197 154 120
0.0264 -0.42672 -0.504 199 153 119
0.0311381 -0.425873 -0.503 197 151 117
0.03696 -0.42672 -0.504 198 152 119
0.04848 -0.42672 -0.504 197 150 120
0.0806533 -0.445347 -0.526 142 105 86
0.101463 -0.46736 -0.552 73 70 77
0.124594 -0.46736 -0.552 201 208 218
0.125646 -0.46736 -0.552 199 207 218
0.127749 -0.46736 -0.552 204 212 223
0.128567 -0.466513 -0.551 210 218 229
0.193989 -0.46736 -0.552 185 192 221
0.219223 -0.46736 -0.552 180 199 229
0.365243 -0.4699 -0.555 199 209 219
0.370529 -0.4699 -0.555 85 119 182
0.418853 -0.470747 -0.556 223 227 230
0.449862 -0.473287 -0.559 160 180 205
0.453056 -0.473287 -0.559 191 190 196
0.462639 -0.473287 -0.559 215 213 224
0.521331 -0.47244 -0.558 109 129 154
0.51528 -0.450427 -0.532 133 109 97
0.512411 -0.44704 -0.528 133 109 97
0.50469 -0.437727 -0.517 140 110 100
0.502741 -0.435187 -0.514 141 112 96
0.496772 -0.425873 -0.503 153 117 101
0.499881 -0.402167 -0.475 178 133 102
0.514314 -0.397933 -0.47 175 129 96
0.51858 -0.397087 -0.469 176 130 96
0.520149 -0.39624 -0.468 172 128 93
0.524606 -0.39624 -0.468 171 125 89
0.84361 -0.479213 -0.566 156 158 147
0.85266 -0.48006 -0.567 151 152 146
0.8559 -0.48006 -0.567 149 150 142
0.01968 -0.42768 -0.504 196 153 118
0.0263476 -0.426831 -0.503 198 154 119
0.0320962 -0.426831 -0.503 196 152 117
0.0349705 -0.426831 -0.503 198 154 119
0.0368867 -0.426831 -0.503 197 151 118
0.0415943 -0.425983 -0.502 195 150 117
0.0455095 -0.426831 -0.503 195 150 117
0.0474257 -0.426831 -0.503 193 148 117
0.0504 -0.42768 -0.504 197 150 120
0.0605952 -0.431923 -0.509 187 142 111
0.0783505 -0.444651 -0.524 146 110 88
0.0795 -0.4455 -0.525 143 106 87
0.0967286 -0.465866 -0.549 104 89 84
0.0979524 -0.466714 -0.55 100 90 88
0.105669 -0.468411 -0.552 47 51 76
0.115972 -0.467563 -0.551 181 181 189
0.12017 -0.467563 -0.551 182 186 197
0.144048 -0.466714 -0.55 189 201 223
0.190489 -0.467563 -0.551 190 202 224
0.191538 -0.467563 -0.551 192 208 234
0.197835 -0.467563 -0.551 235 237 252
0.227634 -0.468411 -0.552 233 240 255
0.250766 -0.468411 -0.552 197 220 254
0.340314 -0.470109 -0.554 138 177 220
0.418853 -0.471806 -0.556 213 218 222
0.420971 -0.471806 -0.556 227 225 238
0.42309 -0.471806 -0.556 221 225 236
0.427326 -0.471806 -0.556 193 188 194
0.428385 -0.471806 -0.556 205 200 206
0.463704 -0.474351 -0.559 194 197 216
0.484999 -0.474351 -0.559 164 180 205
0.498841 -0.474351 -0.559 59 99 151
0.5031 -0.474351 -0.559 30 66 128
0.513382 -0.448894 -0.529 132 108 96
0.498771 -0.429377 -0.506 151 116 97
0.49558 -0.42174 -0.497 158 122 100
0.495528 -0.420891 -0.496 159 123 99
0.49358 -0.40986 -0.483 173 132 104
0.4945 -0.40986 -0.483 172 131 103
0.496117 -0.408163 -0.481 176 135 105
0.510026 -0.399677 -0.471 176 131 98
0.529063 -0.397131 -0.468 169 123 89
0.532873 -0.39798 -0.469 159 118 86
0.53466 -0.39798 -0.469 160 120 85
0.548987 -0.40392 -0.476 147 110 81
0.801605 -0.477746 -0.563 177 178 170
0.814138 -0.479443 -0.565 175 175 167
0.827438 -0.480291 -0.566 141 143 132
0.83538 -0.48114 -0.567 135 136 128
0.854584 -0.482837 -0.569 128 129 121
0.01776 -0.42864 -0.504 197 154 120
0.0225152 -0.42779 -0.503 201 157 122
0.0273057 -0.42779 -0.503 196 152 117
0.0310762 -0.426939 -0.502 197 153 118
0.058541 -0.432042 -0.508 190 141 108
0.0605952 -0.432892 -0.509 188 142 108
0.0626571 -0.433743 -0.51 187 141 108
0.0669343 -0.436294 -0.513 178 133 104
0.0680438 -0.437145 -0.514 172 131 103
0.0690229 -0.437145 -0.514 169 128 100
0.07238 -0.439696 -0.517 160 118 94
0.0735067 -0.440547 -0.518 156 114 90
0.0795 -0.4465 -0.525 144 109 90
0.107576 -0.468612 -0.551 112 117 146
0.109476 -0.467762 -0.55 152 157 189
0.119952 -0.467762 -0.55 173 179 193
0.132524 -0.467762 -0.55 191 202 220
0.134619 -0.467762 -0.55 212 220 233
0.13881 -0.467762 -0.55 221 225 236
0.200984 -0.468612 -0.551 236 242 255
0.20833 -0.468612 -0.551 196 204 223
0.36353 -0.471164 -0.554 173 177 178
0.373027 -0.471164 -0.554 75 110 174
0.44613 -0.473715 -0.557 59 100 166
0.451183 -0.474566 -0.558 167 174 192
0.455434 -0.474566 -0.558 170 187 197
0.474776 -0.473715 -0.557 34 87 157
0.477959 -0.473715 -0.557 47 93 152
0.504326 -0.474566 -0.558 28 63 131
0.495673 -0.424388 -0.499 157 122 100
0.494273 -0.417584 -0.491 165 125 99
0.493957 -0.414182 -0.487 169 130 101
0.495201 -0.409079 -0.481 175 134 104
0.496 -0.408229 -0.48 175 134 104
0.49912 -0.404827 -0.476 178 137 105
0.504815 -0.401425 -0.472 178 133 100
0.51521 -0.399724 -0.47 173 127 93
0.531737 -0.398023 -0.468 156 115 83
0.53466 -0.398873 -0.469 161 118 84
0.837243 -0.483921 -0.569 122 123 115
0.860429 -0.484771 -0.57 115 118 109
0.861514 -0.484771 -0.57 117 120 111
0.865201 -0.485622 -0.571 117 120 109
0.0139476 -0.430452 -0.505 200 157 125
0.0234267 -0.427895 -0.502 202 157 124
0.0669343 -0.437271 -0.513 177 133 106
0.0967286 -0.467957 -0.549 96 86 95
0.106527 -0.469662 -0.551 86 93 121
0.110524 -0.46881 -0.55 123 125 146
0.112619 -0.46881 -0.55 151 150 166
0.131476 -0.46881 -0.55 207 214 232
0.140649 -0.467957 -0.549 224 231 241
0.143786 -0.467957 -0.549 185 198 215
0.194333 -0.46881 -0.55 197 218 255
0.198524 -0.46881 -0.55 239 240 255
0.20481 -0.46881 -0.55 238 246 255
0.344967 -0.471367 -0.553 119 165 217
0.354447 -0.471367 -0.553 224 228 240
0.413871 -0.473071 -0.555 100 146 208
0.434739 -0.473924 -0.556 82 116 187
0.437916 -0.473924 -0.556 60 97 165
0.451435 -0.474776 -0.557 132 147 186
0.476898 -0.474776 -0.557 40 95 152
0.484131 -0.475629 -0.558 103 131 168
0.497056 -0.474776 -0.557 75 108 153
0.504326 -0.475629 -0.558 26 62 122
0.495673 -0.425338 -0.499 156 122 97
0.494123 -0.416814 -0.489 163 126 97
0.508231 -0.401471 -0.471 181 135 102
0.5159 -0.399767 -0.469 175 129 95
0.53352 -0.398914 -0.468 160 117 85
0.842361 -0.48671 -0.571 117 118 112
0.851062 -0.48671 -0.571 120 120 112
0.871933 -0.489267 -0.574 118 120 109
0.00449143 -0.447646 -0.524 188 147 117
0.0224705 -0.428851 -0.502 201 156 123
0.0282076 -0.428851 -0.502 198 155 121
0.04342 -0.427997 -0.501 198 152 119
0.0543476 -0.431414 -0.505 190 143 113
0.0808067 -0.450209 -0.527 138 102 86
0.102329 -0.470711 -0.551 112 116 119
0.103378 -0.470711 -0.551 125 129 132
0.109277 -0.469003 -0.549 97 110 145
0.119734 -0.469003 -0.549 186 197 217
0.131476 -0.469857 -0.55 210 217 235
0.36498 -0.47242 -0.553 174 179 185
0.37446 -0.47242 -0.553 69 106 174
0.406794 -0.473274 -0.554 48 102 172
0.433957 -0.474129 -0.555 77 108 173
0.455679 -0.475837 -0.557 98 131 176
0.46757 -0.474983 -0.556 64 105 157
0.482203 -0.475837 -0.557 103 133 167
0.488383 -0.476691 -0.558 181 190 205
0.500239 -0.475837 -0.557 82 114 171
0.51297 -0.475837 -0.557 120 148 195
0.515092 -0.475837 -0.557 142 161 193
0.524758 -0.474983 -0.556 158 172 185
0.500771 -0.435686 -0.51 146 113 94
0.496706 -0.427997 -0.501 153 121 100
0.494529 -0.422871 -0.495 158 124 97
0.496791 -0.409203 -0.479 166 125 93
0.512524 -0.401514 -0.47 178 132 99
0.521706 -0.398951 -0.467 170 126 91
0.528577 -0.398097 -0.466 161 116 83
0.80622 -0.48438 -0.567 104 103 99
0.8073 -0.48438 -0.567 104 103 99
0.819902 -0.486089 -0.569 119 119 111
0.836923 -0.487797 -0.571 113 114 109
0.83801 -0.487797 -0.571 115 116 111
0.854043 -0.489506 -0.573 118 115 108
0.869747 -0.49036 -0.574 117 118 110
0.881312 -0.493777 -0.578 118 120 109
0.0167333 -0.429808 -0.502 198 155 123
0.0243343 -0.428951 -0.501 201 156 123
0.03006 -0.428951 -0.501 198 155 121
0.0357857 -0.428951 -0.501 196 150 117
0.0808067 -0.451212 -0.527 136 100 84
0.108231 -0.470049 -0.549 56 74 114
0.117643 -0.470049 -0.549 117 129 153
0.121826 -0.470049 -0.549 165 181 206
0.130191 -0.470049 -0.549 211 218 237
0.200254 -0.470049 -0.549 231 239 250
0.43001 -0.47433 -0.554 94 124 162
0.484325 -0.476898 -0.557 158 179 200
0.505544 -0.476898 -0.557 31 75 136
0.507666 -0.476898 -0.557 30 70 131
0.51191 -0.476898 -0.557 96 133 188
0.509551 -0.447788 -0.523 137 109 97
0.50372 -0.440082 -0.514 141 113 102
0.496706 -0.428951 -0.501 152 120 99
0.495054 -0.418677 -0.489 163 128 100
0.502849 -0.403266 -0.471 176 133 99
0.507334 -0.403266 -0.471 181 135 102
0.522364 -0.398985 -0.466 169 124 91
0.523251 -0.398985 -0.466 172 126 93
0.526557 -0.398129 -0.465 169 124 91
0.527443 -0.398129 -0.465 164 119 86
0.530352 -0.398985 -0.466 157 116 86
0.542067 -0.40241 -0.47 147 108 77
0.640286 -0.462343 -0.54 190 191 183
0.829309 -0.488885 -0.571 117 116 111
0.843129 -0.490597 -0.573 122 123 115
0.84422 -0.490597 -0.573 124 125 117
0.84788 -0.491453 -0.574 121 121 113
0.855929 -0.49231 -0.575 118 117 112
0.858119 -0.49231 -0.575 120 119 114
0.865786 -0.49231 -0.575 118 119 111
0.866881 -0.49231 -0.575 115 117 106
0.0091381 -0.433338 -0.505 196 152 123
0.0119762 -0.431622 -0.503 193 152 120
0.0195629 -0.429906 -0.501 197 154 120
0.0281514 -0.429906 -0.501 199 156 122
0.0503 -0.431622 -0.503 191 146 117
0.0615648 -0.43677 -0.509 184 139 110
0.0713952 -0.443635 -0.517 162 117 94
0.0796514 -0.451358 -0.526 136 100 84
0.08096 -0.453074 -0.528 134 98 82
0.104238 -0.471952 -0.55 128 132 143
0.108231 -0.471094 -0.549 53 75 122
0.109277 -0.471094 -0.549 57 79 126
0.136217 -0.470236 -0.548 222 226 235
0.331125 -0.47281 -0.551 215 221 243
0.358011 -0.473669 -0.552 202 213 235
0.360114 -0.473669 -0.552 153 171 195
0.373783 -0.473669 -0.552 72 109 177
0.383246 -0.473669 -0.552 86 123 175
0.414487 -0.474527 -0.553 96 129 174
0.419753 -0.474527 -0.553 201 214 230
0.423678 -0.475385 -0.554 147 164 194
0.427899 -0.475385 -0.554 104 139 181
0.428954 -0.475385 -0.554 103 138 180
0.43001 -0.475385 -0.554 103 138 180
0.441357 -0.476243 -0.555 59 100 162
0.442414 -0.476243 -0.555 55 95 164
0.468629 -0.477101 -0.556 97 143 202
0.474983 -0.477101 -0.556 70 124 184
0.483264 -0.477959 -0.557 172 201 235
0.491751 -0.477959 -0.557 190 200 212
0.492812 -0.477959 -0.557 185 195 207
0.515092 -0.477959 -0.557 157 172 191
0.5291 -0.476243 -0.555 92 105 124
0.519154 -0.459939 -0.536 125 105 96
0.515323 -0.455649 -0.531 132 105 88
0.507619 -0.44621 -0.52 135 108 97
0.505675 -0.443635 -0.517 139 111 99
0.495054 -0.419609 -0.489 160 124 98
0.494885 -0.417892 -0.487 168 126 101
0.495086 -0.411886 -0.48 176 132 103
0.496791 -0.411028 -0.479 175 130 99
0.498351 -0.409311 -0.477 180 135 104
0.500479 -0.405879 -0.473 180 135 104
0.502118 -0.405021 -0.472 178 133 100
0.510733 -0.403305 -0.47 180 134 101
0.513419 -0.403305 -0.47 176 130 96
0.513909 -0.401589 -0.468 170 124 90
0.522129 -0.399014 -0.465 173 127 94
0.53124 -0.399872 -0.466 158 117 87
0.640127 -0.462513 -0.539 187 184 177
0.836947 -0.492547 -0.574 121 120 115
0.840227 -0.492547 -0.574 121 121 113
0.878426 -0.496837 -0.579 125 126 118
0.885887 -0.498553 -0.581 119 125 115
0.03006 -0.43086 -0.501 197 154 120
0.0414286 -0.43 -0.5 197 152 121
0.0433333 -0.43 -0.5 196 151 120
0.05424 -0.43344 -0.504 189 144 115
0.0562714 -0.4343 -0.505 187 142 113
0.0760629 -0.44892 -0.522 144 106 87
0.099 -0.473 -0.55 108 89 91
0.100911 -0.47214 -0.549 119 113 115
0.104049 -0.47214 -0.549 115 117 129
0.115341 -0.47128 -0.548 146 160 189
0.124735 -0.47128 -0.548 77 107 157
0.13701 -0.47042 -0.547 224 227 234
0.201977 -0.47128 -0.548 233 240 255
0.350016 -0.47386 -0.551 95 134 189
0.352115 -0.47386 -0.551 135 163 203
0.420807 -0.47558 -0.553 217 229 241
0.432393 -0.47558 -0.553 120 154 199
0.443471 -0.4773 -0.555 57 96 161
0.45592 -0.47816 -0.556 197 210 226
0.5013 -0.47902 -0.557 75 99 143
0.52264 -0.47816 -0.556 167 174 180
0.526986 -0.4773 -0.555 118 130 142
0.494343 -0.42312 -0.492 160 123 97
0.494123 -0.42054 -0.489 160 123 97
0.507334 -0.40506 -0.471 180 134 101
0.5148 -0.40248 -0.468 169 123 89
0.519471 -0.3999 -0.465 174 128 95
0.5239 -0.3999 -0.465 169 125 90
0.847915 -0.49622 -0.577 123 124 118
0.864798 -0.49708 -0.578 104 107 100
0.88146 -0.49966 -0.581 116 117 111
0.884086 -0.50052 -0.582 114 115 109
0.885194 -0.50052 -0.582 114 117 110
0.00628952 -0.437848 -0.508 192 148 121
0.0366667 -0.430952 -0.5 197 152 121
0.0512581 -0.433538 -0.503 195 148 120
0.0636286 -0.439571 -0.51 174 130 105
0.09882 -0.473186 -0.549 111 95 96
0.112005 -0.471462 -0.547 68 99 143
0.118256 -0.471462 -0.547 112 135 177
0.138052 -0.471462 -0.547 225 229 238
0.332619 -0.474048 -0.55 143 164 193
0.369957 -0.47491 -0.551 68 103 171
0.396914 -0.475771 -0.552 167 200 231
0.399017 -0.475771 -0.552 121 160 201
0.402171 -0.475771 -0.552 111 153 203
0.416891 -0.475771 -0.552 197 217 241
0.435553 -0.476633 -0.553 66 108 168
0.465671 -0.478357 -0.555 112 146 191
0.494934 -0.480081 -0.557 192 201 210
0.499178 -0.480081 -0.557 136 150 161
0.500239 -0.480081 -0.557 99 126 169
0.503422 -0.480081 -0.557 34 71 139
0.51191 -0.480081 -0.557 39 80 134
0.499757 -0.436986 -0.507 148 113 93
0.495312 -0.415438 -0.482 171 130 102
0.498213 -0.410267 -0.476 176 132 103
0.499578 -0.407681 -0.473 177 132 101
0.503017 -0.406819 -0.472 179 134 101
0.51054 -0.404233 -0.469 181 135 102
0.519471 -0.400786 -0.465 174 128 95
0.887124 -0.503352 -0.584 107 108 103
0.00244286 -0.443134 -0.513 189 150 121
0.0175838 -0.431041 -0.499 197 152 121
0.0452381 -0.431905 -0.5 196 149 119
0.05328 -0.43536 -0.504 191 144 116
0.0573467 -0.437088 -0.506 187 142 113
0.0669343 -0.443134 -0.513 168 126 104
0.0702743 -0.445726 -0.516 158 117 99
0.07252 -0.447453 -0.518 144 106 87
0.0749248 -0.450045 -0.521 141 104 86
0.0798029 -0.455228 -0.527 131 95 81
0.122424 -0.472504 -0.547 80 110 164
0.123466 -0.472504 -0.547 77 107 161
0.13884 -0.47164 -0.546 219 228 237
0.335762 -0.475095 -0.55 112 150 195
0.338905 -0.475095 -0.55 89 131 189
0.343095 -0.475095 -0.55 83 127 188
0.346238 -0.475095 -0.55 104 146 196
0.357363 -0.475959 -0.551 203 210 228
0.366809 -0.475959 -0.551 99 137 182
0.394096 -0.475959 -0.551 207 223 239
0.42186 -0.477687 -0.553 215 226 232
0.466729 -0.479414 -0.555 117 151 196
0.473071 -0.479414 -0.555 66 111 166
0.477101 -0.480278 -0.556 104 148 193
0.483264 -0.481142 -0.557 153 177 203
0.510703 -0.482006 -0.558 83 107 155
0.5217 -0.479414 -0.555 151 147 148
0.517264 -0.46041 -0.533 123 103 102
0.5047 -0.444862 -0.515 136 112 100
0.494042 -0.421539 -0.488 165 126 97
0.493957 -0.420675 -0.487 165 126 97
0.50032 -0.407718 -0.472 179 134 103
0.505362 -0.40599 -0.47 179 133 100
0.512327 -0.405127 -0.469 177 131 98
0.513909 -0.404263 -0.468 171 125 92
0.519471 -0.401671 -0.465 174 129 96
0.525174 -0.399944 -0.463 167 120 90
0.530728 -0.400808 -0.464 161 116 85
0.537453 -0.402535 -0.466 159 116 84
0.539496 -0.403399 -0.467 155 114 84
0.541543 -0.404263 -0.468 155 114 84
0.554167 -0.41031 -0.475 152 111 89
0.830331 -0.498418 -0.577 114 115 110
0.86154 -0.501873 -0.581 105 106 100
0.86818 -0.501873 -0.581 103 104 96
0.0119048 -0.432857 -0.5 192 147 118
0.0213857 -0.431991 -0.499 195 150 117
0.0223362 -0.431991 -0.499 197 152 119
0.0232867 -0.431991 -0.499 198 153 120
0.0394448 -0.431991 -0.499 194 149 118
0.0502 -0.434589 -0.502 192 147 118
0.0552 -0.43632 -0.504 188 143 114
0.0614438 -0.439783 -0.508 181 133 110
0.0625343 -0.440649 -0.509 174 126 103
0.10367 -0.473546 -0.547 144 159 166
0.104711 -0.473546 -0.547 132 147 154
0.11388 -0.47268 -0.546 52 82 132
0.117 -0.47268 -0.546 108 130 179
0.11908 -0.47268 -0.546 69 94 148
0.12324 -0.47268 -0.546 88 119 174
0.12948 -0.47268 -0.546 216 221 227
0.13156 -0.47268 -0.546 214 223 232
0.13988 -0.47268 -0.546 172 190 214
0.336197 -0.475277 -0.549 114 157 210
0.372429 -0.476143 -0.55 63 96 173
0.376619 -0.476143 -0.55 71 110 177
0.382905 -0.476143 -0.55 203 221 235
0.383952 -0.476143 -0.55 195 213 227
0.418235 -0.477009 -0.551 219 226 236
0.421097 -0.477874 -0.552 221 229 232
0.450059 -0.479606 -0.554 216 219 228
0.451114 -0.479606 -0.554 218 221 230
0.492634 -0.483069 -0.558 175 171 168
0.500074 -0.483069 -0.558 159 163 166
0.518404 -0.481337 -0.556 158 163 157
0.519463 -0.481337 -0.556 158 163 157
0.5047 -0.445843 -0.515 132 113 99
0.493869 -0.420737 -0.486 167 125 100
0.497926 -0.410349 -0.474 175 130 101
0.498829 -0.410349 -0.474 178 133 102
0.502849 -0.407751 -0.471 174 129 96
0.51054 -0.40602 -0.469 178 132 99
0.511433 -0.40602 -0.469 176 130 97
0.519883 -0.400826 -0.463 172 125 95
0.531611 -0.401691 -0.464 163 119 90
0.833209 -0.501249 -0.579 113 114 109
0.852324 -0.502114 -0.58 101 100 95
0.00338 -0.439883 -0.507 191 147 118
0.0119048 -0.43381 -0.5 191 147 118
0.0147324 -0.432942 -0.499 196 151 120
0.0308905 -0.432942 -0.499 198 153 120
0.0327914 -0.432942 -0.499 197 152 119
0.0365933 -0.432942 -0.499 193 150 116
0.0413457 -0.432942 -0.499 195 150 119
0.0691571 -0.446824 -0.515 160 117 98
0.0713952 -0.448559 -0.517 149 111 90
0.0917029 -0.471985 -0.544 100 82 82
0.10556 -0.47372 -0.546 132 149 167
0.111595 -0.472852 -0.545 42 78 136
0.113671 -0.472852 -0.545 46 77 132
0.11596 -0.47372 -0.546 96 122 171
0.120938 -0.472852 -0.545 59 94 148
0.137548 -0.472852 -0.545 226 230 239
0.139624 -0.472852 -0.545 172 190 210
0.311577 -0.475455 -0.548 65 105 166
0.336197 -0.476323 -0.549 125 171 221
0.355667 -0.47719 -0.55 211 223 239
0.356714 -0.47719 -0.55 218 227 244
0.35881 -0.47719 -0.55 210 220 230
0.365095 -0.47719 -0.55 190 216 229
0.366143 -0.47719 -0.55 169 195 208
0.369286 -0.47719 -0.55 70 114 185
0.375571 -0.47719 -0.55 65 106 172
0.395146 -0.478058 -0.551 216 223 229
0.403542 -0.478058 -0.551 110 148 195
0.412988 -0.478058 -0.551 142 170 207
0.443728 -0.480661 -0.554 56 95 160
0.457214 -0.481529 -0.555 217 220 225
0.485386 -0.483264 -0.557 167 175 178
0.504326 -0.484131 -0.558 181 181 181
0.508424 -0.484999 -0.559 179 179 177
0.514954 -0.484131 -0.558 174 174 174
0.518275 -0.483264 -0.557 169 169 169
0.493776 -0.420795 -0.485 167 127 101
0.49368 -0.419928 -0.484 169 128 100
0.494967 -0.41559 -0.479 178 134 105
0.495754 -0.414722 -0.478 178 133 102
0.497926 -0.411251 -0.474 174 131 99
0.513909 -0.406046 -0.468 175 129 96
0.514157 -0.403443 -0.465 177 131 98
0.52782 -0.401708 -0.463 161 117 88
0.528702 -0.401708 -0.463 158 114 85
0.537186 -0.403443 -0.465 158 117 87
0.547438 -0.407781 -0.47 154 113 83
0.834648 -0.503219 -0.58 116 117 112
0.841276 -0.503219 -0.58 116 117 112
0.84459 -0.503219 -0.58 107 106 101
0.860806 -0.504954 -0.582 104 105 99
0.887529 -0.507557 -0.585 68 69 61
0.0203943 -0.433023 -0.498 197 152 119
0.0270343 -0.433023 -0.498 194 149 118
0.02988 -0.433023 -0.498 200 155 124
0.0422962 -0.433892 -0.499 191 146 115
0.0521124 -0.436501 -0.502 189 145 116
0.0668038 -0.445196 -0.512 167 122 101
0.107443 -0.47389 -0.545 111 135 173
0.1199 -0.47389 -0.545 58 91 144
0.132357 -0.47389 -0.545 223 227 238
0.140662 -0.47389 -0.545 141 159 179
0.22932 -0.47476 -0.546 188 198 210
0.2314 -0.47476 -0.546 162 169 198
0.23764 -0.47476 -0.546 91 128 170
0.333497 -0.476499 -0.548 119 146 176
0.336629 -0.476499 -0.548 126 175 218
0.359857 -0.478238 -0.55 215 226 246
0.370333 -0.478238 -0.55 58 103 170
0.374524 -0.478238 -0.55 60 102 174
0.38919 -0.478238 -0.55 217 225 236
0.403542 -0.479108 -0.551 107 147 199
