ply
format ascii 1.0
comment Created by Open3D
element vertex 1293
property double x
property double y
property double z
property uchar red
property uchar green
property uchar blue
end_header
0.431814 -0.270466 -0.543 149 97 84
0.44198 -0.268473 -0.539 153 100 86
0.47586 -0.268473 -0.539 155 98 87
-0.097179 -0.313 -0.626 86 87 92
0.0835886 -0.212 -0.424 194 152 138
0.0977771 -0.213 -0.426 164 121 104
0.109029 -0.216 -0.432 138 93 88
0.370121 -0.2845 -0.569 50 37 46
0.38718 -0.2835 -0.567 141 101 101
0.401186 -0.2775 -0.555 137 94 88
0.412988 -0.2755 -0.551 132 87 81
0.417476 -0.275 -0.55 135 90 84
0.427429 -0.272 -0.544 145 95 84
0.440953 -0.2695 -0.539 151 98 84
-0.0912448 -0.322725 -0.643 67 68 73
-0.0840267 -0.323227 -0.644 52 50 61
0.0596514 -0.219834 -0.438 202 165 157
0.0628029 -0.216321 -0.431 203 166 160
0.0649629 -0.215317 -0.429 203 166 160
0.0787429 -0.212808 -0.424 202 162 152
0.107134 -0.216321 -0.431 144 99 93
0.109029 -0.216823 -0.432 136 91 86
0.35637 -0.279059 -0.556 43 30 37
0.382546 -0.287591 -0.573 145 105 106
0.3861 -0.28458 -0.567 143 103 103
0.38981 -0.282572 -0.563 138 97 95
0.392 -0.281067 -0.56 140 99 97
0.397327 -0.279561 -0.557 137 96 94
0.399449 -0.279561 -0.557 135 91 88
0.414037 -0.27655 -0.551 136 91 85
0.421986 -0.273538 -0.545 138 91 83
0.425356 -0.273036 -0.544 147 99 89
0.427677 -0.272534 -0.543 150 100 89
0.44973 -0.269021 -0.536 156 104 90
0.46041 -0.267515 -0.533 159 103 88
0.484839 -0.27153 -0.541 156 103 89
0.499463 -0.275044 -0.548 158 106 93
0.0730895 -0.213615 -0.424 206 168 159
0.0900495 -0.213615 -0.424 184 141 125
0.101497 -0.21563 -0.428 146 103 94
0.135665 -0.233768 -0.464 255 253 255
0.350233 -0.278607 -0.553 87 70 76
0.382354 -0.290194 -0.576 146 106 107
0.389731 -0.285156 -0.566 139 98 96
0.39343 -0.28163 -0.559 138 97 95
0.401909 -0.280118 -0.556 134 91 85
0.405007 -0.278607 -0.553 137 92 86
0.406377 -0.278103 -0.552 137 92 86
0.411938 -0.277599 -0.551 140 93 87
0.417763 -0.276591 -0.549 138 91 85
0.445454 -0.270546 -0.537 155 102 88
0.45212 -0.269034 -0.534 156 103 87
0.453304 -0.26853 -0.533 156 103 87
0.456507 -0.268027 -0.532 160 107 91
0.477027 -0.27105 -0.538 160 104 89
0.479967 -0.271553 -0.539 156 100 85
0.49569 -0.274576 -0.545 157 105 91
-0.131647 -0.32214 -0.637 99 99 107
-0.0979 -0.31506 -0.623 92 93 98
0.0591067 -0.21948 -0.434 203 167 155
0.0597952 -0.218974 -0.433 201 166 160
0.0662867 -0.21594 -0.427 202 165 159
0.0671 -0.21594 -0.427 204 165 158
0.0730895 -0.214423 -0.424 205 167 158
0.0819733 -0.214423 -0.424 198 156 144
0.09328 -0.214423 -0.424 171 130 112
0.0951191 -0.214929 -0.425 162 121 103
0.103369 -0.216951 -0.429 142 98 89
0.109281 -0.218974 -0.433 135 92 86
0.11036 -0.21948 -0.434 134 90 87
0.116914 -0.222514 -0.44 118 83 81
0.38582 -0.289774 -0.573 143 103 101
0.3927 -0.283706 -0.561 142 98 97
0.393769 -0.283706 -0.561 142 98 97
0.410889 -0.278649 -0.551 138 91 83
0.425609 -0.274603 -0.543 157 105 92
0.427677 -0.274603 -0.543 155 103 90
0.439714 -0.273086 -0.54 150 98 85
0.443007 -0.27258 -0.539 155 102 88
0.444033 -0.27258 -0.539 157 104 88
0.48202 -0.27258 -0.539 155 99 84
0.489865 -0.274097 -0.542 157 104 88
0.496729 -0.275614 -0.545 160 107 91
0.500635 -0.276626 -0.547 162 111 94
-0.128795 -0.319292 -0.629 98 101 110
-0.10034 -0.30914 -0.609 105 106 111
0.0645086 -0.216246 -0.426 200 165 159
0.0803581 -0.21523 -0.424 197 155 143
0.0811657 -0.21523 -0.424 195 153 141
0.0908571 -0.21523 -0.424 176 133 117
0.119669 -0.225383 -0.444 106 80 81
0.127552 -0.230459 -0.454 87 67 76
0.384783 -0.293404 -0.578 142 102 100
0.386071 -0.291881 -0.575 145 106 101
0.389229 -0.289343 -0.57 143 102 100
0.409531 -0.280206 -0.552 139 92 84
0.42432 -0.276145 -0.544 153 101 90
0.4475 -0.272591 -0.537 158 105 91
0.488961 -0.274622 -0.541 155 102 86
0.494906 -0.275637 -0.543 161 108 92
0.498805 -0.276652 -0.545 162 110 96
-0.11256 -0.2996 -0.588 103 106 113
-0.109945 -0.298581 -0.586 108 108 116
-0.103526 -0.302657 -0.594 112 113 118
-0.101817 -0.307752 -0.604 114 113 121
-0.0987686 -0.316414 -0.621 98 99 104
-0.0963086 -0.324057 -0.636 81 84 91
0.0570181 -0.222662 -0.437 199 164 158
0.0669429 -0.217057 -0.426 204 167 159
0.0747048 -0.216038 -0.424 203 164 157
0.0755124 -0.216038 -0.424 202 162 154
0.0924724 -0.216038 -0.424 172 129 113
0.0977771 -0.217057 -0.426 153 109 96
0.101497 -0.218076 -0.428 151 102 95
0.10361 -0.219095 -0.43 143 96 90
0.118823 -0.226229 -0.444 109 83 84
0.123857 -0.229286 -0.45 96 71 74
0.211128 -0.319981 -0.628 226 228 243
0.378577 -0.296543 -0.582 131 95 99
0.42432 -0.277181 -0.544 152 102 91
0.439498 -0.275652 -0.541 150 97 81
0.464613 -0.271067 -0.532 160 104 89
-0.0976448 -0.321689 -0.629 91 92 97
0.059381 -0.219914 -0.43 202 167 161
0.0675952 -0.217357 -0.425 204 167 159
0.082781 -0.216846 -0.424 191 149 135
0.0852038 -0.216846 -0.424 186 140 125
0.0961543 -0.217869 -0.426 152 106 93
0.101734 -0.219403 -0.429 151 102 95
0.107631 -0.221449 -0.433 132 91 89
0.108707 -0.22196 -0.434 130 90 88
0.115238 -0.225029 -0.44 108 80 79
0.211128 -0.321177 -0.628 226 228 243
0.387446 -0.297651 -0.582 137 96 92
0.392486 -0.291514 -0.57 136 91 88
0.395906 -0.286911 -0.561 142 97 94
0.410583 -0.282309 -0.552 137 90 82
0.420409 -0.279751 -0.547 146 98 88
0.431814 -0.277706 -0.543 150 98 84
0.435149 -0.277194 -0.542 146 93 79
0.446477 -0.274637 -0.537 152 99 85
0.456507 -0.27208 -0.532 164 108 93
0.470563 -0.272591 -0.533 157 101 84
0.494113 -0.276683 -0.541 163 112 93
0.512447 -0.28282 -0.553 162 116 93
-0.104481 -0.304407 -0.593 72 72 84
0.0578771 -0.221247 -0.431 205 168 162
0.0777514 -0.21714 -0.423 194 154 142
0.0811657 -0.217653 -0.424 195 155 143
0.0833914 -0.21714 -0.423 184 142 128
0.10279 -0.220733 -0.43 138 93 87
0.122143 -0.231 -0.45 93 72 77
0.151254 -0.25718 -0.501 228 236 255
0.40018 -0.28798 -0.561 138 93 88
0.401948 -0.286953 -0.559 136 91 86
0.405086 -0.285413 -0.556 133 86 78
0.408586 -0.2849 -0.555 135 88 80
0.415087 -0.282847 -0.551 139 91 81
0.4251 -0.279767 -0.545 149 101 87
0.443007 -0.276687 -0.539 155 99 84
0.445259 -0.276173 -0.538 152 99 83
0.446667 -0.275147 -0.536 156 103 89
0.455493 -0.273093 -0.532 164 108 91
0.467653 -0.273093 -0.532 157 101 86
0.48625 -0.276173 -0.538 159 107 83
0.490233 -0.276687 -0.539 161 106 86
-0.118089 -0.308628 -0.599 105 108 113
-0.0988429 -0.324085 -0.629 99 100 105
-0.0967629 -0.329237 -0.639 88 92 95
0.0614067 -0.220007 -0.427 196 161 155
0.0630333 -0.220007 -0.427 198 163 157
0.0636971 -0.219491 -0.426 203 166 158
0.0900495 -0.218461 -0.424 168 124 111
0.10279 -0.221552 -0.43 136 91 85
0.125233 -0.234433 -0.455 91 71 73
0.391848 -0.305021 -0.592 131 91 91
0.391892 -0.302445 -0.587 132 94 93
0.397682 -0.289564 -0.562 140 92 88
0.408905 -0.285442 -0.554 135 88 80
0.418235 -0.283896 -0.551 137 89 77
0.419285 -0.283896 -0.551 137 89 77
0.431573 -0.28029 -0.544 142 93 78
0.433883 -0.279774 -0.543 145 93 79
0.438246 -0.279259 -0.542 148 95 81
0.445454 -0.276683 -0.537 156 100 85
0.465763 -0.273591 -0.531 159 106 88
-0.130433 -0.32942 -0.637 96 99 106
-0.107142 -0.304597 -0.589 95 95 105
-0.102968 -0.312354 -0.604 214 213 221
0.118509 -0.230646 -0.446 100 74 77
0.122686 -0.233749 -0.452 103 77 88
0.389635 -0.309769 -0.599 123 87 87
0.396042 -0.295806 -0.572 137 92 87
0.400893 -0.290634 -0.562 138 91 85
0.416891 -0.285463 -0.552 138 90 80
0.4251 -0.281843 -0.545 144 95 81
0.429501 -0.281326 -0.544 141 92 78
0.446477 -0.277706 -0.537 155 102 88
0.458829 -0.274086 -0.53 166 111 91
0.461857 -0.274086 -0.53 163 108 88
0.485346 -0.277706 -0.537 159 104 83
0.69519 -0.336143 -0.65 218 218 220
0.758403 -0.335626 -0.649 218 218 216
-0.10501 -0.309352 -0.596 73 71 92
0.0737229 -0.219557 -0.423 201 161 153
0.0745286 -0.219557 -0.423 196 156 148
0.0769457 -0.219557 -0.423 192 149 140
0.0908571 -0.220076 -0.424 164 122 110
0.106227 -0.225267 -0.434 126 85 79
0.110543 -0.227343 -0.438 117 81 81
0.116548 -0.230976 -0.445 96 69 74
0.121825 -0.23461 -0.452 97 72 78
0.126334 -0.238243 -0.459 177 166 164
0.393034 -0.314543 -0.606 116 80 82
0.397143 -0.311429 -0.6 127 86 84
0.397162 -0.301048 -0.58 127 84 78
0.39906 -0.2943 -0.567 137 89 85
0.413126 -0.287552 -0.554 136 89 81
0.4187 -0.287033 -0.553 139 91 81
0.422714 -0.285476 -0.55 148 98 87
0.424309 -0.284438 -0.548 147 97 86
0.43029 -0.282881 -0.545 139 90 76
0.431329 -0.282881 -0.545 138 89 75
0.435951 -0.281843 -0.543 142 94 80
0.444033 -0.279767 -0.539 151 100 81
0.459838 -0.275095 -0.53 166 111 90
0.464886 -0.275095 -0.53 160 106 82
0.480481 -0.27769 -0.535 162 108 84
0.499266 -0.280805 -0.541 171 120 101
0.68794 -0.336862 -0.649 217 217 219
0.091881 -0.221405 -0.425 161 119 107
0.0982362 -0.222968 -0.428 139 97 85
0.120964 -0.23547 -0.452 105 76 80
0.126885 -0.240159 -0.461 238 227 233
0.400571 -0.312571 -0.6 124 84 82
0.39964 -0.303194 -0.582 127 83 80
0.4023 -0.29538 -0.567 135 90 84
0.420807 -0.288087 -0.553 140 92 82
0.42186 -0.288087 -0.553 140 92 82
0.42666 -0.284961 -0.547 140 92 80
0.44031 -0.282356 -0.542 144 96 82
0.4428 -0.281314 -0.54 145 96 79
0.44991 -0.27871 -0.535 158 106 85
-0.100756 -0.327309 -0.626 179 182 175
0.0561048 -0.224829 -0.43 205 168 162
0.05978 -0.22326 -0.427 209 170 163
0.0688886 -0.221169 -0.423 202 159 152
0.0785571 -0.221169 -0.423 189 150 135
0.0841971 -0.221169 -0.423 175 133 117
0.0866143 -0.221169 -0.423 176 134 122
0.401466 -0.323649 -0.619 113 73 73
0.401344 -0.322603 -0.617 117 77 77
0.403577 -0.311623 -0.596 124 80 79
0.402635 -0.297506 -0.569 133 88 83
0.41153 -0.292277 -0.559 130 87 78
0.41292 -0.291754 -0.558 130 87 78
0.416735 -0.290709 -0.556 133 89 80
0.420214 -0.290186 -0.555 139 92 82
0.43779 -0.284434 -0.544 137 90 80
0.441343 -0.283389 -0.542 144 95 80
0.44362 -0.282866 -0.541 146 95 78
0.4475 -0.280774 -0.537 154 101 83
0.448709 -0.280251 -0.536 152 99 81
0.464009 -0.276591 -0.529 164 109 88
0.479583 -0.279206 -0.534 165 110 89
0.50535 -0.283389 -0.542 178 132 117
0.67824 -0.338811 -0.648 218 218 220
0.0507048 -0.230895 -0.44 190 160 152
0.0567914 -0.225123 -0.429 204 165 158
0.406107 -0.32955 -0.628 116 80 82
0.407361 -0.324828 -0.619 122 81 77
0.40804 -0.318006 -0.606 121 80 78
0.404487 -0.304887 -0.581 130 87 81
0.405138 -0.299639 -0.571 127 84 78
0.414071 -0.294391 -0.561 130 87 78
0.426905 -0.288619 -0.55 140 93 83
0.496497 -0.282322 -0.538 172 121 100
0.504418 -0.283896 -0.541 178 129 114
0.696911 -0.339521 -0.647 217 217 217
-0.101988 -0.326007 -0.619 220 220 222
0.05964 -0.22436 -0.426 205 166 159
0.0767638 -0.222253 -0.422 193 150 141
0.101388 -0.226993 -0.431 129 89 87
0.103508 -0.228047 -0.433 124 85 80
0.41257 -0.321793 -0.611 118 79 80
0.406802 -0.304413 -0.578 124 83 77
0.414475 -0.296513 -0.563 130 87 80
0.424911 -0.293353 -0.557 134 90 79
0.44444 -0.285453 -0.542 142 90 77
0.447113 -0.283873 -0.539 146 94 80
0.449546 -0.28282 -0.537 146 95 78
0.457819 -0.279133 -0.53 173 118 98
0.470943 -0.279133 -0.53 165 110 89
0.473971 -0.279133 -0.53 165 113 91
0.486595 -0.281767 -0.535 154 102 81
0.493529 -0.28282 -0.537 169 117 96
0.497522 -0.283347 -0.538 173 128 109
0.507415 -0.285453 -0.542 177 126 105
0.0510743 -0.230457 -0.436 194 157 149
0.05734 -0.2257 -0.427 204 166 157
0.0603095 -0.224643 -0.425 207 167 157
0.0642057 -0.224114 -0.424 199 159 149
0.0751562 -0.223057 -0.422 193 150 141
0.07596 -0.223057 -0.422 191 148 139
0.0945314 -0.225171 -0.426 139 98 92
0.416872 -0.331943 -0.628 110 84 95
0.411178 -0.311329 -0.589 122 84 83
0.410943 -0.301286 -0.57 124 81 74
0.428954 -0.292829 -0.554 139 92 84
-0.105362 -0.317225 -0.598 66 63 82
-0.102667 -0.326773 -0.616 233 231 242
0.05084 -0.230227 -0.434 190 153 145
0.0687257 -0.223861 -0.422 198 158 148
0.08742 -0.224391 -0.423 160 120 108
0.101623 -0.229166 -0.432 123 88 84
0.111805 -0.235001 -0.443 102 76 77
0.12479 -0.24561 -0.463 213 214 218
0.151263 -0.272665 -0.514 189 199 234
0.420583 -0.299189 -0.564 131 87 78
0.421982 -0.298658 -0.563 132 88 79
0.428567 -0.296536 -0.559 136 89 79
0.429155 -0.295475 -0.557 135 91 82
0.43134 -0.293353 -0.553 135 88 78
0.433978 -0.292292 -0.551 134 86 76
0.439723 -0.291231 -0.549 131 83 73
0.44608 -0.288579 -0.544 141 89 75
0.44857 -0.287518 -0.542 146 94 80
0.454154 -0.283274 -0.534 162 107 86
0.478911 -0.281683 -0.531 162 107 86
-0.115431 -0.321026 -0.603 74 76 91
0.0563943 -0.226794 -0.426 202 162 154
0.06486 -0.225197 -0.423 203 160 153
0.0679219 -0.224665 -0.422 201 158 149
0.0767638 -0.224665 -0.422 188 145 136
0.0848019 -0.224665 -0.422 170 130 118
0.0957905 -0.227859 -0.428 133 93 91
0.101858 -0.230521 -0.433 121 86 84
0.105055 -0.232118 -0.436 117 83 81
0.416619 -0.346048 -0.65 63 85 134
0.426276 -0.33327 -0.626 120 107 116
0.422405 -0.300795 -0.565 132 88 79
0.4304 -0.298133 -0.56 130 86 77
0.469047 -0.28163 -0.529 165 110 89
0.489652 -0.284824 -0.535 164 109 89
-0.10492 -0.32164 -0.602 66 64 78
0.0478905 -0.237757 -0.445 198 161 153
0.0491867 -0.23188 -0.434 196 159 151
0.0520095 -0.229743 -0.43 201 164 156
0.0527057 -0.229209 -0.429 200 161 154
0.0663143 -0.225469 -0.422 200 157 150
0.0671181 -0.225469 -0.422 199 156 149
0.08742 -0.226003 -0.423 154 114 104
0.101858 -0.231346 -0.433 121 86 84
0.106371 -0.234017 -0.438 117 83 81
0.421457 -0.317366 -0.594 115 78 72
0.431326 -0.301337 -0.564 127 83 72
0.456507 -0.28424 -0.532 166 111 90
0.45752 -0.28424 -0.532 166 111 90
0.457671 -0.283706 -0.531 169 114 93
0.458683 -0.283706 -0.531 168 113 92
0.467154 -0.282103 -0.528 165 110 89
0.475092 -0.282637 -0.529 162 107 86
0.479019 -0.283171 -0.53 160 105 84
-0.11832 -0.328149 -0.612 73 74 92
-0.109367 -0.319033 -0.595 74 75 79
-0.103166 -0.328149 -0.612 229 227 241
0.0427143 -0.348524 -0.65 247 246 251
0.0510714 -0.230026 -0.429 199 160 153
0.0671181 -0.226272 -0.422 198 155 149
0.0775676 -0.226272 -0.422 182 139 130
0.0807829 -0.226272 -0.422 171 127 116
0.0831943 -0.226272 -0.422 172 128 117
0.0902619 -0.227881 -0.425 142 103 96
0.0999771 -0.231634 -0.432 123 87 87
0.116917 -0.242894 -0.453 104 78 79
0.257349 -0.347451 -0.648 217 222 242
0.425676 -0.317425 -0.592 117 78 81
0.42624 -0.308846 -0.576 113 75 72
0.435443 -0.300803 -0.561 124 80 69
0.437085 -0.29973 -0.559 121 77 66
0.437643 -0.298658 -0.557 121 77 66
0.446331 -0.295977 -0.552 129 83 70
0.45752 -0.285253 -0.532 164 109 88
0.4761 -0.283645 -0.529 162 107 86
0.49271 -0.286862 -0.535 163 108 88
0.5076 -0.289543 -0.54 165 118 102
0.50957 -0.290079 -0.541 167 120 104
-0.120852 -0.333081 -0.619 70 73 80
-0.0981105 -0.340076 -0.632 224 222 225
-0.0377619 -0.349762 -0.65 189 187 188
-0.0352857 -0.349762 -0.65 193 191 194
0.0475933 -0.349224 -0.649 236 234 237
0.0500657 -0.349224 -0.649 253 251 255
0.0513019 -0.349224 -0.649 253 251 255
0.0550105 -0.349224 -0.649 255 252 251
0.0469219 -0.23461 -0.436 193 156 150
0.0663143 -0.227076 -0.422 196 155 149
0.0741762 -0.226538 -0.421 190 150 142
0.0864095 -0.227076 -0.422 155 117 106
0.08742 -0.227614 -0.423 150 112 101
0.0981038 -0.231919 -0.431 123 88 86
0.105537 -0.235686 -0.438 109 78 76
0.121352 -0.247524 -0.46 239 228 242
0.199483 -0.338462 -0.629 196 206 242
0.433971 -0.328238 -0.61 107 78 80
0.431996 -0.30779 -0.572 120 79 73
0.448434 -0.297029 -0.552 129 83 70
0.4525 -0.292186 -0.543 135 86 72
0.471062 -0.284652 -0.529 162 110 88
0.477108 -0.284652 -0.529 160 108 86
0.493729 -0.287881 -0.535 166 111 91
0.495767 -0.287881 -0.535 165 117 97
0.0278571 -0.351 -0.65 240 237 246
0.0352857 -0.351 -0.65 247 244 251
0.0377038 -0.35046 -0.649 248 246 251
0.0401762 -0.35046 -0.649 249 247 252
0.0463571 -0.35046 -0.649 241 239 242
0.0586286 -0.34992 -0.648 182 161 156
0.0636638 -0.35046 -0.649 191 157 148
0.0741762 -0.22734 -0.421 191 148 141
0.0791752 -0.22788 -0.422 179 136 129
0.132665 -0.26028 -0.482 255 255 255
0.26681 -0.351 -0.65 216 227 255
0.434957 -0.32238 -0.597 112 78 76
0.434302 -0.32022 -0.593 109 79 71
0.448507 -0.30024 -0.556 123 79 68
0.452491 -0.29592 -0.548 131 83 71
0.454482 -0.29052 -0.538 154 103 86
0.455507 -0.29052 -0.538 153 100 82
0.459081 -0.2889 -0.535 164 109 88
0.464886 -0.2862 -0.53 160 108 86
0.507687 -0.29106 -0.539 168 121 103
-0.0488295 -0.351696 -0.649 179 177 180
-0.0414124 -0.351696 -0.649 188 186 187
-0.025381 -0.352238 -0.65 199 199 197
-0.0154524 -0.351696 -0.649 206 204 205
-0.013 -0.352238 -0.65 210 205 209
-0.00185429 -0.351696 -0.649 214 212 213
0.0438171 -0.351154 -0.648 253 251 255
0.0524571 -0.351154 -0.648 254 255 255
0.0536914 -0.351154 -0.648 245 246 248
0.05396 -0.230851 -0.426 202 163 156
0.0622952 -0.228684 -0.422 202 159 152
0.0685629 -0.228142 -0.421 196 153 146
0.0807829 -0.228684 -0.422 169 125 116
0.0831943 -0.228684 -0.422 164 120 111
0.0972829 -0.233561 -0.431 128 90 89
0.1071 -0.23898 -0.441 98 75 81
0.194954 -0.339232 -0.626 193 201 238
0.264333 -0.352238 -0.65 214 228 255
0.277952 -0.352238 -0.65 250 250 255
0.30519 -0.352238 -0.65 161 169 208
0.430149 -0.351154 -0.648 117 138 191
0.437307 -0.348987 -0.644 159 160 188
0.439881 -0.33869 -0.625 84 86 127
0.43966 -0.337607 -0.623 85 87 128
0.43995 -0.32135 -0.593 109 75 73
0.444122 -0.307802 -0.568 112 72 64
0.445291 -0.305634 -0.564 114 71 64
0.445853 -0.30455 -0.562 117 74 67
0.448266 -0.304009 -0.561 117 74 67
0.4496 -0.303467 -0.56 118 73 67
0.451684 -0.301299 -0.556 121 77 68
0.454143 -0.298048 -0.55 127 80 70
0.466024 -0.286668 -0.529 164 109 89
0.470054 -0.286668 -0.529 161 109 88
0.471177 -0.286126 -0.528 158 106 85
0.483057 -0.28721 -0.53 158 106 85
0.511631 -0.29317 -0.541 165 120 101
-0.11047 -0.32683 -0.601 80 83 92
-0.107035 -0.32683 -0.601 75 78 87
-0.0278143 -0.352932 -0.649 197 197 195
0.0104914 -0.352389 -0.648 219 219 221
0.0166629 -0.352389 -0.648 227 225 230
0.0478029 -0.233294 -0.429 199 160 153
0.067761 -0.228944 -0.421 194 151 144
0.0749781 -0.228944 -0.421 183 139 130
0.0791752 -0.229488 -0.422 175 131 122
0.0815867 -0.229488 -0.422 171 128 119
0.0831943 -0.229488 -0.422 162 119 110
0.09416 -0.23275 -0.428 131 96 100
0.111111 -0.243083 -0.447 89 62 71
0.26269 -0.352932 -0.649 214 223 255
0.30519 -0.353476 -0.65 151 159 205
0.310143 -0.353476 -0.65 224 230 255
0.31881 -0.353476 -0.65 221 223 248
0.439344 -0.351845 -0.647 157 163 195
0.445395 -0.329005 -0.605 108 78 76
0.44559 -0.320848 -0.59 108 74 72
0.445509 -0.317585 -0.584 112 77 73
0.452276 -0.305621 -0.562 117 73 70
0.455409 -0.298551 -0.549 126 79 71
0.455143 -0.293657 -0.54 145 94 77
0.462587 -0.289307 -0.532 158 103 83
0.469047 -0.287675 -0.529 161 106 86
0.470054 -0.287675 -0.529 161 106 86
0.489947 -0.289307 -0.532 160 108 87
0.51948 -0.29692 -0.546 156 113 94
-0.115198 -0.335069 -0.614 87 88 93
-0.112914 -0.331794 -0.608 83 83 91
-0.10854 -0.329066 -0.603 82 82 90
-0.0622352 -0.353077 -0.647 167 167 169
-0.0499114 -0.353077 -0.647 182 180 183
-0.0412848 -0.353077 -0.647 188 186 187
-0.0314743 -0.353623 -0.648 197 195 196
-0.0104914 -0.353623 -0.648 210 208 211
-0.00432 -0.353623 -0.648 213 211 212
0.00308571 -0.353623 -0.648 216 216 216
0.0117076 -0.353077 -0.647 222 220 223
0.0191019 -0.353077 -0.647 229 227 232
0.022799 -0.353077 -0.647 236 231 238
0.0252638 -0.353077 -0.647 241 235 245
0.0596781 -0.352531 -0.646 197 157 147
0.0434562 -0.241751 -0.443 197 160 152
0.0456686 -0.235749 -0.432 198 159 154
0.0462762 -0.234657 -0.43 198 161 155
0.0616371 -0.230837 -0.423 199 158 152
0.0783714 -0.230291 -0.422 177 134 125
0.0876267 -0.231383 -0.424 147 106 100
0.10542 -0.24066 -0.441 104 77 82
0.118466 -0.250483 -0.459 182 173 190
0.296068 -0.354169 -0.649 166 179 223
0.311381 -0.354714 -0.65 227 233 255
0.313374 -0.354169 -0.649 222 231 255
0.327476 -0.354714 -0.65 120 147 200
0.447178 -0.336706 -0.617 104 78 77
0.4514 -0.332886 -0.61 106 78 75
0.45192 -0.32088 -0.588 106 71 69
0.455746 -0.306146 -0.561 113 72 66
0.456238 -0.300143 -0.55 125 78 70
0.45604 -0.29796 -0.546 128 82 69
0.4572 -0.294686 -0.54 149 92 75
0.4601 -0.291957 -0.535 153 98 77
0.473296 -0.287591 -0.527 158 103 83
0.49484 -0.291411 -0.534 163 112 93
0.496874 -0.291411 -0.534 166 115 98
0.499843 -0.291957 -0.535 166 115 98
0.50974 -0.29414 -0.539 160 113 97
-0.00801048 -0.35431 -0.647 212 210 211
-0.00184857 -0.35431 -0.647 216 214 215
0.0067781 -0.35431 -0.647 219 219 219
0.0215333 -0.353762 -0.646 234 232 237
0.0239943 -0.353762 -0.646 238 233 240
0.0448457 -0.236571 -0.432 198 158 156
0.0701667 -0.230548 -0.421 191 148 141
0.0717705 -0.230548 -0.421 193 149 140
0.0783714 -0.231095 -0.422 176 133 124
0.0858086 -0.231643 -0.423 156 112 103
0.0933448 -0.234381 -0.428 132 94 91
0.258184 -0.35431 -0.647 183 198 239
0.293143 -0.354857 -0.648 151 165 214
0.294377 -0.354857 -0.648 148 160 210
0.299314 -0.354857 -0.648 143 157 206
0.303485 -0.355405 -0.649 142 154 202
0.30843 -0.355405 -0.649 222 229 255
0.323264 -0.355405 -0.649 141 168 215
0.421571 -0.355952 -0.65 23 49 108
0.42281 -0.355952 -0.65 20 46 105
0.433952 -0.355952 -0.65 55 75 126
0.436429 -0.355952 -0.65 79 89 138
0.44765 -0.352119 -0.643 52 80 145
0.452165 -0.338976 -0.619 102 85 91
0.457134 -0.317071 -0.579 105 68 62
0.458581 -0.294619 -0.538 151 95 78
0.458918 -0.293524 -0.536 154 99 79
0.461274 -0.292429 -0.534 156 97 79
0.475304 -0.288595 -0.527 161 106 86
0.482146 -0.28969 -0.529 159 107 86
0.491973 -0.291333 -0.532 162 111 90
0.510767 -0.295167 -0.539 161 112 95
-0.115761 -0.339056 -0.617 91 90 95
-0.112491 -0.336309 -0.612 93 92 97
-0.108282 -0.33411 -0.608 87 86 91
-0.105152 -0.33521 -0.61 86 85 91
-0.103166 -0.336309 -0.612 85 84 90
-0.0596781 -0.354992 -0.646 175 175 177
-0.0314257 -0.355542 -0.647 198 196 197
-0.0117076 -0.355542 -0.647 209 209 211
-0.0079981 -0.354992 -0.646 212 210 213
0.0178143 -0.354443 -0.645 229 227 232
0.0538333 -0.233548 -0.425 203 163 155
0.07578 -0.23135 -0.421 180 136 127
0.0765819 -0.23135 -0.421 177 134 125
0.0833914 -0.232449 -0.423 160 117 108
0.105659 -0.24289 -0.442 99 76 84
0.114833 -0.250033 -0.455 101 79 91
0.1848 -0.338507 -0.616 192 201 230
0.251243 -0.354443 -0.645 254 253 255
0.258184 -0.355542 -0.647 188 201 245
0.265989 -0.356091 -0.648 180 194 239
0.273394 -0.356091 -0.648 197 208 254
0.283269 -0.356091 -0.648 249 250 254
0.349762 -0.35719 -0.65 159 170 200
0.432714 -0.35719 -0.65 83 101 149
0.449573 -0.353893 -0.644 51 79 142
0.46268 -0.330813 -0.602 106 71 75
0.46261 -0.327516 -0.596 107 77 79
0.462332 -0.32257 -0.587 109 72 63
0.462986 -0.321471 -0.585 108 74 64
0.461971 -0.313229 -0.57 110 74 62
0.457281 -0.29949 -0.545 135 85 74
0.518613 -0.298941 -0.544 161 113 93
-0.118073 -0.34354 -0.623 97 98 102
-0.0987686 -0.342437 -0.621 77 76 82
-0.0485286 -0.355671 -0.645 188 186 187
0.0419571 -0.245386 -0.445 193 158 152
0.0433 -0.238769 -0.433 200 160 152
0.0490914 -0.234909 -0.426 201 161 153
0.0600257 -0.233254 -0.423 199 156 149
0.0652 -0.2316 -0.42 194 151 144
0.0878333 -0.234357 -0.425 142 101 97
0.252471 -0.355671 -0.645 244 247 254
0.27667 -0.356774 -0.647 247 247 255
0.348524 -0.358429 -0.65 131 142 172
0.399286 -0.358429 -0.65 41 72 136
0.453069 -0.354017 -0.642 54 87 154
0.468718 -0.329754 -0.598 107 74 69
0.468977 -0.327549 -0.594 105 72 65
0.468395 -0.324791 -0.589 104 73 70
0.462157 -0.309351 -0.561 115 76 71
0.460386 -0.306043 -0.555 117 80 74
0.463309 -0.294463 -0.534 155 97 77
0.464751 -0.292809 -0.531 158 101 81
0.470171 -0.291154 -0.528 163 108 88
0.477311 -0.290603 -0.527 162 110 88
0.511793 -0.29722 -0.539 165 114 95
-0.108181 -0.339747 -0.614 100 101 106
-0.0411571 -0.3569 -0.645 192 190 191
-0.0251857 -0.3569 -0.645 203 203 201
-0.00798571 -0.3569 -0.645 213 211 214
0.00184286 -0.3569 -0.645 217 215 218
0.0043 -0.3569 -0.645 219 217 220
0.0410933 -0.356347 -0.644 247 245 248
0.0568029 -0.23406 -0.423 201 158 149
0.0576086 -0.23406 -0.423 201 157 148
0.0733743 -0.232953 -0.421 182 139 130
0.0958629 -0.23904 -0.432 115 86 88
0.112851 -0.251213 -0.454 88 67 76
0.185117 -0.34362 -0.621 194 203 232
0.250853 -0.356347 -0.644 254 253 255
0.268043 -0.358007 -0.647 175 192 238
0.281599 -0.358007 -0.647 245 244 255
0.288993 -0.358007 -0.647 183 200 243
0.306247 -0.358007 -0.647 221 232 255
0.331917 -0.359113 -0.649 82 120 193
0.335626 -0.359113 -0.649 94 127 194
0.34057 -0.359113 -0.649 136 159 201
0.38319 -0.359667 -0.65 104 117 159
0.45448 -0.356347 -0.644 63 94 159
0.45796 -0.35524 -0.642 66 92 151
0.46019 -0.354133 -0.64 162 169 197
0.474413 -0.330893 -0.598 103 71 76
0.493071 -0.29382 -0.531 162 111 90
0.49704 -0.294373 -0.532 166 115 94
0.504938 -0.296033 -0.535 160 112 92
-0.0558133 -0.357573 -0.644 180 180 182
-0.0362429 -0.358129 -0.645 195 193 194
-0.0251467 -0.357573 -0.644 202 204 201
-0.0153571 -0.358129 -0.645 209 207 208
0.00429333 -0.357573 -0.644 220 218 221
0.00797333 -0.357573 -0.644 222 222 224
0.043 -0.238752 -0.43 200 162 153
0.0637514 -0.233755 -0.421 193 153 143
0.0781857 -0.233755 -0.421 170 127 118
0.12272 -0.262072 -0.472 176 188 228
0.257386 -0.358129 -0.645 187 201 248
0.282831 -0.359239 -0.647 239 238 255
0.354169 -0.36035 -0.649 58 80 137
0.373948 -0.36035 -0.649 130 139 182
0.380714 -0.360905 -0.65 168 169 197
0.396199 -0.36035 -0.649 38 75 143
0.398671 -0.36035 -0.649 48 84 146
0.40238 -0.36035 -0.649 139 161 202
0.437554 -0.359794 -0.648 98 102 114
0.470942 -0.320372 -0.577 106 75 72
0.46602 -0.31482 -0.567 111 79 68
0.464629 -0.313154 -0.564 113 81 70
0.460833 -0.307047 -0.553 128 84 73
0.463309 -0.296497 -0.534 152 95 76
0.466774 -0.294831 -0.531 167 110 91
0.467786 -0.294831 -0.531 168 113 93
0.4752 -0.293166 -0.528 170 115 94
0.498053 -0.295387 -0.532 164 116 96
0.50102 -0.295942 -0.533 160 112 92
0.527476 -0.305381 -0.55 149 108 90
-0.10146 -0.3471 -0.623 93 92 98
-0.0994048 -0.348214 -0.625 82 81 87
0.00673619 -0.358243 -0.643 221 219 222
0.0251076 -0.358243 -0.643 240 237 244
0.0414581 -0.240129 -0.431 196 157 150
0.05908 -0.235114 -0.422 197 157 149
0.0716 -0.234 -0.42 179 136 127
0.0732 -0.234 -0.42 176 133 124
0.0888514 -0.237343 -0.426 131 98 93
0.2623 -0.359357 -0.645 154 177 221
0.2709 -0.359357 -0.645 168 187 220
0.289329 -0.359357 -0.645 141 163 204
0.304543 -0.359914 -0.646 145 157 205
0.319309 -0.359914 -0.646 105 127 177
0.34128 -0.361029 -0.648 173 180 209
0.342514 -0.361029 -0.648 186 193 222
0.391886 -0.361029 -0.648 41 74 141
0.39312 -0.361029 -0.648 47 80 147
0.417161 -0.360471 -0.647 26 57 114
0.43632 -0.361029 -0.648 161 164 181
0.47892 -0.342086 -0.614 97 78 74
0.479691 -0.340971 -0.612 96 77 73
0.483526 -0.333171 -0.598 101 75 76
0.480323 -0.293614 -0.527 164 112 91
0.487269 -0.294171 -0.528 167 114 96
0.498053 -0.2964 -0.532 162 113 96
0.50102 -0.296957 -0.533 161 112 95
0.530446 -0.307543 -0.552 147 105 89
-0.0202086 -0.359468 -0.643 206 206 206
0.0165086 -0.358909 -0.642 234 232 235
0.0275143 -0.358909 -0.642 242 239 246
0.0483029 -0.358909 -0.642 179 166 150
0.048861 -0.237036 -0.424 202 159 150
0.0773838 -0.235359 -0.421 167 124 115
0.090899 -0.239272 -0.428 125 90 88
0.0971333 -0.242627 -0.434 113 83 85
0.246406 -0.358909 -0.642 228 229 233
0.251689 -0.359468 -0.643 214 227 244
0.252913 -0.359468 -0.643 194 207 224
0.258213 -0.360027 -0.644 156 176 227
0.264347 -0.360027 -0.644 147 172 228
0.272129 -0.360586 -0.645 185 204 237
0.294243 -0.360586 -0.645 126 144 192
0.302082 -0.361145 -0.646 128 141 193
0.308234 -0.361145 -0.646 143 152 193
0.310695 -0.361145 -0.646 154 158 193
0.344983 -0.362263 -0.648 181 188 214
0.347451 -0.362263 -0.648 170 177 203
0.365294 -0.362822 -0.649 20 56 130
0.367767 -0.362822 -0.649 46 80 151
0.373371 -0.362263 -0.648 163 167 204
0.382601 -0.362822 -0.649 160 169 202
0.386949 -0.362263 -0.648 52 93 159
0.420208 -0.361145 -0.646 62 91 151
0.446048 -0.361145 -0.646 105 111 147
0.49171 -0.341578 -0.611 93 72 79
0.488717 -0.337106 -0.603 99 78 75
0.46818 -0.31698 -0.567 111 82 74
0.460587 -0.304122 -0.544 148 89 75
0.46182 -0.300209 -0.537 152 97 77
0.464471 -0.297972 -0.533 163 104 86
0.465763 -0.296854 -0.531 174 117 98
0.4752 -0.295177 -0.528 175 119 96
0.484338 -0.294618 -0.527 168 116 95
0.49323 -0.295736 -0.529 157 109 89
0.516784 -0.302445 -0.541 153 111 89
0.528524 -0.307476 -0.55 151 108 92
0.533423 -0.309712 -0.554 151 109 95
-0.0397429 -0.360131 -0.642 197 195 196
-0.0324057 -0.360131 -0.642 201 199 200
0.03822 -0.24738 -0.441 195 157 148
0.0387943 -0.245697 -0.438 196 156 146
0.0419848 -0.240088 -0.428 194 154 144
0.0489762 -0.238405 -0.425 202 159 150
0.0543857 -0.237283 -0.423 199 156 147
0.062 -0.2356 -0.42 195 152 143
0.0626505 -0.235039 -0.419 193 150 141
0.0732 -0.2356 -0.42 176 132 121
0.0791752 -0.236722 -0.422 159 116 109
0.0835886 -0.237844 -0.424 146 105 99
0.08906 -0.239527 -0.427 135 97 94
0.276613 -0.361253 -0.644 227 229 254
0.286427 -0.361253 -0.644 143 158 199
0.299157 -0.361814 -0.645 127 141 190
0.300386 -0.361814 -0.645 130 144 193
0.313413 -0.361253 -0.644 197 203 227
0.31832 -0.361253 -0.644 119 142 196
0.359794 -0.363497 -0.648 19 57 130
0.387584 -0.362936 -0.647 64 105 169
0.431282 -0.362375 -0.646 40 68 118
0.464797 -0.360692 -0.643 160 156 171
0.467247 -0.360692 -0.643 170 174 186
0.48052 -0.328718 -0.586 100 77 87
0.460395 -0.305719 -0.545 142 88 76
0.490286 -0.296183 -0.528 165 113 91
0.49323 -0.296744 -0.529 160 109 88
0.494237 -0.296744 -0.529 161 110 89
-0.03852 -0.361354 -0.642 198 196 197
0.00305238 -0.360791 -0.641 221 219 220
0.03846 -0.360791 -0.641 248 248 250
0.0434114 -0.239777 -0.426 197 155 143
0.0682371 -0.235837 -0.419 180 140 130
0.0706314 -0.235837 -0.419 178 138 128
0.0781857 -0.236963 -0.421 158 115 108
0.082781 -0.238651 -0.424 147 106 100
0.0963067 -0.24428 -0.434 110 80 82
0.0999248 -0.247094 -0.439 101 75 78
0.11396 -0.26004 -0.462 103 99 116
0.24358 -0.360791 -0.641 177 185 208
0.248464 -0.360791 -0.641 203 207 219
0.329871 -0.363043 -0.645 70 114 187
0.338996 -0.363606 -0.646 190 194 231
0.396829 -0.363606 -0.646 57 91 154
0.404837 -0.364169 -0.647 157 163 179
0.4171 -0.363043 -0.645 93 116 168
0.4343 -0.363043 -0.645 144 153 182
0.446586 -0.363043 -0.645 99 114 157
0.453253 -0.36248 -0.644 119 140 197
0.468966 -0.361354 -0.642 166 167 195
0.474819 -0.360229 -0.64 123 132 163
0.478476 -0.360229 -0.64 152 161 192
0.478633 -0.32702 -0.581 107 78 80
0.468333 -0.316326 -0.562 132 82 75
0.463365 -0.310134 -0.551 141 88 80
0.462085 -0.307883 -0.547 142 90 77
0.461314 -0.303943 -0.54 154 97 78
0.469047 -0.297751 -0.529 177 119 99
0.470054 -0.297751 -0.529 178 120 98
0.471062 -0.297751 -0.529 178 120 98
0.484421 -0.296063 -0.526 169 117 93
0.500151 -0.298877 -0.531 158 110 90
-0.0323552 -0.362012 -0.641 202 201 199
0.0298667 -0.361448 -0.64 243 242 248
0.0432762 -0.361448 -0.64 204 198 200
0.0403543 -0.241718 -0.428 194 152 140
0.0519686 -0.238894 -0.423 204 160 149
0.0558648 -0.23833 -0.422 199 155 144
0.0566686 -0.23833 -0.422 198 154 143
0.0650448 -0.236635 -0.419 189 146 137
0.0773838 -0.237765 -0.421 158 115 106
0.08178 -0.238894 -0.423 146 105 99
0.0854048 -0.240024 -0.425 139 98 94
0.263936 -0.363142 -0.643 141 161 212
0.27006 -0.363142 -0.643 169 184 227
0.292106 -0.363142 -0.643 141 157 206
0.309252 -0.363142 -0.643 221 233 255
0.315376 -0.363142 -0.643 182 193 211
0.328133 -0.363707 -0.644 74 117 185
0.362375 -0.364836 -0.646 40 70 140
0.368528 -0.364836 -0.646 37 63 122
0.383293 -0.364836 -0.646 113 128 161
0.391907 -0.364836 -0.646 87 118 175
0.415871 -0.364271 -0.645 93 115 162
0.455707 -0.363707 -0.644 95 119 165
0.459387 -0.363707 -0.644 122 139 191
0.473857 -0.362577 -0.642 158 163 193
0.478003 -0.362012 -0.641 157 161 190
0.480445 -0.362012 -0.641 152 157 186
0.480914 -0.361448 -0.64 116 120 149
0.463571 -0.310619 -0.55 141 89 76
0.461655 -0.303842 -0.538 158 102 85
0.465763 -0.299889 -0.531 174 117 97
0.467914 -0.299324 -0.53 176 119 99
0.47207 -0.298759 -0.529 178 120 98
0.474085 -0.298759 -0.529 180 122 100
0.480413 -0.297065 -0.526 169 114 93
0.491365 -0.29763 -0.527 164 113 92
-0.037181 -0.362667 -0.64 200 199 197
-0.0347429 -0.362667 -0.64 201 200 198
-0.0335238 -0.362667 -0.64 202 201 199
-0.0152619 -0.363233 -0.641 210 210 208
0.0380857 -0.243667 -0.43 197 155 141
0.0433095 -0.240833 -0.425 200 154 141
0.0542571 -0.239133 -0.422 198 154 143
0.0573362 -0.238567 -0.421 198 154 143
0.0650448 -0.237433 -0.419 190 146 137
0.0732 -0.238 -0.42 175 131 120
0.253743 -0.3638 -0.642 167 185 223
0.276184 -0.364367 -0.643 241 245 254
0.278633 -0.364367 -0.643 239 248 255
0.284314 -0.3638 -0.642 215 229 255
0.345843 -0.3655 -0.645 186 191 211
0.349529 -0.3655 -0.645 68 89 132
0.358684 -0.366067 -0.646 60 94 155
0.37345 -0.366067 -0.646 152 156 183
0.377141 -0.366067 -0.646 168 166 188
0.378371 -0.366067 -0.646 174 167 183
0.4508 -0.364933 -0.644 99 116 168
0.462348 -0.364367 -0.643 167 174 202
0.490432 -0.298067 -0.526 165 114 93
-0.0237714 -0.363886 -0.64 208 208 208
-0.00792381 -0.363886 -0.64 217 215 216
0.0310371 -0.363317 -0.639 242 243 245
0.0395571 -0.363317 -0.639 255 246 249
0.0432086 -0.363317 -0.639 174 153 148
0.0362914 -0.249034 -0.438 197 155 143
0.0417886 -0.242211 -0.426 200 154 141
0.0542571 -0.239937 -0.422 200 153 143
0.0626505 -0.238231 -0.419 190 146 137
0.0698333 -0.238231 -0.419 174 131 122
0.0732 -0.2388 -0.42 169 127 115
0.0884533 -0.243349 -0.428 129 91 88
0.106092 -0.256426 -0.451 93 68 72
0.110597 -0.260974 -0.459 99 78 83
0.278633 -0.365591 -0.643 240 249 255
0.285092 -0.364454 -0.641 190 201 231
0.289976 -0.364454 -0.641 128 148 199
0.310477 -0.365591 -0.643 221 227 249
0.331813 -0.36616 -0.644 82 118 180
0.394986 -0.366729 -0.645 85 112 167
0.396214 -0.366729 -0.645 85 112 167
0.410957 -0.366729 -0.645 72 86 135
0.429279 -0.365591 -0.643 139 149 184
0.437307 -0.36616 -0.644 130 135 173
0.462851 -0.365023 -0.642 156 158 183
0.484157 -0.332614 -0.585 117 87 89
0.473189 -0.300206 -0.528 182 124 102
0.4752 -0.300206 -0.528 180 122 100
0.519875 -0.307597 -0.541 158 113 92
-0.0249514 -0.364534 -0.639 208 208 208
0.0394467 -0.243593 -0.427 198 154 143
0.0432076 -0.241882 -0.424 203 157 144
0.0610543 -0.23903 -0.419 191 147 138
0.0984762 -0.25101 -0.44 96 75 80
0.112686 -0.264701 -0.464 102 99 118
0.24282 -0.364534 -0.639 249 251 250
0.251733 -0.365105 -0.64 196 204 227
0.26922 -0.365675 -0.641 169 183 228
0.272086 -0.366246 -0.642 233 238 255
0.348987 -0.367387 -0.644 72 87 142
0.394373 -0.367387 -0.644 93 116 168
0.415227 -0.367387 -0.644 148 154 186
0.428054 -0.366816 -0.643 149 154 184
0.442063 -0.366246 -0.642 143 148 177
0.443286 -0.366246 -0.642 125 130 159
0.476782 -0.365675 -0.641 167 169 192
0.494769 -0.364534 -0.639 173 173 197
0.480833 -0.329165 -0.577 130 87 80
0.470706 -0.320037 -0.561 136 89 79
0.464326 -0.304634 -0.534 171 112 94
0.4825 -0.2995 -0.525 176 121 100
0.4875 -0.2995 -0.525 175 120 99
0.504197 -0.302923 -0.531 158 111 91
-0.0188657 -0.365751 -0.639 212 211 209
-0.0030381 -0.365179 -0.638 220 219 217
0.03828 -0.365179 -0.638 233 226 233
0.0357114 -0.246696 -0.431 198 154 145
0.0386333 -0.244407 -0.427 196 152 143
0.0463286 -0.242117 -0.423 201 157 144
0.0618524 -0.239828 -0.419 186 142 133
0.0690352 -0.239828 -0.419 173 130 121
0.0819733 -0.24269 -0.424 143 102 96
0.102597 -0.255854 -0.447 89 70 76
0.103911 -0.256999 -0.449 91 70 75
0.188049 -0.365751 -0.639 177 190 222
0.194434 -0.364034 -0.636 145 169 217
0.200491 -0.364034 -0.636 164 187 231
0.228354 -0.364034 -0.636 152 168 217
0.233567 -0.364607 -0.637 156 172 221
0.244037 -0.365751 -0.639 251 253 252
0.261486 -0.366324 -0.64 148 169 216
0.262705 -0.366324 -0.64 160 181 228
0.2688 -0.366324 -0.64 172 187 228
0.270441 -0.366896 -0.641 200 215 255
0.290743 -0.366324 -0.64 156 177 222
0.309511 -0.366896 -0.641 219 225 247
0.310732 -0.366896 -0.641 219 225 247
0.352667 -0.368613 -0.644 126 147 192
0.372293 -0.368613 -0.644 141 149 188
0.39192 -0.368613 -0.644 72 96 144
0.412132 -0.368041 -0.643 152 157 187
0.448177 -0.367469 -0.642 75 93 141
0.480163 -0.365751 -0.639 168 166 187
0.483352 -0.366324 -0.64 167 168 188
0.493551 -0.365751 -0.639 175 177 200
0.496425 -0.365179 -0.638 179 180 208
0.46436 -0.31252 -0.546 155 99 86
0.464326 -0.305651 -0.534 170 111 93
0.472292 -0.301645 -0.527 186 128 104
0.477311 -0.301645 -0.527 179 123 100
0.4885 -0.3005 -0.525 176 122 98
0.509142 -0.305079 -0.533 159 112 92
-0.0224819 -0.366394 -0.638 211 209 210
-0.01276 -0.366394 -0.638 217 215 216
0.0400714 -0.244071 -0.425 201 155 142
0.0424 -0.243497 -0.424 201 153 141
0.0650448 -0.240626 -0.419 183 138 132
0.066641 -0.240626 -0.419 177 133 124
0.0839829 -0.244646 -0.426 134 95 88
0.0868229 -0.245794 -0.428 120 89 87
0.0917486 -0.248091 -0.432 106 80 81
0.224367 -0.364671 -0.635 140 159 202
0.25986 -0.366969 -0.639 169 187 225
0.264729 -0.366969 -0.639 175 192 236
0.267163 -0.366969 -0.639 169 187 225
0.271238 -0.367543 -0.64 244 248 255
0.282986 -0.366969 -0.639 155 163 209
0.286637 -0.366969 -0.639 163 177 216
0.287854 -0.366969 -0.639 183 197 236
0.291506 -0.366969 -0.639 145 163 203
0.321721 -0.368117 -0.641 147 174 217
0.341096 -0.369266 -0.643 191 196 218
0.364367 -0.369266 -0.643 151 161 197
0.379064 -0.369266 -0.643 159 165 197
0.380289 -0.369266 -0.643 165 171 203
0.381513 -0.369266 -0.643 156 164 200
0.387637 -0.369266 -0.643 93 109 160
0.393761 -0.369266 -0.643 85 107 157
0.406009 -0.369266 -0.643 67 72 104
0.418176 -0.368117 -0.641 149 155 181
0.446258 -0.368117 -0.641 103 124 171
0.472381 -0.367543 -0.64 168 169 190
0.488229 -0.367543 -0.64 173 170 189
0.489419 -0.338829 -0.59 122 83 76
0.470314 -0.320451 -0.558 141 94 86
0.467914 -0.304371 -0.53 180 122 98
0.477408 -0.302074 -0.526 183 127 102
0.484575 -0.300926 -0.524 177 123 99
0.488568 -0.300926 -0.524 177 122 101
-0.00424667 -0.367033 -0.637 221 220 218
-0.00303333 -0.367033 -0.637 223 222 220
-0.00182 -0.367033 -0.637 223 222 220
0.0370067 -0.246033 -0.427 198 152 139
0.0384524 -0.244881 -0.425 196 150 137
0.09786 -0.2541 -0.441 95 70 73
0.188673 -0.367033 -0.637 171 190 223
0.243655 -0.36761 -0.638 250 254 255
0.250947 -0.36761 -0.638 207 212 232
0.269597 -0.368186 -0.639 230 244 255
0.345457 -0.369914 -0.642 109 121 163
0.376614 -0.37049 -0.643 148 159 191
0.393149 -0.369914 -0.642 86 107 160
0.39804 -0.369914 -0.642 160 169 202
0.402334 -0.37049 -0.643 91 97 119
0.438932 -0.369338 -0.641 87 92 122
0.443816 -0.369338 -0.641 137 146 189
0.451657 -0.368762 -0.64 75 105 169
0.454095 -0.368762 -0.64 69 95 152
0.471643 -0.368186 -0.639 167 168 189
0.476511 -0.368186 -0.639 169 171 194
0.482597 -0.368186 -0.639 153 151 173
0.494769 -0.368186 -0.639 173 176 191
0.513443 -0.365881 -0.635 69 93 153
0.48052 -0.330733 -0.574 127 90 84
0.474402 -0.303076 -0.526 186 128 104
0.476406 -0.303076 -0.526 187 129 105
0.51507 -0.308838 -0.536 160 118 96
-0.0115086 -0.367669 -0.636 219 217 218
-0.00787429 -0.367669 -0.636 221 220 218
-0.00181714 -0.367669 -0.636 225 224 222
0.03816 -0.367669 -0.636 200 180 171
0.0383619 -0.245112 -0.424 196 150 137
0.0423 -0.244534 -0.423 198 152 139
0.0470229 -0.243956 -0.422 206 158 148
0.0602562 -0.242222 -0.419 193 149 138
0.0795505 -0.245112 -0.424 143 105 96
0.0803581 -0.245112 -0.424 141 103 94
0.0983038 -0.256096 -0.443 95 71 71
0.196548 -0.36709 -0.635 179 199 236
0.198967 -0.36709 -0.635 175 198 242
0.217975 -0.366512 -0.634 160 169 200
0.230777 -0.367669 -0.636 192 206 243
0.261884 -0.368825 -0.638 201 216 255
0.272031 -0.369403 -0.639 238 243 255
0.273249 -0.369403 -0.639 237 244 252
0.280551 -0.369403 -0.639 195 201 223
0.336372 -0.370559 -0.641 183 198 219
0.34614 -0.370559 -0.641 175 181 215
0.376029 -0.371137 -0.642 112 122 158
0.39742 -0.370559 -0.641 157 165 201
0.413867 -0.369981 -0.64 159 167 186
0.438248 -0.369981 -0.64 81 88 117
0.458254 -0.369403 -0.639 111 128 182
0.461906 -0.369403 -0.639 87 99 149
0.466774 -0.369403 -0.639 122 127 147
0.478196 -0.368825 -0.638 162 163 184
0.485488 -0.368825 -0.638 158 159 187
0.491117 -0.369403 -0.639 170 172 195
0.514652 -0.36709 -0.635 71 87 136
0.515832 -0.365356 -0.632 88 106 154
0.466252 -0.316218 -0.547 156 99 92
0.465487 -0.308125 -0.533 172 114 92
0.46664 -0.307547 -0.532 173 115 93
-0.0151429 -0.36888 -0.636 218 216 217
0.040519 -0.3683 -0.635 193 151 135
0.0368333 -0.2465 -0.425 196 152 139
0.066641 -0.24302 -0.419 171 128 119
0.0880476 -0.2494 -0.43 112 84 83
0.0936429 -0.25346 -0.437 101 75 76
0.217975 -0.36772 -0.634 163 171 208
0.261473 -0.36946 -0.637 210 224 255
0.315849 -0.37062 -0.639 180 189 220
0.323657 -0.3712 -0.64 137 161 207
0.341256 -0.37178 -0.641 104 115 145
0.34614 -0.37178 -0.641 178 183 213
0.363233 -0.37178 -0.641 168 178 203
0.368117 -0.37178 -0.641 168 178 205
0.371137 -0.37236 -0.642 133 148 177
0.375443 -0.37178 -0.641 64 76 116
0.38399 -0.37178 -0.641 99 108 149
0.386431 -0.37178 -0.641 85 102 156
0.402304 -0.37178 -0.641 85 94 127
0.416305 -0.3712 -0.64 157 163 187
0.46774 -0.36946 -0.637 165 167 180
0.489133 -0.37004 -0.638 158 159 177
0.492779 -0.37004 -0.638 161 159 173
0.501667 -0.34916 -0.602 117 87 89
0.514166 -0.30972 -0.534 150 112 89
0.521033 -0.31262 -0.539 151 110 90
-0.0163286 -0.36951 -0.635 218 216 217
0.0320524 -0.36951 -0.635 244 242 245
0.0382714 -0.246146 -0.423 199 153 140
0.0390771 -0.246146 -0.423 198 152 139
0.0477133 -0.244982 -0.421 202 156 143
0.0634486 -0.243818 -0.419 181 137 126
0.0851924 -0.249055 -0.428 122 89 82
0.0862086 -0.249637 -0.429 115 87 86
0.0938571 -0.254874 -0.438 98 74 74
0.0963981 -0.257202 -0.442 96 72 72
0.100267 -0.260693 -0.448 91 69 71
0.188081 -0.36951 -0.635 170 188 224
0.198653 -0.368928 -0.634 181 200 240
0.234411 -0.370091 -0.636 164 177 222
0.24168 -0.370091 -0.636 245 250 253
0.244103 -0.370091 -0.636 248 252 255
0.26754 -0.370673 -0.637 230 234 255
0.278897 -0.371255 -0.638 195 200 222
0.310493 -0.371255 -0.638 212 219 245
0.324369 -0.371837 -0.639 115 142 187
0.330971 -0.372419 -0.64 114 137 189
0.343162 -0.372419 -0.64 98 104 138
0.38521 -0.373001 -0.641 76 96 149
0.393143 -0.372419 -0.64 116 137 190
0.395581 -0.372419 -0.64 144 158 203
0.400457 -0.372419 -0.64 79 88 121
0.404114 -0.372419 -0.64 129 135 161
0.414437 -0.371837 -0.639 160 166 190
0.429043 -0.371837 -0.639 160 165 185
0.441739 -0.371255 -0.638 64 86 144
0.452676 -0.371255 -0.638 37 63 124
0.48594 -0.370673 -0.637 126 128 149
0.488367 -0.370673 -0.637 156 156 168
0.511024 -0.36951 -0.635 68 89 146
0.4975 -0.3055 -0.525 160 118 94
0.0325029 -0.252206 -0.432 200 152 142
0.0344857 -0.248703 -0.426 199 152 142
0.0367467 -0.247535 -0.424 200 153 143
0.0382714 -0.246951 -0.423 198 151 141
0.0422 -0.246368 -0.422 193 145 133
0.0516 -0.2452 -0.42 197 151 138
0.0733743 -0.245784 -0.421 155 115 107
0.0894867 -0.25279 -0.433 104 78 79
0.184452 -0.370719 -0.635 250 254 255
0.204369 -0.369551 -0.633 249 253 254
0.20678 -0.369551 -0.633 247 253 251
0.226786 -0.370719 -0.635 184 193 224
0.242891 -0.371303 -0.636 249 254 255
0.249767 -0.370719 -0.635 223 233 235
0.252186 -0.370719 -0.635 210 219 252
0.312924 -0.37247 -0.638 206 211 240
0.320717 -0.373054 -0.639 107 131 179
0.339505 -0.373638 -0.64 81 94 136
0.346819 -0.373638 -0.64 176 187 207
0.3968 -0.373638 -0.64 102 122 173
0.399238 -0.373638 -0.64 80 95 136
0.400457 -0.373638 -0.64 103 112 143
0.410786 -0.373054 -0.639 166 169 188
0.412573 -0.37247 -0.638 153 158 178
0.419865 -0.37247 -0.638 143 148 178
0.429587 -0.37247 -0.638 157 163 179
0.432017 -0.37247 -0.638 159 161 174
0.433767 -0.371887 -0.637 120 117 134
0.447113 -0.371887 -0.637 32 58 117
0.458033 -0.371887 -0.637 50 80 140
0.468217 -0.371303 -0.636 99 102 111
0.481087 -0.371887 -0.637 92 101 130
0.484727 -0.371887 -0.637 135 142 168
0.487153 -0.371887 -0.637 144 149 169
0.488811 -0.371303 -0.636 160 158 169
0.492446 -0.371303 -0.636 138 135 144
0.500926 -0.371303 -0.636 115 129 168
0.508605 -0.370719 -0.635 95 115 165
0.4644 -0.315257 -0.54 162 106 91
0.467786 -0.310003 -0.531 177 120 100
0.470285 -0.307668 -0.527 187 131 108
0.0336743 -0.249514 -0.426 195 151 140
0.0437038 -0.246586 -0.421 199 151 139
0.0690352 -0.245414 -0.419 166 123 114
0.183243 -0.371929 -0.635 247 253 251
0.186577 -0.371343 -0.634 195 208 243
0.218837 -0.370757 -0.633 217 223 247
0.224013 -0.371343 -0.634 237 246 255
0.231624 -0.371929 -0.635 215 227 243
0.244103 -0.372514 -0.636 242 245 254
0.245314 -0.372514 -0.636 246 249 255
0.249767 -0.371929 -0.635 222 230 233
0.279234 -0.372514 -0.636 228 231 250
0.28408 -0.372514 -0.636 233 235 255
0.293771 -0.372514 -0.636 230 235 255
0.313647 -0.3731 -0.637 202 207 236
0.365751 -0.374271 -0.639 173 178 198
0.366969 -0.374271 -0.639 171 176 195
0.372419 -0.374857 -0.64 163 169 193
0.4277 -0.3731 -0.637 154 156 177
0.43862 -0.3731 -0.637 78 92 141
0.448327 -0.3731 -0.637 41 64 131
0.44954 -0.3731 -0.637 40 63 130
0.49409 -0.371929 -0.635 174 168 182
0.507804 -0.371343 -0.634 107 125 171
0.513443 -0.371929 -0.635 78 103 159
0.482359 -0.334443 -0.571 129 94 90
0.471289 -0.308671 -0.527 192 138 114
0.484714 -0.305743 -0.522 177 123 95
0.519154 -0.313943 -0.536 150 112 93
0.0516 -0.2468 -0.42 195 149 136
0.0538714 -0.246212 -0.419 192 146 133
0.0554676 -0.246212 -0.419 194 148 135
0.0934476 -0.258552 -0.44 101 77 77
0.19834 -0.371963 -0.633 183 197 226
0.210065 -0.371375 -0.632 237 241 252
0.225221 -0.37255 -0.634 211 218 237
0.228844 -0.37255 -0.634 235 241 253
0.261862 -0.373138 -0.635 177 185 221
0.29331 -0.373138 -0.635 227 232 254
0.30104 -0.373726 -0.636 222 228 254
0.329937 -0.374901 -0.638 150 180 232
0.374901 -0.374901 -0.638 159 162 193
0.418549 -0.373726 -0.636 105 116 148
0.43862 -0.374313 -0.637 81 95 144
0.446411 -0.373726 -0.636 45 74 130
0.447623 -0.373726 -0.636 43 67 131
0.450046 -0.373726 -0.636 38 67 127
0.483205 -0.373138 -0.635 168 173 193
0.517854 -0.371963 -0.633 158 166 203
0.519444 -0.371375 -0.632 182 186 215
0.481753 -0.334355 -0.569 125 92 87
0.477746 -0.33083 -0.563 133 100 95
0.467914 -0.311438 -0.53 178 121 102
0.475592 -0.307912 -0.524 189 135 109
0.482726 -0.306737 -0.522 184 130 104
0.520175 -0.314964 -0.536 150 112 93
0.0282895 -0.372579 -0.632 245 233 235
0.0578619 -0.24701 -0.419 189 145 132
0.0618524 -0.24701 -0.419 177 134 118
0.0650448 -0.24701 -0.419 167 124 115
0.179331 -0.373758 -0.634 249 252 255
0.194415 -0.372579 -0.632 205 215 250
0.234043 -0.374348 -0.635 240 247 255
0.238881 -0.374348 -0.635 175 179 204
0.257827 -0.373758 -0.634 183 193 229
0.26549 -0.374348 -0.635 212 220 255
0.273957 -0.374348 -0.635 167 170 201
0.280005 -0.374348 -0.635 210 216 230
0.283187 -0.373758 -0.634 232 239 255
0.298148 -0.374348 -0.635 224 230 254
0.315577 -0.374937 -0.636 172 181 220
0.319211 -0.374937 -0.636 86 112 171
0.3367 -0.375527 -0.637 120 132 170
0.353687 -0.375527 -0.637 155 159 184
0.383408 -0.376116 -0.638 20 51 115
0.41789 -0.374348 -0.635 108 119 151
0.422183 -0.374937 -0.636 134 135 155
0.443989 -0.374937 -0.636 93 120 173
0.472319 -0.374348 -0.635 143 137 149
0.489252 -0.374348 -0.635 166 165 171
0.496935 -0.373758 -0.634 105 110 150
0.465754 -0.317164 -0.538 167 109 95
0.467914 -0.312448 -0.53 179 122 103
0.470285 -0.310679 -0.527 185 131 107
0.4725 -0.3095 -0.525 188 134 108
0.484778 -0.307142 -0.521 176 125 98
0.0305714 -0.253131 -0.428 197 151 138
0.0365733 -0.249583 -0.422 193 147 134
0.0421 -0.248991 -0.421 200 152 138
0.0428 -0.2484 -0.42 202 154 140
0.0530733 -0.247809 -0.419 193 147 132
0.0839524 -0.254314 -0.43 114 85 79
0.183581 -0.373783 -0.632 245 252 255
0.219695 -0.373783 -0.632 249 252 255
0.290432 -0.374966 -0.634 229 234 254
0.300093 -0.374966 -0.634 224 230 254
0.319211 -0.376149 -0.636 62 87 153
0.327691 -0.376149 -0.636 65 99 162
0.341017 -0.376149 -0.636 177 187 212
0.36582 -0.37674 -0.637 163 173 185
0.3731 -0.37674 -0.637 139 140 168
0.38038 -0.37674 -0.637 32 63 120
0.388873 -0.37674 -0.637 49 73 137
0.393727 -0.37674 -0.637 31 61 123
0.406434 -0.376149 -0.636 154 154 166
0.410633 -0.375557 -0.635 147 149 164
0.438452 -0.375557 -0.635 123 136 178
0.454176 -0.375557 -0.635 111 134 178
0.467481 -0.375557 -0.635 173 173 185
0.481236 -0.374966 -0.634 170 168 182
0.500558 -0.374966 -0.634 135 143 180
0.513031 -0.374374 -0.633 98 125 170
0.519374 -0.372009 -0.629 181 184 199
0.504029 -0.353674 -0.598 126 96 94
0.479669 -0.333566 -0.564 139 99 89
0.470905 -0.325286 -0.55 153 104 90
0.466457 -0.319371 -0.54 159 106 90
0.46636 -0.315823 -0.534 170 114 97
0.468924 -0.313457 -0.53 178 124 100
0.476677 -0.309317 -0.523 188 134 108
0.481731 -0.308726 -0.522 186 132 104
0.507426 -0.311683 -0.527 153 112 90
0.0482848 -0.248607 -0.419 197 149 135
