ply
format ascii 1.0
comment Created by Open3D
element vertex 1290
property double x
property double y
property double z
property uchar red
property uchar green
property uchar blue
end_header
0.360471 -0.361704 -0.647 27 68 147
0.364169 -0.361704 -0.647 80 118 191
0.367866 -0.361704 -0.647 146 175 233
0.371563 -0.361704 -0.647 184 186 207
0.383246 -0.362263 -0.648 65 87 134
0.385714 -0.362263 -0.648 72 110 173
0.396823 -0.362263 -0.648 94 111 154
0.399291 -0.362263 -0.648 145 162 205
0.40176 -0.362263 -0.648 168 170 195
0.402994 -0.362263 -0.648 172 175 194
0.420208 -0.361145 -0.646 66 93 162
0.494916 -0.33431 -0.598 116 80 84
0.486386 -0.327043 -0.585 114 80 78
0.47767 -0.297972 -0.533 177 121 96
0.478685 -0.297972 -0.533 177 121 98
0.495094 -0.296854 -0.531 171 116 95
0.498053 -0.297413 -0.532 160 110 87
0.508945 -0.29965 -0.536 159 111 91
0.521797 -0.303563 -0.543 161 113 91
1.13875 -0.350523 -0.627 204 206 193
0.0650429 -0.244014 -0.435 188 148 140
0.09344 -0.251307 -0.448 125 94 92
0.110797 -0.264209 -0.471 95 75 87
0.116139 -0.270379 -0.482 113 94 98
0.369758 -0.362375 -0.646 170 184 221
0.381422 -0.362936 -0.647 100 119 161
0.393746 -0.362936 -0.647 60 97 152
0.40114 -0.362936 -0.647 178 176 198
0.422669 -0.362375 -0.646 79 109 169
0.441126 -0.362375 -0.646 161 165 176
0.442356 -0.362375 -0.646 154 166 192
0.470878 -0.301792 -0.538 166 109 89
0.474497 -0.299549 -0.534 178 123 93
0.475514 -0.299549 -0.534 178 123 93
0.486086 -0.297305 -0.53 170 114 91
0.492143 -0.297305 -0.53 171 115 92
1.04487 -0.352278 -0.628 207 209 195
0.0618705 -0.245406 -0.436 188 150 139
0.0701752 -0.245406 -0.436 177 137 129
0.0808762 -0.247657 -0.44 152 111 107
0.0968571 -0.254411 -0.452 117 88 90
0.354443 -0.363043 -0.645 33 68 136
0.358684 -0.363606 -0.646 51 84 155
0.372219 -0.363606 -0.646 174 181 207
0.390049 -0.364169 -0.647 88 117 177
0.409133 -0.363606 -0.646 87 100 152
0.410364 -0.363606 -0.646 59 72 124
0.412825 -0.363606 -0.646 44 79 137
0.428157 -0.363043 -0.645 47 66 122
0.429386 -0.363043 -0.645 55 73 121
0.440443 -0.363043 -0.645 123 119 133
0.469929 -0.363043 -0.645 164 168 193
0.490833 -0.331523 -0.589 120 84 86
0.470957 -0.312386 -0.555 146 95 76
0.47131 -0.301129 -0.535 176 120 97
0.474497 -0.300566 -0.534 180 124 97
0.47767 -0.300003 -0.533 177 121 96
0.52676 -0.30732 -0.546 158 110 88
0.0435543 -0.250754 -0.444 193 155 144
0.0497533 -0.24793 -0.439 203 163 153
0.054521 -0.246801 -0.437 198 158 148
0.0561857 -0.246801 -0.437 200 160 152
0.0570181 -0.246801 -0.437 199 159 151
0.0798562 -0.24793 -0.439 152 111 107
0.10054 -0.258096 -0.457 104 82 84
0.345307 -0.363707 -0.644 151 151 177
0.3569 -0.364271 -0.645 84 115 180
0.363043 -0.364271 -0.645 47 79 140
0.395598 -0.364836 -0.646 147 161 200
0.401129 -0.364271 -0.645 166 165 181
0.41768 -0.363707 -0.644 70 93 137
0.436757 -0.364271 -0.645 163 164 182
0.46184 -0.363707 -0.644 177 175 197
0.503014 -0.341681 -0.605 115 83 86
0.471164 -0.312878 -0.554 145 96 81
0.483969 -0.299889 -0.531 176 120 97
0.49914 -0.299889 -0.531 163 115 93
0.508063 -0.301583 -0.534 157 110 90
0.518914 -0.304971 -0.54 159 111 91
0.520906 -0.305536 -0.541 159 113 90
0.0553533 -0.247633 -0.437 200 160 150
0.0585486 -0.247067 -0.436 195 155 145
0.07902 -0.248767 -0.439 155 114 110
0.36984 -0.364933 -0.644 155 162 190
0.394986 -0.3655 -0.645 141 155 190
0.396214 -0.3655 -0.645 141 155 190
0.416453 -0.364933 -0.644 138 155 198
0.420133 -0.364933 -0.644 133 147 186
0.47117 -0.303733 -0.536 173 116 96
0.47348 -0.3026 -0.534 181 125 102
0.4788 -0.301467 -0.532 184 126 104
0.507111 -0.302033 -0.533 158 111 91
0.511052 -0.303167 -0.535 154 109 90
0.526833 -0.308833 -0.545 156 113 94
1.01054 -0.354733 -0.626 207 210 193
1.01889 -0.354733 -0.626 208 210 196
1.02247 -0.354733 -0.626 207 209 195
1.02485 -0.354733 -0.626 206 208 195
1.03916 -0.354733 -0.626 206 208 194
1.04154 -0.354733 -0.626 207 209 195
1.04393 -0.354733 -0.626 206 208 194
0.0472448 -0.249603 -0.439 204 162 150
0.0602095 -0.247897 -0.436 189 149 139
0.0618705 -0.247897 -0.436 190 150 140
0.0625571 -0.247329 -0.435 190 150 140
0.0808762 -0.250171 -0.44 151 110 108
0.0917333 -0.25472 -0.448 121 91 91
0.0959962 -0.256994 -0.452 114 88 89
0.0996695 -0.259837 -0.457 104 79 82
0.36248 -0.36616 -0.644 96 119 171
0.36616 -0.36616 -0.644 46 78 135
0.378427 -0.36616 -0.644 183 186 205
0.393757 -0.366729 -0.645 120 142 189
0.396214 -0.366729 -0.645 147 162 193
0.41032 -0.36616 -0.644 131 147 180
0.414 -0.36616 -0.644 141 150 183
0.432953 -0.365591 -0.643 92 105 139
0.43608 -0.36616 -0.644 149 154 183
0.440302 -0.365591 -0.643 162 166 195
0.515607 -0.35422 -0.623 97 89 104
0.47752 -0.320674 -0.564 141 93 83
0.470236 -0.311577 -0.548 161 104 87
0.469049 -0.308734 -0.543 165 106 90
0.471026 -0.305323 -0.537 174 116 96
0.47117 -0.304754 -0.536 175 117 97
0.472329 -0.304186 -0.535 179 123 100
0.51405 -0.304754 -0.536 155 109 86
1.13495 -0.353083 -0.621 199 205 191
0.0535657 -0.248728 -0.436 198 155 146
0.0552267 -0.248728 -0.436 202 159 150
0.0701752 -0.248728 -0.436 175 132 125
0.0771714 -0.249869 -0.438 156 115 111
0.0829276 -0.25215 -0.442 143 103 103
0.0906771 -0.255003 -0.447 124 92 93
0.336897 -0.366246 -0.642 193 203 215
0.368041 -0.366816 -0.643 98 119 164
0.404187 -0.367387 -0.644 126 130 159
0.409683 -0.366816 -0.643 147 157 184
0.412132 -0.366816 -0.643 161 165 194
0.420051 -0.366246 -0.642 157 164 193
0.424943 -0.366246 -0.642 145 150 180
0.45796 -0.366246 -0.642 139 150 182
0.469853 -0.306916 -0.538 172 114 94
0.47131 -0.305205 -0.535 178 120 96
0.474624 -0.304064 -0.533 182 126 101
0.480934 -0.302923 -0.531 183 127 104
0.484067 -0.302352 -0.53 179 123 100
0.491291 -0.301211 -0.528 177 123 99
0.493303 -0.301211 -0.528 174 119 98
0.503248 -0.302352 -0.53 159 113 90
1.13568 -0.355977 -0.624 201 205 191
1.13559 -0.354836 -0.622 199 205 191
0.044 -0.251848 -0.44 197 157 145
0.0486943 -0.25013 -0.437 202 159 150
0.0519048 -0.249558 -0.436 200 157 148
0.0543962 -0.249558 -0.436 198 155 146
0.0667 -0.248986 -0.435 170 130 120
0.0701752 -0.249558 -0.436 173 130 121
0.0819 -0.25242 -0.441 139 99 99
0.083959 -0.253565 -0.443 137 99 98
0.0889743 -0.255854 -0.447 127 88 89
0.098799 -0.261578 -0.457 103 81 84
0.350349 -0.367469 -0.642 151 165 200
0.360692 -0.368041 -0.643 149 164 195
0.377839 -0.368041 -0.643 177 181 210
0.385188 -0.368041 -0.643 103 120 163
0.386412 -0.368041 -0.643 100 130 184
0.387637 -0.368041 -0.643 89 119 173
0.391311 -0.368041 -0.643 84 104 155
0.39621 -0.368041 -0.643 162 172 199
0.399885 -0.368041 -0.643 167 168 199
0.407823 -0.367469 -0.642 161 165 200
0.413937 -0.367469 -0.642 167 169 194
0.435949 -0.367469 -0.642 102 110 146
0.473473 -0.316527 -0.553 152 100 89
0.472329 -0.306224 -0.535 178 121 94
0.473733 -0.304507 -0.532 182 127 97
0.475877 -0.303934 -0.531 186 129 102
0.486086 -0.303362 -0.53 184 126 102
0.492297 -0.302217 -0.528 177 123 99
0.5092 -0.304507 -0.532 153 112 92
1.01445 -0.357166 -0.624 208 210 196
1.01563 -0.357166 -0.624 208 210 196
1.03941 -0.357166 -0.624 206 208 194
1.12855 -0.357166 -0.624 201 203 189
1.13267 -0.356593 -0.623 201 205 191
1.13495 -0.355449 -0.621 201 205 191
0.0416743 -0.253834 -0.442 199 155 146
0.08106 -0.25326 -0.441 141 101 99
0.336372 -0.368117 -0.641 192 203 225
0.344919 -0.368117 -0.641 156 170 205
0.348582 -0.368117 -0.641 161 176 209
0.362577 -0.368691 -0.642 169 179 206
0.365023 -0.368691 -0.642 179 186 214
0.37236 -0.368691 -0.642 146 160 199
0.382738 -0.369266 -0.643 95 104 143
0.458468 -0.368117 -0.641 157 171 208
0.459689 -0.368117 -0.641 160 167 193
0.471898 -0.368117 -0.641 168 170 191
0.486833 -0.330214 -0.575 133 92 88
0.480519 -0.324471 -0.565 142 94 90
0.47433 -0.318154 -0.554 153 103 94
0.474747 -0.30552 -0.532 182 126 101
0.476889 -0.304946 -0.531 185 128 101
1.01875 -0.35778 -0.623 206 208 194
0.0382276 -0.259862 -0.451 195 152 143
0.0394143 -0.256405 -0.445 195 152 143
0.0423238 -0.253524 -0.44 198 154 145
0.0461971 -0.251795 -0.437 206 162 151
0.0625571 -0.250643 -0.435 182 140 128
0.0633857 -0.250643 -0.435 179 137 125
0.0726667 -0.251219 -0.436 162 121 115
0.0820857 -0.254676 -0.442 137 101 101
0.0923476 -0.259862 -0.451 112 87 91
0.347361 -0.369338 -0.641 169 180 208
0.351024 -0.369338 -0.641 186 194 230
0.352245 -0.369338 -0.641 185 192 220
0.414513 -0.369338 -0.641 170 170 194
0.416955 -0.369338 -0.641 162 162 190
0.429714 -0.368762 -0.64 157 162 192
0.456533 -0.368762 -0.64 150 162 204
0.481038 -0.305381 -0.53 191 134 107
0.483153 -0.304805 -0.529 190 133 106
0.498391 -0.303652 -0.527 166 115 94
0.525998 -0.312295 -0.542 154 113 95
0.999347 -0.35839 -0.622 208 210 196
1.00172 -0.35839 -0.622 208 210 196
0.0429657 -0.253206 -0.438 194 150 139
0.0438 -0.253206 -0.438 196 152 141
0.0718362 -0.25205 -0.436 162 121 115
0.0812438 -0.255518 -0.442 135 97 96
0.0923476 -0.260721 -0.451 111 86 90
0.0985714 -0.265924 -0.46 103 80 86
0.339505 -0.369981 -0.64 101 107 143
0.340724 -0.369981 -0.64 85 91 127
0.354133 -0.369981 -0.64 156 164 187
0.365105 -0.369981 -0.64 178 185 211
0.4224 -0.369981 -0.64 162 167 187
0.440686 -0.369981 -0.64 139 151 191
0.513497 -0.353794 -0.612 125 95 87
0.476243 -0.320843 -0.555 160 105 85
0.474866 -0.306969 -0.531 187 130 103
0.476889 -0.306969 -0.531 188 131 104
0.48735 -0.304656 -0.527 182 128 100
0.498391 -0.304656 -0.527 166 116 93
0.528003 -0.313906 -0.543 150 112 93
1.13086 -0.359575 -0.622 200 204 190
0.0575857 -0.2523 -0.435 191 147 136
0.06324 -0.25172 -0.434 183 139 128
0.0783619 -0.2552 -0.44 148 107 105
0.337757 -0.37062 -0.639 104 113 146
0.3456 -0.3712 -0.64 189 195 219
0.352363 -0.37062 -0.639 183 190 216
0.35901 -0.3712 -0.64 179 187 206
0.360229 -0.3712 -0.64 179 187 206
0.3621 -0.37062 -0.639 179 187 208
0.389486 -0.3712 -0.64 119 141 190
0.393143 -0.3712 -0.64 154 163 202
0.416305 -0.3712 -0.64 160 164 189
0.419962 -0.3712 -0.64 162 164 187
0.43878 -0.37062 -0.639 100 109 152
0.443649 -0.37062 -0.639 63 84 137
0.516853 -0.35728 -0.616 122 93 87
0.513822 -0.35438 -0.611 123 94 88
0.471985 -0.31552 -0.544 169 111 91
0.476889 -0.30798 -0.531 191 134 107
0.478009 -0.3074 -0.53 192 135 108
0.483153 -0.30682 -0.529 187 132 102
0.495442 -0.30508 -0.526 175 123 101
1.0143 -0.36018 -0.621 208 210 196
0.0363476 -0.261275 -0.449 199 154 148
0.0405552 -0.255456 -0.439 195 151 142
0.0453648 -0.254292 -0.437 201 157 148
0.0609 -0.253129 -0.435 186 142 131
0.0822714 -0.257784 -0.443 138 102 102
0.0914886 -0.262439 -0.451 115 89 92
0.343843 -0.371837 -0.639 188 194 216
0.425391 -0.371837 -0.639 165 166 187
0.445385 -0.371255 -0.638 35 61 120
0.458752 -0.371255 -0.638 66 87 142
0.467259 -0.371255 -0.638 153 152 168
0.48943 -0.306082 -0.526 186 132 104
0.505371 -0.307246 -0.528 155 114 94
0.510314 -0.30841 -0.53 155 114 94
0.03822 -0.25746 -0.441 198 154 145
0.0405552 -0.256292 -0.439 197 150 140
0.0526143 -0.253957 -0.435 196 149 139
0.0804019 -0.258044 -0.442 140 102 101
0.0916914 -0.263882 -0.452 115 90 93
0.104961 -0.276142 -0.473 93 78 85
0.319713 -0.371887 -0.637 148 175 228
0.324567 -0.371887 -0.637 123 149 198
0.329937 -0.37247 -0.638 184 190 224
0.380952 -0.373638 -0.64 123 138 179
0.38339 -0.373638 -0.64 54 79 135
0.398614 -0.373054 -0.639 149 159 195
0.404067 -0.37247 -0.638 163 162 176
0.43498 -0.371887 -0.637 138 142 167
0.437407 -0.371887 -0.637 61 75 124
0.473807 -0.371887 -0.637 123 125 150
0.48594 -0.371887 -0.637 148 149 167
0.50778 -0.371887 -0.637 70 91 144
0.52055 -0.361378 -0.619 114 95 91
0.471903 -0.31409 -0.538 169 115 89
0.478009 -0.309419 -0.53 195 139 114
0.48013 -0.308835 -0.529 195 139 114
0.484338 -0.307668 -0.527 186 130 103
0.486425 -0.307084 -0.526 187 133 105
0.4905 -0.3065 -0.525 180 124 99
0.0366229 -0.258886 -0.442 192 148 137
0.0494133 -0.255371 -0.436 200 154 141
0.0502438 -0.255371 -0.436 199 153 140
0.0833029 -0.260057 -0.444 135 99 99
0.096819 -0.269429 -0.46 98 77 82
0.328207 -0.3731 -0.637 180 186 218
0.34695 -0.373686 -0.638 192 193 211
0.351811 -0.373686 -0.638 181 186 206
0.356672 -0.373686 -0.638 185 190 210
0.37914 -0.374271 -0.639 101 123 172
0.38766 -0.374271 -0.639 31 61 133
0.411927 -0.3731 -0.637 133 137 162
0.414353 -0.3731 -0.637 117 124 150
0.41678 -0.3731 -0.637 126 136 161
0.419207 -0.3731 -0.637 124 131 157
0.45318 -0.3731 -0.637 52 76 136
0.459247 -0.3731 -0.637 101 113 161
0.46774 -0.3731 -0.637 107 105 119
0.471903 -0.315114 -0.538 170 116 92
0.473071 -0.314529 -0.537 176 120 95
0.485342 -0.308671 -0.527 187 133 105
0.4985 -0.3075 -0.525 163 118 95
0.999243 -0.362557 -0.619 207 210 193
1.04051 -0.362557 -0.619 205 208 191
0.035781 -0.259728 -0.442 199 157 143
0.06324 -0.255027 -0.434 176 131 125
0.06572 -0.255027 -0.434 169 124 118
0.0746686 -0.257377 -0.438 154 113 111
0.0855686 -0.262666 -0.447 124 92 95
0.324057 -0.373726 -0.636 104 129 195
0.357327 -0.374313 -0.637 179 184 206
0.379762 -0.374901 -0.638 54 83 141
0.380977 -0.374901 -0.638 36 66 128
0.383408 -0.374901 -0.638 28 59 126
0.416126 -0.373726 -0.636 105 117 143
0.424606 -0.373726 -0.636 159 162 181
0.435509 -0.373726 -0.636 83 99 150
0.447623 -0.373726 -0.636 44 69 136
0.456103 -0.373726 -0.636 52 71 129
0.480331 -0.373726 -0.636 138 143 165
0.502631 -0.347283 -0.591 130 97 88
0.474497 -0.313789 -0.534 182 122 98
0.474747 -0.312613 -0.532 178 122 97
0.4925 -0.3085 -0.525 181 125 100
0.998806 -0.363149 -0.618 207 210 193
0.0427695 -0.257032 -0.436 200 157 141
0.0436 -0.257032 -0.436 201 158 142
0.10161 -0.277076 -0.47 92 75 83
0.337383 -0.374937 -0.636 195 201 223
0.362823 -0.374937 -0.636 179 186 205
0.37674 -0.375527 -0.637 51 78 131
0.381593 -0.375527 -0.637 29 57 120
0.404647 -0.375527 -0.637 125 127 140
0.41128 -0.374937 -0.636 130 132 155
0.417337 -0.374937 -0.636 123 135 161
0.42824 -0.374937 -0.636 115 111 126
0.437243 -0.374348 -0.635 59 82 136
0.460224 -0.374348 -0.635 96 109 141
0.463852 -0.374348 -0.635 168 172 199
0.479576 -0.374348 -0.635 159 160 180
0.511024 -0.374348 -0.635 53 79 138
0.507734 -0.351946 -0.597 129 99 88
0.494631 -0.341334 -0.579 136 99 90
0.473347 -0.319522 -0.542 166 114 93
0.479123 -0.311858 -0.529 190 136 108
0.480229 -0.311269 -0.528 191 137 109
0.4895 -0.3095 -0.525 186 130 103
0.49755 -0.30891 -0.524 162 120 95
0.0363743 -0.259637 -0.439 197 154 138
0.0387057 -0.258454 -0.437 200 157 140
0.0402781 -0.257863 -0.436 200 157 140
0.08576 -0.26496 -0.448 121 91 93
0.0901686 -0.267917 -0.453 116 87 89
0.325967 -0.375557 -0.635 96 125 195
0.345319 -0.375557 -0.635 146 151 155
0.348948 -0.375557 -0.635 150 158 177
0.356766 -0.376149 -0.636 137 143 167
0.3604 -0.376149 -0.636 158 166 187
0.36888 -0.376149 -0.636 175 180 200
0.384629 -0.376149 -0.636 38 67 137
0.405223 -0.376149 -0.636 123 122 130
0.421519 -0.375557 -0.635 164 165 183
0.432405 -0.375557 -0.635 119 134 167
0.475455 -0.324103 -0.548 158 112 96
0.474624 -0.315231 -0.533 179 123 100
0.478115 -0.312866 -0.529 188 132 107
0.522262 -0.316414 -0.535 153 112 92
0.0426714 -0.2581 -0.435 202 157 138
0.0816114 -0.26344 -0.444 134 96 95
0.0950667 -0.272933 -0.46 99 78 85
0.326661 -0.376173 -0.634 66 95 161
0.358624 -0.376767 -0.635 136 142 166
0.407005 -0.376767 -0.635 134 131 138
0.447423 -0.376173 -0.634 55 84 140
0.47399 -0.376173 -0.634 175 174 192
0.474367 -0.317433 -0.535 175 121 97
0.4845 -0.3115 -0.525 190 134 107
0.485573 -0.310907 -0.524 186 130 103
0.49256 -0.310907 -0.524 174 124 99
0.500586 -0.310313 -0.523 160 119 97
0.0377867 -0.259524 -0.436 202 156 140
0.0591067 -0.258333 -0.434 183 137 122
0.0777 -0.2625 -0.441 143 102 100
0.359833 -0.377976 -0.635 175 182 200
0.361043 -0.377976 -0.635 182 189 207
0.36709 -0.377976 -0.635 168 175 191
0.388862 -0.377976 -0.635 90 116 167
0.41361 -0.377381 -0.634 152 154 179
0.420855 -0.377381 -0.634 166 169 186
0.45154 -0.376786 -0.633 124 141 184
0.46916 -0.377381 -0.634 174 173 181
0.471575 -0.377381 -0.634 172 169 190
0.47686 -0.376786 -0.633 133 136 153
0.514838 -0.359524 -0.604 128 100 97
0.485252 -0.335119 -0.563 144 104 94
0.478115 -0.314881 -0.529 185 131 105
0.481415 -0.313095 -0.526 188 132 105
0.52528 -0.319048 -0.536 151 113 94
0.0377 -0.259757 -0.435 200 157 140
0.0467067 -0.25916 -0.434 194 151 132
0.0591067 -0.25916 -0.434 180 134 119
0.0624133 -0.25916 -0.434 182 135 125
0.0665467 -0.25916 -0.434 169 125 116
0.0675286 -0.259757 -0.435 166 122 113
0.0701752 -0.260354 -0.436 162 119 110
0.0982924 -0.278866 -0.467 96 77 83
0.308777 -0.377394 -0.632 105 117 157
0.314796 -0.377394 -0.632 88 122 185
0.327351 -0.377991 -0.633 56 89 158
0.351466 -0.377991 -0.633 128 133 155
0.376767 -0.379186 -0.635 115 138 188
0.385834 -0.378589 -0.634 120 141 194
0.38825 -0.378589 -0.634 123 140 184
0.391254 -0.377991 -0.633 159 173 208
0.402741 -0.378589 -0.634 172 173 193
0.41778 -0.377991 -0.633 165 171 185
0.423809 -0.377991 -0.633 167 165 176
0.435866 -0.377991 -0.633 159 167 190
0.446717 -0.377991 -0.633 86 109 163
0.449129 -0.377991 -0.633 106 132 181
0.463597 -0.377991 -0.633 108 105 132
0.473243 -0.377991 -0.633 173 171 192
0.502578 -0.312306 -0.523 161 116 93
0.0352952 -0.261185 -0.436 204 161 142
0.0442267 -0.259987 -0.434 200 155 134
0.04836 -0.259987 -0.434 195 150 129
0.0516667 -0.259987 -0.434 195 150 129
0.0693448 -0.261185 -0.436 163 118 112
0.324427 -0.378598 -0.632 104 142 205
0.338872 -0.378598 -0.632 190 195 215
0.381609 -0.379197 -0.633 80 107 160
0.38402 -0.379197 -0.633 95 121 178
0.411751 -0.379197 -0.633 165 166 187
0.441894 -0.379197 -0.633 94 111 155
0.461661 -0.378598 -0.632 69 73 102
0.501387 -0.378598 -0.632 162 160 181
0.515989 -0.361825 -0.604 128 105 99
0.478009 -0.317495 -0.53 181 126 105
0.489628 -0.313302 -0.523 181 132 102
0.494657 -0.312703 -0.522 171 124 98
0.49764 -0.312703 -0.522 168 122 96
0.498634 -0.312703 -0.522 166 122 97
0.5095 -0.3145 -0.525 155 114 92
0.0441248 -0.260212 -0.433 199 154 133
0.0685143 -0.262015 -0.436 160 115 110
0.0920362 -0.275236 -0.458 104 81 87
0.100456 -0.28425 -0.473 96 75 82
0.369551 -0.380403 -0.633 56 65 96
0.37558 -0.380403 -0.633 145 158 193
0.380403 -0.380403 -0.633 92 115 167
0.41712 -0.379802 -0.632 166 172 186
0.423139 -0.379802 -0.632 165 164 182
0.432085 -0.379201 -0.631 160 162 187
0.46093 -0.379201 -0.631 124 126 149
0.464536 -0.379201 -0.631 151 151 177
0.468142 -0.379201 -0.631 164 165 186
0.470546 -0.379201 -0.631 167 164 191
0.47295 -0.379201 -0.631 162 160 182
0.477757 -0.379201 -0.631 109 122 166
0.500183 -0.379802 -0.632 168 167 185
0.511017 -0.379802 -0.632 107 130 174
0.512221 -0.379802 -0.632 88 110 159
0.521026 -0.379201 -0.631 148 146 157
0.479977 -0.331726 -0.552 149 107 95
0.475411 -0.325716 -0.542 165 112 96
0.475117 -0.322711 -0.537 170 113 96
0.478115 -0.317904 -0.529 182 128 104
0.49162 -0.314298 -0.523 182 132 105
0.501617 -0.313697 -0.522 161 117 92
0.0392667 -0.26164 -0.434 204 159 138
0.0498981 -0.261037 -0.433 192 147 128
0.0675286 -0.262243 -0.435 157 112 107
0.07992 -0.267669 -0.444 132 94 93
0.081979 -0.268874 -0.446 120 89 87
0.327 -0.3798 -0.63 192 208 242
0.331125 -0.380403 -0.631 59 74 117
0.341942 -0.380403 -0.631 191 193 206
0.344346 -0.380403 -0.631 192 199 209
0.359337 -0.381006 -0.632 180 186 202
0.370171 -0.381006 -0.632 133 142 173
0.371375 -0.381006 -0.632 164 173 204
0.38221 -0.381006 -0.632 99 122 172
0.386412 -0.380403 -0.631 134 147 179
0.444104 -0.380403 -0.631 115 133 183
0.464536 -0.380403 -0.631 101 102 132
0.465738 -0.380403 -0.631 144 145 175
0.477757 -0.380403 -0.631 92 108 157
0.494584 -0.380403 -0.631 163 164 185
0.5105 -0.3165 -0.525 157 115 91
0.522373 -0.32072 -0.532 144 102 80
0.611047 -0.365934 -0.607 201 193 191
0.0289143 -0.266095 -0.44 197 155 139
0.0531971 -0.261862 -0.433 193 147 131
0.0548467 -0.261862 -0.433 183 137 122
0.0564962 -0.261862 -0.433 185 139 124
0.0693448 -0.263676 -0.436 156 110 110
0.0750095 -0.266095 -0.44 144 106 103
0.0811295 -0.269724 -0.446 121 90 88
0.0865257 -0.273352 -0.452 106 78 77
0.3138 -0.381 -0.63 118 150 201
0.357567 -0.381605 -0.631 183 186 203
0.3894 -0.381 -0.63 169 177 200
0.3954 -0.381 -0.63 118 123 152
0.414056 -0.381605 -0.631 131 139 175
0.42247 -0.381605 -0.631 160 165 185
0.423 -0.381 -0.63 160 165 185
0.4314 -0.381 -0.63 168 171 190
0.4566 -0.381 -0.63 174 176 191
0.486734 -0.339271 -0.561 146 108 99
0.476595 -0.327176 -0.541 165 114 93
0.47586 -0.325967 -0.539 165 114 93
0.492669 -0.315686 -0.522 177 129 106
0.494702 -0.315081 -0.521 171 123 101
0.502611 -0.315686 -0.522 163 121 97
0.0515476 -0.262687 -0.433 191 148 131
0.0523724 -0.262687 -0.433 191 148 131
0.0581457 -0.262687 -0.433 179 135 122
0.0589705 -0.262687 -0.433 180 136 125
0.0770343 -0.268147 -0.442 137 97 97
0.0811295 -0.270573 -0.446 124 90 89
0.0854752 -0.273607 -0.451 105 73 76
0.3402 -0.3822 -0.63 192 193 214
0.3462 -0.3822 -0.63 179 182 201
0.352759 -0.382807 -0.631 188 190 213
0.361172 -0.382807 -0.631 183 186 203
0.362374 -0.382807 -0.631 179 185 201
0.376797 -0.382807 -0.631 114 128 165
0.379201 -0.382807 -0.631 119 136 180
0.3822 -0.3822 -0.63 115 136 181
0.3882 -0.3822 -0.63 158 174 210
0.388782 -0.381593 -0.629 170 177 205
0.405 -0.3822 -0.63 164 168 193
0.4146 -0.3822 -0.63 148 156 202
0.4314 -0.3822 -0.63 160 163 182
0.4362 -0.3822 -0.63 156 161 181
0.441 -0.3822 -0.63 83 113 165
0.501403 -0.381593 -0.629 104 114 150
0.519374 -0.381593 -0.629 159 160 178
0.52177 -0.381593 -0.629 167 162 185
0.522969 -0.381593 -0.629 167 162 185
0.476002 -0.326387 -0.538 166 118 98
0.491725 -0.316073 -0.521 181 131 106
0.0416505 -0.263511 -0.433 197 152 131
0.0540219 -0.263511 -0.433 180 136 123
0.0833857 -0.273249 -0.449 113 83 81
0.3474 -0.3834 -0.63 174 179 198
0.3522 -0.3834 -0.63 173 180 209
0.369 -0.3834 -0.63 132 133 151
0.373191 -0.384009 -0.631 180 177 196
0.376797 -0.384009 -0.631 91 113 160
0.413942 -0.382791 -0.629 134 151 195
0.425923 -0.382791 -0.629 166 171 191
0.43431 -0.382791 -0.629 171 174 183
0.445092 -0.382791 -0.629 102 124 174
0.453479 -0.382791 -0.629 173 174 195
0.460668 -0.382791 -0.629 166 172 184
0.466658 -0.382791 -0.629 48 64 115
0.470252 -0.382791 -0.629 101 116 149
0.500205 -0.382791 -0.629 146 145 161
0.51772 -0.36636 -0.602 127 107 109
0.49692 -0.34932 -0.574 147 107 105
0.478115 -0.321934 -0.529 172 120 99
0.484575 -0.318891 -0.524 185 133 111
0.02634 -0.267999 -0.439 198 155 136
0.0318267 -0.264947 -0.434 202 157 136
0.0440229 -0.263726 -0.432 202 155 135
0.0685143 -0.266168 -0.436 158 115 108
0.0731667 -0.267999 -0.439 142 101 99
0.0975467 -0.288145 -0.472 96 74 77
0.334335 -0.383379 -0.628 82 97 136
0.3774 -0.3846 -0.63 97 118 163
0.391752 -0.383379 -0.628 178 178 202
0.392949 -0.383379 -0.628 170 177 195
0.403714 -0.383379 -0.628 124 137 172
0.425923 -0.38399 -0.629 163 168 187
0.431913 -0.38399 -0.629 158 162 174
0.447489 -0.38399 -0.629 74 99 153
0.448687 -0.38399 -0.629 82 107 161
0.46472 -0.383379 -0.628 63 77 126
0.470701 -0.383379 -0.628 148 161 193
0.473093 -0.383379 -0.628 93 110 138
0.482663 -0.383379 -0.628 101 115 152
0.513764 -0.383379 -0.628 90 101 129
0.516156 -0.383379 -0.628 163 166 183
0.494543 -0.347971 -0.57 147 110 104
0.487697 -0.318669 -0.522 182 130 108
0.491771 -0.317448 -0.52 177 127 104
0.493752 -0.317448 -0.52 178 128 105
0.494743 -0.317448 -0.52 176 126 103
0.499695 -0.317448 -0.52 171 121 98
0.512522 -0.31989 -0.524 158 117 95
0.533389 -0.328436 -0.538 152 111 91
0.0741714 -0.269448 -0.44 141 97 96
0.0761924 -0.270672 -0.442 137 97 97
0.325443 -0.383963 -0.627 200 204 229
0.329026 -0.383963 -0.627 197 199 222
0.382183 -0.384575 -0.628 79 102 152
0.385771 -0.384575 -0.628 80 96 145
0.391129 -0.383963 -0.627 173 178 198
0.393517 -0.383963 -0.627 171 176 195
0.436011 -0.384575 -0.628 132 133 151
0.444385 -0.384575 -0.628 98 124 175
0.471897 -0.384575 -0.628 138 153 182
0.477117 -0.383963 -0.627 135 153 193
0.48984 -0.384575 -0.628 168 169 197
0.515334 -0.383963 -0.627 161 164 181
0.512239 -0.363142 -0.593 135 105 95
0.485643 -0.320275 -0.523 179 127 105
0.494743 -0.318438 -0.52 176 126 103
0.5145 -0.3215 -0.525 157 116 96
0.516482 -0.322112 -0.526 152 114 93
0.518468 -0.322725 -0.527 153 115 94
0.0301038 -0.265986 -0.433 207 164 145
0.0597952 -0.265986 -0.433 178 132 119
0.0640667 -0.2666 -0.434 164 120 107
0.0825305 -0.275814 -0.449 112 80 81
0.0858543 -0.278271 -0.453 103 83 85
0.0896143 -0.281957 -0.459 98 79 83
0.09108 -0.2838 -0.462 97 78 82
0.09514 -0.2881 -0.469 96 76 78
0.342163 -0.385157 -0.627 180 181 211
0.367216 -0.386386 -0.629 172 178 202
0.383379 -0.385771 -0.628 78 101 151
0.386968 -0.385771 -0.628 142 158 207
0.392323 -0.385157 -0.627 173 178 197
0.490254 -0.385157 -0.627 149 152 183
0.493837 -0.385157 -0.627 167 170 187
0.512946 -0.385157 -0.627 96 111 134
0.515334 -0.385157 -0.627 158 164 178
0.482429 -0.337857 -0.55 155 112 93
0.479319 -0.323729 -0.527 179 129 106
0.528431 -0.327414 -0.533 149 111 90
0.0448457 -0.266194 -0.432 197 150 134
0.0522514 -0.266194 -0.432 187 140 124
0.0556714 -0.26681 -0.433 185 137 123
0.0761924 -0.272356 -0.442 134 96 93
0.0814933 -0.276053 -0.448 113 83 81
0.0872914 -0.280983 -0.456 101 81 82
0.330886 -0.385735 -0.626 187 195 214
0.336848 -0.385735 -0.626 76 88 128
0.361848 -0.386968 -0.628 158 171 213
0.370221 -0.386968 -0.628 180 181 201
0.381574 -0.386351 -0.627 88 110 160
0.391129 -0.386351 -0.627 180 183 202
0.406107 -0.386968 -0.628 132 151 181
0.447739 -0.385735 -0.626 94 119 159
0.457278 -0.385735 -0.626 173 172 190
0.497819 -0.385735 -0.626 166 167 185
0.510557 -0.386351 -0.627 87 109 150
0.522859 -0.385735 -0.626 54 63 94
0.477549 -0.329046 -0.534 173 122 103
0.483577 -0.322884 -0.524 182 127 106
0.504648 -0.320419 -0.52 159 114 91
0.507603 -0.321035 -0.521 162 120 96
0.5175 -0.3235 -0.525 150 112 91
0.0382629 -0.267017 -0.432 202 155 139
0.0686714 -0.270108 -0.437 152 107 101
0.0704971 -0.270726 -0.438 146 103 96
0.07434 -0.27258 -0.441 139 95 92
0.0753505 -0.273198 -0.442 132 97 95
0.0929552 -0.28865 -0.467 94 75 79
0.335655 -0.386928 -0.626 148 155 174
0.348771 -0.386928 -0.626 107 127 178
0.37381 -0.388164 -0.628 115 120 139
0.375006 -0.388164 -0.628 95 110 149
0.403071 -0.387546 -0.627 113 127 176
0.418597 -0.387546 -0.627 112 128 162
0.419791 -0.387546 -0.627 83 97 136
0.427469 -0.386928 -0.626 171 172 200
0.44297 -0.386928 -0.626 118 141 191
0.447739 -0.386928 -0.626 107 132 172
0.450124 -0.386928 -0.626 165 168 185
0.465625 -0.386928 -0.626 162 163 184
0.472779 -0.386928 -0.626 130 137 165
0.481126 -0.386928 -0.626 170 172 187
0.490665 -0.386928 -0.626 81 85 110
0.51809 -0.386928 -0.626 163 160 177
0.497586 -0.352932 -0.571 147 109 98
0.478186 -0.331917 -0.537 170 121 106
0.478316 -0.331299 -0.536 171 120 101
0.480029 -0.32759 -0.53 167 115 94
0.485709 -0.322646 -0.522 179 127 105
0.486763 -0.322028 -0.521 181 129 107
0.0207667 -0.2759 -0.445 191 154 127
0.0214686 -0.27404 -0.442 193 152 134
0.0373533 -0.26722 -0.431 201 156 137
0.0432 -0.26784 -0.432 198 153 134
0.0448457 -0.26784 -0.432 193 148 129
0.0581457 -0.26846 -0.433 175 132 116
0.0650429 -0.2697 -0.435 158 115 99
0.0918686 -0.28892 -0.466 92 75 81
0.33327 -0.38812 -0.626 192 195 214
0.334463 -0.38812 -0.626 192 199 218
0.400044 -0.38812 -0.626 81 94 136
0.439392 -0.38812 -0.626 108 127 170
0.462048 -0.38812 -0.626 156 162 194
0.46324 -0.38812 -0.626 169 171 192
0.484703 -0.38812 -0.626 171 173 198
0.49305 -0.38812 -0.626 100 103 122
0.517262 -0.3875 -0.625 153 149 172
0.478566 -0.33108 -0.534 169 120 103
0.483577 -0.32488 -0.524 174 122 100
0.490826 -0.32178 -0.519 177 127 104
0.513549 -0.32364 -0.522 160 115 94
0.0243867 -0.269907 -0.434 195 152 133
0.0473143 -0.268663 -0.432 193 146 126
0.0548467 -0.269285 -0.433 182 137 118
0.0589705 -0.269285 -0.433 175 129 113
0.067839 -0.271772 -0.437 154 110 101
0.331548 -0.38869 -0.625 195 198 215
0.401786 -0.38869 -0.625 152 158 194
0.410119 -0.38869 -0.625 91 106 147
0.439881 -0.38869 -0.625 110 129 172
0.443452 -0.38869 -0.625 101 122 167
0.455817 -0.388069 -0.624 125 125 149
0.468452 -0.38869 -0.625 174 170 193
0.471269 -0.388069 -0.624 166 169 184
0.472457 -0.388069 -0.624 141 144 159
0.505357 -0.38869 -0.625 54 78 138
0.517623 -0.388069 -0.624 76 92 118
0.519704 -0.372521 -0.599 133 116 109
0.481327 -0.327744 -0.527 172 124 102
0.481415 -0.327122 -0.526 175 127 105
0.49876 -0.322147 -0.518 175 124 103
0.500733 -0.322147 -0.518 170 122 100
0.50861 -0.32339 -0.52 169 122 102
0.0267429 -0.269486 -0.432 194 152 130
0.0325029 -0.269486 -0.432 203 158 137
0.0406371 -0.268862 -0.431 199 154 133
0.0431 -0.268862 -0.431 193 148 127
0.057321 -0.27011 -0.433 177 132 113
0.0735 -0.2751 -0.441 133 95 94
0.348214 -0.389881 -0.625 110 133 183
0.375004 -0.390505 -0.626 91 104 136
0.375595 -0.389881 -0.625 88 110 151
0.38631 -0.389881 -0.625 172 178 200
0.41131 -0.389881 -0.625 141 154 189
0.42016 -0.389257 -0.624 164 172 191
0.443931 -0.389257 -0.624 89 111 158
0.455817 -0.389257 -0.624 91 97 121
0.472457 -0.389257 -0.624 164 168 195
0.483929 -0.389881 -0.625 171 172 192
0.485119 -0.389881 -0.625 170 171 191
0.493851 -0.389257 -0.624 102 108 134
0.497417 -0.389257 -0.624 146 150 175
0.480717 -0.337481 -0.541 165 113 102
0.479462 -0.333738 -0.535 169 120 105
0.4806 -0.333114 -0.534 164 115 100
0.498782 -0.32251 -0.517 172 121 100
0.50468 -0.323133 -0.518 168 121 101
0.523487 -0.328748 -0.527 154 113 93
0.0227333 -0.27156 -0.434 190 148 126
0.0243305 -0.270934 -0.433 197 155 133
0.043921 -0.269683 -0.431 192 147 126
0.0581457 -0.270934 -0.433 172 127 106
0.301522 -0.389194 -0.622 208 205 226
0.316924 -0.389194 -0.622 106 132 181
0.323367 -0.38982 -0.623 187 199 223
0.366674 -0.390446 -0.624 181 181 207
0.380937 -0.390446 -0.624 89 117 164
0.407086 -0.390446 -0.624 147 153 179
0.426103 -0.390446 -0.624 112 116 153
0.472457 -0.390446 -0.624 166 168 191
0.50374 -0.38982 -0.623 45 72 139
0.48308 -0.34164 -0.546 161 114 96
0.481327 -0.329751 -0.527 172 121 102
0.0275019 -0.270504 -0.431 196 151 130
0.08136 -0.283684 -0.452 107 83 83
0.0836333 -0.285567 -0.455 101 81 82
0.3293 -0.391007 -0.623 185 191 213
0.345913 -0.391007 -0.623 59 76 122
0.35066 -0.391007 -0.623 176 182 204
0.358967 -0.391007 -0.623 120 135 168
0.37024 -0.391634 -0.624 180 187 213
0.372617 -0.391634 -0.624 126 137 167
0.38626 -0.391007 -0.623 174 180 202
0.392823 -0.391634 -0.624 95 97 120
0.395753 -0.391007 -0.623 160 164 191
0.39694 -0.391007 -0.623 170 177 195
0.398127 -0.391007 -0.623 171 178 196
0.399954 -0.391634 -0.624 170 176 198
0.427793 -0.391007 -0.623 117 118 148
0.430857 -0.391634 -0.624 118 117 135
0.499377 -0.390379 -0.622 100 124 184
0.486819 -0.326362 -0.52 171 119 98
0.493886 -0.323851 -0.516 173 122 101
0.494869 -0.323851 -0.516 171 120 99
0.0275019 -0.271325 -0.431 195 150 129
0.0331714 -0.270695 -0.43 195 150 129
0.0446381 -0.270695 -0.43 193 146 128
0.0480257 -0.271325 -0.431 188 141 121
0.0488467 -0.271325 -0.431 187 142 121
0.05472 -0.271954 -0.432 179 134 113
0.308134 -0.390934 -0.621 112 135 177
0.309317 -0.390934 -0.621 127 155 195
0.312866 -0.390934 -0.621 141 163 204
0.323511 -0.390934 -0.621 187 198 220
0.325217 -0.391564 -0.622 194 199 218
0.326402 -0.391564 -0.622 192 197 216
0.405247 -0.392193 -0.623 166 171 191
0.42186 -0.392193 -0.623 171 177 203
0.43966 -0.392193 -0.623 68 94 151
0.49306 -0.392193 -0.623 100 115 148
0.487907 -0.326093 -0.518 178 126 105
0.0194267 -0.27404 -0.434 197 155 139
0.0258 -0.271514 -0.43 199 154 131
0.0389048 -0.271514 -0.43 196 151 130
0.057321 -0.273409 -0.433 172 130 108
0.0689857 -0.277197 -0.439 142 102 94
0.0770543 -0.282249 -0.447 116 88 87
0.0792857 -0.284143 -0.45 111 85 84
0.243867 -0.391486 -0.62 154 168 203
0.24859 -0.391486 -0.62 164 180 216
0.253314 -0.391486 -0.62 155 165 201
0.301733 -0.391486 -0.62 205 205 233
0.329426 -0.392117 -0.621 133 137 166
0.33825 -0.392749 -0.622 188 190 211
0.341804 -0.392749 -0.622 183 191 210
0.35839 -0.392749 -0.622 173 180 209
0.376162 -0.392749 -0.622 91 114 156
0.380327 -0.39338 -0.623 127 152 193
0.394567 -0.39338 -0.623 150 154 183
0.440139 -0.392749 -0.622 59 93 154
0.46265 -0.392749 -0.622 167 170 179
0.472128 -0.392749 -0.622 97 102 131
0.50767 -0.392749 -0.622 28 63 121
0.506111 -0.364334 -0.577 156 108 94
0.488389 -0.348549 -0.552 160 115 96
0.481415 -0.332131 -0.526 175 122 104
0.48988 -0.32708 -0.518 185 133 112
0.500776 -0.325186 -0.515 175 127 104
0.50568 -0.325817 -0.516 164 118 94
0.0155752 -0.279933 -0.442 197 157 132
0.03718 -0.2717 -0.429 196 151 128
0.0397238 -0.272333 -0.43 194 147 127
0.0496676 -0.272967 -0.431 181 135 109
0.0513095 -0.272967 -0.431 185 139 115
0.0624133 -0.274867 -0.434 151 107 98
0.074 -0.2812 -0.444 116 90 89
0.326533 -0.392667 -0.62 174 180 214
0.33534 -0.3933 -0.621 187 195 214
0.337706 -0.3933 -0.621 188 193 213
0.365499 -0.393933 -0.622 141 156 197
0.369053 -0.393933 -0.622 140 146 160
0.372608 -0.393933 -0.622 144 150 174
0.388569 -0.3933 -0.621 69 80 112
0.4354 -0.393933 -0.622 112 134 191
0.436585 -0.393933 -0.622 76 98 155
0.446529 -0.3933 -0.621 96 112 161
0.45126 -0.3933 -0.621 80 95 138
0.48279 -0.393933 -0.622 108 102 104
0.503306 -0.3933 -0.621 20 52 111
0.504489 -0.3933 -0.621 20 52 111
0.510403 -0.3933 -0.621 29 55 114
0.48184 -0.336933 -0.532 166 117 100
0.482654 -0.331233 -0.523 168 115 97
0.488893 -0.328067 -0.518 185 133 112
0.618627 -0.381267 -0.602 201 199 200
0.02016 -0.274423 -0.432 199 157 133
0.0306429 -0.272517 -0.429 198 151 131
0.0347286 -0.272517 -0.429 197 153 128
0.0530743 -0.274423 -0.432 177 131 107
0.057321 -0.275058 -0.433 171 126 103
0.0831305 -0.290304 -0.457 98 79 81
0.0870552 -0.29475 -0.464 94 78 81
0.3095 -0.393212 -0.619 115 134 166
0.327714 -0.393848 -0.62 98 108 144
0.444629 -0.393848 -0.62 75 97 155
0.45126 -0.394483 -0.621 75 95 146
0.453626 -0.394483 -0.621 153 166 200
0.461906 -0.394483 -0.621 152 152 154
0.466637 -0.394483 -0.621 119 122 141
0.485563 -0.394483 -0.621 170 165 169
0.487929 -0.394483 -0.621 168 163 167
0.508037 -0.394483 -0.621 22 52 112
0.52055 -0.393212 -0.619 114 109 115
0.483786 -0.330959 -0.521 174 121 103
0.489919 -0.328418 -0.517 182 130 109
0.497846 -0.326512 -0.514 175 125 102
0.500783 -0.326512 -0.514 168 122 99
0.0201133 -0.274609 -0.431 199 157 133
0.0413619 -0.273971 -0.43 192 146 123
0.043 -0.273971 -0.43 191 145 122
0.0513095 -0.274609 -0.431 182 136 112
0.06076 -0.27652 -0.434 154 110 101
0.0872429 -0.296271 -0.465 94 74 76
0.316574 -0.394391 -0.619 135 157 198
0.320111 -0.394391 -0.619 162 183 214
0.330723 -0.394391 -0.619 150 158 171
0.34779 -0.395029 -0.62 186 191 210
0.357238 -0.395029 -0.62 184 187 202
0.378495 -0.395029 -0.62 108 138 198
0.3844 -0.395029 -0.62 162 177 208
0.436362 -0.395029 -0.62 46 77 134
0.465454 -0.395666 -0.621 142 141 149
0.477283 -0.395666 -0.621 138 145 164
0.479649 -0.395666 -0.621 109 106 117
0.500133 -0.395029 -0.62 29 58 118
0.505667 -0.36572 -0.574 151 108 99
0.4825 -0.3345 -0.525 172 121 100
0.482654 -0.333226 -0.523 177 124 106
0.487907 -0.33004 -0.518 178 126 105
0.49393 -0.327491 -0.514 179 129 106
0.53152 -0.336411 -0.528 151 108 91
0.541615 -0.341509 -0.536 152 109 93
0.0488467 -0.27543 -0.431 182 134 111
0.05472 -0.276069 -0.432 176 129 109
0.0555429 -0.276069 -0.432 175 130 111
0.0643619 -0.278625 -0.436 145 105 97
0.309 -0.394931 -0.618 97 117 154
0.333081 -0.39557 -0.619 139 144 150
0.366686 -0.39621 -0.62 113 123 159
0.376133 -0.39621 -0.62 54 87 138
0.382038 -0.39621 -0.62 76 99 151
0.392667 -0.39621 -0.62 166 165 173
0.393848 -0.39621 -0.62 127 126 134
0.39621 -0.39621 -0.62 138 139 143
0.4092 -0.39621 -0.62 139 146 175
0.410381 -0.39621 -0.62 146 153 182
0.413924 -0.39621 -0.62 167 175 186
0.423868 -0.39557 -0.619 171 169 183
0.456438 -0.39621 -0.62 175 170 176
0.513475 -0.39557 -0.619 118 133 164
0.519709 -0.394931 -0.618 157 150 166
0.520886 -0.394931 -0.618 141 134 150
0.483786 -0.332944 -0.521 175 125 100
0.496877 -0.327831 -0.513 179 128 107
0.503717 -0.327831 -0.513 170 122 100
0.509605 -0.32911 -0.515 163 115 93
0.0241057 -0.274969 -0.429 200 155 132
0.03146 -0.274969 -0.429 199 153 130
0.0653419 -0.280096 -0.437 140 102 93
0.0683048 -0.282019 -0.44 131 98 93
0.070299 -0.283301 -0.442 123 92 89
0.073319 -0.285224 -0.445 118 88 88
0.08244 -0.293556 -0.458 99 77 79
0.0836762 -0.294838 -0.46 98 78 80
0.0851038 -0.296761 -0.463 97 77 79
0.316063 -0.396109 -0.618 140 171 218
0.323126 -0.396109 -0.618 113 129 165
0.324303 -0.396109 -0.618 61 77 113
0.357841 -0.39675 -0.619 182 189 205
0.360199 -0.39675 -0.619 180 185 207
0.361378 -0.39675 -0.619 174 179 201
0.411562 -0.39739 -0.62 128 134 158
0.412743 -0.39739 -0.62 120 126 150
0.444371 -0.396109 -0.618 55 77 137
0.47103 -0.39675 -0.619 145 150 169
0.487143 -0.39739 -0.62 167 165 179
0.492252 -0.39675 -0.619 89 112 144
0.505222 -0.39675 -0.619 67 99 158
0.48372 -0.334577 -0.522 179 129 106
0.496877 -0.328809 -0.513 177 129 106
0.50274 -0.328809 -0.513 168 122 99
0.505671 -0.328809 -0.513 167 119 97
0.514538 -0.331372 -0.517 164 116 94
0.0184286 -0.276429 -0.43 198 156 134
0.0281914 -0.275786 -0.429 198 154 129
0.062701 -0.280286 -0.436 144 104 94
0.0801667 -0.2925 -0.455 104 79 82
0.357263 -0.397286 -0.618 184 191 207
0.366094 -0.397929 -0.619 52 62 97
0.374348 -0.397929 -0.619 36 67 131
0.405003 -0.397929 -0.619 124 134 161
0.409719 -0.397929 -0.619 140 149 180
0.41612 -0.397286 -0.618 151 149 152
0.425537 -0.397286 -0.618 150 163 195
0.433777 -0.397286 -0.618 36 66 128
0.48282 -0.397929 -0.619 165 163 176
0.491073 -0.397929 -0.619 77 90 122
0.500874 -0.397286 -0.618 67 94 147
0.492433 -0.3555 -0.553 151 118 101
0.48828 -0.351 -0.546 158 117 95
0.483786 -0.334929 -0.521 177 129 106
0.0192029 -0.276603 -0.429 199 159 134
0.0388143 -0.276603 -0.429 191 145 121
0.0513095 -0.277892 -0.431 175 130 107
0.0609 -0.280471 -0.435 150 108 96
0.062701 -0.281116 -0.436 145 102 93
0.0724714 -0.286919 -0.445 118 88 88
0.329654 -0.397818 -0.617 188 195 213
0.343757 -0.397818 -0.617 133 143 168
0.348458 -0.397818 -0.617 155 165 192
0.397286 -0.398463 -0.618 99 98 94
0.404349 -0.398463 -0.618 143 150 176
0.41612 -0.398463 -0.618 133 132 130
0.425537 -0.398463 -0.618 148 161 195
0.428374 -0.397818 -0.617 63 84 129
0.436601 -0.397818 -0.617 61 92 159
0.453789 -0.398463 -0.618 152 163 193
0.491457 -0.398463 -0.618 109 130 157
0.496538 -0.397818 -0.617 122 137 170
0.486965 -0.333342 -0.517 172 124 101
0.520483 -0.334631 -0.519 155 112 93
0.0216038 -0.276773 -0.428 199 158 130
0.0240495 -0.276773 -0.428 203 161 136
0.0564962 -0.280007 -0.433 158 115 96
0.0716238 -0.287767 -0.445 119 88 86
0.303986 -0.3977 -0.615 115 136 179
0.31504 -0.398347 -0.616 97 134 204
0.323253 -0.398347 -0.616 160 186 235
0.33968 -0.398347 -0.616 151 150 164
0.363736 -0.398993 -0.617 112 126 161
0.366087 -0.398993 -0.617 50 81 138
0.387241 -0.398993 -0.617 164 174 210
0.432373 -0.398347 -0.616 62 90 138
0.464383 -0.39964 -0.618 171 168 177
0.484394 -0.39964 -0.618 114 120 136
0.486749 -0.39964 -0.618 79 87 123
0.495363 -0.398993 -0.617 126 139 173
0.514167 -0.398993 -0.617 165 164 180
0.483577 -0.338853 -0.524 169 121 99
0.484778 -0.336913 -0.521 173 125 102
0.484894 -0.33562 -0.519 175 127 104
0.502727 -0.330447 -0.511 168 120 98
0.526474 -0.33756 -0.522 156 115 95
0.0216038 -0.277589 -0.428 200 159 131
0.0240495 -0.277589 -0.428 204 160 135
0.0420829 -0.278237 -0.429 181 136 113
0.062701 -0.282777 -0.436 141 101 93
0.306329 -0.398871 -0.615 76 111 179
0.312186 -0.398871 -0.615 50 89 164
0.322729 -0.398871 -0.615 147 175 225
0.345547 -0.39952 -0.616 144 154 179
0.358453 -0.39952 -0.616 134 125 126
0.361386 -0.400169 -0.617 146 142 156
0.401344 -0.400169 -0.617 172 172 184
0.434014 -0.398871 -0.615 74 103 163
0.440587 -0.39952 -0.616 63 96 147
0.489487 -0.400169 -0.617 140 149 182
0.525929 -0.387197 -0.597 126 106 99
0.485346 -0.348283 -0.537 166 124 102
0.483867 -0.34504 -0.532 166 121 100
0.490013 -0.333366 -0.514 176 128 105
0.0248648 -0.278404 -0.428 197 155 130
0.0370933 -0.278404 -0.428 192 146 120
0.299983 -0.399392 -0.614 80 94 133
0.3157 -0.400043 -0.615 35 75 145
0.318043 -0.400043 -0.615 47 84 155
0.3239 -0.400043 -0.615 173 183 208
0.344373 -0.400693 -0.616 154 160 182
0.346157 -0.400043 -0.615 164 172 195
0.347329 -0.400043 -0.615 169 177 200
0.352014 -0.400043 -0.615 186 190 202
0.37488 -0.400693 -0.616 47 83 143
0.379573 -0.400693 -0.616 110 141 195
0.391307 -0.400693 -0.616 171 176 196
0.411253 -0.400693 -0.616 182 184 197
0.4136 -0.400693 -0.616 176 178 191
0.419467 -0.400693 -0.616 170 173 190
0.431671 -0.400043 -0.615 105 126 169
0.449973 -0.400693 -0.616 104 111 139
0.460106 -0.401344 -0.617 164 163 179
0.474209 -0.401344 -0.617 164 163 177
0.48361 -0.401344 -0.617 66 71 90
0.484786 -0.401344 -0.617 72 81 110
0.521023 -0.399392 -0.614 118 122 149
0.485463 -0.348655 -0.536 166 124 102
0.483419 -0.34215 -0.526 169 125 100
0.49494 -0.332393 -0.511 177 131 108
0.511534 -0.333694 -0.513 166 120 97
0.523449 -0.337597 -0.519 155 113 91
0.0135143 -0.280524 -0.43 196 155 133
0.0151171 -0.279871 -0.429 194 154 129
0.0354629 -0.279219 -0.428 193 147 121
0.0420829 -0.279871 -0.429 182 134 112
0.0429 -0.279871 -0.429 181 133 111
0.0538971 -0.281829 -0.432 162 117 98
0.0618705 -0.284438 -0.436 138 100 91
0.0677733 -0.288352 -0.442 122 89 84
0.0872857 -0.306619 -0.47 93 73 75
0.273807 -0.39991 -0.613 142 145 152
0.303491 -0.400562 -0.614 42 81 150
0.378957 -0.401214 -0.615 134 165 211
0.394186 -0.401214 -0.615 180 178 192
0.4141 -0.401214 -0.615 175 174 188
0.419957 -0.401214 -0.615 125 132 150
0.489867 -0.401867 -0.616 164 162 175
0.492213 -0.401867 -0.616 167 171 182
0.495733 -0.401867 -0.616 104 118 147
0.510987 -0.401867 -0.616 155 160 179
0.518684 -0.400562 -0.614 141 148 174
0.522894 -0.385557 -0.591 134 106 102
0.487153 -0.351633 -0.539 162 121 99
0.485576 -0.349024 -0.535 166 124 100
0.485829 -0.339238 -0.52 174 126 103
0.488024 -0.335976 -0.515 176 130 107
0.489005 -0.335976 -0.515 176 130 107
0.0126657 -0.280689 -0.429 197 157 132
0.0338324 -0.280034 -0.428 192 146 120
0.0487333 -0.281343 -0.43 174 126 106
0.0495524 -0.281343 -0.43 173 125 105
0.0504886 -0.281997 -0.431 174 126 104
0.06104 -0.285269 -0.436 140 101 94
0.0657905 -0.287886 -0.44 130 93 87
0.06678 -0.28854 -0.441 122 91 86
0.0709352 -0.291811 -0.446 116 88 85
0.0719457 -0.292466 -0.447 115 87 84
0.31117 -0.401077 -0.613 33 69 147
0.312338 -0.401077 -0.613 30 66 144
0.325182 -0.401077 -0.613 190 199 214
0.340916 -0.401731 -0.614 178 177 191
0.414596 -0.401731 -0.614 174 175 193
0.420444 -0.401731 -0.614 75 95 122
0.521342 -0.401077 -0.613 66 75 104
0.486369 -0.351351 -0.537 163 121 97
0.485686 -0.349389 -0.534 169 125 100
0.48795 -0.338266 -0.517 173 125 103
0.491991 -0.335649 -0.513 163 113 90
0.02318 -0.280193 -0.427 199 157 133
0.0239933 -0.280193 -0.427 200 156 131
0.0248067 -0.280193 -0.427 198 154 129
0.0305714 -0.28085 -0.428 194 148 122
0.0313867 -0.28085 -0.428 195 149 123
0.0412657 -0.281506 -0.429 183 137 114
0.0504886 -0.282818 -0.431 170 123 103
0.0556714 -0.28413 -0.433 161 115 100
0.0777371 -0.299223 -0.456 97 78 80
0.0789505 -0.300535 -0.458 97 78 80
0.0878429 -0.310378 -0.473 89 73 76
0.0893067 -0.312347 -0.476 94 78 81
0.279189 -0.401589 -0.612 183 181 202
0.29784 -0.401589 -0.612 79 92 134
0.311829 -0.401589 -0.612 36 75 142
0.334523 -0.402245 -0.613 190 189 203
0.360798 -0.402901 -0.614 94 103 134
0.365476 -0.402901 -0.614 170 174 203
0.409918 -0.402901 -0.614 178 180 193
0.496463 -0.402901 -0.614 85 102 146
0.505819 -0.402901 -0.614 88 104 138
0.518037 -0.382559 -0.583 140 110 99
0.489734 -0.356311 -0.543 160 119 101
0.4835 -0.3445 -0.525 171 123 101
0.508567 -0.335313 -0.511 163 118 95
0.0110314 -0.282323 -0.429 194 154 129
0.0370933 -0.281665 -0.428 188 142 118
0.0403543 -0.281665 -0.428 183 137 114
0.0564962 -0.284955 -0.433 155 109 94
0.0710943 -0.294169 -0.447 108 87 84
0.0826362 -0.305356 -0.464 94 75 79
0.13384 -0.38696 -0.588 238 239 255
0.269422 -0.402096 -0.611 205 213 226
0.29619 -0.402096 -0.611 118 128 155
0.304336 -0.402096 -0.611 52 93 147
0.324651 -0.402754 -0.612 168 175 203
0.331646 -0.402754 -0.612 189 195 211
0.339806 -0.402754 -0.612 186 187 192
0.342137 -0.402754 -0.612 185 188 197
0.345634 -0.402754 -0.612 187 189 204
0.352037 -0.403412 -0.613 186 190 202
0.36021 -0.403412 -0.613 93 102 131
0.364881 -0.403412 -0.613 171 175 200
0.368384 -0.403412 -0.613 93 117 165
0.381228 -0.403412 -0.613 172 182 209
0.412257 -0.40407 -0.614 172 174 187
0.413921 -0.403412 -0.613 172 170 184
0.464886 -0.40407 -0.614 160 162 185
0.500325 -0.403412 -0.613 126 143 186
0.515829 -0.402754 -0.612 165 168 185
0.520703 -0.385644 -0.586 144 111 102
0.504377 -0.371166 -0.564 152 113 98
0.485829 -0.34221 -0.52 171 125 102
0.485933 -0.340893 -0.518 167 121 97
0.489034 -0.338261 -0.514 171 123 100
0.491014 -0.337603 -0.513 175 127 105
0.492983 -0.336945 -0.512 175 127 105
0.493 -0.335629 -0.51 177 129 107
0.50954 -0.336287 -0.511 162 117 96
0.523401 -0.340235 -0.517 153 110 91
0.00862 -0.28446 -0.431 200 159 137
0.0305 -0.28182 -0.427 193 145 122
0.0445343 -0.28314 -0.429 172 124 104
0.0538971 -0.28512 -0.432 162 117 98
0.0629886 -0.28908 -0.438 131 96 90
0.307828 -0.40326 -0.611 103 144 210
0.32994 -0.40326 -0.611 188 192 203
0.345634 -0.40392 -0.612 187 189 204
0.371887 -0.40458 -0.613 99 130 177
0.40925 -0.40458 -0.613 175 178 193
0.410418 -0.40458 -0.613 175 178 193
0.433063 -0.40392 -0.612 111 134 184
0.440776 -0.40458 -0.613 81 102 149
0.444279 -0.40458 -0.613 157 170 202
0.452452 -0.40458 -0.613 133 130 137
0.485937 -0.40524 -0.614 142 145 154
0.488276 -0.40524 -0.614 163 164 168
0.507669 -0.40392 -0.612 88 96 117
0.521969 -0.40326 -0.611 59 74 107
0.523369 -0.38874 -0.589 144 110 100
0.487391 -0.35442 -0.537 163 121 97
0.484647 -0.34518 -0.523 170 125 104
0.487006 -0.34056 -0.516 173 127 103
0.488024 -0.3399 -0.515 173 127 103
0.505607 -0.33594 -0.509 165 118 98
0.524386 -0.34122 -0.517 152 111 93
0.620673 -0.39138 -0.593 199 201 200
0.0271829 -0.281971 -0.426 189 145 120
0.02806 -0.282633 -0.427 191 147 122
0.0513095 -0.285281 -0.431 166 119 101
0.0556714 -0.286605 -0.433 145 106 91
0.321267 -0.403762 -0.61 85 105 138
0.331724 -0.403762 -0.61 190 197 216
0.33925 -0.404424 -0.611 176 180 191
0.34507 -0.404424 -0.611 188 191 206
0.347966 -0.405086 -0.612 183 186 203
0.384103 -0.405086 -0.612 181 180 196
0.394594 -0.405086 -0.612 168 171 188
0.408583 -0.405086 -0.612 161 166 185
0.425372 -0.404424 -0.611 173 176 195
0.4277 -0.404424 -0.611 117 132 173
0.450549 -0.405086 -0.612 139 138 144
0.47347 -0.405748 -0.613 110 128 168
0.493319 -0.405748 -0.613 98 113 132
0.496822 -0.405748 -0.613 84 105 148
0.497177 -0.405086 -0.612 90 111 154
0.509167 -0.404424 -0.611 146 149 168
0.513822 -0.404424 -0.611 159 165 179
0.521114 -0.403762 -0.61 77 88 116
0.486703 -0.353457 -0.534 165 120 101
0.484338 -0.348824 -0.527 165 122 105
0.484421 -0.348162 -0.526 163 120 103
0.486965 -0.342205 -0.517 175 129 106
0.487006 -0.341543 -0.516 176 130 107
0.489034 -0.340219 -0.514 172 126 103
0.48906 -0.339557 -0.513 173 127 104
0.495911 -0.33691 -0.509 175 129 105
0.517397 -0.339557 -0.513 160 118 96
0.00297333 -0.296059 -0.446 198 156 131
0.00537333 -0.288093 -0.434 199 157 133
0.00617143 -0.286766 -0.432 192 157 137
0.00939714 -0.284774 -0.429 197 157 131
0.03294 -0.283447 -0.427 192 146 122
0.0362781 -0.28411 -0.428 185 141 116
0.0602095 -0.289421 -0.436 133 96 88
0.06594 -0.29274 -0.441 122 88 86
0.0714124 -0.29805 -0.449 107 83 83
0.0792952 -0.305352 -0.46 96 77 81
0.32359 -0.404924 -0.61 73 97 135
0.334048 -0.404924 -0.61 134 136 148
0.33521 -0.404924 -0.61 171 173 186
0.341019 -0.404924 -0.61 166 169 184
0.347397 -0.405588 -0.611 184 187 204
0.374165 -0.405588 -0.611 95 119 163
0.397441 -0.405588 -0.611 147 153 175
0.400932 -0.405588 -0.611 138 148 173
0.402754 -0.406251 -0.612 118 128 153
0.40392 -0.406251 -0.612 139 150 178
0.419553 -0.405588 -0.611 162 163 181
0.443993 -0.405588 -0.611 164 171 189
0.470366 -0.406251 -0.612 133 151 191
0.471531 -0.406251 -0.612 106 129 173
0.495146 -0.364431 -0.549 157 120 104
0.492576 -0.361776 -0.545 159 121 102
0.490897 -0.359785 -0.542 159 121 102
0.485991 -0.352483 -0.531 162 119 102
0.484338 -0.349828 -0.527 166 123 107
0.4845 -0.3485 -0.525 166 121 102
0.49784 -0.337215 -0.508 172 126 102
0.500743 -0.337215 -0.508 168 122 99
0.00776286 -0.285591 -0.429 199 157 133
0.06118 -0.290917 -0.437 134 97 91
