ply
format ascii 1.0
comment Created by Open3D
element vertex 1307
property double x
property double y
property double z
property uchar red
property uchar green
property uchar blue
end_header
0.0494743 -0.366617 -0.444 98 75 69
0.0570162 -0.377351 -0.457 90 70 69
0.05814 -0.379003 -0.459 91 71 70
0.0628457 -0.386434 -0.468 89 71 71
0.0804781 -0.417811 -0.506 99 122 174
0.521936 -0.446711 -0.541 121 103 91
0.503686 -0.421114 -0.51 149 114 95
0.508652 -0.395517 -0.479 178 132 99
0.527508 -0.390563 -0.473 167 122 91
0.542871 -0.393866 -0.477 156 115 83
0.54378 -0.393866 -0.477 154 115 86
0.54583 -0.394691 -0.478 153 114 85
0.549029 -0.396343 -0.48 150 113 87
0.83848 -0.465703 -0.564 136 137 131
-0.0118686 -0.332703 -0.402 183 137 104
0.00741905 -0.339324 -0.41 166 119 93
0.0258762 -0.345945 -0.418 139 98 80
0.0284 -0.3476 -0.42 135 96 81
0.0292 -0.3476 -0.42 133 94 79
0.0326314 -0.350083 -0.423 121 89 74
0.0397238 -0.355876 -0.43 109 82 75
0.0435 -0.360014 -0.435 100 75 68
0.0616895 -0.38567 -0.466 89 71 71
0.515362 -0.438638 -0.53 125 103 92
0.502627 -0.418775 -0.506 156 118 99
0.51272 -0.393947 -0.476 180 133 103
0.522796 -0.390636 -0.472 175 129 96
0.85741 -0.470088 -0.568 120 121 115
0.864983 -0.470088 -0.568 122 122 114
-0.0393419 -0.339275 -0.409 184 141 107
-0.0358714 -0.335957 -0.405 179 139 103
-0.0333914 -0.334298 -0.403 183 140 105
-0.0255238 -0.33181 -0.4 191 148 114
-0.0179495 -0.332639 -0.401 185 140 107
-0.0134 -0.333469 -0.402 181 135 102
-0.00577143 -0.335128 -0.404 177 128 98
0.00348857 -0.337616 -0.407 168 121 93
0.0137333 -0.341764 -0.412 157 109 86
0.0185762 -0.344252 -0.415 153 106 86
0.02508 -0.346741 -0.418 139 98 80
0.0292 -0.3484 -0.42 131 92 77
0.0389048 -0.356695 -0.43 109 82 75
0.0454686 -0.363331 -0.438 100 77 71
0.048519 -0.367479 -0.443 94 74 67
0.065319 -0.392365 -0.473 85 70 67
0.0748057 -0.409785 -0.494 82 91 120
0.514423 -0.437989 -0.528 126 103 95
0.5016 -0.41808 -0.504 155 118 99
0.50209 -0.402319 -0.485 179 136 104
0.50278 -0.40066 -0.483 183 138 107
0.510163 -0.395683 -0.477 178 131 101
0.522796 -0.391535 -0.472 177 131 98
0.527291 -0.391535 -0.472 170 125 94
0.533814 -0.392365 -0.473 164 119 88
0.535616 -0.392365 -0.473 163 118 85
0.55614 -0.40066 -0.483 147 108 75
0.559367 -0.402319 -0.485 146 107 74
0.88331 -0.476976 -0.575 118 117 112
-0.02698 -0.33174 -0.399 193 148 115
-0.0262857 -0.332571 -0.4 192 147 114
-0.00423238 -0.335897 -0.404 174 124 97
-0.00192857 -0.336729 -0.405 173 128 97
0.0267362 -0.348369 -0.419 136 93 77
0.0318257 -0.351694 -0.423 123 91 76
0.0486286 -0.369154 -0.444 93 73 66
0.0618219 -0.388277 -0.467 89 71 67
0.0654571 -0.394097 -0.474 85 70 65
0.06678 -0.396591 -0.477 85 70 67
0.0734162 -0.408231 -0.491 87 79 90
0.523866 -0.451466 -0.543 120 97 91
0.513417 -0.438994 -0.528 125 101 97
0.50045 -0.404906 -0.487 176 135 103
0.515983 -0.394097 -0.474 175 128 98
0.524594 -0.392434 -0.472 171 124 94
0.5415 -0.394929 -0.475 157 117 82
0.565843 -0.406569 -0.489 140 105 73
0.81629 -0.469757 -0.565 120 121 115
0.817367 -0.469757 -0.565 122 123 117
0.852416 -0.473083 -0.569 117 120 113
0.857171 -0.473914 -0.57 120 121 115
0.864113 -0.474746 -0.571 114 115 109
-0.03828 -0.338333 -0.406 183 140 108
-0.0324619 -0.334167 -0.401 183 140 108
-0.0285714 -0.333333 -0.4 189 144 113
0.0137333 -0.343333 -0.412 158 112 88
0.0177429 -0.345 -0.414 152 107 86
0.0242838 -0.348333 -0.418 138 97 79
0.0309467 -0.351667 -0.422 126 90 76
0.0361933 -0.355833 -0.427 113 85 74
0.0398162 -0.359167 -0.431 107 80 73
0.0407314 -0.36 -0.432 108 81 74
0.0417467 -0.361667 -0.434 106 79 72
0.0446343 -0.365 -0.438 99 75 71
0.0583933 -0.384167 -0.461 90 71 65
0.0619543 -0.39 -0.468 88 71 64
0.51439 -0.440833 -0.529 124 100 96
0.501563 -0.419167 -0.503 155 118 100
0.515983 -0.395 -0.474 177 130 100
0.521689 -0.3925 -0.471 174 127 97
0.54036 -0.395 -0.474 156 115 85
0.54536 -0.396667 -0.476 152 113 84
0.554753 -0.400833 -0.481 148 111 82
0.803029 -0.47 -0.564 104 103 99
0.81702 -0.4725 -0.567 116 117 111
0.842662 -0.474167 -0.569 118 119 111
0.862358 -0.476667 -0.572 122 123 115
-0.0584371 -0.453534 -0.543 181 140 110
-0.0179495 -0.33493 -0.401 188 143 110
0.0217905 -0.347459 -0.416 143 102 84
0.0242838 -0.34913 -0.418 138 97 79
0.0456762 -0.367505 -0.44 99 74 67
0.0632486 -0.393397 -0.471 85 69 69
0.06946 -0.40342 -0.483 78 69 70
0.51439 -0.441841 -0.529 124 100 96
0.51058 -0.435159 -0.521 133 103 95
0.50186 -0.40342 -0.483 175 135 99
0.506529 -0.398409 -0.477 177 132 99
0.5203 -0.395068 -0.473 175 130 99
0.641625 -0.452699 -0.542 197 200 189
0.818818 -0.47525 -0.569 103 102 97
0.823153 -0.47525 -0.569 122 121 116
0.830362 -0.474415 -0.568 117 118 110
0.843449 -0.476921 -0.571 120 121 115
0.880887 -0.481932 -0.577 124 127 116
-0.0381857 -0.339043 -0.405 181 141 105
-0.02546 -0.33402 -0.399 191 148 114
-0.0164219 -0.335694 -0.401 183 138 105
-0.00957143 -0.336531 -0.402 178 131 101
0.0129486 -0.344903 -0.412 158 110 88
0.0201571 -0.347414 -0.415 146 101 82
0.0209476 -0.347414 -0.415 146 101 82
0.03102 -0.354111 -0.423 124 90 78
0.0389952 -0.360809 -0.431 104 79 72
0.0551543 -0.381737 -0.456 87 69 65
0.0645543 -0.396806 -0.474 84 70 67
0.509609 -0.434477 -0.519 132 109 95
0.500476 -0.418571 -0.5 161 118 99
0.4998 -0.4102 -0.49 169 133 99
0.499523 -0.407689 -0.487 172 133 100
0.503314 -0.401829 -0.48 175 132 100
0.506529 -0.399317 -0.477 175 130 97
0.520998 -0.395131 -0.472 172 127 96
0.530429 -0.393457 -0.47 168 123 92
0.533351 -0.394294 -0.471 157 112 81
0.820609 -0.478009 -0.571 102 101 96
0.8322 -0.477171 -0.57 119 120 114
0.85444 -0.48052 -0.574 117 118 113
0.881312 -0.483869 -0.578 109 112 103
-0.0372295 -0.338136 -0.403 184 144 108
-0.0356057 -0.337297 -0.402 184 144 108
-0.0332257 -0.336458 -0.401 185 142 107
-0.0156581 -0.336458 -0.401 183 138 105
-0.00346286 -0.338975 -0.404 173 126 96
0.00426381 -0.341492 -0.407 169 123 97
0.0193667 -0.348205 -0.415 147 102 81
0.0456762 -0.369181 -0.44 96 76 69
0.0498086 -0.375054 -0.447 90 71 65
0.0633829 -0.39603 -0.472 84 69 66
0.5249 -0.455603 -0.543 115 94 93
0.503646 -0.426236 -0.508 145 109 95
0.500186 -0.415329 -0.495 162 120 95
0.499966 -0.412811 -0.492 164 125 94
0.50728 -0.399387 -0.476 180 135 102
0.514177 -0.397709 -0.474 177 132 99
0.524162 -0.394352 -0.47 169 124 91
0.823483 -0.480774 -0.573 96 95 91
0.830031 -0.480774 -0.573 120 119 114
0.867291 -0.483291 -0.576 78 80 77
0.87168 -0.483291 -0.576 119 121 118
0.872777 -0.483291 -0.576 106 108 103
0.87911 -0.48497 -0.578 101 103 98
-0.02622 -0.33554 -0.399 187 144 110
-0.0253962 -0.334699 -0.398 184 141 107
-0.0231219 -0.334699 -0.398 179 136 102
-0.01938 -0.33554 -0.399 183 138 105
-0.0133667 -0.337222 -0.401 183 136 106
0.0344857 -0.358246 -0.426 115 82 75
0.0508867 -0.377588 -0.449 90 71 67
0.062219 -0.395248 -0.47 85 72 66
0.0712543 -0.411226 -0.489 72 67 71
0.509588 -0.438136 -0.521 126 102 90
0.501563 -0.422999 -0.503 155 114 96
0.499885 -0.412908 -0.491 166 125 97
0.499711 -0.411226 -0.489 172 128 101
0.499523 -0.409544 -0.487 174 130 103
0.503949 -0.401975 -0.478 181 136 105
0.504711 -0.401134 -0.477 180 135 104
0.50728 -0.400293 -0.476 180 135 102
0.508024 -0.399452 -0.475 180 135 102
0.532219 -0.395248 -0.47 163 118 87
0.643532 -0.454955 -0.541 181 182 176
0.646946 -0.456637 -0.543 181 182 176
0.833667 -0.482707 -0.574 118 119 114
0.836947 -0.482707 -0.574 123 126 119
0.846071 -0.483548 -0.575 109 110 104
0.853738 -0.483548 -0.575 103 104 98
0.858514 -0.484389 -0.576 98 99 93
0.872505 -0.48607 -0.578 113 115 110
0.87911 -0.48607 -0.578 96 99 92
-0.032381 -0.337143 -0.4 184 144 108
-0.02926 -0.3363 -0.399 188 145 110
-0.0269124 -0.335457 -0.398 184 144 108
-0.016381 -0.337143 -0.4 184 139 106
-0.0148943 -0.337986 -0.401 180 135 104
-0.0141305 -0.337986 -0.401 181 134 104
-0.0133667 -0.337986 -0.401 181 134 104
0.03538 -0.3599 -0.427 109 82 75
0.03718 -0.361586 -0.429 105 80 75
0.520175 -0.451771 -0.536 116 98 94
0.5125 -0.4425 -0.525 119 101 89
0.503686 -0.429857 -0.51 139 107 92
0.500251 -0.418057 -0.496 159 119 94
0.500043 -0.415529 -0.493 167 123 98
0.501353 -0.403729 -0.479 173 128 99
0.502128 -0.402886 -0.478 175 130 99
0.503038 -0.402886 -0.478 177 132 101
0.50728 -0.4012 -0.476 181 136 103
0.509833 -0.400357 -0.475 177 133 98
0.544626 -0.398671 -0.473 152 111 79
0.563745 -0.407943 -0.484 147 106 74
0.836214 -0.484643 -0.575 121 117 114
0.8395 -0.484643 -0.575 125 126 121
0.843154 -0.485486 -0.576 97 102 96
0.855223 -0.485486 -0.576 104 105 99
0.872505 -0.487171 -0.578 116 118 113
-0.0465771 -0.35311 -0.418 181 142 111
-0.0432371 -0.345508 -0.409 183 140 106
-0.0126029 -0.33875 -0.401 177 132 101
-0.00957143 -0.339594 -0.402 174 129 98
-0.00575714 -0.340439 -0.403 175 128 100
0.00582857 -0.344663 -0.408 165 118 92
0.0259381 -0.353955 -0.419 127 89 76
0.041939 -0.368316 -0.436 101 77 73
0.0448381 -0.371695 -0.44 94 75 71
0.0553962 -0.386901 -0.458 88 73 70
0.0635171 -0.399572 -0.473 85 71 68
0.513476 -0.444345 -0.526 119 100 86
0.502266 -0.404641 -0.479 173 128 97
0.503038 -0.403796 -0.478 175 130 99
0.509833 -0.401262 -0.475 179 135 100
0.518997 -0.397883 -0.471 175 129 96
0.551707 -0.402107 -0.476 153 112 80
0.553774 -0.402951 -0.477 150 109 77
0.56025 -0.40633 -0.481 148 107 77
0.640989 -0.454482 -0.538 149 144 138
0.835752 -0.489962 -0.58 26 27 22
0.84864 -0.486583 -0.576 98 99 93
0.870303 -0.488272 -0.578 83 85 82
0.878426 -0.489117 -0.579 88 90 85
0.885887 -0.490807 -0.581 50 52 47
-0.0431314 -0.34544 -0.408 183 143 108
-0.0421467 -0.343747 -0.406 182 142 107
-0.0412714 -0.3429 -0.405 181 141 106
-0.036281 -0.339513 -0.401 183 144 105
-0.0171 -0.33782 -0.399 183 138 105
-0.0110752 -0.339513 -0.401 179 132 102
0.00738286 -0.34544 -0.408 158 111 85
0.0137333 -0.348827 -0.412 151 104 86
0.0169543 -0.35052 -0.414 148 102 86
0.0185762 -0.351367 -0.415 145 99 84
0.0372667 -0.364067 -0.43 101 80 75
0.0390857 -0.36576 -0.432 98 77 74
0.041939 -0.369147 -0.436 97 78 74
0.501633 -0.427567 -0.505 148 109 92
0.500476 -0.423333 -0.5 154 113 95
0.500133 -0.409787 -0.484 172 128 99
0.50562 -0.40386 -0.477 178 133 102
0.507119 -0.402167 -0.475 176 130 97
0.511469 -0.40132 -0.474 181 135 102
0.525497 -0.39624 -0.468 171 125 92
0.839476 -0.489373 -0.578 122 121 117
0.846816 -0.488527 -0.577 98 99 94
0.849737 -0.48768 -0.576 90 91 85
0.855609 -0.488527 -0.577 101 102 96
0.881048 -0.491067 -0.58 57 60 53
0.00270667 -0.34452 -0.406 166 118 95
0.00503905 -0.345369 -0.407 163 115 93
0.01534 -0.35046 -0.413 149 103 87
0.0285352 -0.358097 -0.422 125 90 84
0.0319762 -0.360643 -0.425 117 84 79
0.0428676 -0.370826 -0.437 95 76 72
0.04494 -0.37422 -0.441 93 75 73
0.0488476 -0.378463 -0.446 87 72 69
0.0688238 -0.411557 -0.485 84 73 71
0.50964 -0.473503 -0.558 42 78 140
0.517346 -0.450591 -0.531 113 97 82
0.501522 -0.425983 -0.502 152 111 91
0.504711 -0.404769 -0.477 179 134 103
0.517203 -0.399677 -0.471 176 131 100
0.517 -0.398829 -0.47 175 130 99
0.519686 -0.398829 -0.47 179 132 102
0.525264 -0.396283 -0.467 172 125 95
0.527932 -0.396283 -0.467 168 121 91
0.54823 -0.401374 -0.473 157 114 79
0.64526 -0.45738 -0.539 101 98 93
0.840171 -0.492171 -0.58 122 122 120
0.853411 -0.489626 -0.577 71 72 66
0.861883 -0.491323 -0.579 105 106 100
0.890461 -0.495566 -0.584 46 48 43
-0.0447952 -0.347845 -0.409 184 144 108
-0.0411695 -0.343592 -0.404 184 143 111
-0.0337352 -0.33849 -0.398 185 146 107
-0.0245762 -0.337639 -0.397 186 143 108
-0.00269333 -0.343592 -0.404 175 128 100
0.00660571 -0.346994 -0.408 160 112 92
0.0129486 -0.350396 -0.412 152 103 86
0.01534 -0.351247 -0.413 147 101 85
0.0328629 -0.362303 -0.426 113 82 77
0.0420352 -0.371658 -0.437 95 74 69
0.0689657 -0.413331 -0.486 80 76 77
0.482203 -0.473715 -0.557 139 157 181
0.485386 -0.473715 -0.557 196 204 217
0.506451 -0.474566 -0.558 51 87 135
0.50964 -0.474566 -0.558 54 87 140
0.516153 -0.473715 -0.557 133 138 144
0.502128 -0.406528 -0.478 178 133 102
0.506214 -0.403976 -0.475 176 130 97
0.506954 -0.403126 -0.474 178 132 99
0.530601 -0.397172 -0.467 162 118 83
0.54707 -0.401425 -0.472 157 112 79
0.54797 -0.401425 -0.472 157 112 79
0.557409 -0.405677 -0.477 143 108 80
0.643889 -0.456706 -0.537 99 96 89
0.864476 -0.493276 -0.58 114 115 109
-0.0455743 -0.348624 -0.409 183 143 108
-0.0298695 -0.338395 -0.397 192 150 112
-0.0260229 -0.337543 -0.396 189 147 109
-0.00802 -0.341805 -0.401 175 128 98
-0.00725619 -0.341805 -0.401 174 127 97
-0.000385714 -0.345214 -0.405 169 122 94
0.00193333 -0.346067 -0.406 161 114 88
0.0302143 -0.360557 -0.423 119 86 79
0.0420352 -0.37249 -0.437 94 73 68
0.0469371 -0.378457 -0.444 91 72 68
0.07632 -0.4296 -0.504 142 165 197
0.493697 -0.475629 -0.558 172 172 174
0.501137 -0.475629 -0.558 127 132 136
0.516017 -0.475629 -0.558 161 163 162
0.517346 -0.452614 -0.531 117 98 91
0.51156 -0.444943 -0.522 122 102 93
0.503668 -0.433862 -0.509 138 105 88
0.50002 -0.4117 -0.483 176 131 100
0.509489 -0.403176 -0.473 174 128 95
0.517687 -0.399767 -0.469 180 134 101
0.524374 -0.398062 -0.467 173 127 94
0.525027 -0.39721 -0.466 169 125 90
0.526802 -0.39721 -0.466 167 123 88
0.53124 -0.39721 -0.466 163 117 81
0.541807 -0.399767 -0.469 160 115 82
-0.0444667 -0.34684 -0.406 184 144 109
-0.0435857 -0.345986 -0.405 183 143 108
-0.0306257 -0.339151 -0.397 188 146 108
-0.0267771 -0.338297 -0.396 188 146 108
-0.0260229 -0.338297 -0.396 187 145 107
-0.0223076 -0.339151 -0.397 181 137 102
-0.020039 -0.339151 -0.397 182 138 103
-0.01482 -0.34086 -0.399 179 132 102
-0.00269333 -0.345131 -0.404 170 125 96
0.044 -0.375886 -0.44 93 74 68
0.458038 -0.474983 -0.556 203 213 223
0.495647 -0.477546 -0.559 171 168 177
0.524758 -0.474983 -0.556 149 151 150
0.499885 -0.419454 -0.491 163 122 94
0.499211 -0.413474 -0.484 174 131 99
0.508588 -0.404077 -0.473 178 132 98
0.512717 -0.402369 -0.471 175 129 95
0.513614 -0.402369 -0.471 176 130 96
0.51521 -0.401514 -0.47 176 130 94
0.518366 -0.399806 -0.468 179 133 99
0.524139 -0.398097 -0.466 169 125 90
0.545648 -0.401514 -0.47 156 113 81
0.843407 -0.498049 -0.583 70 70 68
0.843833 -0.49634 -0.581 120 119 117
0.843486 -0.495486 -0.58 122 118 117
0.850854 -0.494631 -0.579 101 102 96
0.862647 -0.49634 -0.581 102 103 98
0.891681 -0.501466 -0.587 97 100 93
-0.0392381 -0.342476 -0.4 187 145 105
-0.03762 -0.34162 -0.399 187 145 105
-0.0336505 -0.339908 -0.397 187 145 107
-0.0185733 -0.340764 -0.398 185 139 105
-0.0110476 -0.342476 -0.4 176 130 97
-0.0042219 -0.345045 -0.403 172 126 93
0.0113238 -0.351038 -0.41 153 106 88
0.0373533 -0.369018 -0.431 102 79 73
0.0640543 -0.408403 -0.477 86 68 64
0.0652352 -0.410115 -0.479 80 69 73
0.0706105 -0.42039 -0.491 178 192 218
0.446389 -0.476042 -0.556 71 103 160
0.46651 -0.476042 -0.556 121 141 174
0.480081 -0.476898 -0.557 138 151 160
0.496711 -0.47861 -0.559 181 178 185
0.512683 -0.47861 -0.559 163 163 161
0.525817 -0.476042 -0.556 135 135 133
0.51156 -0.446931 -0.522 120 100 89
0.507646 -0.441794 -0.516 131 103 92
0.500116 -0.422958 -0.494 159 114 93
0.499966 -0.421246 -0.492 161 120 90
0.500571 -0.410971 -0.48 171 126 95
0.502128 -0.409259 -0.478 177 132 99
0.506051 -0.405834 -0.474 176 130 96
0.510026 -0.403266 -0.471 174 128 92
0.515007 -0.401553 -0.469 174 129 90
0.522595 -0.399841 -0.467 175 129 93
0.527443 -0.398129 -0.465 166 124 86
0.548603 -0.403266 -0.471 148 107 75
0.844517 -0.499159 -0.583 86 88 85
0.847153 -0.497447 -0.581 124 120 119
0.851219 -0.49659 -0.58 105 107 104
0.864131 -0.498303 -0.582 106 107 102
-0.0417314 -0.344954 -0.402 188 144 107
-0.01558 -0.34238 -0.399 177 131 98
-0.01482 -0.34238 -0.399 178 132 99
0.0169543 -0.355251 -0.414 137 97 85
0.0177857 -0.35611 -0.415 136 96 84
0.0490667 -0.384427 -0.448 90 69 68
0.0512267 -0.387859 -0.452 89 70 72
0.0523181 -0.389575 -0.454 88 69 71
0.435014 -0.476243 -0.555 80 98 136
0.439243 -0.476243 -0.555 68 97 157
0.456979 -0.477101 -0.556 169 173 176
0.47988 -0.478817 -0.558 186 186 186
0.499175 -0.423899 -0.494 156 114 92
0.510923 -0.404163 -0.471 178 132 98
0.517474 -0.401589 -0.468 180 134 98
0.521476 -0.399872 -0.466 175 131 94
0.566132 -0.411028 -0.479 139 102 76
0.569412 -0.412744 -0.481 135 98 72
0.847503 -0.499411 -0.582 119 117 118
0.895526 -0.509709 -0.594 122 127 123
-0.03914 -0.34314 -0.399 184 145 104
-0.0335657 -0.34056 -0.396 187 145 105
-0.02904 -0.34056 -0.396 185 146 107
-0.020039 -0.34142 -0.397 181 137 102
-0.000384762 -0.34744 -0.404 163 117 93
0.00270667 -0.34916 -0.406 159 113 90
0.00582857 -0.35088 -0.408 157 110 92
0.00660571 -0.35088 -0.408 156 109 91
0.0218952 -0.35948 -0.418 132 94 81
0.0268638 -0.36206 -0.421 122 88 78
0.0311667 -0.3655 -0.425 112 84 73
0.0441 -0.37926 -0.441 94 73 68
0.05134 -0.38958 -0.453 90 70 71
0.06804 -0.41796 -0.486 105 107 128
0.470532 -0.47902 -0.557 188 190 189
0.518496 -0.48418 -0.563 138 137 135
0.521857 -0.48332 -0.562 132 131 129
0.527824 -0.47902 -0.557 105 101 100
0.504637 -0.43774 -0.509 136 109 92
0.499029 -0.42312 -0.492 158 117 89
0.500698 -0.41366 -0.481 171 126 95
0.50531 -0.4085 -0.475 178 132 98
0.506954 -0.40764 -0.474 180 134 100
0.506786 -0.40678 -0.473 180 134 100
0.51021 -0.40592 -0.472 177 131 97
0.517474 -0.40248 -0.468 181 135 99
0.526309 -0.39904 -0.464 171 127 92
0.52896 -0.39904 -0.464 164 121 87
-0.0222514 -0.341314 -0.396 184 140 103
-0.0110476 -0.344762 -0.4 178 132 99
0.000385714 -0.349071 -0.405 162 115 87
0.0113514 -0.354243 -0.411 143 100 84
0.01534 -0.355967 -0.413 140 98 84
0.0244 -0.362 -0.42 126 90 76
0.0260619 -0.362862 -0.421 123 89 77
0.0431619 -0.379238 -0.44 95 74 69
0.0502543 -0.388719 -0.451 90 71 67
0.0570057 -0.399924 -0.464 88 70 60
0.424733 -0.477495 -0.554 186 188 187
0.433957 -0.478357 -0.555 197 195 198
0.440034 -0.479219 -0.556 197 193 194
0.454861 -0.479219 -0.556 195 195 195
0.46735 -0.480081 -0.557 193 193 191
0.4848 -0.482667 -0.56 175 174 180
0.519262 -0.486976 -0.565 119 118 116
0.52493 -0.485252 -0.563 99 98 96
0.527709 -0.480943 -0.558 82 78 77
0.528885 -0.480081 -0.557 76 72 71
0.501477 -0.431814 -0.501 144 109 89
0.500371 -0.429229 -0.498 146 111 89
0.500313 -0.428367 -0.497 148 113 91
0.500821 -0.415438 -0.482 167 124 90
0.51021 -0.406819 -0.472 179 133 100
0.518148 -0.40251 -0.467 179 135 98
0.519037 -0.40251 -0.467 178 134 97
0.553089 -0.405957 -0.471 140 105 75
0.561405 -0.409405 -0.475 147 103 74
-0.0476771 -0.35157 -0.407 179 139 103
-0.0466714 -0.349843 -0.405 180 140 104
-0.0390419 -0.343796 -0.398 186 142 105
-0.0170143 -0.342932 -0.397 182 136 102
-0.00649238 -0.346388 -0.401 170 124 91
0.0260619 -0.363664 -0.421 123 87 71
0.0492857 -0.388714 -0.45 90 71 65
0.0503657 -0.390442 -0.452 89 70 64
0.0525486 -0.393897 -0.456 89 69 71
0.440034 -0.480278 -0.556 195 196 190
0.447191 -0.481142 -0.557 193 198 191
0.502545 -0.490644 -0.568 134 129 133
0.52542 -0.48978 -0.567 81 79 82
0.529719 -0.48287 -0.559 55 53 54
0.517381 -0.457819 -0.53 116 96 85
0.506649 -0.443134 -0.513 128 101 90
0.501429 -0.431905 -0.5 145 110 90
0.503038 -0.412901 -0.478 176 132 97
0.503653 -0.411173 -0.476 173 128 95
0.50456 -0.411173 -0.476 174 128 94
0.508411 -0.407718 -0.472 172 126 92
0.520765 -0.399944 -0.463 173 127 93
0.543944 -0.403399 -0.467 156 111 78
-0.0358286 -0.342823 -0.396 187 143 106
-0.0319762 -0.341957 -0.395 191 147 108
-0.0289667 -0.341957 -0.395 187 143 104
0.00660571 -0.353211 -0.408 157 109 86
0.0244 -0.3636 -0.42 125 89 75
0.0260619 -0.364466 -0.421 121 88 73
0.0286029 -0.366197 -0.423 118 88 77
0.0393571 -0.376586 -0.435 93 73 66
0.413126 -0.479606 -0.554 195 196 191
0.454618 -0.482203 -0.557 178 176 177
0.460984 -0.482203 -0.557 174 182 171
0.468189 -0.483069 -0.558 172 171 169
0.472222 -0.483934 -0.559 171 169 172
0.478186 -0.485666 -0.561 161 164 169
0.479254 -0.485666 -0.561 158 163 167
0.508263 -0.495189 -0.572 96 91 88
0.52935 -0.486531 -0.562 46 46 48
0.530784 -0.483934 -0.559 42 42 44
0.522169 -0.464889 -0.537 103 88 81
0.500313 -0.43026 -0.497 150 112 89
0.506214 -0.411214 -0.475 179 135 100
0.514113 -0.40602 -0.469 174 128 95
0.520122 -0.401691 -0.464 172 126 92
0.520765 -0.400826 -0.463 172 126 92
0.521647 -0.400826 -0.463 172 126 92
-0.0405581 -0.345312 -0.398 185 143 103
0.01534 -0.358327 -0.413 138 99 84
0.0423238 -0.381752 -0.44 94 75 69
0.0433581 -0.383488 -0.442 92 74 70
0.054881 -0.399972 -0.461 88 68 67
0.0595333 -0.407781 -0.47 85 68 60
0.0608143 -0.410384 -0.473 74 63 59
0.0632781 -0.414722 -0.478 75 65 63
0.389207 -0.479793 -0.553 185 191 187
0.400793 -0.479793 -0.553 188 192 195
0.4181 -0.481529 -0.555 190 190 192
0.438704 -0.483264 -0.557 188 179 182
0.444806 -0.484131 -0.558 178 176 179
0.445869 -0.484131 -0.558 176 174 177
0.463937 -0.484131 -0.558 156 155 160
0.478594 -0.489337 -0.564 148 142 146
0.535613 -0.501484 -0.578 55 53 56
0.533129 -0.483264 -0.557 43 41 46
0.501429 -0.43381 -0.5 145 110 90
0.49818 -0.41906 -0.483 166 125 93
0.503803 -0.413854 -0.477 173 128 95
0.504405 -0.412119 -0.475 174 130 95
0.506214 -0.412119 -0.475 178 134 99
0.513909 -0.406046 -0.468 175 129 96
0.517038 -0.40431 -0.466 178 132 99
0.534875 -0.401708 -0.463 163 120 86
0.546612 -0.405178 -0.467 155 112 77
0.555495 -0.407781 -0.47 138 103 73
0.559657 -0.409516 -0.472 133 100 69
0.562354 -0.409516 -0.472 131 100 69
-0.0689143 -0.466065 -0.536 181 141 105
-0.0503714 -0.356505 -0.41 182 142 106
-0.0482143 -0.352157 -0.405 181 141 105
-0.0380914 -0.344331 -0.396 188 146 106
-0.0357381 -0.343462 -0.395 188 146 106
-0.0303943 -0.342592 -0.394 189 147 107
-0.0177705 -0.345201 -0.397 181 132 99
-0.0087619 -0.34781 -0.4 172 126 93
-0.00268667 -0.350418 -0.403 161 115 89
0.0105429 -0.356505 -0.41 144 101 84
0.0218952 -0.363461 -0.418 125 91 79
0.0537686 -0.399111 -0.459 87 69 67
0.3555 -0.480847 -0.553 189 188 193
0.356553 -0.480847 -0.553 188 187 192
0.367087 -0.480847 -0.553 192 193 197
0.381833 -0.480847 -0.553 192 192 194
0.3871 -0.480847 -0.553 194 193 198
0.395527 -0.480847 -0.553 196 197 199
0.415986 -0.482586 -0.555 182 182 184
0.445869 -0.485194 -0.558 163 161 164
0.479443 -0.491281 -0.565 108 106 109
0.496054 -0.498237 -0.573 87 85 86
0.5145 -0.4565 -0.525 121 98 82
0.508624 -0.447805 -0.515 127 99 85
0.50662 -0.444327 -0.511 129 100 84
0.504554 -0.439979 -0.506 141 106 87
0.499903 -0.41911 -0.482 168 125 91
0.500571 -0.417371 -0.48 170 127 92
0.504711 -0.414763 -0.477 173 130 96
0.506214 -0.413024 -0.475 175 130 97
0.508411 -0.410415 -0.472 175 129 96
0.515479 -0.406068 -0.467 181 135 101
0.517038 -0.405198 -0.466 178 132 98
0.518586 -0.404329 -0.465 176 130 96
0.5258 -0.40172 -0.462 170 124 91
0.551349 -0.406937 -0.468 147 109 73
-0.0463257 -0.350314 -0.402 186 144 106
-0.0155019 -0.345957 -0.397 180 131 98
-0.00191905 -0.351186 -0.403 150 104 80
0.018621 -0.362514 -0.416 135 96 81
0.0202543 -0.363386 -0.417 132 93 78
0.05168 -0.397371 -0.456 87 69 67
0.0622371 -0.415671 -0.477 78 66 66
0.06874 -0.427871 -0.491 119 148 188
0.351287 -0.4819 -0.553 188 188 190
0.355088 -0.482771 -0.554 187 188 190
0.362873 -0.4819 -0.553 189 190 192
0.38991 -0.482771 -0.554 186 186 186
0.402573 -0.482771 -0.554 178 180 177
0.419157 -0.483643 -0.555 170 168 171
0.420214 -0.483643 -0.555 167 165 168
0.422329 -0.483643 -0.555 163 161 164
0.442409 -0.487129 -0.559 136 134 137
0.455434 -0.486257 -0.558 106 104 107
0.476446 -0.491486 -0.564 79 77 82
0.501196 -0.432229 -0.496 146 114 91
0.498595 -0.424386 -0.487 156 117 88
0.498067 -0.420029 -0.482 167 124 92
0.500441 -0.417414 -0.479 170 125 92
0.502266 -0.417414 -0.479 175 130 97
0.503803 -0.415671 -0.477 172 127 94
0.528174 -0.401729 -0.461 165 119 86
0.529052 -0.401729 -0.461 164 119 86
0.530809 -0.401729 -0.461 164 119 86
-0.0686571 -0.46636 -0.534 182 142 106
-0.0295686 -0.34322 -0.393 187 141 105
-0.0273924 -0.344093 -0.394 188 142 106
-0.0266419 -0.344093 -0.394 186 140 104
-0.0258914 -0.344093 -0.394 184 138 102
0.00503905 -0.355447 -0.407 154 107 87
0.00660571 -0.35632 -0.408 150 103 83
0.0236 -0.3668 -0.42 123 89 79
0.02526 -0.367673 -0.421 119 87 76
0.0414857 -0.384267 -0.44 92 73 67
0.0597867 -0.412213 -0.472 81 65 65
0.0623676 -0.417453 -0.478 79 67 69
0.0661886 -0.42444 -0.486 169 172 189
0.32063 -0.481207 -0.551 181 180 185
0.354032 -0.483827 -0.554 186 186 184
0.36353 -0.483827 -0.554 188 190 189
0.371971 -0.483827 -0.554 183 183 185
0.406145 -0.485573 -0.556 167 167 167
0.407204 -0.485573 -0.556 163 163 163
0.412499 -0.485573 -0.556 156 154 157
0.419912 -0.485573 -0.556 144 139 145
0.426267 -0.485573 -0.556 130 125 131
0.453056 -0.488193 -0.559 81 78 85
0.457315 -0.488193 -0.559 71 69 74
0.463467 -0.489067 -0.56 68 65 72
0.474297 -0.49256 -0.564 61 58 65
0.485622 -0.498673 -0.571 60 57 64
0.505577 -0.510027 -0.584 58 57 63
0.505581 -0.443653 -0.508 132 103 85
0.502381 -0.436667 -0.5 139 107 86
0.500043 -0.430553 -0.493 148 112 88
0.499966 -0.42968 -0.492 150 114 88
0.499885 -0.428807 -0.491 151 115 89
0.498497 -0.42444 -0.486 157 118 89
0.499657 -0.4192 -0.48 170 127 93
0.501217 -0.417453 -0.478 173 128 95
0.50531 -0.414833 -0.475 175 131 96
0.509647 -0.409593 -0.469 178 132 98
0.519001 -0.404353 -0.463 173 127 93
0.529052 -0.402607 -0.461 166 120 86
0.555806 -0.40872 -0.468 138 103 71
0.00270667 -0.355347 -0.406 152 107 84
0.00582857 -0.357097 -0.408 149 104 83
0.0475714 -0.393857 -0.45 86 68 66
0.31853 -0.482256 -0.551 181 179 180
0.327976 -0.482256 -0.551 183 184 188
0.350867 -0.484882 -0.554 183 183 185
0.356786 -0.485757 -0.555 179 181 178
0.3589 -0.485757 -0.555 178 180 177
0.376871 -0.485757 -0.555 170 170 172
0.382846 -0.486632 -0.556 168 168 170
0.410058 -0.487508 -0.557 127 125 128
0.430989 -0.488383 -0.558 87 82 88
0.468333 -0.491884 -0.562 59 56 63
0.507309 -0.51289 -0.586 54 53 59
0.498497 -0.425366 -0.486 158 119 90
0.498395 -0.42449 -0.485 156 117 86
0.511433 -0.410487 -0.469 175 129 95
0.51281 -0.408736 -0.467 178 132 98
0.517237 -0.405235 -0.463 173 127 93
0.535199 -0.403485 -0.461 163 117 81
0.54193 -0.405235 -0.463 156 110 76
0.550768 -0.407861 -0.466 147 107 72
0.551655 -0.407861 -0.466 146 106 71
0.557589 -0.409611 -0.468 138 103 73
-0.0518067 -0.358751 -0.409 182 141 109
-0.0348086 -0.344717 -0.393 189 145 110
-0.0214429 -0.346471 -0.395 179 131 95
0.0097619 -0.359629 -0.41 142 100 78
0.0331714 -0.377171 -0.43 104 82 71
0.0552381 -0.406994 -0.464 86 67 69
0.0563638 -0.408749 -0.466 80 69 67
0.0612 -0.41752 -0.476 74 63 67
0.0638076 -0.422783 -0.482 68 70 82
0.0817267 -0.467517 -0.533 71 106 160
0.322263 -0.484183 -0.552 181 182 186
0.328571 -0.484183 -0.552 183 183 183
0.333829 -0.484183 -0.552 182 183 187
0.354251 -0.487691 -0.556 169 168 173
0.370803 -0.488569 -0.557 160 158 163
0.41292 -0.489446 -0.558 85 83 88
0.444783 -0.492954 -0.562 61 59 64
0.452276 -0.492954 -0.562 59 58 64
0.482359 -0.500849 -0.571 56 55 61
0.516434 -0.463131 -0.528 114 90 80
0.5145 -0.4605 -0.525 116 92 82
0.507611 -0.449097 -0.512 123 100 86
0.498866 -0.421906 -0.481 165 122 88
0.501986 -0.418397 -0.477 167 122 89
0.519393 -0.404363 -0.461 171 125 89
0.525276 -0.403486 -0.46 168 120 80
0.532565 -0.404363 -0.461 166 121 82
0.54752 -0.406994 -0.464 151 108 73
-0.0684 -0.467653 -0.532 180 137 102
-0.0477381 -0.352498 -0.401 184 141 107
-0.0402524 -0.347224 -0.395 187 143 108
-0.03024 -0.344587 -0.392 183 139 104
-0.0095 -0.35074 -0.399 173 124 92
-0.008 -0.351619 -0.4 173 126 96
0.0153771 -0.363926 -0.414 140 99 79
0.0228 -0.3692 -0.42 124 90 80
0.0322771 -0.377111 -0.429 104 80 70
0.0436524 -0.391176 -0.445 89 71 67
0.0564848 -0.410515 -0.467 80 69 67
0.0588876 -0.41491 -0.472 81 66 61
0.337593 -0.486113 -0.553 166 165 170
0.365091 -0.490509 -0.558 150 148 153
0.394837 -0.493146 -0.561 94 91 98
0.400893 -0.494025 -0.562 81 78 85
0.406591 -0.493146 -0.561 66 63 70
0.408729 -0.493146 -0.561 65 62 69
0.429333 -0.492267 -0.56 55 54 60
0.446647 -0.494904 -0.563 57 56 61
0.449864 -0.494904 -0.563 58 57 63
0.461406 -0.495783 -0.564 53 54 59
0.464877 -0.494904 -0.563 53 54 58
0.477418 -0.500178 -0.569 54 53 59
0.482114 -0.502815 -0.572 55 54 60
0.504519 -0.443919 -0.505 127 100 83
0.50126 -0.436887 -0.497 134 106 84
0.501196 -0.436008 -0.496 137 109 87
0.501057 -0.43425 -0.494 146 108 85
0.498866 -0.422822 -0.481 165 122 88
0.53959 -0.405241 -0.461 158 112 76
0.543694 -0.406999 -0.463 154 110 75
0.551357 -0.408757 -0.465 138 102 70
-0.0411086 -0.348857 -0.396 189 145 110
-0.0355571 -0.346214 -0.393 186 140 106
-0.0139895 -0.349738 -0.397 178 129 96
-0.0117505 -0.350619 -0.398 173 124 91
-0.0102343 -0.350619 -0.398 173 124 92
-0.000384762 -0.355905 -0.404 158 111 85
0.0261238 -0.371762 -0.422 115 85 74
0.0313867 -0.377048 -0.428 105 81 71
0.03596 -0.382333 -0.434 96 76 69
0.0387943 -0.385857 -0.438 92 73 66
0.0566057 -0.412286 -0.468 81 66 61
0.0614571 -0.421095 -0.478 76 70 80
0.062759 -0.423738 -0.481 68 62 72
0.293857 -0.484524 -0.55 177 179 178
0.297 -0.484524 -0.55 177 179 178
0.301738 -0.485405 -0.551 185 179 191
0.322375 -0.488048 -0.554 166 168 167
0.32343 -0.488048 -0.554 165 167 166
0.333983 -0.488048 -0.554 162 160 163
0.34472 -0.48981 -0.556 151 151 153
0.347462 -0.49069 -0.557 147 145 148
0.352337 -0.491571 -0.558 143 141 142
0.365333 -0.493333 -0.56 119 117 122
0.373466 -0.494214 -0.561 104 102 107
0.386977 -0.495095 -0.562 76 73 80
0.393028 -0.495976 -0.563 68 65 72
0.430867 -0.495095 -0.562 54 54 62
0.442357 -0.495976 -0.563 54 53 58
0.466529 -0.497738 -0.565 52 51 57
0.508615 -0.45281 -0.514 119 97 83
0.503386 -0.441357 -0.501 132 104 83
0.501057 -0.43519 -0.494 147 109 86
0.498985 -0.424619 -0.482 166 121 92
0.499396 -0.421095 -0.478 166 123 89
0.515473 -0.407881 -0.463 172 126 90
0.51612 -0.407 -0.462 170 124 88
0.517 -0.407 -0.462 169 123 87
0.520895 -0.405238 -0.46 168 123 84
0.534038 -0.405238 -0.46 162 118 81
0.534914 -0.405238 -0.46 162 116 80
0.536667 -0.405238 -0.46 161 115 79
0.552243 -0.409643 -0.465 137 102 72
-0.0514267 -0.35844 -0.406 179 135 100
-0.0449933 -0.350494 -0.397 186 140 106
-0.0410048 -0.348729 -0.395 190 144 110
-0.008 -0.353143 -0.4 173 124 94
-0.0072381 -0.353143 -0.4 170 123 95
0.00503905 -0.359323 -0.407 149 104 81
0.00895905 -0.361089 -0.409 144 102 80
0.021099 -0.369034 -0.418 127 90 71
0.0244581 -0.371683 -0.421 116 87 73
0.0341486 -0.381394 -0.432 96 76 69
0.04074 -0.38934 -0.441 92 71 66
0.0602933 -0.42024 -0.476 80 66 66
0.294391 -0.486454 -0.551 172 171 176
0.306491 -0.487337 -0.552 167 167 165
0.318154 -0.489103 -0.554 160 158 163
0.3293 -0.489986 -0.555 147 145 158
0.373314 -0.497931 -0.564 74 72 77
0.384341 -0.499697 -0.566 62 59 68
0.41491 -0.501463 -0.568 53 54 59
0.420996 -0.499697 -0.566 53 54 59
0.435319 -0.498814 -0.565 51 51 59
0.488272 -0.510291 -0.578 15 15 25
0.51832 -0.46968 -0.532 97 89 86
0.503434 -0.443194 -0.502 129 102 83
0.500307 -0.422006 -0.478 167 122 89
0.501077 -0.421123 -0.477 169 124 91
0.504984 -0.417591 -0.473 174 128 94
0.509451 -0.413177 -0.468 177 131 97
0.515703 -0.409646 -0.464 171 125 89
0.530533 -0.406114 -0.46 167 121 85
-0.050279 -0.356559 -0.403 181 136 103
-0.0332267 -0.346827 -0.392 187 138 105
-0.0309867 -0.346827 -0.392 186 137 104
-0.03024 -0.346827 -0.392 187 138 105
-0.0287467 -0.346827 -0.392 187 138 105
-0.0199381 -0.349481 -0.395 178 129 97
-0.000384762 -0.357444 -0.404 153 107 83
0.00660571 -0.360983 -0.408 149 104 83
0.0145533 -0.365407 -0.413 136 95 75
0.0228 -0.3716 -0.42 120 88 73
0.0388829 -0.38841 -0.439 92 71 68
0.06042 -0.422031 -0.477 80 68 68
0.269271 -0.485734 -0.549 180 180 182
0.271363 -0.485734 -0.549 179 179 181
0.286003 -0.485734 -0.549 172 172 174
0.304389 -0.488389 -0.552 162 160 165
0.306491 -0.488389 -0.552 158 156 161
0.31126 -0.489273 -0.553 154 152 157
0.314989 -0.490158 -0.554 148 146 151
0.340646 -0.493697 -0.558 108 105 112
0.354863 -0.497236 -0.562 84 83 89
0.369248 -0.500775 -0.566 70 67 74
0.37314 -0.50166 -0.567 69 66 73
0.382714 -0.504314 -0.57 65 62 71
0.385971 -0.504314 -0.57 64 61 70
0.391684 -0.506084 -0.572 62 61 69
0.402893 -0.507853 -0.574 63 62 70
0.432855 -0.500775 -0.566 54 55 60
0.433933 -0.500775 -0.566 54 55 60
0.43686 -0.50166 -0.567 55 56 61
0.51832 -0.470693 -0.532 94 86 83
0.498395 -0.42911 -0.485 155 114 84
0.504984 -0.418492 -0.473 174 128 94
0.509451 -0.414069 -0.468 177 131 95
0.513488 -0.412299 -0.466 175 129 93
0.514157 -0.411414 -0.465 177 131 95
0.514819 -0.41053 -0.464 172 126 90
0.515473 -0.409645 -0.463 172 126 90
0.525883 -0.406106 -0.459 169 124 85
0.528506 -0.406106 -0.459 167 121 85
0.5434 -0.40876 -0.462 154 111 76
-0.017681 -0.350233 -0.395 176 127 95
-0.0154629 -0.35112 -0.396 173 124 92
-0.000384762 -0.358213 -0.404 152 107 84
0.0105429 -0.363533 -0.41 140 97 78
0.01946 -0.36974 -0.417 128 91 73
0.0228 -0.3724 -0.42 118 86 71
0.0469219 -0.400773 -0.452 88 70 70
0.0511457 -0.40698 -0.459 87 69 69
0.277095 -0.487667 -0.55 167 169 168
0.317755 -0.493873 -0.557 120 117 124
0.337134 -0.49742 -0.561 85 82 89
0.34968 -0.50008 -0.564 69 66 73
0.431898 -0.504513 -0.569 42 41 47
0.503182 -0.419393 -0.473 171 125 92
0.50554 -0.41762 -0.471 171 125 92
0.513935 -0.411413 -0.464 173 127 91
0.520637 -0.40698 -0.459 168 123 84
-0.0332267 -0.34832 -0.392 185 139 106
-0.0287467 -0.34832 -0.392 185 136 103
-0.0265743 -0.349209 -0.393 182 133 103
-0.02358 -0.349209 -0.393 180 131 99
-0.0198876 -0.350097 -0.394 176 129 99
-0.0162171 -0.351874 -0.396 169 122 92
0.0245162 -0.374977 -0.422 118 86 73
0.0288733 -0.37942 -0.427 105 81 71
0.0418629 -0.394526 -0.444 91 72 68
0.256723 -0.487826 -0.549 168 170 169
0.258814 -0.487826 -0.549 164 166 165
0.272905 -0.488714 -0.55 156 156 156
0.279698 -0.489603 -0.551 155 155 157
0.280748 -0.489603 -0.551 153 153 155
0.284946 -0.489603 -0.551 148 147 153
0.30024 -0.494046 -0.556 124 121 128
0.305024 -0.494934 -0.557 120 114 124
0.314074 -0.495823 -0.558 100 97 104
0.5145 -0.4665 -0.525 107 93 84
0.502269 -0.442509 -0.498 136 105 84
0.499523 -0.432734 -0.487 148 111 85
0.499529 -0.425626 -0.479 163 119 90
0.500933 -0.42296 -0.476 166 123 91
0.510142 -0.414963 -0.467 174 128 94
0.512168 -0.412297 -0.464 176 130 94
0.51371 -0.411409 -0.463 173 127 93
0.515003 -0.409631 -0.461 167 121 87
0.515638 -0.408743 -0.46 175 129 93
0.516514 -0.408743 -0.46 174 128 92
0.520375 -0.406966 -0.458 169 124 85
0.531129 -0.407854 -0.459 164 118 82
0.543102 -0.409631 -0.461 155 112 80
0.54692 -0.41052 -0.462 138 101 74
0.551631 -0.411409 -0.463 134 98 72
-0.0287467 -0.349067 -0.392 183 134 102
-0.0258257 -0.349957 -0.393 179 133 97
-0.0213886 -0.350848 -0.394 178 131 101
0.0236562 -0.37489 -0.421 115 85 74
0.0409248 -0.394481 -0.443 91 71 64
0.239991 -0.488871 -0.549 163 163 163
0.255095 -0.489762 -0.55 156 157 159
0.262429 -0.489762 -0.55 153 153 155
0.2755 -0.490652 -0.551 136 134 139
0.286514 -0.491543 -0.552 118 115 122
0.511586 -0.462157 -0.519 114 92 79
0.500169 -0.424757 -0.477 165 121 92
0.50786 -0.417633 -0.469 178 132 99
0.513051 -0.413181 -0.464 174 128 94
0.520375 -0.407838 -0.458 169 125 88
0.54956 -0.4114 -0.462 136 99 72
-0.0488971 -0.355168 -0.398 184 138 105
-0.0346314 -0.348921 -0.391 184 138 104
-0.0331419 -0.348921 -0.391 190 144 108
-0.0309076 -0.348921 -0.391 189 140 107
-0.0301629 -0.348921 -0.391 186 137 104
-0.0294181 -0.348921 -0.391 184 135 102
-0.0139895 -0.354275 -0.397 167 122 93
-0.00647619 -0.356952 -0.4 156 111 88
0.0169952 -0.370338 -0.415 128 91 73
0.0211495 -0.373908 -0.419 122 86 72
0.0570895 -0.421204 -0.472 77 61 64
0.231626 -0.489917 -0.549 158 160 159
0.241476 -0.49081 -0.55 156 156 158
0.277553 -0.493487 -0.553 106 101 108
0.298666 -0.498841 -0.559 76 73 82
0.301871 -0.500626 -0.561 72 69 78
0.30294 -0.500626 -0.561 72 69 78
0.310454 -0.50241 -0.563 67 64 73
0.311527 -0.50241 -0.563 65 62 71
0.313154 -0.503303 -0.564 64 63 71
0.314229 -0.503303 -0.564 63 62 70
0.368271 -0.522043 -0.585 62 62 70
0.369386 -0.522043 -0.585 61 61 69
0.371614 -0.522043 -0.585 58 58 68
0.442207 -0.523828 -0.587 16 16 28
0.512565 -0.464931 -0.521 113 91 78
0.499319 -0.432805 -0.485 151 111 85
0.504815 -0.421204 -0.472 172 127 96
0.505714 -0.421204 -0.472 172 127 96
0.50856 -0.417634 -0.468 178 132 99
0.515003 -0.411388 -0.461 173 127 93
0.528814 -0.407818 -0.457 166 120 84
0.536078 -0.40871 -0.458 162 114 78
-0.0524514 -0.359503 -0.402 182 138 109
-0.05054 -0.35682 -0.399 183 137 103
-0.036121 -0.349666 -0.391 187 141 107
-0.0272533 -0.35056 -0.392 180 132 96
-0.0258257 -0.351454 -0.393 180 131 99
-0.0162171 -0.354137 -0.396 173 127 94
-0.00647619 -0.357714 -0.4 157 112 89
0.0105686 -0.367551 -0.411 139 98 80
0.01946 -0.372917 -0.417 123 89 77
0.0211495 -0.374706 -0.419 120 86 74
0.027119 -0.380071 -0.425 107 80 71
0.0315333 -0.384543 -0.43 101 76 71
0.0343067 -0.38812 -0.434 93 72 67
0.19916 -0.48828 -0.546 166 165 163
0.21372 -0.48828 -0.546 160 160 162
0.2607 -0.49454 -0.553 107 106 112
0.278 -0.497223 -0.556 74 73 79
0.281683 -0.498117 -0.557 73 70 79
0.283805 -0.498117 -0.557 69 66 75
0.288566 -0.499011 -0.558 65 66 71
0.30564 -0.506166 -0.566 63 62 70
0.507611 -0.457874 -0.512 117 94 80
0.506576 -0.455191 -0.509 122 96 81
0.499423 -0.434623 -0.486 151 114 87
0.500307 -0.427469 -0.478 165 121 92
0.510614 -0.415843 -0.465 173 127 93
0.547492 -0.412266 -0.461 142 103 74
-0.04144 -0.351307 -0.392 187 141 107
-0.0399467 -0.351307 -0.392 183 139 104
-0.0301629 -0.35041 -0.391 186 137 104
-0.00496476 -0.359372 -0.401 150 108 84
-0.00191905 -0.361165 -0.403 150 105 82
0.0121638 -0.36923 -0.412 134 96 77
0.0325029 -0.387154 -0.432 97 74 68
0.0371257 -0.392531 -0.438 97 74 68
0.0572105 -0.423898 -0.473 79 64 67
0.1794 -0.48932 -0.546 172 167 173
0.219077 -0.492009 -0.549 154 155 159
0.225762 -0.492905 -0.55 142 143 147
0.237097 -0.494697 -0.552 126 125 131
0.238149 -0.494697 -0.552 123 122 128
0.240687 -0.495593 -0.553 119 118 124
0.24174 -0.495593 -0.553 117 116 122
0.247453 -0.49649 -0.554 109 108 114
0.270012 -0.499178 -0.557 66 66 74
0.273195 -0.499178 -0.557 65 65 73
0.4566 -0.5646 -0.63 7 10 19
0.501196 -0.44451 -0.496 139 104 82
0.499423 -0.435549 -0.486 150 110 84
0.498616 -0.429275 -0.479 155 116 87
0.511284 -0.415832 -0.464 176 130 96
0.52011 -0.409559 -0.457 171 125 91
0.526203 -0.409559 -0.457 167 123 86
0.533167 -0.409559 -0.457 163 117 81
0.535778 -0.409559 -0.457 158 114 79
0.550127 -0.413144 -0.461 138 98 72
-0.0529524 -0.359238 -0.4 185 136 104
-0.0331419 -0.351155 -0.391 188 142 108
-0.0198876 -0.35385 -0.394 177 130 102
-0.0191371 -0.35385 -0.394 176 129 101
-0.0072381 -0.359238 -0.4 156 114 90
-0.000384762 -0.36283 -0.404 149 104 83
0.000384762 -0.36283 -0.404 150 105 84
0.00348 -0.364627 -0.406 146 103 84
0.018621 -0.373608 -0.416 121 89 76
0.046061 -0.405939 -0.452 89 70 66
0.0538162 -0.41941 -0.467 79 59 58
0.193627 -0.492156 -0.548 157 155 158
0.195714 -0.492156 -0.548 151 149 154
0.244729 -0.498443 -0.555 83 82 88
0.258342 -0.500239 -0.557 66 65 71
0.266246 -0.501137 -0.558 62 61 67
0.269917 -0.502035 -0.559 61 60 66
0.413924 -0.556819 -0.62 7 10 17
0.43343 -0.562208 -0.626 6 9 18
0.463371 -0.571189 -0.636 10 10 18
0.465062 -0.57029 -0.635 11 11 19
0.505551 -0.455334 -0.507 121 95 82
0.502269 -0.447251 -0.498 139 104 82
0.499211 -0.434678 -0.484 147 110 84
0.4991 -0.43378 -0.483 148 111 85
0.500169 -0.428391 -0.477 163 119 90
0.500027 -0.427493 -0.476 163 119 90
0.512168 -0.416716 -0.464 175 129 95
0.51348 -0.41492 -0.462 174 128 94
0.550686 -0.413124 -0.46 140 101 72
-0.0405895 -0.3519 -0.391 186 142 107
-0.0368657 -0.3519 -0.391 186 140 106
-0.0301629 -0.3519 -0.391 184 138 104
-0.0198876 -0.3546 -0.394 178 131 103
-0.0191371 -0.3546 -0.394 177 130 102
-0.0183867 -0.3546 -0.394 172 125 97
-0.0147086 -0.3564 -0.396 169 122 96
-0.0117505 -0.3582 -0.398 164 118 94
-0.0109924 -0.3582 -0.398 165 119 95
-0.00496476 -0.3609 -0.401 151 109 85
0.0306429 -0.3861 -0.429 103 78 71
0.0490743 -0.4104 -0.456 88 69 65
0.134433 -0.4905 -0.545 179 179 179
0.177645 -0.4923 -0.547 156 155 160
0.188751 -0.4941 -0.549 141 140 146
0.211095 -0.495 -0.55 127 124 131
0.223833 -0.4977 -0.553 104 103 108
0.2331 -0.4995 -0.555 85 86 91
0.239443 -0.4995 -0.555 75 74 80
0.24455 -0.5013 -0.557 71 70 78
0.250303 -0.5022 -0.558 71 70 78
0.26554 -0.5049 -0.561 66 66 74
0.270776 -0.5067 -0.563 63 63 71
0.273406 -0.5076 -0.564 65 65 75
0.281922 -0.5094 -0.566 63 63 73
0.398127 -0.5607 -0.623 10 10 22
0.407738 -0.5625 -0.625 11 11 21
0.410119 -0.5625 -0.625 10 10 20
0.451046 -0.5706 -0.634 11 11 21
0.465067 -0.576 -0.64 11 11 23
0.515456 -0.4743 -0.527 79 79 77
0.509605 -0.4635 -0.515 116 92 80
0.505551 -0.4563 -0.507 121 95 82
0.502207 -0.4473 -0.497 140 103 84
0.499619 -0.4392 -0.488 147 110 84
0.499396 -0.4302 -0.478 161 117 90
0.50169 -0.4275 -0.475 168 123 94
0.516886 -0.4122 -0.458 175 129 95
0.519239 -0.4113 -0.457 169 125 88
0.520709 -0.4104 -0.456 170 126 89
0.54013 -0.4113 -0.457 152 109 77
-0.0477762 -0.356252 -0.395 184 139 106
-0.0391 -0.352645 -0.391 186 140 106
-0.0323143 -0.351743 -0.39 183 137 104
-0.0228314 -0.354449 -0.393 178 129 97
-0.0206381 -0.35535 -0.394 178 131 101
-0.0169286 -0.356252 -0.395 171 124 96
-0.000384762 -0.36437 -0.404 150 105 84
0.00426381 -0.367075 -0.407 143 100 81
0.0306429 -0.386917 -0.429 103 78 73
0.037041 -0.394132 -0.437 94 73 68
0.0389714 -0.396838 -0.44 92 73 67
0.042901 -0.40225 -0.446 90 71 67
0.0481 -0.410367 -0.455 88 69 65
0.115535 -0.490636 -0.544 182 184 183
0.129243 -0.491538 -0.545 178 178 178
0.1417 -0.491538 -0.545 172 172 174
0.15756 -0.49244 -0.546 158 158 160
0.16484 -0.49244 -0.546 155 152 159
0.16931 -0.493342 -0.547 147 144 151
0.183523 -0.495146 -0.549 124 121 128
0.187706 -0.495146 -0.549 118 115 124
0.195381 -0.496048 -0.55 103 102 108
0.203451 -0.497851 -0.552 87 87 95
0.204503 -0.497851 -0.552 84 84 92
0.21646 -0.498753 -0.553 87 86 92
0.218567 -0.498753 -0.553 83 82 88
0.230343 -0.501459 -0.556 69 69 77
0.232879 -0.502361 -0.557 65 65 73
0.242233 -0.504165 -0.559 67 65 76
0.248443 -0.505969 -0.561 69 68 76
0.251649 -0.505969 -0.561 66 65 73
0.253168 -0.50687 -0.562 66 64 75
0.260052 -0.507772 -0.563 63 63 71
0.263737 -0.508674 -0.564 64 64 72
0.266357 -0.509576 -0.565 64 64 72
0.268985 -0.510478 -0.566 63 63 73
0.28709 -0.51589 -0.572 63 63 73
0.288179 -0.51589 -0.572 63 63 73
0.296777 -0.519497 -0.576 65 65 77
0.411546 -0.567298 -0.629 10 10 20
0.417 -0.5682 -0.63 10 10 20
0.448327 -0.574513 -0.637 11 11 19
0.452676 -0.575415 -0.638 10 10 18
0.482477 -0.583532 -0.647 11 11 19
0.500982 -0.444639 -0.493 141 105 83
0.498616 -0.432012 -0.479 152 115 86
0.500786 -0.428405 -0.475 163 119 92
0.507669 -0.422091 -0.468 173 126 96
0.50856 -0.422091 -0.468 172 125 95
0.511284 -0.418484 -0.464 173 127 94
0.513247 -0.415778 -0.461 173 127 93
0.516886 -0.413072 -0.458 175 129 95
0.524183 -0.411269 -0.456 166 120 84
0.541001 -0.41217 -0.457 149 108 76
-0.0413343 -0.35339 -0.391 186 140 106
-0.0375143 -0.352486 -0.39 189 143 109
-0.00647619 -0.361524 -0.4 154 109 88
-0.00268 -0.363331 -0.402 151 104 86
0.01298 -0.373273 -0.413 131 95 81
0.0298257 -0.387734 -0.429 102 77 72
0.0361257 -0.394061 -0.436 93 72 69
0.0380467 -0.396772 -0.439 92 73 69
0.1199 -0.492576 -0.545 172 171 176
0.129243 -0.492576 -0.545 169 170 172
0.14092 -0.49348 -0.546 160 159 164
0.203133 -0.50071 -0.554 70 68 79
0.245039 -0.508845 -0.563 65 65 75
0.246111 -0.508845 -0.563 64 64 74
0.257126 -0.511556 -0.566 62 65 74
0.2619 -0.51246 -0.567 60 62 74
0.2885 -0.521498 -0.577 54 54 66
0.296629 -0.52421 -0.58 36 36 46
0.393574 -0.568496 -0.629 11 11 21
0.39597 -0.568496 -0.629 11 11 21
0.433767 -0.575727 -0.637 10 10 20
0.498985 -0.435636 -0.482 147 112 84
0.508162 -0.421175 -0.466 167 120 90
0.509729 -0.420271 -0.465 167 121 88
0.529967 -0.411233 -0.455 167 119 81
0.54393 -0.413945 -0.458 149 108 76
0.551237 -0.414849 -0.459 135 98 71
0.552986 -0.414849 -0.459 132 97 69
-0.0516686 -0.358663 -0.396 182 139 104
-0.042079 -0.354134 -0.391 187 141 107
-0.0293429 -0.353229 -0.39 185 139 103
-0.0250133 -0.35504 -0.392 177 131 98
-0.0095 -0.36138 -0.399 159 115 90
-0.00421143 -0.364097 -0.402 149 104 85
0.00348857 -0.368626 -0.407 141 98 81
0.0145886 -0.374966 -0.414 124 90 78
0.0237124 -0.382211 -0.422 112 82 72
0.0380467 -0.397609 -0.439 93 72 69
0.0399905 -0.400326 -0.442 92 71 68
0.0538162 -0.422969 -0.467 73 58 55
0.12012 -0.49452 -0.546 154 151 158
0.1274 -0.49452 -0.546 145 142 151
0.13156 -0.49452 -0.546 156 155 160
0.148471 -0.495426 -0.547 133 132 137
0.150555 -0.495426 -0.547 131 130 136
0.18802 -0.50086 -0.553 69 69 77
0.218417 -0.505389 -0.558 64 62 75
0.239029 -0.510823 -0.564 63 66 75
0.260029 -0.516257 -0.57 59 61 73
0.271693 -0.51988 -0.574 55 55 67
0.304681 -0.531654 -0.587 15 13 24
0.318434 -0.539806 -0.596 13 13 23
0.328461 -0.547051 -0.604 12 15 24
0.3726 -0.5706 -0.63 9 9 19
0.411358 -0.577846 -0.638 11 11 21
0.416219 -0.577846 -0.638 11 11 21
0.43026 -0.578751 -0.639 11 11 21
0.442595 -0.580563 -0.641 11 11 19
0.459387 -0.58328 -0.644 12 12 20
0.469646 -0.586903 -0.648 11 11 21
0.483513 -0.57694 -0.637 13 13 23
0.50448 -0.45648 -0.504 123 95 83
0.504437 -0.455574 -0.503 124 96 84
0.498866 -0.435649 -0.481 148 112 88
0.500786 -0.430214 -0.475 159 117 92
0.506073 -0.42478 -0.469 171 124 96
0.508162 -0.422063 -0.466 167 120 90
0.509516 -0.420251 -0.464 168 121 91
0.513247 -0.417534 -0.461 172 126 93
0.51301 -0.416629 -0.46 174 128 95
0.513886 -0.416629 -0.46 170 124 91
0.515141 -0.414817 -0.458 174 128 94
0.518103 -0.413006 -0.456 172 126 92
0.551977 -0.413006 -0.456 140 95 72
-0.0338 -0.353971 -0.39 181 135 101
-0.0315714 -0.353971 -0.39 183 134 101
-0.0250133 -0.355787 -0.392 176 130 97
-0.0161762 -0.35851 -0.395 167 120 94
-0.0124771 -0.360325 -0.397 165 117 94
-0.0102343 -0.361232 -0.398 160 114 91
-0.0095 -0.36214 -0.399 156 110 87
-0.00647619 -0.363048 -0.4 155 109 86
-0.00572857 -0.363955 -0.401 153 107 84
-0.00420095 -0.363955 -0.401 150 104 81
0.0162048 -0.376662 -0.415 117 85 74
0.028941 -0.388461 -0.428 104 77 70
0.0482057 -0.413874 -0.456 85 67 65
0.12428 -0.49556 -0.546 129 126 135
0.1274 -0.49556 -0.546 122 119 128
0.13052 -0.49556 -0.546 140 139 145
0.139094 -0.496468 -0.547 124 123 131
0.162905 -0.49919 -0.55 79 77 88
0.167399 -0.500098 -0.551 74 72 83
0.17854 -0.501913 -0.553 62 62 72
0.182029 -0.502821 -0.554 62 62 70
0.194685 -0.505544 -0.557 60 63 72
0.2064 -0.508267 -0.56 64 64 74
0.22066 -0.509174 -0.561 65 63 76
0.227881 -0.51099 -0.563 64 64 76
0.258123 -0.520066 -0.573 51 53 65
0.259214 -0.520066 -0.573 47 49 61
0.268251 -0.522789 -0.576 32 32 44
0.28054 -0.527327 -0.581 18 18 30
0.308404 -0.53731 -0.592 14 12 23
0.324471 -0.547294 -0.603 10 13 22
0.383417 -0.577246 -0.636 10 10 20
0.388873 -0.578153 -0.637 10 8 19
0.411429 -0.580876 -0.64 8 11 20
0.4224 -0.580876 -0.64 8 11 20
0.439077 -0.583599 -0.643 10 10 20
0.440302 -0.583599 -0.643 10 10 20
0.503386 -0.454717 -0.501 126 97 81
0.500643 -0.443826 -0.489 143 108 88
0.500634 -0.430211 -0.474 161 119 94
0.503746 -0.427489 -0.471 161 115 89
0.506584 -0.423858 -0.467 170 123 95
0.517498 -0.414782 -0.457 170 124 90
0.51984 -0.413874 -0.456 170 126 91
0.523033 -0.412967 -0.455 168 122 88
0.533433 -0.412967 -0.455 163 115 79
0.540686 -0.413874 -0.456 154 111 79
-0.0775 -0.4775 -0.525 179 138 106
-0.0549619 -0.36199 -0.398 181 141 106
-0.0315714 -0.354714 -0.39 183 134 101
-0.0095 -0.3629 -0.399 157 111 87
-0.00649238 -0.364719 -0.401 154 108 85
0.00193333 -0.369267 -0.406 140 97 78
0.011379 -0.374724 -0.412 132 93 78
0.0170362 -0.378362 -0.416 115 85 74
0.0220524 -0.38291 -0.421 109 87 76
0.0263095 -0.386548 -0.425 107 78 70
0.0334029 -0.393824 -0.433 98 74 70
0.0352952 -0.396552 -0.436 99 74 69
0.0451 -0.410195 -0.451 87 72 69
0.0528133 -0.423838 -0.466 75 61 61
0.127633 -0.49751 -0.547 93 90 101
0.131801 -0.49751 -0.547 112 111 119
0.211097 -0.512971 -0.564 60 60 70
0.215701 -0.511152 -0.562 62 60 71
0.220766 -0.512971 -0.564 63 63 75
0.232069 -0.51661 -0.568 61 61 73
0.238732 -0.519338 -0.571 56 56 68
0.275953 -0.530252 -0.583 12 12 24
0.278174 -0.530252 -0.583 13 13 25
0.285187 -0.532981 -0.586 14 14 26
0.297751 -0.537529 -0.591 10 8 19
0.299383 -0.538438 -0.592 9 7 18
0.316 -0.545714 -0.6 10 10 20
0.324395 -0.550262 -0.605 11 11 21
0.326624 -0.552081 -0.607 11 11 21
0.331104 -0.555719 -0.611 10 13 22
0.3968 -0.582095 -0.64 9 9 17
0.425502 -0.583005 -0.641 8 11 20
0.431057 -0.583914 -0.642 10 10 20
0.44344 -0.585733 -0.644 11 11 19
0.449043 -0.586643 -0.645 9 9 17
0.454661 -0.587552 -0.646 10 10 18
0.50958 -0.466586 -0.513 110 88 77
