ply
format ascii 1.0
comment Created by Open3D
element vertex 1290
property double x
property double y
property double z
property uchar red
property uchar green
property uchar blue
end_header
0.726251 -0.350709 -0.636 217 217 215
0.749269 -0.350709 -0.636 216 216 214
0.809776 -0.350157 -0.635 215 216 208
-0.107186 -0.3403 -0.615 93 94 99
-0.0545867 -0.356347 -0.644 183 181 182
-0.0410933 -0.356347 -0.644 194 194 194
-0.0264143 -0.3569 -0.645 203 201 202
-0.0165857 -0.3569 -0.645 209 207 208
-0.00674667 -0.356347 -0.644 214 212 213
-0.00184286 -0.3569 -0.645 216 214 215
0.0092 -0.356347 -0.644 223 221 222
0.02024 -0.356347 -0.644 236 234 239
0.02392 -0.356347 -0.644 239 237 242
0.0496029 -0.355793 -0.643 199 156 147
0.0509067 -0.356347 -0.644 189 156 147
0.0459533 -0.236273 -0.427 201 159 147
0.0545143 -0.234613 -0.424 202 158 147
0.0561295 -0.234613 -0.424 202 158 147
0.0582762 -0.233507 -0.422 201 157 146
0.0653552 -0.232953 -0.421 190 145 139
0.0751562 -0.233507 -0.422 174 131 124
0.256157 -0.3569 -0.645 188 202 239
0.278703 -0.357453 -0.646 244 246 255
0.293469 -0.357453 -0.646 126 143 199
0.294699 -0.357453 -0.646 129 146 202
0.29839 -0.357453 -0.646 133 152 211
0.319309 -0.357453 -0.646 122 150 200
0.330171 -0.35856 -0.648 77 113 187
0.343749 -0.35856 -0.648 145 152 181
0.399286 -0.359667 -0.65 56 90 154
0.420923 -0.359113 -0.649 23 48 112
0.450435 -0.358007 -0.647 61 90 158
0.464293 -0.356347 -0.644 167 169 190
0.470915 -0.314847 -0.569 122 84 75
0.477311 -0.291607 -0.527 168 113 92
0.755348 -0.351367 -0.635 216 216 214
-0.0667495 -0.357018 -0.643 174 172 175
-0.0521333 -0.357573 -0.644 187 185 186
-0.0374133 -0.357573 -0.644 195 195 195
-0.02392 -0.357573 -0.644 206 204 205
0.000613333 -0.357573 -0.644 218 216 217
0.03128 -0.357573 -0.644 242 246 249
0.0483781 -0.357018 -0.643 171 155 155
0.0429 -0.238197 -0.429 202 162 154
0.0514048 -0.235976 -0.425 200 158 146
0.0767638 -0.23431 -0.422 164 121 114
0.0854048 -0.235976 -0.425 141 101 99
0.0874333 -0.237087 -0.427 139 98 96
0.0913238 -0.238752 -0.43 124 90 89
0.106477 -0.249302 -0.449 94 69 73
0.284855 -0.358684 -0.646 222 230 251
0.2881 -0.358129 -0.645 180 196 245
0.29593 -0.358684 -0.646 130 151 206
0.303312 -0.358684 -0.646 177 191 240
0.308234 -0.358684 -0.646 163 169 201
0.338811 -0.359794 -0.648 95 116 159
0.351154 -0.359794 -0.648 79 104 161
0.352389 -0.359794 -0.648 62 87 144
0.353623 -0.359794 -0.648 46 71 128
0.381365 -0.36035 -0.649 153 159 183
0.40919 -0.360905 -0.65 155 164 193
0.414742 -0.36035 -0.649 94 113 145
0.421509 -0.359794 -0.648 34 63 131
0.431383 -0.359794 -0.648 92 113 158
0.435086 -0.359794 -0.648 152 164 188
0.462557 -0.358129 -0.645 166 169 186
0.467973 -0.357573 -0.644 164 161 178
0.473119 -0.355908 -0.641 54 70 121
0.4736 -0.355352 -0.64 57 77 130
0.480736 -0.327035 -0.589 105 75 73
0.471999 -0.31593 -0.569 127 85 73
0.465667 -0.305381 -0.55 144 91 75
0.495171 -0.294276 -0.53 162 111 92
0.518694 -0.301494 -0.543 150 103 87
-0.0508276 -0.358243 -0.643 189 187 188
-0.043479 -0.358243 -0.643 193 193 193
-0.033681 -0.358243 -0.643 199 199 199
-0.0300533 -0.3588 -0.644 200 202 201
-0.000613333 -0.3588 -0.644 219 217 218
0.0189543 -0.357686 -0.642 235 233 238
0.0262914 -0.357686 -0.642 241 239 244
0.0483781 -0.358243 -0.643 171 155 155
0.0450343 -0.237343 -0.426 202 160 148
0.0566686 -0.235114 -0.422 199 155 146
0.066 -0.234 -0.42 187 144 135
0.0982524 -0.244586 -0.439 100 74 77
0.239543 -0.356571 -0.64 240 244 255
0.258213 -0.3588 -0.644 172 188 239
0.275814 -0.359357 -0.645 248 248 255
0.287653 -0.3588 -0.644 141 159 209
0.295471 -0.359357 -0.645 136 156 206
0.2967 -0.359357 -0.645 139 159 209
0.323 -0.359914 -0.646 73 107 171
0.361586 -0.361586 -0.649 21 58 129
0.36653 -0.361586 -0.649 42 79 150
0.397435 -0.361586 -0.649 46 80 143
0.399908 -0.361586 -0.649 80 114 177
0.422743 -0.361029 -0.648 54 79 145
0.435647 -0.360471 -0.647 164 161 180
0.45343 -0.359914 -0.646 87 116 174
0.466252 -0.304757 -0.547 153 97 82
0.467517 -0.296957 -0.533 175 118 99
0.474194 -0.294171 -0.528 176 118 96
0.491291 -0.294171 -0.528 159 108 89
0.494237 -0.294729 -0.529 163 112 93
0.496181 -0.295286 -0.53 160 112 92
-0.0545019 -0.359468 -0.643 186 184 185
-0.0372971 -0.358909 -0.642 197 197 197
-0.0360743 -0.358909 -0.642 197 197 197
-0.0140848 -0.359468 -0.643 212 210 211
-0.0116352 -0.359468 -0.643 213 211 212
-0.00673619 -0.359468 -0.643 215 214 212
0.00428667 -0.359468 -0.643 221 219 220
0.00672571 -0.358909 -0.642 223 221 222
0.0189543 -0.358909 -0.642 237 235 240
0.0299133 -0.35835 -0.641 241 239 242
0.0372971 -0.358909 -0.642 249 249 251
0.0505952 -0.237595 -0.425 205 163 151
0.0543857 -0.236477 -0.423 197 157 147
0.0574724 -0.235918 -0.422 195 155 147
0.0581381 -0.235359 -0.421 192 152 144
0.0652 -0.2348 -0.42 188 145 138
0.233083 -0.357231 -0.639 166 180 229
0.283973 -0.360027 -0.644 153 162 201
0.299157 -0.360586 -0.645 129 143 190
0.3139 -0.360586 -0.645 205 209 234
0.363497 -0.362263 -0.648 23 56 127
0.365966 -0.362263 -0.648 32 65 136
0.3672 -0.362263 -0.648 75 106 170
0.372137 -0.362263 -0.648 170 175 204
0.379543 -0.362263 -0.648 137 138 158
0.407931 -0.362263 -0.648 160 166 190
0.411634 -0.362263 -0.648 93 97 124
0.419626 -0.361704 -0.647 51 79 142
0.438665 -0.361145 -0.646 136 135 153
0.466747 -0.360027 -0.644 165 166 187
0.467786 -0.310271 -0.555 144 92 81
0.509966 -0.29965 -0.536 159 112 94
-0.0421886 -0.360131 -0.642 194 194 194
-0.0238457 -0.360131 -0.642 206 206 206
-0.0189543 -0.360131 -0.642 209 207 208
-0.00428 -0.360131 -0.642 217 215 216
-0.00183429 -0.360131 -0.642 220 218 219
0.0262505 -0.35957 -0.641 243 241 246
0.0506695 -0.35957 -0.641 192 154 143
0.0527743 -0.237283 -0.423 198 155 146
0.0597419 -0.236161 -0.421 192 152 140
0.0692 -0.2356 -0.42 179 136 129
0.0847943 -0.238966 -0.426 139 98 94
0.2343 -0.358449 -0.639 170 181 227
0.27416 -0.361253 -0.644 198 202 237
0.283532 -0.360692 -0.643 164 174 210
0.315867 -0.361253 -0.644 187 202 243
0.330383 -0.362375 -0.646 69 117 191
0.335305 -0.362375 -0.646 97 128 182
0.35007 -0.362375 -0.646 139 155 206
0.367866 -0.362936 -0.647 91 121 183
0.383887 -0.362936 -0.647 61 91 161
0.390049 -0.362936 -0.647 66 101 155
0.392513 -0.362936 -0.647 73 94 159
0.402994 -0.363497 -0.648 164 165 185
0.421438 -0.362375 -0.646 64 85 142
0.4429 -0.361814 -0.645 158 160 172
0.478749 -0.360131 -0.642 142 156 191
0.484571 -0.35901 -0.64 154 156 195
0.470706 -0.314694 -0.561 143 89 79
0.467998 -0.310768 -0.554 145 91 81
0.465946 -0.304597 -0.543 161 103 89
0.480413 -0.295061 -0.526 171 116 96
0.499209 -0.297305 -0.53 158 109 92
0.517814 -0.303475 -0.541 157 115 99
-0.0518905 -0.360791 -0.641 191 189 190
-0.0409019 -0.360791 -0.641 197 197 197
-0.0152857 -0.361354 -0.642 211 209 210
-0.0103943 -0.361354 -0.642 215 213 214
0.0557324 -0.236963 -0.421 197 155 143
0.0573362 -0.236963 -0.421 197 155 143
0.0692 -0.2364 -0.42 177 132 126
0.0803581 -0.238651 -0.424 146 105 99
0.0940429 -0.244843 -0.435 113 83 85
0.103911 -0.252723 -0.449 91 69 72
0.105233 -0.253849 -0.451 86 64 67
0.106798 -0.255537 -0.454 91 70 75
0.277409 -0.361917 -0.643 222 225 240
0.298693 -0.36248 -0.644 121 140 198
0.29992 -0.36248 -0.644 147 166 224
0.302373 -0.36248 -0.644 198 215 255
0.306053 -0.36248 -0.644 224 225 253
0.31464 -0.36248 -0.644 206 206 234
0.315867 -0.36248 -0.644 198 211 230
0.342157 -0.363043 -0.645 191 199 220
0.370989 -0.363606 -0.646 154 159 188
0.37526 -0.364169 -0.647 167 172 192
0.386985 -0.363606 -0.646 67 99 156
0.391907 -0.363606 -0.646 80 102 160
0.39929 -0.363606 -0.646 153 169 185
0.417747 -0.363606 -0.646 123 145 195
0.4257 -0.363043 -0.645 87 109 158
0.429386 -0.363043 -0.645 44 64 114
0.43608 -0.36248 -0.644 159 164 186
0.440443 -0.363043 -0.645 127 130 147
0.4508 -0.36248 -0.644 108 136 183
0.467973 -0.36248 -0.644 166 169 184
0.482133 -0.360229 -0.64 132 139 167
0.484571 -0.360229 -0.64 159 166 194
0.490349 -0.359103 -0.638 174 176 197
0.47466 -0.31914 -0.567 141 89 78
0.466252 -0.307883 -0.547 157 99 85
0.465946 -0.305631 -0.543 163 105 91
0.466065 -0.301691 -0.536 173 116 99
0.722826 -0.356289 -0.633 215 215 213
-0.0323048 -0.361448 -0.64 202 202 202
-0.0274286 -0.361448 -0.64 205 205 205
0.0201143 -0.361448 -0.64 241 239 244
0.0262095 -0.361448 -0.64 244 242 247
0.0496686 -0.239459 -0.424 201 161 149
0.0511629 -0.238894 -0.423 199 159 147
0.0565343 -0.237765 -0.421 195 155 143
0.0849933 -0.241153 -0.427 131 92 87
0.0868229 -0.241718 -0.428 130 92 89
0.104143 -0.254143 -0.45 89 67 70
0.1057 -0.255837 -0.453 85 63 66
0.281083 -0.363142 -0.643 229 234 253
0.300679 -0.363142 -0.643 174 191 235
0.311702 -0.363142 -0.643 217 223 237
0.314151 -0.363142 -0.643 179 179 203
0.361814 -0.364271 -0.645 54 87 156
0.369186 -0.364271 -0.645 69 94 150
0.384524 -0.364836 -0.646 78 99 142
0.391907 -0.364836 -0.646 99 120 177
0.405442 -0.364836 -0.646 117 116 132
0.411594 -0.364836 -0.646 53 70 113
0.461123 -0.363142 -0.643 176 176 200
0.466022 -0.363142 -0.643 165 170 189
0.480445 -0.362012 -0.641 139 145 169
0.493994 -0.360318 -0.638 84 90 122
0.49686 -0.359753 -0.637 141 147 171
0.49643 -0.341116 -0.604 112 80 81
0.480833 -0.325868 -0.577 138 89 82
0.478591 -0.323609 -0.573 139 89 80
0.476308 -0.29763 -0.527 178 120 100
0.491434 -0.297065 -0.526 164 112 91
0.494376 -0.29763 -0.527 163 112 91
0.505147 -0.300453 -0.532 155 110 91
0.632397 -0.357494 -0.633 209 209 209
-0.00182857 -0.362667 -0.64 220 218 219
0.000609524 -0.362667 -0.64 222 220 223
0.00426 -0.3621 -0.639 225 223 226
0.0249514 -0.3621 -0.639 243 241 246
0.0373533 -0.244233 -0.431 196 156 146
0.0387238 -0.242533 -0.428 194 154 144
0.0448229 -0.240267 -0.424 201 158 149
0.0510419 -0.239133 -0.422 202 160 148
0.0692 -0.238 -0.42 173 130 124
0.0716 -0.238 -0.42 173 128 122
0.0898943 -0.244233 -0.431 119 85 83
0.106167 -0.257833 -0.455 92 70 73
0.235149 -0.361533 -0.638 204 213 252
0.237951 -0.3621 -0.639 225 232 255
0.2432 -0.362667 -0.64 247 250 255
0.252127 -0.363233 -0.641 176 185 216
0.259857 -0.3638 -0.642 142 168 217
0.26964 -0.3638 -0.642 207 213 249
0.289206 -0.3638 -0.642 143 158 213
0.307549 -0.3638 -0.642 229 229 255
0.313663 -0.3638 -0.642 192 192 216
0.334267 -0.364933 -0.644 108 134 183
0.337947 -0.364933 -0.644 186 197 215
0.350757 -0.3655 -0.645 53 76 126
0.37468 -0.366067 -0.646 172 174 195
0.381471 -0.3655 -0.645 122 128 150
0.3827 -0.3655 -0.645 82 100 138
0.385157 -0.3655 -0.645 74 97 147
0.388843 -0.3655 -0.645 101 127 178
0.397443 -0.3655 -0.645 133 149 200
0.403586 -0.3655 -0.645 131 129 150
0.415871 -0.3655 -0.645 121 135 174
0.41768 -0.364933 -0.644 133 147 186
0.464797 -0.364367 -0.643 168 168 192
0.467743 -0.3638 -0.642 86 95 134
0.507395 -0.359833 -0.635 123 141 187
0.509814 -0.359833 -0.635 130 143 195
0.47574 -0.3213 -0.567 137 89 79
0.467105 -0.310533 -0.548 160 104 91
0.46664 -0.301467 -0.532 178 119 101
0.472183 -0.2992 -0.528 180 123 103
0.4835 -0.2975 -0.525 175 119 96
0.4855 -0.2975 -0.525 178 121 101
-0.0602486 -0.363317 -0.639 188 186 189
-0.0444257 -0.363317 -0.639 197 195 196
-0.0152143 -0.363317 -0.639 212 212 212
-0.00547714 -0.363317 -0.639 219 217 218
0.0365324 -0.245054 -0.431 198 155 146
0.040881 -0.241643 -0.425 200 156 145
0.0448229 -0.241074 -0.424 201 157 146
0.0456305 -0.241074 -0.424 202 158 147
0.0612 -0.2388 -0.42 188 145 136
0.0872286 -0.244486 -0.43 121 90 87
0.0957438 -0.249603 -0.439 103 78 81
0.09702 -0.25074 -0.441 97 75 78
0.103515 -0.256426 -0.451 89 70 74
0.244419 -0.363886 -0.64 248 252 253
0.268417 -0.365023 -0.642 170 191 238
0.274531 -0.365023 -0.642 242 247 253
0.332523 -0.365591 -0.643 86 123 175
0.376557 -0.366729 -0.645 171 171 195
0.382107 -0.36616 -0.644 123 135 173
0.397443 -0.366729 -0.645 139 151 199
0.406043 -0.366729 -0.645 155 161 187
0.412773 -0.36616 -0.644 132 138 172
0.414 -0.36616 -0.644 140 146 180
0.420706 -0.365591 -0.643 127 136 169
0.42193 -0.365591 -0.643 149 155 189
0.42683 -0.365591 -0.643 144 150 184
0.470677 -0.364454 -0.641 151 160 193
0.478476 -0.363886 -0.64 166 171 193
0.498855 -0.362749 -0.638 91 96 125
0.508194 -0.361611 -0.636 107 127 177
0.510617 -0.361611 -0.636 121 138 192
0.486667 -0.332046 -0.584 130 86 83
0.466065 -0.304754 -0.536 173 116 97
0.507173 -0.30248 -0.532 156 113 94
-0.00546857 -0.363964 -0.638 221 219 220
0.0471343 -0.241311 -0.423 207 160 150
0.0502381 -0.240741 -0.422 206 159 149
0.07614 -0.241311 -0.423 156 113 106
0.0805476 -0.242452 -0.425 145 104 100
0.10112 -0.255573 -0.448 93 70 76
0.1053 -0.259567 -0.455 91 69 72
0.188377 -0.362823 -0.636 164 178 217
0.235149 -0.363964 -0.638 209 222 255
0.251733 -0.365105 -0.64 182 189 218
0.275325 -0.365675 -0.641 243 246 253
0.302186 -0.365675 -0.641 143 156 201
0.333748 -0.366816 -0.643 147 162 205
0.359468 -0.366816 -0.643 160 179 219
0.393147 -0.367387 -0.644 79 101 159
0.417031 -0.366816 -0.643 149 156 185
0.434726 -0.366246 -0.642 65 72 114
0.503716 -0.363964 -0.638 174 178 207
0.504931 -0.363964 -0.638 160 165 205
0.506147 -0.363964 -0.638 165 170 210
0.497906 -0.343997 -0.603 109 83 84
0.493261 -0.340004 -0.596 111 85 86
0.475304 -0.300641 -0.527 186 130 107
0.476406 -0.30007 -0.526 185 129 104
0.485573 -0.29893 -0.524 178 124 100
0.489566 -0.29893 -0.524 173 121 99
0.4915 -0.2995 -0.525 166 118 96
0.504257 -0.302352 -0.53 154 111 92
-0.043141 -0.365179 -0.638 201 200 198
-0.0212667 -0.365179 -0.638 210 210 210
-0.0164057 -0.365179 -0.638 214 212 213
-0.0151905 -0.365179 -0.638 214 212 213
-0.0115448 -0.365179 -0.638 218 216 217
-0.00789905 -0.365179 -0.638 217 217 215
0.04186 -0.364607 -0.637 190 153 137
0.04794 -0.242117 -0.423 203 155 143
0.0510419 -0.241545 -0.422 202 154 142
0.0743524 -0.241545 -0.422 157 114 107
0.09052 -0.248413 -0.434 110 80 80
0.188377 -0.364034 -0.636 172 185 227
0.219529 -0.363462 -0.635 190 204 241
0.223157 -0.363462 -0.635 151 167 219
0.23478 -0.364607 -0.637 201 213 253
0.26922 -0.366896 -0.641 197 206 239
0.298523 -0.366896 -0.641 147 166 209
0.299744 -0.366896 -0.641 132 149 193
0.302186 -0.366896 -0.641 141 154 199
0.30707 -0.366896 -0.641 220 224 251
0.313174 -0.366896 -0.641 215 219 246
0.318058 -0.366896 -0.641 116 130 167
0.332006 -0.367469 -0.642 113 144 191
0.371067 -0.368613 -0.644 106 114 160
0.37352 -0.368613 -0.644 151 156 194
0.390087 -0.368041 -0.643 74 99 155
0.393147 -0.368613 -0.644 77 99 157
0.39928 -0.368613 -0.644 157 161 190
0.401733 -0.368613 -0.644 160 160 184
0.406009 -0.368041 -0.643 55 65 101
0.438932 -0.366896 -0.641 136 141 171
0.483814 -0.365751 -0.639 170 173 192
0.496425 -0.365179 -0.638 148 149 170
0.49764 -0.365179 -0.638 155 157 182
0.506147 -0.365179 -0.638 141 152 197
0.46612 -0.31023 -0.542 173 112 94
0.468039 -0.30279 -0.529 183 125 101
0.484575 -0.299928 -0.524 177 123 99
0.490564 -0.299928 -0.524 166 118 95
-0.0175933 -0.36582 -0.637 213 213 213
0.0549305 -0.241774 -0.421 199 151 141
0.0612 -0.2412 -0.42 180 135 129
0.0725724 -0.241774 -0.421 164 115 110
0.10049 -0.257854 -0.449 96 69 74
0.178405 -0.364671 -0.635 249 253 255
0.18382 -0.36582 -0.637 243 246 253
0.221948 -0.364671 -0.635 151 167 216
0.248906 -0.366969 -0.639 244 247 254
0.296838 -0.367543 -0.64 185 200 239
0.321219 -0.367543 -0.64 151 179 219
0.327826 -0.368117 -0.641 133 161 208
0.336372 -0.368117 -0.641 189 196 224
0.383366 -0.368691 -0.642 87 101 140
0.430933 -0.367543 -0.64 141 150 181
0.43581 -0.367543 -0.64 73 77 115
0.441905 -0.367543 -0.64 153 162 191
0.46091 -0.368117 -0.641 168 177 208
0.467505 -0.367543 -0.64 156 163 192
0.469943 -0.367543 -0.64 168 170 193
0.471162 -0.367543 -0.64 169 171 194
0.485488 -0.366394 -0.638 167 168 188
0.4899 -0.366969 -0.639 170 173 192
0.50778 -0.36582 -0.637 80 90 149
0.503192 -0.349166 -0.608 111 85 88
0.483548 -0.330214 -0.575 134 93 89
0.474133 -0.3216 -0.56 151 99 86
0.465593 -0.30954 -0.539 169 113 90
0.467914 -0.304371 -0.53 183 126 99
0.4785 -0.3015 -0.525 186 129 102
0.490564 -0.300926 -0.524 168 118 95
0.0430057 -0.366457 -0.636 195 152 136
0.0348905 -0.248338 -0.431 198 152 139
0.0486305 -0.243152 -0.422 201 153 141
0.183531 -0.366457 -0.636 250 249 255
0.2332 -0.366457 -0.636 154 171 217
0.23478 -0.367033 -0.637 170 181 226
0.24244 -0.36761 -0.638 251 255 255
0.273249 -0.368186 -0.639 240 247 255
0.275683 -0.368186 -0.639 247 246 255
0.279334 -0.368186 -0.639 222 220 244
0.281769 -0.368186 -0.639 166 170 199
0.282986 -0.368186 -0.639 156 170 197
0.357129 -0.369338 -0.641 150 157 186
0.35835 -0.369338 -0.641 176 183 212
0.374165 -0.37049 -0.643 87 97 132
0.378474 -0.369914 -0.642 167 173 209
0.388257 -0.369914 -0.642 81 113 164
0.38948 -0.369914 -0.642 68 100 151
0.41085 -0.369338 -0.641 161 167 193
0.437029 -0.368762 -0.64 90 92 130
0.476981 -0.36761 -0.638 167 169 192
0.468336 -0.315176 -0.547 160 107 91
0.4734 -0.303076 -0.526 191 135 108
0.478587 -0.301924 -0.524 187 133 105
0.487697 -0.300771 -0.522 173 122 95
0.516091 -0.308838 -0.536 153 110 91
-0.0490629 -0.367669 -0.636 199 197 198
0.0326333 -0.257252 -0.445 198 154 143
0.0391695 -0.245112 -0.424 196 150 137
0.0423 -0.244534 -0.423 196 150 135
0.0478267 -0.243956 -0.422 202 154 142
0.0502381 -0.243956 -0.422 201 153 141
0.0541286 -0.243378 -0.421 196 150 137
0.191408 -0.366512 -0.634 167 188 233
0.211937 -0.366512 -0.634 249 255 255
0.216768 -0.366512 -0.634 167 177 212
0.231989 -0.367669 -0.636 156 173 219
0.259453 -0.368825 -0.638 186 202 238
0.304894 -0.369403 -0.639 202 211 244
0.320717 -0.369403 -0.639 139 160 205
0.33341 -0.369981 -0.64 186 200 227
0.344919 -0.370559 -0.641 171 182 214
0.355352 -0.369981 -0.64 148 155 181
0.35957 -0.370559 -0.641 173 181 204
0.392536 -0.370559 -0.641 126 143 187
0.403525 -0.370559 -0.641 120 125 157
0.405967 -0.370559 -0.641 156 162 188
0.452169 -0.369403 -0.639 42 67 123
0.47212 -0.368825 -0.638 168 171 190
0.483057 -0.368825 -0.638 137 140 173
0.487153 -0.368247 -0.637 159 160 190
0.499287 -0.368247 -0.637 152 151 182
0.466065 -0.309859 -0.536 171 114 94
0.46636 -0.308703 -0.534 177 119 99
0.4975 -0.3035 -0.525 156 114 92
0.49945 -0.304078 -0.526 156 114 92
0.0339114 -0.24882 -0.429 199 153 138
0.0493171 -0.24418 -0.421 199 153 140
0.050119 -0.24418 -0.421 198 152 139
0.0541286 -0.24418 -0.421 196 150 135
0.0735486 -0.24476 -0.422 160 115 109
0.0857895 -0.24998 -0.431 116 81 77
0.179614 -0.3683 -0.635 249 253 252
0.193517 -0.36714 -0.633 202 216 255
0.219183 -0.36772 -0.634 169 178 217
0.231624 -0.3683 -0.635 168 187 227
0.239633 -0.36946 -0.637 238 238 248
0.248516 -0.37004 -0.638 246 253 255
0.266745 -0.37004 -0.638 214 225 255
0.288619 -0.37004 -0.638 211 217 243
0.289834 -0.37004 -0.638 190 195 224
0.323151 -0.37062 -0.639 127 153 202
0.350476 -0.3712 -0.64 178 186 209
0.369338 -0.37178 -0.641 161 171 196
0.377295 -0.3712 -0.64 154 163 196
0.385829 -0.3712 -0.64 85 110 166
0.394978 -0.37178 -0.641 134 155 202
0.44417 -0.37004 -0.638 55 81 138
0.447815 -0.37004 -0.638 47 72 139
0.47502 -0.36946 -0.637 125 131 147
0.48958 -0.36946 -0.637 153 152 168
0.490793 -0.36946 -0.637 120 115 121
0.50456 -0.36888 -0.636 62 84 142
0.466065 -0.31088 -0.536 174 115 97
0.466502 -0.30914 -0.533 175 117 97
0.471289 -0.30566 -0.527 193 137 110
0.4734 -0.30508 -0.526 189 133 106
0.476406 -0.30508 -0.526 188 132 105
0.479585 -0.30392 -0.524 188 132 105
0.480662 -0.30334 -0.523 188 132 105
0.485709 -0.30276 -0.522 175 123 99
0.508295 -0.3074 -0.53 148 110 89
0.0325029 -0.251383 -0.432 196 153 144
0.0485152 -0.244982 -0.421 198 152 139
0.050921 -0.244982 -0.421 197 151 138
0.0652 -0.2444 -0.42 168 123 117
0.0701667 -0.244982 -0.421 162 117 112
0.0737229 -0.246146 -0.423 157 114 107
0.180824 -0.36951 -0.635 247 252 248
0.199546 -0.368346 -0.633 183 198 237
0.212809 -0.368346 -0.633 242 249 255
0.24206 -0.370673 -0.637 247 251 252
0.284527 -0.370673 -0.637 226 232 255
0.286953 -0.370673 -0.637 226 228 251
0.291807 -0.370673 -0.637 199 203 230
0.311709 -0.371255 -0.638 209 214 244
0.31657 -0.371255 -0.638 144 154 189
0.322646 -0.371255 -0.638 127 153 204
0.325586 -0.371837 -0.639 97 125 175
0.354797 -0.371837 -0.639 173 181 204
0.363886 -0.372419 -0.64 171 179 202
0.400457 -0.372419 -0.64 109 114 146
0.417434 -0.371255 -0.638 134 139 168
0.42351 -0.371255 -0.638 155 160 189
0.433767 -0.370673 -0.637 134 134 158
0.437407 -0.370673 -0.637 94 98 136
0.47866 -0.370673 -0.637 118 123 153
0.481087 -0.370673 -0.637 100 106 140
0.507395 -0.36951 -0.635 97 118 175
0.512233 -0.36951 -0.635 69 89 150
0.514652 -0.36951 -0.635 86 107 164
0.470711 -0.32063 -0.551 155 101 89
0.4734 -0.306082 -0.526 188 132 105
0.485771 -0.303172 -0.521 174 124 99
0.0344048 -0.248119 -0.425 202 156 143
0.0422 -0.246368 -0.422 198 152 139
0.0484 -0.2452 -0.42 197 150 140
0.0693648 -0.245784 -0.421 163 118 112
0.0701667 -0.245784 -0.421 161 116 111
0.0773095 -0.248119 -0.425 140 103 97
0.0861876 -0.25279 -0.433 111 80 77
0.175709 -0.370135 -0.634 252 254 255
0.227636 -0.370135 -0.634 232 247 255
0.239257 -0.371303 -0.636 243 247 255
0.290137 -0.371303 -0.636 201 203 224
0.297873 -0.371887 -0.637 222 228 254
0.30758 -0.371887 -0.637 151 164 198
0.356014 -0.373054 -0.639 175 179 204
0.377923 -0.373054 -0.639 114 127 162
0.42108 -0.37247 -0.638 133 139 165
0.470167 -0.371887 -0.637 148 145 154
0.472593 -0.371887 -0.637 172 170 181
0.497291 -0.371303 -0.636 166 167 188
0.51824 -0.368968 -0.632 171 184 219
0.518176 -0.367216 -0.629 106 110 147
0.5005 -0.3065 -0.525 155 113 91
0.0358543 -0.247757 -0.423 187 143 130
0.0445057 -0.246586 -0.421 199 153 138
0.0564 -0.246 -0.42 188 144 131
0.0685629 -0.246586 -0.421 166 119 111
0.0851657 -0.253029 -0.432 111 82 78
0.0863867 -0.2542 -0.434 108 79 75
0.180539 -0.371343 -0.634 249 253 252
0.185989 -0.370171 -0.632 185 198 232
0.226429 -0.371343 -0.634 215 226 244
0.227636 -0.371343 -0.634 235 246 255
0.235252 -0.371929 -0.635 212 218 244
0.254605 -0.371929 -0.635 179 192 227
0.258233 -0.371929 -0.635 199 212 247
0.279234 -0.372514 -0.636 232 233 253
0.282424 -0.371929 -0.635 237 239 252
0.345735 -0.373686 -0.638 184 187 202
0.351811 -0.373686 -0.638 180 185 204
0.373054 -0.374271 -0.639 156 161 191
0.374271 -0.374271 -0.639 135 142 171
0.387053 -0.373686 -0.638 24 58 122
0.394963 -0.374271 -0.639 45 69 129
0.461673 -0.3731 -0.637 118 127 166
0.4641 -0.3731 -0.637 166 168 193
0.488043 -0.371929 -0.635 139 136 145
0.49409 -0.371929 -0.635 174 168 182
0.512233 -0.371929 -0.635 75 99 159
0.51505 -0.371343 -0.634 122 145 197
0.467152 -0.317457 -0.542 165 106 92
0.471396 -0.308086 -0.526 187 131 104
0.507383 -0.309257 -0.528 150 112 89
0.029279 -0.254439 -0.433 196 154 138
0.0476 -0.2468 -0.42 199 153 137
0.0570638 -0.246212 -0.419 185 139 126
0.0578619 -0.246212 -0.419 177 131 118
0.0602562 -0.246212 -0.419 183 137 122
0.0863867 -0.255027 -0.434 108 77 74
0.0975019 -0.265016 -0.451 93 71 74
0.180539 -0.37255 -0.634 249 253 254
0.239712 -0.37255 -0.634 188 200 222
0.249767 -0.373138 -0.635 207 212 232
0.256619 -0.37255 -0.634 183 193 228
0.263071 -0.373138 -0.635 182 191 224
0.286052 -0.373138 -0.635 233 234 254
0.295729 -0.373138 -0.635 227 231 255
0.304195 -0.373138 -0.635 193 200 229
0.307824 -0.373138 -0.635 136 149 183
0.318 -0.373726 -0.636 101 119 167
0.34209 -0.374901 -0.638 189 192 211
0.346407 -0.374313 -0.637 186 190 201
0.366394 -0.374901 -0.638 168 175 193
0.371255 -0.374901 -0.638 172 177 199
0.382192 -0.374901 -0.638 31 60 120
0.416126 -0.373726 -0.636 91 101 136
0.42824 -0.373726 -0.636 144 147 156
0.440871 -0.373138 -0.635 64 89 143
0.465794 -0.373726 -0.636 176 173 194
0.480786 -0.373138 -0.635 160 162 185
0.49409 -0.373138 -0.635 170 166 180
0.504181 -0.37255 -0.634 133 142 181
0.505412 -0.353159 -0.601 127 94 85
0.467321 -0.317902 -0.541 168 111 94
0.469166 -0.310263 -0.528 183 129 105
0.4715 -0.3085 -0.525 185 129 104
0.482857 -0.305562 -0.52 183 129 105
0.0285857 -0.256443 -0.435 194 157 141
0.0298952 -0.253495 -0.43 190 148 132
0.0396943 -0.24819 -0.421 198 152 139
0.0444 -0.2476 -0.42 200 154 139
0.0610543 -0.24701 -0.419 173 130 114
0.0737229 -0.249369 -0.423 150 105 99
0.0900952 -0.25939 -0.44 101 75 74
0.0994514 -0.268823 -0.456 95 73 76
0.102298 -0.27177 -0.461 95 73 76
0.218491 -0.372579 -0.632 246 253 255
0.228483 -0.373169 -0.633 251 253 255
0.264281 -0.374348 -0.635 214 221 250
0.27111 -0.373758 -0.634 171 174 207
0.285602 -0.373758 -0.634 233 235 255
0.301301 -0.373758 -0.634 221 225 252
0.302509 -0.373758 -0.634 215 219 246
0.310962 -0.373758 -0.634 194 204 240
0.342767 -0.375527 -0.637 189 198 215
0.359753 -0.375527 -0.637 151 158 187
0.370673 -0.375527 -0.637 172 177 196
0.38402 -0.375527 -0.637 19 48 118
0.407646 -0.374937 -0.636 120 119 133
0.410633 -0.374348 -0.635 138 139 159
0.439662 -0.374348 -0.635 97 119 166
0.440871 -0.374348 -0.635 79 101 148
0.478821 -0.373758 -0.634 164 162 183
0.517036 -0.372579 -0.632 151 161 188
0.518622 -0.37199 -0.631 180 185 207
0.466502 -0.314216 -0.533 170 118 97
0.470285 -0.310679 -0.527 185 129 104
0.480809 -0.307142 -0.521 182 131 104
0.484838 -0.306552 -0.52 174 122 100
0.4888 -0.306552 -0.52 165 120 99
0.48979 -0.306552 -0.52 165 120 99
0.521196 -0.315985 -0.536 156 110 94
0.17395 -0.373783 -0.632 207 214 242
0.196511 -0.373191 -0.631 186 195 228
0.201319 -0.373191 -0.631 244 250 255
0.21454 -0.373191 -0.631 237 240 255
0.24092 -0.374966 -0.634 165 176 208
0.304443 -0.374374 -0.633 210 212 235
0.337383 -0.376149 -0.636 186 187 207
0.349497 -0.376149 -0.636 153 158 177
0.366457 -0.376149 -0.636 168 177 192
0.376149 -0.376149 -0.636 44 58 105
0.37736 -0.376149 -0.636 36 57 122
0.380994 -0.376149 -0.636 53 82 142
0.393109 -0.376149 -0.636 28 58 120
0.402167 -0.375557 -0.635 161 167 183
0.423938 -0.375557 -0.635 168 169 187
0.466271 -0.375557 -0.635 162 166 195
0.467481 -0.375557 -0.635 173 165 189
0.472783 -0.374966 -0.634 173 173 185
0.509414 -0.374374 -0.633 95 117 158
0.519 -0.3726 -0.63 174 179 199
0.484771 -0.337114 -0.57 139 102 94
0.472398 -0.311091 -0.526 181 125 102
0.4725 -0.3105 -0.525 184 128 105
0.474594 -0.309909 -0.524 187 131 108
0.028941 -0.253947 -0.428 192 149 133
0.0436 -0.2492 -0.42 194 152 130
0.0508 -0.2492 -0.42 192 149 130
0.0522752 -0.248607 -0.419 190 147 130
0.05866 -0.248607 -0.419 182 136 121
0.0594581 -0.248607 -0.419 179 133 118
0.0814952 -0.255133 -0.43 118 88 86
0.0930229 -0.264627 -0.446 98 69 71
0.183 -0.3738 -0.63 239 242 255
0.1902 -0.3738 -0.63 190 206 240
0.241746 -0.37558 -0.633 170 176 208
0.250186 -0.37558 -0.633 221 228 247
0.259831 -0.37558 -0.633 168 178 214
0.26628 -0.376173 -0.634 227 238 255
0.28274 -0.37558 -0.633 232 239 249
0.34169 -0.376767 -0.635 179 187 208
0.362252 -0.376767 -0.635 171 178 197
0.363462 -0.376767 -0.635 170 177 196
0.370719 -0.376767 -0.635 110 111 129
0.397329 -0.376767 -0.635 94 114 151
0.408779 -0.376173 -0.634 108 107 113
0.414262 -0.376767 -0.635 134 138 167
0.426357 -0.376767 -0.635 104 107 116
0.433454 -0.37558 -0.633 54 66 104
0.441385 -0.376173 -0.634 124 139 182
0.451757 -0.376767 -0.635 119 142 184
0.452967 -0.376767 -0.635 127 150 192
0.460707 -0.376173 -0.634 92 96 134
0.46916 -0.376173 -0.634 158 152 156
0.490123 -0.37558 -0.633 103 100 107
0.498563 -0.37558 -0.633 164 165 186
0.500974 -0.37558 -0.633 162 163 181
0.503386 -0.37558 -0.633 146 153 182
0.504591 -0.37558 -0.633 124 131 160
0.513425 -0.374987 -0.632 108 130 167
0.487323 -0.33998 -0.573 144 103 97
0.482857 -0.308533 -0.52 184 130 104
0.484894 -0.30794 -0.519 176 124 100
0.0310933 -0.252381 -0.424 197 154 138
0.038 -0.25 -0.42 202 157 138
0.0404 -0.25 -0.42 201 156 135
0.0508 -0.25 -0.42 193 150 131
0.07668 -0.253571 -0.426 129 92 86
0.171814 -0.376786 -0.633 235 238 255
0.1818 -0.375 -0.63 245 251 249
0.18271 -0.374405 -0.629 233 235 255
0.1974 -0.375 -0.63 217 223 245
0.24016 -0.37619 -0.632 202 207 236
0.250994 -0.37619 -0.632 211 222 254
0.252198 -0.37619 -0.632 179 190 222
0.26586 -0.376786 -0.633 200 209 238
0.269477 -0.376786 -0.633 184 193 224
0.280329 -0.376786 -0.633 216 219 234
0.318208 -0.377381 -0.634 55 86 153
0.332014 -0.377976 -0.635 57 83 142
0.371929 -0.377976 -0.635 128 129 159
0.381605 -0.377976 -0.635 78 104 163
0.399118 -0.377381 -0.634 143 154 184
0.425686 -0.377381 -0.634 148 148 158
0.446717 -0.376786 -0.633 92 120 170
0.46433 -0.377381 -0.634 54 65 97
0.473243 -0.376786 -0.633 167 168 188
0.491329 -0.376786 -0.633 108 110 123
0.498979 -0.37619 -0.632 167 165 186
0.50259 -0.37619 -0.632 152 158 184
0.510236 -0.359524 -0.604 121 101 94
0.480109 -0.334524 -0.562 142 104 95
0.468351 -0.322024 -0.541 163 111 97
0.470171 -0.314286 -0.528 175 120 99
0.474594 -0.311905 -0.524 186 130 107
0.0253295 -0.260354 -0.436 195 156 139
0.0265571 -0.256174 -0.429 194 153 135
0.0287381 -0.253786 -0.425 195 152 135
0.03102 -0.252591 -0.423 199 156 139
0.0348829 -0.251397 -0.421 203 158 139
0.0436 -0.2508 -0.42 197 152 129
0.0530733 -0.250203 -0.419 190 145 126
0.074881 -0.253786 -0.425 133 94 87
0.0936486 -0.268117 -0.449 94 70 70
0.17395 -0.377394 -0.632 183 188 207
0.193492 -0.375603 -0.629 176 192 228
0.2022 -0.3762 -0.63 214 219 238
0.2166 -0.3762 -0.63 219 225 225
0.222953 -0.376797 -0.631 247 250 255
0.2286 -0.3762 -0.63 246 251 255
0.248587 -0.377394 -0.632 213 221 255
0.293128 -0.377394 -0.632 198 203 223
0.297943 -0.377394 -0.632 217 222 244
0.313592 -0.377394 -0.632 85 107 167
0.332699 -0.378589 -0.634 104 133 191
0.333907 -0.378589 -0.634 167 187 224
0.343568 -0.378589 -0.634 181 186 206
0.348398 -0.378589 -0.634 123 126 145
0.390665 -0.378589 -0.634 114 135 182
0.397283 -0.377991 -0.633 57 76 116
0.401533 -0.378589 -0.634 158 164 190
0.455876 -0.378589 -0.634 145 157 199
0.462391 -0.377991 -0.633 117 123 149
0.519 -0.3762 -0.63 177 176 190
0.5202 -0.3762 -0.63 153 150 157
0.52177 -0.375603 -0.629 179 174 181
0.507153 -0.357689 -0.599 132 99 94
0.467804 -0.321263 -0.538 166 110 95
0.467653 -0.31768 -0.532 171 112 96
0.471396 -0.314097 -0.526 182 128 104
0.476677 -0.312306 -0.523 187 131 106
0.499664 -0.311111 -0.521 160 115 94
0.034 -0.2516 -0.42 204 159 140
0.0387076 -0.251001 -0.419 202 157 138
0.0685629 -0.252199 -0.421 156 112 103
0.0703333 -0.252798 -0.422 151 108 99
0.187204 -0.376202 -0.628 173 180 222
0.197087 -0.376801 -0.629 222 229 255
0.2262 -0.3774 -0.63 245 248 253
0.26502 -0.377999 -0.631 146 156 205
0.328557 -0.379197 -0.633 69 100 164
0.347849 -0.379197 -0.633 171 172 193
0.356851 -0.379796 -0.634 175 182 201
0.361682 -0.379796 -0.634 176 176 200
0.371963 -0.379197 -0.633 51 57 93
0.373169 -0.379197 -0.633 106 115 154
0.390049 -0.379197 -0.633 122 139 182
0.393666 -0.379197 -0.633 149 163 192
0.396077 -0.379197 -0.633 66 84 122
0.402674 -0.378598 -0.632 167 168 188
0.40749 -0.378598 -0.632 166 170 182
0.418324 -0.378598 -0.632 160 165 184
0.457569 -0.379197 -0.633 170 169 187
0.487372 -0.377999 -0.631 159 159 185
0.495368 -0.378598 -0.632 166 164 185
0.5154 -0.3774 -0.63 87 101 148
0.523214 -0.374405 -0.625 184 185 189
0.491824 -0.34565 -0.577 135 102 95
0.481179 -0.336665 -0.562 139 105 96
0.477101 -0.33307 -0.556 142 105 97
0.467957 -0.321689 -0.537 165 112 96
0.477754 -0.312703 -0.522 190 134 109
0.493791 -0.310906 -0.519 168 122 98
0.496724 -0.311505 -0.52 167 121 98
0.500656 -0.312104 -0.521 159 114 91
0.50457 -0.313302 -0.523 160 115 94
0.516371 -0.317495 -0.53 148 107 85
0.0242743 -0.259611 -0.432 195 157 138
0.0387076 -0.251799 -0.419 201 156 135
0.0538714 -0.251799 -0.419 188 143 124
0.0626505 -0.251799 -0.419 172 125 115
0.0721114 -0.254203 -0.423 143 100 94
0.08308 -0.260813 -0.434 105 77 76
0.0957667 -0.273433 -0.455 93 69 67
0.167797 -0.376797 -0.627 248 253 255
0.180027 -0.377398 -0.628 237 249 255
0.187204 -0.377398 -0.628 156 167 213
0.212662 -0.377999 -0.629 246 251 254
0.2514 -0.3786 -0.63 141 154 199
0.279 -0.3786 -0.63 219 222 241
0.334586 -0.380403 -0.633 122 143 188
0.349054 -0.380403 -0.633 162 163 183
0.357494 -0.380403 -0.633 176 179 196
0.396655 -0.379802 -0.632 84 97 131
0.403239 -0.379201 -0.631 138 140 161
0.411652 -0.379201 -0.631 151 156 178
0.419528 -0.379802 -0.632 166 169 186
0.434489 -0.379201 -0.631 171 172 193
0.504199 -0.379201 -0.631 79 97 137
0.513814 -0.379201 -0.631 82 110 150
0.522024 -0.375595 -0.625 180 181 185
0.47164 -0.32812 -0.546 150 109 91
0.480809 -0.313096 -0.521 185 129 104
0.482917 -0.311894 -0.519 180 126 102
0.51047 -0.316101 -0.526 161 116 95
0.0270552 -0.255611 -0.424 199 154 135
0.0355152 -0.252597 -0.419 203 158 137
0.0419 -0.252597 -0.419 200 153 135
0.0538714 -0.252597 -0.419 187 142 121
0.0570638 -0.252597 -0.419 182 137 116
0.0855143 -0.264051 -0.438 99 74 77
0.0959771 -0.274903 -0.456 92 71 68
0.0992143 -0.279123 -0.463 96 75 72
0.180934 -0.377991 -0.627 215 224 253
0.206671 -0.379197 -0.629 244 248 255
0.221049 -0.379197 -0.629 220 218 229
0.227039 -0.379197 -0.629 230 232 244
0.2394 -0.3798 -0.63 238 241 255
0.24501 -0.379197 -0.629 156 165 196
0.255793 -0.379197 -0.629 128 147 203
0.2802 -0.3798 -0.63 218 221 240
0.2934 -0.3798 -0.63 222 224 245
0.322711 -0.380403 -0.631 70 104 176
0.33165 -0.381006 -0.632 111 126 165
0.347299 -0.381006 -0.632 181 182 200
0.349707 -0.381006 -0.632 178 179 199
0.368968 -0.381006 -0.632 74 80 112
0.370171 -0.381006 -0.632 85 91 125
0.37619 -0.381006 -0.632 160 165 187
0.409249 -0.380403 -0.631 160 165 187
0.418864 -0.380403 -0.631 159 162 177
0.457325 -0.380403 -0.631 176 174 188
0.495 -0.3798 -0.63 152 150 164
0.4962 -0.3798 -0.63 173 170 187
0.475681 -0.315294 -0.523 185 131 107
0.0300714 -0.254605 -0.421 203 158 137
0.0347171 -0.253395 -0.419 205 159 136
0.0490829 -0.253395 -0.419 185 142 123
0.0668 -0.254 -0.42 157 113 104
0.17974 -0.379186 -0.627 165 174 215
0.191683 -0.379186 -0.627 137 151 196
0.200362 -0.37979 -0.628 164 180 214
0.2886 -0.381 -0.63 186 188 209
0.2934 -0.381 -0.63 224 226 249
0.3066 -0.381 -0.63 99 106 135
0.315 -0.381 -0.63 123 147 193
0.329923 -0.381605 -0.631 190 201 231
0.332327 -0.381605 -0.631 95 112 155
0.361745 -0.38221 -0.632 175 178 197
0.377394 -0.38221 -0.632 138 147 178
0.396028 -0.381605 -0.631 158 163 185
0.4014 -0.381 -0.63 123 127 152
0.411 -0.381 -0.63 123 132 163
0.4266 -0.381 -0.63 132 138 154
0.4578 -0.381 -0.63 173 173 185
0.458271 -0.380395 -0.629 165 165 175
0.4794 -0.381 -0.63 93 112 171
0.5106 -0.381 -0.63 107 128 175
0.5142 -0.381 -0.63 80 104 148
0.4745 -0.3175 -0.525 184 130 106
0.474594 -0.316895 -0.524 186 132 108
0.474685 -0.31629 -0.523 185 131 105
0.475681 -0.31629 -0.523 186 132 106
0.480876 -0.314476 -0.52 183 128 98
0.481867 -0.314476 -0.52 182 127 97
0.483906 -0.313871 -0.519 179 125 101
0.48598 -0.312662 -0.517 178 127 100
0.488934 -0.312662 -0.517 173 123 98
0.493827 -0.313267 -0.518 170 119 98
0.514452 -0.31871 -0.527 153 111 89
0.0371114 -0.254193 -0.419 201 156 135
0.0387076 -0.254193 -0.419 200 155 134
0.0530733 -0.254193 -0.419 187 142 123
0.0570638 -0.254193 -0.419 176 130 115
0.067761 -0.255407 -0.421 149 104 98
0.08468 -0.26572 -0.438 91 65 68
0.0859048 -0.266933 -0.44 92 66 69
0.0955257 -0.277853 -0.458 91 71 72
0.169261 -0.380987 -0.628 243 253 255
0.201237 -0.38038 -0.627 169 187 225
0.20482 -0.38038 -0.627 239 243 254
0.225482 -0.380987 -0.628 219 221 234
0.227874 -0.380987 -0.628 210 209 227
0.242229 -0.380987 -0.628 183 187 216
0.255387 -0.380987 -0.628 135 153 201
0.261368 -0.380987 -0.628 157 171 218
0.262564 -0.380987 -0.628 168 182 229
0.284548 -0.381593 -0.629 228 230 251
0.286944 -0.381593 -0.629 187 189 210
0.3174 -0.3822 -0.63 102 132 184
0.3198 -0.3822 -0.63 93 125 184
0.337134 -0.382807 -0.631 129 143 178
0.350355 -0.382807 -0.631 144 145 166
0.374393 -0.382807 -0.631 178 179 199
0.380403 -0.382807 -0.631 116 134 180
0.382807 -0.382807 -0.631 114 136 185
0.4218 -0.3822 -0.63 123 131 168
0.4278 -0.3822 -0.63 162 167 187
0.441 -0.3822 -0.63 75 97 146
0.447 -0.3822 -0.63 100 122 180
0.458271 -0.381593 -0.629 160 163 172
0.464262 -0.381593 -0.629 157 166 181
0.482233 -0.381593 -0.629 92 108 144
0.507393 -0.381593 -0.629 100 122 171
0.5118 -0.3822 -0.63 109 130 177
0.514582 -0.381593 -0.629 82 98 149
0.518176 -0.381593 -0.629 168 171 186
0.495734 -0.35126 -0.579 141 104 96
0.475959 -0.334273 -0.551 156 110 95
0.46968 -0.322747 -0.532 171 119 98
0.475681 -0.317287 -0.523 186 132 106
0.486965 -0.313647 -0.517 180 128 104
0.48795 -0.313647 -0.517 180 126 102
0.51842 -0.320927 -0.529 151 110 90
0.0315248 -0.254991 -0.419 201 156 135
0.0347171 -0.254991 -0.419 199 154 133
0.0522752 -0.254991 -0.419 190 143 127
0.0594581 -0.254991 -0.419 178 129 115
0.0652 -0.2556 -0.42 157 113 104
0.078219 -0.261686 -0.43 112 82 82
0.177069 -0.380966 -0.626 201 210 239
0.210455 -0.380966 -0.626 245 252 255
0.242229 -0.382183 -0.628 178 178 212
0.247013 -0.382183 -0.628 167 178 208
0.27333 -0.382183 -0.628 231 239 252
0.275722 -0.382183 -0.628 230 239 254
0.309215 -0.382183 -0.628 193 200 226
0.345 -0.3834 -0.63 121 126 130
0.377999 -0.384009 -0.631 98 111 143
0.393574 -0.382791 -0.629 171 173 194
0.401961 -0.382791 -0.629 82 90 127
0.405555 -0.382791 -0.629 132 138 174
0.425923 -0.382791 -0.629 150 155 187
0.430715 -0.382791 -0.629 165 169 180
0.447489 -0.382791 -0.629 82 108 157
0.465916 -0.382183 -0.628 66 78 116
0.488644 -0.382183 -0.628 75 88 123
0.48984 -0.382183 -0.628 136 146 173
0.472398 -0.320109 -0.526 176 124 100
0.47676 -0.317674 -0.522 183 129 105
0.482973 -0.31524 -0.518 179 125 99
0.491889 -0.314631 -0.517 177 126 99
0.511524 -0.318891 -0.524 155 114 94
0.0223143 -0.260063 -0.426 193 152 132
0.0276 -0.2564 -0.42 198 155 136
0.0292 -0.2564 -0.42 203 158 139
0.0386152 -0.255179 -0.418 198 153 132
0.0433924 -0.255179 -0.418 195 148 128
0.0577238 -0.255179 -0.418 177 127 116
0.05852 -0.255179 -0.418 177 129 115
0.0705 -0.258231 -0.423 141 98 91
0.0961514 -0.28143 -0.461 94 74 75
0.165145 -0.382158 -0.626 240 248 251
0.19646 -0.382769 -0.627 137 157 207
0.209263 -0.382158 -0.626 247 252 255
0.232289 -0.382769 -0.627 241 243 255
0.234677 -0.382769 -0.627 239 243 252
0.237066 -0.382769 -0.627 236 240 249
0.239454 -0.382769 -0.627 189 192 211
0.243037 -0.382769 -0.627 211 217 241
0.262146 -0.382769 -0.627 230 243 255
0.290076 -0.383379 -0.628 227 227 251
0.302751 -0.382769 -0.627 141 142 173
0.321177 -0.383379 -0.628 121 146 200
0.352839 -0.38399 -0.629 124 140 192
0.3714 -0.3846 -0.63 157 156 172
0.3726 -0.3846 -0.63 113 112 128
0.408499 -0.383379 -0.628 140 152 190
0.413284 -0.383379 -0.628 61 84 136
0.415676 -0.383379 -0.628 138 157 200
0.418069 -0.383379 -0.628 114 128 165
0.420461 -0.383379 -0.628 84 98 143
0.426442 -0.383379 -0.628 163 169 205
0.443894 -0.38399 -0.629 94 121 176
0.452281 -0.38399 -0.629 144 154 181
0.499809 -0.382769 -0.627 176 176 188
0.511371 -0.383379 -0.628 103 120 166
0.518917 -0.382769 -0.627 178 176 190
0.470563 -0.325384 -0.533 169 118 97
0.474685 -0.319279 -0.523 186 132 108
0.496812 -0.315616 -0.517 161 113 91
0.0237686 -0.259037 -0.423 197 154 135
0.0291305 -0.256588 -0.419 205 160 139
0.0299286 -0.256588 -0.419 202 157 136
0.0714743 -0.25965 -0.424 132 92 84
0.0754095 -0.262099 -0.428 119 84 80
0.0828219 -0.26761 -0.437 94 72 74
0.0965686 -0.283532 -0.463 93 74 76
0.177691 -0.382126 -0.624 149 158 191
0.184823 -0.382126 -0.624 161 178 224
0.19257 -0.38335 -0.626 172 189 235
0.200916 -0.38335 -0.626 162 176 221
0.2125 -0.382738 -0.625 245 249 252
0.227149 -0.38335 -0.626 249 249 255
0.228341 -0.38335 -0.626 244 244 255
0.275283 -0.383963 -0.627 230 235 254
0.28842 -0.383963 -0.627 228 228 252
0.322373 -0.384575 -0.628 116 139 191
0.32955 -0.384575 -0.628 189 194 213
0.343254 -0.385188 -0.629 156 162 174
0.356433 -0.385188 -0.629 168 175 203
0.357631 -0.385188 -0.629 167 174 202
0.3666 -0.3858 -0.63 170 175 205
0.373207 -0.385188 -0.629 106 110 122
0.384575 -0.384575 -0.628 74 101 148
0.38936 -0.384575 -0.628 163 176 210
0.421657 -0.384575 -0.628 42 58 107
0.456814 -0.383963 -0.627 168 168 180
0.471146 -0.383963 -0.627 156 167 185
0.479074 -0.384575 -0.628 131 136 166
0.484283 -0.383963 -0.627 140 144 171
0.490254 -0.383963 -0.627 124 129 149
0.471026 -0.328849 -0.537 164 116 96
0.4735 -0.3215 -0.525 176 124 103
0.475766 -0.319663 -0.522 179 127 103
0.484995 -0.316601 -0.517 180 129 102
0.492903 -0.315989 -0.516 173 123 100
0.505638 -0.318438 -0.52 163 118 97
0.0322457 -0.256771 -0.418 202 157 136
0.0346343 -0.256771 -0.418 200 153 133
0.05852 -0.256771 -0.418 173 127 112
0.0687257 -0.259229 -0.422 141 103 92
0.16753 -0.384543 -0.626 249 250 254
0.175314 -0.383314 -0.624 186 191 210
0.176503 -0.383314 -0.624 179 186 215
0.177691 -0.383314 -0.624 184 191 220
0.1872 -0.383314 -0.624 136 153 199
0.195833 -0.383929 -0.625 172 191 231
0.197024 -0.383929 -0.625 178 197 237
0.200595 -0.383929 -0.625 161 175 212
0.210119 -0.383929 -0.625 247 252 255
0.231548 -0.383929 -0.625 241 244 251
0.250996 -0.384543 -0.626 166 180 219
0.276036 -0.384543 -0.626 228 231 250
0.305846 -0.384543 -0.626 179 179 191
0.310615 -0.384543 -0.626 151 158 184
0.324249 -0.385157 -0.627 126 150 196
0.329026 -0.385157 -0.627 193 198 217
0.335531 -0.385771 -0.628 178 187 218
0.336728 -0.385771 -0.628 163 172 203
0.340316 -0.385771 -0.628 126 137 167
0.35467 -0.385771 -0.628 165 175 210
0.411431 -0.385157 -0.627 30 53 103
0.412626 -0.385157 -0.627 58 81 131
0.426957 -0.385157 -0.627 167 170 187
0.429346 -0.385157 -0.627 169 166 185
0.437706 -0.385157 -0.627 91 103 119
0.512946 -0.385157 -0.627 103 120 163
0.52 -0.383314 -0.624 137 147 174
0.472183 -0.324343 -0.528 158 107 88
0.4734 -0.323114 -0.526 172 120 99
0.475681 -0.321271 -0.523 178 126 104
0.479951 -0.318814 -0.519 179 125 99
0.531406 -0.329257 -0.536 155 114 94
0.0346343 -0.257568 -0.418 200 153 133
0.0425962 -0.257568 -0.418 196 151 132
0.0441886 -0.257568 -0.418 191 146 127
0.0569276 -0.257568 -0.418 174 126 112
0.238309 -0.384503 -0.624 182 188 214
0.239497 -0.384503 -0.624 213 219 241
0.277976 -0.385119 -0.625 229 232 249
0.295114 -0.385735 -0.626 217 223 245
0.297499 -0.385735 -0.626 184 191 219
0.302269 -0.385735 -0.626 205 204 235
0.323054 -0.386351 -0.627 105 129 177
0.343357 -0.386351 -0.627 144 157 189
0.359455 -0.386968 -0.628 93 105 145
0.363044 -0.386968 -0.628 148 154 190
0.369025 -0.386968 -0.628 179 180 201
0.393517 -0.386351 -0.627 166 167 187
0.407849 -0.386351 -0.627 138 153 196
0.410237 -0.386351 -0.627 64 85 130
0.419122 -0.385735 -0.626 130 138 174
0.425084 -0.385735 -0.626 155 165 192
0.429853 -0.385735 -0.626 169 167 188
0.43343 -0.385735 -0.626 169 168 174
0.441289 -0.386351 -0.627 100 123 173
0.442483 -0.386351 -0.627 108 131 181
0.510935 -0.385735 -0.626 75 98 152
0.522727 -0.383887 -0.623 120 133 165
0.510567 -0.366633 -0.595 137 103 91
0.4758 -0.33644 -0.546 154 112 98
0.472049 -0.330894 -0.537 159 113 97
0.475592 -0.322884 -0.524 174 122 100
0.476677 -0.322268 -0.523 177 125 103
0.483026 -0.31857 -0.517 171 119 97
0.49489 -0.317338 -0.515 169 117 95
0.499783 -0.317954 -0.516 169 121 99
0.0244 -0.2596 -0.42 201 158 139
0.0267362 -0.258982 -0.419 202 157 138
0.0529467 -0.258364 -0.418 176 131 110
0.0602562 -0.258982 -0.419 168 126 110
0.0679219 -0.260836 -0.422 142 104 93
0.184527 -0.385073 -0.623 155 174 207
0.185713 -0.385073 -0.623 151 169 215
0.19046 -0.385073 -0.623 163 184 229
0.197897 -0.385691 -0.624 233 246 255
0.200274 -0.385691 -0.624 204 212 231
0.215726 -0.385691 -0.624 243 246 251
0.226423 -0.385691 -0.624 242 244 255
0.231177 -0.385691 -0.624 240 244 255
0.233554 -0.385691 -0.624 205 211 227
0.255357 -0.38631 -0.625 186 200 235
0.26131 -0.38631 -0.625 232 236 255
0.263269 -0.385691 -0.624 230 237 255
0.264457 -0.385691 -0.624 229 236 254
0.266834 -0.385691 -0.624 213 219 243
0.268023 -0.385691 -0.624 185 191 215
0.294643 -0.38631 -0.625 209 215 241
0.299884 -0.386928 -0.626 209 216 235
0.336191 -0.387546 -0.627 190 194 223
0.343357 -0.387546 -0.627 144 157 189
0.363044 -0.388164 -0.628 158 168 193
0.381574 -0.387546 -0.627 99 124 178
0.385157 -0.387546 -0.627 77 103 152
0.390505 -0.386928 -0.626 174 175 193
0.396467 -0.386928 -0.626 174 173 191
0.400044 -0.386928 -0.626 77 84 112
0.404813 -0.386928 -0.626 119 132 174
0.429853 -0.386928 -0.626 172 172 196
0.440585 -0.386928 -0.626 103 123 173
0.447739 -0.386928 -0.626 95 110 153
0.466071 -0.38631 -0.625 168 169 190
0.479167 -0.38631 -0.625 166 171 193
0.5125 -0.38631 -0.625 118 139 192
0.493235 -0.352932 -0.571 144 106 93
0.487397 -0.347988 -0.563 147 107 95
0.477543 -0.338716 -0.548 152 113 98
0.471578 -0.329445 -0.533 166 118 96
0.472843 -0.328209 -0.531 163 115 93
0.474594 -0.323882 -0.524 174 122 101
0.496852 -0.318319 -0.515 168 118 95
0.0297857 -0.25854 -0.417 200 155 136
0.0425962 -0.25916 -0.418 193 146 128
0.0799571 -0.2697 -0.435 95 73 75
0.181861 -0.38564 -0.622 214 225 255
0.239113 -0.38626 -0.623 234 240 255
0.26522 -0.38626 -0.623 237 242 255
0.27234 -0.38626 -0.623 216 220 249
0.274713 -0.38626 -0.623 210 212 237
0.31369 -0.3875 -0.625 131 155 201
0.319643 -0.3875 -0.625 115 143 193
0.334997 -0.38874 -0.627 186 190 219
0.358883 -0.38874 -0.627 44 62 108
0.37202 -0.38874 -0.627 177 181 206
0.374409 -0.38874 -0.627 123 133 168
0.389312 -0.38812 -0.626 172 174 189
0.43631 -0.3875 -0.625 127 136 151
0.4625 -0.3875 -0.625 148 153 182
0.507738 -0.3875 -0.625 48 78 142
0.4745 -0.3255 -0.525 171 120 101
0.476839 -0.32302 -0.521 171 119 98
0.483074 -0.31992 -0.516 177 125 104
0.509609 -0.32178 -0.519 155 110 89
0.514543 -0.32364 -0.522 155 112 95
0.0167905 -0.267419 -0.43 197 154 135
0.0409057 -0.259334 -0.417 196 149 131
0.0424943 -0.259334 -0.417 192 145 127
0.0449848 -0.259956 -0.418 190 143 125
0.0497619 -0.259956 -0.418 181 136 115
0.0505581 -0.259956 -0.418 181 136 115
0.163429 -0.388069 -0.624 243 246 251
0.245047 -0.387447 -0.623 195 202 221
0.259703 -0.388069 -0.624 221 227 253
0.26522 -0.387447 -0.623 229 234 253
0.285851 -0.388069 -0.624 163 169 229
0.290606 -0.388069 -0.624 189 197 218
0.300114 -0.388069 -0.624 206 213 231
0.312 -0.388069 -0.624 116 136 173
0.322024 -0.38869 -0.625 98 123 180
0.329693 -0.389312 -0.626 189 198 215
0.357118 -0.389312 -0.626 106 123 166
0.358883 -0.389934 -0.627 61 78 121
0.3875 -0.38869 -0.625 162 173 205
0.392262 -0.38869 -0.625 155 158 175
0.4125 -0.38869 -0.625 123 136 170
0.43869 -0.38869 -0.625 111 125 162
0.449874 -0.388069 -0.624 153 162 193
0.465326 -0.388069 -0.624 171 172 193
0.47008 -0.388069 -0.624 174 171 192
0.490286 -0.388069 -0.624 128 130 151
0.519167 -0.387447 -0.623 68 74 106
0.47272 -0.330853 -0.532 167 119 99
0.478963 -0.322769 -0.519 176 123 105
0.483119 -0.320281 -0.515 178 125 107
0.50666 -0.321525 -0.517 161 114 96
0.512571 -0.32339 -0.52 152 113 98
0.0152933 -0.270733 -0.434 196 155 133
0.0274029 -0.260129 -0.417 191 148 129
0.0385229 -0.260129 -0.417 196 149 133
0.0441886 -0.260752 -0.418 190 143 125
0.0594581 -0.261376 -0.419 164 123 101
0.0895029 -0.28321 -0.454 91 72 74
0.172106 -0.387386 -0.621 192 202 229
0.17802 -0.387386 -0.621 238 244 255
0.200817 -0.38801 -0.622 236 240 251
0.220127 -0.388633 -0.623 179 182 199
0.23399 -0.38801 -0.622 221 223 246
0.237545 -0.38801 -0.622 239 240 255
0.280647 -0.388633 -0.623 211 217 249
0.285393 -0.388633 -0.623 144 160 212
0.31506 -0.388633 -0.623 126 153 200
0.350595 -0.389881 -0.625 77 106 172
0.365465 -0.390505 -0.626 172 176 201
0.401143 -0.389257 -0.624 155 163 184
0.413029 -0.389257 -0.624 154 161 189
0.423214 -0.389881 -0.625 163 165 188
0.426786 -0.389881 -0.625 69 71 110
0.431548 -0.389881 -0.625 164 170 192
0.44322 -0.388633 -0.623 88 110 167
0.45746 -0.388633 -0.623 76 77 105
0.476023 -0.389257 -0.624 169 170 190
0.494638 -0.38801 -0.622 87 97 133
0.50018 -0.388633 -0.623 104 121 167
0.501367 -0.388633 -0.623 110 127 173
0.478755 -0.341224 -0.547 160 109 92
0.477166 -0.339352 -0.544 161 110 93
0.475565 -0.337481 -0.541 163 112 95
0.47348 -0.333114 -0.534 161 114 98
0.475766 -0.325629 -0.522 172 119 101
0.477905 -0.324381 -0.52 179 123 106
0.503719 -0.321262 -0.515 158 111 95
0.511586 -0.323757 -0.519 155 113 97
0.03614 -0.260923 -0.417 197 150 132
0.0561314 -0.261549 -0.418 173 128 107
0.062 -0.2628 -0.42 153 109 100
0.156476 -0.387943 -0.62 236 239 244
0.189849 -0.388569 -0.621 194 207 239
0.19458 -0.388569 -0.621 217 223 255
0.207926 -0.389194 -0.622 236 245 255
0.243469 -0.389194 -0.622 229 233 245
0.245838 -0.389194 -0.622 170 180 205
0.256501 -0.389194 -0.622 171 180 221
0.257686 -0.389194 -0.622 175 184 225
0.26124 -0.389194 -0.622 232 238 254
0.299152 -0.389194 -0.622 209 211 234
