ply
format ascii 1.0
comment Created by Open3D
element vertex 1322
property double x
property double y
property double z
property uchar red
property uchar green
property uchar blue
end_header
-0.321271 -0.232814 -0.645 246 249 242
-0.318814 -0.232814 -0.645 251 254 247
-0.312927 -0.232092 -0.643 152 153 148
-0.308771 -0.231731 -0.642 138 139 134
-0.297929 -0.232814 -0.645 145 146 141
-0.172226 -0.230649 -0.639 182 182 172
-0.155655 -0.233175 -0.646 187 187 175
0.145196 -0.17037 -0.472 176 128 118
0.155222 -0.168565 -0.467 167 117 108
0.16764 -0.16676 -0.462 154 105 100
0.17468 -0.16676 -0.462 141 96 91
0.185069 -0.168204 -0.466 133 89 80
0.188134 -0.168565 -0.467 134 90 81
0.207643 -0.171452 -0.475 121 82 77
0.269386 -0.196719 -0.545 74 49 53
0.2886 -0.19708 -0.546 80 57 63
0.314286 -0.190583 -0.528 116 89 94
0.325256 -0.188778 -0.523 125 102 110
0.327249 -0.188778 -0.523 120 93 100
0.437706 -0.226317 -0.627 60 58 71
0.387775 -0.197802 -0.548 112 93 99
0.383114 -0.191305 -0.53 149 99 90
0.44772 -0.19708 -0.546 139 93 93
0.468094 -0.203216 -0.563 130 89 95
-0.167783 -0.230777 -0.636 183 183 175
-0.0523762 -0.234769 -0.647 70 69 74
-0.04752 -0.235131 -0.648 75 72 79
0.141257 -0.174171 -0.48 179 135 126
0.143103 -0.171994 -0.474 174 127 119
0.150848 -0.170543 -0.47 171 123 113
0.152313 -0.17018 -0.469 168 118 109
0.17116 -0.16764 -0.462 150 103 97
0.1943 -0.17018 -0.469 130 86 77
0.196505 -0.170543 -0.47 128 85 78
0.1974 -0.170543 -0.47 128 85 78
0.203165 -0.171631 -0.473 122 81 75
0.206303 -0.171994 -0.474 121 82 77
0.213953 -0.173809 -0.479 115 77 74
0.284961 -0.198483 -0.547 76 53 59
0.29322 -0.197031 -0.543 89 62 67
0.301691 -0.194491 -0.536 101 74 79
0.3305 -0.1905 -0.525 122 97 103
0.379063 -0.209006 -0.576 42 38 53
0.382347 -0.194491 -0.536 167 119 109
0.401783 -0.191589 -0.528 115 71 68
0.42104 -0.19304 -0.532 132 84 84
0.425674 -0.193766 -0.534 136 88 88
0.442157 -0.197031 -0.543 128 82 82
0.451448 -0.198846 -0.548 133 87 89
-0.327197 -0.236001 -0.647 250 251 245
-0.318554 -0.234177 -0.642 211 214 207
-0.30707 -0.233812 -0.641 139 140 135
-0.16631 -0.231624 -0.635 184 184 174
-0.0497571 -0.235271 -0.645 73 73 75
0.14352 -0.18384 -0.504 181 136 130
0.143405 -0.173262 -0.475 173 126 118
0.154663 -0.170709 -0.468 172 122 113
0.159871 -0.169614 -0.465 167 117 110
0.161295 -0.16925 -0.464 168 118 111
0.190727 -0.171073 -0.469 133 89 80
0.192513 -0.171073 -0.469 132 88 79
0.194714 -0.171438 -0.47 131 87 78
0.213041 -0.174721 -0.479 117 79 76
0.22586 -0.179098 -0.491 95 65 63
0.272905 -0.200619 -0.55 72 47 53
0.278103 -0.201349 -0.552 69 46 52
0.278649 -0.200984 -0.551 69 46 52
0.284438 -0.19989 -0.548 75 52 58
0.296193 -0.196607 -0.539 93 66 73
0.31369 -0.19223 -0.527 113 86 91
0.326876 -0.191135 -0.524 117 91 100
0.422053 -0.194053 -0.532 134 86 86
0.43582 -0.196607 -0.539 125 80 77
-0.313905 -0.234667 -0.64 153 154 149
-0.160806 -0.2354 -0.642 185 185 173
-0.156886 -0.236867 -0.646 186 186 174
-0.0534429 -0.2365 -0.645 69 70 75
0.142266 -0.180767 -0.493 183 139 136
0.146994 -0.173067 -0.472 175 122 114
0.148477 -0.1727 -0.471 176 124 113
0.162711 -0.169767 -0.463 162 112 105
0.163593 -0.169767 -0.463 161 111 104
0.164475 -0.169767 -0.463 159 108 104
0.165357 -0.169767 -0.463 158 107 103
0.167121 -0.169767 -0.463 158 107 103
0.178971 -0.170133 -0.464 140 93 87
0.184181 -0.170867 -0.466 136 92 83
0.207643 -0.174167 -0.475 122 81 77
0.211686 -0.175267 -0.478 118 79 74
0.22632 -0.1804 -0.492 93 63 63
0.228181 -0.181133 -0.494 92 63 65
0.286003 -0.200567 -0.547 82 57 63
0.291186 -0.199833 -0.545 86 59 64
0.292724 -0.199467 -0.544 88 61 66
0.302148 -0.196167 -0.535 100 74 77
0.31085 -0.193967 -0.529 110 83 88
0.3165 -0.1925 -0.525 111 84 89
0.31989 -0.192133 -0.524 188 167 172
0.340234 -0.1958 -0.534 32 29 40
0.386552 -0.214133 -0.584 44 43 59
0.411026 -0.222567 -0.607 54 53 69
0.42642 -0.2277 -0.621 51 52 70
0.382347 -0.196533 -0.536 168 118 111
0.38998 -0.193233 -0.527 125 82 76
0.457673 -0.202767 -0.553 131 87 86
-0.285737 -0.238834 -0.648 251 252 247
-0.173443 -0.235517 -0.639 181 183 172
-0.164407 -0.23478 -0.637 184 184 174
-0.0588095 -0.239571 -0.65 68 67 73
-0.0546714 -0.237729 -0.645 68 68 76
0.141551 -0.177283 -0.481 182 133 126
0.152638 -0.173229 -0.47 161 111 102
0.157552 -0.171754 -0.466 169 119 110
0.16183 -0.170649 -0.463 167 117 110
0.187646 -0.172491 -0.468 138 91 83
0.19782 -0.173597 -0.471 127 84 77
0.214847 -0.177283 -0.481 112 75 69
0.216211 -0.177651 -0.482 110 73 67
0.290148 -0.200871 -0.545 86 59 64
0.305205 -0.197186 -0.535 102 75 80
0.30798 -0.195711 -0.531 104 79 83
0.317893 -0.193131 -0.524 163 138 144
0.37731 -0.211929 -0.575 42 41 55
0.392106 -0.217089 -0.589 45 44 60
0.384237 -0.200134 -0.543 144 115 117
0.383143 -0.199029 -0.54 160 115 112
0.385691 -0.194606 -0.528 137 90 80
0.391988 -0.194237 -0.527 122 79 73
0.392991 -0.194237 -0.527 122 79 73
0.412064 -0.194237 -0.527 137 89 87
-0.323151 -0.236734 -0.639 250 253 246
-0.31657 -0.236364 -0.638 154 156 151
-0.314139 -0.236364 -0.638 156 157 152
-0.171687 -0.235993 -0.637 181 183 172
-0.1651 -0.235252 -0.635 184 184 174
-0.16345 -0.236364 -0.638 183 185 174
-0.0509067 -0.238587 -0.644 73 71 76
0.141551 -0.178199 -0.481 181 134 126
0.145504 -0.175235 -0.473 173 125 115
0.154663 -0.173383 -0.468 177 124 116
0.155777 -0.172642 -0.466 173 120 112
0.160411 -0.171901 -0.464 171 118 110
0.16852 -0.17116 -0.462 157 107 100
0.182014 -0.172271 -0.465 140 93 83
0.187646 -0.173383 -0.468 138 91 83
0.281286 -0.203762 -0.55 76 53 59
0.283394 -0.203021 -0.548 76 53 59
0.287045 -0.20265 -0.547 84 59 65
0.28964 -0.20228 -0.546 85 58 63
0.305205 -0.198205 -0.535 102 75 80
0.3145 -0.1945 -0.525 117 92 98
0.347003 -0.201169 -0.543 33 31 44
0.388329 -0.216729 -0.585 44 43 59
0.430167 -0.230807 -0.623 53 52 68
0.382826 -0.196723 -0.531 157 103 103
0.391988 -0.195241 -0.527 125 82 76
0.394999 -0.195241 -0.527 126 83 77
0.399014 -0.195241 -0.527 117 76 70
0.401022 -0.195241 -0.527 116 75 69
0.413851 -0.195611 -0.528 135 90 87
0.414857 -0.195611 -0.528 134 89 86
0.439498 -0.200428 -0.541 140 94 96
-0.312924 -0.237579 -0.638 150 151 146
-0.280429 -0.242048 -0.65 252 253 247
-0.161776 -0.238696 -0.641 185 187 176
0.146405 -0.176136 -0.473 176 126 119
0.150848 -0.175019 -0.47 176 123 115
0.152313 -0.174647 -0.469 178 123 116
0.158986 -0.173157 -0.465 171 118 112
0.162711 -0.172412 -0.463 168 118 111
0.1694 -0.17204 -0.462 159 110 103
0.178971 -0.172785 -0.464 139 94 88
0.292724 -0.202575 -0.544 87 62 66
0.294254 -0.202203 -0.543 91 64 69
0.334657 -0.197362 -0.53 37 28 31
0.390774 -0.218588 -0.587 45 44 60
0.409671 -0.22529 -0.605 54 53 69
0.426914 -0.230876 -0.62 53 50 67
0.42851 -0.199224 -0.535 145 99 101
-0.316789 -0.238046 -0.636 151 152 147
-0.168994 -0.238046 -0.636 185 185 175
-0.162029 -0.240291 -0.642 186 186 176
-0.1591 -0.241414 -0.645 187 187 177
0.154663 -0.175166 -0.468 170 117 109
0.167121 -0.173294 -0.463 162 112 105
0.17116 -0.17292 -0.462 157 108 101
0.173294 -0.173294 -0.463 147 100 92
0.185466 -0.174791 -0.467 139 92 84
0.190727 -0.17554 -0.469 132 87 81
0.206267 -0.17816 -0.476 118 75 66
0.221214 -0.183026 -0.489 90 65 68
0.282333 -0.205857 -0.55 73 52 61
0.2886 -0.20436 -0.546 84 61 69
0.29068 -0.20436 -0.546 83 58 64
0.299273 -0.20174 -0.539 97 70 75
0.303167 -0.200243 -0.535 102 73 77
0.305205 -0.200243 -0.535 103 74 78
0.307547 -0.19912 -0.532 107 78 82
0.312687 -0.197249 -0.527 107 82 88
0.318891 -0.196126 -0.524 124 98 107
0.3382 -0.199869 -0.534 36 36 48
0.376214 -0.215214 -0.575 36 40 52
0.389443 -0.218957 -0.585 47 45 59
0.398157 -0.221951 -0.593 49 48 62
0.416062 -0.228689 -0.611 49 48 66
0.382237 -0.199494 -0.533 158 115 109
0.40527 -0.196874 -0.526 138 90 90
0.44876 -0.20436 -0.546 136 92 93
-0.334591 -0.243395 -0.647 252 255 246
-0.157371 -0.243771 -0.648 187 187 177
0.142624 -0.18471 -0.491 185 142 135
0.147893 -0.177562 -0.472 179 126 118
0.151169 -0.177186 -0.471 178 123 116
0.156111 -0.175681 -0.467 172 119 111
0.163593 -0.174176 -0.463 167 114 108
0.164475 -0.174176 -0.463 168 113 106
0.194231 -0.177186 -0.471 129 84 78
0.2067 -0.179443 -0.477 118 75 66
0.218454 -0.183205 -0.487 95 65 65
0.238953 -0.192233 -0.511 84 59 63
0.26718 -0.206529 -0.549 62 51 68
0.294745 -0.203895 -0.542 90 63 68
0.3185 -0.1975 -0.525 204 181 191
0.321886 -0.197124 -0.524 142 119 129
0.353806 -0.207657 -0.552 32 34 47
0.42436 -0.232486 -0.618 62 58 72
0.388709 -0.198629 -0.528 127 82 76
0.38998 -0.198252 -0.527 123 80 73
0.390984 -0.198252 -0.527 123 80 73
0.391988 -0.198252 -0.527 125 82 75
0.399259 -0.197876 -0.526 109 66 60
-0.325269 -0.240469 -0.636 250 251 245
-0.323548 -0.24009 -0.635 252 253 247
-0.319919 -0.24009 -0.635 155 156 151
-0.3175 -0.24009 -0.635 147 148 143
0.14431 -0.179595 -0.475 180 130 119
0.153533 -0.177705 -0.47 175 122 114
0.157001 -0.17657 -0.467 172 119 111
0.157552 -0.176192 -0.466 171 118 110
0.178088 -0.175436 -0.464 142 95 87
0.250926 -0.199634 -0.528 170 163 194
0.283381 -0.207952 -0.55 73 53 64
0.310429 -0.20039 -0.53 109 80 84
0.311438 -0.20039 -0.53 110 81 85
0.314097 -0.198878 -0.526 113 87 96
0.3145 -0.1985 -0.525 116 90 99
0.3155 -0.1985 -0.525 146 123 133
0.31989 -0.198122 -0.524 159 133 142
0.355088 -0.209465 -0.554 39 37 51
0.373814 -0.216649 -0.573 76 75 89
0.380379 -0.218539 -0.578 80 79 93
0.415381 -0.230638 -0.61 58 56 70
0.382347 -0.202659 -0.536 161 114 108
0.388709 -0.199634 -0.528 127 82 76
0.435011 -0.203415 -0.538 127 81 81
-0.33304 -0.24472 -0.644 250 253 246
-0.323038 -0.24092 -0.634 251 252 246
-0.319415 -0.24092 -0.634 147 148 143
-0.276714 -0.247 -0.65 251 252 247
-0.182338 -0.24662 -0.649 183 183 171
-0.156619 -0.247 -0.65 189 186 177
0.152066 -0.17898 -0.471 178 126 115
0.1541 -0.17822 -0.469 170 120 111
0.161295 -0.17632 -0.464 173 120 112
0.168003 -0.17594 -0.463 167 114 108
0.17632 -0.17632 -0.464 144 97 89
0.181518 -0.17708 -0.466 141 94 86
0.21571 -0.1843 -0.485 101 70 67
0.243683 -0.19722 -0.519 83 71 85
0.282133 -0.2128 -0.56 72 52 63
0.282786 -0.2109 -0.555 69 56 65
0.286003 -0.20862 -0.549 78 57 66
0.29172 -0.20748 -0.546 87 62 68
0.29322 -0.20634 -0.543 92 65 70
0.312687 -0.20026 -0.527 106 80 89
0.32612 -0.19988 -0.526 124 97 106
0.329371 -0.20064 -0.528 82 61 70
0.377966 -0.21888 -0.576 84 83 99
0.4147 -0.23142 -0.609 68 64 78
0.382822 -0.20558 -0.541 169 124 119
0.382826 -0.20178 -0.531 153 106 100
0.39072 -0.20064 -0.528 126 81 75
0.401263 -0.19988 -0.526 141 98 92
0.425892 -0.20254 -0.533 137 91 91
0.445044 -0.20672 -0.544 135 94 92
-0.322529 -0.241746 -0.633 249 250 244
-0.319415 -0.242128 -0.634 143 145 140
-0.167783 -0.242891 -0.636 186 186 174
-0.163506 -0.245565 -0.643 188 188 178
0.1431 -0.182169 -0.477 178 130 116
0.14431 -0.181405 -0.475 176 128 114
0.158986 -0.177586 -0.465 172 122 113
0.184971 -0.178731 -0.468 136 92 83
0.18626 -0.179113 -0.469 135 91 82
0.193334 -0.179877 -0.471 127 84 77
0.2323 -0.192862 -0.505 89 59 67
0.245091 -0.199354 -0.522 176 165 179
0.282237 -0.218068 -0.571 67 59 74
0.284387 -0.211575 -0.554 73 53 65
0.292724 -0.207756 -0.544 90 65 71
0.302148 -0.204319 -0.535 100 74 77
0.3245 -0.2005 -0.525 115 88 97
0.340971 -0.206229 -0.54 30 30 42
0.397486 -0.226088 -0.592 51 48 65
0.382037 -0.205083 -0.537 165 120 115
0.41106 -0.201264 -0.527 134 85 88
0.412064 -0.201264 -0.527 132 83 86
0.427709 -0.203937 -0.534 137 91 91
0.450624 -0.208902 -0.547 136 96 94
-0.318208 -0.243335 -0.634 142 144 139
-0.182619 -0.249476 -0.65 186 183 176
-0.167519 -0.243719 -0.635 188 186 174
-0.163506 -0.24679 -0.643 190 188 176
-0.160826 -0.248325 -0.647 188 188 176
-0.157857 -0.249476 -0.65 189 187 175
-0.071081 -0.249092 -0.649 63 60 71
0.178471 -0.178471 -0.465 139 96 87
0.189343 -0.18039 -0.47 132 89 80
0.220249 -0.18845 -0.491 93 64 66
0.23322 -0.194591 -0.507 88 58 66
0.236033 -0.196127 -0.511 86 61 64
0.286302 -0.221458 -0.577 62 63 84
0.286903 -0.221074 -0.576 68 56 70
0.285333 -0.214933 -0.56 71 53 67
0.284927 -0.212247 -0.553 75 55 67
0.28757 -0.210328 -0.548 80 59 68
0.29017 -0.209944 -0.547 82 59 67
0.292224 -0.209176 -0.545 87 64 72
0.29722 -0.206873 -0.539 93 68 72
0.310429 -0.203419 -0.53 108 81 88
0.36558 -0.21762 -0.567 111 117 131
0.376869 -0.221074 -0.576 61 63 76
0.39435 -0.226064 -0.589 54 50 67
0.385414 -0.203035 -0.529 151 104 98
0.386697 -0.202651 -0.528 142 93 86
0.392991 -0.202268 -0.527 127 79 75
0.42408 -0.204187 -0.532 135 90 87
0.427709 -0.204954 -0.534 139 94 91
0.443191 -0.208409 -0.543 135 94 92
-0.317706 -0.244157 -0.633 142 145 138
-0.315792 -0.244543 -0.634 134 135 130
-0.1729 -0.2457 -0.637 186 186 176
-0.04752 -0.249943 -0.648 72 71 79
0.170649 -0.178586 -0.463 154 107 97
0.181908 -0.180129 -0.467 135 88 80
0.188448 -0.181286 -0.47 133 88 82
0.201733 -0.1836 -0.476 118 80 77
0.204402 -0.184371 -0.478 120 81 76
0.20935 -0.185529 -0.481 111 74 68
0.213862 -0.187071 -0.485 104 70 69
0.219313 -0.189386 -0.491 92 63 67
0.221146 -0.190157 -0.493 92 63 67
0.223436 -0.191314 -0.496 91 66 69
0.287371 -0.217543 -0.564 75 55 67
0.28914 -0.211757 -0.549 81 60 69
0.294745 -0.209057 -0.542 91 66 72
0.299186 -0.207129 -0.537 99 72 79
0.401307 -0.229886 -0.596 60 56 70
0.387703 -0.203657 -0.528 134 86 76
0.393737 -0.203657 -0.528 129 81 77
0.398257 -0.202886 -0.526 128 80 78
0.408276 -0.202886 -0.526 136 91 88
0.432373 -0.206743 -0.536 134 90 89
0.459556 -0.213686 -0.554 138 98 96
-0.328207 -0.246913 -0.637 251 254 247
-0.281164 -0.250402 -0.646 250 251 246
-0.277525 -0.251565 -0.649 252 252 250
-0.276714 -0.251952 -0.65 251 251 249
-0.162786 -0.250014 -0.645 189 189 179
-0.0700952 -0.248076 -0.64 62 62 74
-0.0607924 -0.244975 -0.632 69 67 80
-0.0509067 -0.249627 -0.644 71 71 83
0.168885 -0.179468 -0.463 160 112 102
0.172785 -0.179855 -0.464 147 103 92
0.174552 -0.179855 -0.464 146 99 89
0.179743 -0.18063 -0.466 140 98 86
0.18408 -0.181406 -0.468 135 91 82
0.185367 -0.181793 -0.469 136 93 86
0.208433 -0.186445 -0.481 114 75 70
0.245968 -0.203888 -0.526 255 245 249
0.251743 -0.206989 -0.534 255 253 255
0.295714 -0.209314 -0.54 93 66 75
0.296193 -0.208927 -0.539 93 67 76
0.303167 -0.207376 -0.535 101 74 81
0.308991 -0.205826 -0.531 107 80 87
0.310429 -0.205438 -0.53 107 82 88
0.336009 -0.208151 -0.537 30 28 42
0.338914 -0.209314 -0.54 31 29 43
0.388141 -0.215516 -0.556 92 80 92
0.3892 -0.215516 -0.556 92 80 92
0.385133 -0.205438 -0.53 146 99 91
0.394999 -0.204275 -0.527 140 95 89
0.4005 -0.2035 -0.525 134 86 84
0.4035 -0.2035 -0.525 139 94 91
0.436036 -0.208539 -0.538 129 87 88
0.451666 -0.212028 -0.547 136 94 95
-0.339334 -0.252801 -0.649 252 253 247
-0.336535 -0.251632 -0.646 252 253 247
-0.333748 -0.250464 -0.643 253 255 249
-0.320117 -0.246569 -0.633 150 152 147
-0.166833 -0.248127 -0.637 187 187 177
-0.0595886 -0.246179 -0.632 70 68 81
-0.0573619 -0.246958 -0.634 70 68 81
0.143709 -0.193983 -0.498 181 134 128
0.143405 -0.185024 -0.475 177 124 116
0.168885 -0.18035 -0.463 162 112 101
0.17153 -0.18035 -0.463 155 107 97
0.187552 -0.183076 -0.47 134 89 84
0.31369 -0.205279 -0.527 116 88 102
0.376424 -0.224755 -0.577 46 45 59
0.385229 -0.226703 -0.582 90 92 107
0.415381 -0.23761 -0.61 55 51 68
0.382347 -0.208785 -0.536 161 116 110
0.383547 -0.207227 -0.532 151 103 99
0.39072 -0.205669 -0.528 134 87 81
0.4015 -0.2045 -0.525 125 80 75
0.4025 -0.2045 -0.525 132 87 82
0.408276 -0.20489 -0.526 137 89 85
0.410056 -0.205279 -0.527 135 87 83
0.434203 -0.209174 -0.537 129 85 82
-0.328207 -0.24934 -0.637 250 253 246
-0.279134 -0.253254 -0.647 251 251 249
-0.278331 -0.253646 -0.648 251 251 249
-0.277525 -0.254037 -0.649 251 251 249
-0.170473 -0.24934 -0.637 188 188 178
-0.0771429 -0.253646 -0.648 69 67 81
0.157552 -0.182406 -0.466 175 122 114
0.164475 -0.181231 -0.463 164 114 103
0.168003 -0.181231 -0.463 162 112 101
0.168885 -0.181231 -0.463 162 112 101
0.172785 -0.181623 -0.464 150 102 92
0.177586 -0.182014 -0.465 143 96 88
0.185367 -0.18358 -0.469 137 90 84
0.18626 -0.18358 -0.469 135 88 82
0.29276 -0.21372 -0.546 85 65 76
0.305651 -0.209023 -0.534 103 76 83
0.307686 -0.209023 -0.534 104 77 82
0.30856 -0.20824 -0.532 104 78 81
0.311858 -0.207066 -0.529 111 85 96
0.320717 -0.206283 -0.527 121 94 101
0.322725 -0.206283 -0.527 116 89 96
0.352133 -0.217634 -0.556 33 32 40
0.361062 -0.221157 -0.565 48 53 59
0.364702 -0.222723 -0.569 78 80 92
0.371187 -0.22468 -0.574 38 42 54
0.422498 -0.241511 -0.617 74 66 87
0.388709 -0.206674 -0.528 134 87 81
0.389714 -0.206674 -0.528 139 92 86
0.399259 -0.205891 -0.526 127 82 79
0.427709 -0.209023 -0.534 132 91 89
-0.173443 -0.25134 -0.639 187 187 179
-0.0486038 -0.254093 -0.646 71 69 82
0.141512 -0.190373 -0.484 178 125 117
0.144006 -0.18644 -0.474 180 128 117
0.147893 -0.185653 -0.472 175 123 112
0.153207 -0.184473 -0.469 183 131 120
0.157552 -0.183293 -0.466 177 124 116
0.161295 -0.182507 -0.464 170 117 109
0.17153 -0.182113 -0.463 150 101 94
0.173669 -0.182507 -0.464 145 98 92
0.174929 -0.1829 -0.465 143 96 90
0.189746 -0.18526 -0.471 126 81 78
0.212889 -0.191553 -0.487 100 68 71
0.220157 -0.1947 -0.495 93 64 68
0.22659 -0.197847 -0.503 84 59 62
0.236377 -0.20296 -0.516 86 67 69
0.292789 -0.215547 -0.548 84 64 75
0.2943 -0.214367 -0.545 89 68 77
0.319713 -0.207287 -0.527 113 90 96
0.334585 -0.211613 -0.538 31 28 39
0.407169 -0.23718 -0.603 74 70 84
0.382114 -0.2124 -0.54 166 119 113
0.384849 -0.20886 -0.531 145 96 92
0.389445 -0.208073 -0.529 138 90 86
0.39072 -0.20768 -0.528 136 88 84
0.402265 -0.206893 -0.526 135 90 85
0.40527 -0.206893 -0.526 141 93 91
0.413851 -0.20768 -0.528 126 81 78
0.430548 -0.210433 -0.535 137 96 94
0.441559 -0.212793 -0.541 132 92 92
-0.330971 -0.252952 -0.64 252 255 248
-0.321323 -0.250186 -0.633 249 251 246
-0.320117 -0.250186 -0.633 214 216 211
-0.314089 -0.250186 -0.633 121 123 120
-0.281957 -0.254929 -0.645 251 252 247
-0.174933 -0.252952 -0.64 187 187 179
-0.0585695 -0.250581 -0.634 68 68 80
-0.05642 -0.251767 -0.637 66 68 80
0.144603 -0.186948 -0.473 182 130 119
0.145504 -0.186948 -0.473 180 128 117
0.161295 -0.18339 -0.464 174 121 113
0.174929 -0.183786 -0.465 142 93 88
0.24058 -0.20671 -0.523 180 165 172
0.293342 -0.220938 -0.559 79 61 73
0.303167 -0.211452 -0.535 102 76 85
0.305205 -0.211452 -0.535 102 76 85
0.311438 -0.209476 -0.53 104 78 89
0.311858 -0.209081 -0.529 114 88 99
0.389656 -0.232005 -0.587 81 79 93
0.407844 -0.238724 -0.604 69 67 80
0.42436 -0.244257 -0.618 56 48 69
0.383252 -0.210662 -0.533 157 110 104
0.386143 -0.209476 -0.53 141 92 88
0.391726 -0.208686 -0.528 139 91 87
0.439714 -0.213429 -0.54 133 92 90
0.448976 -0.215405 -0.545 135 95 95
-0.283186 -0.256157 -0.645 254 255 250
-0.279134 -0.256951 -0.647 251 251 249
-0.160087 -0.257746 -0.649 194 191 182
-0.0769257 -0.252583 -0.636 67 67 79
-0.0464286 -0.258143 -0.65 73 71 82
0.155554 -0.185863 -0.468 183 131 120
0.167121 -0.183877 -0.463 157 104 98
0.18358 -0.18626 -0.469 137 89 85
0.204769 -0.191026 -0.481 107 71 73
0.299273 -0.21406 -0.539 99 73 84
0.305651 -0.212074 -0.534 105 78 85
0.361897 -0.225577 -0.568 64 71 77
0.381903 -0.231137 -0.582 70 69 83
0.394103 -0.235109 -0.592 56 54 68
0.386386 -0.220414 -0.555 120 91 93
0.383254 -0.218031 -0.549 139 110 112
0.38324 -0.21684 -0.546 167 119 117
0.382037 -0.213266 -0.537 165 118 112
0.382954 -0.212074 -0.534 158 111 105
0.386143 -0.210486 -0.53 137 90 84
0.387152 -0.210486 -0.53 140 93 87
0.39801 -0.209294 -0.527 122 74 70
0.400018 -0.209294 -0.527 119 72 66
0.413851 -0.209691 -0.528 134 86 82
0.418448 -0.210486 -0.53 125 77 73
0.430548 -0.212471 -0.535 134 90 87
0.435226 -0.213266 -0.537 132 88 85
-0.285982 -0.256588 -0.643 249 250 245
-0.169526 -0.254592 -0.638 187 187 177
-0.162281 -0.256588 -0.643 193 190 183
-0.0597771 -0.252996 -0.634 67 67 79
-0.0565971 -0.254991 -0.639 69 69 81
-0.0475933 -0.258982 -0.649 72 71 79
0.141171 -0.193937 -0.486 184 131 123
0.143405 -0.189548 -0.475 184 131 123
0.197614 -0.190346 -0.477 118 78 76
0.218271 -0.197529 -0.495 89 63 66
0.222381 -0.199524 -0.5 91 66 70
0.232071 -0.204711 -0.513 83 60 68
0.2988 -0.215486 -0.54 98 73 79
0.299743 -0.214688 -0.538 100 75 81
0.322543 -0.211495 -0.53 123 102 109
0.36018 -0.22626 -0.567 92 94 106
0.375523 -0.231049 -0.579 89 89 101
0.406272 -0.209899 -0.526 133 85 81
0.413851 -0.210697 -0.528 132 87 82
0.44259 -0.215885 -0.541 134 90 87
-0.278761 -0.260218 -0.649 251 252 247
-0.165181 -0.25661 -0.64 192 190 178
0.141893 -0.190853 -0.476 185 132 124
0.191452 -0.18965 -0.473 124 81 75
0.194976 -0.190452 -0.475 120 79 75
0.209674 -0.194863 -0.486 99 67 70
0.215074 -0.197269 -0.492 94 65 69
0.219153 -0.199273 -0.497 88 63 67
0.298114 -0.226137 -0.564 85 65 74
0.311014 -0.212906 -0.531 111 84 93
0.315291 -0.211703 -0.528 112 89 99
0.321533 -0.212505 -0.53 118 98 107
0.326399 -0.213708 -0.533 73 56 62
0.355494 -0.225736 -0.563 113 111 125
0.372028 -0.23135 -0.577 75 75 85
0.398569 -0.239369 -0.597 46 42 57
0.423868 -0.24819 -0.619 54 46 67
0.42436 -0.247789 -0.618 60 52 73
0.381724 -0.215712 -0.538 164 117 111
0.387152 -0.212505 -0.53 136 87 82
0.400018 -0.211302 -0.527 124 77 71
0.41665 -0.212104 -0.529 118 73 68
-0.167095 -0.257023 -0.638 192 190 178
-0.0642 -0.2538 -0.63 67 67 79
-0.0532771 -0.259037 -0.643 68 68 78
0.153207 -0.18894 -0.469 188 136 125
0.163947 -0.186926 -0.464 168 116 105
0.166598 -0.186926 -0.464 163 110 102
0.172785 -0.186926 -0.464 146 96 89
0.180514 -0.188537 -0.468 138 89 84
0.19276 -0.190954 -0.474 123 79 76
0.296422 -0.220363 -0.547 92 69 77
0.296869 -0.219154 -0.544 94 71 77
0.301792 -0.216737 -0.538 101 76 82
0.320524 -0.213514 -0.53 110 90 99
0.326605 -0.215529 -0.535 54 39 44
0.420148 -0.248563 -0.617 76 69 87
0.382905 -0.221571 -0.55 142 111 108
0.38456 -0.21432 -0.532 152 103 98
0.39119 -0.213514 -0.53 134 85 80
0.398766 -0.212709 -0.528 121 72 68
0.399014 -0.212306 -0.527 126 77 73
0.40303 -0.212306 -0.527 136 88 86
0.433394 -0.215931 -0.536 123 79 76
0.4389 -0.21714 -0.539 120 76 73
0.455409 -0.221169 -0.549 119 78 76
-0.31629 -0.257024 -0.635 251 254 247
-0.30952 -0.257429 -0.636 197 198 193
-0.287653 -0.260667 -0.644 178 178 176
-0.162029 -0.259857 -0.642 195 192 185
-0.157857 -0.263095 -0.65 196 193 186
0.1414 -0.198333 -0.49 184 130 120
0.144006 -0.191857 -0.474 186 133 125
0.15288 -0.189429 -0.468 184 134 123
0.163947 -0.18781 -0.464 170 117 109
0.171017 -0.18781 -0.464 147 98 91
0.20202 -0.19469 -0.481 109 80 66
0.22505 -0.20481 -0.506 85 64 69
0.302712 -0.216952 -0.536 102 75 82
0.305651 -0.216143 -0.534 105 78 85
0.315889 -0.214119 -0.529 118 93 99
0.336862 -0.220595 -0.545 35 30 37
0.370929 -0.233548 -0.577 71 71 83
0.381326 -0.216952 -0.536 161 114 108
0.384849 -0.214929 -0.531 143 93 92
0.38586 -0.214929 -0.531 144 94 93
0.399014 -0.21331 -0.527 126 77 70
0.401022 -0.21331 -0.527 130 81 74
0.40303 -0.21331 -0.527 135 86 81
0.418448 -0.214524 -0.53 117 72 69
0.440743 -0.218571 -0.54 129 88 84
0.44444 -0.219381 -0.542 137 96 94
0.455409 -0.222214 -0.549 118 79 74
-0.334074 -0.262707 -0.646 251 252 247
-0.330783 -0.26108 -0.642 252 253 248
-0.312662 -0.258233 -0.635 252 255 248
-0.170473 -0.259047 -0.637 190 190 182
-0.162743 -0.260267 -0.64 196 193 186
-0.0708333 -0.254167 -0.625 67 67 79
-0.0664943 -0.255793 -0.629 68 68 78
-0.058939 -0.259453 -0.638 68 68 78
-0.0509857 -0.2623 -0.645 69 69 79
0.149374 -0.19154 -0.471 181 129 116
0.162179 -0.188693 -0.464 171 118 110
0.192262 -0.193167 -0.475 123 82 76
0.24978 -0.22082 -0.543 179 188 221
0.300267 -0.227733 -0.56 93 68 71
0.297506 -0.22326 -0.549 93 68 74
0.312448 -0.215533 -0.53 199 180 186
0.313873 -0.215127 -0.529 113 90 98
0.314881 -0.215127 -0.529 117 94 102
0.315889 -0.215127 -0.529 114 88 97
0.325586 -0.217567 -0.535 50 41 44
0.328436 -0.218787 -0.538 38 29 32
0.41006 -0.24766 -0.609 53 49 64
0.384634 -0.225293 -0.554 118 99 103
0.382652 -0.217567 -0.535 160 111 106
0.388894 -0.21594 -0.531 130 80 73
0.39321 -0.215533 -0.53 131 84 78
0.433394 -0.217973 -0.536 125 84 82
0.446294 -0.22082 -0.543 133 93 91
-0.290881 -0.262711 -0.643 247 249 246
-0.285737 -0.264754 -0.648 177 177 175
-0.166833 -0.26026 -0.637 194 191 182
-0.0654 -0.2574 -0.63 68 68 78
-0.0633 -0.258626 -0.633 68 68 78
-0.0464286 -0.265571 -0.65 70 70 80
0.140987 -0.19448 -0.476 181 129 118
0.149057 -0.192029 -0.47 183 131 118
0.15142 -0.19162 -0.469 188 136 123
0.158644 -0.189577 -0.464 180 128 115
0.162711 -0.189169 -0.463 169 117 106
0.171901 -0.189577 -0.464 147 100 92
0.187849 -0.193254 -0.473 124 81 74
0.197118 -0.195297 -0.478 118 79 72
0.298941 -0.222263 -0.544 95 73 76
0.300857 -0.220629 -0.54 98 76 79
0.315476 -0.216543 -0.53 108 87 94
0.373962 -0.236971 -0.58 107 103 117
0.378117 -0.238197 -0.583 110 106 120
0.401907 -0.24596 -0.602 71 67 82
0.384634 -0.226349 -0.554 126 101 105
0.38324 -0.22308 -0.546 165 115 108
0.382954 -0.218177 -0.534 157 108 103
0.386871 -0.216951 -0.531 125 75 68
0.39549 -0.216134 -0.529 125 78 72
0.398766 -0.215726 -0.528 128 80 76
0.399014 -0.215317 -0.527 124 77 71
0.408049 -0.215317 -0.527 149 100 95
0.422053 -0.21736 -0.532 122 78 75
0.424877 -0.217769 -0.533 125 81 80
-0.284143 -0.26681 -0.65 249 249 247
-0.161524 -0.262705 -0.64 198 195 188
-0.154143 -0.26681 -0.65 196 193 186
-0.0972171 -0.263526 -0.642 74 72 83
-0.0812867 -0.255727 -0.623 69 67 78
-0.0799714 -0.255316 -0.622 68 68 78
-0.0764171 -0.255316 -0.622 68 68 78
-0.0487543 -0.265989 -0.648 69 69 79
0.143702 -0.194155 -0.473 180 128 115
0.158644 -0.190461 -0.464 180 128 115
0.176192 -0.191282 -0.466 136 91 85
0.17835 -0.191692 -0.467 132 89 82
0.184363 -0.193334 -0.471 126 83 76
0.192667 -0.195387 -0.476 120 81 74
0.225414 -0.208932 -0.509 85 71 88
0.300143 -0.225762 -0.55 96 74 77
0.30856 -0.218373 -0.532 109 83 92
0.312026 -0.217963 -0.531 192 173 179
0.313037 -0.217963 -0.531 199 180 186
0.314467 -0.217552 -0.53 111 90 97
0.321323 -0.218784 -0.533 112 93 99
0.35757 -0.23315 -0.568 97 94 105
0.37636 -0.238897 -0.582 109 105 120
0.399014 -0.216321 -0.527 123 74 70
0.400018 -0.216321 -0.527 131 82 78
0.428726 -0.219194 -0.534 128 84 81
0.452708 -0.22453 -0.547 117 77 77
-0.314366 -0.262274 -0.636 252 253 248
-0.310731 -0.262274 -0.636 252 253 248
-0.296838 -0.263924 -0.64 252 253 248
-0.290557 -0.265986 -0.645 252 252 250
-0.288547 -0.266398 -0.646 249 249 247
-0.16631 -0.261862 -0.635 194 194 186
-0.09646 -0.262687 -0.637 73 72 80
-0.0720238 -0.257738 -0.625 68 68 78
-0.0667057 -0.260212 -0.631 69 69 79
-0.0579048 -0.263924 -0.64 67 70 77
0.140987 -0.196293 -0.476 182 130 119
0.156329 -0.191757 -0.465 181 132 117
0.163947 -0.191345 -0.464 164 112 99
0.229052 -0.212376 -0.515 102 92 117
0.301139 -0.225985 -0.548 95 72 78
0.356488 -0.234232 -0.568 88 85 96
0.358829 -0.235057 -0.57 85 83 94
0.375251 -0.240006 -0.582 99 97 111
0.389592 -0.24413 -0.592 54 52 66
0.397622 -0.247016 -0.599 56 54 68
0.382497 -0.22351 -0.542 161 112 107
0.382114 -0.222686 -0.54 157 108 103
0.400018 -0.217325 -0.527 138 89 85
0.401263 -0.216912 -0.526 141 92 88
0.41184 -0.217737 -0.528 130 82 78
0.430548 -0.220624 -0.535 127 83 80
0.45084 -0.22516 -0.546 120 80 80
0.452708 -0.225572 -0.547 116 76 76
-0.330894 -0.268043 -0.647 252 253 248
-0.29256 -0.2668 -0.644 252 252 250
-0.1651 -0.263071 -0.635 201 200 195
-0.151667 -0.269286 -0.65 195 192 185
-0.0940505 -0.260586 -0.629 69 68 76
-0.0912171 -0.259343 -0.626 67 65 76
-0.0858952 -0.257686 -0.622 60 63 72
-0.0752324 -0.257686 -0.622 69 72 81
-0.0646076 -0.262657 -0.634 70 70 80
-0.0590314 -0.264729 -0.639 68 68 76
-0.0545019 -0.266386 -0.643 69 69 77
0.146683 -0.195129 -0.471 184 132 118
0.159528 -0.192229 -0.464 176 124 110
0.16483 -0.192229 -0.464 163 113 104
0.16925 -0.192229 -0.464 147 99 89
0.217619 -0.207143 -0.5 89 64 68
0.227629 -0.212943 -0.514 77 76 110
0.30711 -0.220814 -0.533 107 84 92
0.34658 -0.231586 -0.559 67 64 71
0.352452 -0.234071 -0.565 101 98 107
0.401426 -0.249814 -0.603 41 37 54
0.384271 -0.229929 -0.555 121 81 89
0.383246 -0.228686 -0.552 139 99 107
0.382538 -0.225786 -0.545 169 120 115
0.381724 -0.222886 -0.538 158 109 104
0.383547 -0.2204 -0.532 146 97 93
0.410056 -0.218329 -0.527 135 88 82
0.41184 -0.218743 -0.528 131 83 79
0.416429 -0.219571 -0.53 124 79 74
0.429529 -0.221643 -0.535 130 86 85
0.437061 -0.222886 -0.538 116 75 73
-0.298523 -0.266778 -0.641 253 254 249
-0.294555 -0.26761 -0.643 253 253 251
-0.16536 -0.264697 -0.636 215 216 211
-0.162425 -0.263865 -0.634 204 205 200
-0.157373 -0.26553 -0.638 199 199 191
-0.156648 -0.266362 -0.64 199 199 189
-0.0742857 -0.259703 -0.624 71 71 81
-0.072139 -0.260535 -0.626 70 70 80
-0.0646076 -0.263865 -0.634 68 68 78
-0.0612733 -0.265113 -0.637 69 69 79
0.149633 -0.195193 -0.469 184 132 118
0.151664 -0.194361 -0.467 187 138 124
0.152553 -0.194361 -0.467 187 138 124
0.15489 -0.193945 -0.466 184 135 120
0.156329 -0.193529 -0.465 182 133 119
0.161295 -0.193112 -0.464 170 118 105
0.1705 -0.193529 -0.465 142 95 87
0.184754 -0.196442 -0.472 125 82 76
0.189548 -0.19769 -0.475 120 79 73
0.234053 -0.218084 -0.524 156 168 216
0.302529 -0.225991 -0.543 101 78 88
0.30711 -0.22183 -0.533 105 82 92
0.308125 -0.22183 -0.533 110 84 93
0.310587 -0.221413 -0.532 187 167 176
0.315653 -0.221413 -0.532 106 85 92
0.336197 -0.228489 -0.549 28 23 29
0.40841 -0.253876 -0.61 86 82 99
0.382209 -0.228489 -0.549 159 107 109
0.382347 -0.223078 -0.536 150 101 96
0.3922 -0.220581 -0.53 129 78 74
-0.30659 -0.267581 -0.64 252 253 248
-0.298989 -0.268417 -0.642 253 254 249
-0.291909 -0.270926 -0.648 252 252 250
-0.11224 -0.269253 -0.644 221 220 216
-0.05336 -0.269253 -0.644 71 71 79
0.143398 -0.197341 -0.472 180 129 112
0.143991 -0.196923 -0.471 179 128 111
0.14758 -0.196923 -0.471 188 136 122
0.151097 -0.195669 -0.468 185 134 117
0.163063 -0.193996 -0.464 165 113 102
0.165714 -0.193996 -0.464 161 111 100
0.179113 -0.196087 -0.469 129 86 79
0.193476 -0.19985 -0.478 122 78 75
0.197029 -0.200686 -0.48 115 75 73
0.22665 -0.214901 -0.514 151 148 167
0.308125 -0.222845 -0.533 99 76 86
0.310587 -0.222427 -0.532 197 180 188
0.32494 -0.225353 -0.539 42 27 34
0.330633 -0.227862 -0.545 38 26 30
0.343218 -0.232879 -0.557 35 29 33
0.39468 -0.250021 -0.598 87 83 100
0.409079 -0.255456 -0.611 66 59 77
0.390917 -0.222009 -0.531 133 84 77
0.400777 -0.220754 -0.528 136 88 78
0.416429 -0.22159 -0.53 125 80 75
0.466063 -0.233297 -0.558 118 77 75
-0.310732 -0.26922 -0.641 251 252 247
-0.30388 -0.26964 -0.642 253 254 249
-0.297467 -0.27048 -0.644 253 253 251
-0.162681 -0.2667 -0.635 241 241 241
-0.155913 -0.26754 -0.637 200 200 192
-0.152246 -0.26964 -0.642 195 195 185
-0.141108 -0.27174 -0.647 223 220 205
-0.117329 -0.2709 -0.645 230 230 222
-0.111369 -0.26838 -0.639 145 143 144
-0.0977429 -0.26124 -0.622 77 76 84
-0.0913762 -0.25998 -0.619 74 74 82
-0.085481 -0.25998 -0.619 70 70 78
-0.0831229 -0.25998 -0.619 68 71 80
-0.0798429 -0.26082 -0.621 68 71 78
-0.0657114 -0.26586 -0.633 70 70 80
-0.0601543 -0.26796 -0.638 69 69 79
-0.0579048 -0.2688 -0.64 73 73 81
0.137887 -0.20202 -0.481 181 139 125
0.154002 -0.19572 -0.466 187 135 121
0.167121 -0.19446 -0.463 156 107 92
0.172271 -0.1953 -0.465 137 92 86
0.179113 -0.19698 -0.469 126 86 76
0.222943 -0.2142 -0.51 77 63 62
0.333497 -0.23016 -0.548 31 26 32
0.343218 -0.23394 -0.557 35 29 33
0.42104 -0.22344 -0.532 123 78 73
0.432373 -0.22512 -0.536 127 83 82
-0.310477 -0.271285 -0.643 251 252 247
-0.14168 -0.271707 -0.644 226 222 210
-0.138214 -0.272129 -0.645 222 218 206
-0.0999514 -0.262003 -0.621 76 75 83
-0.0924057 -0.260737 -0.618 74 74 82
-0.0789133 -0.262847 -0.623 68 71 78
-0.0669171 -0.267066 -0.633 69 69 79
0.137937 -0.20167 -0.478 184 135 118
0.155443 -0.196186 -0.465 183 131 118
0.156329 -0.196186 -0.465 184 132 119
0.174417 -0.196608 -0.466 131 86 80
0.18039 -0.198295 -0.47 123 83 73
0.183855 -0.199139 -0.472 118 80 69
0.213903 -0.210109 -0.498 91 61 69
0.235279 -0.223188 -0.529 143 153 206
0.307653 -0.234579 -0.556 98 71 88
0.304597 -0.229094 -0.543 101 77 90
0.304867 -0.226985 -0.538 105 82 92
0.306796 -0.226141 -0.536 102 78 91
0.313627 -0.224453 -0.532 108 85 95
0.354948 -0.240064 -0.569 70 67 76
0.412929 -0.259471 -0.615 50 47 66
0.394219 -0.22361 -0.53 126 76 67
0.399521 -0.223188 -0.529 137 87 76
0.404269 -0.221922 -0.526 145 96 91
0.432373 -0.226141 -0.536 128 84 83
-0.303782 -0.274205 -0.647 253 253 251
-0.303017 -0.274629 -0.648 253 253 251
-0.166471 -0.273357 -0.645 193 193 191
-0.154934 -0.268271 -0.633 231 231 229
-0.14102 -0.271662 -0.641 227 223 212
-0.138794 -0.272086 -0.642 230 226 217
-0.136349 -0.272086 -0.642 234 230 221
-0.123733 -0.271238 -0.64 221 220 216
-0.117929 -0.269119 -0.635 135 135 135
-0.0994686 -0.261914 -0.618 77 76 84
-0.0957819 -0.26149 -0.617 74 74 82
-0.0944533 -0.261067 -0.616 76 76 84
-0.09328 -0.261067 -0.616 74 74 82
-0.08652 -0.261914 -0.618 70 73 80
-0.05336 -0.272933 -0.644 73 72 80
0.13879 -0.209362 -0.494 191 143 133
0.143094 -0.199614 -0.471 190 138 124
0.144581 -0.19919 -0.47 188 136 122
0.147847 -0.198767 -0.469 184 132 118
0.150774 -0.197919 -0.467 187 135 121
0.152227 -0.197495 -0.466 185 133 120
0.160066 -0.196224 -0.463 174 125 110
0.179113 -0.198767 -0.469 123 83 75
0.191655 -0.202581 -0.478 117 76 72
0.204449 -0.207243 -0.489 99 68 73
0.307543 -0.233943 -0.552 102 75 90
0.307243 -0.226738 -0.535 104 84 93
0.348606 -0.239029 -0.564 69 67 72
0.38826 -0.2403 -0.567 94 77 87
0.381858 -0.231824 -0.547 161 110 106
0.382538 -0.230976 -0.545 159 110 103
0.382169 -0.230129 -0.543 154 105 98
0.38306 -0.227586 -0.537 151 102 97
0.39549 -0.224195 -0.529 138 86 75
0.397506 -0.224195 -0.529 140 88 77
0.398513 -0.224195 -0.529 140 88 75
0.42104 -0.225467 -0.532 124 80 77
0.437061 -0.22801 -0.538 121 80 78
-0.303952 -0.276714 -0.65 252 252 250
-0.158551 -0.269477 -0.633 239 239 239
-0.150111 -0.269477 -0.633 243 242 238
-0.144766 -0.270754 -0.636 242 241 237
-0.130638 -0.271606 -0.638 234 233 229
-0.125383 -0.270754 -0.636 201 200 196
-0.123976 -0.270329 -0.635 178 176 177
-0.105525 -0.263517 -0.619 71 71 81
-0.0953162 -0.261389 -0.614 73 73 81
-0.0801 -0.26522 -0.623 71 71 79
-0.0779762 -0.266071 -0.625 72 72 80
-0.0648114 -0.270754 -0.636 71 71 81
-0.0613695 -0.271606 -0.638 71 71 81
0.144581 -0.200086 -0.47 188 136 122
0.153671 -0.197957 -0.465 184 132 118
0.160948 -0.197106 -0.463 169 120 105
0.166239 -0.197106 -0.463 153 106 90
0.169614 -0.197957 -0.465 140 94 81
0.174791 -0.198809 -0.467 129 86 79
0.176057 -0.199234 -0.468 127 87 79
0.176949 -0.199234 -0.468 126 86 78
0.184245 -0.201363 -0.473 115 81 69
0.190346 -0.203066 -0.477 117 78 73
0.210633 -0.21158 -0.497 94 65 67
0.237948 -0.227757 -0.535 148 161 214
0.306666 -0.231163 -0.543 101 79 92
0.307597 -0.230311 -0.541 103 81 94
0.308262 -0.227757 -0.535 193 172 179
0.30914 -0.226906 -0.533 99 79 90
0.341096 -0.237123 -0.557 37 32 38
0.354486 -0.242657 -0.57 44 43 51
0.39798 -0.256706 -0.603 46 44 58
0.406086 -0.259686 -0.61 87 85 99
0.3815 -0.232014 -0.545 157 108 101
0.397506 -0.225203 -0.529 140 88 77
0.398766 -0.224777 -0.528 139 89 78
-0.158802 -0.27111 -0.634 211 211 211
-0.151559 -0.268972 -0.629 235 235 233
-0.141671 -0.270683 -0.633 236 236 234
-0.136071 -0.271538 -0.635 230 230 230
-0.134862 -0.271538 -0.635 227 227 227
-0.106014 -0.262986 -0.615 70 70 78
-0.0726 -0.2694 -0.63 71 71 79
0.138903 -0.201836 -0.472 192 144 124
0.1413 -0.201409 -0.471 193 144 127
0.147531 -0.200126 -0.468 187 138 123
0.156538 -0.197988 -0.463 184 132 118
0.160066 -0.197988 -0.463 173 124 107
0.192056 -0.20483 -0.479 118 77 71
0.308703 -0.228349 -0.534 171 151 160
0.310155 -0.227921 -0.533 180 160 171
0.310587 -0.227493 -0.532 139 119 130
0.314216 -0.227921 -0.533 99 79 90
0.338366 -0.237756 -0.556 39 34 40
0.38218 -0.252723 -0.591 43 41 55
0.389906 -0.227066 -0.531 137 85 74
0.390181 -0.226638 -0.53 136 84 73
0.427709 -0.228349 -0.534 124 81 75
0.474901 -0.242032 -0.566 124 90 88
-0.155647 -0.27103 -0.631 157 157 155
-0.139578 -0.27017 -0.629 206 207 209
-0.0963286 -0.263298 -0.613 72 73 78
-0.0888743 -0.265446 -0.618 75 75 83
-0.0878391 -0.265875 -0.619 74 74 82
-0.0812867 -0.267593 -0.623 71 72 77
-0.078101 -0.268882 -0.626 72 73 78
-0.0727152 -0.27103 -0.631 71 71 79
-0.0579048 -0.274895 -0.64 71 70 78
0.136167 -0.204024 -0.475 193 144 127
0.138296 -0.203165 -0.473 189 142 122
0.140403 -0.202306 -0.471 185 138 118
0.153341 -0.199299 -0.464 190 139 122
0.155109 -0.199299 -0.464 184 133 116
0.163593 -0.19887 -0.463 164 115 98
0.166239 -0.19887 -0.463 149 104 85
0.1786 -0.201876 -0.47 123 85 74
0.19469 -0.206601 -0.481 113 74 69
0.200417 -0.208749 -0.486 102 71 69
0.339583 -0.239674 -0.558 40 34 38
0.38324 -0.23452 -0.546 154 105 100
0.38456 -0.228507 -0.532 142 92 85
0.394219 -0.227648 -0.53 131 81 72
0.423862 -0.228936 -0.533 117 76 72
0.44526 -0.233231 -0.543 119 78 74
0.451666 -0.23495 -0.547 124 83 79
-0.160555 -0.276546 -0.641 111 111 111
-0.152757 -0.271369 -0.629 98 99 101
-0.141071 -0.269643 -0.625 115 116 121
-0.139881 -0.269643 -0.625 109 110 115
-0.13631 -0.269643 -0.625 89 90 94
-0.119093 -0.26576 -0.616 66 66 74
-0.111144 -0.263603 -0.611 67 67 75
-0.10614 -0.26274 -0.609 73 73 81
-0.05564 -0.276977 -0.642 103 103 111
0.13478 -0.20838 -0.483 195 148 128
0.136494 -0.204066 -0.473 192 144 124
0.137395 -0.204066 -0.473 191 143 123
0.140403 -0.203203 -0.471 187 139 119
0.14338 -0.20234 -0.469 190 142 122
0.155656 -0.199751 -0.463 184 135 118
0.158302 -0.199751 -0.463 176 127 110
0.1786 -0.202771 -0.47 124 86 75
0.19642 -0.20838 -0.483 109 75 73
0.205703 -0.212263 -0.492 87 67 66
0.2079 -0.213557 -0.495 89 69 68
0.215092 -0.217009 -0.503 93 71 73
0.316326 -0.242463 -0.562 93 77 88
0.335038 -0.239011 -0.554 33 28 34
0.343698 -0.242894 -0.563 39 33 37
0.352314 -0.245914 -0.57 50 45 51
0.407417 -0.264034 -0.612 56 49 67
0.383143 -0.232971 -0.54 149 100 95
0.386871 -0.229089 -0.531 148 95 89
0.387883 -0.229089 -0.531 145 92 86
0.39119 -0.228657 -0.53 138 88 81
0.400777 -0.227794 -0.528 145 95 86
0.429529 -0.230814 -0.535 128 85 79
0.447116 -0.234697 -0.544 122 83 78
0.457068 -0.237717 -0.551 121 82 77
-0.151559 -0.272567 -0.629 98 99 101
-0.1364 -0.268667 -0.62 82 83 87
-0.120651 -0.2652 -0.612 67 66 74
-0.103479 -0.263033 -0.607 73 73 81
-0.0921067 -0.266933 -0.616 74 75 80
-0.0910809 -0.267367 -0.617 75 75 83
-0.0858952 -0.269533 -0.622 75 74 80
-0.0739171 -0.273433 -0.631 72 73 78
-0.0580857 -0.2782 -0.642 134 134 142
0.135142 -0.212767 -0.491 196 149 133
0.137105 -0.204533 -0.472 193 142 123
0.138609 -0.2041 -0.471 192 144 124
0.14338 -0.203233 -0.469 193 145 125
0.15796 -0.2002 -0.462 179 130 113
0.15972 -0.2002 -0.462 173 124 107
0.179877 -0.2041 -0.471 122 84 73
0.189834 -0.207133 -0.478 114 77 71
0.214986 -0.218833 -0.505 94 75 79
0.332777 -0.2392 -0.552 36 29 36
0.339127 -0.242233 -0.559 34 29 33
0.362136 -0.250033 -0.577 29 26 33
0.366229 -0.251333 -0.58 46 44 55
0.382887 -0.239633 -0.553 154 106 104
0.382551 -0.238767 -0.551 153 105 103
0.402026 -0.228367 -0.527 144 91 83
0.404033 -0.228367 -0.527 137 87 80
0.41184 -0.2288 -0.528 126 81 75
0.466898 -0.242233 -0.559 122 87 81
-0.0954714 -0.267671 -0.615 74 75 80
-0.0728305 -0.27507 -0.632 73 73 81
-0.0706457 -0.275941 -0.634 72 72 80
-0.0615619 -0.278552 -0.64 74 74 82
-0.0569514 -0.279858 -0.643 73 73 81
-0.0510648 -0.281164 -0.646 71 71 79
0.141 -0.204562 -0.47 198 147 130
0.14338 -0.204127 -0.469 197 146 127
0.149564 -0.202821 -0.466 195 142 124
0.154774 -0.201515 -0.463 188 137 118
0.168729 -0.202386 -0.465 134 92 78
0.170867 -0.202821 -0.466 125 85 73
0.206957 -0.215443 -0.495 91 66 69
0.213176 -0.218925 -0.503 101 77 77
0.362764 -0.251568 -0.578 35 32 39
0.385413 -0.259402 -0.596 54 48 60
0.402384 -0.261578 -0.601 57 53 70
0.38316 -0.242863 -0.558 134 95 90
0.384083 -0.233723 -0.537 146 95 92
0.388894 -0.231111 -0.531 145 92 88
0.409829 -0.229806 -0.528 126 81 75
0.422053 -0.231547 -0.532 116 75 71
0.44526 -0.236334 -0.543 125 84 82
0.4498 -0.23764 -0.546 118 78 76
0.466063 -0.242863 -0.558 124 85 88
0.469637 -0.244169 -0.561 124 85 88
-0.155186 -0.279334 -0.639 115 117 116
-0.141846 -0.270154 -0.618 99 100 105
-0.129765 -0.267094 -0.611 64 65 70
-0.124086 -0.264909 -0.606 62 63 68
-0.114857 -0.262286 -0.6 61 62 67
-0.108 -0.262286 -0.6 65 66 71
-0.106067 -0.26316 -0.602 68 68 76
-0.08708 -0.271903 -0.622 75 74 80
-0.0858952 -0.271903 -0.622 75 74 80
-0.08366 -0.27234 -0.623 74 75 80
-0.0569514 -0.281083 -0.643 87 87 95
-0.0499114 -0.282831 -0.647 69 69 77
0.134692 -0.206769 -0.473 196 144 123
0.136206 -0.206331 -0.472 197 145 124
0.141593 -0.20502 -0.469 198 147 130
0.142183 -0.204583 -0.468 194 143 124
0.143074 -0.204583 -0.468 194 143 124
0.174274 -0.204583 -0.468 123 83 71
0.181158 -0.206331 -0.472 120 82 71
0.200312 -0.213326 -0.488 97 69 68
0.32381 -0.237806 -0.544 41 30 38
0.34614 -0.24786 -0.567 62 57 63
0.365124 -0.253543 -0.58 64 63 71
0.378803 -0.258351 -0.591 38 36 47
0.381214 -0.259226 -0.593 33 31 42
0.386707 -0.261411 -0.598 67 65 78
0.382905 -0.240429 -0.55 143 94 89
0.398513 -0.231249 -0.529 148 97 93
0.40303 -0.230374 -0.527 133 86 80
0.405037 -0.230374 -0.527 125 80 77
0.44259 -0.236494 -0.541 123 84 79
0.469637 -0.245237 -0.561 126 85 89
-0.136971 -0.268697 -0.612 87 88 93
-0.0937343 -0.27177 -0.619 75 76 81
-0.0882648 -0.273088 -0.622 76 75 81
-0.0639 -0.280551 -0.639 73 71 82
0.13239 -0.211182 -0.481 195 151 138
0.139807 -0.205913 -0.469 195 147 127
0.144548 -0.205035 -0.467 195 147 127
0.149806 -0.203718 -0.464 194 143 124
0.151247 -0.203279 -0.463 194 143 124
0.157618 -0.202401 -0.461 180 133 113
0.159374 -0.202401 -0.461 169 122 104
0.160252 -0.202401 -0.461 164 119 100
0.164475 -0.203279 -0.463 141 99 85
0.180259 -0.20723 -0.472 120 80 70
0.191543 -0.210743 -0.48 110 75 69
0.200723 -0.214694 -0.489 99 71 70
0.365124 -0.254648 -0.58 59 58 66
0.374003 -0.257721 -0.587 36 35 43
0.377038 -0.259038 -0.59 32 31 39
0.395343 -0.266063 -0.606 67 63 80
0.396566 -0.260794 -0.594 53 45 56
0.383203 -0.238403 -0.543 143 92 88
0.38346 -0.236647 -0.539 145 94 90
0.386298 -0.234012 -0.533 149 99 92
0.407045 -0.231378 -0.527 126 81 78
0.409052 -0.231378 -0.527 125 80 77
0.422053 -0.233573 -0.532 119 75 72
0.430548 -0.23489 -0.535 123 80 74
0.448976 -0.239281 -0.545 117 76 72
0.451666 -0.240159 -0.547 118 77 73
-0.151297 -0.281328 -0.638 111 112 114
-0.122448 -0.26369 -0.598 82 81 89
-0.0849829 -0.275154 -0.624 74 75 80
-0.0487543 -0.285737 -0.648 72 70 81
0.132729 -0.215626 -0.489 198 154 141
0.135917 -0.207689 -0.471 197 148 131
0.138913 -0.206807 -0.469 195 147 127
0.142769 -0.205925 -0.467 196 148 128
0.149806 -0.204602 -0.464 197 146 127
0.16113 -0.203279 -0.461 152 107 88
0.16236 -0.20372 -0.462 147 102 83
0.168729 -0.205043 -0.465 130 88 74
0.19631 -0.213862 -0.485 106 73 68
0.201133 -0.216067 -0.49 99 71 68
0.215295 -0.224004 -0.508 125 109 120
0.318633 -0.243847 -0.553 91 75 86
0.391737 -0.266335 -0.604 44 37 53
0.39256 -0.25928 -0.588 50 42 53
0.384473 -0.251784 -0.571 107 77 79
0.3922 -0.233705 -0.53 152 102 95
0.392468 -0.233264 -0.529 151 101 94
0.398766 -0.232823 -0.528 141 92 88
0.427709 -0.235469 -0.534 119 76 70
0.433394 -0.23635 -0.536 124 81 75
0.461667 -0.244288 -0.554 125 82 76
-0.132166 -0.268371 -0.606 72 73 78
-0.110871 -0.264386 -0.597 41 42 47
-0.108961 -0.265271 -0.599 59 59 67
-0.0949133 -0.274129 -0.619 73 74 79
-0.0839286 -0.276786 -0.625 73 74 79
-0.0741514 -0.280329 -0.633 73 72 80
-0.073061 -0.280771 -0.634 73 72 80
-0.0616581 -0.283871 -0.641 69 69 79
-0.0580857 -0.284314 -0.642 71 71 79
-0.0487543 -0.286971 -0.648 72 70 81
0.134123 -0.208586 -0.471 197 150 134
0.151247 -0.205043 -0.463 196 145 126
0.157618 -0.204157 -0.461 175 128 110
0.159374 -0.204157 -0.461 165 118 100
0.160252 -0.204157 -0.461 159 114 95
0.16113 -0.204157 -0.461 152 107 88
0.169091 -0.206371 -0.466 125 85 73
0.172491 -0.207257 -0.468 120 80 70
0.205071 -0.219214 -0.495 96 68 65
0.320265 -0.245343 -0.554 103 86 94
0.348582 -0.252871 -0.571 45 40 47
0.34967 -0.252871 -0.571 45 40 47
0.351986 -0.253757 -0.573 44 39 46
0.35712 -0.255086 -0.576 83 78 85
0.392386 -0.267929 -0.605 43 36 52
0.401438 -0.270143 -0.61 44 37 53
0.383127 -0.251986 -0.569 115 84 82
0.383601 -0.244014 -0.551 148 99 94
-0.13376 -0.270415 -0.608 67 68 73
-0.113709 -0.264189 -0.594 94 95 100
-0.0775229 -0.280645 -0.631 71 71 79
-0.0674457 -0.283758 -0.638 72 71 77
-0.0522143 -0.286871 -0.645 69 69 79
0.13199 -0.210372 -0.473 202 157 138
0.138617 -0.208149 -0.468 198 150 130
0.139509 -0.208149 -0.468 199 151 131
0.1518 -0.20548 -0.462 193 142 123
0.171233 -0.207704 -0.467 118 80 71
0.172123 -0.207704 -0.467 118 80 71
0.194983 -0.215265 -0.484 106 75 72
0.196714 -0.216154 -0.486 104 73 70
0.3458 -0.253514 -0.57 37 34 43
0.382304 -0.250401 -0.563 124 89 87
0.38428 -0.24284 -0.546 144 95 90
0.384237 -0.241506 -0.543 142 93 88
0.384487 -0.239727 -0.539 144 95 90
0.388329 -0.237058 -0.533 144 96 86
0.399771 -0.234834 -0.528 120 77 71
0.491913 -0.258407 -0.581 120 90 88
-0.118763 -0.26398 -0.591 89 89 97
-0.104808 -0.271573 -0.608 61 61 69
-0.0974286 -0.276933 -0.62 70 69 74
-0.0950667 -0.276933 -0.62 72 71 76
-0.062879 -0.286313 -0.641 72 71 79
-0.0605314 -0.28676 -0.642 71 70 76
-0.05704 -0.287653 -0.644 72 71 77
0.131089 -0.211273 -0.473 200 155 136
0.132329 -0.21038 -0.471 196 153 134
0.13534 -0.209487 -0.469 197 152 131
0.155524 -0.205467 -0.46 177 128 111
0.185413 -0.212613 -0.476 116 79 71
0.194983 -0.216187 -0.484 104 74 72
0.32712 -0.25192 -0.564 103 86 94
0.351024 -0.256833 -0.575 35 30 37
0.381231 -0.251473 -0.563 130 92 89
0.382014 -0.25058 -0.561 130 90 88
0.384798 -0.240307 -0.538 141 94 88
0.389627 -0.237627 -0.532 146 97 90
0.389906 -0.23718 -0.531 148 99 92
0.434203 -0.23986 -0.537 119 78 72
0.49022 -0.25862 -0.579 125 96 98
-0.121219 -0.265554 -0.592 123 123 131
-0.0941886 -0.279011 -0.622 73 72 78
-0.0930038 -0.279011 -0.622 72 71 77
-0.0864476 -0.280806 -0.626 76 75 81
-0.07098 -0.28574 -0.637 72 71 79
-0.068661 -0.286189 -0.638 71 70 78
-0.0675514 -0.286637 -0.639 73 72 80
-0.0476667 -0.291571 -0.65 69 69 77
0.132943 -0.210829 -0.47 196 153 134
0.141879 -0.209483 -0.467 196 149 129
0.14627 -0.208137 -0.464 199 152 132
0.147719 -0.207689 -0.463 201 153 133
0.148601 -0.207689 -0.463 199 150 133
0.1564 -0.206343 -0.46 173 128 109
0.158496 -0.206791 -0.461 164 117 99
0.17974 -0.212174 -0.473 116 79 73
0.181926 -0.212623 -0.474 118 81 75
0.185413 -0.21352 -0.476 118 81 75
0.186711 -0.213969 -0.477 117 79 76
0.327517 -0.251649 -0.561 85 70 77
0.350537 -0.258377 -0.576 41 36 43
0.35774 -0.258826 -0.577 33 28 35
0.382014 -0.251649 -0.561 130 90 88
0.383847 -0.250751 -0.559 131 90 88
0.383942 -0.245369 -0.547 142 92 91
0.397506 -0.237294 -0.529 128 83 78
0.400529 -0.237294 -0.529 128 83 78
0.41262 -0.237294 -0.529 123 80 73
0.415419 -0.237743 -0.53 124 81 74
0.436036 -0.241331 -0.538 119 81 72
0.4389 -0.24178 -0.539 115 74 68
0.44259 -0.242677 -0.541 112 73 66
0.452708 -0.245369 -0.547 119 80 75
0.460833 -0.24806 -0.553 126 84 72
0.467126 -0.250303 -0.558 119 90 86
-0.112577 -0.267583 -0.594 67 70 75
-0.0975857 -0.279746 -0.621 66 65 71
-0.081 -0.2838 -0.63 75 74 82
-0.07208 -0.286503 -0.636 72 71 79
-0.0500657 -0.292359 -0.649 70 69 75
0.128725 -0.216679 -0.481 204 161 144
0.128832 -0.215328 -0.478 201 158 141
0.1292 -0.214427 -0.476 200 157 140
0.136542 -0.210372 -0.467 197 150 130
0.160252 -0.20767 -0.461 151 106 87
0.17974 -0.213075 -0.473 117 80 74
0.181926 -0.213526 -0.474 118 81 75
0.341457 -0.256771 -0.57 36 31 38
0.362606 -0.259474 -0.576 17 11 23
0.3648 -0.259474 -0.576 13 10 21
0.375251 -0.262177 -0.582 43 35 50
0.380529 -0.263529 -0.585 71 64 80
0.380363 -0.258123 -0.573 99 76 82
0.379208 -0.25587 -0.568 117 88 92
0.37962 -0.25542 -0.567 125 91 92
0.384644 -0.246861 -0.548 133 85 83
0.398513 -0.238302 -0.529 132 87 81
0.402544 -0.238302 -0.529 128 84 75
0.406574 -0.238302 -0.529 131 88 81
0.426691 -0.240554 -0.534 117 77 69
0.4389 -0.242807 -0.539 115 76 69
-0.110102 -0.270976 -0.599 60 61 66
-0.0997905 -0.280476 -0.62 62 61 67
-0.0955267 -0.281833 -0.623 69 68 74
-0.09434 -0.281833 -0.623 70 69 75
-0.0822 -0.285 -0.63 76 75 83
-0.0754762 -0.28681 -0.634 72 71 79
-0.0664381 -0.289524 -0.64 74 73 79
-0.0605314 -0.290429 -0.642 71 70 76
0.128563 -0.215786 -0.477 201 158 141
0.138912 -0.21081 -0.466 195 150 129
0.153228 -0.208548 -0.461 177 129 107
0.16483 -0.209905 -0.464 124 86 75
0.175019 -0.212619 -0.47 122 84 75
