ply
format ascii 1.0
comment Created by Open3D
element vertex 1279
property double x
property double y
property double z
property uchar red
property uchar green
property uchar blue
end_header
-0.311429 -0.376571 -0.6 237 238 230
-0.304571 -0.376571 -0.6 237 238 230
-0.276 -0.376571 -0.6 240 241 235
-0.274857 -0.376571 -0.6 241 242 236
0.0161295 -0.36653 -0.584 203 167 145
0.0204762 -0.31381 -0.5 198 160 137
0.0251876 -0.313182 -0.499 198 157 135
0.0349705 -0.315692 -0.503 181 139 114
0.0379952 -0.316948 -0.505 175 133 111
0.0453486 -0.321341 -0.512 154 112 98
0.0486514 -0.323851 -0.516 144 109 103
0.0557114 -0.330755 -0.527 119 98 103
0.07614 -0.35586 -0.567 115 96 100
0.0883686 -0.370923 -0.591 189 177 187
0.152374 -0.38473 -0.613 189 191 214
0.153542 -0.38473 -0.613 191 193 216
0.409571 -0.382848 -0.61 199 196 207
0.414219 -0.382848 -0.61 193 191 204
0.448649 -0.383475 -0.611 102 132 184
0.453304 -0.383475 -0.611 72 105 158
0.455631 -0.383475 -0.611 122 146 190
0.464942 -0.383475 -0.611 80 87 116
0.470761 -0.383475 -0.611 177 176 194
0.498692 -0.383475 -0.611 141 147 179
0.50102 -0.383475 -0.611 165 171 193
0.449872 -0.322596 -0.514 181 123 99
0.452113 -0.320713 -0.511 183 127 104
0.461009 -0.319458 -0.509 178 122 97
0.468765 -0.319458 -0.509 173 117 92
0.471629 -0.320086 -0.51 171 116 95
0.505371 -0.331383 -0.528 152 106 90
-0.362252 -0.377085 -0.599 234 237 228
-0.361111 -0.377085 -0.599 234 237 228
-0.353125 -0.377085 -0.599 234 237 228
-0.322319 -0.377085 -0.599 236 237 229
-0.320037 -0.377085 -0.599 236 238 227
-0.314857 -0.377714 -0.6 237 238 230
-0.289714 -0.377714 -0.6 239 240 232
-0.276 -0.377714 -0.6 241 242 236
-0.26 -0.377714 -0.6 241 242 236
0.0130552 -0.375196 -0.596 206 169 150
0.0570381 -0.333648 -0.53 115 96 102
0.0675714 -0.346238 -0.55 115 94 99
0.0731971 -0.353163 -0.561 113 94 98
0.082021 -0.363865 -0.578 116 95 100
0.366581 -0.38401 -0.61 198 199 217
0.417705 -0.38401 -0.61 191 191 203
0.420029 -0.38401 -0.61 191 191 201
0.424676 -0.38401 -0.61 185 184 200
0.430486 -0.38401 -0.61 92 97 119
0.440943 -0.38401 -0.61 161 169 190
0.456048 -0.38401 -0.61 155 164 195
0.463778 -0.384639 -0.611 148 152 177
0.483563 -0.384639 -0.611 161 162 182
0.5002 -0.38401 -0.61 169 170 190
0.45713 -0.320428 -0.509 179 123 98
0.465856 -0.320428 -0.509 177 121 98
0.489954 -0.324834 -0.516 156 111 92
-0.356548 -0.378226 -0.599 235 238 229
-0.331447 -0.378226 -0.599 234 236 225
-0.325742 -0.378226 -0.599 236 237 229
0.0168667 -0.319503 -0.506 202 161 139
0.0204352 -0.315083 -0.499 199 158 136
0.0339448 -0.316977 -0.502 182 140 116
0.0442867 -0.32266 -0.511 152 113 98
0.0522 -0.329606 -0.522 130 102 99
0.0533981 -0.330869 -0.524 123 98 102
0.0622286 -0.340971 -0.54 115 92 98
0.136971 -0.386434 -0.612 57 79 139
0.143966 -0.386434 -0.612 174 179 201
0.38918 -0.38454 -0.609 129 159 197
0.41238 -0.38454 -0.609 193 196 211
0.41354 -0.38454 -0.609 191 194 209
0.424676 -0.385171 -0.61 185 187 200
0.427 -0.385171 -0.61 183 184 202
0.45182 -0.38454 -0.609 80 110 162
0.460695 -0.385171 -0.61 184 183 199
0.465343 -0.385171 -0.61 101 106 126
0.490546 -0.385803 -0.611 167 171 196
0.472654 -0.351706 -0.557 149 108 104
0.452636 -0.330869 -0.524 162 116 103
0.4514 -0.32708 -0.518 172 121 102
0.451929 -0.323923 -0.513 179 121 99
0.456086 -0.322029 -0.51 182 124 102
0.475551 -0.321397 -0.509 168 116 94
0.505418 -0.332763 -0.527 150 108 92
-0.333171 -0.378733 -0.598 235 237 226
-0.329754 -0.378733 -0.598 233 235 224
-0.31091 -0.379367 -0.599 237 239 228
-0.304695 -0.378733 -0.598 237 238 230
-0.292166 -0.378733 -0.598 238 239 231
-0.28647 -0.378733 -0.598 239 240 232
0.0194848 -0.316033 -0.499 198 160 139
0.0251371 -0.3154 -0.498 199 157 135
0.0339448 -0.317933 -0.502 185 140 117
0.0411238 -0.321733 -0.508 161 123 110
0.0559229 -0.335033 -0.529 118 99 105
0.0662819 -0.347067 -0.548 115 94 99
0.0689933 -0.350233 -0.553 113 94 98
0.139303 -0.3876 -0.612 59 80 137
0.39614 -0.3857 -0.609 186 193 211
0.403596 -0.385067 -0.608 124 126 141
0.40658 -0.3857 -0.609 161 163 178
0.41818 -0.3857 -0.609 186 188 209
0.42282 -0.3857 -0.609 181 183 195
0.42514 -0.3857 -0.609 188 190 203
0.42746 -0.3857 -0.609 135 136 154
0.43094 -0.3857 -0.609 100 107 135
0.4495 -0.3857 -0.609 111 133 180
0.4611 -0.3857 -0.609 189 187 201
0.46226 -0.3857 -0.609 159 161 176
0.464181 -0.386333 -0.61 118 120 135
0.468829 -0.386333 -0.61 94 101 120
0.471152 -0.386333 -0.61 158 165 193
0.4758 -0.386333 -0.61 153 159 185
0.478124 -0.386333 -0.61 164 169 198
0.480448 -0.386333 -0.61 120 129 160
0.485095 -0.386333 -0.61 153 160 178
0.489743 -0.386333 -0.61 137 148 178
0.492067 -0.386333 -0.61 94 103 136
0.493229 -0.386333 -0.61 135 144 177
0.49439 -0.386333 -0.61 151 153 176
0.483204 -0.362267 -0.572 150 106 105
0.462169 -0.342633 -0.541 150 113 105
0.4514 -0.328067 -0.518 166 117 100
0.45183 -0.325533 -0.514 178 121 101
0.47365 -0.321733 -0.508 173 118 97
0.482287 -0.323633 -0.511 157 110 92
0.48326 -0.323633 -0.511 159 112 92
0.5035 -0.3325 -0.525 150 107 91
-0.359906 -0.379237 -0.597 233 236 227
-0.357631 -0.379237 -0.597 234 237 228
-0.356494 -0.379237 -0.597 235 238 229
-0.347979 -0.379872 -0.598 234 235 227
-0.326337 -0.379872 -0.598 234 236 225
-0.305834 -0.379872 -0.598 236 237 229
-0.300774 -0.379237 -0.597 237 238 230
-0.296226 -0.379237 -0.597 237 238 230
-0.295089 -0.379237 -0.597 237 238 230
-0.270524 -0.379872 -0.598 240 241 235
0.0129238 -0.37479 -0.59 206 170 148
0.017619 -0.317619 -0.5 198 160 137
0.0476686 -0.327783 -0.516 135 106 102
0.0535 -0.3335 -0.525 124 99 102
0.0836971 -0.369709 -0.582 112 95 103
0.113471 -0.38813 -0.611 188 183 206
0.126273 -0.38813 -0.611 67 92 148
0.135584 -0.38813 -0.611 100 124 186
0.144894 -0.38813 -0.611 191 194 213
0.146058 -0.38813 -0.611 191 194 213
0.38275 -0.386225 -0.608 112 144 191
0.388541 -0.386225 -0.608 108 140 178
0.389699 -0.386225 -0.608 141 160 190
0.426758 -0.386225 -0.608 108 110 133
0.436023 -0.386225 -0.608 190 186 201
0.452236 -0.386225 -0.608 90 117 160
0.45646 -0.38686 -0.609 157 172 203
0.46226 -0.38686 -0.609 126 128 140
0.476962 -0.387495 -0.61 158 167 208
0.4959 -0.38686 -0.609 143 141 152
0.451513 -0.328418 -0.517 176 124 103
0.45907 -0.323336 -0.509 182 126 103
0.463973 -0.322701 -0.508 185 129 106
0.490967 -0.327148 -0.515 156 111 90
-0.362709 -0.379737 -0.596 234 237 228
-0.356494 -0.380374 -0.597 235 238 229
-0.350809 -0.380374 -0.597 232 235 226
-0.342849 -0.380374 -0.597 235 236 228
-0.341711 -0.380374 -0.597 235 236 228
-0.318969 -0.380374 -0.597 236 238 227
-0.300774 -0.380374 -0.597 237 238 230
-0.289403 -0.380374 -0.597 237 238 230
-0.287129 -0.380374 -0.597 237 238 230
-0.281443 -0.380374 -0.597 237 238 230
-0.276894 -0.380374 -0.597 239 240 232
0.0167 -0.319209 -0.501 199 161 138
0.0175838 -0.317934 -0.499 199 161 138
0.0289895 -0.317934 -0.499 190 148 123
0.050019 -0.331314 -0.52 130 105 101
0.0733276 -0.358074 -0.562 115 95 97
0.137686 -0.388657 -0.61 140 154 191
0.404089 -0.386746 -0.607 181 187 213
0.420968 -0.387383 -0.608 163 171 192
0.423744 -0.386746 -0.607 156 163 189
0.436462 -0.386746 -0.607 187 194 212
0.446446 -0.387383 -0.608 129 155 204
0.44992 -0.387383 -0.608 107 136 180
0.452236 -0.387383 -0.608 90 117 160
0.456869 -0.387383 -0.608 178 184 200
0.50286 -0.38802 -0.609 166 169 178
0.453087 -0.32558 -0.511 179 122 102
0.456161 -0.324306 -0.509 184 128 105
0.458168 -0.323669 -0.508 183 127 104
0.460163 -0.323031 -0.507 187 131 108
0.473683 -0.323031 -0.507 176 122 98
-0.359303 -0.380872 -0.596 234 237 228
-0.34626 -0.381511 -0.597 234 235 227
-0.316694 -0.381511 -0.597 236 237 229
-0.298 -0.380872 -0.596 237 238 230
-0.291189 -0.380872 -0.596 237 238 230
0.0157771 -0.320802 -0.502 201 163 140
0.0400771 -0.323997 -0.507 164 123 105
0.0465952 -0.32911 -0.515 135 105 97
0.0585952 -0.34189 -0.535 116 94 97
0.0678171 -0.352754 -0.552 114 94 96
0.0821629 -0.370009 -0.579 115 93 96
0.407557 -0.387902 -0.607 145 154 183
0.41565 -0.387902 -0.607 143 152 181
0.422588 -0.387902 -0.607 133 146 178
0.461501 -0.388541 -0.608 172 179 189
0.47386 -0.38918 -0.609 81 104 156
0.48314 -0.38918 -0.609 132 158 207
0.503192 -0.388541 -0.608 134 136 151
0.503521 -0.387902 -0.607 96 117 160
0.475416 -0.357228 -0.559 147 112 110
0.453891 -0.333583 -0.522 168 120 108
0.474649 -0.323997 -0.507 173 123 100
0.486156 -0.327192 -0.512 161 112 95
0.500656 -0.332944 -0.521 154 116 93
0.5133 -0.339334 -0.531 149 112 93
-0.356433 -0.381367 -0.595 235 237 226
-0.350767 -0.381367 -0.595 234 236 225
-0.34568 -0.382008 -0.596 234 236 225
-0.336598 -0.382008 -0.596 233 235 224
-0.330922 -0.382008 -0.596 235 237 226
-0.310488 -0.382008 -0.596 235 237 226
-0.307082 -0.382008 -0.596 234 235 227
-0.292324 -0.382008 -0.596 236 237 229
-0.284377 -0.382008 -0.596 238 239 231
0.0279829 -0.319194 -0.498 190 148 124
0.0489343 -0.332654 -0.519 131 103 99
0.0585952 -0.34291 -0.535 117 95 97
0.0665238 -0.352524 -0.55 115 93 96
0.12934 -0.39034 -0.609 97 123 180
0.13398 -0.39034 -0.609 143 168 209
0.401114 -0.388417 -0.606 156 163 181
0.453394 -0.389699 -0.608 91 110 152
0.473082 -0.389699 -0.608 56 81 135
0.465946 -0.348037 -0.543 155 114 110
0.454143 -0.326886 -0.51 180 125 104
0.465038 -0.324322 -0.506 187 131 108
0.466002 -0.324322 -0.506 192 136 113
0.5065 -0.3365 -0.525 150 113 94
-0.347367 -0.3825 -0.595 234 236 225
-0.329233 -0.3825 -0.595 234 235 227
-0.299767 -0.3825 -0.595 236 237 229
0.0130629 -0.326571 -0.508 203 166 140
0.0193676 -0.318857 -0.496 196 159 133
0.0390343 -0.325286 -0.506 162 120 98
0.0883686 -0.379929 -0.591 214 211 220
0.1073 -0.3915 -0.609 192 190 201
0.12818 -0.3915 -0.609 93 120 173
0.148815 -0.390857 -0.608 196 199 218
0.402269 -0.389571 -0.606 130 150 185
0.410349 -0.389571 -0.606 149 176 219
0.411503 -0.389571 -0.606 160 187 230
0.417274 -0.389571 -0.606 158 177 219
0.431567 -0.388929 -0.605 186 188 200
0.44036 -0.389571 -0.606 91 112 155
0.447286 -0.389571 -0.606 105 130 171
0.453805 -0.390214 -0.607 93 117 165
0.465367 -0.390214 -0.607 183 182 196
0.47346 -0.390214 -0.607 41 68 123
0.476556 -0.390857 -0.608 70 97 152
0.494271 -0.390214 -0.607 173 173 183
0.46041 -0.342643 -0.533 155 115 103
0.454249 -0.333643 -0.519 168 119 104
0.453483 -0.332357 -0.517 170 117 101
0.4572 -0.326571 -0.508 185 130 109
0.465038 -0.325286 -0.506 187 131 108
0.488107 -0.329143 -0.512 156 109 91
-0.36036 -0.382989 -0.594 234 235 227
-0.330367 -0.383633 -0.595 234 235 227
-0.294737 -0.382989 -0.594 236 237 229
-0.288433 -0.383633 -0.595 237 239 228
0.0478533 -0.333987 -0.518 130 101 95
0.0501152 -0.335921 -0.521 126 101 97
0.0868 -0.37912 -0.588 205 202 211
0.0883686 -0.381054 -0.591 214 211 220
0.107124 -0.392015 -0.608 181 183 198
0.131444 -0.392015 -0.608 93 121 169
0.132602 -0.392015 -0.608 117 136 179
0.388929 -0.390081 -0.605 137 164 207
0.40391 -0.390081 -0.605 65 96 151
0.431567 -0.390081 -0.605 192 192 204
0.440786 -0.390081 -0.605 94 117 167
0.46421 -0.39137 -0.607 183 181 192
0.47346 -0.39137 -0.607 46 72 123
0.485022 -0.39137 -0.607 28 62 125
0.490803 -0.39137 -0.607 160 176 209
0.503846 -0.390726 -0.606 81 103 150
0.476898 -0.359132 -0.557 151 112 107
0.456629 -0.337855 -0.524 164 121 105
0.454143 -0.328829 -0.51 181 129 108
0.455114 -0.328829 -0.51 178 123 103
0.458291 -0.32625 -0.506 184 129 109
0.461183 -0.32625 -0.506 183 128 107
0.491971 -0.331408 -0.514 156 113 94
-0.360883 -0.383473 -0.593 234 235 227
-0.35244 -0.38412 -0.594 233 234 226
-0.316234 -0.38412 -0.594 235 236 228
-0.313971 -0.38412 -0.594 235 236 228
-0.311709 -0.38412 -0.594 235 236 228
-0.300394 -0.38412 -0.594 234 235 227
0.00841429 -0.380887 -0.589 204 166 145
0.0138095 -0.323333 -0.5 202 165 139
0.0165333 -0.320747 -0.496 198 161 135
0.0240914 -0.320747 -0.496 194 153 125
0.0309524 -0.323333 -0.5 176 134 110
0.0329229 -0.32398 -0.501 176 134 112
0.0433981 -0.331093 -0.512 148 110 97
0.04446 -0.33174 -0.513 141 108 99
0.102491 -0.393173 -0.608 164 163 168
0.130071 -0.392527 -0.607 91 115 159
0.387135 -0.390587 -0.604 98 127 171
0.428552 -0.390587 -0.604 186 193 203
0.444243 -0.391233 -0.605 98 129 176
0.4646 -0.39188 -0.606 179 181 194
0.48849 -0.392527 -0.607 111 143 192
0.494611 -0.39188 -0.606 175 181 193
0.453789 -0.332387 -0.514 174 123 106
0.453883 -0.33174 -0.513 177 124 106
0.46989 -0.326567 -0.505 180 128 107
-0.346783 -0.385251 -0.594 232 234 223
-0.34281 -0.384603 -0.593 233 235 224
-0.284554 -0.385251 -0.594 237 238 230
-0.27324 -0.385251 -0.594 237 238 230
-0.263057 -0.385251 -0.594 239 240 234
0.01562 -0.32234 -0.497 199 162 136
0.0165333 -0.321691 -0.496 198 161 135
0.0221571 -0.321043 -0.495 194 154 128
0.162177 -0.393034 -0.606 200 202 215
0.408994 -0.391737 -0.604 42 81 140
0.418198 -0.391737 -0.604 39 78 143
0.433154 -0.391737 -0.604 185 190 196
0.438907 -0.391737 -0.604 97 118 163
0.477297 -0.393034 -0.606 22 60 133
0.487686 -0.393034 -0.606 128 159 205
0.4961 -0.392386 -0.605 173 174 192
0.466457 -0.350229 -0.54 159 116 107
0.458371 -0.341149 -0.526 161 119 103
0.4563 -0.328826 -0.507 180 127 109
0.483326 -0.329474 -0.508 162 116 90
-0.336033 -0.385732 -0.593 233 234 226
-0.32022 -0.385732 -0.593 235 237 226
-0.299383 -0.385082 -0.592 235 236 228
-0.29537 -0.385732 -0.593 236 237 229
0.00618095 -0.383781 -0.59 202 166 142
0.0146733 -0.323287 -0.497 199 163 137
0.0193286 -0.321986 -0.495 196 159 133
0.0221571 -0.321986 -0.495 193 153 128
0.0319048 -0.325238 -0.5 175 132 113
0.0433981 -0.333044 -0.512 142 110 99
0.0445467 -0.334345 -0.514 141 108 99
0.0490286 -0.338248 -0.52 129 100 96
0.05624 -0.346053 -0.532 122 96 95
0.06794 -0.359713 -0.553 115 93 95
0.07068 -0.362966 -0.558 114 92 94
0.129857 -0.394189 -0.606 103 125 164
0.131011 -0.394189 -0.606 104 126 165
0.13332 -0.394189 -0.606 145 160 199
0.504484 -0.392888 -0.604 83 112 170
0.504797 -0.392237 -0.603 72 107 163
0.456226 -0.337597 -0.519 162 121 103
0.45486 -0.333694 -0.513 179 126 108
0.461233 -0.32849 -0.505 179 126 108
0.470852 -0.32849 -0.505 178 122 105
0.4988 -0.335646 -0.516 147 110 94
0.507559 -0.340199 -0.523 145 107 88
0.516371 -0.344752 -0.53 143 107 85
-0.360274 -0.38621 -0.592 234 235 227
-0.355235 -0.386862 -0.593 234 235 227
-0.333774 -0.386862 -0.593 233 234 226
-0.31517 -0.38621 -0.592 235 236 228
-0.287464 -0.386862 -0.593 237 238 230
-0.277298 -0.386862 -0.593 237 238 230
-0.276169 -0.386862 -0.593 236 237 229
0.01016 -0.33141 -0.508 203 169 144
0.0202714 -0.322929 -0.495 197 157 132
0.02994 -0.325538 -0.499 178 136 112
0.0319048 -0.32619 -0.5 176 133 114
0.0380705 -0.330105 -0.506 160 118 104
0.0434829 -0.334671 -0.513 141 108 99
0.0491229 -0.33989 -0.521 128 100 96
0.0515 -0.3425 -0.525 126 98 94
0.154995 -0.39469 -0.605 182 187 216
0.156148 -0.39469 -0.605 153 158 187
0.1573 -0.39469 -0.605 129 130 148
0.412911 -0.393386 -0.603 53 92 167
0.416357 -0.393386 -0.603 26 71 139
0.451562 -0.394038 -0.604 90 122 173
0.46729 -0.39469 -0.605 164 171 190
0.477662 -0.39469 -0.605 22 58 134
0.49528 -0.394038 -0.604 112 112 136
0.503649 -0.393386 -0.603 60 92 153
0.456333 -0.337933 -0.518 168 121 101
0.456232 -0.33141 -0.508 177 124 106
0.46128 -0.3288 -0.504 184 131 113
-0.350126 -0.387337 -0.592 233 234 226
-0.34787 -0.387337 -0.592 233 234 226
-0.34336 -0.387337 -0.592 232 233 225
-0.328701 -0.387337 -0.592 233 234 226
-0.320808 -0.387337 -0.592 233 234 226
-0.312914 -0.387337 -0.592 235 236 228
-0.300003 -0.386683 -0.591 235 236 228
-0.289871 -0.386683 -0.591 238 239 231
0.00614952 -0.384066 -0.587 202 165 139
0.0155571 -0.323871 -0.495 197 161 135
0.025981 -0.324526 -0.496 191 145 121
0.0445467 -0.336303 -0.514 136 106 98
0.0551229 -0.347426 -0.531 123 98 94
0.0653571 -0.359203 -0.549 116 95 92
0.08064 -0.376869 -0.576 114 97 103
0.415667 -0.39388 -0.602 28 75 147
0.422547 -0.39388 -0.602 173 184 206
0.42484 -0.39388 -0.602 175 180 210
0.490678 -0.395189 -0.604 54 81 134
0.499054 -0.394534 -0.603 91 107 132
0.470949 -0.355931 -0.544 159 119 107
0.464326 -0.349389 -0.534 163 119 106
0.455924 -0.334994 -0.512 169 127 105
0.458231 -0.331723 -0.507 179 128 109
0.4632 -0.32976 -0.504 180 128 107
-0.358019 -0.388465 -0.592 232 233 227
-0.34787 -0.388465 -0.592 232 233 225
-0.332649 -0.387809 -0.591 233 234 226
-0.292752 -0.387152 -0.59 235 236 228
0.0164667 -0.324158 -0.494 199 162 136
0.0192895 -0.324158 -0.494 197 160 134
0.0240429 -0.324814 -0.495 190 146 121
0.0279267 -0.326127 -0.497 182 137 114
0.02994 -0.327439 -0.499 175 133 111
0.0319048 -0.328095 -0.5 174 131 112
0.0457029 -0.338594 -0.516 135 105 97
0.0693676 -0.364842 -0.556 114 93 92
0.128278 -0.396339 -0.604 127 140 174
0.397805 -0.39437 -0.601 174 186 202
0.410397 -0.39437 -0.601 25 66 146
0.424134 -0.39437 -0.601 148 153 191
0.437871 -0.39437 -0.601 85 117 176
0.440161 -0.39437 -0.601 67 104 172
0.496837 -0.379934 -0.579 143 114 108
0.459623 -0.343844 -0.524 159 122 104
0.455747 -0.337282 -0.514 165 127 106
0.456007 -0.335313 -0.511 172 125 107
-0.357414 -0.388934 -0.591 232 233 225
-0.338277 -0.388934 -0.591 233 234 226
-0.315763 -0.388934 -0.591 234 236 225
-0.290505 -0.388276 -0.59 235 236 228
-0.251597 -0.388934 -0.591 238 239 231
-0.249346 -0.388934 -0.591 238 239 233
0.00392 -0.38696 -0.588 201 164 138
0.00608667 -0.382353 -0.581 201 164 138
0.0145848 -0.325099 -0.494 197 160 134
0.02994 -0.32839 -0.499 174 132 110
0.036 -0.33168 -0.504 160 118 102
0.0468667 -0.340893 -0.518 133 103 95
0.0654762 -0.361952 -0.55 116 92 92
0.100667 -0.39749 -0.604 116 125 164
0.44245 -0.395515 -0.601 49 86 156
0.44474 -0.395515 -0.601 40 88 154
0.447773 -0.396173 -0.602 45 90 158
0.467267 -0.396173 -0.602 41 73 132
0.478023 -0.39749 -0.604 23 61 136
0.462126 -0.347474 -0.528 161 121 109
0.458863 -0.343526 -0.522 159 122 106
0.456537 -0.339577 -0.516 165 127 108
0.456086 -0.335629 -0.51 170 125 106
0.4584 -0.33168 -0.504 172 125 105
0.47282 -0.331022 -0.503 177 126 105
0.47856 -0.33168 -0.504 172 121 100
0.500766 -0.339577 -0.516 152 111 93
0.505654 -0.341551 -0.519 148 109 94
-0.356289 -0.39006 -0.591 233 234 226
-0.353438 -0.3894 -0.59 231 232 224
-0.350067 -0.3894 -0.59 232 233 225
-0.348943 -0.3894 -0.59 231 232 224
-0.296744 -0.38874 -0.589 234 236 225
-0.290505 -0.3894 -0.59 235 236 228
-0.289381 -0.3894 -0.59 235 236 228
-0.278143 -0.3894 -0.59 235 236 228
-0.26241 -0.3894 -0.59 236 237 229
0.0289314 -0.32868 -0.498 176 134 110
0.0412857 -0.3366 -0.51 145 111 101
0.0602829 -0.35706 -0.541 121 95 96
0.08064 -0.38016 -0.576 114 94 103
0.134957 -0.39798 -0.603 191 197 221
0.138403 -0.39798 -0.603 196 199 214
0.146443 -0.39798 -0.603 100 114 143
0.151037 -0.39798 -0.603 98 126 173
0.152186 -0.39798 -0.603 105 126 171
0.154483 -0.39798 -0.603 138 158 209
0.38 -0.396 -0.6 51 96 164
0.423429 -0.396 -0.6 49 87 152
0.449319 -0.39666 -0.601 39 79 141
0.453898 -0.39666 -0.601 97 108 130
0.460767 -0.39666 -0.601 83 96 131
0.480677 -0.39798 -0.603 20 61 127
0.48332 -0.39732 -0.602 45 85 147
0.460365 -0.33198 -0.503 172 125 105
-0.35681 -0.390524 -0.59 233 234 228
-0.346695 -0.390524 -0.59 231 232 224
-0.341076 -0.390524 -0.59 233 234 228
-0.330962 -0.390524 -0.59 233 234 226
-0.329838 -0.390524 -0.59 234 236 225
-0.328714 -0.390524 -0.59 234 236 225
-0.309085 -0.389862 -0.589 234 235 227
-0.265781 -0.390524 -0.59 236 237 229
0.0136438 -0.326981 -0.494 197 161 135
0.0154943 -0.326319 -0.493 196 159 133
0.02994 -0.33029 -0.499 173 130 111
0.0309524 -0.330952 -0.5 171 128 109
0.0680629 -0.366695 -0.554 116 92 92
0.1005 -0.399129 -0.603 100 120 157
0.148493 -0.398467 -0.602 65 93 141
0.15652 -0.398467 -0.602 98 132 196
0.422723 -0.396481 -0.599 75 114 173
0.436414 -0.396481 -0.599 56 101 160
0.441714 -0.397143 -0.6 33 73 145
0.445143 -0.397143 -0.6 29 78 147
0.455043 -0.397805 -0.601 149 161 183
0.473 -0.398467 -0.602 27 62 130
0.477231 -0.399129 -0.603 23 62 129
0.484807 -0.397805 -0.601 128 146 186
0.458976 -0.344852 -0.521 161 124 108
0.458348 -0.334262 -0.505 174 129 108
0.490099 -0.336248 -0.508 156 111 90
-0.350595 -0.390984 -0.589 233 234 228
-0.325913 -0.390984 -0.589 234 236 225
-0.319724 -0.391648 -0.59 233 235 224
-0.317476 -0.391648 -0.59 233 235 224
-0.315816 -0.390984 -0.589 233 234 226
-0.310207 -0.390984 -0.589 233 234 226
-0.29848 -0.39032 -0.588 235 236 228
-0.29624 -0.39032 -0.588 234 235 227
-0.292256 -0.390984 -0.589 234 236 225
-0.290012 -0.390984 -0.589 234 236 225
-0.269818 -0.390984 -0.589 236 237 231
-0.267574 -0.390984 -0.589 237 238 230
-0.257477 -0.390984 -0.589 238 239 231
0.0480381 -0.345181 -0.52 130 100 92
0.0553305 -0.35381 -0.533 121 96 92
0.10148 -0.399613 -0.602 103 123 158
0.133587 -0.399613 -0.602 166 175 204
0.137027 -0.399613 -0.602 196 199 218
0.394199 -0.397622 -0.599 149 155 167
0.402186 -0.397622 -0.599 95 125 175
0.414736 -0.397622 -0.599 23 63 135
0.43071 -0.397622 -0.599 179 180 198
0.481027 -0.399613 -0.602 18 57 126
0.494286 -0.398286 -0.6 173 176 193
0.491726 -0.377044 -0.568 146 116 106
0.478238 -0.365095 -0.55 152 115 107
0.457266 -0.336551 -0.507 174 129 110
0.458348 -0.335224 -0.505 177 130 112
0.475694 -0.333896 -0.503 175 127 107
-0.352839 -0.392106 -0.589 233 234 228
-0.340498 -0.392106 -0.589 232 233 227
-0.333767 -0.392106 -0.589 233 234 226
-0.324791 -0.392106 -0.589 234 235 227
-0.284403 -0.392106 -0.589 235 236 228
0.0566629 -0.356823 -0.536 121 95 96
0.0709333 -0.3728 -0.56 117 96 95
0.12212 -0.40076 -0.602 107 138 185
0.137944 -0.400094 -0.601 201 202 220
0.417018 -0.398763 -0.599 85 120 184
0.423156 -0.398097 -0.598 178 186 189
0.42999 -0.398097 -0.598 186 187 205
0.446683 -0.398763 -0.599 61 108 180
0.462286 -0.399429 -0.6 168 171 176
0.499167 -0.398763 -0.599 78 103 160
0.490205 -0.376129 -0.565 145 116 108
0.468252 -0.356157 -0.535 153 119 109
0.459086 -0.346171 -0.52 161 123 110
0.456899 -0.340846 -0.512 173 127 111
0.45698 -0.34018 -0.511 173 127 111
0.45713 -0.338849 -0.509 172 127 108
0.46032 -0.33552 -0.504 176 129 109
0.4824 -0.33552 -0.504 163 117 94
0.499809 -0.341511 -0.513 153 112 92
-0.34104 -0.39256 -0.588 233 234 228
-0.308035 -0.391892 -0.587 234 235 227
-0.302445 -0.391892 -0.587 234 236 225
-0.295736 -0.391892 -0.587 234 236 225
-0.294618 -0.391892 -0.587 234 235 227
-0.25368 -0.39256 -0.588 235 236 228
0.0136162 -0.329136 -0.493 195 160 132
0.0413667 -0.341153 -0.511 140 107 100
0.0603943 -0.36185 -0.542 122 94 93
0.120772 -0.401239 -0.601 104 125 178
0.399236 -0.399236 -0.598 189 199 211
0.401514 -0.399236 -0.598 177 187 199
0.428851 -0.399236 -0.598 190 196 210
0.441381 -0.399236 -0.598 44 87 156
0.464571 -0.400571 -0.6 175 178 195
0.492321 -0.399904 -0.599 179 179 189
0.494603 -0.399904 -0.599 176 178 193
0.495744 -0.399904 -0.599 178 180 195
0.487803 -0.374534 -0.561 148 115 108
0.459191 -0.346494 -0.519 166 124 112
0.458407 -0.345159 -0.517 167 125 113
0.463239 -0.335812 -0.503 172 124 104
0.468055 -0.335145 -0.502 176 129 109
0.472836 -0.335145 -0.502 174 127 107
0.48432 -0.33648 -0.504 163 119 94
-0.357231 -0.39301 -0.587 231 232 226
-0.32424 -0.39368 -0.588 233 234 226
-0.312508 -0.39301 -0.587 233 234 226
-0.242068 -0.39301 -0.587 234 235 229
-0.234241 -0.39301 -0.587 235 236 230
0.0554343 -0.357526 -0.534 121 96 92
0.0592524 -0.362212 -0.541 119 93 92
0.0670076 -0.370916 -0.554 116 92 92
0.113714 -0.401714 -0.6 157 168 186
0.127429 -0.401714 -0.6 106 138 189
0.130857 -0.401714 -0.6 88 110 159
0.148 -0.401714 -0.6 134 157 191
0.417461 -0.400375 -0.598 105 148 217
0.420878 -0.400375 -0.598 176 188 204
0.451632 -0.400375 -0.598 142 150 171
0.478286 -0.401714 -0.6 28 67 132
0.479429 -0.401714 -0.6 32 63 127
0.482857 -0.401714 -0.6 52 83 140
0.490039 -0.401045 -0.599 173 180 196
0.469031 -0.335431 -0.501 172 127 106
-0.335988 -0.394129 -0.587 232 233 225
-0.319216 -0.394129 -0.587 234 235 227
-0.30751 -0.393457 -0.586 233 234 226
-0.265548 -0.394129 -0.587 235 236 230
0.00533238 -0.341757 -0.509 198 163 133
0.00986 -0.331014 -0.493 198 164 136
0.0145257 -0.330343 -0.492 196 161 131
0.0202305 -0.331686 -0.494 191 152 123
0.02698 -0.3337 -0.497 176 132 107
0.0605057 -0.364586 -0.543 117 93 93
0.0643114 -0.368614 -0.549 117 93 93
0.0655952 -0.369957 -0.551 117 93 93
0.0723857 -0.378014 -0.563 118 96 98
0.08078 -0.387414 -0.577 110 102 113
0.429688 -0.400171 -0.596 185 189 201
0.45505 -0.401514 -0.598 180 190 200
0.466079 -0.402186 -0.599 82 101 131
0.493777 -0.401514 -0.598 176 177 195
0.498637 -0.400843 -0.597 101 115 144
0.457953 -0.3431 -0.511 172 127 108
0.464197 -0.337729 -0.503 169 122 104
0.47094 -0.336386 -0.501 168 123 102
0.472849 -0.336386 -0.501 168 123 100
0.489129 -0.339071 -0.505 161 116 93
0.492997 -0.340414 -0.507 161 116 93
0.50372 -0.345114 -0.514 151 108 89
0.511586 -0.348471 -0.519 150 111 94
-0.344345 -0.394573 -0.586 233 234 228
-0.343229 -0.394573 -0.586 232 233 227
-0.31698 -0.395247 -0.587 234 235 227
-0.314208 -0.394573 -0.586 233 234 226
-0.306394 -0.394573 -0.586 233 234 226
-0.300813 -0.394573 -0.586 233 235 224
-0.270676 -0.394573 -0.586 235 236 230
-0.266211 -0.394573 -0.586 235 236 228
-0.240539 -0.394573 -0.586 235 236 230
-0.239014 -0.3939 -0.585 235 236 230
-0.224912 -0.394573 -0.586 237 238 232
0.00892095 -0.331953 -0.493 198 164 137
0.0154629 -0.33128 -0.492 196 159 132
0.0310143 -0.33734 -0.501 163 122 104
0.0329886 -0.338013 -0.502 156 117 102
0.0555381 -0.360233 -0.535 121 95 96
0.121511 -0.403327 -0.599 60 100 169
0.387684 -0.401307 -0.596 193 201 214
0.397901 -0.401307 -0.596 138 144 160
0.44178 -0.40198 -0.597 73 112 169
0.461111 -0.40198 -0.597 180 183 198
0.480109 -0.402653 -0.598 57 84 131
0.484334 -0.403327 -0.599 52 73 116
0.49036 -0.402653 -0.598 172 179 197
0.492951 -0.40198 -0.597 172 173 191
0.496363 -0.40198 -0.597 171 174 191
0.4975 -0.40198 -0.597 154 168 194
0.498937 -0.401307 -0.596 81 102 145
0.5049 -0.400633 -0.595 98 121 162
0.499107 -0.386493 -0.574 148 118 107
0.463615 -0.352827 -0.524 166 123 107
0.486233 -0.338687 -0.503 161 119 97
0.50176 -0.344747 -0.512 152 111 91
-0.349329 -0.395014 -0.585 231 232 226
-0.345986 -0.395014 -0.585 232 233 227
-0.344871 -0.395014 -0.585 232 233 227
-0.343757 -0.395014 -0.585 233 234 228
-0.335415 -0.39569 -0.586 233 234 226
-0.33095 -0.39569 -0.586 233 234 226
-0.328718 -0.39569 -0.586 231 233 222
-0.318672 -0.39569 -0.586 235 236 228
-0.309743 -0.39569 -0.586 234 235 227
-0.308627 -0.39569 -0.586 234 235 227
-0.305278 -0.39569 -0.586 234 235 227
-0.286929 -0.395014 -0.585 233 234 226
-0.2847 -0.395014 -0.585 235 236 230
-0.280722 -0.39569 -0.586 234 235 229
-0.27849 -0.39569 -0.586 234 235 229
-0.276257 -0.39569 -0.586 235 236 230
-0.239014 -0.395014 -0.585 235 236 230
-0.234557 -0.395014 -0.585 236 237 231
0.0567686 -0.362603 -0.537 121 95 96
0.11923 -0.404468 -0.599 64 102 167
0.405848 -0.402442 -0.596 48 87 144
0.417633 -0.401767 -0.595 74 101 146
0.422167 -0.401767 -0.595 188 191 206
0.436499 -0.402442 -0.596 79 116 168
0.446329 -0.403117 -0.597 90 123 177
0.47897 -0.403792 -0.598 109 134 175
0.478043 -0.368005 -0.545 156 120 104
0.462057 -0.351124 -0.52 166 124 112
0.459255 -0.34167 -0.506 177 130 112
0.466169 -0.338294 -0.501 173 126 106
0.469986 -0.338294 -0.501 170 123 103
0.494929 -0.342346 -0.507 156 115 95
-0.350443 -0.396129 -0.585 231 232 226
-0.3393 -0.396129 -0.585 233 234 228
-0.335957 -0.396129 -0.585 233 234 228
-0.333729 -0.396129 -0.585 233 234 226
-0.317014 -0.396129 -0.585 233 234 226
-0.2925 -0.396129 -0.585 233 234 226
-0.280243 -0.396129 -0.585 234 235 229
-0.265757 -0.396129 -0.585 235 236 228
-0.263529 -0.396129 -0.585 235 236 228
-0.256843 -0.396129 -0.585 235 236 228
-0.251271 -0.396129 -0.585 235 236 228
-0.237493 -0.395451 -0.584 236 237 231
0.00705714 -0.334509 -0.494 198 162 138
0.0079819 -0.333831 -0.493 198 162 138
0.0192505 -0.333831 -0.493 190 151 122
0.025981 -0.335863 -0.496 175 130 107
0.0393429 -0.345343 -0.51 139 107 96
0.0495 -0.3555 -0.525 126 98 95
0.0723857 -0.381231 -0.563 120 95 99
0.11903 -0.404931 -0.598 55 93 158
0.12017 -0.404931 -0.598 53 91 156
0.145229 -0.404931 -0.598 49 88 157
0.397233 -0.4029 -0.595 99 114 145
0.445581 -0.403577 -0.596 109 139 189
0.453528 -0.403577 -0.596 178 188 197
0.491814 -0.404254 -0.597 178 177 191
0.45907 -0.344666 -0.509 169 126 109
0.480483 -0.339249 -0.501 168 122 98
-0.339832 -0.396564 -0.584 232 233 225
-0.327043 -0.397243 -0.585 232 234 223
-0.3159 -0.397243 -0.585 234 235 227
-0.306986 -0.397243 -0.585 233 234 226
-0.285326 -0.396564 -0.584 233 234 226
-0.24083 -0.396564 -0.584 233 234 228
-0.238197 -0.395885 -0.583 235 236 230
-0.237493 -0.396564 -0.584 235 236 230
0.00888476 -0.333412 -0.491 198 163 133
0.0107552 -0.333412 -0.491 199 163 131
0.0173371 -0.334091 -0.492 191 154 125
0.0182743 -0.334091 -0.492 191 152 123
0.0192505 -0.33477 -0.493 189 150 121
0.02698 -0.337487 -0.497 171 129 107
0.03408 -0.34224 -0.504 151 115 101
0.0437371 -0.350389 -0.516 131 100 97
0.0495943 -0.357179 -0.526 126 98 97
0.06188 -0.37076 -0.546 118 92 93
0.0780371 -0.389094 -0.573 119 96 102
0.150671 -0.405391 -0.597 52 87 153
0.389777 -0.403354 -0.594 199 205 219
0.398829 -0.403354 -0.594 72 90 128
0.39996 -0.403354 -0.594 69 93 137
0.405617 -0.403354 -0.594 154 177 208
0.408567 -0.404033 -0.595 64 93 135
0.416931 -0.403354 -0.594 76 101 142
0.422589 -0.403354 -0.594 191 198 208
0.430509 -0.403354 -0.594 175 185 197
0.442567 -0.404033 -0.595 142 169 214
0.46488 -0.404712 -0.596 82 97 126
0.466015 -0.404712 -0.596 90 107 137
0.477031 -0.405391 -0.597 151 165 191
0.483044 -0.404712 -0.596 69 85 121
0.468039 -0.359216 -0.529 157 118 101
0.460103 -0.344956 -0.508 175 132 115
0.463274 -0.340882 -0.502 159 112 92
0.580094 -0.389094 -0.573 180 170 161
-0.326484 -0.397676 -0.584 232 234 223
-0.323147 -0.397676 -0.584 232 234 223
-0.299787 -0.397676 -0.584 234 235 227
-0.279764 -0.397676 -0.584 234 235 229
-0.266415 -0.397676 -0.584 235 236 230
-0.263078 -0.397676 -0.584 234 235 229
-0.257516 -0.397676 -0.584 235 236 230
0.00982 -0.334348 -0.491 200 164 132
0.03 -0.340476 -0.5 159 120 103
0.0382962 -0.346605 -0.509 146 109 100
0.0671286 -0.377929 -0.555 118 93 96
0.134751 -0.406529 -0.597 196 204 223
0.396566 -0.404486 -0.594 115 138 179
0.397697 -0.404486 -0.594 66 89 130
0.425266 -0.403805 -0.593 194 198 223
0.438429 -0.404486 -0.594 137 164 207
0.43956 -0.404486 -0.594 134 161 208
0.444086 -0.404486 -0.594 112 137 178
0.4471 -0.405167 -0.595 105 133 173
0.449367 -0.405167 -0.595 170 178 191
0.4912 -0.381333 -0.56 152 115 106
0.469809 -0.361586 -0.531 153 117 103
0.461233 -0.343881 -0.505 178 132 116
0.465214 -0.341157 -0.501 172 125 105
0.4843 -0.341157 -0.501 162 117 94
0.509605 -0.35069 -0.515 155 110 89
-0.353687 -0.398106 -0.583 232 233 225
-0.351466 -0.398106 -0.583 231 232 224
-0.350355 -0.398106 -0.583 229 230 222
-0.349245 -0.398106 -0.583 230 231 225
-0.331477 -0.398106 -0.583 233 234 226
-0.325371 -0.398789 -0.584 232 233 225
-0.324259 -0.398789 -0.584 232 233 225
-0.298163 -0.398106 -0.583 234 235 227
0.0351095 -0.344843 -0.505 150 113 94
0.0460571 -0.355086 -0.52 128 98 96
0.0556419 -0.366011 -0.536 119 95 95
0.0685543 -0.381034 -0.558 115 95 94
0.0735886 -0.385131 -0.564 122 97 93
0.13112 -0.406983 -0.596 184 197 232
0.410582 -0.404934 -0.593 185 197 219
0.4151 -0.404934 -0.593 118 143 165
0.453137 -0.405617 -0.594 186 185 203
0.479967 -0.4063 -0.595 154 165 187
0.496131 -0.405617 -0.594 157 165 178
0.497555 -0.404934 -0.593 95 111 137
0.500636 -0.390594 -0.572 143 115 111
0.48875 -0.379669 -0.556 150 113 105
0.461233 -0.344843 -0.505 178 131 113
0.474762 -0.341429 -0.5 166 120 97
0.481429 -0.341429 -0.5 164 118 92
0.489091 -0.342794 -0.502 164 118 94
0.510586 -0.351671 -0.515 159 113 90
-0.351971 -0.398531 -0.582 229 230 222
-0.329256 -0.399216 -0.583 232 233 225
-0.321483 -0.399216 -0.583 232 233 225
-0.320372 -0.399216 -0.583 231 232 224
-0.295942 -0.399216 -0.583 232 233 225
-0.29261 -0.399216 -0.583 234 235 227
-0.23668 -0.398531 -0.582 236 237 231
0.0382962 -0.348544 -0.509 140 107 100
0.1445 -0.407433 -0.595 154 170 206
0.39138 -0.406064 -0.593 194 201 217
0.425676 -0.405379 -0.592 192 202 214
0.457663 -0.406749 -0.594 125 134 163
0.461057 -0.406749 -0.594 145 158 190
0.4709 -0.407433 -0.595 152 159 185
0.476567 -0.407433 -0.595 171 179 198
0.503482 -0.405379 -0.592 98 118 169
0.506009 -0.404694 -0.591 69 98 138
0.46224 -0.34512 -0.504 172 123 106
0.507611 -0.350598 -0.512 160 112 90
0.518514 -0.356076 -0.52 152 114 95
-0.35026 -0.398953 -0.581 231 232 224
-0.348047 -0.398953 -0.581 231 232 224
-0.335343 -0.39964 -0.582 232 233 227
-0.31371 -0.400327 -0.583 232 234 223
-0.237789 -0.39964 -0.582 234 235 229
-0.235167 -0.398953 -0.581 236 237 231
-0.00163714 -0.39346 -0.573 197 164 133
0.00793333 -0.336467 -0.49 200 165 135
0.0107114 -0.33578 -0.489 197 161 127
0.0135333 -0.336467 -0.49 199 160 129
0.0163667 -0.337153 -0.491 194 155 126
0.0211714 -0.339213 -0.494 183 141 116
0.0310143 -0.34402 -0.501 153 116 100
0.0351095 -0.346767 -0.505 147 114 99
0.0383714 -0.3502 -0.51 138 107 102
0.389592 -0.406507 -0.592 190 196 212
0.398157 -0.407193 -0.593 173 185 209
0.40989 -0.406507 -0.592 181 192 214
0.421166 -0.406507 -0.592 128 138 173
0.464451 -0.40788 -0.594 173 173 197
0.474634 -0.40788 -0.594 159 167 178
0.483686 -0.40788 -0.594 172 177 199
0.489343 -0.40788 -0.594 103 119 153
0.492737 -0.40788 -0.594 172 177 197
0.493869 -0.40788 -0.594 169 174 194
0.496426 -0.407193 -0.593 140 157 177
0.506009 -0.40582 -0.591 69 98 142
0.47348 -0.36668 -0.534 155 121 111
0.46333 -0.355007 -0.517 162 124 103
0.474763 -0.342647 -0.499 161 116 93
-0.3298 -0.400749 -0.582 233 234 226
-0.293217 -0.400749 -0.582 232 234 223
-0.287674 -0.400749 -0.582 232 234 223
-0.273263 -0.400749 -0.582 233 234 226
-0.23738 -0.40006 -0.581 235 236 230
-0.226313 -0.40006 -0.581 235 236 230
-0.00272857 -0.394551 -0.573 198 163 133
0.0154314 -0.338089 -0.491 194 155 126
0.0416095 -0.353926 -0.514 132 105 98
0.0709333 -0.3856 -0.56 114 95 99
0.13068 -0.409011 -0.594 193 201 220
0.133167 -0.4097 -0.595 196 203 219
0.391186 -0.406946 -0.591 113 126 158
0.431314 -0.407634 -0.592 148 159 187
0.436952 -0.407634 -0.592 90 118 158
0.447856 -0.408323 -0.593 160 172 196
0.46367 -0.408323 -0.593 172 177 196
0.467058 -0.408323 -0.593 173 181 200
0.469317 -0.408323 -0.593 174 184 196
0.490474 -0.409011 -0.594 89 102 136
0.491606 -0.409011 -0.594 129 142 176
0.508524 -0.406257 -0.59 122 146 180
0.495095 -0.386977 -0.562 148 116 103
0.461775 -0.352549 -0.512 163 125 106
0.466169 -0.344974 -0.501 176 131 110
0.481416 -0.343597 -0.499 162 117 94
0.488095 -0.344286 -0.5 157 112 89
-0.346343 -0.400476 -0.58 231 232 224
-0.334767 -0.401167 -0.581 232 233 225
-0.32702 -0.401167 -0.581 232 233 225
-0.319823 -0.401857 -0.582 231 232 224
-0.31374 -0.401167 -0.581 232 233 225
-0.31042 -0.401167 -0.581 233 234 226
-0.28718 -0.401167 -0.581 231 232 224
-0.279433 -0.401167 -0.581 233 234 226
0.0033 -0.341786 -0.495 199 160 129
0.0154314 -0.339024 -0.491 192 153 124
0.0173371 -0.339714 -0.492 191 150 122
0.0383714 -0.352143 -0.51 138 103 99
0.0416095 -0.354905 -0.514 133 104 98
0.0427543 -0.356286 -0.516 131 102 96
0.0485 -0.3625 -0.525 126 98 94
0.0617667 -0.37631 -0.545 115 94 91
0.0670076 -0.382524 -0.554 118 93 89
0.113709 -0.410143 -0.594 106 131 171
0.119366 -0.410143 -0.594 115 143 183
0.387809 -0.408071 -0.591 183 191 214
0.391186 -0.408071 -0.591 81 99 135
0.398613 -0.408762 -0.592 183 191 210
0.399741 -0.408762 -0.592 185 193 212
0.433963 -0.408071 -0.591 89 111 148
0.456122 -0.408762 -0.592 74 89 128
0.459505 -0.408762 -0.592 167 179 205
0.46141 -0.409452 -0.593 175 184 199
0.478353 -0.409452 -0.593 173 181 194
0.48739 -0.409452 -0.593 88 101 135
0.471905 -0.345238 -0.5 164 117 97
0.505607 -0.351452 -0.509 158 113 90
-0.324248 -0.401581 -0.58 230 231 225
-0.298838 -0.401581 -0.58 232 233 225
-0.239181 -0.401581 -0.58 235 236 230
-0.228133 -0.401581 -0.58 234 235 227
0.0250867 -0.344113 -0.497 170 125 102
0.028039 -0.345498 -0.499 160 118 104
0.0290476 -0.34619 -0.5 157 115 101
0.03006 -0.346883 -0.501 155 113 99
0.0508848 -0.36627 -0.529 123 98 93
0.125942 -0.410582 -0.593 100 131 178
0.133849 -0.410582 -0.593 199 205 217
0.142885 -0.410582 -0.593 64 99 153
0.386029 -0.408505 -0.59 195 198 215
0.402443 -0.409197 -0.591 186 195 210
0.447101 -0.40989 -0.592 159 170 188
0.462888 -0.40989 -0.592 171 179 190
0.50654 -0.407812 -0.589 96 123 168
0.4644 -0.357269 -0.516 160 121 104
0.47 -0.34619 -0.5 165 120 99
0.470961 -0.345498 -0.499 164 117 97
0.471911 -0.345498 -0.499 167 121 98
0.476664 -0.345498 -0.499 170 122 99
0.477614 -0.345498 -0.499 169 123 100
0.479503 -0.344806 -0.498 169 123 100
-0.340231 -0.401991 -0.579 231 232 224
-0.328667 -0.402686 -0.58 230 231 225
-0.316514 -0.402686 -0.58 231 232 226
-0.304362 -0.402686 -0.58 231 232 224
-0.303257 -0.402686 -0.58 231 232 224
-0.302152 -0.402686 -0.58 232 233 225
-0.00494571 -0.400603 -0.577 195 160 132
0.00422571 -0.342283 -0.493 199 162 133
0.00976 -0.338811 -0.488 199 160 129
0.0144667 -0.3402 -0.49 196 155 125
0.0201895 -0.342283 -0.493 183 139 112
0.0240914 -0.344366 -0.496 171 127 102
0.03312 -0.34992 -0.504 151 110 92
0.0427543 -0.358251 -0.516 133 102 97
0.0580067 -0.37422 -0.539 118 94 92
0.13046 -0.411711 -0.593 197 203 215
0.391648 -0.409629 -0.59 137 156 188
0.399514 -0.409629 -0.59 190 200 212
0.405133 -0.409629 -0.59 183 193 205
0.407381 -0.409629 -0.59 186 194 205
0.430981 -0.409629 -0.59 152 167 198
0.432105 -0.409629 -0.59 132 147 178
0.433229 -0.409629 -0.59 132 147 178
0.441095 -0.409629 -0.59 80 111 166
0.459854 -0.410323 -0.591 173 182 199
0.491078 -0.411017 -0.592 91 99 135
0.494461 -0.411017 -0.592 154 165 195
0.499254 -0.410323 -0.591 45 75 127
0.50654 -0.408934 -0.589 82 108 159
0.48807 -0.346449 -0.499 163 116 96
0.492857 -0.347143 -0.5 157 116 94
-0.329203 -0.403094 -0.579 230 231 225
-0.326997 -0.403094 -0.579 230 231 225
-0.318174 -0.403094 -0.579 232 233 227
-0.302734 -0.403094 -0.579 232 233 225
-0.236563 -0.403094 -0.579 234 235 229
-0.233254 -0.403094 -0.579 234 235 229
-0.225534 -0.403094 -0.579 234 235 227
0.0135057 -0.340437 -0.489 196 157 128
0.0192114 -0.342526 -0.492 183 142 114
0.0448933 -0.360627 -0.518 130 101 95
0.0580067 -0.375247 -0.539 119 93 92
0.0617667 -0.379424 -0.545 116 92 88
0.117836 -0.412145 -0.592 154 175 206
0.121219 -0.412145 -0.592 159 181 222
0.124602 -0.412145 -0.592 106 130 174
0.393228 -0.410056 -0.589 190 200 212
0.396593 -0.410056 -0.589 189 197 210
0.404447 -0.410056 -0.589 183 191 202
0.410752 -0.410752 -0.59 183 190 198
0.421275 -0.410056 -0.589 126 141 174
0.43586 -0.410056 -0.589 80 115 171
0.457603 -0.411449 -0.591 174 182 195
0.483494 -0.411449 -0.591 173 176 191
0.499533 -0.410752 -0.59 31 60 116
0.503174 -0.410056 -0.589 26 60 123
0.505418 -0.410056 -0.589 23 54 118
0.478554 -0.346703 -0.498 166 119 99
-0.340745 -0.403499 -0.578 229 230 222
-0.331937 -0.403499 -0.578 230 231 225
-0.311019 -0.403499 -0.578 232 233 227
-0.299426 -0.404197 -0.579 231 232 224
-0.293911 -0.404197 -0.579 231 232 224
-0.278471 -0.404197 -0.579 232 233 225
-0.23065 -0.403499 -0.578 233 234 228
0.00047619 -0.349048 -0.5 202 163 134
0.011619 -0.34067 -0.488 195 159 127
0.0125486 -0.34067 -0.488 195 159 127
0.0191724 -0.342765 -0.491 185 144 116
0.0426714 -0.359519 -0.515 131 102 96
0.0580067 -0.376273 -0.539 118 94 94
0.0592524 -0.37767 -0.541 117 93 93
0.0723857 -0.393028 -0.563 111 91 92
0.143529 -0.412574 -0.591 138 165 210
0.393228 -0.411178 -0.589 196 203 221
0.396593 -0.411178 -0.589 196 204 215
0.42168 -0.41048 -0.588 127 138 168
0.43586 -0.411178 -0.589 62 100 162
0.462448 -0.411876 -0.59 150 154 155
0.49841 -0.411876 -0.59 36 65 121
0.464631 -0.358123 -0.513 161 122 107
0.468077 -0.349746 -0.501 178 133 112
0.469031 -0.349746 -0.501 170 125 104
-0.34625 -0.4046 -0.578 229 230 222
-0.327533 -0.4046 -0.578 230 231 225
-0.309918 -0.4046 -0.578 233 234 228
-0.307716 -0.4046 -0.578 231 232 226
-0.302211 -0.4046 -0.578 233 234 228
0.0042 -0.343 -0.49 202 163 132
0.00512286 -0.3423 -0.489 203 164 133
0.00790095 -0.3416 -0.488 202 163 132
0.00976 -0.3416 -0.488 196 160 128
0.0172667 -0.343 -0.49 191 150 120
0.0201486 -0.3444 -0.492 181 140 112
0.0240429 -0.3465 -0.495 169 128 98
0.035179 -0.3542 -0.506 145 108 100
0.0372533 -0.3556 -0.508 140 105 99
0.0426714 -0.3605 -0.515 130 103 96
0.0438219 -0.3619 -0.517 129 102 95
0.0518924 -0.3703 -0.529 123 98 94
0.115386 -0.4137 -0.591 141 164 196
0.447079 -0.4123 -0.589 93 113 150
0.451567 -0.4123 -0.589 152 161 190
0.454932 -0.4123 -0.589 172 182 192
0.472562 -0.413 -0.59 159 162 181
0.487171 -0.413 -0.59 166 176 188
0.493077 -0.4123 -0.589 51 77 128
0.495321 -0.4123 -0.589 70 96 153
0.50232 -0.4116 -0.588 16 47 112
0.498307 -0.3934 -0.562 145 116 110
0.48531 -0.3815 -0.545 147 118 110
0.467187 -0.3626 -0.518 154 120 108
0.464074 -0.3542 -0.506 175 130 111
0.479487 -0.3479 -0.497 171 124 106
0.490886 -0.3486 -0.498 166 121 98
0.508484 -0.3556 -0.508 149 108 88
-0.336858 -0.404999 -0.577 229 230 224
-0.32367 -0.404999 -0.577 230 231 225
-0.290101 -0.405701 -0.578 232 233 225
0.00512286 -0.343231 -0.489 204 165 134
0.0125486 -0.34253 -0.488 196 157 128
0.0163333 -0.343933 -0.49 188 149 118
0.0240429 -0.347443 -0.495 168 127 97
0.0290476 -0.350952 -0.5 155 116 99
0.0383714 -0.357971 -0.51 139 104 98
0.0483152 -0.367096 -0.523 122 97 92
0.130924 -0.414124 -0.59 199 204 223
0.409782 -0.412018 -0.587 173 177 188
0.43288 -0.41272 -0.588 46 81 135
0.43736 -0.41272 -0.588 39 84 149
0.454932 -0.413422 -0.589 176 179 194
0.461664 -0.413422 -0.589 175 174 179
0.48859 -0.413422 -0.589 156 167 187
0.501466 -0.412018 -0.587 21 52 116
0.507056 -0.412018 -0.587 31 63 124
0.488871 -0.385346 -0.549 143 116 107
0.464026 -0.355866 -0.507 173 128 109
0.464074 -0.355164 -0.506 175 130 111
0.46423 -0.352356 -0.502 171 126 107
0.477593 -0.348847 -0.497 164 117 97
0.48138 -0.348847 -0.497 169 122 102
0.494723 -0.35025 -0.499 157 112 89
-0.340155 -0.406098 -0.577 229 230 222
-0.335759 -0.406098 -0.577 229 230 224
-0.333561 -0.406098 -0.577 230 231 225
-0.313778 -0.406098 -0.577 230 231 225
-0.307184 -0.406098 -0.577 231 232 226
-0.301689 -0.406098 -0.577 231 232 226
-0.298391 -0.406098 -0.577 230 231 225
-0.236845 -0.406098 -0.577 232 233 227
-0.00596095 -0.400468 -0.569 201 162 133
0.04498 -0.365277 -0.519 127 100 93
0.0472286 -0.367389 -0.522 125 97 93
0.0506924 -0.370908 -0.527 122 97 93
0.0531 -0.373723 -0.531 122 97 93
0.0543152 -0.37513 -0.533 122 97 93
0.0709333 -0.394133 -0.56 114 93 92
0.073719 -0.397652 -0.565 114 93 92
0.1298 -0.415248 -0.59 204 206 221
0.386302 -0.413136 -0.587 184 198 224
0.417609 -0.413136 -0.587 182 192 204
0.45528 -0.41384 -0.588 177 180 187
0.46872 -0.41384 -0.588 114 122 145
0.46984 -0.41384 -0.588 128 136 159
0.49448 -0.41384 -0.588 36 68 119
0.468173 -0.364573 -0.518 157 119 106
0.47 -0.351905 -0.5 173 126 108
0.471914 -0.350497 -0.498 177 130 112
0.493731 -0.350497 -0.498 154 109 86
-0.346149 -0.406491 -0.576 229 230 224
-0.344551 -0.407197 -0.577 230 231 225
-0.335177 -0.406491 -0.576 230 231 225
-0.31872 -0.406491 -0.576 230 231 225
-0.31104 -0.406491 -0.576 231 232 226
-0.295094 -0.407197 -0.577 230 231 223
0.00233333 -0.3458 -0.49 200 161 130
0.00788476 -0.343683 -0.487 201 162 131
0.0163333 -0.3458 -0.49 187 146 116
0.0240429 -0.349329 -0.495 168 124 95
0.0405514 -0.362031 -0.513 135 102 95
0.125092 -0.415666 -0.589 163 183 216
0.132946 -0.415666 -0.589 154 167 201
0.45752 -0.41496 -0.588 140 141 145
0.45976 -0.41496 -0.588 170 173 182
0.4732 -0.41496 -0.588 137 148 168
0.487468 -0.415666 -0.589 164 167 176
0.47 -0.352857 -0.5 171 124 108
0.483214 -0.349329 -0.495 170 124 101
0.509414 -0.357797 -0.507 151 110 88
-0.325303 -0.407589 -0.576 232 233 227
-0.252891 -0.407589 -0.576 232 233 227
0.00418286 -0.345318 -0.488 203 164 133
0.0352486 -0.358763 -0.507 138 105 96
0.0519905 -0.375038 -0.53 122 97 92
0.0532 -0.376453 -0.532 122 97 93
0.0643114 -0.388483 -0.549 120 96 94
0.415781 -0.414665 -0.586 170 169 165
0.422478 -0.414665 -0.586 160 162 175
0.430671 -0.413957 -0.585 46 82 144
0.441453 -0.414665 -0.586 45 90 149
0.48888 -0.41608 -0.588 157 160 177
0.49336 -0.41608 -0.588 34 66 123
0.498111 -0.415372 -0.587 41 71 131
0.476889 -0.375746 -0.531 149 118 113
0.471696 -0.370085 -0.523 151 118 111
0.472863 -0.352394 -0.498 177 128 111
0.473811 -0.352394 -0.498 177 128 111
0.486986 -0.350271 -0.495 165 119 96
0.493687 -0.351687 -0.497 157 112 91
-0.349929 -0.407976 -0.575 230 231 225
-0.346149 -0.408686 -0.576 229 230 224
-0.00926095 -0.405848 -0.572 198 159 126
0.00139714 -0.346957 -0.489 200 161 130
0.00232857 -0.346957 -0.489 203 164 133
0.00879429 -0.344829 -0.486 199 160 129
0.0153686 -0.346957 -0.489 188 147 117
0.0191724 -0.348376 -0.491 179 138 108
0.0342152 -0.359019 -0.506 139 105 96
0.0384467 -0.362567 -0.511 134 103 98
0.0568743 -0.381724 -0.538 117 93 91
0.06188 -0.3874 -0.546 113 93 92
0.11704 -0.4172 -0.588 120 151 208
0.126 -0.4172 -0.588 198 206 227
0.12936 -0.4172 -0.588 181 189 210
0.3705 -0.415071 -0.585 56 91 159
0.413957 -0.415071 -0.585 151 149 150
0.419529 -0.415071 -0.585 183 183 195
0.421757 -0.415071 -0.585 183 185 198
0.422871 -0.415071 -0.585 138 160 201
0.462661 -0.415781 -0.586 157 163 179
0.479104 -0.41649 -0.587 160 160 170
0.48693 -0.41649 -0.587 150 156 180
0.490069 -0.388819 -0.548 142 113 109
0.466043 -0.35831 -0.505 172 125 109
0.466113 -0.35689 -0.503 174 127 109
0.47854 -0.352633 -0.497 170 123 105
0.481329 -0.351214 -0.495 169 122 102
0.483214 -0.351214 -0.495 170 123 103
0.486943 -0.350505 -0.494 164 119 96
0.498525 -0.354052 -0.499 153 111 89
0.580733 -0.398752 -0.562 184 167 151
-0.349929 -0.409071 -0.575 230 231 226
-0.342262 -0.409071 -0.575 227 228 222
-0.337881 -0.409071 -0.575 229 230 224
-0.336786 -0.409071 -0.575 229 230 224
-0.302833 -0.409071 -0.575 231 232 226
-0.295167 -0.409071 -0.575 232 233 225
-0.294071 -0.409071 -0.575 231 232 224
-0.260119 -0.409071 -0.575 231 232 226
-0.257929 -0.409071 -0.575 232 233 227
-0.245881 -0.409071 -0.575 234 235 229
-0.00694571 -0.399111 -0.561 202 160 136
0.00879429 -0.345754 -0.486 199 160 129
0.0230533 -0.351446 -0.494 164 122 97
0.0260333 -0.35358 -0.497 159 120 103
0.0291057 -0.356426 -0.501 152 116 100
0.0342152 -0.359983 -0.506 139 105 95
0.0353181 -0.361406 -0.508 134 104 96
0.0532 -0.37848 -0.532 120 96 92
0.0556419 -0.381326 -0.536 117 96 93
0.409912 -0.415474 -0.584 178 187 194
0.437357 -0.416186 -0.585 31 75 140
0.470474 -0.416897 -0.586 170 179 196
0.504214 -0.416186 -0.585 109 141 188
0.504465 -0.415474 -0.584 109 133 167
0.510264 -0.414763 -0.583 61 73 99
0.493646 -0.392709 -0.552 143 114 108
0.4658 -0.362829 -0.51 164 122 106
0.472863 -0.354291 -0.498 179 133 110
0.4917 -0.352157 -0.495 160 115 92
-0.346643 -0.410167 -0.575 228 229 224
-0.344452 -0.410167 -0.575 227 228 222
-0.342262 -0.410167 -0.575 227 228 222
-0.33569 -0.410167 -0.575 230 231 225
-0.3335 -0.410167 -0.575 230 231 225
-0.327453 -0.409453 -0.574 230 231 225
-0.321987 -0.409453 -0.574 230 231 225
-0.3034 -0.409453 -0.574 230 231 225
-0.219213 -0.409453 -0.574 232 233 225
-0.00689619 -0.397327 -0.557 202 160 135
0.000465714 -0.34882 -0.489 201 162 131
0.0106457 -0.34668 -0.486 195 154 122
0.0124971 -0.34668 -0.486 192 152 117
0.0450667 -0.370933 -0.52 125 98 89
0.0644286 -0.392333 -0.55 124 96 92
0.121313 -0.418727 -0.587 153 174 219
0.122431 -0.418727 -0.587 160 184 222
0.126904 -0.418727 -0.587 192 198 222
0.38099 -0.416587 -0.584 75 103 150
0.391002 -0.416587 -0.584 149 149 149
0.416587 -0.416587 -0.584 129 129 139
0.418811 -0.416587 -0.584 183 183 195
0.43216 -0.416587 -0.584 55 90 154
0.442171 -0.416587 -0.584 95 127 168
0.443284 -0.416587 -0.584 133 157 193
0.455186 -0.4173 -0.585 172 176 185
0.467126 -0.418013 -0.586 145 154 171
0.472707 -0.418013 -0.586 174 178 190
0.491682 -0.418013 -0.586 152 169 199
0.467123 -0.35738 -0.501 169 127 105
0.486002 -0.352387 -0.494 167 123 98
-0.348227 -0.410547 -0.574 228 229 224
-0.347133 -0.410547 -0.574 228 229 224
-0.340573 -0.410547 -0.574 228 229 223
-0.337293 -0.410547 -0.574 229 230 224
-0.306146 -0.409831 -0.573 230 231 225
-0.302307 -0.410547 -0.574 229 230 224
-0.287 -0.410547 -0.574 230 231 223
-0.249827 -0.410547 -0.574 233 234 228
-0.00911524 -0.402679 -0.563 200 159 127
0.0201486 -0.351897 -0.492 170 128 104
0.0363571 -0.364056 -0.509 139 103 89
