ply
format ascii 1.0
comment Created by Open3D
element vertex 1302
property double x
property double y
property double z
property uchar red
property uchar green
property uchar blue
end_header
0.341561 -0.169104 -0.503 128 95 102
0.346883 -0.168431 -0.501 127 96 104
0.361918 -0.168768 -0.502 126 99 106
0.363597 -0.169104 -0.503 109 82 89
0.420171 -0.173474 -0.516 167 111 98
0.422137 -0.173474 -0.516 158 102 89
0.437983 -0.175491 -0.522 127 82 76
0.451212 -0.177172 -0.527 143 102 98
-0.304827 -0.217733 -0.644 160 163 156
-0.164218 -0.216719 -0.641 180 180 172
-0.155669 -0.215029 -0.636 184 184 174
0.0671838 -0.19711 -0.583 211 173 164
0.0784457 -0.194743 -0.576 211 173 160
0.10757 -0.20421 -0.604 129 89 87
0.126171 -0.216381 -0.64 100 73 80
0.271937 -0.176486 -0.522 143 108 112
0.274393 -0.176148 -0.521 140 105 109
0.283986 -0.174119 -0.515 139 104 108
0.306486 -0.172429 -0.51 135 103 104
0.319169 -0.171414 -0.507 137 102 106
0.3211 -0.171414 -0.507 134 99 105
0.32688 -0.1704 -0.504 131 99 104
0.345929 -0.169386 -0.501 124 93 98
0.426894 -0.174795 -0.517 131 81 72
0.436989 -0.176486 -0.522 127 80 74
-0.296543 -0.21828 -0.642 144 145 140
-0.29532 -0.21828 -0.642 145 145 143
-0.281233 -0.22066 -0.649 193 192 188
-0.153969 -0.21726 -0.639 183 183 173
0.0658543 -0.20094 -0.591 206 172 162
0.0903486 -0.19788 -0.582 185 143 127
0.0928838 -0.19856 -0.584 177 135 121
0.102911 -0.20298 -0.597 145 108 100
0.1206 -0.2142 -0.63 98 66 69
0.26829 -0.18598 -0.547 107 83 96
0.2685 -0.1785 -0.525 137 103 104
0.271937 -0.17748 -0.522 143 108 112
0.273401 -0.17714 -0.521 140 105 109
0.277294 -0.17646 -0.519 138 103 107
0.278195 -0.17578 -0.517 138 103 107
0.304543 -0.1734 -0.51 137 105 106
0.305514 -0.1734 -0.51 135 103 104
0.313025 -0.17272 -0.508 135 101 102
0.325605 -0.1717 -0.505 132 100 103
0.332938 -0.17102 -0.503 130 98 101
0.334854 -0.17102 -0.503 130 98 101
0.352857 -0.17 -0.5 167 155 159
0.416079 -0.17918 -0.527 160 128 129
0.424925 -0.17578 -0.517 140 88 77
0.435159 -0.17714 -0.521 127 79 75
0.456809 -0.1802 -0.53 139 96 90
-0.298523 -0.219161 -0.641 146 146 144
-0.277952 -0.222238 -0.65 246 245 241
-0.15299 -0.218819 -0.64 184 184 174
-0.0364114 -0.221554 -0.648 80 75 81
0.0686905 -0.197279 -0.577 214 177 168
0.0717381 -0.196595 -0.575 214 176 167
0.0748933 -0.196253 -0.574 211 173 164
0.106243 -0.206169 -0.603 127 93 91
0.10944 -0.207878 -0.608 117 87 89
0.275848 -0.17779 -0.52 141 106 110
0.28833 -0.175739 -0.514 134 102 103
0.303571 -0.174371 -0.51 137 103 104
0.313992 -0.173688 -0.508 137 103 104
0.31496 -0.173688 -0.508 137 103 104
0.32143 -0.173004 -0.506 133 98 102
0.324643 -0.172662 -0.505 130 98 103
0.325605 -0.172662 -0.505 130 98 103
0.329106 -0.171978 -0.503 131 99 104
0.35381 -0.170952 -0.5 129 107 110
0.35738 -0.171294 -0.501 130 95 99
0.366489 -0.173346 -0.507 56 39 47
0.438822 -0.178816 -0.523 130 83 77
0.4475 -0.1795 -0.525 143 95 91
0.453074 -0.180526 -0.528 143 95 91
-0.299744 -0.220382 -0.641 149 149 147
-0.277525 -0.223132 -0.649 223 222 218
-0.160767 -0.219007 -0.637 184 184 174
-0.152246 -0.220726 -0.642 184 184 172
-0.150267 -0.221413 -0.644 184 184 172
-0.03864 -0.221413 -0.644 74 72 77
0.0876771 -0.199066 -0.579 181 144 126
0.271981 -0.180156 -0.524 134 102 105
0.274393 -0.179125 -0.521 143 108 112
0.305885 -0.174999 -0.509 134 102 105
0.312057 -0.174655 -0.508 135 103 106
0.317237 -0.174311 -0.507 132 100 103
0.32784 -0.17328 -0.504 132 100 105
0.334189 -0.172592 -0.502 128 96 101
0.336101 -0.172592 -0.502 129 97 102
0.35738 -0.172249 -0.501 121 89 92
0.414514 -0.178781 -0.52 186 139 131
0.414893 -0.178093 -0.518 188 135 127
0.419016 -0.17775 -0.517 172 120 109
0.430523 -0.178437 -0.519 127 80 74
-0.309029 -0.221257 -0.64 162 165 158
-0.305371 -0.221257 -0.64 153 154 149
-0.146489 -0.224369 -0.649 189 187 175
-0.0408381 -0.221257 -0.64 71 69 74
-0.0397429 -0.221949 -0.642 73 70 77
0.0724533 -0.197749 -0.572 212 175 166
0.0839314 -0.199131 -0.576 192 155 139
0.0999629 -0.205009 -0.593 146 109 103
0.272979 -0.181154 -0.524 139 104 108
0.289309 -0.177697 -0.514 137 103 104
0.289723 -0.177351 -0.513 136 102 103
0.2907 -0.177351 -0.513 135 101 102
0.295985 -0.177006 -0.512 136 101 105
0.303571 -0.176314 -0.51 136 104 107
0.303946 -0.175969 -0.509 135 103 106
0.316271 -0.175277 -0.507 130 100 102
0.331022 -0.173894 -0.503 130 98 103
0.339926 -0.173549 -0.502 129 99 101
0.340882 -0.173549 -0.502 131 101 103
0.345929 -0.173203 -0.501 127 96 102
0.351905 -0.172857 -0.5 200 183 189
0.3624 -0.17424 -0.504 76 50 53
-0.314395 -0.222824 -0.641 249 250 245
-0.311953 -0.222824 -0.641 219 220 214
-0.169714 -0.225257 -0.648 181 181 171
-0.164923 -0.222129 -0.639 180 180 170
-0.162234 -0.221781 -0.638 183 183 173
-0.15688 -0.221086 -0.636 185 185 175
-0.15323 -0.222824 -0.641 184 184 172
0.06474 -0.201967 -0.581 211 177 167
0.0693057 -0.199186 -0.573 212 178 168
0.0943181 -0.203705 -0.586 160 119 113
0.127354 -0.224562 -0.646 106 71 77
0.274622 -0.188062 -0.541 106 85 90
0.294034 -0.177981 -0.512 137 101 103
0.300657 -0.177286 -0.51 136 101 105
0.301629 -0.177286 -0.51 137 102 106
0.309154 -0.17659 -0.508 135 103 106
0.313374 -0.176243 -0.507 133 101 104
0.31434 -0.176243 -0.507 133 101 104
0.41529 -0.182848 -0.526 173 131 132
0.414913 -0.181805 -0.523 189 140 135
0.47963 -0.190495 -0.548 140 92 90
0.483306 -0.191538 -0.551 136 88 86
-0.321286 -0.22719 -0.65 251 252 246
-0.0419914 -0.223346 -0.639 71 66 72
-0.0364114 -0.226491 -0.648 78 73 80
0.0653933 -0.201675 -0.577 213 181 170
0.0814533 -0.200627 -0.574 196 158 147
0.119969 -0.221249 -0.633 102 71 79
0.274975 -0.18315 -0.524 145 116 121
0.276443 -0.182801 -0.523 134 105 110
0.280165 -0.180704 -0.517 145 111 112
0.280606 -0.180354 -0.516 139 105 106
0.291677 -0.179306 -0.513 137 101 105
0.298714 -0.178257 -0.51 137 103 104
0.302007 -0.177908 -0.509 135 103 104
0.304915 -0.177908 -0.509 135 103 104
0.310122 -0.177558 -0.508 134 102 105
0.317575 -0.176859 -0.506 132 100 103
0.32496 -0.17616 -0.504 130 98 103
0.33132 -0.175461 -0.502 129 97 102
0.417047 -0.180704 -0.517 167 114 106
0.430523 -0.181403 -0.519 130 82 78
0.462291 -0.186646 -0.534 132 88 79
-0.312197 -0.224563 -0.639 229 230 222
-0.16198 -0.22386 -0.637 188 185 176
-0.155186 -0.224563 -0.639 186 184 172
-0.0484533 -0.22632 -0.644 66 63 70
-0.0419257 -0.224211 -0.638 71 66 73
0.0630648 -0.205937 -0.586 211 179 168
0.108816 -0.214723 -0.611 115 83 86
0.114513 -0.21894 -0.623 110 80 88
0.2775 -0.1845 -0.525 148 119 124
0.28115 -0.181689 -0.517 140 104 104
0.291677 -0.180283 -0.513 137 101 105
0.297743 -0.179229 -0.51 137 103 104
0.308187 -0.178526 -0.508 134 102 105
0.313374 -0.178174 -0.507 131 99 102
0.31791 -0.177471 -0.505 133 101 104
0.324 -0.17712 -0.504 130 98 103
0.329106 -0.176769 -0.503 135 103 108
0.334189 -0.176417 -0.502 129 97 102
0.344548 -0.175363 -0.499 204 181 187
0.414893 -0.18204 -0.518 183 134 129
0.42394 -0.181689 -0.517 146 96 89
0.426733 -0.18204 -0.518 134 87 81
0.440814 -0.183797 -0.523 124 79 74
0.443653 -0.184149 -0.524 135 90 85
0.457671 -0.186609 -0.531 137 94 88
-0.308063 -0.225427 -0.638 147 149 144
-0.155186 -0.22578 -0.639 188 185 176
-0.146714 -0.229667 -0.65 190 188 176
0.0679762 -0.201753 -0.571 214 180 170
0.294034 -0.180907 -0.512 137 101 105
0.29501 -0.180907 -0.512 137 101 105
0.304316 -0.179493 -0.508 134 102 105
0.309154 -0.179493 -0.508 136 104 107
0.32304 -0.17808 -0.504 130 98 103
0.328451 -0.177373 -0.502 132 100 105
0.336386 -0.17702 -0.501 130 98 103
0.35025 -0.176313 -0.499 134 104 114
0.413917 -0.184793 -0.523 184 133 130
0.435159 -0.184087 -0.521 123 78 73
0.444651 -0.185147 -0.524 140 97 91
-0.164923 -0.226997 -0.639 183 183 173
-0.160767 -0.226287 -0.637 188 185 176
-0.0523762 -0.229839 -0.647 65 60 67
0.100637 -0.212077 -0.597 131 96 100
0.116814 -0.223445 -0.629 104 71 78
0.122514 -0.227352 -0.64 107 76 82
0.280348 -0.185079 -0.521 136 105 110
0.294034 -0.181882 -0.512 136 100 104
0.29638 -0.181527 -0.511 134 102 103
0.300068 -0.180816 -0.509 137 102 106
0.301037 -0.180816 -0.509 137 102 106
0.304316 -0.180461 -0.508 136 101 107
0.305284 -0.180461 -0.508 137 102 108
0.324 -0.17904 -0.504 130 98 103
0.328451 -0.17833 -0.502 129 97 102
0.33132 -0.17833 -0.502 129 97 102
0.347399 -0.177264 -0.499 189 166 174
0.365743 -0.181171 -0.51 59 53 57
0.417047 -0.183658 -0.517 161 111 104
-0.270524 -0.232143 -0.65 251 252 247
-0.0480019 -0.227857 -0.638 64 63 71
0.100806 -0.213571 -0.598 128 93 97
0.124507 -0.23 -0.644 110 79 85
0.2805 -0.1875 -0.525 112 86 97
0.283119 -0.184643 -0.517 134 99 103
0.285392 -0.183571 -0.514 133 99 100
0.292084 -0.182857 -0.512 133 97 99
0.306251 -0.181429 -0.508 134 102 105
0.31372 -0.180714 -0.506 132 100 105
0.327495 -0.179286 -0.502 128 96 99
0.334477 -0.178929 -0.501 129 97 102
0.337619 -0.178571 -0.5 125 95 103
0.351905 -0.178571 -0.5 122 92 94
0.35381 -0.178571 -0.5 118 89 93
0.371029 -0.184286 -0.516 72 62 70
0.414319 -0.186071 -0.521 189 134 127
0.418206 -0.184286 -0.516 155 105 94
-0.270524 -0.233381 -0.65 252 253 248
-0.160767 -0.228713 -0.637 189 186 177
-0.159553 -0.228713 -0.637 188 185 176
0.104463 -0.217583 -0.606 124 89 93
0.117 -0.2262 -0.63 104 71 78
0.308546 -0.182037 -0.507 131 99 104
0.311443 -0.182037 -0.507 131 99 104
0.314684 -0.181678 -0.506 131 99 104
0.318871 -0.181319 -0.505 130 98 103
0.32112 -0.18096 -0.504 128 96 101
0.340746 -0.179165 -0.499 122 91 97
0.346449 -0.179165 -0.499 181 160 169
0.35025 -0.179165 -0.499 126 95 100
0.435159 -0.187064 -0.521 121 80 74
-0.31122 -0.229927 -0.637 181 183 178
-0.156158 -0.230288 -0.638 186 186 176
-0.0574829 -0.234258 -0.649 65 62 69
-0.0504324 -0.230288 -0.638 64 62 73
0.0603276 -0.213684 -0.592 209 179 168
0.0606248 -0.210796 -0.584 211 181 170
0.115432 -0.226678 -0.628 108 73 80
0.284824 -0.19311 -0.535 109 93 103
0.285089 -0.186612 -0.517 132 103 108
0.312756 -0.182642 -0.506 131 99 104
0.315986 -0.182281 -0.505 130 98 103
0.32112 -0.18192 -0.504 129 97 102
0.332569 -0.180837 -0.501 127 95 100
0.338845 -0.180115 -0.499 128 99 104
0.341696 -0.180115 -0.499 146 120 129
0.342909 -0.179754 -0.498 220 198 210
0.35025 -0.180115 -0.499 126 95 100
0.419016 -0.186612 -0.517 151 102 87
0.426733 -0.186973 -0.518 131 85 85
0.434324 -0.187695 -0.52 119 78 72
0.443803 -0.188778 -0.523 143 99 96
0.45408 -0.190583 -0.528 133 89 86
-0.317331 -0.232954 -0.642 251 254 247
-0.312433 -0.23114 -0.637 250 253 246
-0.310007 -0.23114 -0.637 143 146 139
-0.155429 -0.232229 -0.64 186 186 176
-0.1512 -0.235131 -0.648 190 187 178
-0.0502743 -0.230777 -0.636 64 63 71
0.08924 -0.211183 -0.582 152 115 106
0.0919286 -0.212271 -0.585 143 106 100
0.0980333 -0.2159 -0.595 132 93 94
0.123089 -0.233317 -0.643 113 78 85
0.289158 -0.185783 -0.512 132 100 103
0.290133 -0.185783 -0.512 132 100 103
0.291109 -0.185783 -0.512 134 99 103
0.293857 -0.185057 -0.51 136 102 103
0.299854 -0.183969 -0.507 134 102 105
0.31372 -0.183606 -0.506 130 98 103
0.315986 -0.183243 -0.505 129 97 102
0.31824 -0.18288 -0.504 128 96 101
0.320483 -0.182517 -0.503 130 98 103
0.322399 -0.182517 -0.503 130 98 101
0.34835 -0.181066 -0.499 121 94 101
0.416203 -0.192677 -0.531 166 117 121
0.41588 -0.18796 -0.518 176 121 118
0.422955 -0.187597 -0.517 143 94 87
0.42394 -0.187597 -0.517 137 89 87
0.424925 -0.187597 -0.517 132 84 82
0.42591 -0.187597 -0.517 130 84 84
-0.30394 -0.232353 -0.637 115 117 114
-0.271344 -0.23673 -0.649 255 255 251
-0.269286 -0.237095 -0.65 252 253 248
-0.0441476 -0.231624 -0.635 68 65 74
0.0622095 -0.207185 -0.568 214 180 170
0.06426 -0.20682 -0.567 212 178 168
0.0965743 -0.216304 -0.593 132 94 93
0.101311 -0.219222 -0.601 128 93 99
0.285752 -0.189676 -0.52 109 86 96
0.286191 -0.189311 -0.519 117 94 104
0.310477 -0.184934 -0.507 131 99 104
0.31372 -0.18457 -0.506 129 97 102
0.325583 -0.18311 -0.502 128 96 99
0.329408 -0.18311 -0.502 128 96 101
0.336667 -0.182381 -0.5 123 92 97
0.352609 -0.182746 -0.501 122 91 96
0.414071 -0.19223 -0.527 173 125 125
0.413717 -0.189311 -0.519 181 126 121
0.420001 -0.188582 -0.517 152 103 88
0.42772 -0.188947 -0.518 133 85 83
0.431511 -0.189311 -0.519 127 84 78
0.440966 -0.190406 -0.522 140 96 93
-0.322268 -0.237233 -0.647 252 253 248
-0.162234 -0.233933 -0.638 187 187 177
-0.157373 -0.233933 -0.638 190 187 178
-0.150197 -0.237967 -0.649 191 188 179
-0.0625238 -0.238333 -0.65 58 57 63
0.0652248 -0.207533 -0.566 210 176 166
0.0751924 -0.208267 -0.568 189 153 141
0.0951229 -0.2167 -0.591 134 96 95
0.123471 -0.2365 -0.645 110 77 86
0.305649 -0.1859 -0.507 131 100 105
0.3144 -0.1848 -0.504 130 98 103
0.31665 -0.184433 -0.503 129 97 102
0.319525 -0.184433 -0.503 130 98 103
0.413524 -0.190667 -0.52 180 130 123
0.413717 -0.1903 -0.519 178 127 123
0.431511 -0.1903 -0.519 131 88 82
0.463309 -0.1958 -0.534 135 92 86
-0.319547 -0.23736 -0.644 252 253 248
-0.306367 -0.23478 -0.637 132 135 128
-0.155671 -0.236254 -0.641 192 189 180
-0.0549467 -0.233674 -0.634 64 62 75
-0.0442171 -0.234411 -0.636 66 65 71
0.0640333 -0.208243 -0.565 213 179 169
0.0774924 -0.209717 -0.569 179 142 133
0.0837857 -0.211929 -0.575 163 126 117
0.0983629 -0.220037 -0.597 129 90 95
0.301786 -0.186866 -0.507 132 100 103
0.312138 -0.186129 -0.505 131 99 104
0.32367 -0.185023 -0.502 128 96 99
0.33066 -0.184654 -0.501 127 95 100
0.330952 -0.184286 -0.5 127 95 100
0.346449 -0.183917 -0.499 125 96 101
0.349048 -0.184286 -0.5 118 91 96
0.35 -0.184286 -0.5 118 91 96
0.415973 -0.19608 -0.532 177 131 133
0.412729 -0.191289 -0.519 183 130 122
0.417223 -0.190183 -0.516 161 109 95
0.42312 -0.190183 -0.516 139 90 85
0.429693 -0.19092 -0.518 137 92 87
0.437144 -0.192026 -0.521 127 82 77
0.4716 -0.199029 -0.54 146 98 94
-0.314631 -0.236734 -0.639 252 253 248
-0.275011 -0.239328 -0.646 252 253 248
-0.157373 -0.236364 -0.638 190 187 178
-0.0574524 -0.235252 -0.635 64 61 68
0.0878286 -0.214876 -0.58 149 112 104
0.0908143 -0.216729 -0.585 142 105 99
0.116351 -0.234511 -0.633 108 77 83
0.291267 -0.190425 -0.514 134 100 101
0.302751 -0.187831 -0.507 132 101 106
0.339795 -0.184868 -0.499 179 157 170
0.341011 -0.184497 -0.498 226 204 216
0.415191 -0.196723 -0.531 180 132 132
0.426894 -0.191536 -0.517 138 91 85
0.45322 -0.195241 -0.527 132 88 85
-0.30758 -0.237207 -0.637 203 206 199
-0.275011 -0.240558 -0.646 252 253 248
-0.162489 -0.237951 -0.639 190 187 178
-0.154932 -0.239441 -0.643 191 188 179
-0.0625848 -0.237579 -0.638 65 62 71
-0.051 -0.2346 -0.63 64 63 69
-0.0464933 -0.23609 -0.634 65 64 70
-0.0364114 -0.241303 -0.648 70 69 75
0.0573 -0.213374 -0.573 215 183 172
0.0694143 -0.210395 -0.565 206 169 160
0.07398 -0.21114 -0.567 194 156 145
0.0954448 -0.220822 -0.593 129 95 96
0.100167 -0.223801 -0.601 127 91 93
0.308901 -0.188425 -0.506 132 100 105
0.312138 -0.188052 -0.505 130 98 103
0.336944 -0.185818 -0.499 130 94 94
0.413907 -0.192893 -0.518 179 128 124
0.414893 -0.192893 -0.518 176 124 111
0.419189 -0.192149 -0.516 159 109 100
0.45322 -0.196245 -0.527 131 87 84
-0.0636 -0.238046 -0.636 65 62 71
-0.0533152 -0.235426 -0.629 64 63 69
-0.0363552 -0.242163 -0.647 70 69 75
0.0881314 -0.217834 -0.582 145 108 102
0.0954448 -0.221951 -0.593 128 94 95
0.301413 -0.190137 -0.508 135 101 102
0.302751 -0.189763 -0.507 132 100 103
0.304683 -0.189763 -0.507 134 100 101
0.30758 -0.189763 -0.507 135 99 99
0.311792 -0.189389 -0.506 132 100 105
0.325889 -0.187517 -0.501 128 96 99
0.341011 -0.186394 -0.498 167 144 152
0.346449 -0.186769 -0.499 124 93 98
0.410552 -0.194629 -0.52 187 134 128
0.416062 -0.193506 -0.517 165 115 106
0.444943 -0.195377 -0.522 137 93 90
0.470727 -0.20174 -0.539 140 99 95
-0.158589 -0.24001 -0.638 190 187 178
-0.155429 -0.240762 -0.64 193 190 181
-0.0722057 -0.243771 -0.648 68 67 72
-0.0606 -0.237 -0.63 66 63 72
0.0605895 -0.211795 -0.563 214 181 172
0.0627343 -0.211795 -0.563 210 178 167
0.0825467 -0.215933 -0.574 161 124 115
0.1005 -0.226843 -0.603 126 91 95
0.107709 -0.232486 -0.618 111 78 87
0.292686 -0.195619 -0.52 112 90 102
0.2958 -0.191857 -0.51 131 99 104
0.300446 -0.191105 -0.508 132 100 103
0.302381 -0.191105 -0.508 132 100 103
0.302751 -0.190729 -0.507 132 100 103
0.30758 -0.190729 -0.507 134 100 101
0.31344 -0.1896 -0.504 128 96 101
0.320483 -0.189224 -0.503 130 98 103
0.326843 -0.188471 -0.501 127 95 98
0.330952 -0.188095 -0.5 123 94 98
0.41624 -0.194114 -0.516 162 110 99
0.421154 -0.194114 -0.516 142 94 84
0.427879 -0.19449 -0.517 145 98 92
0.455086 -0.198629 -0.528 130 86 85
-0.316109 -0.242737 -0.642 252 253 248
-0.273394 -0.245006 -0.648 252 251 249
-0.27258 -0.245384 -0.649 252 253 248
-0.0715371 -0.242737 -0.642 62 61 67
-0.0656076 -0.238956 -0.632 67 64 73
-0.0629 -0.237822 -0.629 66 65 73
-0.03864 -0.243493 -0.644 69 68 76
0.0670238 -0.212868 -0.563 203 169 159
0.0738495 -0.214002 -0.566 183 145 132
0.0762743 -0.214758 -0.568 174 136 123
0.104161 -0.231016 -0.611 119 86 93
0.11322 -0.237822 -0.629 105 74 82
0.2945 -0.1985 -0.525 107 84 100
0.301786 -0.191694 -0.507 133 101 104
0.32398 -0.189426 -0.501 128 96 99
0.324934 -0.189426 -0.501 127 95 98
0.338845 -0.18867 -0.499 175 155 166
0.344548 -0.18867 -0.499 124 93 99
0.410751 -0.196231 -0.519 182 132 125
0.413907 -0.195853 -0.518 169 120 113
-0.306848 -0.24244 -0.638 253 255 249
-0.288755 -0.24358 -0.641 205 206 201
-0.283532 -0.24434 -0.643 252 253 248
-0.273816 -0.24662 -0.649 250 249 247
-0.0757914 -0.24586 -0.647 65 64 69
0.0559143 -0.2166 -0.57 215 182 173
0.0658343 -0.21356 -0.562 204 170 161
0.100833 -0.2299 -0.605 124 89 96
0.102491 -0.23104 -0.608 121 90 98
0.104331 -0.23256 -0.612 117 86 94
0.29537 -0.19874 -0.523 107 86 101
0.307937 -0.19228 -0.506 131 99 102
0.314734 -0.19114 -0.503 130 98 101
0.320483 -0.19114 -0.503 128 96 99
0.32398 -0.19038 -0.501 128 96 99
0.336944 -0.18962 -0.499 220 199 208
0.341696 -0.18962 -0.499 134 108 117
0.431667 -0.19684 -0.518 144 99 93
0.439276 -0.1976 -0.52 140 97 91
-0.288755 -0.244801 -0.641 250 251 246
-0.2795 -0.246329 -0.645 218 219 214
-0.157373 -0.243655 -0.638 192 189 180
-0.05434 -0.239454 -0.627 66 65 71
-0.051 -0.2406 -0.63 67 66 72
-0.0364114 -0.247474 -0.648 69 68 76
0.0593057 -0.214249 -0.561 215 182 177
0.0624 -0.213867 -0.56 212 179 172
0.0868733 -0.221887 -0.581 141 105 105
0.0975514 -0.228761 -0.599 126 91 97
0.298327 -0.195153 -0.511 131 99 104
0.302751 -0.193626 -0.507 132 100 103
0.303717 -0.193626 -0.507 131 99 102
0.30829 -0.192862 -0.505 131 99 102
0.309252 -0.192862 -0.505 131 99 102
0.339114 -0.190189 -0.498 216 195 202
0.343597 -0.19057 -0.499 126 96 98
0.347837 -0.191334 -0.501 115 89 90
0.35088 -0.19248 -0.504 78 59 65
0.436454 -0.198209 -0.519 127 82 77
0.458829 -0.20241 -0.53 127 85 86
-0.2944 -0.245638 -0.64 251 252 247
-0.288305 -0.245638 -0.64 252 253 248
-0.273816 -0.249092 -0.649 196 196 194
-0.157127 -0.244487 -0.637 190 188 175
-0.043141 -0.24487 -0.638 66 66 74
-0.0352857 -0.249476 -0.65 70 69 77
0.0690457 -0.215701 -0.562 193 156 147
0.0713133 -0.216085 -0.563 183 146 137
0.073719 -0.216852 -0.565 175 137 126
0.0749276 -0.217236 -0.566 170 132 121
0.0884343 -0.224145 -0.584 135 99 99
0.102829 -0.234124 -0.61 117 86 94
0.106359 -0.23681 -0.617 111 80 88
0.2985 -0.2015 -0.525 106 90 100
0.29812 -0.197278 -0.514 133 102 107
0.298714 -0.195743 -0.51 131 101 103
0.303717 -0.194591 -0.507 131 99 102
0.311176 -0.193824 -0.505 131 99 102
0.314734 -0.193056 -0.503 130 98 101
0.31889 -0.192672 -0.502 129 97 100
0.331905 -0.191905 -0.5 127 96 101
0.346883 -0.192289 -0.501 119 97 99
0.415077 -0.19843 -0.517 165 115 106
0.420986 -0.19843 -0.517 141 92 85
0.428707 -0.198813 -0.518 142 99 93
0.429693 -0.198813 -0.518 149 106 100
0.479081 -0.209176 -0.545 129 91 88
0.496351 -0.215317 -0.561 131 96 92
-0.309029 -0.246857 -0.64 250 252 247
-0.303677 -0.246471 -0.639 251 253 248
-0.281957 -0.248786 -0.645 249 250 245
-0.275863 -0.249943 -0.648 165 167 164
-0.273 -0.250714 -0.65 180 182 177
-0.15323 -0.247243 -0.641 196 193 184
-0.1505 -0.248786 -0.645 199 197 185
-0.147725 -0.250329 -0.649 196 193 184
-0.0768048 -0.244929 -0.635 70 68 73
-0.0753571 -0.244157 -0.633 70 68 73
-0.0499581 -0.243771 -0.632 67 66 74
0.0552276 -0.217157 -0.563 216 182 173
0.122811 -0.249943 -0.648 111 81 89
0.304082 -0.195171 -0.506 132 100 103
0.314734 -0.194014 -0.503 130 98 101
0.323333 -0.192857 -0.5 128 96 99
0.327143 -0.192857 -0.5 126 97 101
0.361481 -0.198643 -0.515 61 58 75
0.409149 -0.201343 -0.522 188 135 131
0.445083 -0.200957 -0.521 136 93 86
0.470878 -0.207514 -0.538 140 102 99
-0.301714 -0.248076 -0.64 252 254 251
-0.275476 -0.251952 -0.65 153 155 152
-0.0821571 -0.247689 -0.639 73 71 76
-0.076079 -0.243812 -0.629 68 67 73
-0.0544267 -0.243425 -0.628 67 66 74
-0.0533152 -0.243812 -0.629 67 66 74
-0.0488314 -0.245363 -0.633 67 67 75
-0.0398667 -0.249627 -0.644 67 66 74
0.073719 -0.219005 -0.565 168 134 122
0.085619 -0.224819 -0.58 140 105 103
0.0870229 -0.225594 -0.582 137 101 103
0.0995162 -0.234122 -0.604 127 93 92
0.301037 -0.197298 -0.509 130 101 106
0.321429 -0.19381 -0.5 125 95 97
0.366685 -0.20195 -0.521 67 66 84
0.413108 -0.200399 -0.517 171 121 114
0.422955 -0.200399 -0.517 151 104 98
0.443238 -0.201562 -0.52 134 91 84
0.446931 -0.202337 -0.522 135 92 85
0.448784 -0.202725 -0.523 131 88 81
-0.315847 -0.252801 -0.649 251 254 247
-0.313641 -0.252022 -0.647 250 253 246
-0.301714 -0.249295 -0.64 252 254 251
-0.290429 -0.250074 -0.642 253 253 251
-0.161271 -0.248906 -0.639 205 206 200
-0.1498 -0.250074 -0.642 198 196 184
-0.0728629 -0.242284 -0.622 69 68 76
-0.0533152 -0.24501 -0.629 67 66 74
-0.0409657 -0.250074 -0.642 67 66 72
-0.0352857 -0.25319 -0.65 70 69 75
0.0599438 -0.216965 -0.557 210 177 168
0.0621771 -0.217354 -0.558 208 176 165
0.0643029 -0.217354 -0.558 205 173 162
0.0654829 -0.217744 -0.559 202 170 159
0.0725143 -0.219691 -0.564 175 141 131
0.0776286 -0.222029 -0.57 160 123 114
0.0814533 -0.223587 -0.574 147 112 108
0.0885857 -0.227871 -0.585 135 99 103
0.0964105 -0.233325 -0.599 128 93 97
0.320163 -0.195151 -0.501 128 96 97
0.323333 -0.194762 -0.5 127 95 98
0.32839 -0.194372 -0.499 125 95 97
0.409278 -0.20489 -0.526 179 131 129
0.408936 -0.203721 -0.523 178 131 125
0.420001 -0.201384 -0.517 152 102 93
0.42772 -0.201773 -0.518 146 97 90
0.428707 -0.201773 -0.518 145 96 89
0.43364 -0.201773 -0.518 123 76 66
0.455228 -0.205279 -0.527 131 95 83
0.487337 -0.215017 -0.552 135 94 90
-0.298523 -0.250906 -0.641 252 254 251
-0.27919 -0.254429 -0.65 249 254 250
-0.0600229 -0.244251 -0.624 67 66 74
-0.0432086 -0.250123 -0.639 66 67 72
0.0558 -0.218417 -0.558 216 183 174
0.0725143 -0.220766 -0.564 174 140 130
0.0964105 -0.234466 -0.599 128 93 99
0.105013 -0.24112 -0.616 115 83 96
0.115691 -0.248949 -0.636 108 76 87
0.312818 -0.196889 -0.503 132 100 103
0.332191 -0.195323 -0.499 130 107 113
0.41192 -0.20824 -0.532 165 125 125
0.408154 -0.204326 -0.522 179 132 124
0.428864 -0.202369 -0.517 131 82 77
0.4366 -0.20276 -0.518 134 91 82
0.43942 -0.203151 -0.519 132 89 80
0.481881 -0.214111 -0.547 135 95 93
-0.300679 -0.252913 -0.643 252 254 249
-0.29823 -0.252913 -0.643 251 253 250
-0.286971 -0.25488 -0.648 253 253 251
-0.163038 -0.254093 -0.646 247 247 245
-0.152764 -0.249373 -0.634 196 196 188
-0.149847 -0.250553 -0.637 199 199 189
-0.140308 -0.255273 -0.649 195 193 181
-0.0860724 -0.248587 -0.632 80 77 86
-0.0711019 -0.242687 -0.617 70 69 77
-0.0699267 -0.242687 -0.617 70 69 77
-0.0676857 -0.24308 -0.618 69 68 76
0.0631267 -0.219087 -0.557 202 169 160
0.0788524 -0.224593 -0.571 153 118 112
0.10001 -0.238753 -0.607 126 91 97
0.117454 -0.25134 -0.639 107 76 84
0.305046 -0.199027 -0.506 132 100 103
0.306367 -0.198633 -0.505 131 100 97
0.340746 -0.196273 -0.499 120 89 94
0.407722 -0.206107 -0.524 182 131 127
0.410947 -0.203747 -0.518 178 123 120
0.428864 -0.203353 -0.517 139 92 86
0.430833 -0.203353 -0.517 126 82 73
0.434772 -0.203353 -0.517 134 90 81
0.446075 -0.204927 -0.521 135 92 85
0.44978 -0.205713 -0.523 133 93 85
-0.302082 -0.255324 -0.646 251 253 248
-0.29839 -0.255324 -0.646 251 253 250
-0.294699 -0.255324 -0.646 253 253 251
-0.146666 -0.252557 -0.639 201 201 189
-0.14168 -0.254533 -0.644 197 197 185
-0.0810257 -0.245443 -0.621 72 71 77
-0.0623 -0.246233 -0.623 70 69 77
0.0528943 -0.221729 -0.561 211 178 171
0.0749276 -0.223705 -0.566 164 127 118
0.1122 -0.249 -0.63 107 76 84
0.417047 -0.204338 -0.517 160 106 96
0.42197 -0.204338 -0.517 149 99 92
0.431818 -0.204338 -0.517 124 80 71
-0.29808 -0.257349 -0.648 253 253 251
-0.0908876 -0.250994 -0.632 68 69 74
-0.0711019 -0.245037 -0.617 69 68 76
-0.0433438 -0.254569 -0.641 68 68 76
0.0597286 -0.220414 -0.555 208 175 166
0.073719 -0.224386 -0.565 168 130 121
0.08022 -0.227563 -0.573 147 114 109
0.0859143 -0.231137 -0.582 135 99 101
0.1122 -0.2502 -0.63 107 76 82
0.312771 -0.212074 -0.534 106 93 103
0.313483 -0.198969 -0.501 128 98 100
0.321736 -0.198174 -0.499 127 97 99
0.408276 -0.208897 -0.526 185 130 127
0.42197 -0.205323 -0.517 133 84 77
0.430833 -0.205323 -0.517 126 79 71
0.461717 -0.210883 -0.531 122 82 74
0.475565 -0.214854 -0.541 128 89 84
-0.156648 -0.25539 -0.64 235 235 233
-0.146494 -0.252597 -0.633 222 222 220
-0.140235 -0.256588 -0.643 200 198 186
-0.133713 -0.258184 -0.647 225 222 207
-0.126905 -0.259381 -0.65 228 223 204
0.0699914 -0.223866 -0.561 175 141 132
0.0983657 -0.241025 -0.604 130 95 102
0.100175 -0.242621 -0.608 125 93 98
0.117638 -0.25539 -0.64 109 82 89
0.307738 -0.206308 -0.517 117 98 102
0.306614 -0.202317 -0.507 132 99 108
0.327731 -0.198726 -0.498 125 96 98
0.429693 -0.206707 -0.518 131 86 80
0.4535 -0.2095 -0.525 127 76 73
0.4636 -0.212293 -0.532 123 82 78
0.46636 -0.213091 -0.534 126 85 81
-0.146031 -0.253001 -0.631 252 252 250
-0.137571 -0.257411 -0.642 212 208 197
-0.135336 -0.257812 -0.643 230 226 214
-0.120343 -0.259817 -0.648 240 236 224
-0.113819 -0.259015 -0.646 249 246 241
-0.0840295 -0.247388 -0.617 75 74 79
-0.0828543 -0.247388 -0.617 75 74 79
-0.0689743 -0.24819 -0.619 70 69 75
-0.06586 -0.249793 -0.623 72 71 77
-0.0614076 -0.250996 -0.626 69 68 74
-0.0603114 -0.251397 -0.627 69 68 74
0.059621 -0.222128 -0.554 205 172 165
0.0860619 -0.233755 -0.583 136 99 106
0.324588 -0.200075 -0.499 126 95 100
0.423773 -0.207693 -0.518 135 86 79
0.42772 -0.207693 -0.518 132 85 79
0.428864 -0.207292 -0.517 143 96 90
0.429849 -0.207292 -0.517 139 90 83
0.432803 -0.207292 -0.517 131 84 76
0.440409 -0.208094 -0.519 144 97 91
-0.1434 -0.2538 -0.63 251 251 251
-0.118006 -0.258634 -0.642 250 247 242
-0.1014 -0.2538 -0.63 76 75 81
-0.0690857 -0.249771 -0.62 71 70 76
-0.0502743 -0.256217 -0.636 70 69 77
0.0789905 -0.230434 -0.572 153 114 115
0.0920562 -0.238894 -0.593 137 98 103
0.115873 -0.25662 -0.637 105 85 97
0.1196 -0.25944 -0.644 104 77 82
0.331526 -0.200623 -0.498 131 110 117
0.40659 -0.209486 -0.52 187 135 124
0.408774 -0.209083 -0.519 184 131 125
0.410947 -0.20868 -0.518 170 117 109
0.426733 -0.20868 -0.518 130 81 76
0.430833 -0.208277 -0.517 127 78 71
-0.143911 -0.253786 -0.627 219 219 219
-0.142717 -0.253786 -0.627 225 225 225
-0.129423 -0.258238 -0.638 254 253 249
-0.0871295 -0.248524 -0.614 75 74 79
-0.0525314 -0.256619 -0.634 72 71 79
-0.0446343 -0.259857 -0.642 65 64 72
-0.0411571 -0.261071 -0.645 68 67 73
0.0503952 -0.225452 -0.557 211 181 173
0.0542467 -0.223833 -0.553 212 179 172
0.0563533 -0.223833 -0.553 208 175 166
0.0617314 -0.224238 -0.554 201 167 157
0.0832657 -0.234357 -0.579 138 101 108
0.08466 -0.235167 -0.581 138 103 110
0.0936571 -0.241238 -0.596 135 98 105
0.100175 -0.246095 -0.608 113 90 98
0.310007 -0.206833 -0.511 123 94 98
0.320786 -0.201976 -0.499 123 91 94
0.441397 -0.210071 -0.519 142 97 91
0.468252 -0.216548 -0.535 119 80 75
-0.123976 -0.258233 -0.635 221 223 222
-0.122767 -0.258233 -0.635 215 217 216
-0.114964 -0.257013 -0.632 96 96 98
-0.10502 -0.253353 -0.623 74 71 80
-0.0981324 -0.250913 -0.617 76 73 80
-0.0801124 -0.249693 -0.614 73 72 78
-0.0726286 -0.252133 -0.62 74 73 79
-0.04232 -0.261893 -0.644 68 67 75
0.06162 -0.224887 -0.553 198 164 155
0.0985286 -0.246033 -0.605 122 91 99
0.100175 -0.247253 -0.608 110 87 97
0.314691 -0.21228 -0.522 95 84 92
0.317619 -0.203333 -0.5 127 100 107
0.322687 -0.202927 -0.499 130 101 106
0.324886 -0.20252 -0.498 127 102 105
0.329629 -0.20252 -0.498 212 189 195
0.341838 -0.204147 -0.502 87 64 74
0.4065 -0.2135 -0.525 176 125 121
0.410153 -0.210247 -0.517 157 104 98
-0.134357 -0.256174 -0.627 197 197 197
-0.119021 -0.256583 -0.628 72 71 76
-0.116257 -0.255766 -0.626 71 70 75
-0.0963286 -0.250454 -0.613 75 74 82
-0.0660714 -0.255357 -0.625 72 71 77
-0.0526143 -0.259443 -0.635 70 69 77
-0.043479 -0.262711 -0.643 72 71 79
0.0651314 -0.227166 -0.556 189 152 144
0.0762743 -0.232069 -0.568 151 113 110
0.0954286 -0.245143 -0.6 136 99 106
0.103671 -0.251271 -0.615 114 89 92
0.11394 -0.258626 -0.633 109 87 99
0.320786 -0.203877 -0.499 126 94 99
0.33086 -0.20306 -0.497 131 104 111
0.435757 -0.211231 -0.517 153 104 97
0.441397 -0.212049 -0.519 138 93 87
0.456231 -0.215317 -0.527 126 89 81
0.477476 -0.221446 -0.542 126 93 86
-0.11106 -0.253264 -0.617 69 68 74
-0.109707 -0.252853 -0.616 68 67 73
-0.0845143 -0.251211 -0.612 76 77 82
-0.0728629 -0.255316 -0.622 74 73 79
-0.0706067 -0.255727 -0.623 72 71 77
-0.0594943 -0.25901 -0.631 72 71 77
-0.0377038 -0.266399 -0.649 70 69 77
0.0475514 -0.230277 -0.561 208 175 166
0.0891914 -0.24177 -0.589 135 97 108
0.110471 -0.257369 -0.627 109 89 100
0.11412 -0.260242 -0.634 110 87 95
0.119971 -0.265168 -0.646 98 76 89
0.315391 -0.205649 -0.501 129 103 106
0.321736 -0.204828 -0.499 126 97 102
0.32204 -0.204417 -0.498 128 99 104
0.424925 -0.212216 -0.517 136 88 78
0.426894 -0.212216 -0.517 141 92 85
0.438573 -0.212627 -0.518 147 100 94
0.44978 -0.214679 -0.523 120 83 75
0.456231 -0.216321 -0.527 127 90 84
-0.13447 -0.256501 -0.622 95 96 100
-0.133071 -0.256089 -0.621 94 93 98
-0.100175 -0.250728 -0.608 67 66 74
-0.0868457 -0.252377 -0.612 77 76 82
-0.0673695 -0.25815 -0.626 72 71 77
-0.0584771 -0.261037 -0.633 73 72 78
-0.0526971 -0.262274 -0.636 71 70 78
-0.0515667 -0.262687 -0.637 72 71 79
0.0480133 -0.228459 -0.554 211 178 169
0.0698667 -0.230933 -0.56 172 135 129
0.0907733 -0.24413 -0.592 138 98 107
0.339249 -0.206603 -0.501 90 71 75
0.40527 -0.216912 -0.526 167 116 112
0.40659 -0.214438 -0.52 184 131 125
0.42394 -0.213201 -0.517 138 90 80
0.478357 -0.223923 -0.543 118 85 78
-0.149503 -0.267629 -0.646 114 116 115
-0.130074 -0.256029 -0.618 91 90 95
-0.105443 -0.250643 -0.605 55 54 60
-0.0985286 -0.250643 -0.605 68 67 73
-0.0952286 -0.251057 -0.606 74 73 79
-0.0942295 -0.251471 -0.607 72 71 79
-0.0930733 -0.251471 -0.607 74 73 81
-0.0900476 -0.252714 -0.61 77 76 82
-0.0890314 -0.253129 -0.611 78 77 83
-0.0846524 -0.253957 -0.613 77 76 84
-0.0794571 -0.256029 -0.618 76 75 81
-0.0761714 -0.256857 -0.62 76 75 81
-0.05278 -0.2639 -0.637 70 69 77
-0.043479 -0.266386 -0.643 140 139 147
0.06162 -0.2291 -0.553 197 160 152
0.108754 -0.258514 -0.624 111 87 100
0.1143 -0.263071 -0.635 111 89 102
0.318885 -0.206729 -0.499 129 96 103
0.320786 -0.206729 -0.499 125 92 99
0.32204 -0.206314 -0.498 124 93 98
0.40996 -0.2146 -0.518 172 119 111
0.414274 -0.213771 -0.516 153 100 92
0.426894 -0.214186 -0.517 138 90 80
0.462729 -0.219986 -0.531 120 83 75
0.465487 -0.220814 -0.533 130 93 85
-0.0675848 -0.261368 -0.628 73 72 78
-0.0654 -0.2622 -0.63 72 71 79
-0.0632 -0.263032 -0.632 72 71 79
-0.0619962 -0.263032 -0.632 73 72 80
-0.0585695 -0.263865 -0.634 72 71 79
0.0560476 -0.228905 -0.55 203 170 161
0.0970543 -0.250963 -0.603 119 92 99
0.120157 -0.269275 -0.647 85 68 86
0.32736 -0.20643 -0.496 216 193 199
0.335993 -0.207679 -0.499 119 94 100
0.405388 -0.216835 -0.521 174 124 117
0.40659 -0.216419 -0.52 174 121 113
0.424103 -0.214754 -0.516 136 88 78
0.431966 -0.214754 -0.516 140 93 85
0.471026 -0.223494 -0.537 127 90 84
-0.147497 -0.270926 -0.648 109 111 108
-0.14279 -0.266745 -0.638 114 115 117
-0.133071 -0.259637 -0.621 101 102 106
-0.116773 -0.25253 -0.604 67 67 75
-0.100167 -0.251275 -0.601 58 57 63
-0.0932267 -0.254202 -0.608 72 71 79
-0.0912095 -0.255038 -0.61 74 74 82
-0.0838933 -0.257547 -0.616 77 76 84
-0.0666 -0.2634 -0.63 72 71 79
-0.0597771 -0.265072 -0.634 72 71 79
-0.0482276 -0.267999 -0.641 115 114 122
0.07106 -0.234551 -0.561 163 124 125
0.07506 -0.23706 -0.567 155 116 119
0.317863 -0.212392 -0.508 135 106 110
0.318885 -0.20863 -0.499 125 94 102
0.418235 -0.23037 -0.551 133 107 110
0.411675 -0.22619 -0.541 146 106 104
0.407987 -0.216573 -0.518 170 117 109
0.415257 -0.215737 -0.516 154 101 93
0.41624 -0.215737 -0.516 154 101 93
-0.133929 -0.2625 -0.625 105 106 110
-0.10955 -0.25032 -0.596 76 75 83
-0.108415 -0.25032 -0.596 73 72 80
-0.0904905 -0.25746 -0.613 74 74 82
-0.0829886 -0.25956 -0.618 77 76 84
-0.0609848 -0.26628 -0.634 72 71 79
-0.0598714 -0.2667 -0.635 72 71 79
-0.03894 -0.27258 -0.649 72 70 81
0.0485371 -0.23016 -0.548 213 180 173
0.0581429 -0.231 -0.55 198 165 158
0.07506 -0.23814 -0.567 151 115 117
0.0877705 -0.24654 -0.587 138 100 113
0.0893429 -0.2478 -0.59 138 100 113
0.120157 -0.27174 -0.647 63 58 80
0.331807 -0.20874 -0.497 122 91 97
0.335043 -0.20958 -0.499 113 84 88
0.33734 -0.21042 -0.501 77 57 66
0.409169 -0.21714 -0.517 163 108 101
0.437727 -0.21714 -0.517 129 84 78
-0.112767 -0.251033 -0.595 66 66 74
-0.0688905 -0.265378 -0.629 73 72 78
-0.0517286 -0.269597 -0.639 74 73 81
0.0440295 -0.235001 -0.557 205 175 167
0.06256 -0.232891 -0.552 192 155 149
0.0697419 -0.235845 -0.559 166 132 130
0.31889 -0.211796 -0.502 129 96 103
0.319835 -0.21053 -0.499 127 97 99
0.327073 -0.209687 -0.497 160 134 137
0.333423 -0.210109 -0.498 124 95 99
0.339645 -0.212218 -0.503 56 36 45
0.404951 -0.220656 -0.523 169 119 112
0.405388 -0.219812 -0.521 171 121 114
0.425086 -0.217703 -0.516 140 91 84
0.441397 -0.218969 -0.519 129 86 80
0.474686 -0.227829 -0.54 117 83 81
0.482923 -0.230782 -0.547 120 87 82
-0.14089 -0.273781 -0.646 113 115 114
-0.111258 -0.251319 -0.593 58 58 66
-0.108815 -0.250895 -0.592 66 67 72
-0.0926743 -0.259371 -0.612 67 68 73
-0.0722543 -0.265729 -0.627 72 71 77
0.05044 -0.2314 -0.546 203 170 163
0.0568876 -0.232248 -0.548 200 167 160
0.33086 -0.210633 -0.497 121 92 97
0.334092 -0.211481 -0.499 114 88 91
0.412309 -0.218686 -0.516 158 105 97
0.413291 -0.218686 -0.516 158 105 97
0.415257 -0.218686 -0.516 157 104 96
0.437727 -0.21911 -0.517 127 86 80
0.446075 -0.220805 -0.521 122 85 79
0.447926 -0.221229 -0.522 121 84 78
0.44978 -0.221652 -0.523 121 83 80
0.451638 -0.222076 -0.524 122 84 81
-0.111258 -0.252449 -0.593 93 96 101
-0.108815 -0.252023 -0.592 97 100 105
-0.0970543 -0.256706 -0.603 60 59 65
-0.0542476 -0.272457 -0.64 70 69 77
-0.0447733 -0.27416 -0.644 71 70 76
0.04732 -0.23244 -0.546 212 179 172
0.0723857 -0.239677 -0.563 156 122 121
0.0957467 -0.25628 -0.602 123 93 105
0.398048 -0.276714 -0.65 145 109 119
0.328305 -0.211154 -0.496 124 95 100
0.332474 -0.212006 -0.498 123 96 101
0.404728 -0.223074 -0.524 167 117 110
0.408973 -0.22052 -0.518 163 113 104
0.411326 -0.219669 -0.516 157 107 98
0.415257 -0.219669 -0.516 159 109 98
0.445083 -0.221797 -0.521 122 87 83
0.46636 -0.227331 -0.534 122 85 79
0.469128 -0.228183 -0.536 127 92 86
0.479238 -0.231589 -0.544 125 92 85
-0.119074 -0.258282 -0.604 127 128 133
-0.109757 -0.252723 -0.591 123 126 131
-0.10638 -0.252723 -0.591 115 118 123
-0.103351 -0.253578 -0.593 78 81 86
-0.0963829 -0.259137 -0.606 60 59 65
-0.0810257 -0.265551 -0.621 76 75 83
-0.0401762 -0.277525 -0.649 68 67 73
0.0503476 -0.233052 -0.545 211 178 171
0.0546 -0.23348 -0.546 202 169 162
0.0624467 -0.235618 -0.551 188 151 145
0.0672495 -0.237756 -0.556 171 136 134
0.0865048 -0.250585 -0.586 137 99 112
0.0990171 -0.259992 -0.608 118 92 105
0.332474 -0.212954 -0.498 110 83 88
0.345343 -0.218086 -0.51 45 41 55
0.403955 -0.223645 -0.523 168 115 109
0.405388 -0.22279 -0.521 170 117 111
0.418376 -0.220224 -0.515 145 97 87
0.435757 -0.221079 -0.517 130 87 81
0.487504 -0.235618 -0.551 117 84 77
-0.131647 -0.273607 -0.637 125 129 132
-0.126786 -0.268452 -0.625 124 127 132
0.0451571 -0.23409 -0.545 210 180 172
0.0588676 -0.23495 -0.547 194 159 155
0.0749276 -0.24311 -0.566 144 112 113
0.0990171 -0.26115 -0.608 119 93 106
0.102333 -0.263728 -0.614 115 91 104
0.393757 -0.277043 -0.645 150 112 123
0.379629 -0.265446 -0.618 149 116 125
0.325877 -0.220346 -0.513 125 106 110
0.323287 -0.213473 -0.497 129 96 103
0.323581 -0.213044 -0.496 125 96 101
0.405071 -0.229795 -0.535 153 108 105
0.40303 -0.226359 -0.527 169 120 116
0.407 -0.222493 -0.518 163 110 102
0.419357 -0.221205 -0.515 150 100 91
0.425086 -0.221634 -0.516 153 106 98
-0.085619 -0.267486 -0.62 70 69 75
-0.0679076 -0.272231 -0.631 73 72 80
-0.0636 -0.274389 -0.636 72 71 79
-0.0472267 -0.27784 -0.644 71 70 76
0.04706 -0.234266 -0.543 210 177 170
0.0749276 -0.244189 -0.566 145 113 114
0.0791286 -0.247209 -0.573 142 109 120
0.0880695 -0.254111 -0.589 139 101 114
0.100834 -0.264034 -0.612 121 95 108
0.105695 -0.267486 -0.62 116 90 99
0.120714 -0.280429 -0.65 61 74 119
0.348523 -0.240306 -0.557 117 86 94
0.32304 -0.21744 -0.504 130 108 111
0.322381 -0.215714 -0.5 124 93 99
0.406318 -0.232109 -0.538 149 106 100
0.451638 -0.226069 -0.524 119 85 76
0.482923 -0.235991 -0.547 123 90 85
-0.0990219 -0.260433 -0.601 63 62 70
-0.0922562 -0.267367 -0.617 62 61 67
-0.0835257 -0.269533 -0.622 71 70 78
-0.0544171 -0.2782 -0.642 71 70 78
-0.04968 -0.279067 -0.644 71 70 76
-0.0437495 -0.280367 -0.647 70 69 75
0.0413057 -0.2379 -0.549 210 173 164
0.045941 -0.234867 -0.542 209 179 169
0.082021 -0.250467 -0.578 136 104 115
0.0865048 -0.253933 -0.586 138 102 114
0.0912333 -0.257833 -0.595 136 100 114
0.0975371 -0.2626 -0.606 122 96 107
0.344129 -0.236167 -0.545 111 78 85
0.41249 -0.223167 -0.515 162 110 99
0.444229 -0.225333 -0.52 119 87 76
0.44892 -0.2262 -0.522 118 86 75
-0.0957 -0.26506 -0.609 61 60 68
-0.0769086 -0.272459 -0.626 74 73 81
-0.0747619 -0.27333 -0.628 74 73 81
-0.0714 -0.2742 -0.63 74 73 81
-0.0520524 -0.279858 -0.643 69 70 75
0.0532657 -0.236334 -0.543 206 173 166
0.0749276 -0.246345 -0.566 147 112 116
0.0762743 -0.247215 -0.568 145 113 118
0.0928324 -0.260272 -0.598 128 98 108
0.352722 -0.244604 -0.562 128 91 99
0.324886 -0.216749 -0.498 128 97 105
0.326127 -0.216313 -0.497 124 94 102
0.327073 -0.216313 -0.497 124 94 102
0.402789 -0.229806 -0.528 162 112 105
0.40373 -0.228065 -0.524 158 109 102
0.462729 -0.231111 -0.531 112 78 69
-0.112009 -0.258351 -0.591 112 117 121
-0.108264 -0.257477 -0.589 109 112 117
-0.0916714 -0.271466 -0.621 60 59 65
-0.0670229 -0.277149 -0.634 72 73 78
-0.0614657 -0.279334 -0.639 71 72 77
-0.0545019 -0.281083 -0.643 69 70 75
-0.0521333 -0.28152 -0.644 70 71 76
-0.0425829 -0.283269 -0.648 70 69 75
0.0437952 -0.236494 -0.541 210 180 170
0.0777648 -0.249609 -0.571 143 111 116
0.0928324 -0.261411 -0.598 125 98 107
0.370857 -0.262286 -0.6 131 94 102
0.403993 -0.23562 -0.539 149 104 98
0.40373 -0.229063 -0.524 163 110 104
0.40659 -0.227314 -0.52 162 109 101
0.406797 -0.226877 -0.519 163 110 102
0.435613 -0.22644 -0.518 123 85 74
0.4366 -0.22644 -0.518 121 85 73
0.459978 -0.231249 -0.529 113 76 68
0.475565 -0.236494 -0.541 120 87 80
-0.0953162 -0.269575 -0.614 63 62 70
-0.065919 -0.278795 -0.635 73 73 81
0.0418114 -0.237964 -0.542 208 175 166
0.0427648 -0.237525 -0.541 211 178 169
0.0498857 -0.237086 -0.54 207 174 167
0.0681857 -0.243671 -0.555 162 128 127
0.0708067 -0.245428 -0.559 158 124 125
0.0762743 -0.249379 -0.568 145 113 118
0.107566 -0.273966 -0.624 120 94 107
0.401783 -0.231817 -0.528 155 104 100
0.402265 -0.230939 -0.526 159 110 105
0.407786 -0.227866 -0.519 161 108 100
0.419357 -0.22611 -0.515 152 102 91
0.428034 -0.226549 -0.516 134 86 72
0.431818 -0.226988 -0.517 124 86 75
0.457235 -0.231378 -0.527 115 76 69
-0.0580857 -0.283091 -0.642 71 72 77
-0.0510648 -0.284855 -0.646 70 71 76
-0.0498343 -0.284855 -0.646 70 71 76
0.0383076 -0.242965 -0.551 206 176 168
0.0467133 -0.237673 -0.539 210 177 170
0.0896457 -0.261044 -0.592 128 102 111
0.118557 -0.284414 -0.645 143 139 166
0.329048 -0.220476 -0.5 127 96 104
0.33552 -0.22224 -0.504 43 36 43
0.337815 -0.223122 -0.506 46 39 46
0.403267 -0.231941 -0.526 159 106 100
0.417395 -0.22709 -0.515 156 103 97
0.423281 -0.22709 -0.515 148 98 89
0.432803 -0.227972 -0.517 125 85 73
-0.0986914 -0.268371 -0.606 73 72 80
-0.0886905 -0.276786 -0.625 59 58 64
-0.0807429 -0.278114 -0.628 66 65 73
-0.0716267 -0.279886 -0.632 74 73 81
-0.04752 -0.286971 -0.648 71 70 76
0.0407038 -0.239586 -0.541 204 174 166
0.0436333 -0.2387 -0.539 207 174 167
0.0476514 -0.238257 -0.538 209 176 169
0.0509143 -0.239143 -0.54 202 169 162
0.0552324 -0.240029 -0.542 196 161 155
0.0574029 -0.240471 -0.543 189 154 148
0.0619933 -0.242243 -0.547 181 146 142
0.11466 -0.2821 -0.637 128 115 125
0.3288 -0.2232 -0.504 124 91 98
0.401263 -0.236486 -0.534 155 102 94
0.401783 -0.233829 -0.528 154 103 99
0.405171 -0.231171 -0.522 161 108 102
0.426069 -0.228514 -0.516 140 92 82
0.441397 -0.229843 -0.519 134 92 78
0.452636 -0.232057 -0.524 125 87 76
-0.121618 -0.27175 -0.611 105 109 118
-0.0912171 -0.278421 -0.626 59 58 64
-0.075119 -0.280645 -0.631 71 70 78
-0.05336 -0.286427 -0.644 70 71 76
0.0371229 -0.244174 -0.549 206 173 164
0.0456019 -0.239282 -0.538 206 173 166
0.0644286 -0.244619 -0.55 175 140 138
0.0929876 -0.266412 -0.599 121 94 103
0.44863 -0.281979 -0.634 65 63 87
0.400913 -0.239727 -0.539 151 101 94
0.408973 -0.230387 -0.518 152 102 95
0.411326 -0.229497 -0.516 159 109 100
0.420338 -0.229052 -0.515 147 99 89
0.44978 -0.23261 -0.523 126 84 70
0.450776 -0.23261 -0.523 126 84 70
0.459109 -0.234834 -0.528 121 83 72
0.477476 -0.241061 -0.542 120 86 76
-0.118877 -0.26934 -0.603 101 106 112
-0.0933029 -0.27872 -0.624 61 62 67
-0.0901686 -0.28006 -0.627 58 57 63
-0.0831352 -0.280507 -0.628 61 60 68
-0.0786 -0.2814 -0.63 68 67 75
-0.0534429 -0.2881 -0.645 71 72 76
0.0357333 -0.250133 -0.56 210 177 168
0.05082 -0.240753 -0.539 199 164 158
0.0721286 -0.25058 -0.561 148 116 119
0.0791286 -0.25594 -0.573 139 109 117
0.0852429 -0.2613 -0.585 137 107 115
0.0944429 -0.268447 -0.601 124 97 106
0.112556 -0.282293 -0.632 116 93 99
0.332377 -0.226907 -0.508 135 113 116
0.333654 -0.22646 -0.507 94 78 81
0.399887 -0.240753 -0.539 150 105 100
0.399229 -0.23852 -0.534 154 104 97
0.406166 -0.23316 -0.522 151 100 96
0.410153 -0.230927 -0.517 155 105 98
0.421319 -0.230033 -0.515 141 93 83
0.429849 -0.230927 -0.517 140 93 83
0.4366 -0.231373 -0.518 131 87 76
-0.108829 -0.262863 -0.586 95 98 103
-0.10584 -0.26376 -0.588 80 81 86
-0.0752381 -0.283497 -0.632 68 67 75
-0.0662305 -0.286189 -0.638 72 72 80
-0.0616581 -0.287534 -0.641 72 72 80
-0.0546714 -0.289329 -0.645 70 71 76
-0.0534429 -0.289329 -0.645 70 71 76
-0.0499114 -0.290226 -0.647 68 69 74
0.0424486 -0.240883 -0.537 203 170 161
0.0551305 -0.242677 -0.541 197 162 156
0.3405 -0.2355 -0.525 131 106 109
0.335313 -0.22922 -0.511 92 77 80
0.4446 -0.2826 -0.63 68 63 86
0.398211 -0.239537 -0.534 152 103 96
0.401031 -0.238191 -0.531 152 103 99
0.405948 -0.234603 -0.523 158 105 101
0.415257 -0.231463 -0.516 158 108 101
0.459109 -0.236846 -0.528 121 83 72
-0.134333 -0.29281 -0.65 101 104 109
-0.064 -0.288305 -0.64 72 72 80
-0.0535257 -0.291008 -0.646 70 71 76
-0.0487543 -0.291909 -0.648 68 69 74
0.0423695 -0.241455 -0.536 204 171 162
0.0433905 -0.241455 -0.536 203 170 161
0.0883686 -0.266231 -0.591 130 103 112
0.105695 -0.279295 -0.62 126 96 104
0.120714 -0.29281 -0.65 187 185 199
0.34085 -0.23605 -0.524 131 102 104
0.418654 -0.271637 -0.603 68 63 85
0.436585 -0.280196 -0.622 72 64 85
0.465943 -0.291909 -0.648 95 86 105
0.398211 -0.240554 -0.534 152 103 98
0.408571 -0.234248 -0.52 153 102 98
0.429849 -0.232896 -0.517 135 89 76
0.43942 -0.233797 -0.519 130 88 76
0.443238 -0.234248 -0.52 130 88 76
0.450776 -0.235599 -0.523 125 85 75
-0.110682 -0.26419 -0.584 95 98 105
-0.0894 -0.285 -0.63 56 55 63
-0.0582667 -0.291333 -0.644 72 73 78
-0.0475933 -0.293595 -0.649 69 68 74
0.0474743 -0.242476 -0.536 206 173 166
0.0584371 -0.245643 -0.543 190 153 147
0.0654762 -0.24881 -0.55 163 129 128
0.072 -0.253333 -0.56 148 118 120
0.0868 -0.266 -0.588 132 106 115
0.100834 -0.276857 -0.612 126 100 109
0.356589 -0.252429 -0.558 143 100 109
0.343188 -0.236595 -0.523 88 73 80
0.397543 -0.244286 -0.54 148 98 97
0.39738 -0.242929 -0.537 149 100 96
0.397466 -0.241119 -0.533 152 103 99
0.40002 -0.240214 -0.531 151 100 96
0.40303 -0.238405 -0.527 152 102 95
0.417395 -0.232976 -0.515 150 100 93
0.427051 -0.233429 -0.516 143 95 85
0.443238 -0.235238 -0.52 128 85 76
0.4545 -0.2375 -0.525 123 85 76
0.459109 -0.238857 -0.528 119 81 72
0.48944 -0.249714 -0.552 117 83 73
-0.115581 -0.268937 -0.592 95 98 105
-0.108643 -0.265757 -0.585 89 92 99
-0.100667 -0.274389 -0.604 89 90 95
-0.0896838 -0.287109 -0.632 56 57 62
-0.08848 -0.287109 -0.632 56 56 64
-0.0860724 -0.287109 -0.632 55 54 62
0.0496086 -0.243951 -0.537 203 168 162
0.0680629 -0.251674 -0.554 157 125 128
0.0777648 -0.259397 -0.571 140 111 116
0.104009 -0.280294 -0.617 125 99 110
0.107221 -0.282566 -0.622 125 99 108
0.108929 -0.283929 -0.625 125 99 108
0.412123 -0.234866 -0.517 157 104 96
0.414274 -0.234411 -0.516 154 104 97
0.41624 -0.234411 -0.516 155 105 98
0.417395 -0.233957 -0.515 150 100 93
0.432803 -0.234866 -0.517 138 91 81
0.435613 -0.23532 -0.518 137 90 80
-0.0780143 -0.289681 -0.635 58 57 65
-0.0698762 -0.29105 -0.638 70 69 77
0.0338619 -0.249536 -0.547 207 177 167
0.0372648 -0.244518 -0.536 209 176 167
0.0944429 -0.27417 -0.601 132 106 115
0.0959057 -0.275083 -0.603 136 110 119
0.09918 -0.27782 -0.609 133 107 116
0.105525 -0.282382 -0.619 120 96 109
0.351423 -0.243606 -0.534 101 74 79
0.396218 -0.246799 -0.541 149 100 95
0.440409 -0.236763 -0.519 130 86 77
-0.107345 -0.267528 -0.584 87 90 97
-0.104898 -0.269818 -0.589 66 66 74
-0.0851371 -0.290432 -0.634 53 52 60
0.0495162 -0.245539 -0.536 197 164 157
0.0539 -0.246913 -0.539 195 160 154
0.0733276 -0.25745 -0.562 139 112 117
0.0899486 -0.272109 -0.594 125 99 108
0.10384 -0.282187 -0.616 126 100 111
0.365597 -0.265237 -0.579 146 99 107
0.40002 -0.243249 -0.531 144 95 90
0.4055 -0.2405 -0.525 148 95 89
0.411933 -0.237293 -0.518 154 104 95
0.417223 -0.236377 -0.516 150 100 89
0.418206 -0.236377 -0.516 149 99 88
0.42312 -0.236377 -0.516 151 102 88
0.432803 -0.236835 -0.517 142 94 82
0.460986 -0.242332 -0.529 118 80 69
0.473807 -0.246913 -0.539 122 86 74
-0.134737 -0.29716 -0.646 100 101 106
-0.114995 -0.27094 -0.589 95 98 105
-0.102739 -0.27416 -0.596 99 99 107
-0.0942 -0.2898 -0.63 73 74 79
-0.0758333 -0.29302 -0.637 59 58 66
-0.0700952 -0.2944 -0.64 68 67 75
-0.0676571 -0.2944 -0.64 71 70 78
-0.0630752 -0.29578 -0.643 73 72 80
0.0335524 -0.24932 -0.542 207 174 165
0.0422114 -0.24564 -0.534 208 178 168
0.06292 -0.25116 -0.546 172 138 137
0.0641943 -0.25208 -0.548 166 132 131
0.06794 -0.25438 -0.553 156 125 130
0.363533 -0.26404 -0.574 141 95 97
0.357198 -0.25484 -0.554 140 91 95
0.393862 -0.2461 -0.535 147 98 93
0.41292 -0.23828 -0.518 152 102 91
0.43 -0.23736 -0.516 142 94 82
0.435613 -0.23828 -0.518 137 91 78
0.437587 -0.23828 -0.518 128 84 73
0.442386 -0.23874 -0.519 125 85 75
-0.0631733 -0.297467 -0.644 72 71 79
-0.0596781 -0.29839 -0.646 72 71 79
0.0342019 -0.247581 -0.536 209 175 166
0.072 -0.258667 -0.56 144 114 122
0.0791286 -0.264671 -0.573 137 111 120
0.0836971 -0.268829 -0.582 134 107 116
0.359145 -0.25959 -0.562 146 91 96
0.360449 -0.250814 -0.543 139 97 99
0.38081 -0.254048 -0.55 69 56 66
0.391286 -0.254048 -0.55 111 84 89
0.392843 -0.247119 -0.535 139 91 89
0.408936 -0.241576 -0.523 146 96 85
0.443238 -0.24019 -0.52 124 84 74
-0.136389 -0.300549 -0.648 96 99 106
-0.125366 -0.286634 -0.618 93 96 101
-0.107345 -0.270865 -0.584 83 86 93
-0.106414 -0.271329 -0.585 76 79 86
-0.0943495 -0.292664 -0.631 78 79 84
0.0369867 -0.246747 -0.532 208 175 168
0.0762743 -0.263444 -0.568 136 109 118
0.0777648 -0.264835 -0.571 136 109 118
0.08064 -0.267154 -0.576 136 110 119
0.102167 -0.284315 -0.613 128 105 113
0.105354 -0.286634 -0.618 125 98 107
0.358488 -0.257878 -0.556 136 87 90
0.358549 -0.254168 -0.548 148 106 108
0.362149 -0.252312 -0.544 149 107 111
0.373523 -0.253704 -0.547 95 72 78
0.375607 -0.253704 -0.547 90 67 77
0.380816 -0.253704 -0.547 97 78 80
0.391371 -0.250457 -0.54 131 89 91
0.406272 -0.243964 -0.526 143 93 82
0.406724 -0.243036 -0.524 145 95 84
0.429849 -0.23979 -0.517 141 95 82
0.433788 -0.23979 -0.517 136 92 79
0.459109 -0.244891 -0.528 122 82 72
