ply
format ascii 1.0
comment Created by Open3D
element vertex 1326
property double x
property double y
property double z
property uchar red
property uchar green
property uchar blue
end_header
0.312137 -0.153051 -0.576 87 67 76
0.310481 -0.150129 -0.565 92 71 78
0.316527 -0.14694 -0.553 61 70 77
0.335383 -0.142423 -0.536 128 96 99
0.336404 -0.142423 -0.536 129 97 100
0.338582 -0.141626 -0.533 131 97 98
0.344391 -0.141094 -0.531 127 95 98
0.346771 -0.140829 -0.53 122 92 94
0.3498 -0.140829 -0.53 103 74 78
0.363411 -0.138703 -0.522 128 96 101
0.379076 -0.140829 -0.53 31 19 21
0.392731 -0.140297 -0.528 173 127 129
0.394747 -0.139234 -0.524 201 146 143
0.402265 -0.139766 -0.526 176 123 115
0.425314 -0.143486 -0.54 153 100 94
0.129567 -0.121767 -0.455 180 130 119
0.132167 -0.121767 -0.455 182 132 121
0.14475 -0.120696 -0.451 155 106 101
0.150236 -0.120964 -0.452 146 102 93
0.159033 -0.121767 -0.455 137 93 82
0.16112 -0.122034 -0.456 135 91 80
0.162344 -0.122302 -0.457 133 86 80
0.18526 -0.126049 -0.471 127 80 74
0.207823 -0.130063 -0.486 141 87 85
0.216823 -0.132739 -0.496 173 123 122
0.269037 -0.153346 -0.573 106 79 96
0.282267 -0.155219 -0.58 90 73 81
0.29684 -0.153613 -0.574 82 67 74
0.298506 -0.153346 -0.573 83 66 74
0.31442 -0.147993 -0.553 68 81 87
0.319 -0.14719 -0.55 191 200 209
0.32247 -0.146388 -0.547 153 140 147
0.332535 -0.143979 -0.538 172 141 146
0.345762 -0.141838 -0.53 124 95 97
0.346771 -0.141838 -0.53 124 95 97
0.3498 -0.141838 -0.53 112 83 87
0.359434 -0.139697 -0.522 126 94 97
0.38541 -0.143444 -0.536 28 18 17
0.390917 -0.142106 -0.531 90 55 59
0.39425 -0.140768 -0.526 201 143 139
0.3955 -0.1405 -0.525 200 145 142
0.427838 -0.143979 -0.538 198 148 139
0.11934 -0.123711 -0.459 183 134 127
0.130433 -0.122633 -0.455 180 130 121
0.138183 -0.121825 -0.452 169 120 113
0.143031 -0.121555 -0.451 155 106 101
0.151958 -0.121825 -0.452 140 95 89
0.162344 -0.123172 -0.457 132 85 79
0.17784 -0.126137 -0.468 118 70 66
0.2132 -0.132606 -0.492 133 83 84
0.215008 -0.133145 -0.494 146 96 97
0.282883 -0.156054 -0.579 90 73 83
0.288595 -0.154976 -0.575 86 70 83
0.300164 -0.154168 -0.572 85 65 74
0.303963 -0.154437 -0.573 88 68 77
0.307796 -0.15255 -0.566 86 65 74
0.308874 -0.15255 -0.566 90 65 71
0.317481 -0.148508 -0.551 178 187 196
0.332535 -0.145004 -0.538 179 150 155
0.35813 -0.140961 -0.523 102 71 76
0.360429 -0.140691 -0.522 125 94 99
0.393475 -0.142578 -0.529 177 131 133
0.392991 -0.142039 -0.527 195 140 137
0.455567 -0.149047 -0.553 179 127 129
0.111738 -0.128929 -0.475 177 132 127
0.121431 -0.124043 -0.457 179 132 124
0.123771 -0.123771 -0.456 178 131 123
0.133606 -0.123229 -0.454 179 131 121
0.14507 -0.122686 -0.452 152 103 98
0.147653 -0.122686 -0.452 147 102 97
0.151097 -0.122686 -0.452 140 95 90
0.166914 -0.124857 -0.46 125 80 75
0.18526 -0.127843 -0.471 125 78 72
0.211831 -0.133271 -0.491 125 75 78
0.286302 -0.156614 -0.577 87 71 81
0.29028 -0.1558 -0.574 85 69 80
0.293049 -0.155529 -0.573 84 68 79
0.304009 -0.154443 -0.569 86 66 75
0.306176 -0.153357 -0.565 88 67 74
0.320048 -0.149286 -0.55 70 83 92
0.32292 -0.1482 -0.546 123 121 132
0.3311 -0.1463 -0.539 211 186 190
0.343743 -0.143857 -0.53 130 96 97
0.361423 -0.141686 -0.522 125 94 99
0.3661 -0.141957 -0.523 123 92 97
0.389005 -0.146843 -0.541 26 17 18
0.403267 -0.142771 -0.526 169 119 108
0.410134 -0.144129 -0.531 150 106 97
0.420665 -0.146029 -0.538 112 65 57
0.426813 -0.146029 -0.538 174 121 115
0.120825 -0.125187 -0.458 179 132 124
0.126377 -0.12464 -0.456 181 132 125
0.149375 -0.123547 -0.452 145 97 93
0.163571 -0.125187 -0.458 126 83 76
0.166914 -0.125733 -0.46 123 80 73
0.169033 -0.126007 -0.461 119 76 70
0.203358 -0.131747 -0.482 135 83 85
0.290866 -0.15662 -0.573 86 70 81
0.3088 -0.153067 -0.56 93 71 83
0.309313 -0.152793 -0.559 93 73 84
0.338582 -0.145687 -0.533 127 92 98
0.33896 -0.145413 -0.532 133 94 99
0.350491 -0.14432 -0.528 125 90 96
0.360123 -0.142953 -0.523 119 90 94
0.373623 -0.14432 -0.528 35 19 22
0.405037 -0.144047 -0.527 164 117 109
0.114453 -0.12771 -0.464 182 133 129
0.130433 -0.125233 -0.455 177 128 121
0.135335 -0.124958 -0.454 172 125 117
0.137626 -0.124683 -0.453 170 121 114
0.146792 -0.124408 -0.452 149 100 96
0.163571 -0.126059 -0.458 123 83 75
0.17657 -0.128536 -0.467 117 74 68
0.198029 -0.131564 -0.478 137 86 85
0.275007 -0.159913 -0.581 99 79 90
0.277697 -0.160189 -0.582 93 76 86
0.290866 -0.157711 -0.573 87 71 81
0.309823 -0.153583 -0.558 90 68 80
0.310329 -0.153308 -0.557 68 61 69
0.316527 -0.152207 -0.553 147 156 163
0.330686 -0.148629 -0.54 189 168 173
0.338582 -0.146702 -0.533 127 92 99
0.350491 -0.145326 -0.528 130 98 103
0.351497 -0.145326 -0.528 125 90 96
0.3545 -0.1445 -0.525 126 94 97
0.357134 -0.14395 -0.523 98 68 70
0.363111 -0.14395 -0.523 125 94 99
0.372617 -0.145326 -0.528 35 19 20
0.377467 -0.146427 -0.532 31 19 19
0.379903 -0.146977 -0.534 30 18 18
0.38306 -0.147803 -0.537 27 19 17
0.394021 -0.148078 -0.538 33 24 25
0.3922 -0.145876 -0.53 165 119 121
0.393995 -0.14505 -0.527 201 143 141
0.425789 -0.148078 -0.538 154 99 92
0.167277 -0.127763 -0.461 119 81 72
0.180007 -0.12998 -0.469 116 75 69
0.198029 -0.132474 -0.478 136 87 82
0.280057 -0.160743 -0.58 91 74 82
0.285203 -0.159911 -0.577 90 73 81
0.288683 -0.158803 -0.573 89 72 82
0.296983 -0.157417 -0.568 88 68 79
0.30241 -0.155754 -0.562 83 66 76
0.31853 -0.152706 -0.551 158 171 179
0.320048 -0.152429 -0.55 148 157 166
0.340987 -0.14744 -0.532 155 133 146
0.354173 -0.145777 -0.526 122 92 94
0.354823 -0.145223 -0.524 117 87 87
0.384487 -0.14938 -0.539 29 20 21
0.398739 -0.145223 -0.524 183 130 122
0.434415 -0.148549 -0.536 188 137 134
0.436249 -0.148826 -0.537 187 136 135
0.111931 -0.13171 -0.472 180 135 130
0.1313 -0.126967 -0.455 176 129 121
0.145931 -0.12613 -0.452 145 100 94
0.164803 -0.128083 -0.459 121 81 73
0.179623 -0.130594 -0.468 116 75 69
0.191857 -0.132269 -0.474 130 85 79
0.193167 -0.132548 -0.475 131 86 80
0.220917 -0.139803 -0.501 146 95 94
0.225939 -0.141756 -0.508 153 94 96
0.273429 -0.161848 -0.58 100 76 89
0.287 -0.160173 -0.574 91 74 82
0.289269 -0.159615 -0.572 89 72 82
0.298093 -0.157941 -0.566 86 66 77
0.320511 -0.153197 -0.549 159 168 177
0.325443 -0.152081 -0.545 115 93 96
0.333963 -0.149849 -0.537 132 97 103
0.346771 -0.147895 -0.53 134 109 113
0.36181 -0.146221 -0.524 129 94 101
0.374734 -0.148174 -0.531 30 22 20
0.382749 -0.150128 -0.538 29 21 19
0.394999 -0.147058 -0.527 197 142 137
0.397741 -0.146221 -0.524 193 138 131
0.434415 -0.14957 -0.536 189 138 135
0.440953 -0.150407 -0.539 187 136 135
0.447329 -0.151523 -0.543 177 126 125
0.121089 -0.128957 -0.459 177 130 122
0.137626 -0.127271 -0.453 168 119 112
0.141313 -0.12671 -0.451 156 109 101
0.145931 -0.12699 -0.452 145 100 94
0.152294 -0.127271 -0.453 134 91 84
0.155567 -0.127833 -0.455 130 87 80
0.156433 -0.127833 -0.455 128 88 80
0.166038 -0.129238 -0.46 119 79 71
0.174043 -0.130643 -0.465 116 77 70
0.18835 -0.13261 -0.472 123 83 75
0.196706 -0.134014 -0.477 131 86 81
0.2145 -0.139071 -0.495 131 84 78
0.284104 -0.16211 -0.577 91 74 84
0.31442 -0.155367 -0.553 161 168 178
0.326749 -0.152276 -0.542 118 91 98
0.33151 -0.151152 -0.538 140 121 125
0.332535 -0.151152 -0.538 125 98 103
0.34914 -0.148624 -0.529 125 94 99
0.399257 -0.153962 -0.548 28 22 22
0.393737 -0.148343 -0.528 192 135 128
0.395251 -0.147781 -0.526 197 139 135
0.405037 -0.148062 -0.527 162 114 104
0.42602 -0.150871 -0.537 153 98 91
0.42829 -0.15059 -0.536 182 123 115
0.115337 -0.131246 -0.464 175 131 122
0.116348 -0.130397 -0.461 174 130 121
0.117226 -0.130397 -0.461 175 131 122
0.14507 -0.127851 -0.452 148 101 95
0.148843 -0.128134 -0.453 140 95 89
0.161827 -0.129549 -0.458 122 81 75
0.165162 -0.130114 -0.46 120 79 73
0.191857 -0.134074 -0.474 126 85 79
0.194071 -0.134357 -0.475 127 86 82
0.224529 -0.143409 -0.507 162 114 114
0.303467 -0.1584 -0.56 88 68 79
0.307697 -0.157834 -0.558 89 72 82
0.311329 -0.156986 -0.555 162 175 181
0.312878 -0.156703 -0.554 137 147 156
0.315473 -0.15642 -0.553 161 165 176
0.317006 -0.156137 -0.552 188 187 201
0.317481 -0.155854 -0.551 171 170 184
0.324846 -0.153874 -0.544 89 68 73
0.327176 -0.153026 -0.541 183 163 172
0.340987 -0.15048 -0.532 223 217 231
0.34338 -0.150197 -0.531 148 142 152
0.395046 -0.152177 -0.538 47 41 41
0.433605 -0.151329 -0.535 178 124 122
0.117848 -0.13099 -0.46 176 129 121
0.125509 -0.129851 -0.456 179 132 122
0.167277 -0.131275 -0.461 118 79 72
0.1694 -0.13156 -0.462 118 79 72
0.174043 -0.132414 -0.465 117 80 72
0.190954 -0.134977 -0.474 126 87 82
0.196706 -0.135831 -0.477 126 85 81
0.199355 -0.136401 -0.479 123 82 78
0.20378 -0.13754 -0.483 115 76 71
0.212694 -0.140388 -0.493 121 81 81
0.216749 -0.141811 -0.498 162 117 114
0.230033 -0.146652 -0.515 211 172 175
0.27548 -0.165731 -0.582 98 76 88
0.285806 -0.164023 -0.576 92 75 85
0.305571 -0.158897 -0.558 89 66 76
0.312878 -0.157758 -0.554 137 147 156
0.323511 -0.155765 -0.547 136 140 149
0.324405 -0.155195 -0.545 118 113 117
0.346414 -0.151209 -0.531 184 165 169
0.34914 -0.150639 -0.529 126 95 101
0.3525 -0.1495 -0.525 125 93 98
0.383143 -0.153771 -0.54 28 20 18
0.401443 -0.156904 -0.551 28 22 24
0.3955 -0.1495 -0.525 193 138 135
0.397741 -0.149215 -0.524 187 130 121
0.423739 -0.153202 -0.538 116 65 62
0.430548 -0.152348 -0.535 175 121 121
0.437478 -0.152632 -0.536 174 120 118
0.443007 -0.153487 -0.539 162 108 106
0.138489 -0.12986 -0.453 166 117 110
0.14507 -0.129573 -0.452 146 99 93
0.1547 -0.130433 -0.455 135 91 88
0.161827 -0.131293 -0.458 124 83 79
0.165521 -0.132153 -0.461 119 80 73
0.174929 -0.1333 -0.465 118 81 75
0.186157 -0.13502 -0.471 119 82 74
0.18835 -0.135307 -0.472 122 83 76
0.20244 -0.138173 -0.482 120 80 72
0.212694 -0.141327 -0.493 121 81 81
0.22224 -0.14448 -0.504 126 78 74
0.279433 -0.166553 -0.581 94 77 87
0.285806 -0.16512 -0.576 91 74 84
0.292026 -0.163687 -0.571 90 73 83
0.29646 -0.16254 -0.567 89 72 82
0.303467 -0.160533 -0.56 87 67 78
0.308712 -0.159387 -0.556 77 60 70
0.319466 -0.15738 -0.549 209 209 221
0.343013 -0.152507 -0.532 192 189 200
0.344391 -0.15222 -0.531 190 180 188
0.40548 -0.15996 -0.558 29 23 23
0.423739 -0.154227 -0.538 116 65 62
0.434624 -0.153367 -0.535 170 114 113
0.436457 -0.153653 -0.536 170 114 113
0.113385 -0.142554 -0.494 185 137 133
0.115089 -0.133609 -0.463 175 126 119
0.124043 -0.131877 -0.457 182 134 124
0.140766 -0.130434 -0.452 158 111 105
0.153833 -0.1313 -0.455 135 90 87
0.157991 -0.131877 -0.457 130 89 83
0.160954 -0.132166 -0.458 123 82 78
0.191857 -0.136783 -0.474 125 86 79
0.272793 -0.16766 -0.581 101 77 90
0.28985 -0.164774 -0.571 89 72 82
0.293686 -0.164486 -0.57 90 73 83
0.305054 -0.161311 -0.559 91 70 79
0.328629 -0.155829 -0.54 215 194 199
0.351168 -0.151789 -0.526 128 91 98
0.38038 -0.15554 -0.539 27 21 23
0.394143 -0.154097 -0.534 143 108 112
0.394999 -0.152077 -0.527 195 137 133
0.431777 -0.154097 -0.534 172 116 115
0.455623 -0.158137 -0.548 168 119 115
0.459167 -0.159003 -0.551 172 123 119
0.115089 -0.13449 -0.463 175 126 119
0.117226 -0.13391 -0.461 174 126 116
0.121697 -0.133038 -0.458 179 131 119
0.12257 -0.133038 -0.458 180 132 120
0.127833 -0.132167 -0.455 181 134 124
0.130433 -0.132167 -0.455 180 133 123
0.140214 -0.131586 -0.453 162 113 106
0.147117 -0.131586 -0.453 143 95 93
0.17708 -0.135362 -0.466 118 81 75
0.181406 -0.135943 -0.468 119 82 76
0.18925 -0.137105 -0.472 124 85 80
0.198029 -0.138848 -0.478 123 82 76
0.223122 -0.146981 -0.506 155 105 96
0.278327 -0.168767 -0.581 92 80 84
0.278952 -0.168476 -0.58 98 78 89
0.297015 -0.16441 -0.566 89 69 80
0.30399 -0.162376 -0.559 90 73 83
0.308712 -0.161505 -0.556 83 61 73
0.334757 -0.155405 -0.535 123 93 101
0.345403 -0.154243 -0.531 137 128 133
0.365577 -0.153371 -0.528 44 32 34
0.399737 -0.15221 -0.524 176 122 112
0.433605 -0.155405 -0.535 162 106 105
0.434624 -0.155405 -0.535 161 105 104
0.12257 -0.13391 -0.458 180 132 122
0.137626 -0.132449 -0.453 167 118 111
0.15504 -0.133326 -0.456 133 90 84
0.17153 -0.135372 -0.463 118 79 74
0.17708 -0.13625 -0.466 119 80 75
0.279574 -0.169289 -0.579 95 75 86
0.307146 -0.162856 -0.557 89 76 85
0.326317 -0.158763 -0.543 202 179 187
0.335149 -0.156131 -0.534 136 109 118
0.336551 -0.155839 -0.533 234 224 232
0.346771 -0.154962 -0.53 131 112 114
0.349486 -0.154377 -0.528 130 93 100
0.350166 -0.153792 -0.526 130 95 101
0.3525 -0.1535 -0.525 126 94 99
0.364571 -0.154377 -0.528 59 37 40
0.4025 -0.1535 -0.525 162 112 105
0.406041 -0.154085 -0.527 161 112 105
0.42829 -0.156716 -0.536 168 113 108
0.444857 -0.157886 -0.54 151 95 96
0.449397 -0.158763 -0.543 150 94 93
0.45209 -0.159348 -0.545 154 98 97
0.470092 -0.163441 -0.559 168 114 114
0.112406 -0.139491 -0.474 178 131 125
0.118104 -0.135666 -0.461 176 129 119
0.123172 -0.134489 -0.457 181 133 123
0.127833 -0.1339 -0.455 181 134 124
0.143349 -0.133017 -0.452 153 106 98
0.151766 -0.133606 -0.454 135 90 85
0.184473 -0.13802 -0.469 121 82 77
0.211755 -0.145083 -0.493 127 87 85
0.26036 -0.166566 -0.566 102 81 90
0.27722 -0.17098 -0.581 95 78 88
0.291514 -0.167743 -0.57 92 76 86
0.300803 -0.165094 -0.561 89 69 80
0.31442 -0.16274 -0.553 113 126 132
0.315473 -0.16274 -0.553 113 126 132
0.333738 -0.157443 -0.535 119 96 104
0.344391 -0.156266 -0.531 222 214 227
0.348132 -0.155677 -0.529 127 98 103
0.3515 -0.1545 -0.525 128 93 99
0.370373 -0.15656 -0.532 33 24 25
0.398753 -0.164506 -0.559 25 23 24
0.418319 -0.157443 -0.535 123 76 70
0.421143 -0.157737 -0.536 94 54 46
0.434624 -0.157443 -0.535 159 108 104
0.44116 -0.158326 -0.538 142 88 86
-0.137623 -0.191931 -0.648 194 194 186
0.112591 -0.139506 -0.471 177 130 124
0.12257 -0.135655 -0.458 179 131 121
0.126967 -0.134767 -0.455 183 135 123
0.127833 -0.134767 -0.455 183 135 125
0.138794 -0.13447 -0.454 168 119 112
0.143666 -0.134174 -0.453 152 105 97
0.180129 -0.138321 -0.467 120 83 77
0.184473 -0.138913 -0.469 122 83 78
0.186657 -0.13921 -0.47 124 85 80
0.212185 -0.146318 -0.494 122 81 79
0.278471 -0.171494 -0.579 95 78 88
0.281293 -0.171198 -0.578 94 77 87
0.283005 -0.170902 -0.577 93 76 86
0.283611 -0.170606 -0.576 92 75 85
0.285907 -0.170013 -0.574 94 77 87
0.298643 -0.167348 -0.565 89 69 80
0.383576 -0.161424 -0.545 29 20 23
0.393786 -0.164386 -0.555 28 22 24
0.394483 -0.156685 -0.529 188 131 122
0.407817 -0.156389 -0.528 171 118 114
0.424997 -0.159054 -0.537 118 75 66
0.427269 -0.158758 -0.536 157 106 102
0.429529 -0.158462 -0.535 167 112 107
-0.135154 -0.193166 -0.648 197 194 187
0.116852 -0.138018 -0.463 177 130 120
0.1196 -0.137124 -0.46 177 130 120
0.138489 -0.135037 -0.453 166 117 110
0.1521 -0.135633 -0.455 139 94 88
0.155909 -0.135931 -0.456 134 91 84
0.169767 -0.138018 -0.463 123 82 76
0.206395 -0.145172 -0.487 105 68 62
0.270114 -0.172895 -0.58 101 80 89
0.277369 -0.172597 -0.579 97 77 86
0.325882 -0.162164 -0.544 198 183 190
0.33151 -0.160375 -0.538 117 92 98
0.336166 -0.159183 -0.534 224 218 228
0.346117 -0.157692 -0.529 212 200 210
0.385688 -0.163356 -0.548 29 23 25
0.40232 -0.168126 -0.564 28 24 25
0.409597 -0.157692 -0.529 162 109 105
-0.144805 -0.1941 -0.647 190 189 184
0.112591 -0.1413 -0.471 174 127 119
0.11597 -0.1389 -0.463 176 129 121
0.1166 -0.1386 -0.462 177 129 119
0.126377 -0.1368 -0.456 180 132 120
0.129567 -0.1365 -0.455 180 132 120
0.160082 -0.1374 -0.458 130 87 80
0.165521 -0.1383 -0.461 126 85 79
0.16764 -0.1386 -0.462 124 83 77
0.1767 -0.1395 -0.465 120 79 75
0.18063 -0.1398 -0.466 123 84 79
0.18408 -0.1404 -0.468 124 85 80
0.187951 -0.1413 -0.471 124 85 80
0.289269 -0.1716 -0.572 96 76 87
0.291514 -0.171 -0.57 95 75 86
0.305054 -0.1677 -0.559 96 75 84
0.305571 -0.1674 -0.558 95 74 83
0.314903 -0.1656 -0.552 79 86 96
0.31842 -0.1647 -0.549 146 146 158
0.319466 -0.1647 -0.549 161 164 173
0.330686 -0.162 -0.54 112 92 94
0.33151 -0.1614 -0.538 116 91 95
0.340346 -0.1593 -0.531 224 224 234
0.370424 -0.1605 -0.535 29 23 25
0.411381 -0.159 -0.53 160 107 103
0.419338 -0.1605 -0.535 118 75 68
-0.148731 -0.195634 -0.648 189 186 179
-0.144581 -0.19503 -0.646 189 188 183
-0.13741 -0.195332 -0.647 194 194 186
0.113414 -0.14099 -0.467 174 125 118
0.114304 -0.14099 -0.467 174 125 118
0.125509 -0.137669 -0.456 177 131 118
0.126967 -0.137367 -0.455 178 132 119
0.143666 -0.136763 -0.453 151 103 99
0.157121 -0.13797 -0.457 135 90 84
0.16676 -0.13948 -0.462 125 85 77
0.174929 -0.140386 -0.465 120 79 73
0.274533 -0.175105 -0.58 98 78 87
0.277369 -0.174803 -0.579 97 77 88
0.283119 -0.173595 -0.575 94 77 87
0.292026 -0.172388 -0.571 97 77 88
0.29317 -0.171784 -0.569 93 76 86
0.297015 -0.170878 -0.566 91 74 84
0.331917 -0.162123 -0.537 121 91 99
0.416013 -0.173293 -0.574 37 31 35
0.407045 -0.159104 -0.527 169 115 113
0.413169 -0.160311 -0.531 166 112 110
0.422164 -0.161821 -0.536 108 63 57
0.423185 -0.161821 -0.536 108 63 57
0.424997 -0.162123 -0.537 117 72 66
0.429529 -0.161519 -0.535 167 111 110
0.467786 -0.167557 -0.555 164 108 107
0.470532 -0.168161 -0.557 164 108 107
0.474133 -0.169067 -0.56 163 107 106
-0.139659 -0.196261 -0.646 193 193 185
0.112467 -0.146436 -0.482 179 130 125
0.113007 -0.142487 -0.469 172 123 116
0.122302 -0.138841 -0.457 179 133 120
0.127833 -0.138233 -0.455 179 133 120
0.131876 -0.13793 -0.454 176 130 117
0.139351 -0.137626 -0.453 159 112 104
0.151233 -0.138233 -0.455 141 96 90
0.157465 -0.139145 -0.458 136 91 85
0.18408 -0.142183 -0.468 123 84 79
0.2184 -0.15312 -0.504 150 99 118
0.266981 -0.175602 -0.578 104 82 94
0.27689 -0.175602 -0.578 98 78 89
0.313367 -0.168007 -0.553 166 165 173
0.33232 -0.162842 -0.536 121 94 101
0.33896 -0.161627 -0.532 228 225 236
0.36462 -0.161323 -0.531 32 21 25
0.370095 -0.162842 -0.536 29 23 27
0.3965 -0.1595 -0.525 189 127 128
0.463993 -0.168007 -0.553 161 105 104
-0.154143 -0.198714 -0.65 186 183 174
0.121697 -0.140017 -0.458 178 130 118
0.133311 -0.138489 -0.453 172 124 114
0.145712 -0.138794 -0.454 147 100 94
0.27799 -0.176703 -0.578 98 78 87
0.288179 -0.174869 -0.572 95 78 88
0.28985 -0.174563 -0.571 96 79 89
0.300269 -0.171811 -0.562 98 75 85
0.306119 -0.170894 -0.559 100 77 83
0.316431 -0.168449 -0.551 177 165 175
0.326749 -0.165697 -0.542 114 91 97
0.343743 -0.162029 -0.53 224 221 232
0.344752 -0.162029 -0.53 228 225 236
0.34848 -0.161417 -0.528 123 100 106
0.3545 -0.1605 -0.525 128 91 99
0.399015 -0.165697 -0.542 143 104 109
0.396253 -0.160806 -0.526 188 126 127
0.402731 -0.160194 -0.524 169 113 112
0.416755 -0.162946 -0.533 155 104 100
0.427269 -0.163863 -0.536 157 99 97
0.466943 -0.169366 -0.554 161 105 104
0.1359 -0.139351 -0.453 167 118 111
0.139351 -0.139351 -0.453 159 112 104
0.143666 -0.139351 -0.453 150 102 98
0.157465 -0.14089 -0.458 137 93 84
0.158337 -0.14089 -0.458 136 92 83
0.1767 -0.143043 -0.465 125 84 78
0.178855 -0.14335 -0.466 124 85 80
0.19753 -0.14735 -0.479 116 76 74
0.2197 -0.155963 -0.507 162 109 127
0.2739 -0.178727 -0.581 102 80 92
0.312313 -0.170113 -0.553 106 93 100
0.317952 -0.16919 -0.55 125 108 116
0.318884 -0.168575 -0.548 109 88 97
0.32381 -0.167345 -0.544 174 155 161
0.333114 -0.164269 -0.534 120 94 103
0.335536 -0.163961 -0.533 163 150 157
0.340714 -0.163038 -0.53 229 221 234
0.399015 -0.16673 -0.542 156 120 122
0.42829 -0.164884 -0.536 164 109 106
0.432586 -0.164576 -0.535 168 115 111
-0.154425 -0.199952 -0.646 185 185 177
-0.152957 -0.199643 -0.645 186 186 178
0.112937 -0.151048 -0.488 177 133 124
0.1147 -0.143929 -0.465 173 127 114
0.127552 -0.140524 -0.454 178 132 119
0.136763 -0.140214 -0.453 163 115 105
0.137626 -0.140214 -0.453 161 114 104
0.157465 -0.141762 -0.458 140 93 87
0.16764 -0.143 -0.462 128 84 81
0.178855 -0.144238 -0.466 122 83 76
0.185367 -0.145167 -0.469 123 82 76
0.196208 -0.147952 -0.478 116 78 77
0.270401 -0.180452 -0.583 101 77 90
0.282514 -0.178286 -0.576 97 80 90
0.283119 -0.177976 -0.575 98 81 91
0.28709 -0.177048 -0.572 98 78 87
0.301871 -0.173643 -0.561 101 75 84
0.328207 -0.167452 -0.541 118 91 98
0.330486 -0.166524 -0.538 115 89 98
0.334521 -0.164976 -0.533 111 90 97
0.3965 -0.1625 -0.525 182 123 127
0.421376 -0.165595 -0.535 104 61 54
0.433605 -0.165595 -0.535 167 109 108
0.4428 -0.167143 -0.54 150 96 94
0.4661 -0.171167 -0.553 162 102 101
0.467998 -0.171476 -0.554 161 100 99
-0.157129 -0.201494 -0.647 184 184 176
-0.15272 -0.20056 -0.644 186 186 178
0.12012 -0.14388 -0.462 175 127 115
0.12257 -0.142634 -0.458 177 129 117
0.132449 -0.141077 -0.453 171 124 114
0.143666 -0.141077 -0.453 151 104 98
0.148633 -0.1417 -0.455 146 99 91
0.162533 -0.143257 -0.46 134 89 83
0.16852 -0.14388 -0.462 128 84 81
0.201436 -0.150731 -0.484 106 70 70
0.203194 -0.151354 -0.486 101 70 75
0.271977 -0.181874 -0.584 103 81 93
0.2739 -0.18094 -0.581 101 80 89
0.289343 -0.177514 -0.57 98 78 87
0.292087 -0.177203 -0.569 96 76 85
0.308157 -0.172843 -0.555 106 85 92
0.317374 -0.170974 -0.549 105 85 94
0.405786 -0.179071 -0.575 29 26 37
0.434415 -0.166926 -0.536 169 111 110
0.43911 -0.167549 -0.538 157 104 100
0.45375 -0.170351 -0.547 139 88 84
-0.155173 -0.201787 -0.644 185 185 177
0.116852 -0.145073 -0.463 175 126 119
0.12012 -0.14476 -0.462 177 127 118
0.127833 -0.142567 -0.455 174 126 114
0.137626 -0.14194 -0.453 159 112 104
0.145391 -0.14194 -0.453 149 105 96
0.161657 -0.144133 -0.46 140 93 85
0.16341 -0.144133 -0.46 135 90 85
0.186657 -0.147267 -0.47 123 82 80
0.193573 -0.149147 -0.476 112 76 76
0.26459 -0.181733 -0.58 108 87 96
0.27309 -0.182987 -0.584 101 81 92
0.280192 -0.181107 -0.578 100 80 91
0.28709 -0.179227 -0.572 100 80 89
0.29649 -0.177033 -0.565 98 75 83
0.298643 -0.177033 -0.565 98 75 83
0.322329 -0.170767 -0.545 202 185 191
0.327176 -0.169513 -0.541 113 88 94
0.329047 -0.168887 -0.539 111 88 96
0.330486 -0.168573 -0.538 114 89 95
0.340714 -0.166067 -0.53 149 130 136
0.344457 -0.16544 -0.528 118 93 99
0.348162 -0.164813 -0.526 100 75 78
0.3515 -0.1645 -0.525 121 92 94
0.40469 -0.180167 -0.575 32 27 33
0.427417 -0.186747 -0.596 42 32 43
0.40092 -0.17108 -0.546 153 127 130
0.445472 -0.169827 -0.542 143 92 88
-0.16281 -0.204905 -0.65 183 180 175
0.1134 -0.154467 -0.49 180 135 129
0.120738 -0.145325 -0.461 175 127 117
0.122229 -0.14501 -0.46 175 127 117
0.126967 -0.143433 -0.455 174 126 116
0.132741 -0.143118 -0.454 169 120 113
0.141077 -0.142803 -0.453 154 107 99
0.150367 -0.143433 -0.455 142 98 87
0.15625 -0.144064 -0.457 143 96 86
0.164286 -0.14501 -0.46 135 90 84
0.166399 -0.145325 -0.461 135 90 84
0.16764 -0.14564 -0.462 135 90 85
0.170649 -0.145955 -0.463 130 87 81
0.183189 -0.147531 -0.468 124 83 79
0.193573 -0.150053 -0.476 110 76 74
0.20403 -0.153836 -0.488 109 75 76
0.26956 -0.18473 -0.586 103 83 94
0.279091 -0.182208 -0.578 101 81 92
0.29322 -0.17874 -0.567 99 78 87
0.305054 -0.176218 -0.559 109 79 87
0.32381 -0.17149 -0.544 119 98 103
0.32802 -0.169913 -0.539 113 88 94
0.33232 -0.168968 -0.536 117 92 98
0.341079 -0.166761 -0.529 121 98 104
0.354847 -0.16613 -0.527 106 83 91
0.358886 -0.167076 -0.53 43 30 37
0.370456 -0.170544 -0.541 26 23 32
0.399 -0.179686 -0.57 31 26 33
0.431429 -0.189143 -0.6 42 34 45
0.43185 -0.188828 -0.599 39 33 45
-0.147813 -0.20424 -0.644 188 188 178
-0.14335 -0.204874 -0.646 191 191 183
0.1134 -0.1554 -0.49 178 133 128
0.1359 -0.143666 -0.453 166 117 110
0.15538 -0.144934 -0.457 143 96 86
0.170649 -0.146837 -0.463 132 89 83
0.181406 -0.148423 -0.468 123 82 78
0.288763 -0.181089 -0.571 99 79 88
0.308157 -0.176014 -0.555 116 83 90
0.32381 -0.172526 -0.544 119 94 100
0.333738 -0.169671 -0.535 116 87 92
0.337311 -0.168403 -0.531 119 90 94
0.339705 -0.168086 -0.53 119 92 97
0.343451 -0.167451 -0.528 124 95 100
0.409797 -0.177917 -0.561 109 94 99
0.405007 -0.17538 -0.553 148 118 120
0.399259 -0.166817 -0.526 151 93 89
0.413169 -0.168403 -0.531 128 78 77
0.431567 -0.169671 -0.535 170 112 111
0.461051 -0.175063 -0.552 150 97 93
-0.157137 -0.204829 -0.642 186 183 176
-0.144581 -0.206105 -0.646 191 191 183
0.116471 -0.148357 -0.465 178 129 124
0.123105 -0.146762 -0.46 172 123 118
0.151233 -0.145167 -0.455 143 96 86
0.15538 -0.145805 -0.457 143 94 87
0.1694 -0.1474 -0.462 132 89 82
0.170649 -0.147719 -0.463 131 88 81
0.288257 -0.181857 -0.57 100 80 89
0.291003 -0.181538 -0.569 98 81 89
0.30294 -0.178986 -0.561 103 78 82
0.303467 -0.178667 -0.56 105 78 83
0.306085 -0.17771 -0.557 111 80 86
0.350166 -0.167819 -0.526 120 89 95
0.361594 -0.170371 -0.534 32 23 28
0.399259 -0.167819 -0.526 142 87 82
0.431352 -0.17101 -0.536 170 112 110
-0.162533 -0.206693 -0.644 182 182 174
-0.156892 -0.20573 -0.641 186 183 176
-0.143572 -0.207656 -0.647 192 191 186
0.12038 -0.148601 -0.463 175 127 117
0.15625 -0.146675 -0.457 141 94 86
0.157465 -0.146996 -0.458 140 93 85
0.182687 -0.150527 -0.469 119 82 76
0.196114 -0.154057 -0.48 101 70 68
0.27561 -0.188399 -0.587 101 83 95
0.283119 -0.184548 -0.575 100 83 93
0.284813 -0.184227 -0.574 100 83 91
0.305571 -0.179091 -0.558 110 80 88
0.307653 -0.17845 -0.556 116 85 91
0.3128 -0.177166 -0.552 119 90 95
0.317374 -0.176203 -0.549 121 85 95
0.318884 -0.175882 -0.548 166 143 149
0.339334 -0.170426 -0.531 121 91 93
0.362949 -0.17203 -0.536 29 22 29
0.410614 -0.187757 -0.585 34 33 39
0.400261 -0.168821 -0.526 129 78 74
0.434415 -0.17203 -0.536 168 113 110
0.456454 -0.176203 -0.549 140 93 87
0.458333 -0.176524 -0.55 142 95 89
-0.159334 -0.206951 -0.641 187 184 179
-0.151023 -0.207274 -0.642 187 186 181
0.1134 -0.156909 -0.486 180 133 125
0.116083 -0.150774 -0.467 178 130 118
0.1359 -0.146254 -0.453 166 119 111
0.144848 -0.146577 -0.454 150 101 97
0.160431 -0.148191 -0.459 141 94 88
0.162533 -0.148514 -0.46 139 92 86
0.164286 -0.148514 -0.46 140 92 88
0.17153 -0.149483 -0.463 133 88 83
0.193476 -0.154326 -0.478 105 71 69
0.20435 -0.158523 -0.491 103 72 70
0.276 -0.193714 -0.6 89 65 79
0.277848 -0.187257 -0.58 104 84 95
0.284214 -0.185643 -0.575 101 84 92
0.284813 -0.18532 -0.574 100 83 91
0.286 -0.184674 -0.572 102 82 91
0.291573 -0.183383 -0.568 102 79 87
0.30399 -0.180477 -0.559 107 80 85
0.306085 -0.179831 -0.557 112 83 88
0.310207 -0.17854 -0.553 120 90 98
0.318302 -0.176603 -0.547 203 182 189
0.3198 -0.17628 -0.546 166 154 158
0.327176 -0.174666 -0.541 113 84 88
0.32802 -0.17402 -0.539 122 87 91
0.328436 -0.173697 -0.538 121 86 90
0.334757 -0.172729 -0.535 117 87 89
0.340346 -0.171437 -0.531 114 85 89
0.354178 -0.170791 -0.529 96 71 75
0.41272 -0.18984 -0.588 35 34 42
0.415951 -0.190809 -0.591 36 35 43
0.397983 -0.174989 -0.542 171 139 144
0.394963 -0.171437 -0.531 179 130 125
0.420357 -0.172729 -0.535 90 50 48
0.42851 -0.172729 -0.535 165 110 107
0.44444 -0.174989 -0.542 140 91 86
-0.148043 -0.209471 -0.645 189 190 182
0.113117 -0.154911 -0.477 178 131 121
0.12038 -0.150365 -0.463 176 127 113
0.124913 -0.148416 -0.457 173 123 112
0.128114 -0.148091 -0.456 174 124 115
0.130433 -0.147767 -0.455 174 124 115
0.135335 -0.147442 -0.454 170 120 111
0.148633 -0.147767 -0.455 150 100 89
0.173669 -0.15069 -0.464 131 88 81
0.186552 -0.153288 -0.472 110 77 72
0.187849 -0.153612 -0.473 109 76 71
0.20083 -0.158159 -0.487 104 66 65
0.204766 -0.159783 -0.492 110 71 72
0.211796 -0.16303 -0.502 116 86 88
0.278174 -0.189336 -0.583 95 81 94
0.280057 -0.188362 -0.58 103 85 97
0.294338 -0.18349 -0.565 101 78 88
0.310207 -0.179593 -0.553 122 91 96
0.315283 -0.178294 -0.549 119 88 93
0.316796 -0.17797 -0.548 123 96 101
0.329461 -0.174722 -0.538 120 86 87
0.336166 -0.173423 -0.534 113 84 88
0.344102 -0.171799 -0.529 118 88 86
0.34782 -0.17115 -0.527 128 93 97
0.3572 -0.172773 -0.532 43 27 30
0.35956 -0.173423 -0.534 32 25 33
0.422017 -0.194208 -0.598 38 35 44
0.442477 -0.200378 -0.617 57 51 61
0.397249 -0.175696 -0.541 176 135 129
0.41652 -0.173423 -0.534 117 72 69
0.429529 -0.173748 -0.535 170 113 106
0.44259 -0.175696 -0.541 143 92 88
0.469053 -0.179918 -0.554 150 107 101
0.481595 -0.18349 -0.565 137 94 87
0.114143 -0.153533 -0.47 176 129 119
0.123105 -0.150267 -0.46 171 123 111
0.144848 -0.148307 -0.454 153 102 98
0.165521 -0.150593 -0.461 139 92 84
0.180007 -0.153207 -0.469 123 82 76
0.290491 -0.185547 -0.568 104 83 92
0.291573 -0.185547 -0.568 105 82 90
0.29214 -0.18522 -0.567 104 81 89
0.326146 -0.176727 -0.541 114 85 89
0.334757 -0.174767 -0.535 114 84 86
0.358543 -0.17444 -0.534 30 18 22
0.408664 -0.191753 -0.587 38 30 41
0.397249 -0.176727 -0.541 177 136 130
0.420122 -0.175093 -0.536 96 52 49
0.477117 -0.18326 -0.561 143 96 90
-0.156648 -0.210286 -0.64 186 186 178
0.125187 -0.150486 -0.458 168 120 110
0.135335 -0.149171 -0.454 168 118 107
0.144848 -0.149171 -0.454 153 103 96
0.162533 -0.151143 -0.46 141 93 83
0.170649 -0.152129 -0.463 132 88 79
0.1809 -0.1541 -0.469 121 82 75
0.188246 -0.155743 -0.474 104 73 68
0.283329 -0.197471 -0.601 102 80 92
0.28178 -0.190243 -0.579 105 85 96
0.287675 -0.187614 -0.571 103 83 92
0.289919 -0.186957 -0.569 104 83 92
0.295441 -0.184986 -0.563 103 78 84
0.297586 -0.184986 -0.563 103 78 84
0.302925 -0.183671 -0.559 108 81 86
0.310207 -0.1817 -0.553 116 85 90
0.312714 -0.180714 -0.55 117 86 91
0.32084 -0.1794 -0.546 128 103 109
0.346469 -0.173486 -0.528 117 87 87
0.437987 -0.201743 -0.614 53 49 63
0.401031 -0.180386 -0.549 149 129 131
0.396514 -0.177429 -0.54 178 137 133
0.395435 -0.175129 -0.533 179 129 118
0.395229 -0.174143 -0.53 174 122 111
0.39549 -0.173814 -0.529 174 122 111
0.424997 -0.176443 -0.537 119 76 70
0.433394 -0.176114 -0.536 163 108 105
0.435226 -0.176443 -0.537 161 106 103
0.467998 -0.182029 -0.554 153 105 103
-0.163706 -0.211174 -0.639 182 179 172
0.114143 -0.155324 -0.47 176 129 119
0.126654 -0.151028 -0.457 169 121 109
0.1313 -0.150367 -0.455 169 121 111
0.146577 -0.150036 -0.454 150 102 92
0.161657 -0.152019 -0.46 141 93 83
0.17784 -0.154663 -0.468 122 83 76
0.178731 -0.154663 -0.468 120 83 75
0.21699 -0.169204 -0.512 160 110 119
0.283329 -0.198616 -0.601 102 80 92
0.280866 -0.195311 -0.591 100 80 92
0.285907 -0.189693 -0.574 105 83 95
0.289919 -0.188041 -0.569 104 83 92
0.294891 -0.186389 -0.564 104 78 87
0.319344 -0.18077 -0.547 163 138 144
0.32802 -0.178127 -0.539 118 86 89
0.328436 -0.177796 -0.538 118 86 89
0.34848 -0.174491 -0.528 122 90 93
0.373476 -0.181762 -0.55 32 25 33
0.377248 -0.183084 -0.554 33 26 34
0.440127 -0.203904 -0.617 56 53 64
0.446063 -0.205556 -0.622 58 53 60
0.448686 -0.206217 -0.624 58 53 60
0.395334 -0.177466 -0.537 183 135 125
0.405567 -0.174822 -0.529 116 68 66
0.41371 -0.176144 -0.533 121 71 70
0.421929 -0.177466 -0.537 98 54 51
0.424997 -0.177466 -0.537 120 77 71
0.440743 -0.178457 -0.54 144 93 92
0.447116 -0.179779 -0.544 132 84 84
0.463993 -0.182753 -0.553 153 108 105
-0.152483 -0.213721 -0.643 187 187 177
-0.147497 -0.215383 -0.648 190 190 180
0.113548 -0.157881 -0.475 178 131 123
0.118497 -0.15489 -0.466 177 125 111
0.127525 -0.151898 -0.457 170 120 109
0.154848 -0.15223 -0.458 148 100 90
0.161657 -0.152895 -0.46 141 94 84
0.32084 -0.18148 -0.546 118 88 96
0.347125 -0.17583 -0.529 123 91 94
0.350148 -0.17583 -0.529 120 95 99
0.421143 -0.199429 -0.6 43 35 46
0.449874 -0.207406 -0.624 52 49 58
0.39957 -0.181812 -0.547 153 133 135
0.399014 -0.175165 -0.527 144 91 85
0.400018 -0.175165 -0.527 139 86 80
0.402789 -0.175497 -0.528 125 76 72
0.410134 -0.176494 -0.531 123 75 75
0.415503 -0.177491 -0.534 122 72 71
0.424997 -0.178489 -0.537 120 77 71
-0.169102 -0.214277 -0.641 180 177 170
-0.158589 -0.213274 -0.638 184 184 176
-0.154691 -0.214611 -0.642 187 187 177
0.113354 -0.159789 -0.478 180 132 122
0.12188 -0.15444 -0.462 173 124 110
0.127525 -0.152769 -0.457 171 122 108
0.1339 -0.1521 -0.455 170 120 109
0.137065 -0.151766 -0.454 165 115 106
0.1469 -0.1521 -0.455 151 103 93
0.156934 -0.153437 -0.459 145 98 88
0.161657 -0.153771 -0.46 140 93 83
0.181286 -0.157114 -0.47 119 80 73
0.187738 -0.158786 -0.475 105 74 71
0.21294 -0.169483 -0.507 135 94 98
0.304509 -0.186531 -0.558 115 85 93
0.313283 -0.184191 -0.551 119 88 93
0.317374 -0.183523 -0.549 198 173 179
0.326571 -0.180514 -0.54 119 84 88
0.337567 -0.178174 -0.533 117 86 91
0.348132 -0.176837 -0.529 121 92 96
0.35081 -0.177171 -0.53 111 91 93
0.373106 -0.184191 -0.551 32 24 35
0.405814 -0.186197 -0.557 130 108 111
0.39884 -0.18252 -0.546 158 136 139
0.39578 -0.18018 -0.539 182 141 139
0.396498 -0.176837 -0.529 169 112 101
0.396754 -0.176503 -0.528 161 104 93
0.410907 -0.17784 -0.532 125 77 77
0.421143 -0.179177 -0.536 97 56 50
-0.16198 -0.214153 -0.637 182 182 174
-0.155671 -0.215498 -0.641 186 186 176
0.121 -0.15532 -0.462 173 124 110
0.12188 -0.15532 -0.462 173 124 110
0.126654 -0.153639 -0.457 171 122 108
0.129851 -0.153303 -0.456 171 121 110
0.134767 -0.152967 -0.455 169 119 108
0.146033 -0.152967 -0.455 154 104 95
0.153975 -0.153975 -0.458 146 99 89
0.198453 -0.164061 -0.488 97 65 66
0.204541 -0.16675 -0.496 110 76 77
0.284596 -0.194318 -0.578 109 83 94
0.317374 -0.184569 -0.549 147 120 127
0.334757 -0.179862 -0.535 116 86 88
0.337183 -0.179526 -0.534 118 88 90
0.337567 -0.17919 -0.533 123 93 95
0.429324 -0.205076 -0.61 51 43 54
0.404357 -0.186586 -0.555 137 112 116
0.39695 -0.182215 -0.542 181 140 138
0.409123 -0.178517 -0.531 126 80 80
0.416281 -0.179862 -0.535 121 73 73
0.422951 -0.180534 -0.537 114 71 65
0.441559 -0.181879 -0.541 137 89 87
0.44526 -0.182551 -0.543 133 85 85
0.453535 -0.184232 -0.548 126 82 83
0.459167 -0.185241 -0.551 141 90 89
0.467998 -0.18625 -0.554 153 106 98
-0.167095 -0.215705 -0.638 181 180 175
-0.158589 -0.215705 -0.638 185 185 177
0.116722 -0.157552 -0.466 177 127 120
0.122494 -0.155862 -0.461 172 124 110
0.126931 -0.154848 -0.458 171 121 110
0.127525 -0.15451 -0.457 172 122 111
0.148091 -0.154171 -0.456 151 105 92
0.151028 -0.15451 -0.457 148 100 90
0.154848 -0.154848 -0.458 145 98 88
0.162009 -0.155862 -0.461 139 92 84
0.169767 -0.156538 -0.463 130 87 78
0.203186 -0.167357 -0.495 108 72 74
0.29106 -0.1917 -0.567 106 80 89
0.308657 -0.187305 -0.554 118 87 95
0.341357 -0.179529 -0.531 153 126 133
0.345762 -0.17919 -0.53 128 91 98
0.346771 -0.17919 -0.53 128 91 98
0.404191 -0.198462 -0.587 41 33 44
0.408762 -0.200152 -0.592 42 34 45
0.446547 -0.211648 -0.626 56 48 61
0.431567 -0.180881 -0.535 156 103 99
0.437061 -0.181895 -0.538 146 96 95
-0.157867 -0.2176 -0.64 186 186 178
-0.156892 -0.21794 -0.641 186 186 178
0.116083 -0.15878 -0.467 180 128 117
0.12038 -0.15742 -0.463 176 124 111
0.168885 -0.15742 -0.463 128 85 76
0.18039 -0.1598 -0.47 112 76 64
0.188924 -0.16252 -0.478 99 65 64
0.191942 -0.16354 -0.481 98 64 62
0.208386 -0.17102 -0.503 125 83 85
0.220805 -0.17714 -0.521 171 124 130
0.229795 -0.1819 -0.535 184 131 147
0.300803 -0.19074 -0.561 113 82 88
0.3071 -0.1887 -0.555 118 87 93
0.310207 -0.18802 -0.553 119 88 94
0.310697 -0.18768 -0.552 116 85 91
0.312233 -0.18734 -0.551 116 85 90
0.324684 -0.18428 -0.542 118 82 86
0.331917 -0.18258 -0.537 116 84 89
0.334362 -0.18224 -0.536 116 85 91
0.342733 -0.1802 -0.53 121 94 101
0.417266 -0.20434 -0.601 45 37 48
0.396218 -0.18394 -0.541 182 138 135
0.411679 -0.18122 -0.533 126 76 77
0.41808 -0.18224 -0.536 115 70 67
-0.171811 -0.219503 -0.642 179 179 171
-0.16389 -0.21711 -0.635 184 181 174
0.114549 -0.160011 -0.468 178 128 119
0.119756 -0.158644 -0.464 177 125 112
0.123981 -0.157276 -0.46 173 124 110
0.126059 -0.156592 -0.458 174 125 111
0.128395 -0.15625 -0.457 173 125 113
0.133033 -0.155567 -0.455 172 123 109
0.140214 -0.154883 -0.453 161 112 105
0.15223 -0.156592 -0.458 147 100 90
0.155186 -0.156934 -0.459 143 96 86
0.189319 -0.163772 -0.479 100 65 63
0.21939 -0.17779 -0.52 154 102 114
0.287419 -0.200356 -0.586 106 80 93
0.288 -0.196937 -0.576 111 81 89
0.293262 -0.193176 -0.565 110 81 86
0.294891 -0.192834 -0.564 109 80 85
0.301333 -0.191467 -0.56 114 84 86
0.316796 -0.187364 -0.548 116 85 90
0.31726 -0.187022 -0.547 116 85 90
0.31876 -0.18668 -0.546 115 83 88
0.321737 -0.185996 -0.544 118 86 91
0.32802 -0.184287 -0.539 121 86 90
0.339973 -0.181893 -0.532 161 144 150
0.455157 -0.216426 -0.633 51 45 55
0.454921 -0.215742 -0.631 52 42 51
0.448171 -0.211981 -0.62 49 39 48
0.396649 -0.185654 -0.543 166 135 133
0.414486 -0.182577 -0.534 122 74 72
0.416281 -0.182919 -0.535 124 76 74
0.419101 -0.183261 -0.536 95 54 48
0.421929 -0.183603 -0.537 106 65 59
0.425227 -0.183261 -0.536 150 96 94
0.425452 -0.182919 -0.535 154 100 98
0.44608 -0.185996 -0.544 129 84 81
-0.162937 -0.218663 -0.636 182 182 174
-0.156892 -0.220382 -0.641 186 186 176
-0.152199 -0.222445 -0.647 189 187 175
0.1339 -0.156433 -0.455 171 122 108
0.141389 -0.15609 -0.454 159 111 101
0.146033 -0.156433 -0.455 151 102 95
0.157276 -0.158152 -0.46 143 96 88
0.28985 -0.196315 -0.571 112 82 90
0.294891 -0.193909 -0.564 111 82 87
0.299734 -0.192877 -0.561 113 82 87
0.31876 -0.18772 -0.546 116 84 89
0.320252 -0.187376 -0.545 116 84 89
0.325543 -0.185657 -0.54 117 85 88
0.355443 -0.184626 -0.537 33 30 39
0.406507 -0.203535 -0.592 41 33 44
0.428726 -0.183594 -0.534 157 104 100
0.4498 -0.18772 -0.546 130 86 83
-0.300851 -0.223331 -0.646 252 253 248
0.114143 -0.162486 -0.47 180 130 121
0.139659 -0.156954 -0.454 163 115 105
0.150157 -0.157991 -0.457 149 100 93
0.153437 -0.158683 -0.459 145 96 89
0.157276 -0.159029 -0.46 142 95 87
0.187103 -0.165251 -0.478 101 67 66
0.192217 -0.167326 -0.484 97 63 62
0.197803 -0.169746 -0.491 93 59 60
0.21882 -0.180117 -0.521 147 111 121
0.291982 -0.205009 -0.593 110 87 97
0.290271 -0.202243 -0.585 110 82 94
0.289393 -0.20086 -0.581 114 84 96
0.293262 -0.195329 -0.565 112 81 87
0.305535 -0.192217 -0.556 117 86 91
0.309153 -0.19118 -0.553 118 87 92
0.319214 -0.188414 -0.545 115 83 86
0.321737 -0.188069 -0.544 115 83 86
0.323651 -0.187377 -0.542 118 83 87
0.324085 -0.187031 -0.541 118 83 87
0.334131 -0.184611 -0.534 117 86 92
0.335149 -0.184611 -0.534 117 86 92
0.365855 -0.189451 -0.548 30 28 39
0.395046 -0.185994 -0.538 180 132 122
0.424206 -0.185303 -0.536 142 93 89
0.441559 -0.187031 -0.541 132 87 84
0.467998 -0.191526 -0.554 146 100 103
-0.158113 -0.222824 -0.641 185 185 175
0.113867 -0.169638 -0.488 186 136 127
0.12038 -0.160948 -0.463 178 126 115
0.127525 -0.158862 -0.457 173 124 110
0.129266 -0.158862 -0.457 174 125 111
0.143433 -0.158167 -0.455 155 107 97
0.147223 -0.158514 -0.456 151 102 95
0.158496 -0.160252 -0.461 140 93 85
0.1606 -0.1606 -0.462 139 92 84
0.187494 -0.16651 -0.479 102 67 65
0.20949 -0.17659 -0.508 115 80 86
0.290358 -0.198838 -0.572 114 85 89
0.301333 -0.194667 -0.56 116 85 90
0.337567 -0.185281 -0.533 172 151 156
0.361776 -0.189452 -0.545 32 29 40
0.385561 -0.19849 -0.571 37 30 38
0.411766 -0.207876 -0.598 41 33 44
0.421431 -0.211005 -0.607 49 41 54
0.397997 -0.184586 -0.531 155 96 88
0.424657 -0.185629 -0.534 153 99 97
0.457286 -0.19119 -0.55 124 81 75
-0.31857 -0.226142 -0.647 251 252 246
-0.151433 -0.226841 -0.649 189 187 175
0.11761 -0.162878 -0.466 183 131 118
0.1339 -0.159033 -0.455 173 124 110
0.134767 -0.159033 -0.455 172 123 109
0.135633 -0.159033 -0.455 171 122 108
0.1443 -0.159033 -0.455 154 104 97
0.167482 -0.162179 -0.464 130 85 79
0.169614 -0.162529 -0.465 125 82 75
0.178083 -0.164626 -0.471 108 73 69
0.215587 -0.181053 -0.518 125 95 103
0.290866 -0.200277 -0.573 115 84 89
0.301333 -0.195733 -0.56 115 86 91
0.30399 -0.195384 -0.559 115 86 90
0.329461 -0.188044 -0.538 115 85 85
0.378686 -0.197131 -0.564 36 29 36
0.395046 -0.188044 -0.538 173 126 116
0.416281 -0.186995 -0.535 119 74 71
-0.309994 -0.225617 -0.642 184 185 179
-0.300679 -0.225969 -0.643 159 159 157
-0.29823 -0.225969 -0.643 183 183 181
-0.291123 -0.228077 -0.649 254 255 251
-0.289095 -0.228429 -0.65 249 251 246
-0.170206 -0.223509 -0.636 181 181 171
-0.16389 -0.223157 -0.635 185 182 173
0.116331 -0.164469 -0.468 181 129 116
0.124857 -0.161657 -0.46 176 124 111
0.133326 -0.160251 -0.456 173 121 108
0.134767 -0.1599 -0.455 172 123 109
0.155524 -0.161657 -0.46 145 96 89
0.174647 -0.16482 -0.469 118 79 74
0.178461 -0.165874 -0.472 108 73 71
0.17974 -0.166226 -0.473 107 72 70
0.292703 -0.198909 -0.566 111 82 87
0.304476 -0.195394 -0.556 117 86 92
0.319665 -0.191177 -0.544 114 83 88
0.322619 -0.190474 -0.542 113 83 85
0.325967 -0.18942 -0.539 116 84 87
0.336551 -0.187311 -0.533 219 198 203
0.336933 -0.18696 -0.532 221 202 208
0.442262 -0.219643 -0.625 50 44 58
0.396343 -0.191177 -0.544 170 132 129
0.395188 -0.190123 -0.541 168 130 127
0.394753 -0.18942 -0.539 173 126 116
0.39672 -0.18696 -0.532 157 99 88
0.407867 -0.18696 -0.532 125 76 71
0.414243 -0.188014 -0.535 123 73 74
0.418319 -0.188014 -0.535 101 60 58
0.428726 -0.187663 -0.534 150 96 94
0.470532 -0.195746 -0.557 137 95 96
-0.290674 -0.22896 -0.648 254 255 251
0.113309 -0.16748 -0.474 180 133 123
0.116972 -0.165007 -0.467 179 130 116
0.12188 -0.16324 -0.462 178 126 112
0.126931 -0.161827 -0.458 175 123 110
0.137367 -0.160767 -0.455 169 117 106
0.150486 -0.161827 -0.458 150 100 93
0.151689 -0.16218 -0.459 149 99 92
0.153771 -0.162533 -0.46 146 96 89
0.15884 -0.16324 -0.462 140 91 86
0.175914 -0.166067 -0.47 112 74 73
0.190767 -0.171367 -0.485 101 66 64
0.292976 -0.203167 -0.575 116 82 96
0.293781 -0.199987 -0.566 112 82 90
0.294338 -0.199633 -0.565 112 82 90
0.307602 -0.195747 -0.554 116 85 91
0.310697 -0.19504 -0.552 116 85 90
0.314237 -0.19398 -0.549 114 82 87
0.320701 -0.192213 -0.544 114 84 86
0.336551 -0.188327 -0.533 201 182 188
0.4312 -0.217653 -0.616 49 41 54
0.433777 -0.21836 -0.618 50 42 55
0.405523 -0.19822 -0.561 95 83 93
0.40584 -0.187973 -0.532 123 77 77
0.414243 -0.189033 -0.535 123 73 72
0.415262 -0.189033 -0.535 121 73 71
0.457286 -0.194333 -0.55 131 81 82
0.471593 -0.196807 -0.557 134 96 93
-0.316837 -0.227708 -0.641 224 227 220
-0.30829 -0.227708 -0.641 145 147 142
-0.305849 -0.227708 -0.641 139 141 136
-0.301434 -0.228063 -0.642 139 139 137
-0.166048 -0.225221 -0.634 185 182 173
-0.162234 -0.226642 -0.638 183 183 173
0.116083 -0.165896 -0.467 178 130 116
0.126931 -0.162699 -0.458 177 125 111
0.127804 -0.162699 -0.458 176 124 110
0.1443 -0.161633 -0.455 153 103 94
0.163947 -0.16483 -0.464 131 84 78
0.165714 -0.16483 -0.464 127 82 77
0.295441 -0.199999 -0.563 113 82 88
0.303963 -0.197868 -0.557 115 84 89
0.306043 -0.197157 -0.555 115 84 89
0.310697 -0.196091 -0.552 115 84 89
0.31726 -0.194315 -0.547 113 83 85
0.33232 -0.190408 -0.536 120 87 94
0.336551 -0.189342 -0.533 176 157 163
0.384057 -0.203196 -0.572 35 33 38
0.44297 -0.222379 -0.626 51 43 58
0.442933 -0.218827 -0.616 54 47 55
0.394753 -0.191473 -0.539 177 129 119
0.414243 -0.190052 -0.535 123 73 72
0.427709 -0.189697 -0.534 147 96 93
0.455409 -0.195026 -0.549 122 81 79
0.459167 -0.195736 -0.551 140 91 97
-0.285381 -0.232143 -0.65 250 253 246
-0.1651 -0.226786 -0.635 186 183 174
-0.161524 -0.228571 -0.64 185 185 175
-0.0563333 -0.232143 -0.65 66 65 70
-0.0550105 -0.231786 -0.649 67 66 71
-0.0536086 -0.231071 -0.647 68 67 72
-0.0463571 -0.231786 -0.649 75 73 78
0.121262 -0.165357 -0.463 180 128 115
0.1339 -0.1625 -0.455 170 118 105
0.140524 -0.162143 -0.454 161 111 102
0.16183 -0.165357 -0.463 133 85 83
0.174124 -0.167857 -0.47 115 76 71
0.2992 -0.2 -0.56 111 84 91
0.309153 -0.1975 -0.553 115 84 89
0.311667 -0.196429 -0.55 114 82 87
0.314237 -0.196071 -0.549 114 82 87
0.31668 -0.195 -0.546 113 81 84
0.320554 -0.193571 -0.542 115 83 86
0.323054 -0.193214 -0.541 114 82 87
0.339973 -0.19 -0.532 124 89 95
0.408803 -0.213214 -0.597 44 36 47
0.44726 -0.223929 -0.627 48 42 56
0.40002 -0.189643 -0.531 136 85 81
0.416281 -0.191071 -0.535 113 63 62
0.417537 -0.190714 -0.534 116 68 66
0.419571 -0.190714 -0.534 143 94 90
0.457286 -0.196429 -0.55 135 87 83
-0.326399 -0.230868 -0.643 249 252 245
-0.286178 -0.233022 -0.649 251 253 248
-0.179311 -0.232304 -0.647 181 181 173
-0.0484533 -0.231227 -0.644 73 70 77
-0.0463571 -0.233022 -0.649 75 72 79
0.179595 -0.170548 -0.475 106 71 69
0.297586 -0.202144 -0.563 115 84 89
0.298666 -0.201426 -0.561 113 83 91
0.30132 -0.200349 -0.558 115 84 90
0.306547 -0.198912 -0.554 115 84 89
0.307602 -0.198912 -0.554 115 84 89
0.31668 -0.19604 -0.546 113 81 84
0.327411 -0.193168 -0.538 117 83 84
0.329461 -0.193168 -0.538 116 82 83
0.379208 -0.203939 -0.568 39 28 42
0.383637 -0.205734 -0.573 37 28 47
0.393664 -0.209325 -0.583 39 33 43
0.408803 -0.214351 -0.597 44 38 48
0.41452 -0.216147 -0.602 44 38 48
0.400773 -0.191013 -0.532 136 85 81
0.419801 -0.191372 -0.533 148 97 94
0.444226 -0.194963 -0.543 131 86 83
0.450624 -0.196399 -0.547 125 81 78
-0.325384 -0.23137 -0.641 249 252 245
-0.289777 -0.233175 -0.646 194 193 189
-0.164149 -0.229566 -0.636 186 184 172
-0.15836 -0.231731 -0.642 188 186 174
-0.0484533 -0.232453 -0.644 73 70 77
0.119129 -0.167843 -0.465 180 130 119
0.142567 -0.164233 -0.455 153 103 94
0.153771 -0.166038 -0.46 142 93 86
0.155862 -0.166399 -0.461 140 91 84
0.15674 -0.166399 -0.461 135 88 80
0.176136 -0.17073 -0.473 111 74 68
0.304986 -0.200329 -0.555 115 84 90
0.322457 -0.194914 -0.54 112 82 84
0.327411 -0.194192 -0.538 115 83 84
0.330278 -0.19347 -0.536 118 83 89
0.34958 -0.194553 -0.539 39 27 37
0.393664 -0.210435 -0.583 40 34 44
0.403124 -0.213684 -0.592 42 36 46
0.407618 -0.192388 -0.533 128 80 78
0.411434 -0.192749 -0.534 124 79 74
0.413469 -0.192749 -0.534 120 72 68
0.414486 -0.192749 -0.534 120 72 68
0.420027 -0.192027 -0.532 151 102 98
0.447938 -0.196719 -0.545 129 85 84
-0.320927 -0.23114 -0.637 237 240 233
-0.286529 -0.234769 -0.647 252 253 248
-0.172629 -0.230777 -0.636 182 182 172
-0.171148 -0.230414 -0.635 186 183 174
-0.0599552 -0.235494 -0.649 60 59 64
0.11761 -0.169091 -0.466 179 129 120
0.128395 -0.165826 -0.457 176 124 113
0.138794 -0.164737 -0.454 160 110 101
0.148741 -0.166189 -0.458 147 99 89
0.149613 -0.166189 -0.458 147 99 89
0.20112 -0.18288 -0.504 125 87 100
0.30186 -0.202837 -0.559 114 84 92
0.3081 -0.20066 -0.553 113 82 87
0.315283 -0.199209 -0.549 113 81 84
0.317138 -0.197757 -0.545 111 80 85
0.336166 -0.193766 -0.534 143 127 130
0.359203 -0.199209 -0.549 30 28 39
0.411313 -0.217351 -0.599 45 39 49
0.424209 -0.221706 -0.611 49 43 55
0.394457 -0.195943 -0.54 173 126 118
0.400773 -0.19304 -0.532 137 86 82
0.41574 -0.193403 -0.533 114 66 62
0.455409 -0.199209 -0.549 123 79 80
0.462103 -0.200297 -0.552 139 94 89
-0.323353 -0.232353 -0.637 248 251 244
-0.31122 -0.232353 -0.637 145 147 142
-0.178203 -0.234542 -0.643 182 182 172
-0.155896 -0.236001 -0.647 189 187 174
-0.0484533 -0.234907 -0.644 74 71 78
0.113787 -0.173627 -0.476 177 128 123
0.12546 -0.167426 -0.459 182 132 125
0.129851 -0.166331 -0.456 174 121 113
0.131589 -0.166331 -0.456 172 119 111
0.1365 -0.165967 -0.455 164 112 101
0.137367 -0.165967 -0.455 163 111 100
0.13793 -0.165602 -0.454 161 111 102
0.143749 -0.166331 -0.456 149 99 90
0.3081 -0.201713 -0.553 113 82 87
0.314709 -0.19989 -0.548 112 80 83
0.31668 -0.19916 -0.546 112 80 85
0.330278 -0.195512 -0.536 119 89 91
0.336166 -0.194783 -0.534 180 161 165
0.361166 -0.201349 -0.552 31 28 39
0.382546 -0.209009 -0.573 41 33 44
0.430027 -0.224693 -0.616 50 44 56
0.433777 -0.225423 -0.618 50 42 55
0.436362 -0.226152 -0.62 50 42 55
0.412694 -0.194418 -0.533 119 74 71
0.424877 -0.194418 -0.533 139 88 85
0.425892 -0.194418 -0.533 141 90 87
0.478367 -0.20609 -0.565 133 85 85
-0.324057 -0.2332 -0.636 249 252 245
-0.31871 -0.232833 -0.635 160 161 155
-0.3175 -0.232833 -0.635 151 153 148
-0.1651 -0.232833 -0.635 185 185 173
0.1365 -0.166833 -0.455 163 111 98
0.138794 -0.166467 -0.454 160 108 97
0.146675 -0.167567 -0.457 148 98 89
0.168034 -0.1716 -0.468 117 82 76
0.186148 -0.177833 -0.485 95 66 70
0.200557 -0.185167 -0.505 121 109 131
0.208277 -0.189567 -0.517 145 145 183
0.3002 -0.209 -0.57 114 82 85
0.303417 -0.203867 -0.556 113 82 87
0.314237 -0.2013 -0.549 111 79 82
0.316218 -0.200567 -0.547 112 80 83
0.324337 -0.197267 -0.538 113 83 85
0.350493 -0.198733 -0.542 37 24 33
0.392989 -0.2134 -0.582 41 33 46
0.406749 -0.2178 -0.594 46 38 51
0.415667 -0.220733 -0.602 45 37 50
0.438249 -0.2277 -0.621 50 42 53
0.459381 -0.201667 -0.55 143 95 95
0.486472 -0.209733 -0.572 142 94 94
-0.315081 -0.234043 -0.635 148 150 147
-0.1651 -0.234043 -0.635 185 185 175
-0.163706 -0.235517 -0.639 189 187 175
-0.155142 -0.239203 -0.649 190 188 175
-0.0485286 -0.237729 -0.645 73 70 79
-0.0464286 -0.239571 -0.65 73 70 81
0.12425 -0.169911 -0.461 184 134 125
0.152019 -0.169543 -0.46 141 94 86
0.174703 -0.174703 -0.474 106 75 73
0.177626 -0.175809 -0.477 100 70 70
0.306547 -0.204189 -0.554 112 81 86
0.31772 -0.20124 -0.546 112 82 84
0.328236 -0.197554 -0.536 116 86 86
0.3317 -0.197186 -0.535 165 143 145
0.386315 -0.212666 -0.577 41 35 45
0.394774 -0.214877 -0.583 46 40 52
0.425372 -0.225197 -0.611 47 41 53
0.437543 -0.228514 -0.62 50 40 51
0.401948 -0.206031 -0.559 112 98 98
