ply
format ascii 1.0
comment Created by Open3D
element vertex 1312
property double x
property double y
property double z
property uchar red
property uchar green
property uchar blue
end_header
0.137188 -0.182755 -0.509 149 102 108
0.316727 -0.193527 -0.539 130 98 99
0.324977 -0.191731 -0.534 129 97 98
0.3475 -0.1885 -0.525 177 157 159
0.356867 -0.190295 -0.53 103 84 90
0.409617 -0.208966 -0.582 63 63 73
0.414665 -0.210402 -0.586 80 84 96
0.419743 -0.211838 -0.59 74 76 89
0.409649 -0.191372 -0.533 179 130 125
0.436619 -0.190295 -0.53 148 100 98
0.452614 -0.192809 -0.537 136 91 88
-0.313647 -0.229927 -0.637 149 151 146
-0.310493 -0.230288 -0.638 151 153 150
-0.164149 -0.229566 -0.636 182 182 172
0.08296 -0.171813 -0.476 190 143 123
0.0947467 -0.171813 -0.476 185 137 117
0.112 -0.173257 -0.48 145 102 95
0.142849 -0.187334 -0.519 166 95 99
0.147058 -0.190222 -0.527 172 96 96
0.325994 -0.192749 -0.534 128 96 97
0.340793 -0.190222 -0.527 142 116 119
0.363626 -0.193831 -0.537 46 36 44
0.367365 -0.195275 -0.541 43 33 41
0.3856 -0.202133 -0.56 37 35 48
0.41649 -0.211879 -0.587 88 90 103
0.46176 -0.225234 -0.624 55 54 68
0.46265 -0.224512 -0.622 59 58 72
0.410371 -0.191305 -0.53 170 117 111
0.43359 -0.191305 -0.53 140 92 90
0.443333 -0.192027 -0.532 140 92 88
0.446197 -0.192388 -0.533 139 91 87
-0.3195 -0.231866 -0.639 217 219 214
-0.317785 -0.231503 -0.638 172 174 169
-0.283625 -0.234406 -0.646 218 214 211
-0.173171 -0.231503 -0.638 179 179 171
-0.158116 -0.234406 -0.646 186 184 172
-0.0495257 -0.232954 -0.642 71 70 76
0.0920267 -0.17272 -0.476 184 135 118
0.126558 -0.179251 -0.494 118 79 84
0.313448 -0.197394 -0.544 133 99 100
0.331629 -0.192314 -0.53 125 95 97
0.40031 -0.208643 -0.575 96 96 108
0.420867 -0.214086 -0.59 74 76 89
0.414635 -0.191951 -0.529 157 103 93
0.41665 -0.191951 -0.529 152 99 93
0.426727 -0.191951 -0.529 129 84 78
0.429552 -0.192314 -0.53 119 74 68
0.430562 -0.192314 -0.53 120 75 69
0.438638 -0.192314 -0.53 141 96 93
0.448051 -0.193766 -0.534 138 90 88
0.455507 -0.195217 -0.538 142 94 92
0.46956 -0.19812 -0.546 134 88 88
-0.325384 -0.233812 -0.641 252 253 248
-0.173171 -0.232718 -0.638 179 179 171
-0.16345 -0.232718 -0.638 185 182 173
-0.0554667 -0.233448 -0.64 68 67 75
-0.0542476 -0.233448 -0.64 68 67 75
0.0882143 -0.173262 -0.475 185 136 119
0.0974667 -0.173627 -0.476 180 133 115
0.31436 -0.197701 -0.542 129 97 98
0.317314 -0.196971 -0.54 131 99 100
0.326399 -0.194418 -0.533 130 98 101
0.333648 -0.193324 -0.53 128 97 102
0.373843 -0.200254 -0.549 38 34 48
0.454809 -0.226517 -0.621 56 55 71
0.408857 -0.196971 -0.54 183 138 133
0.41888 -0.192594 -0.528 143 95 91
0.4425 -0.193689 -0.531 140 92 88
-0.320215 -0.233933 -0.638 241 243 238
0.0827857 -0.174167 -0.475 191 144 126
0.14268 -0.1914 -0.522 91 67 89
0.322529 -0.196167 -0.535 128 98 98
0.328827 -0.195067 -0.532 129 97 100
0.331243 -0.1947 -0.531 129 97 102
0.331629 -0.194333 -0.53 128 97 102
0.393571 -0.209 -0.57 47 55 68
0.41325 -0.214133 -0.584 70 74 86
0.433292 -0.220367 -0.601 47 49 64
0.41888 -0.1936 -0.528 139 92 86
0.42975 -0.193967 -0.529 137 90 84
-0.0528629 -0.235149 -0.638 69 68 74
-0.0463571 -0.239203 -0.649 72 70 81
0.136753 -0.18834 -0.511 140 127 145
0.14505 -0.194237 -0.527 151 138 164
0.316425 -0.199766 -0.542 129 97 100
0.32151 -0.197186 -0.535 128 98 100
0.365979 -0.199766 -0.542 36 34 39
0.384151 -0.206769 -0.561 41 43 56
0.420867 -0.217457 -0.59 73 75 88
0.408584 -0.199397 -0.541 175 136 131
0.40888 -0.19608 -0.532 176 127 122
0.409893 -0.19608 -0.532 173 124 119
0.422696 -0.194974 -0.529 139 91 89
0.431954 -0.194606 -0.528 147 98 93
0.440477 -0.195711 -0.531 138 90 88
0.0800714 -0.175976 -0.475 194 147 129
0.0862229 -0.175606 -0.474 187 140 120
0.118029 -0.180051 -0.486 120 88 89
0.133751 -0.187831 -0.507 207 190 206
0.330231 -0.196723 -0.531 129 97 100
0.344809 -0.195241 -0.527 130 109 116
0.377929 -0.205614 -0.555 43 37 47
0.407105 -0.214876 -0.58 56 58 71
0.41325 -0.216358 -0.584 56 58 71
0.418666 -0.195982 -0.529 141 94 88
0.437629 -0.196352 -0.53 146 99 93
0.4687 -0.20191 -0.545 133 87 87
0.480157 -0.204132 -0.551 139 95 92
-0.3311 -0.240186 -0.645 251 254 247
-0.325076 -0.237579 -0.638 251 253 248
-0.323861 -0.237579 -0.638 250 252 247
-0.315577 -0.236834 -0.636 139 141 138
-0.173443 -0.237951 -0.639 182 182 172
-0.0654229 -0.239069 -0.642 66 64 75
-0.0598714 -0.236462 -0.635 67 64 73
-0.0506695 -0.238696 -0.641 70 69 77
0.0768429 -0.182094 -0.489 200 150 139
0.127583 -0.185446 -0.498 166 144 147
0.132262 -0.188052 -0.505 192 188 203
0.317753 -0.200713 -0.539 131 99 102
0.32396 -0.198851 -0.534 126 96 98
0.345812 -0.196245 -0.527 130 109 116
0.351819 -0.197362 -0.53 120 93 102
0.399909 -0.214491 -0.576 61 65 77
0.40787 -0.199596 -0.536 181 133 131
0.412157 -0.197734 -0.531 164 112 101
0.451771 -0.199596 -0.536 131 85 85
-0.314366 -0.238046 -0.636 129 131 126
-0.279997 -0.242911 -0.649 252 253 248
-0.0637 -0.23842 -0.637 67 64 75
-0.0507486 -0.240291 -0.642 69 69 77
0.0800714 -0.177786 -0.475 193 146 126
0.0862229 -0.177411 -0.474 189 142 124
0.089119 -0.177786 -0.475 189 140 123
0.0927381 -0.177786 -0.475 187 138 121
0.106757 -0.178534 -0.477 154 110 99
0.127839 -0.186769 -0.499 175 154 159
0.322319 -0.211471 -0.565 112 87 93
0.324369 -0.199494 -0.533 129 99 99
0.333018 -0.197997 -0.529 127 90 97
0.407807 -0.21746 -0.581 54 53 69
0.454966 -0.231309 -0.618 77 74 85
0.454667 -0.23056 -0.616 65 62 73
0.414635 -0.197997 -0.529 143 94 87
0.421689 -0.197997 -0.529 144 97 91
0.43296 -0.197623 -0.528 146 99 93
0.438638 -0.198371 -0.53 146 97 93
-0.162997 -0.241138 -0.641 188 186 174
-0.0723171 -0.244148 -0.649 65 63 74
-0.0621924 -0.238505 -0.634 65 63 74
-0.0572714 -0.238129 -0.633 67 65 76
0.0784267 -0.179067 -0.476 199 148 129
0.0791667 -0.17869 -0.475 200 149 130
0.106757 -0.179443 -0.477 154 110 99
0.123234 -0.185086 -0.492 109 83 86
0.342801 -0.198252 -0.527 132 112 114
0.370706 -0.206529 -0.549 32 32 42
0.37446 -0.208033 -0.553 33 33 41
0.411431 -0.219319 -0.583 91 93 106
0.424136 -0.223081 -0.593 64 63 77
0.440655 -0.228724 -0.608 63 60 77
0.41239 -0.199381 -0.53 160 107 99
0.435795 -0.199005 -0.529 144 96 92
0.441489 -0.199757 -0.531 140 92 88
0.473546 -0.205776 -0.547 142 94 92
0.481207 -0.207281 -0.551 142 97 94
-0.278761 -0.245384 -0.649 251 252 247
-0.178079 -0.244628 -0.647 182 183 175
-0.170741 -0.241225 -0.638 185 185 175
-0.169526 -0.241225 -0.638 186 186 176
-0.161307 -0.243493 -0.644 189 187 175
-0.0618981 -0.238578 -0.631 65 63 74
0.113385 -0.182242 -0.482 131 96 90
0.118029 -0.183754 -0.486 120 90 92
0.12062 -0.184889 -0.489 110 81 85
0.122049 -0.185645 -0.491 107 78 82
0.322943 -0.201903 -0.534 129 97 102
0.335033 -0.200012 -0.529 127 98 102
0.340793 -0.199256 -0.527 177 161 164
0.43071 -0.226479 -0.599 53 52 66
0.440655 -0.229882 -0.608 76 74 88
0.428937 -0.199634 -0.528 130 81 76
0.434788 -0.200012 -0.529 144 96 92
0.435795 -0.200012 -0.529 142 94 90
0.447212 -0.201525 -0.533 129 84 79
0.468876 -0.205684 -0.544 135 90 87
-0.316789 -0.24168 -0.636 152 157 150
-0.314366 -0.24168 -0.636 126 133 126
-0.0643019 -0.23978 -0.631 65 63 74
-0.04968 -0.24472 -0.644 69 72 81
-0.0463571 -0.24662 -0.649 73 71 82
0.09796 -0.18012 -0.474 179 132 116
0.112 -0.1824 -0.48 132 97 91
0.129822 -0.19114 -0.503 202 198 213
0.13507 -0.19456 -0.512 218 220 233
0.322943 -0.20292 -0.534 128 97 102
0.346117 -0.20102 -0.529 125 96 100
0.377169 -0.21166 -0.557 46 49 56
0.410321 -0.22154 -0.583 81 84 101
0.423007 -0.22534 -0.593 68 67 81
0.434734 -0.22914 -0.603 66 64 78
0.450929 -0.2033 -0.535 134 89 84
-0.319211 -0.242891 -0.636 248 253 247
-0.315577 -0.242891 -0.636 148 155 147
-0.163706 -0.244037 -0.639 188 186 174
-0.158606 -0.247474 -0.648 190 188 176
-0.0594 -0.2406 -0.63 66 66 76
-0.0451905 -0.248238 -0.65 72 70 81
0.0833381 -0.180641 -0.473 192 145 127
0.343451 -0.201646 -0.528 127 98 102
0.408129 -0.204319 -0.535 183 136 130
0.411146 -0.202791 -0.531 166 113 105
0.414635 -0.202028 -0.529 153 103 94
0.417658 -0.202028 -0.529 155 105 98
0.426727 -0.202028 -0.529 130 80 71
0.431954 -0.201646 -0.528 143 94 87
0.448051 -0.203937 -0.534 139 91 87
0.463371 -0.206229 -0.54 136 91 88
-0.325076 -0.24487 -0.638 251 254 247
-0.283625 -0.247941 -0.646 255 255 251
-0.279566 -0.248709 -0.648 252 253 247
-0.162281 -0.24679 -0.643 190 188 176
-0.0716267 -0.242568 -0.632 61 59 70
-0.0582924 -0.242184 -0.631 67 67 79
0.0773571 -0.18231 -0.475 194 149 130
0.112233 -0.184612 -0.481 129 96 91
0.120867 -0.188067 -0.49 111 86 90
0.122297 -0.188834 -0.492 133 108 112
0.128608 -0.192672 -0.502 205 197 210
0.32922 -0.203803 -0.531 126 95 100
0.367569 -0.210711 -0.549 34 33 38
0.382304 -0.216085 -0.563 97 95 106
0.419329 -0.226831 -0.591 88 87 103
0.422589 -0.227983 -0.594 72 71 87
0.453789 -0.237194 -0.618 62 58 73
0.407741 -0.208792 -0.544 184 139 136
0.406523 -0.207641 -0.541 188 143 140
0.421476 -0.203419 -0.53 156 103 97
0.43296 -0.202651 -0.528 143 94 89
-0.171276 -0.246857 -0.64 185 185 173
-0.0822067 -0.250329 -0.649 72 71 76
-0.0787514 -0.247243 -0.641 71 69 80
-0.0714 -0.243 -0.63 67 65 76
-0.0662829 -0.241843 -0.627 65 65 75
-0.0550333 -0.244929 -0.635 67 67 77
0.0968524 -0.182443 -0.473 184 137 121
0.101571 -0.182829 -0.474 169 125 112
0.122546 -0.190157 -0.493 151 126 130
0.125686 -0.192086 -0.498 188 173 180
0.326399 -0.205586 -0.533 132 96 100
0.397714 -0.222171 -0.576 86 86 98
0.453054 -0.237986 -0.617 55 51 66
0.407073 -0.2079 -0.539 188 135 131
0.429943 -0.203657 -0.528 141 92 87
0.430949 -0.203657 -0.528 139 90 85
-0.27919 -0.251952 -0.65 252 253 248
-0.0765629 -0.245363 -0.633 67 65 79
0.0780971 -0.183731 -0.474 192 148 137
0.0804648 -0.182956 -0.472 194 147 131
0.0831619 -0.182956 -0.472 195 148 132
0.0905457 -0.183344 -0.473 195 146 131
0.12136 -0.190709 -0.492 133 117 117
0.323548 -0.207376 -0.535 126 99 106
0.331003 -0.20505 -0.529 126 95 101
0.336411 -0.204663 -0.528 174 162 164
0.337782 -0.204275 -0.527 145 130 137
0.340434 -0.204663 -0.528 125 102 108
0.344752 -0.205438 -0.53 121 90 96
0.34975 -0.206601 -0.533 106 77 82
0.379484 -0.217842 -0.562 110 109 117
0.391684 -0.221718 -0.572 97 93 107
0.40699 -0.225982 -0.583 90 87 104
0.429143 -0.232571 -0.6 58 56 69
0.4488 -0.238773 -0.616 89 85 100
0.408633 -0.206601 -0.533 172 126 110
0.42975 -0.20505 -0.529 137 88 83
0.463371 -0.209314 -0.54 135 92 86
-0.320927 -0.248127 -0.637 254 255 251
-0.309033 -0.247348 -0.635 179 184 178
-0.284855 -0.251632 -0.646 222 223 218
-0.162743 -0.249295 -0.64 188 188 176
-0.0604076 -0.244621 -0.628 63 65 77
-0.0518095 -0.249295 -0.64 67 69 81
0.0779324 -0.184245 -0.473 193 149 136
0.0804648 -0.183855 -0.472 196 149 133
0.084061 -0.183855 -0.472 195 148 132
0.0876571 -0.183855 -0.472 195 148 130
0.0941495 -0.184245 -0.473 189 141 121
0.0986543 -0.184245 -0.473 177 130 114
0.124487 -0.193593 -0.497 183 176 183
0.324152 -0.208785 -0.536 129 96 105
0.330619 -0.206448 -0.53 131 102 107
0.343743 -0.206448 -0.53 123 98 104
0.345403 -0.206837 -0.531 120 95 101
0.36244 -0.21268 -0.546 41 30 38
0.368526 -0.215017 -0.552 63 61 66
0.392369 -0.223197 -0.573 107 101 113
0.400889 -0.225534 -0.579 93 89 104
0.405183 -0.226703 -0.582 105 101 116
0.41366 -0.217744 -0.559 103 82 91
0.431954 -0.205669 -0.528 139 89 82
0.451948 -0.208395 -0.535 128 83 77
0.457729 -0.209174 -0.537 133 90 81
0.47563 -0.21307 -0.547 141 98 92
0.0744629 -0.194931 -0.498 199 158 138
0.129889 -0.198454 -0.507 219 215 229
0.344391 -0.207849 -0.531 121 98 104
0.38394 -0.22194 -0.567 112 104 119
0.411381 -0.207457 -0.53 159 104 97
0.41441 -0.207457 -0.53 142 89 81
0.428937 -0.206674 -0.528 136 86 79
0.434788 -0.207066 -0.529 145 96 91
-0.325384 -0.252127 -0.641 251 254 247
-0.289206 -0.25252 -0.642 255 255 251
-0.170057 -0.251733 -0.64 188 188 176
-0.0856743 -0.250947 -0.638 73 72 80
-0.0628 -0.247013 -0.628 67 67 79
-0.0573619 -0.249373 -0.634 68 68 78
0.0736 -0.1888 -0.48 199 158 140
0.106981 -0.188013 -0.478 142 99 93
0.117826 -0.19234 -0.489 117 85 86
0.121853 -0.194307 -0.494 155 144 152
0.12354 -0.195487 -0.497 183 172 180
0.32708 -0.21476 -0.546 131 99 110
0.404074 -0.22892 -0.582 113 104 121
0.40711 -0.210433 -0.535 178 127 123
0.409123 -0.20886 -0.531 169 116 108
0.422486 -0.208467 -0.53 138 85 79
0.431954 -0.20768 -0.528 148 98 91
0.437629 -0.208467 -0.53 148 99 92
0.449069 -0.21004 -0.534 124 79 73
-0.298341 -0.252162 -0.638 247 249 244
-0.296374 -0.252557 -0.639 252 254 249
-0.0540781 -0.252162 -0.638 69 67 78
0.0822629 -0.186552 -0.472 197 151 135
0.0921524 -0.186552 -0.472 191 144 126
0.0975467 -0.186552 -0.472 174 128 112
0.10472 -0.188133 -0.476 150 107 101
0.106981 -0.188924 -0.478 142 101 97
0.109257 -0.189714 -0.48 135 94 88
0.11178 -0.1909 -0.483 120 91 93
0.123789 -0.196829 -0.498 176 165 179
0.126948 -0.198805 -0.503 207 204 223
0.326194 -0.211848 -0.536 131 100 106
0.348005 -0.211452 -0.535 87 66 71
0.383535 -0.224495 -0.568 99 91 102
0.389505 -0.226076 -0.572 110 102 115
0.404769 -0.230424 -0.583 116 107 124
0.44486 -0.2407 -0.609 59 55 70
0.40848 -0.218171 -0.552 134 99 105
0.406047 -0.213033 -0.539 181 134 124
0.405563 -0.212243 -0.537 180 133 123
0.405829 -0.211848 -0.536 178 129 122
0.407618 -0.210662 -0.533 170 115 110
0.430949 -0.208686 -0.528 147 97 90
0.434788 -0.209081 -0.529 152 102 95
0.438638 -0.209476 -0.53 146 96 89
0.477543 -0.21659 -0.548 135 92 86
0.47946 -0.216986 -0.549 133 90 84
-0.313154 -0.252583 -0.636 252 253 247
-0.311943 -0.252583 -0.636 252 253 247
-0.2944 -0.254171 -0.64 252 252 250
-0.292418 -0.254569 -0.641 251 253 248
-0.16831 -0.253377 -0.638 190 190 180
-0.156643 -0.256157 -0.645 198 196 184
-0.0939857 -0.256157 -0.645 73 71 74
-0.08918 -0.25298 -0.637 59 58 66
-0.0573619 -0.251789 -0.634 67 67 79
0.0786667 -0.187451 -0.472 198 153 134
0.084061 -0.187451 -0.472 196 150 134
0.102474 -0.188246 -0.474 156 113 104
0.106981 -0.189834 -0.478 142 101 97
0.33367 -0.221209 -0.557 118 100 112
0.334026 -0.210089 -0.529 150 129 136
0.337049 -0.210089 -0.529 135 112 118
0.340714 -0.210486 -0.53 129 100 105
0.344673 -0.211677 -0.533 114 89 93
0.407366 -0.212074 -0.534 170 117 111
0.441489 -0.210883 -0.531 130 85 79
0.444347 -0.21128 -0.532 125 80 74
-0.150429 -0.259381 -0.65 192 191 173
-0.0618981 -0.251799 -0.631 66 66 78
0.0720705 -0.192341 -0.482 201 160 140
0.0785 -0.187951 -0.471 201 154 136
0.0802943 -0.187951 -0.471 199 154 135
0.0919571 -0.187951 -0.471 187 142 123
0.0993448 -0.18835 -0.472 167 123 110
0.118067 -0.195533 -0.49 132 106 107
0.334026 -0.211096 -0.529 150 127 133
0.34532 -0.213091 -0.534 103 78 82
0.363 -0.219476 -0.55 37 30 37
0.3728 -0.223467 -0.56 58 55 62
0.387326 -0.228255 -0.572 85 79 89
0.415951 -0.235837 -0.591 68 62 76
0.445004 -0.245015 -0.614 56 52 67
0.41634 -0.22626 -0.567 74 70 85
0.412157 -0.211894 -0.531 158 103 96
0.41239 -0.211495 -0.53 156 101 94
0.431954 -0.210697 -0.528 157 104 96
0.448228 -0.212692 -0.533 127 84 78
-0.305632 -0.255808 -0.638 252 253 247
-0.304417 -0.255808 -0.638 252 253 247
-0.295619 -0.25661 -0.64 252 253 247
-0.286529 -0.259416 -0.647 251 253 248
-0.152957 -0.258614 -0.645 199 197 184
-0.148961 -0.260218 -0.649 192 190 177
-0.101829 -0.259817 -0.648 168 167 162
-0.0925286 -0.254605 -0.635 73 72 80
-0.0823409 -0.249392 -0.622 71 69 80
-0.0749905 -0.24859 -0.62 69 67 78
-0.0473733 -0.259015 -0.646 71 69 82
0.0811914 -0.188849 -0.471 196 153 134
0.344303 -0.214109 -0.534 113 88 94
0.367357 -0.222529 -0.555 38 36 41
0.370406 -0.223731 -0.558 52 50 55
0.44036 -0.242977 -0.606 58 54 68
0.418448 -0.212505 -0.53 147 94 88
0.428125 -0.211302 -0.527 151 98 90
0.440477 -0.212906 -0.531 136 86 79
-0.312924 -0.257023 -0.638 252 253 245
-0.162425 -0.255411 -0.634 197 198 192
-0.100886 -0.258634 -0.642 81 81 79
-0.0963086 -0.256217 -0.636 74 73 79
-0.0820762 -0.249771 -0.62 71 69 80
-0.0708333 -0.251786 -0.625 70 68 79
-0.05642 -0.25662 -0.637 69 69 79
0.0758086 -0.189746 -0.471 203 157 144
0.0802943 -0.189746 -0.471 198 155 136
0.0883686 -0.189746 -0.471 194 149 130
0.0937514 -0.189746 -0.471 186 137 120
0.0975467 -0.190149 -0.472 170 123 107
0.100456 -0.190551 -0.473 157 115 103
0.103595 -0.191357 -0.475 145 107 104
0.108343 -0.193371 -0.48 129 95 94
0.11086 -0.19458 -0.483 110 84 85
0.353209 -0.218751 -0.543 43 28 31
0.369343 -0.224794 -0.558 38 36 41
0.423864 -0.241311 -0.599 72 68 82
0.442389 -0.246549 -0.612 50 44 58
0.406047 -0.21714 -0.539 177 134 127
0.405829 -0.215931 -0.536 178 129 122
0.407867 -0.21432 -0.532 160 108 97
0.420467 -0.213514 -0.53 145 92 86
0.421476 -0.213514 -0.53 150 97 89
0.425719 -0.213111 -0.529 150 96 86
0.426926 -0.212709 -0.528 146 92 82
0.429129 -0.212306 -0.527 160 107 99
0.431954 -0.212709 -0.528 159 106 98
-0.312197 -0.258643 -0.639 252 253 248
-0.309278 -0.258238 -0.638 252 253 248
-0.0857571 -0.251357 -0.621 70 68 81
-0.0632 -0.25581 -0.632 70 68 79
-0.0530286 -0.259048 -0.64 70 70 80
-0.0518905 -0.259452 -0.641 70 70 80
0.0801238 -0.190238 -0.47 200 154 138
0.108343 -0.194286 -0.48 123 92 90
0.333135 -0.22019 -0.544 128 97 113
0.330894 -0.217357 -0.537 123 95 109
0.343929 -0.216548 -0.535 108 82 93
0.357505 -0.22181 -0.548 38 29 34
0.397847 -0.235167 -0.581 94 92 103
0.41947 -0.241238 -0.596 51 49 60
0.427931 -0.213714 -0.528 154 97 88
-0.318814 -0.2623 -0.645 252 253 247
-0.309029 -0.260267 -0.64 252 253 248
-0.302657 -0.26108 -0.642 252 253 248
-0.164923 -0.25986 -0.639 241 241 241
-0.141544 -0.263927 -0.649 220 218 203
-0.112763 -0.263113 -0.647 232 232 224
-0.0552933 -0.259453 -0.638 70 70 80
-0.0462857 -0.26352 -0.648 72 70 81
0.07268 -0.19276 -0.474 203 160 144
0.0783333 -0.191133 -0.47 199 156 139
0.081019 -0.191133 -0.47 198 152 137
0.0935524 -0.191133 -0.47 177 131 115
0.1134 -0.19764 -0.486 110 84 87
0.332743 -0.2196 -0.54 124 98 111
0.331917 -0.21838 -0.537 120 94 105
0.353471 -0.221633 -0.545 43 32 38
0.386493 -0.233427 -0.574 76 75 83
0.408263 -0.226107 -0.556 136 116 118
0.40785 -0.225293 -0.554 162 119 113
0.40669 -0.224073 -0.551 170 127 121
0.406586 -0.21838 -0.537 170 121 114
0.422696 -0.215127 -0.529 152 95 86
0.451103 -0.21716 -0.534 133 88 82
0.46354 -0.219193 -0.539 123 80 73
-0.316848 -0.263937 -0.646 252 253 247
-0.311702 -0.262711 -0.643 252 253 248
-0.310477 -0.262711 -0.643 252 253 248
-0.153971 -0.259034 -0.634 207 208 202
-0.147354 -0.262303 -0.642 199 197 182
-0.134127 -0.265163 -0.649 226 223 208
-0.108764 -0.260669 -0.638 96 96 96
-0.105667 -0.259034 -0.634 87 86 92
-0.0928543 -0.253723 -0.621 75 74 80
-0.0807648 -0.252906 -0.619 72 71 79
-0.0764171 -0.254131 -0.622 71 70 78
-0.0678 -0.2574 -0.63 71 70 78
-0.0519714 -0.262303 -0.642 71 71 81
0.0717771 -0.193663 -0.474 202 160 146
0.109712 -0.196931 -0.482 120 88 89
0.11109 -0.197749 -0.484 109 83 84
0.333153 -0.22022 -0.539 122 96 105
0.336933 -0.21736 -0.532 126 98 110
0.354769 -0.223489 -0.547 42 33 36
0.378791 -0.232477 -0.569 46 45 50
0.391389 -0.236154 -0.578 80 79 87
0.394952 -0.236971 -0.58 93 92 100
0.397423 -0.237789 -0.582 87 86 94
0.407812 -0.240649 -0.589 74 71 82
0.4179 -0.243917 -0.597 68 65 76
0.437726 -0.250046 -0.612 80 76 90
0.407529 -0.226757 -0.555 141 117 117
0.404923 -0.221854 -0.543 172 125 119
0.411146 -0.216951 -0.531 158 101 94
0.418448 -0.216543 -0.53 145 88 79
0.426926 -0.215726 -0.528 153 99 89
0.453986 -0.218586 -0.535 136 91 85
0.478414 -0.224306 -0.549 123 82 76
-0.144683 -0.263115 -0.641 207 205 193
-0.134737 -0.265168 -0.646 224 222 209
-0.132276 -0.265168 -0.646 226 224 212
-0.107741 -0.259421 -0.632 65 64 70
-0.0841657 -0.253674 -0.618 73 72 80
-0.0519714 -0.263526 -0.642 71 71 81
-0.0462857 -0.265989 -0.648 72 70 81
0.0698914 -0.199491 -0.486 199 159 147
0.0740143 -0.193334 -0.471 201 159 143
0.0854952 -0.192924 -0.47 192 149 132
0.108794 -0.19785 -0.482 119 87 88
0.333506 -0.218784 -0.533 123 98 104
0.411711 -0.243412 -0.593 43 40 51
0.416763 -0.245054 -0.597 50 47 58
0.415653 -0.234792 -0.572 60 54 66
0.440657 -0.217552 -0.53 126 81 75
0.457729 -0.220426 -0.537 129 84 78
0.468185 -0.222478 -0.542 127 84 77
0.48208 -0.226583 -0.552 120 79 73
-0.144231 -0.263511 -0.639 214 214 206
-0.1408 -0.263924 -0.64 224 223 218
-0.135336 -0.265161 -0.643 235 232 225
-0.115691 -0.262274 -0.636 116 116 116
-0.069 -0.2598 -0.63 70 69 77
-0.0577238 -0.263099 -0.638 71 71 79
-0.0543324 -0.264336 -0.641 71 71 79
-0.045121 -0.267635 -0.649 72 70 81
0.0863905 -0.193819 -0.47 191 148 129
0.088181 -0.193819 -0.47 186 144 122
0.0908667 -0.193819 -0.47 180 135 114
0.0917619 -0.193819 -0.47 177 132 111
0.0964429 -0.194231 -0.471 163 119 106
0.100456 -0.195056 -0.473 143 103 95
0.112243 -0.200005 -0.485 114 86 85
0.11809 -0.203716 -0.494 172 155 163
0.339852 -0.220624 -0.535 123 96 105
0.382546 -0.236294 -0.573 87 84 91
0.405569 -0.242892 -0.589 66 64 75
0.43701 -0.251965 -0.611 44 41 52
0.414635 -0.21815 -0.529 149 94 87
-0.151318 -0.260171 -0.628 228 228 230
-0.147467 -0.261829 -0.632 247 245 246
-0.136714 -0.264314 -0.638 247 246 244
-0.117186 -0.261414 -0.631 78 78 78
-0.08652 -0.256029 -0.618 74 74 82
-0.0474467 -0.268043 -0.647 72 70 81
-0.045121 -0.268871 -0.649 72 70 81
0.070119 -0.196786 -0.475 201 162 147
0.0747524 -0.194714 -0.47 203 160 144
0.0774381 -0.194714 -0.47 204 158 143
0.0944476 -0.194714 -0.47 169 123 108
0.107429 -0.198857 -0.48 119 87 88
0.116674 -0.203829 -0.492 151 129 131
0.119753 -0.2059 -0.497 202 189 198
0.342146 -0.222471 -0.537 98 75 81
0.39342 -0.2407 -0.581 69 69 77
0.40552 -0.227029 -0.548 177 130 124
0.404177 -0.224543 -0.542 170 121 116
0.415643 -0.219157 -0.529 147 92 85
0.430132 -0.218329 -0.527 150 95 88
0.434148 -0.218329 -0.527 138 88 81
0.453986 -0.221643 -0.535 126 83 77
-0.135857 -0.263865 -0.634 231 231 231
-0.0875552 -0.25679 -0.617 74 75 79
-0.0747619 -0.261368 -0.628 72 71 79
-0.0703114 -0.262616 -0.631 70 69 75
-0.0680152 -0.263032 -0.632 70 69 77
-0.0555533 -0.266778 -0.641 78 76 87
0.0862067 -0.195193 -0.469 192 146 130
0.118568 -0.20643 -0.496 188 178 189
0.33956 -0.22724 -0.546 126 100 111
0.348037 -0.225991 -0.543 45 36 41
0.365986 -0.233483 -0.561 33 32 37
0.387414 -0.240142 -0.577 50 53 58
0.391638 -0.24139 -0.58 51 50 58
0.427916 -0.253044 -0.608 52 50 61
0.405214 -0.228489 -0.549 180 131 126
0.40502 -0.224327 -0.539 170 117 111
0.40609 -0.222662 -0.535 166 113 107
0.415643 -0.220165 -0.529 155 98 91
0.419673 -0.220165 -0.529 153 96 89
0.451103 -0.222246 -0.534 125 82 76
0.452967 -0.222662 -0.535 128 85 79
-0.143911 -0.262146 -0.627 207 208 213
-0.100834 -0.255874 -0.612 74 75 80
-0.0566857 -0.267581 -0.64 75 73 84
0.0964429 -0.196923 -0.471 158 116 102
0.10538 -0.200268 -0.479 119 89 89
0.106514 -0.200686 -0.48 115 86 88
0.115737 -0.205703 -0.492 136 121 126
0.120476 -0.209048 -0.5 210 204 218
0.341367 -0.225353 -0.539 114 91 97
0.426758 -0.254202 -0.608 45 43 54
0.422903 -0.220754 -0.528 154 100 88
0.427121 -0.220336 -0.527 151 98 90
0.433966 -0.220754 -0.528 136 89 81
-0.140846 -0.26208 -0.624 114 115 119
-0.13631 -0.2625 -0.625 95 96 101
-0.133929 -0.2625 -0.625 84 85 90
-0.114029 -0.25788 -0.614 64 64 72
-0.108816 -0.25662 -0.611 66 67 72
-0.10266 -0.25578 -0.609 73 74 79
-0.10034 -0.25578 -0.609 74 75 80
-0.0961714 -0.25704 -0.612 76 77 82
-0.0792933 -0.26292 -0.626 74 73 79
-0.078101 -0.26292 -0.626 73 72 78
-0.0693286 -0.26586 -0.633 72 71 79
-0.0579048 -0.2688 -0.64 75 73 84
0.06762 -0.20286 -0.483 201 161 149
0.0737 -0.19698 -0.469 201 159 143
0.0781667 -0.19698 -0.469 199 157 143
0.0935524 -0.1974 -0.47 166 124 108
0.111549 -0.20412 -0.486 114 85 89
0.120958 -0.21084 -0.502 206 202 216
0.388757 -0.24318 -0.579 74 73 79
0.413595 -0.25158 -0.599 50 48 59
0.424442 -0.25536 -0.608 41 39 50
0.404923 -0.22806 -0.543 161 111 104
0.406853 -0.22344 -0.532 163 108 103
0.411381 -0.2226 -0.53 160 105 98
0.415643 -0.22218 -0.529 161 104 97
0.419673 -0.22218 -0.529 161 106 99
0.443511 -0.22302 -0.531 125 80 75
0.44536 -0.22344 -0.532 123 78 73
0.449243 -0.22386 -0.533 122 77 72
0.4644 -0.2268 -0.54 130 87 81
-0.154214 -0.26791 -0.635 109 110 112
-0.147024 -0.26369 -0.625 103 104 109
-0.140394 -0.262425 -0.622 96 97 102
-0.10926 -0.256096 -0.607 65 66 71
-0.0941467 -0.25905 -0.614 76 77 82
-0.065919 -0.26791 -0.635 73 72 80
-0.0486038 -0.27255 -0.646 74 72 83
0.0683095 -0.200405 -0.475 202 162 152
0.0689229 -0.199561 -0.473 201 161 151
0.0781667 -0.197873 -0.469 199 157 145
0.0871 -0.197873 -0.469 184 141 125
0.3762 -0.240486 -0.57 74 72 77
0.380363 -0.241751 -0.573 93 91 94
0.421891 -0.255674 -0.606 43 41 52
0.427 -0.257362 -0.61 48 46 59
0.431435 -0.258628 -0.613 52 50 63
0.404923 -0.229094 -0.543 165 112 106
0.40609 -0.225719 -0.535 162 109 103
0.41262 -0.223188 -0.529 159 104 97
0.43214 -0.222344 -0.527 138 91 85
0.478238 -0.232048 -0.55 123 79 78
-0.147259 -0.265305 -0.626 108 109 114
-0.1089 -0.256405 -0.605 64 65 70
-0.0901971 -0.262338 -0.619 75 76 81
-0.0804857 -0.265305 -0.626 74 73 79
-0.0716267 -0.267848 -0.632 73 72 80
-0.0637 -0.269967 -0.637 75 74 82
-0.045121 -0.275052 -0.649 72 70 81
-0.0438848 -0.275052 -0.649 72 70 81
0.08174 -0.198767 -0.469 196 153 137
0.0862067 -0.198767 -0.469 181 138 122
0.37098 -0.2403 -0.567 36 31 37
0.386985 -0.244962 -0.578 82 79 86
0.420043 -0.256405 -0.605 60 58 69
0.432603 -0.259795 -0.613 45 45 55
0.43139 -0.257676 -0.608 38 35 46
0.40606 -0.234367 -0.553 170 120 111
0.404462 -0.229281 -0.541 165 112 106
0.405492 -0.229281 -0.541 165 112 106
0.41262 -0.224195 -0.529 160 105 98
0.415643 -0.224195 -0.529 161 106 99
0.444523 -0.225043 -0.531 123 78 73
-0.138314 -0.263091 -0.618 100 101 106
-0.136693 -0.26224 -0.616 96 97 102
-0.129765 -0.260111 -0.611 68 69 74
-0.103138 -0.257557 -0.605 70 71 76
-0.101167 -0.258409 -0.607 71 72 77
-0.0954714 -0.261814 -0.615 74 75 80
-0.0924057 -0.263091 -0.618 75 76 81
-0.0827381 -0.266071 -0.625 74 73 79
0.0675467 -0.20264 -0.476 201 161 151
0.103339 -0.203491 -0.478 124 93 91
0.349791 -0.233717 -0.549 37 30 37
0.356786 -0.236271 -0.555 40 33 40
0.369248 -0.240954 -0.566 36 31 38
0.371634 -0.241806 -0.568 35 30 37
0.379271 -0.243934 -0.573 70 65 71
0.394339 -0.248617 -0.584 51 45 55
0.418198 -0.257131 -0.604 47 45 58
0.4173 -0.249043 -0.585 50 42 53
0.405867 -0.2384 -0.56 140 105 103
0.40609 -0.227757 -0.535 163 110 102
0.410605 -0.225203 -0.529 163 109 99
0.429943 -0.224777 -0.528 135 88 80
1.13616 -0.275863 -0.648 212 214 200
-0.141124 -0.265124 -0.62 105 106 110
-0.131876 -0.260848 -0.61 66 67 71
-0.1305 -0.26042 -0.609 63 64 69
-0.120772 -0.256999 -0.601 68 68 76
-0.118089 -0.256144 -0.599 72 72 80
-0.103946 -0.257854 -0.603 68 67 73
-0.0893057 -0.265551 -0.621 76 77 82
0.0686314 -0.201409 -0.471 201 161 151
0.0744343 -0.200126 -0.468 200 158 146
0.0806743 -0.200126 -0.468 194 150 137
0.0886971 -0.200126 -0.468 175 129 114
0.124829 -0.219796 -0.514 222 226 255
0.358714 -0.238611 -0.558 40 33 41
0.396806 -0.250585 -0.586 37 29 40
0.423284 -0.259992 -0.608 62 59 76
0.405142 -0.239039 -0.559 145 105 103
0.405563 -0.229631 -0.537 163 110 104
0.409123 -0.227066 -0.531 162 108 98
0.427931 -0.225783 -0.528 131 87 76
0.428937 -0.225783 -0.528 131 87 76
0.434788 -0.22621 -0.529 135 88 78
0.487508 -0.238184 -0.557 124 83 77
1.13719 -0.277952 -0.65 204 206 193
-0.125769 -0.259003 -0.603 75 75 83
-0.117694 -0.256426 -0.597 71 71 81
-0.105094 -0.259003 -0.603 64 65 70
-0.102323 -0.260721 -0.607 67 68 73
0.067121 -0.203165 -0.473 201 163 154
0.0806743 -0.201017 -0.468 191 145 132
0.103339 -0.205312 -0.478 118 88 90
0.108324 -0.20789 -0.484 109 84 88
0.114326 -0.212185 -0.494 141 127 142
0.405463 -0.278331 -0.648 150 130 141
0.379933 -0.246547 -0.574 37 31 41
0.385216 -0.247835 -0.577 33 27 37
0.394339 -0.250842 -0.584 34 26 39
0.415667 -0.258573 -0.602 52 48 63
0.421891 -0.260291 -0.606 76 73 90
0.411206 -0.248265 -0.578 50 48 59
0.409123 -0.228077 -0.531 162 108 98
0.417658 -0.227218 -0.529 154 102 91
0.418666 -0.227218 -0.529 153 101 90
0.454834 -0.230225 -0.536 120 80 72
1.13471 -0.27919 -0.65 204 206 193
-0.119768 -0.257131 -0.596 61 61 69
-0.0986638 -0.264466 -0.613 70 70 78
-0.0969571 -0.266191 -0.617 72 72 80
-0.0774 -0.2718 -0.63 73 72 80
0.0708686 -0.201909 -0.468 200 160 150
0.0851314 -0.201909 -0.468 180 134 119
0.0955457 -0.203203 -0.471 141 104 95
0.111533 -0.2114 -0.49 108 85 93
0.357437 -0.242031 -0.561 34 32 43
0.405617 -0.256269 -0.594 42 36 48
0.40994 -0.257563 -0.597 67 61 73
0.406937 -0.246777 -0.572 69 61 72
0.404825 -0.244189 -0.566 109 92 100
0.405822 -0.235991 -0.547 168 115 109
0.411381 -0.228657 -0.53 161 107 97
-0.138469 -0.2704 -0.624 81 82 87
-0.115776 -0.256967 -0.593 62 65 70
-0.10429 -0.262167 -0.605 59 59 69
0.0824571 -0.2028 -0.468 186 140 127
0.108068 -0.211033 -0.487 109 84 88
0.361177 -0.247867 -0.572 65 48 54
0.359986 -0.244833 -0.565 32 30 41
0.376214 -0.249167 -0.575 39 32 39
0.378405 -0.249167 -0.575 32 25 32
0.394339 -0.253067 -0.584 30 24 34
0.409253 -0.258267 -0.596 44 38 50
0.414669 -0.2574 -0.594 49 43 57
0.40612 -0.2366 -0.546 165 112 104
0.423704 -0.229233 -0.529 137 93 80
0.453813 -0.232267 -0.536 117 77 67
1.13348 -0.281667 -0.65 203 205 191
-0.0904886 -0.270283 -0.621 75 75 83
-0.0807429 -0.27333 -0.628 76 75 83
-0.0775229 -0.274635 -0.631 73 72 80
-0.0651171 -0.278117 -0.639 73 72 78
-0.059401 -0.279858 -0.643 72 71 77
-0.05704 -0.280293 -0.644 73 72 78
0.382354 -0.250697 -0.576 27 20 28
0.391638 -0.252438 -0.58 29 24 31
0.40612 -0.23764 -0.546 164 111 103
0.405957 -0.236334 -0.543 160 107 99
0.434788 -0.230241 -0.529 138 94 83
0.440657 -0.230676 -0.53 127 87 75
-0.145811 -0.282394 -0.646 109 113 116
-0.143686 -0.280646 -0.642 104 108 111
-0.133822 -0.270591 -0.619 121 124 129
-0.131143 -0.267531 -0.612 121 124 129
-0.108779 -0.261411 -0.598 52 52 60
-0.0906343 -0.271903 -0.622 74 74 82
-0.0808714 -0.274963 -0.629 77 76 84
-0.0764419 -0.276274 -0.632 74 73 81
-0.0742686 -0.277149 -0.634 74 73 79
-0.05704 -0.28152 -0.644 73 72 78
-0.0488295 -0.283706 -0.649 70 69 77
0.065099 -0.208954 -0.478 207 163 160
0.0690857 -0.204583 -0.468 198 161 152
0.0869143 -0.204583 -0.468 175 127 113
0.09796 -0.207206 -0.474 126 97 99
0.102857 -0.209829 -0.48 113 84 88
0.114303 -0.217697 -0.498 153 134 138
0.382354 -0.251794 -0.576 26 18 29
0.384549 -0.251794 -0.576 18 12 24
0.402548 -0.254854 -0.583 41 31 39
0.4032 -0.251794 -0.576 46 40 52
0.405414 -0.242614 -0.555 160 111 106
0.40669 -0.240866 -0.551 167 112 109
0.405957 -0.237369 -0.543 160 105 102
0.408129 -0.233871 -0.535 160 105 100
0.421897 -0.230811 -0.528 147 95 82
0.426727 -0.231249 -0.529 145 93 82
0.448228 -0.232997 -0.533 123 83 73
0.475455 -0.239554 -0.548 112 78 66
1.13317 -0.282831 -0.647 203 205 191
-0.106857 -0.263429 -0.6 60 60 68
-0.0875 -0.274405 -0.625 74 73 81
-0.0754762 -0.278356 -0.634 75 74 80
-0.0742686 -0.278356 -0.634 75 74 80
-0.0500657 -0.284942 -0.649 71 70 78
0.0957486 -0.20723 -0.472 131 100 95
0.109667 -0.215133 -0.49 106 83 89
0.379721 -0.25333 -0.577 47 34 43
0.380595 -0.252452 -0.575 32 25 33
0.399095 -0.25377 -0.578 44 34 45
0.405086 -0.24411 -0.556 157 108 103
0.406705 -0.238842 -0.544 161 106 103
0.407553 -0.237525 -0.541 161 106 101
0.411146 -0.233134 -0.531 162 107 102
0.423704 -0.232256 -0.529 146 96 85
0.426727 -0.232256 -0.529 144 94 83
0.46046 -0.236647 -0.539 121 83 72
0.4847 -0.243671 -0.555 111 79 66
-0.14124 -0.283091 -0.642 121 122 127
-0.100999 -0.270304 -0.613 59 59 69
-0.0832676 -0.277359 -0.629 76 75 83
-0.0799267 -0.278241 -0.631 76 75 83
-0.0765629 -0.279123 -0.633 75 74 80
-0.0721933 -0.280887 -0.637 74 73 79
-0.0594933 -0.283973 -0.644 72 71 79
-0.0524571 -0.285737 -0.648 72 71 79
0.0724962 -0.205925 -0.467 195 157 144
0.0751648 -0.205925 -0.467 194 152 138
0.0760543 -0.205925 -0.467 191 149 135
0.0917619 -0.207248 -0.47 147 109 98
0.0948495 -0.20813 -0.472 140 103 94
0.105994 -0.214303 -0.486 107 80 85
0.113582 -0.220035 -0.499 133 116 124
0.372729 -0.257957 -0.585 117 76 82
0.375067 -0.255752 -0.58 106 75 80
0.384729 -0.252666 -0.573 16 9 16
0.401249 -0.247374 -0.561 139 99 100
0.403012 -0.246492 -0.559 150 100 101
0.40716 -0.24076 -0.546 159 106 102
0.406705 -0.239878 -0.544 159 104 101
0.423704 -0.233264 -0.529 146 96 87
1.13459 -0.284414 -0.645 203 205 192
-0.106857 -0.265714 -0.6 65 65 75
-0.07098 -0.2821 -0.637 74 73 79
-0.0618505 -0.284757 -0.643 73 72 78
0.0658 -0.208143 -0.47 200 167 160
0.0698276 -0.206814 -0.467 196 159 150
0.0733857 -0.206814 -0.467 192 153 138
0.0959514 -0.209471 -0.473 130 99 94
0.117334 -0.224529 -0.507 193 189 203
0.377469 -0.257743 -0.582 132 97 101
0.394354 -0.251543 -0.568 87 64 72
0.406145 -0.246229 -0.556 158 107 103
0.412157 -0.235157 -0.531 161 106 103
0.441667 -0.234714 -0.53 129 86 77
0.446373 -0.2356 -0.532 124 84 74
0.456706 -0.237814 -0.537 119 81 70
0.474588 -0.242243 -0.547 115 75 67
0.583762 -0.287857 -0.65 223 220 229
1.13388 -0.286086 -0.646 204 206 192
-0.14256 -0.288206 -0.648 118 121 126
-0.11592 -0.26152 -0.588 111 114 121
-0.09434 -0.277087 -0.623 65 64 72
-0.0525381 -0.28865 -0.649 72 71 79
0.0833486 -0.208149 -0.468 175 129 114
0.0851314 -0.208149 -0.468 169 121 109
0.377186 -0.260186 -0.585 135 96 101
0.385971 -0.253514 -0.57 90 69 76
0.398043 -0.249511 -0.561 124 85 86
0.406145 -0.247288 -0.556 157 107 100
0.407429 -0.245509 -0.552 156 106 99
0.408368 -0.239282 -0.538 152 97 94
0.418666 -0.235279 -0.529 156 101 94
0.426727 -0.235279 -0.529 144 94 87
0.434788 -0.235279 -0.529 140 93 83
0.453813 -0.238392 -0.536 119 81 70
0.462343 -0.240171 -0.54 124 86 75
1.12357 -0.289095 -0.65 205 207 193
-0.0967133 -0.278273 -0.623 60 60 68
-0.0912171 -0.279613 -0.626 68 69 74
-0.0800533 -0.282293 -0.632 76 75 83
-0.0664381 -0.285867 -0.64 73 72 78
-0.0653209 -0.286313 -0.641 73 72 78
-0.0549257 -0.28944 -0.648 71 70 78
0.0696781 -0.208147 -0.466 197 157 147
0.072341 -0.208147 -0.466 193 153 141
0.0919571 -0.21038 -0.471 140 103 94
0.379414 -0.2613 -0.585 137 100 107
0.38169 -0.256833 -0.575 142 107 113
0.385699 -0.253707 -0.568 115 86 91
0.400883 -0.249687 -0.559 142 94 94
0.409127 -0.240753 -0.539 150 97 91
0.434788 -0.236287 -0.529 139 92 82
1.13365 -0.286313 -0.641 204 207 196
0.0679029 -0.209034 -0.466 200 160 150
0.0732286 -0.209034 -0.466 196 152 141
0.0963571 -0.213071 -0.475 120 92 89
0.38169 -0.257929 -0.575 147 111 115
0.382298 -0.256134 -0.571 139 103 105
0.393067 -0.2512 -0.56 127 90 97
0.401229 -0.250303 -0.558 139 93 95
0.408048 -0.246714 -0.55 152 99 95
0.427734 -0.237294 -0.529 147 97 88
0.432772 -0.237294 -0.529 139 91 81
0.435795 -0.237294 -0.529 136 89 81
0.458581 -0.241331 -0.538 123 85 76
1.12308 -0.291123 -0.649 205 207 193
-0.0925571 -0.282449 -0.627 61 61 69
-0.0835324 -0.28425 -0.631 72 71 79
-0.0823305 -0.28425 -0.631 73 72 80
-0.0699857 -0.287854 -0.639 76 75 83
-0.0538571 -0.29281 -0.65 70 70 78
0.0769438 -0.210372 -0.467 183 141 129
0.103005 -0.218481 -0.485 107 80 85
0.103929 -0.218481 -0.485 107 80 85
0.388738 -0.253618 -0.563 127 92 98
0.389494 -0.252717 -0.561 131 95 97
0.409339 -0.244158 -0.542 150 97 91
0.409654 -0.241906 -0.537 156 103 97
0.4134 -0.238752 -0.53 155 105 94
0.420467 -0.238752 -0.53 156 108 94
0.42975 -0.238302 -0.529 143 95 85
0.438638 -0.238752 -0.53 128 83 77
0.456706 -0.241906 -0.537 121 83 74
0.467152 -0.244158 -0.542 124 86 77
0.477369 -0.247311 -0.549 117 79 66
1.09138 -0.29281 -0.65 207 209 195
1.09757 -0.29281 -0.65 206 208 194
1.10948 -0.292359 -0.649 205 207 193
1.12382 -0.291909 -0.648 205 207 193
1.13071 -0.291458 -0.647 204 207 190
1.13459 -0.290557 -0.645 204 206 192
-0.0847343 -0.285452 -0.631 69 68 76
-0.0836648 -0.285905 -0.632 71 70 78
-0.0666457 -0.290429 -0.642 75 74 80
-0.052619 -0.294048 -0.65 70 70 80
0.0637371 -0.211714 -0.468 202 162 152
0.0686429 -0.210357 -0.465 196 158 147
0.0890762 -0.212619 -0.47 146 106 98
0.0956533 -0.215333 -0.476 121 92 84
0.386624 -0.27369 -0.605 126 90 92
0.381247 -0.262833 -0.581 147 107 107
0.381919 -0.261024 -0.577 144 108 112
0.38212 -0.259667 -0.574 144 104 112
0.384617 -0.256952 -0.568 139 100 105
0.3888 -0.253333 -0.56 131 90 94
0.392726 -0.252429 -0.558 127 87 88
0.401909 -0.251524 -0.556 139 93 93
0.434788 -0.23931 -0.529 133 89 80
0.446373 -0.240667 -0.532 126 83 74
0.468014 -0.245643 -0.543 124 81 75
0.498619 -0.256048 -0.566 123 85 76
1.08847 -0.293595 -0.649 207 210 193
1.09217 -0.293595 -0.649 206 208 194
1.09341 -0.293595 -0.649 207 209 195
1.1033 -0.293595 -0.649 206 208 194
1.12382 -0.293143 -0.648 205 207 193
1.12701 -0.29269 -0.647 204 207 190
1.13019 -0.292238 -0.646 203 205 191
-0.116244 -0.265303 -0.584 102 103 108
-0.110883 -0.268483 -0.591 62 63 68
-0.0949457 -0.284837 -0.627 59 60 65
-0.0916543 -0.285746 -0.629 59 60 65
-0.0825914 -0.287563 -0.633 70 69 77
-0.0562467 -0.294831 -0.649 70 70 78
-0.0550105 -0.294831 -0.649 70 70 78
0.0670152 -0.211697 -0.466 197 159 150
0.0831705 -0.212151 -0.467 167 120 110
0.0890762 -0.213514 -0.47 144 103 97
0.098081 -0.217603 -0.479 114 85 87
0.10074 -0.21942 -0.483 108 81 86
0.39893 -0.285291 -0.628 127 86 90
0.385714 -0.272571 -0.6 133 92 98
0.396266 -0.253037 -0.557 131 89 91
0.4082 -0.24804 -0.546 148 98 91
0.410417 -0.244406 -0.538 150 100 91
0.41192 -0.24168 -0.532 154 105 91
0.417438 -0.240771 -0.53 157 105 92
0.435795 -0.240317 -0.529 133 89 80
0.4425 -0.241226 -0.531 128 84 75
0.443511 -0.241226 -0.531 128 86 74
0.451948 -0.243043 -0.535 123 80 73
0.507853 -0.26076 -0.574 128 91 83
1.02576 -0.295286 -0.65 210 212 199
1.07281 -0.295286 -0.65 207 209 195
1.07529 -0.295286 -0.65 206 208 194
1.0897 -0.294831 -0.649 206 208 194
1.10577 -0.294831 -0.649 205 207 193
1.13283 -0.29256 -0.644 203 205 191
-0.11256 -0.26824 -0.588 85 86 91
-0.11163 -0.268696 -0.589 70 71 76
-0.0609086 -0.294699 -0.646 71 72 77
-0.0573943 -0.295611 -0.648 70 71 76
0.0677571 -0.212129 -0.465 195 155 145
0.0794419 -0.212585 -0.466 172 130 116
0.101157 -0.221252 -0.485 106 81 87
0.39034 -0.27782 -0.609 130 89 93
0.386212 -0.273258 -0.599 135 96 101
0.385419 -0.258204 -0.566 138 97 101
0.387733 -0.255467 -0.56 132 90 92
0.4033 -0.253186 -0.555 148 99 95
0.40774 -0.251361 -0.551 148 99 92
0.40924 -0.24908 -0.546 149 99 90
0.422696 -0.241325 -0.529 154 102 91
0.451948 -0.244062 -0.535 124 81 72
0.455683 -0.244974 -0.537 125 82 75
0.47372 -0.24908 -0.546 119 79 71
0.478414 -0.250449 -0.549 117 79 68
1.0109 -0.296524 -0.65 210 212 198
1.01553 -0.296068 -0.649 210 212 199
1.02913 -0.296068 -0.649 210 212 199
1.03531 -0.296068 -0.649 208 210 197
1.08432 -0.295611 -0.648 208 211 194
1.08555 -0.295611 -0.648 207 210 193
1.09173 -0.295611 -0.648 206 208 194
1.10654 -0.295611 -0.648 206 208 194
-0.11163 -0.269818 -0.589 66 67 72
-0.0907438 -0.289058 -0.631 56 55 61
-0.0702048 -0.293639 -0.641 73 72 80
-0.0562467 -0.297304 -0.649 71 72 77
0.0613238 -0.215305 -0.47 199 163 151
0.0686429 -0.213014 -0.465 192 152 142
0.0695286 -0.213014 -0.465 191 151 139
0.0730714 -0.213014 -0.465 190 148 136
0.0758914 -0.213472 -0.466 184 140 127
0.0934457 -0.217137 -0.474 124 91 86
0.0971686 -0.219428 -0.479 109 84 90
0.105214 -0.224925 -0.491 101 78 84
0.402674 -0.289516 -0.632 128 89 90
0.385814 -0.258824 -0.565 136 96 97
0.40606 -0.253327 -0.553 154 103 99
0.407 -0.251952 -0.55 148 98 91
0.408351 -0.251494 -0.549 146 96 89
0.410094 -0.248746 -0.543 151 101 92
0.411679 -0.244165 -0.533 152 102 91
0.420467 -0.24279 -0.53 159 107 94
0.430757 -0.242332 -0.529 142 94 84
0.443333 -0.243707 -0.532 133 87 74
0.451948 -0.245081 -0.535 125 81 72
0.478414 -0.251494 -0.549 118 78 68
0.989857 -0.297762 -0.65 211 213 199
0.997286 -0.297762 -0.65 210 212 199
1.0109 -0.297762 -0.65 210 212 199
1.01059 -0.297304 -0.649 211 213 200
1.05176 -0.297762 -0.65 208 210 196
1.08185 -0.296846 -0.648 208 211 194
1.10236 -0.296388 -0.647 206 208 194
1.11222 -0.296388 -0.647 205 207 193
1.12281 -0.29593 -0.646 204 207 190
1.13298 -0.294097 -0.642 204 206 193
-0.117356 -0.26864 -0.584 96 96 104
-0.0781371 -0.29256 -0.636 70 69 77
0.0721857 -0.2139 -0.465 190 148 136
0.0871 -0.21574 -0.469 148 105 99
0.105429 -0.22632 -0.492 101 80 87
0.383881 -0.2645 -0.575 141 101 101
0.392022 -0.25622 -0.557 139 95 96
0.393436 -0.25576 -0.556 133 91 92
0.403953 -0.25438 -0.553 153 102 98
0.40669 -0.25346 -0.551 153 103 96
0.407 -0.253 -0.55 151 101 94
0.408651 -0.25208 -0.548 149 99 92
0.411129 -0.24978 -0.543 153 103 94
0.425719 -0.24334 -0.529 149 97 86
0.428742 -0.24334 -0.529 145 95 84
0.43378 -0.24334 -0.529 135 89 76
0.441489 -0.24426 -0.531 132 86 71
0.455683 -0.24702 -0.537 126 82 71
0.459433 -0.24794 -0.539 127 84 75
0.46423 -0.24886 -0.541 127 84 75
0.995751 -0.29854 -0.649 209 211 198
1.00193 -0.29854 -0.649 210 212 198
1.02754 -0.29808 -0.648 209 211 197
1.0452 -0.29854 -0.649 209 211 198
1.04767 -0.29854 -0.649 208 210 197
1.06251 -0.29854 -0.649 207 209 195
1.06498 -0.29854 -0.649 208 210 196
1.07074 -0.29808 -0.648 206 209 192
1.12281 -0.29716 -0.646 203 206 189
1.12404 -0.29716 -0.646 204 207 190
1.12721 -0.2967 -0.645 204 206 192
1.12984 -0.29578 -0.643 204 206 192
1.13151 -0.2921 -0.635 203 205 194
-0.117356 -0.269752 -0.584 93 96 103
-0.110129 -0.27391 -0.593 78 81 86
-0.1002 -0.291 -0.63 65 66 71
-0.0875524 -0.292848 -0.634 59 58 66
-0.0690914 -0.296543 -0.642 73 72 80
0.0677571 -0.214786 -0.465 192 152 142
0.08424 -0.216171 -0.468 151 108 102
0.38589 -0.26929 -0.583 142 101 97
0.384976 -0.265595 -0.575 141 101 102
0.386593 -0.260052 -0.563 131 89 90
0.400793 -0.255433 -0.553 151 102 97
0.408651 -0.253124 -0.548 150 100 93
0.462343 -0.249429 -0.54 132 88 77
0.469912 -0.251276 -0.544 125 78 72
0.490509 -0.257743 -0.558 124 81 72
0.894524 -0.300238 -0.65 215 217 206
0.925476 -0.300238 -0.65 213 215 204
0.973762 -0.300238 -0.65 211 213 200
0.982153 -0.299776 -0.649 212 214 200
0.994515 -0.299776 -0.649 211 213 200
1.00903 -0.299314 -0.648 211 213 199
1.01273 -0.299314 -0.648 209 211 198
1.01856 -0.298852 -0.647 209 211 198
1.02472 -0.298852 -0.647 209 211 198
1.05632 -0.299776 -0.649 208 210 197
1.0584 -0.299314 -0.648 207 209 196
1.06334 -0.299314 -0.648 207 209 195
1.07402 -0.298852 -0.647 206 208 194
1.08299 -0.297929 -0.645 206 209 192
1.11001 -0.297929 -0.645 207 209 195
1.11912 -0.29839 -0.646 204 206 192
1.12862 -0.297005 -0.643 203 205 191
1.13053 -0.296543 -0.642 204 206 192
1.13175 -0.296543 -0.642 203 205 191
-0.118469 -0.270865 -0.584 97 97 105
-0.114934 -0.270401 -0.583 90 90 98
-0.106771 -0.281069 -0.606 87 88 93
-0.0958543 -0.293591 -0.633 55 56 61
-0.0852714 -0.294519 -0.635 60 59 67
-0.0817714 -0.294983 -0.636 68 67 75
-0.0656267 -0.298693 -0.644 73 72 80
0.0616895 -0.216135 -0.466 198 159 152
0.0785543 -0.216135 -0.466 171 131 123
0.0894552 -0.218918 -0.472 133 95 92
0.411547 -0.298693 -0.644 109 98 114
0.387876 -0.271792 -0.586 139 98 96
0.38678 -0.269473 -0.581 143 99 98
0.386593 -0.261125 -0.563 132 90 91
0.393786 -0.257414 -0.555 134 92 93
0.407 -0.255095 -0.55 155 105 98
0.40924 -0.25324 -0.546 152 103 96
0.419457 -0.245819 -0.53 157 107 96
0.437629 -0.245819 -0.53 131 84 74
0.926525 -0.301012 -0.649 214 216 205
0.986811 -0.300549 -0.648 210 212 198
1.00656 -0.300549 -0.648 210 212 198
1.01822 -0.299621 -0.646 210 212 199
1.04482 -0.300549 -0.648 208 210 196
1.06786 -0.300085 -0.647 207 209 195
1.07439 -0.299157 -0.645 207 209 195
1.08376 -0.298693 -0.644 206 209 192
1.08913 -0.299157 -0.645 206 208 194
1.09036 -0.299157 -0.645 206 208 194
-0.132643 -0.288277 -0.619 97 100 107
-0.119581 -0.271977 -0.584 97 97 105
-0.117155 -0.271511 -0.583 95 95 103
-0.110883 -0.275237 -0.591 72 72 80
-0.0925286 -0.295729 -0.635 56 55 61
-0.0866171 -0.296194 -0.636 56 55 63
-0.0748543 -0.297591 -0.639 71 70 78
0.0631924 -0.216091 -0.464 195 159 147
0.0676114 -0.216091 -0.464 193 155 144
0.0721857 -0.216557 -0.465 188 146 134
0.0803295 -0.217023 -0.466 166 123 116
0.0853133 -0.21842 -0.469 143 104 97
0.0872857 -0.218886 -0.47 139 101 92
0.0966581 -0.224009 -0.481 106 86 88
0.1065 -0.23146 -0.497 103 80 86
0.390524 -0.274771 -0.59 135 95 95
0.386781 -0.264526 -0.568 136 92 91
0.38728 -0.262663 -0.564 135 91 92
0.391318 -0.258937 -0.556 136 94 95
0.409529 -0.253814 -0.545 153 105 95
0.411129 -0.252883 -0.543 151 103 91
0.436619 -0.246829 -0.53 133 85 75
0.47372 -0.25428 -0.546 122 80 68
0.977894 -0.301317 -0.647 212 214 200
0.980359 -0.301317 -0.647 212 214 200
0.986521 -0.301317 -0.647 211 213 200
1.04075 -0.301317 -0.647 208 210 196
1.0764 -0.29992 -0.644 206 208 194
1.07595 -0.299454 -0.643 206 208 194
1.08867 -0.29992 -0.644 206 208 194
1.09235 -0.29992 -0.644 206 208 194
1.09848 -0.29992 -0.644 205 207 194
1.10879 -0.300386 -0.645 206 208 194
1.12494 -0.299454 -0.643 204 206 192
1.13199 -0.297126 -0.638 203 205 192
1.13265 -0.29666 -0.637 202 204 191
-0.12152 -0.27496 -0.588 94 94 102
-0.104177 -0.288989 -0.618 81 82 87
-0.0876905 -0.296938 -0.635 54 53 59
-0.0866171 -0.297406 -0.636 55 54 60
-0.0714257 -0.299744 -0.641 72 71 79
-0.0538571 -0.303952 -0.65 71 70 78
0.0730714 -0.217443 -0.465 184 141 132
0.0883686 -0.220249 -0.471 132 95 89
0.10044 -0.227263 -0.486 103 82 87
0.393171 -0.277766 -0.594 138 93 96
0.390109 -0.274025 -0.586 130 89 87
0.386378 -0.266075 -0.569 136 91 88
0.388106 -0.261399 -0.559 142 94 92
0.403857 -0.25719 -0.55 163 113 104
0.405214 -0.256723 -0.549 158 110 98
0.40626 -0.256723 -0.549 157 107 98
0.40924 -0.25532 -0.546 153 103 92
0.418226 -0.248306 -0.531 154 105 91
0.480333 -0.25719 -0.55 125 83 71
0.922629 -0.303017 -0.648 214 216 205
0.931269 -0.303017 -0.648 213 215 202
0.998845 -0.30255 -0.647 211 213 200
1.05553 -0.30255 -0.647 208 210 196
1.06824 -0.301614 -0.645 206 208 194
1.0833 -0.300679 -0.643 205 207 193
1.10461 -0.301147 -0.644 205 207 193
1.11811 -0.301147 -0.644 205 207 193
1.12179 -0.301147 -0.644 206 208 194
1.13189 -0.299276 -0.64 204 206 192
1.13272 -0.296938 -0.635 205 207 194
-0.129128 -0.28547 -0.608 94 97 104
-0.1131 -0.274671 -0.585 77 77 85
-0.109757 -0.277489 -0.591 102 102 110
-0.103667 -0.292044 -0.622 82 83 88
-0.102274 -0.294861 -0.628 77 77 85
-0.098421 -0.297678 -0.634 67 67 75
-0.0797229 -0.300026 -0.639 64 63 71
-0.0726467 -0.300965 -0.641 72 71 79
-0.0668533 -0.302373 -0.644 72 71 77
-0.0621391 -0.303312 -0.646 74 73 81
0.0907371 -0.222554 -0.474 118 90 89
0.407738 -0.293452 -0.625 130 91 92
0.388003 -0.269037 -0.573 135 91 90
0.387357 -0.263403 -0.561 141 93 91
0.395527 -0.259647 -0.553 149 102 96
0.40626 -0.257769 -0.549 161 111 102
0.413233 -0.253073 -0.539 147 99 85
0.418 -0.249787 -0.532 152 103 89
0.42126 -0.249317 -0.531 152 103 89
0.889163 -0.303782 -0.647 215 216 208
0.917508 -0.303782 -0.647 214 215 207
0.926134 -0.303782 -0.647 213 215 204
0.929831 -0.303782 -0.647 213 215 204
1.01664 -0.302843 -0.645 210 212 198
1.04652 -0.303312 -0.646 209 211 197
1.06456 -0.302843 -0.645 206 208 194
1.06536 -0.302373 -0.644 206 208 194
1.07673 -0.301434 -0.642 206 208 195
1.08453 -0.301904 -0.643 206 208 194
1.0882 -0.301904 -0.643 207 209 195
1.10584 -0.302373 -0.644 205 207 194
1.11025 -0.301904 -0.643 205 207 194
1.13067 -0.300495 -0.64 203 205 192
1.13133 -0.300026 -0.639 203 206 189
-0.07276 -0.302657 -0.642 73 72 80
0.060541 -0.218743 -0.464 195 158 152
0.0748429 -0.219214 -0.465 175 132 125
0.0757286 -0.219214 -0.465 174 131 124
0.0874714 -0.222043 -0.471 132 95 89
0.0981829 -0.228171 -0.484 102 79 87
0.408929 -0.294643 -0.625 122 91 96
0.397622 -0.282386 -0.599 133 87 87
0.396914 -0.260229 -0.552 157 107 100
0.404169 -0.258814 -0.549 163 113 104
0.409813 -0.256457 -0.544 158 108 97
0.411129 -0.255986 -0.543 156 106 95
0.412436 -0.255514 -0.542 152 102 91
0.425514 -0.249857 -0.53 148 100 88
0.428742 -0.249386 -0.529 142 94 82
0.439466 -0.250329 -0.531 137 91 78
0.443333 -0.2508 -0.532 135 87 75
0.450929 -0.252214 -0.535 130 83 73
0.472852 -0.256929 -0.545 127 84 75
0.918551 -0.304543 -0.646 213 214 206
0.919781 -0.304543 -0.646 213 214 206
0.924703 -0.304543 -0.646 212 214 203
0.927164 -0.304543 -0.646 213 215 204
1.00559 -0.304071 -0.645 209 211 198
1.01629 -0.3036 -0.644 210 212 198
1.0449 -0.304071 -0.645 208 210 197
1.04859 -0.304071 -0.645 208 210 197
1.04981 -0.304071 -0.645 208 210 197
1.0686 -0.303129 -0.643 207 209 195
1.0914 -0.302657 -0.642 205 207 193
1.11586 -0.302657 -0.642 204 206 192
1.13156 -0.298414 -0.633 201 203 192
-0.115647 -0.275007 -0.581 94 94 102
-0.0738676 -0.303407 -0.641 71 70 78
0.0676114 -0.219627 -0.464 188 147 143
0.0920267 -0.225307 -0.476 111 85 88
0.398294 -0.260807 -0.551 162 112 105
0.407906 -0.258913 -0.547 162 109 101
