ply
format ascii 1.0
comment Created by Open3D
element vertex 1275
property double x
property double y
property double z
property uchar red
property uchar green
property uchar blue
end_header
0.168583 -0.406983 -0.596 116 149 202
0.171989 -0.406983 -0.596 90 126 184
0.196303 -0.405617 -0.594 98 125 168
0.221194 -0.405617 -0.594 192 206 235
0.2295 -0.4063 -0.595 124 157 192
0.235167 -0.4063 -0.595 108 138 188
0.315702 -0.404934 -0.593 232 235 254
0.343389 -0.405617 -0.594 114 142 179
0.365401 -0.404934 -0.593 145 179 227
0.372178 -0.404934 -0.593 190 213 244
0.422589 -0.405617 -0.594 110 138 177
0.438033 -0.4063 -0.595 189 191 206
0.441433 -0.4063 -0.595 191 189 211
0.4573 -0.4063 -0.595 177 184 202
0.500099 -0.404251 -0.592 166 172 186
0.463274 -0.342794 -0.502 168 120 97
0.467123 -0.342111 -0.501 175 127 104
0.488117 -0.342111 -0.501 162 117 94
-0.00651429 -0.312251 -0.456 200 161 130
-0.000435238 -0.312936 -0.457 200 161 132
0.00130571 -0.312936 -0.457 198 159 130
0.026241 -0.319784 -0.467 160 120 108
0.049 -0.335533 -0.49 140 107 102
0.0923867 -0.393053 -0.574 227 226 242
0.109734 -0.408803 -0.597 101 133 182
0.115227 -0.408118 -0.596 145 168 212
0.134977 -0.409488 -0.598 154 177 221
0.137255 -0.409488 -0.598 92 120 183
0.142711 -0.408803 -0.597 66 99 168
0.179633 -0.407433 -0.595 78 120 180
0.203091 -0.406749 -0.594 85 115 177
0.219692 -0.406064 -0.593 208 221 240
0.234771 -0.406749 -0.594 118 148 198
0.239297 -0.406749 -0.594 107 149 209
0.258531 -0.406749 -0.594 217 229 253
0.260794 -0.406749 -0.594 207 223 249
0.268262 -0.406064 -0.593 100 129 187
0.29537 -0.406064 -0.593 152 179 234
0.306666 -0.406064 -0.593 146 180 228
0.310659 -0.405379 -0.592 215 234 255
0.335467 -0.405379 -0.592 138 169 215
0.347914 -0.406749 -0.594 201 199 204
0.359753 -0.406064 -0.593 132 160 207
0.4539 -0.407433 -0.595 179 180 208
0.4709 -0.407433 -0.595 183 190 208
0.478833 -0.407433 -0.595 150 165 194
0.489343 -0.406749 -0.594 85 108 149
0.490474 -0.406749 -0.594 92 117 158
0.501506 -0.404694 -0.591 152 160 181
0.488052 -0.38689 -0.565 136 103 96
0.458503 -0.353337 -0.516 163 122 102
0.463239 -0.344435 -0.503 170 122 100
0.466169 -0.343066 -0.501 170 124 101
0.477614 -0.341696 -0.499 166 118 96
0.0171229 -0.316553 -0.461 177 136 114
0.0198 -0.31724 -0.462 174 133 113
0.0698286 -0.357067 -0.52 120 99 98
0.0801571 -0.37286 -0.543 122 102 104
0.0832857 -0.377667 -0.55 200 187 196
0.106323 -0.40994 -0.597 130 157 204
0.127714 -0.409253 -0.596 129 142 176
0.132477 -0.40994 -0.597 164 182 218
0.150671 -0.40994 -0.597 99 125 186
0.155833 -0.408567 -0.595 133 152 195
0.179331 -0.40788 -0.594 78 120 180
0.253578 -0.407193 -0.593 228 236 255
0.265554 -0.406507 -0.592 123 151 201
0.36253 -0.406507 -0.592 162 188 225
0.376061 -0.406507 -0.592 213 216 231
0.382344 -0.407193 -0.593 179 193 219
0.389121 -0.407193 -0.593 159 170 190
0.39025 -0.407193 -0.593 159 170 190
0.419618 -0.407193 -0.593 152 166 201
0.430913 -0.407193 -0.593 92 125 158
0.465583 -0.40788 -0.594 178 186 205
0.495 -0.40788 -0.594 77 109 168
0.459 -0.3502 -0.51 168 121 103
0.469031 -0.34402 -0.501 168 122 99
-0.0117257 -0.313989 -0.456 201 165 133
0.00390857 -0.313989 -0.456 191 154 125
0.0253514 -0.321563 -0.467 160 120 110
0.0397714 -0.330514 -0.48 143 111 98
0.04278 -0.33258 -0.483 142 110 99
0.0585714 -0.344286 -0.5 133 104 100
0.0869333 -0.3856 -0.56 222 220 241
0.1105 -0.4097 -0.595 100 135 191
0.122038 -0.410389 -0.596 183 190 216
0.126367 -0.4097 -0.595 135 141 167
0.1275 -0.4097 -0.595 110 127 170
0.136796 -0.410389 -0.596 90 120 174
0.143608 -0.410389 -0.596 66 96 166
0.1513 -0.4097 -0.595 82 113 180
0.22647 -0.408323 -0.593 222 224 249
0.230988 -0.408323 -0.593 124 157 200
0.278614 -0.406946 -0.591 194 204 229
0.281991 -0.406946 -0.591 237 240 255
0.285369 -0.406946 -0.591 200 195 201
0.298877 -0.406946 -0.591 154 187 232
0.316889 -0.406946 -0.591 220 228 249
0.318014 -0.406946 -0.591 211 216 235
0.332649 -0.406946 -0.591 140 154 180
0.336594 -0.407634 -0.592 184 201 229
0.361402 -0.407634 -0.592 164 184 221
0.389592 -0.407634 -0.592 180 188 207
0.402675 -0.408323 -0.593 179 187 208
0.411711 -0.408323 -0.593 169 184 207
0.434302 -0.408323 -0.593 124 147 178
0.43995 -0.408323 -0.593 190 191 211
0.442209 -0.408323 -0.593 154 160 186
0.48626 -0.408323 -0.593 128 141 175
0.459971 -0.351171 -0.51 169 122 104
0.471911 -0.343597 -0.499 172 124 102
0.486169 -0.343597 -0.499 163 117 94
0.493872 -0.345663 -0.502 156 111 88
-0.0187562 -0.316238 -0.458 197 162 132
-0.0134629 -0.314857 -0.456 201 164 135
-0.0108333 -0.314167 -0.455 201 165 133
-0.00217143 -0.314857 -0.456 200 161 130
0.00738286 -0.314857 -0.456 189 152 125
0.00914 -0.315548 -0.457 187 150 121
0.0100105 -0.315548 -0.457 185 148 119
0.0244095 -0.321762 -0.466 161 121 111
0.0406857 -0.331429 -0.48 143 110 101
0.0510743 -0.339714 -0.492 138 108 100
0.0671952 -0.355595 -0.515 123 101 103
0.129767 -0.410833 -0.595 123 145 194
0.142233 -0.410833 -0.595 67 97 167
0.1479 -0.410833 -0.595 87 117 171
0.155571 -0.410143 -0.594 176 193 223
0.16236 -0.410143 -0.594 172 186 215
0.18211 -0.408762 -0.592 193 210 236
0.202408 -0.408762 -0.592 102 128 187
0.208046 -0.408762 -0.592 88 119 176
0.252023 -0.408762 -0.592 224 231 249
0.255406 -0.408762 -0.592 223 230 255
0.257661 -0.408762 -0.592 199 206 232
0.332086 -0.407381 -0.59 151 160 177
0.348409 -0.408071 -0.591 218 222 234
0.356289 -0.408071 -0.591 184 192 213
0.359666 -0.408071 -0.591 144 166 205
0.392975 -0.408762 -0.592 155 166 184
0.40989 -0.408762 -0.592 90 113 144
0.43808 -0.408762 -0.592 185 190 209
0.448986 -0.409452 -0.593 178 191 210
0.453504 -0.409452 -0.593 178 187 196
0.46141 -0.409452 -0.593 178 184 196
0.48626 -0.409452 -0.593 141 155 190
0.477543 -0.378381 -0.548 145 114 96
0.470149 -0.370095 -0.536 144 113 95
0.461169 -0.358357 -0.519 161 120 98
0.459825 -0.353524 -0.512 169 122 104
0.462281 -0.34731 -0.503 170 123 103
-0.0143 -0.315033 -0.455 200 164 132
-0.0134333 -0.315033 -0.455 201 164 135
0.00825143 -0.315726 -0.456 187 150 121
0.0135219 -0.31711 -0.458 182 142 117
0.0152667 -0.31711 -0.458 177 136 114
0.0216067 -0.320572 -0.463 169 128 110
0.0348333 -0.328881 -0.475 151 113 104
0.0358133 -0.329573 -0.476 149 111 102
0.0406857 -0.332343 -0.48 143 109 100
0.0530562 -0.341344 -0.493 137 106 101
0.0923867 -0.397427 -0.574 175 182 200
0.136567 -0.411967 -0.595 68 99 163
0.186306 -0.409197 -0.591 213 220 238
0.231334 -0.409197 -0.591 145 180 220
0.24034 -0.409197 -0.591 142 178 226
0.245969 -0.409197 -0.591 222 233 251
0.252723 -0.409197 -0.591 231 237 253
0.265106 -0.409197 -0.591 155 178 220
0.268483 -0.409197 -0.591 147 165 201
0.279267 -0.408505 -0.59 187 203 229
0.301743 -0.408505 -0.59 190 213 254
0.311857 -0.408505 -0.59 230 233 248
0.326467 -0.408505 -0.59 198 210 232
0.378803 -0.409197 -0.591 128 145 175
0.38218 -0.409197 -0.591 175 189 218
0.394563 -0.409197 -0.591 183 189 203
0.402443 -0.409197 -0.591 191 197 211
0.415951 -0.409197 -0.591 193 201 222
0.426804 -0.40989 -0.592 115 145 195
0.439208 -0.40989 -0.592 155 162 181
0.452739 -0.40989 -0.592 169 174 178
0.45725 -0.40989 -0.592 179 186 196
0.492206 -0.40989 -0.592 79 110 167
0.462147 -0.350345 -0.506 169 122 102
0.463274 -0.347575 -0.502 173 125 103
0.475713 -0.345498 -0.499 175 127 105
0.480451 -0.344806 -0.498 172 126 103
0.4814 -0.344806 -0.498 166 120 97
-0.0195857 -0.317289 -0.457 198 161 132
-0.00216667 -0.3159 -0.455 200 159 127
0.0179619 -0.319371 -0.46 173 132 114
0.0198 -0.32076 -0.462 172 130 114
0.0309514 -0.327009 -0.471 155 117 106
0.03672 -0.33048 -0.476 147 110 101
0.0437 -0.33534 -0.483 141 106 100
0.0447124 -0.336034 -0.484 141 106 100
0.0644733 -0.353391 -0.509 127 103 103
0.08164 -0.37908 -0.546 113 105 128
0.111258 -0.411711 -0.593 102 135 180
0.178426 -0.410323 -0.591 108 143 199
0.195642 -0.411017 -0.592 152 174 215
0.200152 -0.411017 -0.592 96 122 181
0.204663 -0.411017 -0.592 128 155 202
0.245969 -0.410323 -0.591 224 235 253
0.315229 -0.409629 -0.59 223 231 252
0.323095 -0.409629 -0.59 191 203 229
0.33321 -0.409629 -0.59 191 200 217
0.340529 -0.410323 -0.591 206 213 239
0.363043 -0.410323 -0.591 144 177 218
0.375426 -0.410323 -0.591 204 213 230
0.3894 -0.409629 -0.59 200 209 226
0.391648 -0.409629 -0.59 193 201 214
0.401762 -0.409629 -0.59 196 202 214
0.409629 -0.409629 -0.59 79 103 137
0.442969 -0.410323 -0.591 129 148 181
0.448229 -0.411017 -0.592 178 188 198
0.465143 -0.411017 -0.592 178 185 193
0.483185 -0.411017 -0.592 146 159 193
0.490249 -0.410323 -0.591 56 91 147
0.50232 -0.40824 -0.588 148 161 193
0.468095 -0.347143 -0.5 171 125 102
0.471911 -0.346449 -0.499 169 121 99
0.492857 -0.347143 -0.5 160 115 92
0.497697 -0.348531 -0.502 155 110 87
-0.0195429 -0.317463 -0.456 199 162 133
-0.00908 -0.31607 -0.454 198 157 127
-0.00475619 -0.31607 -0.454 200 161 130
0.000432381 -0.31607 -0.454 197 156 126
0.0117514 -0.318159 -0.457 187 146 118
0.0152667 -0.318855 -0.458 173 130 113
0.0234714 -0.323729 -0.465 165 123 109
0.0426029 -0.334868 -0.481 141 108 101
0.108051 -0.413537 -0.594 92 125 179
0.1386 -0.413537 -0.594 73 105 164
0.141994 -0.413537 -0.594 78 108 170
0.14652 -0.413537 -0.594 129 155 216
0.15531 -0.412841 -0.593 211 216 238
0.16942 -0.411449 -0.591 95 131 181
0.187114 -0.410752 -0.59 220 220 230
0.19306 -0.411449 -0.591 164 181 211
0.204317 -0.411449 -0.591 139 164 204
0.241057 -0.410752 -0.59 142 165 206
0.27094 -0.410056 -0.589 179 199 226
0.313572 -0.410056 -0.589 233 233 255
0.316938 -0.410056 -0.589 175 191 216
0.371419 -0.410752 -0.59 205 212 228
0.389862 -0.410056 -0.589 198 206 219
0.401762 -0.410752 -0.59 198 205 215
0.411876 -0.410752 -0.59 87 108 139
0.417495 -0.410752 -0.59 173 188 207
0.420867 -0.410752 -0.59 113 139 174
0.449723 -0.411449 -0.591 188 189 194
0.483185 -0.412145 -0.592 113 131 171
0.489123 -0.411449 -0.591 31 66 124
0.502584 -0.408664 -0.587 160 159 173
0.49389 -0.395436 -0.568 137 110 99
0.460873 -0.355753 -0.511 167 122 103
0.461978 -0.354361 -0.509 169 122 102
0.46423 -0.349488 -0.502 166 119 99
0.467143 -0.348095 -0.5 176 129 109
0.522416 -0.35993 -0.517 150 109 87
0.586883 -0.396132 -0.569 188 178 179
-0.0204114 -0.318331 -0.456 200 163 134
-0.0160333 -0.317633 -0.455 199 163 131
-0.00994476 -0.316935 -0.454 200 159 131
-0.00302667 -0.316935 -0.454 201 160 130
0.00302667 -0.316935 -0.454 195 154 126
0.0108571 -0.318331 -0.456 186 145 117
0.0396057 -0.33369 -0.478 142 107 103
0.0507629 -0.341369 -0.489 137 106 103
0.0769381 -0.373481 -0.535 110 96 96
0.0886286 -0.393726 -0.564 225 223 237
0.108999 -0.41397 -0.593 101 128 183
0.112388 -0.41397 -0.593 111 142 188
0.115776 -0.41397 -0.593 136 157 202
0.120091 -0.413272 -0.592 208 215 233
0.123474 -0.413272 -0.592 207 214 232
0.13046 -0.41397 -0.593 187 198 220
0.13159 -0.41397 -0.593 155 179 223
0.134074 -0.414669 -0.594 89 121 182
0.157037 -0.412574 -0.591 206 216 228
0.159289 -0.412574 -0.591 210 214 226
0.174752 -0.411876 -0.59 113 147 195
0.183743 -0.411876 -0.59 211 223 239
0.19161 -0.411876 -0.59 194 200 222
0.194981 -0.411876 -0.59 100 122 169
0.198689 -0.412574 -0.591 112 137 191
0.212962 -0.411876 -0.59 110 138 188
0.243305 -0.411876 -0.59 197 211 238
0.254111 -0.411178 -0.589 221 229 252
0.266452 -0.411178 -0.589 182 189 217
0.297866 -0.411178 -0.589 183 203 240
0.31752 -0.41048 -0.588 146 163 191
0.352839 -0.411178 -0.589 212 217 236
0.358449 -0.411178 -0.589 121 150 190
0.386496 -0.411178 -0.589 207 211 222
0.387618 -0.411178 -0.589 206 210 221
0.392106 -0.411178 -0.589 198 205 213
0.419031 -0.411178 -0.589 150 176 213
0.462106 -0.412574 -0.591 149 154 160
0.478181 -0.411876 -0.59 140 149 180
0.49841 -0.411876 -0.59 46 77 132
0.50344 -0.41048 -0.588 150 148 161
0.461978 -0.35533 -0.509 169 122 104
0.465155 -0.351142 -0.503 166 119 101
0.46906 -0.34835 -0.499 171 123 103
0.480433 -0.346953 -0.497 174 127 107
0.509414 -0.353934 -0.507 151 108 89
-0.0159981 -0.3178 -0.454 199 163 131
0.0206352 -0.3227 -0.461 168 126 112
0.0425143 -0.336 -0.48 143 109 107
0.0834371 -0.3857 -0.551 220 216 231
0.12573 -0.4144 -0.592 205 212 228
0.148282 -0.4144 -0.592 156 175 217
0.214845 -0.4123 -0.589 196 211 252
0.242892 -0.4123 -0.589 205 215 240
0.27608 -0.4116 -0.588 190 202 228
0.30968 -0.4116 -0.588 231 232 252
0.32312 -0.4116 -0.588 227 232 254
0.32424 -0.4116 -0.588 222 227 249
0.32648 -0.4116 -0.588 223 228 247
0.33768 -0.4116 -0.588 219 226 245
0.34216 -0.4116 -0.588 214 215 236
0.346108 -0.4123 -0.589 125 140 171
0.35 -0.4116 -0.588 197 209 231
0.406 -0.4116 -0.588 188 197 214
0.4366 -0.413 -0.59 103 128 168
0.442219 -0.413 -0.59 177 181 208
0.452333 -0.413 -0.59 179 188 197
0.468067 -0.413 -0.59 179 180 198
0.497286 -0.413 -0.59 33 63 123
0.503702 -0.4109 -0.587 127 137 139
0.472329 -0.3745 -0.535 151 112 95
0.4617 -0.3591 -0.513 162 119 102
0.461775 -0.3584 -0.512 162 119 102
-0.0221971 -0.32077 -0.457 203 164 135
-0.02128 -0.320069 -0.456 204 165 136
-0.00388286 -0.317963 -0.453 200 159 129
0.0197571 -0.323578 -0.461 168 126 114
0.0415133 -0.336212 -0.479 143 109 108
0.117836 -0.415528 -0.592 203 215 237
0.137006 -0.415528 -0.592 79 107 170
0.16801 -0.414124 -0.59 120 151 195
0.202504 -0.413422 -0.589 126 145 178
0.220454 -0.413422 -0.589 187 184 193
0.22943 -0.413422 -0.589 147 169 208
0.24584 -0.41272 -0.588 230 236 252
0.34104 -0.41272 -0.588 217 224 240
0.39928 -0.41272 -0.588 152 151 159
0.403073 -0.412018 -0.587 193 200 208
0.406428 -0.412018 -0.587 195 202 212
0.41384 -0.41272 -0.588 97 120 154
0.425763 -0.413422 -0.589 46 87 151
0.45942 -0.413422 -0.589 146 152 176
0.475127 -0.413422 -0.589 169 171 184
0.476249 -0.413422 -0.589 166 168 181
0.491667 -0.414124 -0.59 29 58 126
0.484355 -0.38675 -0.551 148 112 98
0.461914 -0.357971 -0.51 164 121 104
0.465187 -0.352356 -0.502 168 121 103
0.467143 -0.350952 -0.5 169 122 104
0.46811 -0.35025 -0.499 166 119 99
0.48608 -0.348145 -0.496 165 119 96
-0.0185514 -0.318826 -0.453 199 163 129
-0.00992286 -0.318826 -0.453 199 160 129
-0.00647143 -0.318826 -0.453 199 158 128
-0.00388286 -0.318826 -0.453 198 159 128
0.00475619 -0.31953 -0.454 194 153 125
0.0134924 -0.321641 -0.457 180 138 114
0.0179229 -0.323049 -0.459 170 128 114
0.0299267 -0.330087 -0.469 150 111 106
0.0328152 -0.332198 -0.472 147 112 108
0.0365657 -0.333606 -0.474 142 108 106
0.0527333 -0.344867 -0.49 134 104 102
0.06192 -0.35472 -0.504 125 99 100
0.10041 -0.414544 -0.589 132 162 198
0.133623 -0.416655 -0.592 83 113 163
0.140151 -0.415951 -0.591 94 120 171
0.17109 -0.414544 -0.589 158 184 221
0.18872 -0.41384 -0.588 210 217 235
0.19208 -0.41384 -0.588 102 124 163
0.227186 -0.414544 -0.589 194 209 240
0.23016 -0.41384 -0.588 155 179 217
0.23128 -0.41384 -0.588 166 190 226
0.315862 -0.413136 -0.587 180 192 218
0.338224 -0.413136 -0.587 218 222 234
0.357231 -0.413136 -0.587 135 158 202
0.39301 -0.413136 -0.587 195 203 214
0.394129 -0.413136 -0.587 194 202 213
0.404191 -0.413136 -0.587 194 204 206
0.479614 -0.414544 -0.589 57 80 134
0.491884 -0.395541 -0.562 145 111 101
0.463417 -0.363166 -0.516 159 117 101
0.471913 -0.349793 -0.497 172 124 104
0.4785 -0.348386 -0.495 171 123 103
0.504437 -0.354016 -0.503 150 108 84
-0.0185514 -0.319689 -0.453 201 162 129
0.016139 -0.323217 -0.458 171 129 113
0.0527333 -0.3458 -0.49 135 105 103
0.0605971 -0.353563 -0.501 124 98 99
0.0630048 -0.356386 -0.505 125 99 100
0.0709552 -0.367677 -0.521 119 99 100
0.08164 -0.38532 -0.546 168 160 171
0.0904981 -0.401551 -0.569 222 228 244
0.105432 -0.417783 -0.592 161 185 219
0.146657 -0.416371 -0.59 96 111 150
0.147781 -0.416371 -0.59 102 117 156
0.186163 -0.414254 -0.587 212 219 235
0.239831 -0.414254 -0.587 174 187 221
0.254367 -0.414254 -0.587 190 197 226
0.259957 -0.414254 -0.587 225 231 253
0.318672 -0.413549 -0.586 225 232 248
0.329834 -0.413549 -0.586 186 194 197
0.367294 -0.414254 -0.587 156 178 219
0.371767 -0.414254 -0.587 132 147 176
0.378475 -0.414254 -0.587 206 213 223
0.379593 -0.414254 -0.587 206 213 223
0.385644 -0.413549 -0.586 174 178 181
0.43288 -0.41496 -0.588 40 82 142
0.44184 -0.41496 -0.588 177 180 187
0.45864 -0.41496 -0.588 127 135 156
0.4732 -0.41496 -0.588 183 181 195
0.501466 -0.414254 -0.587 88 102 137
0.490323 -0.394494 -0.559 143 113 103
0.466169 -0.353563 -0.501 171 124 104
0.472853 -0.350034 -0.496 169 121 101
0.497574 -0.352151 -0.499 156 111 88
-0.0248629 -0.32409 -0.458 199 160 127
-0.0133448 -0.319844 -0.452 199 160 129
0.0152333 -0.323382 -0.457 172 131 111
0.0365657 -0.335411 -0.474 140 106 104
0.0414267 -0.338242 -0.478 142 109 104
0.114067 -0.417495 -0.59 161 182 213
0.135649 -0.418203 -0.591 161 183 232
0.143286 -0.417495 -0.59 136 156 189
0.145533 -0.417495 -0.59 100 119 151
0.18169 -0.415372 -0.587 209 220 240
0.192871 -0.415372 -0.587 195 209 236
0.20552 -0.41608 -0.588 211 217 239
0.244304 -0.415372 -0.587 227 234 252
0.24654 -0.415372 -0.587 218 228 255
0.265095 -0.414665 -0.586 216 218 233
0.272909 -0.414665 -0.586 225 231 253
0.33988 -0.414665 -0.586 184 189 195
0.356623 -0.414665 -0.586 103 133 185
0.376714 -0.414665 -0.586 206 215 224
0.399038 -0.414665 -0.586 189 196 204
0.400154 -0.414665 -0.586 173 180 188
0.406851 -0.414665 -0.586 189 194 197
0.426553 -0.415372 -0.587 36 77 139
0.431026 -0.415372 -0.587 42 86 147
0.432144 -0.415372 -0.587 42 86 147
0.469041 -0.415372 -0.587 185 186 188
0.470159 -0.415372 -0.587 183 181 194
0.472395 -0.415372 -0.587 178 176 189
0.47768 -0.41608 -0.588 87 102 135
0.49923 -0.415372 -0.587 106 124 162
0.501466 -0.415372 -0.587 57 68 100
0.487871 -0.392729 -0.555 146 112 100
0.488929 -0.392729 -0.555 146 112 100
0.474367 -0.378576 -0.535 152 112 102
0.464119 -0.357348 -0.505 166 119 101
0.46512 -0.35664 -0.504 165 120 101
0.46811 -0.353102 -0.499 172 125 107
0.470017 -0.352394 -0.498 176 129 111
0.476592 -0.349564 -0.494 174 128 105
0.481329 -0.350271 -0.495 166 120 97
0.495629 -0.352394 -0.498 159 113 90
0.50928 -0.35664 -0.504 152 107 84
-0.02802 -0.331348 -0.467 199 162 133
-0.0073181 -0.320705 -0.452 198 159 130
0.00215714 -0.321414 -0.453 191 150 122
0.0299267 -0.332767 -0.469 149 112 106
0.031781 -0.333476 -0.47 148 111 105
0.0327457 -0.334186 -0.471 145 110 104
0.102829 -0.418619 -0.59 162 183 212
0.108264 -0.41791 -0.589 163 187 221
0.182497 -0.415781 -0.586 214 221 239
0.18473 -0.415781 -0.586 210 216 238
0.192543 -0.415781 -0.586 202 210 233
0.208525 -0.41649 -0.587 219 224 243
0.21 -0.4172 -0.588 201 206 226
0.230493 -0.415781 -0.586 134 160 195
0.286929 -0.415071 -0.585 223 228 248
0.364436 -0.415781 -0.586 83 114 179
0.408386 -0.415071 -0.585 180 184 196
0.416897 -0.415781 -0.586 48 94 156
0.41913 -0.415781 -0.586 66 108 168
0.446679 -0.41649 -0.587 186 187 192
0.470159 -0.41649 -0.587 179 177 188
0.488049 -0.41649 -0.587 41 76 132
0.490285 -0.41649 -0.587 43 79 141
0.482195 -0.38669 -0.545 148 110 99
0.477027 -0.381724 -0.538 149 111 100
0.464558 -0.364695 -0.514 163 120 104
0.466143 -0.356181 -0.502 169 124 105
0.468077 -0.355471 -0.501 167 122 103
0.476592 -0.350505 -0.494 173 127 104
0.51024 -0.3576 -0.504 153 108 85
-0.0256229 -0.324411 -0.456 197 161 129
-0.023781 -0.322989 -0.454 198 162 130
-0.00987905 -0.320854 -0.451 198 157 127
-0.00644286 -0.320854 -0.451 200 156 127
-0.000430476 -0.321566 -0.452 199 158 130
0.0215133 -0.327969 -0.461 162 122 114
0.0299267 -0.33366 -0.469 150 113 105
0.0654429 -0.362117 -0.509 120 96 96
0.0814905 -0.387729 -0.545 192 187 193
0.116117 -0.419031 -0.589 207 214 224
0.121727 -0.419031 -0.589 205 209 221
0.138555 -0.419031 -0.589 169 181 207
0.15176 -0.41832 -0.588 205 211 235
0.155974 -0.417609 -0.587 202 201 215
0.172746 -0.417609 -0.587 141 166 206
0.173568 -0.416897 -0.586 129 152 193
0.182497 -0.416897 -0.586 209 216 235
0.186962 -0.416897 -0.586 116 126 153
0.188078 -0.416897 -0.586 119 129 156
0.193659 -0.416897 -0.586 212 217 239
0.215233 -0.417609 -0.587 135 145 172
0.241655 -0.416897 -0.586 218 228 253
0.345986 -0.416186 -0.585 215 218 223
0.360471 -0.416186 -0.585 64 100 162
0.380529 -0.416186 -0.585 187 190 197
0.426943 -0.416897 -0.586 78 124 183
0.428059 -0.416897 -0.586 97 140 195
0.44257 -0.416897 -0.586 181 184 189
0.446679 -0.417609 -0.587 179 186 196
0.489167 -0.417609 -0.587 49 85 147
0.494025 -0.399823 -0.562 143 117 104
0.479687 -0.384883 -0.541 148 112 100
0.472843 -0.377769 -0.531 157 117 107
0.464026 -0.360694 -0.507 164 118 102
0.477533 -0.351446 -0.494 172 126 103
0.488871 -0.352157 -0.495 168 122 98
0.489814 -0.352157 -0.495 167 121 97
0.492693 -0.352869 -0.496 159 113 89
0.503333 -0.355714 -0.5 154 109 86
-0.0193286 -0.321713 -0.451 199 160 129
-0.0141743 -0.321713 -0.451 196 157 124
-0.0124562 -0.321713 -0.451 198 159 128
-0.0107381 -0.321713 -0.451 199 158 128
-0.00987905 -0.321713 -0.451 199 158 128
0.0134333 -0.324567 -0.455 178 136 114
0.0152 -0.32528 -0.456 173 132 114
0.0187971 -0.32742 -0.459 165 123 111
0.0196714 -0.32742 -0.459 164 121 112
0.0261286 -0.3317 -0.465 157 116 110
0.0298629 -0.33384 -0.468 148 111 103
0.0485 -0.345967 -0.485 140 107 102
0.07364 -0.375213 -0.526 118 100 100
0.0884714 -0.401607 -0.563 219 218 236
0.131824 -0.420153 -0.589 162 178 204
0.132946 -0.420153 -0.589 179 191 217
0.14056 -0.41944 -0.588 187 199 223
0.148148 -0.418727 -0.587 134 143 172
0.173568 -0.418013 -0.586 122 147 188
0.176916 -0.418013 -0.586 170 190 217
0.188871 -0.4173 -0.585 188 199 227
0.197786 -0.4173 -0.585 217 222 241
0.226029 -0.418013 -0.586 194 207 226
0.228986 -0.4173 -0.585 136 162 195
0.235671 -0.4173 -0.585 145 168 212
0.241243 -0.4173 -0.585 215 227 253
0.251271 -0.4173 -0.585 201 213 235
0.290888 -0.416587 -0.584 183 205 244
0.330933 -0.416587 -0.584 205 209 220
0.374316 -0.416587 -0.584 206 208 221
0.419529 -0.4173 -0.585 71 107 157
0.422871 -0.4173 -0.585 48 92 163
0.430671 -0.4173 -0.585 111 138 183
0.462661 -0.418013 -0.586 182 181 195
0.467126 -0.418013 -0.586 178 182 191
0.48052 -0.418013 -0.586 160 168 179
0.501986 -0.4173 -0.585 64 70 102
0.468708 -0.373073 -0.523 156 117 102
0.468095 -0.356667 -0.5 167 120 100
0.515156 -0.360947 -0.506 150 109 81
-0.0285381 -0.329725 -0.461 195 159 127
-0.0193286 -0.322572 -0.451 198 159 128
-0.0107143 -0.321857 -0.45 200 159 129
0.0298629 -0.334731 -0.468 147 110 102
0.0327457 -0.336877 -0.471 144 109 103
0.0484 -0.346175 -0.484 140 107 102
0.0653143 -0.363341 -0.508 119 95 95
0.070819 -0.371924 -0.52 118 98 99
0.0866229 -0.399103 -0.558 223 222 236
0.1036 -0.42056 -0.588 176 193 219
0.11928 -0.42056 -0.588 204 207 226
0.12824 -0.42056 -0.588 178 193 214
0.136311 -0.421275 -0.589 154 159 188
0.153738 -0.419845 -0.587 166 181 214
0.165754 -0.41913 -0.586 120 141 184
0.205937 -0.41913 -0.586 216 224 235
0.212634 -0.41913 -0.586 219 223 235
0.213386 -0.418414 -0.585 209 213 225
0.240129 -0.418414 -0.585 196 213 243
0.246814 -0.418414 -0.585 162 177 206
0.255729 -0.418414 -0.585 223 231 244
0.332046 -0.417699 -0.584 192 196 207
0.339832 -0.417699 -0.584 219 224 227
0.359855 -0.417699 -0.584 74 110 170
0.363192 -0.417699 -0.584 100 134 197
0.370979 -0.417699 -0.584 185 204 246
0.403238 -0.417699 -0.584 188 195 201
0.42771 -0.417699 -0.584 121 155 203
0.431786 -0.418414 -0.585 151 169 205
0.439586 -0.418414 -0.585 151 158 168
0.444802 -0.41913 -0.586 184 188 199
0.4563 -0.418414 -0.585 177 182 186
0.4641 -0.418414 -0.585 185 181 195
0.475243 -0.418414 -0.585 85 99 134
0.489729 -0.418414 -0.585 71 105 153
0.504711 -0.416984 -0.583 95 106 138
0.485893 -0.39195 -0.548 148 115 98
0.464701 -0.366202 -0.512 162 119 102
0.467123 -0.358334 -0.501 172 127 108
0.4917 -0.354043 -0.495 160 114 90
0.51612 -0.36191 -0.506 145 103 79
-0.0284143 -0.329169 -0.459 195 159 127
0.00645714 -0.324149 -0.452 188 146 121
0.00992286 -0.324866 -0.453 183 144 115
0.0187562 -0.328451 -0.458 161 122 107
0.02796 -0.334189 -0.466 152 113 106
0.03082 -0.33634 -0.469 146 112 103
0.0326762 -0.337057 -0.47 142 108 99
0.0535571 -0.350683 -0.489 133 102 99
0.107896 -0.420963 -0.587 138 156 192
0.13048 -0.42168 -0.588 186 199 215
0.156825 -0.420246 -0.586 205 210 232
0.169929 -0.419529 -0.585 130 161 205
0.1755 -0.419529 -0.585 170 186 219
0.176614 -0.419529 -0.585 187 203 236
0.237493 -0.418811 -0.584 189 211 250
0.247929 -0.419529 -0.585 209 220 240
0.249043 -0.419529 -0.585 209 220 240
0.255291 -0.418811 -0.584 225 233 252
0.275953 -0.418094 -0.583 225 227 240
0.279285 -0.418094 -0.583 195 200 206
0.322593 -0.418094 -0.583 177 180 195
0.328146 -0.418094 -0.583 171 176 195
0.333698 -0.418094 -0.583 176 180 192
0.33703 -0.418094 -0.583 222 218 232
0.399216 -0.418094 -0.583 197 204 210
0.401437 -0.418094 -0.583 201 205 214
0.403658 -0.418094 -0.583 197 197 207
0.413652 -0.418094 -0.583 172 188 214
0.4719 -0.419529 -0.585 93 100 128
0.473318 -0.418811 -0.584 84 99 130
0.477471 -0.419529 -0.585 164 181 207
0.481929 -0.419529 -0.585 144 149 168
0.496678 -0.418811 -0.584 124 132 151
0.467187 -0.37148 -0.518 156 117 102
0.465609 -0.367894 -0.513 161 118 101
0.46608 -0.36144 -0.504 168 123 104
0.507143 -0.358571 -0.5 152 108 83
-0.0175714 -0.323571 -0.45 198 162 126
-0.00642857 -0.323571 -0.45 199 158 130
0.00387429 -0.32501 -0.452 191 150 122
0.0143 -0.327167 -0.455 173 135 112
0.0298629 -0.336514 -0.468 148 111 103
0.03082 -0.337233 -0.469 145 111 102
0.0403467 -0.342267 -0.476 143 110 103
0.0483 -0.3473 -0.483 138 107 102
0.0735 -0.3775 -0.525 122 98 98
0.101015 -0.421362 -0.586 141 165 203
0.119077 -0.422081 -0.587 183 190 218
0.130258 -0.422081 -0.587 199 206 224
0.139203 -0.422081 -0.587 200 207 226
0.154592 -0.421362 -0.586 148 164 200
0.162129 -0.420643 -0.585 157 172 203
0.164357 -0.420643 -0.585 120 144 190
0.169638 -0.419924 -0.584 123 156 201
0.239718 -0.419924 -0.584 185 198 240
0.24528 -0.419924 -0.584 177 188 210
0.263738 -0.419205 -0.583 193 195 207
0.382559 -0.419205 -0.583 212 212 222
0.387001 -0.419205 -0.583 202 210 221
0.392553 -0.419205 -0.583 202 206 218
0.414051 -0.418486 -0.582 158 174 200
0.425868 -0.419205 -0.583 141 166 207
0.476655 -0.419924 -0.584 166 179 198
0.48333 -0.419924 -0.584 98 123 154
0.485554 -0.419924 -0.584 97 120 162
0.504711 -0.419205 -0.583 47 56 89
0.472292 -0.378938 -0.527 157 119 106
0.468173 -0.372467 -0.518 157 118 101
0.465909 -0.365276 -0.508 163 120 103
0.488825 -0.35521 -0.494 165 118 92
0.50126 -0.357367 -0.497 157 113 88
0.522089 -0.365995 -0.509 147 106 84
-0.003 -0.324429 -0.45 197 158 125
0.00128571 -0.324429 -0.45 191 152 121
0.00559619 -0.32587 -0.452 185 144 116
0.0242 -0.33308 -0.462 158 120 111
0.0403467 -0.343173 -0.476 144 111 104
0.0524105 -0.351104 -0.487 135 104 99
0.0544886 -0.352546 -0.489 133 103 101
0.0750676 -0.381384 -0.529 115 93 95
0.0797143 -0.389314 -0.54 119 108 112
0.081341 -0.392198 -0.544 189 186 205
0.111061 -0.422478 -0.586 162 181 211
0.125786 -0.423199 -0.587 200 208 227
0.145663 -0.422478 -0.586 203 209 223
0.205234 -0.421036 -0.584 215 219 228
0.215246 -0.421036 -0.584 215 222 238
0.224145 -0.421036 -0.584 193 204 236
0.228594 -0.421036 -0.584 102 135 180
0.231534 -0.420315 -0.583 138 170 227
0.254179 -0.421036 -0.584 223 230 248
0.28324 -0.419594 -0.582 169 184 215
0.293217 -0.419594 -0.582 93 125 184
0.299869 -0.419594 -0.582 110 145 201
0.300977 -0.419594 -0.582 109 144 200
0.333126 -0.419594 -0.582 212 216 228
0.339777 -0.419594 -0.582 226 226 236
0.351971 -0.419594 -0.582 133 157 195
0.36084 -0.419594 -0.582 113 147 193
0.406291 -0.419594 -0.582 110 117 143
0.41516 -0.419594 -0.582 152 169 189
0.416269 -0.419594 -0.582 154 177 208
0.43031 -0.420315 -0.583 180 184 193
0.43253 -0.420315 -0.583 186 190 199
0.446967 -0.420315 -0.583 186 189 198
0.467756 -0.421036 -0.584 152 160 183
0.47695 -0.420315 -0.583 178 182 191
0.48944 -0.397966 -0.552 147 115 104
0.467349 -0.372011 -0.516 157 118 103
0.468077 -0.361197 -0.501 171 125 102
0.47 -0.360476 -0.5 165 119 96
0.524086 -0.367686 -0.51 147 107 82
-0.0209533 -0.324563 -0.449 196 157 124
-0.00898 -0.324563 -0.449 199 158 126
0.0142686 -0.328177 -0.454 173 132 110
0.04134 -0.344803 -0.477 143 110 103
0.0602343 -0.359983 -0.498 130 102 99
0.06384 -0.36432 -0.504 119 95 93
0.0664124 -0.367934 -0.509 118 97 96
0.0691571 -0.372271 -0.515 119 98 97
0.121107 -0.423594 -0.586 107 118 150
0.148757 -0.422871 -0.585 195 206 226
0.149871 -0.422871 -0.585 181 192 212
0.154329 -0.422871 -0.585 111 129 165
0.169638 -0.422149 -0.584 103 139 191
0.177121 -0.421426 -0.583 204 216 240
0.20301 -0.422149 -0.584 219 222 231
0.209684 -0.422149 -0.584 219 218 232
0.213767 -0.421426 -0.583 215 223 234
0.24444 -0.420703 -0.582 218 223 242
0.250412 -0.421426 -0.583 222 229 248
0.254854 -0.421426 -0.583 224 227 244
0.259296 -0.421426 -0.583 197 200 217
0.284349 -0.420703 -0.582 122 135 167
0.33366 -0.41998 -0.581 220 224 235
0.33698 -0.41998 -0.581 224 223 231
0.338087 -0.41998 -0.581 224 224 232
0.39188 -0.420703 -0.582 208 208 220
0.419594 -0.420703 -0.582 106 137 181
0.428463 -0.420703 -0.582 152 174 198
0.473618 -0.421426 -0.583 169 175 187
0.474729 -0.421426 -0.583 172 176 187
0.483612 -0.421426 -0.583 102 125 159
0.486944 -0.421426 -0.583 115 139 177
0.493869 -0.420703 -0.582 139 150 172
0.496351 -0.405523 -0.561 134 116 106
0.485018 -0.356369 -0.493 168 120 97
0.588267 -0.4048 -0.56 197 187 178
-0.0252295 -0.325418 -0.449 195 159 127
-0.00812476 -0.325418 -0.449 200 157 125
0.00472476 -0.326868 -0.451 183 142 112
0.00558381 -0.326868 -0.451 184 140 111
0.0073181 -0.327592 -0.452 183 142 112
0.0205457 -0.332666 -0.459 162 120 104
0.0384524 -0.344262 -0.475 143 110 101
0.04134 -0.345711 -0.477 143 110 103
0.04922 -0.35006 -0.483 136 105 100
0.0578686 -0.358032 -0.494 130 102 99
0.0779571 -0.387748 -0.535 106 101 107
0.101957 -0.423986 -0.585 137 155 201
0.103071 -0.423986 -0.585 138 156 196
0.157402 -0.423261 -0.584 188 199 221
0.167127 -0.422536 -0.583 116 150 211
0.230029 -0.421811 -0.582 81 113 174
0.3735 -0.421087 -0.581 151 164 198
0.397847 -0.421087 -0.581 203 205 220
0.402273 -0.421087 -0.581 185 193 212
0.443983 -0.421811 -0.582 177 186 195
0.4462 -0.421811 -0.582 181 185 196
0.466955 -0.422536 -0.583 129 137 156
0.468066 -0.422536 -0.583 115 123 142
0.47724 -0.421811 -0.582 182 180 194
0.480286 -0.356583 -0.492 167 121 97
-0.0288419 -0.328453 -0.452 195 160 128
-0.0252295 -0.326273 -0.449 194 158 126
-0.02176 -0.325547 -0.448 199 160 129
-0.01152 -0.325547 -0.448 199 158 126
-0.00469333 -0.325547 -0.448 198 155 123
-0.00299333 -0.326273 -0.449 199 156 124
-0.00128286 -0.326273 -0.449 197 153 124
0.00128571 -0.327 -0.45 191 147 118
0.00385714 -0.327 -0.45 186 142 115
0.0364114 -0.342987 -0.472 145 108 99
0.0432476 -0.347347 -0.478 142 109 102
0.0625057 -0.36406 -0.501 119 95 93
0.0749257 -0.38368 -0.528 110 96 95
0.0779571 -0.388767 -0.535 107 102 108
0.10957 -0.424373 -0.584 168 187 217
0.18236 -0.42292 -0.582 205 211 235
0.209325 -0.423647 -0.583 218 219 237
0.22116 -0.42292 -0.582 125 136 164
0.231847 -0.422193 -0.581 84 113 179
0.24402 -0.422193 -0.581 206 213 232
0.258851 -0.42292 -0.582 197 200 217
0.278327 -0.422193 -0.581 221 229 242
0.327562 -0.421467 -0.58 221 220 236
0.349657 -0.421467 -0.58 195 203 222
0.388993 -0.422193 -0.581 163 169 185
0.395633 -0.422193 -0.581 206 208 220
0.40821 -0.421467 -0.58 189 188 202
0.437687 -0.422193 -0.581 148 150 171
0.46948 -0.42292 -0.582 168 178 190
0.475023 -0.42292 -0.582 171 174 189
0.49276 -0.42292 -0.582 75 94 134
0.504557 -0.42074 -0.579 116 127 149
0.485597 -0.39458 -0.543 149 115 105
0.467005 -0.366967 -0.505 167 121 105
0.468 -0.36624 -0.504 168 123 104
0.472853 -0.360427 -0.496 175 128 108
-0.0191571 -0.325671 -0.447 197 158 125
-0.0021381 -0.327129 -0.449 197 154 122
0.00902 -0.328586 -0.451 185 141 116
0.0178057 -0.332229 -0.456 164 122 106
0.02142 -0.334414 -0.459 159 117 103
0.08464 -0.402171 -0.552 132 147 176
0.127368 -0.425486 -0.584 205 205 217
0.216353 -0.4233 -0.581 209 213 225
0.248447 -0.4233 -0.581 216 224 245
0.277848 -0.422571 -0.58 222 229 247
0.282267 -0.422571 -0.58 129 146 174
0.335295 -0.422571 -0.58 224 223 239
0.345238 -0.422571 -0.58 145 161 194
0.362914 -0.422571 -0.58 181 193 219
0.368438 -0.422571 -0.58 207 211 223
0.373962 -0.422571 -0.58 130 141 161
0.386114 -0.422571 -0.58 201 204 219
0.403094 -0.421843 -0.579 105 118 153
0.406403 -0.421843 -0.579 184 192 213
0.42699 -0.422571 -0.58 147 167 204
0.434724 -0.422571 -0.58 184 188 200
0.436933 -0.422571 -0.58 174 174 186
0.46978 -0.4233 -0.581 172 181 190
0.47974 -0.4233 -0.581 81 101 136
0.490807 -0.4233 -0.581 73 92 135
0.49966 -0.4233 -0.581 166 172 184
0.46803 -0.366471 -0.503 170 125 106
0.471914 -0.362829 -0.498 175 127 105
0.510881 -0.363557 -0.499 155 110 87
-0.00384 -0.327253 -0.448 196 153 121
0.00128286 -0.327984 -0.449 191 147 120
0.0461714 -0.350629 -0.48 137 106 101
0.0747838 -0.384961 -0.527 112 93 97
0.0779571 -0.390805 -0.535 111 100 114
0.123818 -0.425868 -0.583 201 205 217
0.15047 -0.425868 -0.583 203 207 219
0.173193 -0.424407 -0.581 80 112 173
0.17762 -0.424407 -0.581 129 154 210
0.332511 -0.422946 -0.579 222 224 236
0.406403 -0.422946 -0.579 191 197 213
0.415226 -0.422946 -0.579 111 133 172
0.418534 -0.422946 -0.579 136 160 204
0.427357 -0.422946 -0.579 182 193 213
0.444667 -0.423676 -0.58 137 151 180
0.45318 -0.424407 -0.581 67 95 145
0.465353 -0.424407 -0.581 125 139 166
0.481124 -0.423676 -0.58 74 110 146
0.490963 -0.401031 -0.549 153 115 106
0.470224 -0.377656 -0.517 160 119 101
0.47 -0.365238 -0.5 169 122 104
0.470966 -0.363777 -0.498 173 126 108
0.503014 -0.361586 -0.495 156 112 87
-0.0251171 -0.327374 -0.447 195 159 127
-0.0234143 -0.327374 -0.447 197 158 125
-0.0191143 -0.326642 -0.446 198 159 126
-0.0149 -0.327374 -0.447 201 160 128
0.0021381 -0.328839 -0.449 185 141 114
0.00987905 -0.330304 -0.451 179 137 113
0.0392743 -0.347149 -0.474 145 108 100
0.0402619 -0.347881 -0.475 143 109 100
0.0543771 -0.357402 -0.488 128 103 99
0.116045 -0.426978 -0.583 179 190 210
0.120487 -0.426978 -0.583 202 205 220
0.125823 -0.426246 -0.582 203 202 216
0.132474 -0.426246 -0.582 193 195 208
0.159913 -0.425513 -0.581 85 106 151
0.165731 -0.426246 -0.582 55 87 146
0.16684 -0.426246 -0.582 61 93 152
0.171274 -0.426246 -0.582 59 93 157
0.203073 -0.425513 -0.581 186 192 208
0.24581 -0.424781 -0.58 210 216 248
0.250229 -0.424781 -0.58 224 231 247
0.264134 -0.424049 -0.579 218 226 237
0.265237 -0.424049 -0.579 218 226 237
0.271854 -0.424049 -0.579 224 230 244
0.27406 -0.424049 -0.579 223 231 244
0.345746 -0.424049 -0.579 217 217 227
0.447981 -0.424781 -0.58 151 169 191
0.474495 -0.424781 -0.58 174 175 180
0.488857 -0.424781 -0.58 82 115 158
0.497776 -0.409401 -0.559 147 110 101
0.470017 -0.364726 -0.498 175 128 110
0.47471 -0.361796 -0.494 173 126 106
-0.0165657 -0.327491 -0.446 198 159 126
-0.0131971 -0.328226 -0.447 200 159 127
0.0391914 -0.347317 -0.473 146 107 100
0.0411667 -0.348786 -0.475 146 109 101
0.0702743 -0.378891 -0.516 118 96 99
0.159638 -0.425886 -0.58 80 106 155
0.163233 -0.42662 -0.581 62 92 152
0.185831 -0.425151 -0.579 209 217 230
0.191346 -0.425151 -0.579 198 203 222
0.217086 -0.425886 -0.58 188 195 221
0.254648 -0.425886 -0.58 215 223 234
0.314322 -0.424417 -0.578 226 226 238
0.33524 -0.424417 -0.578 222 219 236
0.355671 -0.425151 -0.579 173 189 212
0.379278 -0.424417 -0.578 197 203 219
0.390288 -0.424417 -0.578 199 205 219
0.420013 -0.424417 -0.578 127 154 197
0.430666 -0.425151 -0.579 139 138 144
0.449414 -0.425151 -0.579 147 164 190
0.456031 -0.425151 -0.579 147 169 206
0.467867 -0.425886 -0.58 175 183 196
0.492426 -0.425151 -0.579 113 133 170
0.47001 -0.366409 -0.499 171 126 105
0.470017 -0.365674 -0.498 171 126 105
0.470966 -0.365674 -0.498 173 126 106
0.473786 -0.363471 -0.495 177 130 110
0.480286 -0.361269 -0.492 169 121 99
0.486846 -0.361269 -0.492 169 119 96
0.490594 -0.361269 -0.492 166 116 93
0.501998 -0.362737 -0.494 160 112 89
0.512703 -0.365674 -0.498 158 114 89
-0.0182238 -0.327605 -0.445 198 157 125
-0.00553429 -0.329077 -0.447 195 152 118
0.000426667 -0.329813 -0.448 191 148 116
0.009 -0.331286 -0.45 181 139 115
0.0195429 -0.335703 -0.456 162 120 106
0.0335 -0.345273 -0.469 145 108 99
0.0344667 -0.34601 -0.47 146 109 101
0.0363343 -0.346746 -0.471 145 111 102
0.0373105 -0.347482 -0.472 143 109 100
0.07322 -0.385028 -0.523 118 96 99
0.0844867 -0.405641 -0.551 170 185 218
0.105687 -0.427727 -0.581 72 96 156
0.11122 -0.427727 -0.581 93 109 161
0.115846 -0.428463 -0.582 198 203 223
0.116954 -0.428463 -0.582 198 203 223
0.1245 -0.427727 -0.581 203 202 218
0.182523 -0.426254 -0.579 209 212 229
0.222226 -0.426254 -0.579 165 182 210
0.336341 -0.425518 -0.578 225 229 241
0.352855 -0.425518 -0.578 148 168 192
0.410494 -0.424782 -0.577 183 183 193
0.41599 -0.424782 -0.577 115 150 190
0.431023 -0.425518 -0.578 136 136 146
0.434326 -0.425518 -0.578 194 201 209
0.463448 -0.42699 -0.58 54 76 126
0.493777 -0.425518 -0.578 161 164 171
0.468929 -0.371776 -0.505 168 123 104
0.470952 -0.368095 -0.5 170 125 104
0.471913 -0.365887 -0.497 170 125 102
0.483097 -0.362206 -0.492 161 113 91
-0.0422086 -0.414071 -0.561 192 155 126
-0.0312162 -0.331405 -0.449 196 160 126
-0.0182238 -0.328452 -0.445 197 157 122
-0.00384 -0.330667 -0.448 197 154 120
0.00128 -0.330667 -0.448 189 145 116
0.0268981 -0.341738 -0.463 152 113 98
0.0325371 -0.345429 -0.468 143 106 97
0.0702743 -0.380857 -0.516 118 96 98
0.116753 -0.428833 -0.581 198 199 219
0.159363 -0.427357 -0.579 102 125 169
0.161848 -0.428095 -0.58 111 139 186
0.168186 -0.427357 -0.579 72 106 167
0.169289 -0.427357 -0.579 100 131 195
0.18551 -0.426619 -0.578 212 216 228
0.198722 -0.426619 -0.578 169 175 189
0.199823 -0.426619 -0.578 196 202 216
0.339056 -0.425881 -0.577 203 213 240
0.34565 -0.425881 -0.577 221 219 241
0.361037 -0.425881 -0.577 138 155 185
0.395108 -0.425881 -0.577 138 160 197
0.423683 -0.425881 -0.577 98 130 179
0.440931 -0.426619 -0.578 105 123 171
0.443133 -0.426619 -0.578 62 84 131
0.472574 -0.427357 -0.579 173 181 192
0.479191 -0.427357 -0.579 89 104 135
0.484706 -0.427357 -0.579 127 149 186
0.493777 -0.426619 -0.578 170 174 183
0.471914 -0.367571 -0.498 171 126 103
0.473786 -0.365357 -0.495 173 127 104
0.499104 -0.363881 -0.493 162 114 92
-0.0258524 -0.3293 -0.445 198 160 124
-0.00892 -0.33004 -0.446 200 157 123
0.0150667 -0.33448 -0.452 165 122 105
0.0343933 -0.34706 -0.469 146 109 100
0.0491181 -0.35668 -0.482 136 105 100
0.0976029 -0.42846 -0.579 86 110 158
0.107714 -0.4292 -0.58 76 105 161
0.126495 -0.4292 -0.58 165 168 183
0.172597 -0.42846 -0.579 128 152 196
0.19652 -0.42772 -0.578 200 204 216
0.211933 -0.42772 -0.578 213 215 236
0.21964 -0.42772 -0.578 211 222 250
0.222943 -0.42772 -0.578 182 197 218
0.252231 -0.42698 -0.577 200 201 206
0.352245 -0.42698 -0.577 137 154 184
0.354443 -0.42698 -0.577 167 186 216
0.362136 -0.42698 -0.577 149 168 200
0.379721 -0.42698 -0.577 163 180 223
0.396207 -0.42698 -0.577 92 117 157
0.398811 -0.42624 -0.576 186 198 210
0.399909 -0.42624 -0.576 200 212 224
0.41856 -0.42624 -0.576 115 149 186
0.451941 -0.42772 -0.578 65 91 142
0.456345 -0.42772 -0.578 172 182 207
0.470552 -0.37888 -0.512 168 122 106
0.483986 -0.36334 -0.491 169 118 97
0.491531 -0.36408 -0.492 167 119 97
-0.0224114 -0.329406 -0.444 197 158 125
0.0150667 -0.335341 -0.452 164 121 102
0.02596 -0.34276 -0.462 149 114 95
0.048 -0.356114 -0.48 136 107 101
0.0586905 -0.365759 -0.493 129 101 100
0.066021 -0.375404 -0.506 120 95 98
0.0988762 -0.430305 -0.58 72 99 146
0.141962 -0.430305 -0.58 200 202 214
0.182991 -0.428079 -0.577 209 211 232
0.214864 -0.428079 -0.577 103 116 150
0.217062 -0.428079 -0.577 174 189 222
0.221458 -0.428079 -0.577 195 202 221
0.222557 -0.428079 -0.577 187 199 223
0.322011 -0.427337 -0.576 202 209 237
0.346149 -0.427337 -0.576 217 220 235
0.358217 -0.427337 -0.576 143 171 211
0.382354 -0.427337 -0.576 195 211 236
0.432823 -0.427337 -0.576 170 174 177
0.455555 -0.428079 -0.577 175 183 202
0.46295 -0.428821 -0.578 149 157 178
0.480566 -0.428821 -0.578 96 114 154
0.482768 -0.428821 -0.578 116 144 183
0.495121 -0.428079 -0.577 170 173 180
0.497319 -0.428079 -0.577 131 129 134
0.503913 -0.428079 -0.577 150 153 168
0.493054 -0.407306 -0.549 139 113 98
0.469986 -0.371694 -0.501 168 123 102
0.470961 -0.37021 -0.499 169 124 101
0.493338 -0.364275 -0.491 163 115 93
0.499029 -0.365017 -0.492 163 115 92
0.499966 -0.365017 -0.492 162 114 91
0.500903 -0.365017 -0.492 162 115 89
-0.0215657 -0.330251 -0.444 197 158 125
-0.0164914 -0.330251 -0.444 198 160 124
0.00212857 -0.332483 -0.447 185 144 116
0.00983524 -0.33397 -0.449 180 138 114
0.0296714 -0.345871 -0.465 144 108 94
0.0411667 -0.35331 -0.475 139 106 99
0.0532286 -0.361491 -0.486 133 104 100
0.0622562 -0.371161 -0.499 124 98 97
0.101086 -0.43141 -0.58 69 95 144
0.111747 -0.429922 -0.578 95 119 179
0.130689 -0.430666 -0.579 176 183 202
0.163491 -0.429922 -0.578 89 117 164
0.164592 -0.429922 -0.578 89 120 174
0.171198 -0.429922 -0.578 163 181 219
0.179694 -0.429178 -0.577 122 133 178
0.182991 -0.429178 -0.577 207 209 232
0.213765 -0.429178 -0.577 110 126 159
0.248503 -0.428434 -0.576 202 214 236
0.256183 -0.428434 -0.576 217 227 239
0.258377 -0.428434 -0.576 213 218 238
0.38016 -0.428434 -0.576 155 168 202
0.384549 -0.428434 -0.576 125 150 190
0.394833 -0.42769 -0.575 121 144 178
0.45006 -0.429178 -0.577 128 141 150
0.46105 -0.429178 -0.577 169 176 184
0.467645 -0.429178 -0.577 167 169 184
0.474239 -0.429178 -0.577 178 181 198
0.495121 -0.429178 -0.577 172 176 187
0.4775 -0.3905 -0.525 148 116 101
0.47094 -0.372649 -0.501 168 123 102
0.472853 -0.36893 -0.496 171 126 105
0.48118 -0.36521 -0.491 167 119 96
0.491468 -0.36521 -0.491 164 116 93
0.504651 -0.365954 -0.492 162 116 92
-0.0352543 -0.340791 -0.457 192 156 124
-0.0319286 -0.333334 -0.447 195 159 125
-0.0240486 -0.330351 -0.443 199 161 125
-0.00298 -0.333334 -0.447 194 151 119
0.00983524 -0.334826 -0.449 179 137 113
0.0250257 -0.343774 -0.461 148 112 100
0.0287238 -0.346011 -0.464 146 110 98
0.0372314 -0.351231 -0.471 142 109 100
0.0564667 -0.3654 -0.49 129 101 100
0.07294 -0.388517 -0.521 117 95 98
0.106242 -0.431023 -0.578 117 146 188
0.136203 -0.431769 -0.579 200 200 212
0.148078 -0.431023 -0.578 184 190 204
0.153583 -0.431023 -0.578 154 170 203
0.154684 -0.431023 -0.578 187 203 236
0.159088 -0.431023 -0.578 167 183 209
0.182674 -0.429531 -0.576 194 203 232
0.206071 -0.430277 -0.577 212 217 237
0.214491 -0.429531 -0.576 159 178 210
0.343357 -0.428786 -0.575 222 223 241
0.35431 -0.428786 -0.575 159 178 211
0.359786 -0.428786 -0.575 146 170 206
0.393738 -0.428786 -0.575 178 195 223
0.457753 -0.430277 -0.577 179 190 212
0.476437 -0.430277 -0.577 163 180 188
0.476709 -0.429531 -0.576 142 159 167
0.499749 -0.429531 -0.576 84 87 106
0.498443 -0.413871 -0.555 140 108 93
0.470704 -0.379569 -0.509 162 120 98
0.470952 -0.372857 -0.5 167 122 99
0.478374 -0.366146 -0.491 170 122 100
0.498014 -0.366146 -0.491 162 114 91
-0.0328533 -0.334933 -0.448 195 154 122
-0.0274238 -0.331195 -0.443 197 158 125
-0.00550952 -0.33269 -0.445 196 153 119
0.0315105 -0.34839 -0.466 142 108 98
0.0658905 -0.377548 -0.505 117 95 98
0.0985352 -0.432124 -0.578 93 113 164
0.102939 -0.432124 -0.578 94 115 158
0.106242 -0.432124 -0.578 136 159 193
0.117251 -0.432124 -0.578 197 196 210
0.124958 -0.432124 -0.578 198 202 213
0.126059 -0.432124 -0.578 198 197 215
0.144775 -0.432124 -0.578 193 197 208
0.16211 -0.431376 -0.577 104 134 168
0.164308 -0.431376 -0.577 97 129 168
0.171703 -0.430629 -0.576 178 191 225
0.347738 -0.429881 -0.575 198 203 209
0.369643 -0.429881 -0.575 208 213 232
0.375119 -0.429881 -0.575 119 130 162
0.380595 -0.429881 -0.575 205 213 232
0.43132 -0.429133 -0.574 189 202 208
0.501071 -0.429881 -0.575 130 130 140
0.504357 -0.429881 -0.575 164 164 176
0.470704 -0.380538 -0.509 163 121 99
0.476504 -0.367081 -0.491 170 124 100
0.483 -0.366333 -0.49 168 118 95
0.496144 -0.367081 -0.491 169 119 94
0.516312 -0.370819 -0.496 155 109 83
-0.0172981 -0.332039 -0.443 199 159 124
-0.00635714 -0.333538 -0.445 196 153 119
-0.0046619 -0.333538 -0.445 194 151 119
0.00297333 -0.334288 -0.446 185 144 114
0.0315105 -0.349278 -0.466 141 107 97
0.0430667 -0.356773 -0.476 139 109 101
0.120346 -0.432475 -0.577 199 197 210
0.148921 -0.432475 -0.577 88 107 139
0.222881 -0.430976 -0.575 152 169 195
0.363533 -0.430227 -0.574 219 222 239
0.371833 -0.430976 -0.575 185 185 197
0.372929 -0.430976 -0.575 193 195 210
0.37731 -0.430976 -0.575 189 199 226
0.38169 -0.430976 -0.575 211 218 234
0.393053 -0.430227 -0.574 207 219 235
0.42476 -0.430227 -0.574 179 196 222
0.42804 -0.430227 -0.574 201 204 221
0.429133 -0.430227 -0.574 204 202 213
0.455071 -0.430976 -0.575 184 193 200
0.499976 -0.430976 -0.575 104 115 135
0.496191 -0.411489 -0.549 143 113 102
0.470852 -0.37851 -0.505 166 124 100
0.470924 -0.376261 -0.502 168 123 100
0.472853 -0.371764 -0.496 170 125 102
0.477439 -0.368016 -0.491 165 117 94
0.483 -0.367267 -0.49 167 117 94
0.489533 -0.367267 -0.49 170 120 95
0.496067 -0.367267 -0.49 170 120 95
0.501755 -0.368016 -0.491 158 111 83
0.504561 -0.368016 -0.491 159 113 87
0.519247 -0.372513 -0.497 149 105 80
-0.0181419 -0.332883 -0.443 200 160 125
-0.0114171 -0.333634 -0.444 197 154 122
0.00297333 -0.335137 -0.446 186 145 115
0.00808857 -0.335889 -0.447 178 137 109
0.0106905 -0.337391 -0.449 174 132 108
0.0382095 -0.354674 -0.472 139 107 96
0.04108 -0.356177 -0.474 139 109 98
0.0633333 -0.375714 -0.5 118 96 99
0.0757876 -0.396003 -0.527 119 103 106
0.0825286 -0.409529 -0.545 119 128 159
0.10386 -0.433574 -0.577 164 180 213
0.110454 -0.433574 -0.577 179 187 210
0.113554 -0.432823 -0.576 81 98 144
0.117943 -0.432823 -0.576 188 194 216
0.13903 -0.433574 -0.577 195 198 215
0.146723 -0.433574 -0.577 137 157 184
0.159634 -0.432823 -0.576 138 163 194
0.17031 -0.432071 -0.575 164 178 205
0.402191 -0.430569 -0.573 199 206 224
0.433843 -0.430569 -0.573 79 96 124
0.45428 -0.43132 -0.574 188 195 201
0.486733 -0.3682 -0.49 169 119 96
0.487667 -0.3682 -0.49 171 121 98
0.495133 -0.3682 -0.49 170 120 95
0.500643 -0.367449 -0.489 162 116 90
-0.0290457 -0.332973 -0.442 198 160 124
-0.02652 -0.332973 -0.442 197 158 125
-0.00550952 -0.335233 -0.445 194 151 119
-0.00127429 -0.335987 -0.446 194 150 121
0.0343933 -0.353313 -0.469 140 107 98
0.0420714 -0.357833 -0.475 139 109 99
0.05198 -0.36386 -0.483 133 104 100
0.0981943 -0.43392 -0.576 91 123 162
0.113554 -0.43392 -0.576 78 95 139
0.135732 -0.434673 -0.577 196 194 207
0.162643 -0.433167 -0.575 143 162 194
0.175786 -0.433167 -0.575 211 211 223
0.18204 -0.432413 -0.574 154 164 191
0.183133 -0.432413 -0.574 190 196 220
0.202813 -0.432413 -0.574 210 215 234
0.381454 -0.43166 -0.573 213 219 235
0.392369 -0.43166 -0.573 217 225 238
0.430569 -0.43166 -0.573 154 171 199
0.448813 -0.432413 -0.574 195 199 210
0.468214 -0.433167 -0.575 60 76 109
0.492837 -0.40906 -0.543 140 112 101
0.488414 -0.40454 -0.537 141 113 102
0.471785 -0.381187 -0.506 164 122 100
0.47931 -0.369887 -0.491 170 122 100
0.481133 -0.369133 -0.49 173 122 101
0.574334 -0.40454 -0.537 137 108 92
-0.0357295 -0.341368 -0.452 194 155 122
-0.0256781 -0.333815 -0.442 197 158 125
-0.0147667 -0.33457 -0.443 198 158 123
-0.0046619 -0.336081 -0.445 195 152 118
0.0287238 -0.35043 -0.464 142 108 96
0.0490162 -0.36327 -0.481 135 106 100
0.0500362 -0.364025 -0.482 134 105 99
0.0861571 -0.419157 -0.555 202 209 227
0.117738 -0.434262 -0.575 175 186 218
0.135497 -0.435017 -0.576 199 198 212
0.146214 -0.434262 -0.575 78 96 120
0.158262 -0.434262 -0.575 133 149 175
0.173293 -0.433507 -0.574 202 209 227
0.176573 -0.433507 -0.574 207 210 225
0.377089 -0.432751 -0.573 226 225 233
0.388003 -0.432751 -0.573 221 227 239
0.46084 -0.433507 -0.574 185 187 186
0.465213 -0.433507 -0.574 166 176 188
0.468493 -0.433507 -0.574 57 78 109
0.502815 -0.431996 -0.572 165 163 174
0.471911 -0.376864 -0.499 171 125 102
0.477439 -0.370822 -0.491 172 124 102
0.4858 -0.370067 -0.49 165 115 92
0.494042 -0.368556 -0.488 169 119 94
0.515068 -0.372332 -0.493 154 108 82
0.520091 -0.374598 -0.496 146 109 82
0.00637143 -0.337686 -0.446 180 135 114
0.0343933 -0.3551 -0.469 139 107 96
0.0541543 -0.367971 -0.486 127 101 100
0.0596295 -0.373271 -0.493 121 97 95
0.0861571 -0.420214 -0.555 203 205 218
0.106786 -0.435357 -0.575 186 197 217
0.12431 -0.435357 -0.575 193 194 212
0.145119 -0.435357 -0.575 111 120 135
0.157987 -0.4346 -0.574 120 139 171
0.164547 -0.4346 -0.574 160 180 213
0.166733 -0.4346 -0.574 131 155 189
