ply
format ascii 1.0
comment Created by Open3D
element vertex 1283
property double x
property double y
property double z
property uchar red
property uchar green
property uchar blue
end_header
0.475 -0.440257 -0.57 116 132 166
0.489114 -0.440257 -0.57 33 64 121
0.498886 -0.440257 -0.57 111 126 155
0.47471 -0.381556 -0.494 177 132 111
0.47824 -0.376922 -0.488 178 132 109
0.48924 -0.375377 -0.486 165 119 95
0.501478 -0.376922 -0.488 158 113 90
-0.0341733 -0.360817 -0.466 195 156 125
-0.0309695 -0.354623 -0.458 192 156 120
-0.0246457 -0.351526 -0.454 197 159 122
0.00749619 -0.358494 -0.463 180 134 110
0.0101638 -0.359269 -0.464 177 133 108
0.0146771 -0.361591 -0.467 165 124 104
0.0210829 -0.364689 -0.471 154 115 98
0.0278276 -0.370883 -0.479 138 105 96
0.0872467 -0.440569 -0.569 164 164 176
0.0980848 -0.440569 -0.569 99 116 159
0.0989943 -0.439794 -0.568 112 129 172
0.101158 -0.439794 -0.568 113 131 167
0.131451 -0.439794 -0.568 176 181 201
0.132533 -0.439794 -0.568 152 157 177
0.135779 -0.439794 -0.568 140 149 178
0.139025 -0.439794 -0.568 193 201 222
0.140107 -0.439794 -0.568 192 203 221
0.145516 -0.439794 -0.568 189 191 212
0.409501 -0.439794 -0.568 92 111 144
0.418156 -0.439794 -0.568 51 86 150
0.42032 -0.439794 -0.568 44 76 133
0.421402 -0.439794 -0.568 45 81 139
0.42573 -0.439794 -0.568 74 107 161
0.454371 -0.441343 -0.57 99 116 142
0.47749 -0.394111 -0.509 160 119 101
0.475694 -0.389466 -0.503 172 124 104
0.475628 -0.381723 -0.493 172 130 108
0.475569 -0.380174 -0.491 171 129 105
0.495812 -0.377077 -0.487 157 113 88
0.5181 -0.383271 -0.495 147 105 80
0.527243 -0.387917 -0.501 144 104 79
-0.0229162 -0.35239 -0.454 196 158 119
-0.0185924 -0.35239 -0.454 196 158 119
0.0183133 -0.364033 -0.469 158 120 101
0.0258943 -0.370243 -0.477 141 109 96
0.0278276 -0.371795 -0.479 137 104 95
0.02886 -0.373348 -0.481 136 103 94
0.03608 -0.381886 -0.492 124 97 90
0.0534619 -0.399738 -0.515 121 97 93
0.0568429 -0.402843 -0.519 119 95 91
0.0883305 -0.441652 -0.569 163 165 178
0.106568 -0.440876 -0.568 95 112 156
0.108731 -0.440876 -0.568 126 140 179
0.111977 -0.440876 -0.568 176 179 196
0.115223 -0.440876 -0.568 179 182 199
0.14227 -0.440876 -0.568 194 200 216
0.447071 -0.441652 -0.569 133 144 150
0.453286 -0.442429 -0.57 119 129 154
0.48067 -0.441652 -0.569 35 65 117
0.499043 -0.421471 -0.543 127 110 100
0.494551 -0.416814 -0.537 135 112 98
0.484714 -0.405171 -0.522 147 120 103
0.47476 -0.386543 -0.498 169 127 105
0.480099 -0.378781 -0.488 173 127 103
0.48276 -0.377229 -0.486 175 129 106
0.490166 -0.377229 -0.486 163 117 93
0.491091 -0.377229 -0.486 167 121 97
0.492943 -0.377229 -0.486 156 112 87
0.507163 -0.379557 -0.489 160 116 91
-0.0159981 -0.353255 -0.454 193 155 118
-0.0134333 -0.354033 -0.455 195 155 119
-0.00131143 -0.357146 -0.459 187 144 112
0.0183133 -0.364927 -0.469 158 120 101
0.035 -0.381267 -0.49 126 98 94
0.0381857 -0.385157 -0.495 122 98 88
0.0403952 -0.38827 -0.499 120 95 90
0.0447286 -0.392938 -0.505 118 95 89
0.0502248 -0.398385 -0.512 120 96 92
0.0935848 -0.441958 -0.568 124 134 161
0.105486 -0.441958 -0.568 104 119 162
0.12474 -0.44118 -0.567 187 182 202
0.42174 -0.44118 -0.567 26 67 133
0.4239 -0.44118 -0.567 28 69 133
0.491726 -0.441958 -0.568 65 102 144
0.496053 -0.441958 -0.568 60 80 113
0.504709 -0.441958 -0.568 160 161 163
0.47664 -0.39216 -0.504 168 123 102
0.475628 -0.383601 -0.493 175 130 109
0.47824 -0.37971 -0.488 173 128 105
0.48276 -0.378154 -0.486 173 127 104
0.486463 -0.378154 -0.486 165 119 95
0.49572 -0.378154 -0.486 164 118 94
0.502306 -0.378932 -0.487 163 119 94
0.512978 -0.382045 -0.491 148 108 83
0.53328 -0.39216 -0.504 146 109 83
0.53848 -0.395272 -0.508 143 107 81
0.592397 -0.427174 -0.549 196 187 178
-0.012539 -0.35412 -0.454 195 157 120
-0.00131143 -0.35802 -0.459 187 144 112
0.0128429 -0.3627 -0.465 169 125 98
0.0137286 -0.3627 -0.465 168 124 97
0.0173829 -0.36504 -0.468 161 120 98
0.0403143 -0.38844 -0.498 120 95 90
0.0468371 -0.39546 -0.507 119 95 91
0.0667476 -0.4173 -0.535 115 94 93
0.14742 -0.44226 -0.567 141 148 166
0.458993 -0.44382 -0.569 164 173 180
0.46576 -0.44304 -0.568 139 141 140
0.501463 -0.44304 -0.568 161 161 161
0.4756 -0.38376 -0.492 174 129 106
0.476426 -0.38142 -0.489 174 128 105
0.485537 -0.37908 -0.486 171 125 101
0.487389 -0.37908 -0.486 168 122 98
0.498497 -0.37908 -0.486 164 120 95
0.522926 -0.38688 -0.496 153 109 82
-0.0297686 -0.354203 -0.453 192 156 120
-0.00996667 -0.355767 -0.455 196 156 121
0.00658571 -0.360458 -0.461 177 133 104
0.00926 -0.362022 -0.463 175 130 101
0.0128429 -0.363586 -0.465 168 124 97
0.035 -0.383133 -0.49 121 96 91
0.03608 -0.384697 -0.492 120 95 88
0.0435933 -0.393298 -0.503 119 94 89
0.0881752 -0.444122 -0.568 150 157 176
0.0986457 -0.442558 -0.566 77 97 134
0.10188 -0.442558 -0.566 78 100 137
0.102958 -0.442558 -0.566 79 101 140
0.11913 -0.442558 -0.566 104 118 147
0.143926 -0.442558 -0.566 202 204 217
0.145004 -0.442558 -0.566 200 202 215
0.146082 -0.442558 -0.566 186 193 209
0.44658 -0.44334 -0.567 184 181 190
0.44766 -0.44334 -0.567 182 182 190
0.452777 -0.444122 -0.568 156 159 178
0.453859 -0.444122 -0.568 157 160 179
0.456023 -0.444122 -0.568 174 178 189
0.487398 -0.444122 -0.568 63 93 153
0.490644 -0.444122 -0.568 67 97 135
0.49086 -0.44334 -0.567 100 130 168
0.4757 -0.388607 -0.497 170 125 104
0.476504 -0.383915 -0.491 172 127 104
0.47824 -0.38157 -0.488 172 126 102
0.48924 -0.380006 -0.486 170 124 100
0.521871 -0.387043 -0.495 153 109 80
0.585923 -0.424574 -0.543 191 175 160
-0.0345343 -0.359769 -0.459 192 157 115
-0.0306314 -0.355066 -0.453 190 154 118
-0.0289057 -0.355066 -0.453 193 157 121
-0.00823333 -0.356633 -0.455 195 155 120
-0.00305333 -0.358985 -0.458 185 145 110
0.00306667 -0.360552 -0.46 183 140 108
0.0137286 -0.364471 -0.465 165 120 97
0.0403143 -0.390337 -0.498 118 93 88
0.0468371 -0.397391 -0.507 120 97 91
0.0615 -0.4115 -0.525 115 94 89
0.0641048 -0.415419 -0.53 114 93 88
0.0903391 -0.445204 -0.568 157 163 175
0.106005 -0.442852 -0.565 131 148 191
0.11286 -0.44442 -0.567 166 175 192
0.135062 -0.442852 -0.565 194 191 202
0.147976 -0.442852 -0.565 151 169 193
0.454941 -0.445204 -0.568 172 175 182
0.456023 -0.445204 -0.568 176 179 186
0.47142 -0.44442 -0.567 83 97 124
0.47574 -0.44442 -0.567 148 167 197
0.48006 -0.44442 -0.567 104 130 163
0.48762 -0.44442 -0.567 59 96 141
0.507244 -0.443636 -0.566 159 162 171
0.481243 -0.402094 -0.513 156 117 100
0.475671 -0.387986 -0.495 173 128 107
0.475651 -0.387202 -0.494 175 130 109
0.484538 -0.380148 -0.485 172 126 102
0.51182 -0.383283 -0.489 157 111 85
0.522814 -0.387986 -0.495 152 108 81
0.525873 -0.389553 -0.497 153 109 82
0.52894 -0.391121 -0.499 150 109 81
0.533076 -0.393472 -0.502 146 105 77
-0.0253981 -0.355143 -0.452 196 160 124
-0.0116486 -0.355929 -0.453 198 158 123
0.00746381 -0.362214 -0.461 176 130 104
0.035 -0.385 -0.49 120 95 90
0.042381 -0.392857 -0.5 118 95 89
0.0602695 -0.410929 -0.523 116 95 90
0.0628571 -0.414857 -0.528 115 94 89
0.06802 -0.421929 -0.537 114 90 86
0.0694286 -0.424286 -0.54 116 92 88
0.127529 -0.443929 -0.565 191 195 204
0.442852 -0.443929 -0.565 186 189 196
0.494307 -0.444714 -0.566 157 165 176
0.507424 -0.443929 -0.565 158 157 165
0.485829 -0.408571 -0.52 149 113 99
0.48034 -0.4015 -0.511 157 118 103
0.476657 -0.391286 -0.498 168 126 104
0.476567 -0.387357 -0.493 177 132 111
0.505903 -0.381857 -0.486 160 114 90
-0.0378857 -0.368606 -0.468 190 154 118
-0.026259 -0.356004 -0.452 196 158 122
-0.0210933 -0.356004 -0.452 193 155 119
-0.0176495 -0.356004 -0.452 194 156 119
-0.0107857 -0.356791 -0.453 195 155 120
-0.00994476 -0.357579 -0.454 195 155 120
-0.00563333 -0.358367 -0.455 190 149 117
0.00306 -0.361517 -0.459 182 137 108
0.00836 -0.36388 -0.462 173 127 101
0.0110238 -0.364668 -0.463 170 123 103
0.0146457 -0.36703 -0.466 163 121 99
0.0173457 -0.367818 -0.467 158 117 97
0.0318714 -0.381995 -0.485 124 99 95
0.0370924 -0.388296 -0.493 121 94 87
0.0435067 -0.395385 -0.502 118 95 89
0.0984714 -0.445005 -0.565 58 82 130
0.1017 -0.445005 -0.565 52 84 133
0.107081 -0.445005 -0.565 134 140 176
0.118919 -0.445005 -0.565 179 185 209
0.130526 -0.444217 -0.564 192 196 205
0.134823 -0.444217 -0.564 200 199 215
0.135897 -0.444217 -0.564 200 199 215
0.142343 -0.444217 -0.564 205 206 210
0.220766 -0.444217 -0.564 123 140 183
0.461964 -0.445792 -0.566 176 182 182
0.473823 -0.445792 -0.566 152 163 183
0.479213 -0.445792 -0.566 130 147 175
0.48128 -0.403261 -0.512 158 119 104
0.480371 -0.401686 -0.51 157 118 101
0.47824 -0.384358 -0.488 172 126 103
0.497368 -0.381208 -0.484 167 121 95
0.503938 -0.381995 -0.485 160 116 91
-0.0375619 -0.366339 -0.464 190 154 118
-0.0201876 -0.356075 -0.451 196 156 120
-0.0039 -0.359233 -0.455 189 144 111
0.00218095 -0.361602 -0.458 182 137 108
0.0146143 -0.367129 -0.465 165 120 99
0.03082 -0.38134 -0.483 124 99 94
0.0602695 -0.412921 -0.523 118 94 90
0.096319 -0.446081 -0.565 84 98 133
0.113538 -0.446081 -0.565 53 76 110
0.11656 -0.445291 -0.564 156 169 203
0.118709 -0.445291 -0.564 184 186 207
0.127303 -0.445291 -0.564 192 197 203
0.129451 -0.445291 -0.564 195 198 205
0.446081 -0.446081 -0.565 183 187 196
0.470833 -0.446081 -0.565 126 137 155
0.49451 -0.446081 -0.565 160 162 174
0.505451 -0.445291 -0.564 157 161 173
0.478569 -0.39713 -0.503 163 125 102
0.4774 -0.386867 -0.49 172 126 102
0.504862 -0.382919 -0.485 161 115 91
0.506829 -0.383709 -0.486 160 114 90
-0.0494905 -0.432911 -0.547 183 150 115
-0.0385286 -0.368014 -0.465 189 153 117
-0.0313552 -0.356934 -0.451 191 155 119
-0.0176105 -0.356934 -0.451 194 156 119
-0.0107857 -0.358517 -0.453 194 154 119
-0.00819714 -0.358517 -0.453 190 150 115
0.00393429 -0.363266 -0.459 179 131 108
0.00481905 -0.364057 -0.46 178 130 107
0.0164562 -0.369597 -0.467 158 115 96
0.024881 -0.375929 -0.475 140 106 94
0.0567333 -0.40996 -0.518 116 95 90
0.0708486 -0.429746 -0.543 110 93 86
0.119783 -0.446366 -0.564 185 189 198
0.230026 -0.445574 -0.563 77 114 184
0.430561 -0.445574 -0.563 125 138 147
0.484824 -0.447157 -0.565 89 118 162
0.486976 -0.447157 -0.565 84 105 148
0.488052 -0.447157 -0.565 76 96 131
0.477614 -0.394923 -0.499 170 128 104
0.47917 -0.386217 -0.488 176 130 104
0.490081 -0.383843 -0.485 167 121 95
0.492758 -0.383051 -0.484 167 121 95
0.49368 -0.383051 -0.484 167 121 95
0.494602 -0.383051 -0.484 168 122 96
0.52966 -0.39334 -0.497 148 106 81
-0.0304962 -0.357793 -0.451 191 155 119
-0.0218571 -0.357 -0.45 195 157 120
-0.0201876 -0.357793 -0.451 195 155 119
-0.0124838 -0.358587 -0.452 195 155 119
-0.00475619 -0.360173 -0.454 186 143 109
0.00130571 -0.362553 -0.457 184 139 110
0.0268029 -0.37842 -0.477 136 104 91
0.0466524 -0.400633 -0.505 120 97 91
0.0478029 -0.40222 -0.507 120 97 91
0.0488648 -0.403013 -0.508 118 98 91
0.0855571 -0.448233 -0.565 92 109 135
0.10904 -0.44744 -0.564 127 146 186
0.115486 -0.44744 -0.564 176 178 199
0.118498 -0.446647 -0.563 186 189 204
0.404824 -0.446647 -0.563 119 139 166
0.441285 -0.446647 -0.563 193 193 201
0.45469 -0.448233 -0.565 181 184 189
0.460071 -0.448233 -0.565 181 182 187
0.467605 -0.448233 -0.565 83 98 129
0.482891 -0.44744 -0.564 91 120 152
0.488263 -0.44744 -0.564 76 99 131
0.485933 -0.410947 -0.518 147 112 93
0.480423 -0.403013 -0.508 154 115 98
0.477557 -0.3927 -0.495 172 128 103
0.479115 -0.386353 -0.487 175 129 105
0.481834 -0.38556 -0.486 175 129 106
0.48731 -0.384767 -0.485 171 125 101
0.50671 -0.384767 -0.485 158 112 88
-0.0287143 -0.357857 -0.45 193 157 121
-0.0226638 -0.357062 -0.449 194 156 119
-0.00819714 -0.360243 -0.453 190 147 113
-0.00475619 -0.361038 -0.454 186 143 109
-0.00303333 -0.361833 -0.455 186 143 109
0.0210381 -0.373762 -0.47 149 112 94
0.0229257 -0.375352 -0.472 144 107 89
0.115281 -0.447719 -0.563 181 184 203
0.12386 -0.447719 -0.563 185 192 202
0.132439 -0.447719 -0.563 148 152 164
0.135415 -0.446924 -0.562 153 157 169
0.200714 -0.446924 -0.562 177 184 202
0.433008 -0.446924 -0.562 121 138 168
0.446366 -0.448514 -0.564 194 194 206
0.448514 -0.448514 -0.564 191 189 200
0.450663 -0.448514 -0.564 152 154 166
0.476446 -0.448514 -0.564 131 142 160
0.492759 -0.447719 -0.563 163 167 170
0.50241 -0.447719 -0.563 104 115 133
0.507941 -0.446924 -0.562 125 133 154
0.482287 -0.406367 -0.511 149 116 101
0.480459 -0.40239 -0.506 153 117 103
0.49818 -0.3841 -0.483 164 118 92
0.50002 -0.3841 -0.483 163 117 91
0.509481 -0.38569 -0.485 159 113 89
-0.0487667 -0.42966 -0.539 185 151 116
-0.0357295 -0.360309 -0.452 192 156 120
-0.0338571 -0.358714 -0.45 191 155 119
-0.0321429 -0.358714 -0.45 193 153 117
-0.021 -0.358714 -0.45 194 156 117
-0.00130286 -0.363497 -0.456 184 141 107
-0.000434286 -0.363497 -0.456 184 141 109
0.00304667 -0.364294 -0.457 179 135 108
0.0229257 -0.376251 -0.472 146 109 91
0.0288 -0.382629 -0.48 130 102 91
0.0360067 -0.391397 -0.491 118 93 86
0.0444629 -0.400166 -0.502 117 97 88
0.0601543 -0.416109 -0.522 114 95 89
0.0897029 -0.449589 -0.564 45 63 113
0.12471 -0.447994 -0.562 161 169 180
0.464629 -0.449589 -0.564 81 90 121
0.468926 -0.449589 -0.564 177 180 187
0.48418 -0.448791 -0.563 126 145 178
0.490614 -0.448791 -0.563 131 143 157
0.496874 -0.425674 -0.534 130 107 99
0.4905 -0.4185 -0.525 139 113 100
0.478289 -0.389803 -0.489 175 129 105
0.481834 -0.387411 -0.486 172 126 102
0.488149 -0.385817 -0.484 170 124 98
0.48907 -0.385817 -0.484 170 124 98
0.49818 -0.38502 -0.483 166 120 94
0.506587 -0.385817 -0.484 161 115 89
0.523266 -0.391397 -0.491 154 112 87
0.5325 -0.39618 -0.497 149 109 83
-0.02944 -0.357973 -0.448 196 157 118
-0.0260848 -0.358772 -0.449 196 156 120
-0.0209533 -0.358772 -0.449 196 157 118
-0.00817905 -0.36117 -0.452 187 144 110
0.01188 -0.36916 -0.462 167 122 101
0.0163857 -0.371557 -0.465 158 115 98
0.0210381 -0.375552 -0.47 148 111 93
0.0487686 -0.405117 -0.507 114 94 87
0.0531505 -0.409112 -0.512 119 98 93
0.0906162 -0.449864 -0.563 40 61 114
0.103301 -0.449065 -0.562 45 74 130
0.402317 -0.448266 -0.561 184 201 227
0.431169 -0.448266 -0.561 196 201 207
0.450936 -0.449864 -0.563 128 136 149
0.48332 -0.449065 -0.562 138 155 185
0.486531 -0.449065 -0.562 94 111 141
0.502763 -0.448266 -0.561 79 89 114
0.495094 -0.424294 -0.531 136 108 96
0.48326 -0.408313 -0.511 148 116 95
0.479527 -0.401921 -0.503 163 119 94
0.479529 -0.401122 -0.502 164 120 95
0.478445 -0.39393 -0.493 168 124 99
0.479983 -0.388337 -0.486 175 129 103
0.49358 -0.38594 -0.483 167 121 95
0.00130286 -0.365234 -0.456 181 135 109
0.0228771 -0.377249 -0.471 148 109 94
0.02584 -0.381253 -0.476 135 105 94
0.0422114 -0.398874 -0.498 118 95 87
0.0553162 -0.41169 -0.514 116 97 90
0.0884714 -0.450936 -0.563 40 58 96
0.0906162 -0.450936 -0.563 37 60 114
0.10098 -0.449334 -0.561 31 58 113
0.103117 -0.449334 -0.561 36 61 117
0.11594 -0.449334 -0.561 181 181 191
0.136243 -0.449334 -0.561 172 176 188
0.13838 -0.449334 -0.561 198 201 216
0.432237 -0.449334 -0.561 202 205 214
0.457629 -0.450135 -0.562 150 161 181
0.464877 -0.450936 -0.563 181 184 203
0.494025 -0.450135 -0.562 168 171 176
0.497236 -0.450135 -0.562 164 168 177
0.480909 -0.389263 -0.486 174 129 100
0.488149 -0.387661 -0.484 170 125 94
0.49266 -0.38686 -0.483 169 124 95
0.50738 -0.38686 -0.483 159 113 87
0.50922 -0.38686 -0.483 159 113 87
0.516086 -0.389263 -0.486 157 113 88
0.5313 -0.396471 -0.495 152 110 85
0.585516 -0.42931 -0.536 167 141 124
-0.0373686 -0.362089 -0.451 192 156 120
-0.0310771 -0.358877 -0.447 192 154 117
-0.0293743 -0.358877 -0.447 195 157 118
-0.0166771 -0.360483 -0.449 194 155 116
-0.00902 -0.362089 -0.451 188 145 110
0.0109762 -0.370117 -0.461 170 122 100
0.0464676 -0.403837 -0.503 115 95 86
0.0956371 -0.450403 -0.561 27 61 109
0.0999114 -0.450403 -0.561 32 59 114
0.102933 -0.4496 -0.56 49 71 128
0.113803 -0.450403 -0.561 187 188 206
0.394133 -0.4496 -0.56 207 218 246
0.396267 -0.4496 -0.56 141 159 183
0.449065 -0.451206 -0.562 153 161 180
0.46166 -0.452009 -0.563 88 111 142
0.481391 -0.450403 -0.561 142 157 186
0.493146 -0.450403 -0.561 166 169 178
0.49742 -0.450403 -0.561 160 168 179
0.482374 -0.407049 -0.507 157 122 100
0.479524 -0.401429 -0.5 167 125 100
0.479503 -0.399823 -0.498 169 127 102
0.47931 -0.394203 -0.491 173 127 101
0.48097 -0.390991 -0.487 173 128 99
0.483614 -0.389386 -0.485 170 124 98
0.49623 -0.386977 -0.482 165 118 92
-0.0310771 -0.359729 -0.447 194 154 118
0.00654286 -0.368581 -0.458 174 130 103
0.0378 -0.394333 -0.49 118 93 86
0.0388914 -0.395943 -0.492 120 93 84
0.0893848 -0.452276 -0.562 35 68 113
0.0904552 -0.452276 -0.562 51 84 129
0.0922667 -0.450667 -0.56 47 74 121
0.0986667 -0.450667 -0.56 39 69 123
0.442923 -0.451471 -0.561 141 160 200
0.447197 -0.451471 -0.561 175 189 216
0.46084 -0.452276 -0.562 105 135 169
0.468569 -0.451471 -0.561 174 182 184
0.469637 -0.451471 -0.561 182 190 192
0.502933 -0.450667 -0.56 69 92 123
0.494309 -0.424914 -0.528 137 105 92
0.480476 -0.402381 -0.5 171 127 102
0.47922 -0.393529 -0.489 169 123 97
0.48097 -0.391919 -0.487 175 130 101
0.484538 -0.39031 -0.485 176 131 102
0.491836 -0.389505 -0.484 173 126 98
0.495312 -0.387895 -0.482 168 122 98
0.500698 -0.38709 -0.481 167 121 97
0.523929 -0.393529 -0.489 156 112 85
-0.0319286 -0.36058 -0.447 192 154 117
-0.01664 -0.361387 -0.448 195 155 119
-0.00644286 -0.363807 -0.451 185 140 107
0.00216667 -0.367033 -0.455 176 131 102
0.00478762 -0.368647 -0.457 175 131 104
0.00830571 -0.37026 -0.459 169 125 100
0.0118543 -0.371873 -0.461 168 123 102
0.0136695 -0.373487 -0.463 163 120 101
0.0219333 -0.379133 -0.47 147 110 92
0.0257314 -0.38236 -0.474 138 105 90
0.0266905 -0.383167 -0.475 136 104 91
0.0277114 -0.38478 -0.477 134 102 89
0.0892257 -0.45254 -0.561 68 102 140
0.0933333 -0.451733 -0.56 42 69 114
0.118933 -0.451733 -0.56 192 190 204
0.132563 -0.450927 -0.559 194 200 212
0.14321 -0.450927 -0.559 202 205 214
0.18793 -0.450927 -0.559 206 207 209
0.431761 -0.450927 -0.559 207 207 215
0.486062 -0.415433 -0.515 144 114 88
0.484538 -0.391233 -0.485 178 133 104
0.49266 -0.38962 -0.483 174 128 102
0.507248 -0.388813 -0.482 159 114 85
-0.0353343 -0.361431 -0.447 195 157 121
-0.0335562 -0.360623 -0.446 194 156 119
0.00216667 -0.3679 -0.455 176 131 102
0.00390857 -0.368709 -0.456 176 132 105
0.0056581 -0.369517 -0.457 174 130 103
0.0336495 -0.391349 -0.484 117 94 88
0.062381 -0.423691 -0.524 111 92 86
0.0814543 -0.451991 -0.559 149 149 161
0.0901333 -0.4528 -0.56 92 123 154
0.0944 -0.4528 -0.56 42 70 117
0.0997333 -0.4528 -0.56 56 79 123
0.119786 -0.451991 -0.559 195 193 207
0.406207 -0.451991 -0.559 209 212 217
0.439214 -0.451991 -0.559 72 105 156
0.451733 -0.4528 -0.56 148 176 215
0.474133 -0.4528 -0.56 122 135 144
0.489067 -0.4528 -0.56 98 117 157
0.4824 -0.40752 -0.504 158 116 94
0.480099 -0.394583 -0.488 177 131 107
0.481898 -0.393774 -0.487 173 127 101
0.49266 -0.39054 -0.483 175 128 102
0.493476 -0.389731 -0.482 173 126 100
0.525791 -0.395391 -0.489 153 110 76
-0.0174543 -0.362283 -0.447 195 155 119
-0.00301333 -0.366335 -0.452 184 139 108
0.0306286 -0.389029 -0.48 121 96 89
0.0420419 -0.401996 -0.496 116 93 85
0.0552086 -0.415774 -0.513 116 96 89
0.0901333 -0.453867 -0.56 115 140 162
0.096361 -0.453056 -0.559 59 86 133
0.10062 -0.453056 -0.559 70 91 134
0.394851 -0.452246 -0.558 166 191 213
0.399103 -0.452246 -0.558 220 221 226
0.419297 -0.452246 -0.558 123 155 193
0.425674 -0.452246 -0.558 212 216 219
0.437366 -0.452246 -0.558 114 131 151
0.446668 -0.453056 -0.559 104 132 179
0.4528 -0.453867 -0.56 90 123 176
0.453867 -0.453867 -0.56 70 103 156
0.457067 -0.453867 -0.56 49 90 144
0.482667 -0.453867 -0.56 131 152 195
0.508577 -0.452246 -0.558 28 60 109
0.490732 -0.422258 -0.521 145 107 98
0.481083 -0.396323 -0.489 176 130 106
0.482826 -0.394702 -0.487 177 129 106
0.483686 -0.393891 -0.486 172 125 99
0.486305 -0.39227 -0.484 172 125 99
0.49266 -0.39146 -0.483 175 128 102
0.497033 -0.389839 -0.481 171 124 96
0.49795 -0.389839 -0.481 171 124 96
0.932199 -0.453056 -0.559 195 197 183
1.02498 -0.455488 -0.562 117 118 113
-0.0538 -0.437061 -0.538 187 148 115
-0.0378886 -0.363134 -0.447 193 153 118
-0.0131971 -0.363134 -0.447 191 148 114
-0.00387429 -0.367196 -0.452 183 138 107
0.0100762 -0.373695 -0.46 165 123 99
0.0218867 -0.381007 -0.469 144 109 89
0.0295905 -0.388318 -0.478 127 99 88
0.0316086 -0.390755 -0.481 118 93 86
0.0599238 -0.422438 -0.52 111 92 86
0.0921019 -0.454121 -0.559 79 103 139
0.402291 -0.453309 -0.558 180 179 184
0.45625 -0.454121 -0.559 54 95 149
0.459445 -0.454121 -0.559 152 177 217
0.470092 -0.454121 -0.559 176 177 179
0.498129 -0.431374 -0.531 134 106 95
0.489837 -0.421626 -0.519 147 108 93
0.48138 -0.403753 -0.497 171 125 101
0.483686 -0.394817 -0.486 169 123 99
0.486305 -0.393192 -0.484 171 125 101
0.48898 -0.39238 -0.483 170 124 98
0.495312 -0.391568 -0.482 174 127 101
0.938976 -0.458995 -0.565 189 189 179
0.9968 -0.454933 -0.56 115 116 111
1.00427 -0.454933 -0.56 109 111 108
-0.0432771 -0.373757 -0.459 187 151 117
-0.03968 -0.3648 -0.448 195 157 121
-0.01152 -0.3648 -0.448 187 144 112
-0.000431429 -0.368871 -0.453 179 134 105
0.00303333 -0.3705 -0.455 175 131 104
0.0118286 -0.374571 -0.46 163 121 97
0.0181571 -0.378643 -0.465 149 113 91
0.0190838 -0.379457 -0.466 148 111 92
0.0495381 -0.411214 -0.505 114 93 88
0.0622619 -0.425871 -0.523 109 88 83
0.088 -0.456 -0.56 139 147 160
0.402631 -0.453557 -0.557 223 221 224
0.425972 -0.453557 -0.557 199 211 225
0.432338 -0.453557 -0.557 207 210 215
0.433399 -0.453557 -0.557 206 211 215
0.451183 -0.454371 -0.558 46 88 148
0.470092 -0.455186 -0.559 175 176 180
0.47988 -0.454371 -0.558 96 134 183
0.487076 -0.418543 -0.514 150 109 89
0.481429 -0.407143 -0.5 168 123 102
0.484538 -0.394929 -0.485 176 130 104
0.488149 -0.394114 -0.484 172 126 100
0.508028 -0.391671 -0.481 161 116 87
0.52149 -0.394929 -0.485 151 110 78
0.529667 -0.399 -0.49 151 110 80
0.966271 -0.455186 -0.559 118 119 111
0.967336 -0.455186 -0.559 115 118 111
0.968401 -0.455186 -0.559 114 117 110
0.97092 -0.454371 -0.558 130 133 124
0.978667 -0.456 -0.56 119 122 113
1.01856 -0.457629 -0.562 107 108 103
1.01963 -0.457629 -0.562 107 108 103
-0.0385667 -0.363205 -0.445 194 156 120
-0.037719 -0.363205 -0.445 193 155 119
-0.0308686 -0.362389 -0.444 193 153 117
-0.0283314 -0.362389 -0.444 193 153 117
-0.0274857 -0.362389 -0.444 195 155 119
-0.00557143 -0.367286 -0.45 184 139 110
-0.00215238 -0.368918 -0.452 181 136 107
0.00477714 -0.372183 -0.456 173 128 105
0.00652857 -0.372999 -0.457 171 126 103
0.0154333 -0.377896 -0.463 153 115 92
0.0172343 -0.378712 -0.464 147 111 89
0.0247238 -0.385242 -0.472 136 104 91
0.0347143 -0.396669 -0.486 117 94 88
0.0835838 -0.45625 -0.559 83 97 124
0.0846486 -0.45625 -0.559 121 132 154
0.0867781 -0.45625 -0.559 145 154 171
0.11087 -0.454618 -0.557 87 101 136
0.11193 -0.454618 -0.557 84 102 148
0.429155 -0.454618 -0.557 214 213 211
0.43446 -0.454618 -0.557 205 209 210
0.475629 -0.455434 -0.558 83 115 166
0.490509 -0.455434 -0.558 164 165 169
0.497056 -0.454618 -0.557 175 171 172
0.498117 -0.454618 -0.557 179 178 183
0.504607 -0.439927 -0.539 120 96 94
0.486305 -0.395036 -0.484 175 129 103
0.496117 -0.392588 -0.481 173 127 94
0.497829 -0.391771 -0.48 170 124 91
1.0125 -0.46278 -0.567 100 102 101
-0.0274238 -0.362416 -0.443 194 154 119
-0.02658 -0.362416 -0.443 195 155 120
-0.019919 -0.364052 -0.445 194 151 117
-0.00981333 -0.366507 -0.448 182 138 109
-0.00129143 -0.369779 -0.452 179 134 105
0.00652857 -0.37387 -0.457 170 125 102
0.01452 -0.37796 -0.462 158 118 93
0.0388124 -0.401685 -0.491 115 90 86
0.0441086 -0.407411 -0.498 117 94 88
0.0622619 -0.427864 -0.523 110 86 82
0.101321 -0.455679 -0.557 80 105 135
0.139265 -0.454861 -0.556 178 186 207
0.141383 -0.454861 -0.556 99 113 142
0.142442 -0.454861 -0.556 105 119 148
0.15515 -0.454861 -0.556 124 149 180
0.40085 -0.454861 -0.556 224 225 230
0.42203 -0.454861 -0.556 113 156 198
0.424149 -0.454861 -0.556 170 192 215
0.427326 -0.454861 -0.556 212 217 221
0.473715 -0.455679 -0.557 70 105 161
0.484325 -0.455679 -0.557 63 100 153
0.486447 -0.455679 -0.557 65 102 154
0.497223 -0.454861 -0.556 163 162 168
0.499341 -0.454861 -0.556 157 164 182
0.504636 -0.454861 -0.556 71 98 141
0.48618 -0.418047 -0.511 148 110 89
0.481083 -0.400049 -0.489 171 125 99
0.503178 -0.391868 -0.479 166 119 89
0.997647 -0.465496 -0.569 105 105 103
-0.0556419 -0.43952 -0.536 187 148 117
-0.02658 -0.36326 -0.443 193 153 118
-0.015681 -0.3649 -0.445 191 148 116
0.0039 -0.3731 -0.455 173 129 102
0.0127048 -0.3772 -0.46 158 116 92
0.0218867 -0.38458 -0.469 140 105 86
0.02856 -0.39032 -0.476 125 96 88
0.0451476 -0.40918 -0.499 115 95 88
0.0538086 -0.41738 -0.509 111 92 88
0.0573857 -0.4223 -0.515 113 93 92
0.0662486 -0.43542 -0.531 107 87 88
0.0822238 -0.45674 -0.557 122 137 156
0.0866229 -0.45756 -0.558 143 156 173
0.0949552 -0.45674 -0.557 89 111 148
0.101139 -0.45592 -0.556 86 107 138
0.104316 -0.45592 -0.556 154 169 192
0.106434 -0.45592 -0.556 174 180 196
0.425208 -0.45592 -0.556 193 219 246
0.426267 -0.45592 -0.556 210 215 221
0.432621 -0.45592 -0.556 167 172 166
0.457801 -0.45674 -0.557 161 164 171
0.482203 -0.45674 -0.557 55 95 157
0.487508 -0.45674 -0.557 69 104 158
0.491751 -0.45674 -0.557 164 175 181
0.496164 -0.45592 -0.556 125 124 122
0.50102 -0.43706 -0.533 128 94 92
0.492717 -0.42722 -0.521 134 105 89
0.481223 -0.40344 -0.492 167 125 100
0.481958 -0.40016 -0.488 169 123 97
0.48276 -0.39852 -0.486 171 126 97
0.485462 -0.3977 -0.485 175 128 98
0.5088 -0.3936 -0.48 165 119 86
0.509714 -0.3936 -0.48 162 116 83
0.850945 -0.45592 -0.556 176 178 167
1.00291 -0.46904 -0.572 107 106 104
-0.0403524 -0.36657 -0.446 193 154 123
-0.0215657 -0.364926 -0.444 193 150 118
-0.015681 -0.365748 -0.445 190 146 117
-0.00129143 -0.371501 -0.452 179 134 105
0.0181181 -0.381364 -0.464 148 109 92
0.0377229 -0.401911 -0.489 119 91 87
0.0419571 -0.406843 -0.495 116 91 86
0.0799581 -0.456979 -0.556 97 113 138
0.0894895 -0.456979 -0.556 80 95 124
0.0949552 -0.457801 -0.557 100 124 160
0.0969029 -0.456979 -0.556 91 115 159
0.115757 -0.456157 -0.555 160 172 198
0.125271 -0.456157 -0.555 177 181 193
0.130557 -0.456157 -0.555 192 194 207
0.429729 -0.456157 -0.555 211 217 215
0.44533 -0.456979 -0.556 44 83 148
0.458862 -0.457801 -0.557 186 189 204
0.462045 -0.457801 -0.557 195 196 201
0.463106 -0.457801 -0.557 198 195 202
0.491751 -0.457801 -0.557 156 172 185
0.498282 -0.456979 -0.556 96 104 117
0.499341 -0.456979 -0.556 88 102 128
0.489954 -0.424103 -0.516 139 105 93
0.481297 -0.406021 -0.494 165 124 96
0.481083 -0.401911 -0.489 173 129 100
0.48276 -0.399446 -0.486 170 126 97
0.497829 -0.394514 -0.48 173 125 89
0.499529 -0.393692 -0.479 175 127 91
0.503038 -0.39287 -0.478 164 115 85
0.509565 -0.393692 -0.479 163 116 86
0.8177 -0.456157 -0.555 188 190 177
0.82341 -0.456979 -0.556 171 173 162
0.826157 -0.456157 -0.555 170 172 161
0.838683 -0.457801 -0.557 165 165 157
0.843988 -0.457801 -0.557 161 161 151
0.854597 -0.457801 -0.557 152 153 145
0.85778 -0.457801 -0.557 150 150 140
-0.0367057 -0.364948 -0.443 196 156 121
-0.0290457 -0.364124 -0.442 192 152 117
-0.0165286 -0.366595 -0.445 190 145 114
-0.015681 -0.366595 -0.445 190 145 114
-0.0114686 -0.367419 -0.446 185 140 111
-0.000430476 -0.372362 -0.452 177 131 105
0.0181181 -0.382248 -0.464 148 109 94
0.0256229 -0.388838 -0.472 132 99 92
0.0315429 -0.395429 -0.48 118 95 87
0.0346429 -0.399548 -0.485 116 93 87
0.0832848 -0.458862 -0.557 145 151 167
0.0916076 -0.458038 -0.556 83 105 142
0.104129 -0.457214 -0.555 167 178 198
0.464614 -0.457214 -0.555 192 199 217
0.485573 -0.458038 -0.556 45 91 153
0.495271 -0.457214 -0.555 108 111 126
0.482398 -0.413552 -0.502 153 115 96
0.493369 -0.396252 -0.481 177 131 95
0.494171 -0.395429 -0.48 177 131 95
0.494967 -0.394605 -0.479 176 127 94
0.498616 -0.394605 -0.479 174 126 90
0.50774 -0.394605 -0.479 164 117 87
0.51139 -0.394605 -0.479 164 117 87
0.531223 -0.402019 -0.488 151 110 82
0.818114 -0.458038 -0.556 174 175 167
0.820647 -0.458862 -0.557 147 148 142
0.833378 -0.458862 -0.557 139 140 132
0.844889 -0.46051 -0.559 131 132 124
0.849148 -0.46051 -0.559 130 130 122
0.851277 -0.46051 -0.559 130 130 122
0.856601 -0.46051 -0.559 121 121 113
0.880377 -0.464629 -0.564 117 114 105
-0.0429971 -0.369094 -0.447 190 151 120
-0.0215171 -0.365791 -0.443 193 150 118
-0.010619 -0.368269 -0.446 182 137 108
-0.00808857 -0.369094 -0.447 180 135 106
-0.00725333 -0.36992 -0.448 181 136 107
0.000430476 -0.373223 -0.452 174 128 102
0.0109048 -0.378177 -0.458 160 117 98
0.0118029 -0.379003 -0.459 158 115 98
0.0275952 -0.392214 -0.475 125 96 88
0.0325248 -0.397169 -0.481 117 94 88
0.03358 -0.39882 -0.483 117 94 88
0.0376457 -0.402949 -0.488 117 92 88
0.0560762 -0.422766 -0.512 112 91 88
0.12399 -0.457446 -0.554 178 186 207
0.131377 -0.457446 -0.554 168 175 194
0.396242 -0.457446 -0.554 213 218 224
0.443471 -0.458271 -0.555 51 86 152
0.492987 -0.459097 -0.556 150 156 170
0.498443 -0.458271 -0.555 55 80 120
0.505987 -0.457446 -0.554 25 56 103
0.482349 -0.411206 -0.498 163 117 93
0.48216 -0.406251 -0.492 165 120 97
0.488149 -0.399646 -0.484 178 133 102
0.4899 -0.39882 -0.483 179 133 99
0.510477 -0.395517 -0.479 163 116 86
0.808583 -0.459097 -0.556 153 154 148
0.809642 -0.459097 -0.556 153 154 148
0.815342 -0.459923 -0.557 151 152 146
0.831686 -0.460749 -0.558 117 119 108
0.8464 -0.4624 -0.56 118 119 111
0.847467 -0.4624 -0.56 119 120 112
0.859666 -0.463226 -0.561 116 117 109
0.88398 -0.46818 -0.567 120 117 108
-0.0409248 -0.366635 -0.443 192 153 122
0.00389143 -0.375739 -0.454 172 127 104
0.013581 -0.380705 -0.46 154 112 96
0.024619 -0.388981 -0.47 132 102 94
0.0417876 -0.408016 -0.493 116 93 85
0.0537029 -0.42043 -0.508 112 91 88
0.0677667 -0.442776 -0.535 102 88 88
0.0872143 -0.459329 -0.555 119 127 150
0.451929 -0.459329 -0.555 55 93 158
0.461443 -0.459329 -0.555 109 134 156
0.473274 -0.458501 -0.554 47 86 143
0.476243 -0.459329 -0.555 39 82 151
0.483643 -0.459329 -0.555 41 85 146
0.48906 -0.424569 -0.513 136 107 93
0.482301 -0.410499 -0.496 159 117 93
0.481223 -0.407189 -0.492 157 115 91
0.482115 -0.406361 -0.491 162 121 99
0.502128 -0.395602 -0.478 166 117 85
0.502894 -0.394774 -0.477 168 119 87
0.800786 -0.459329 -0.555 125 128 121
0.806465 -0.460156 -0.556 121 124 117
0.808976 -0.460984 -0.557 120 123 116
0.811491 -0.461811 -0.558 120 123 116
0.850493 -0.465122 -0.562 117 118 110
-0.03318 -0.36582 -0.441 189 150 117
-0.02814 -0.36582 -0.441 192 151 119
-0.0239943 -0.36665 -0.442 194 150 121
-0.00892 -0.369968 -0.446 180 134 108
-0.00808857 -0.370797 -0.447 180 134 108
-0.00384857 -0.372456 -0.449 176 130 104
0.00914 -0.379092 -0.457 161 119 97
0.018079 -0.38407 -0.463 145 107 94
0.0397476 -0.407296 -0.491 117 92 88
0.0860019 -0.459556 -0.554 122 134 160
0.0891676 -0.459556 -0.554 82 97 136
0.111127 -0.458727 -0.553 183 186 203
0.114287 -0.458727 -0.553 157 164 182
0.136407 -0.458727 -0.553 125 145 182
0.431065 -0.459556 -0.554 110 133 164
0.444783 -0.459556 -0.554 47 86 155
0.458501 -0.459556 -0.554 61 99 144
0.478357 -0.460386 -0.555 35 83 149
0.481356 -0.411444 -0.496 158 118 93
0.482067 -0.406467 -0.49 165 124 96
0.483 -0.406467 -0.49 167 126 98
0.483614 -0.402319 -0.485 172 128 99
0.488886 -0.39983 -0.482 174 127 97
0.494054 -0.397342 -0.479 180 133 103
0.817205 -0.463704 -0.559 116 117 112
0.842569 -0.465363 -0.561 117 120 111
0.852446 -0.467851 -0.564 115 116 108
0.865795 -0.468681 -0.565 117 118 112
-0.03402 -0.36666 -0.441 191 152 119
-0.02814 -0.36666 -0.441 193 152 120
-0.0139543 -0.369154 -0.444 187 142 113
0.00389143 -0.377469 -0.454 168 124 99
0.0315429 -0.399086 -0.48 117 92 85
0.0491457 -0.416546 -0.501 116 93 87
0.0503 -0.418209 -0.503 115 92 86
0.081781 -0.460611 -0.554 147 153 165
0.426073 -0.45978 -0.553 171 183 197
0.436341 -0.460611 -0.554 92 129 184
0.45217 -0.460611 -0.554 60 99 156
0.471367 -0.45978 -0.553 83 119 171
0.473274 -0.460611 -0.554 69 111 169
0.499655 -0.460611 -0.554 162 165 174
0.489082 -0.425691 -0.512 140 102 89
0.48432 -0.41904 -0.504 148 109 92
0.483 -0.4074 -0.49 167 123 96
0.483614 -0.403243 -0.485 172 127 98
0.484538 -0.403243 -0.485 174 129 100
0.513964 -0.397423 -0.478 159 114 81
0.837648 -0.467263 -0.562 114 115 109
0.840859 -0.467263 -0.562 116 119 112
0.860414 -0.469757 -0.565 120 121 115
0.870562 -0.470589 -0.566 114 115 109
0.888041 -0.474746 -0.571 125 124 119
-0.0408324 -0.368333 -0.442 191 153 116
-0.0172981 -0.369167 -0.443 189 144 115
-0.0156105 -0.369167 -0.443 189 144 115
0.00215714 -0.3775 -0.453 170 124 98
0.0314771 -0.399167 -0.479 120 93 86
0.0365657 -0.405 -0.486 117 94 86
0.0417876 -0.410833 -0.493 118 91 84
0.0503 -0.419167 -0.503 115 92 86
0.0535971 -0.4225 -0.507 112 91 86
0.05848 -0.43 -0.516 107 85 87
0.0677667 -0.445833 -0.535 91 82 83
0.0784733 -0.460833 -0.553 144 151 170
0.10672 -0.46 -0.552 179 183 195
0.111977 -0.46 -0.552 176 178 190
0.11408 -0.46 -0.552 136 144 157
0.395863 -0.46 -0.552 142 168 205
0.446893 -0.461667 -0.554 44 85 151
0.46294 -0.460833 -0.553 197 204 220
0.465047 -0.460833 -0.553 188 198 207
0.483643 -0.4625 -0.555 88 134 184
0.486814 -0.4625 -0.555 68 110 160
0.505073 -0.460833 -0.553 40 72 123
0.506127 -0.460833 -0.553 28 60 111
0.508366 -0.46 -0.552 31 64 117
0.509417 -0.46 -0.552 34 67 120
0.502174 -0.4425 -0.531 118 94 94
0.481297 -0.411667 -0.494 156 116 91
0.48705 -0.401667 -0.482 175 128 100
0.487968 -0.401667 -0.482 173 126 98
0.488886 -0.401667 -0.482 171 124 96
0.491536 -0.400833 -0.481 177 130 102
0.498351 -0.3975 -0.477 173 124 94
0.502747 -0.396667 -0.476 171 124 94
0.51198 -0.3975 -0.477 166 119 89
0.514706 -0.3975 -0.477 156 113 81
0.820908 -0.469167 -0.563 98 99 94
0.851805 -0.470833 -0.565 118 119 113
0.85698 -0.4725 -0.567 115 116 110
-0.047441 -0.381704 -0.457 189 150 117
-0.0389714 -0.367505 -0.44 193 155 119
-0.0355381 -0.36667 -0.439 193 153 118
-0.0164543 -0.37001 -0.443 188 143 112
0.0246714 -0.393397 -0.471 129 100 92
0.0314771 -0.400079 -0.479 120 93 84
0.0325248 -0.40175 -0.481 119 92 85
0.0396667 -0.409267 -0.49 117 92 85
0.0535971 -0.423466 -0.507 114 90 90
0.101463 -0.461051 -0.552 115 139 177
0.113029 -0.461051 -0.552 161 169 182
0.417943 -0.461051 -0.552 121 165 212
0.447949 -0.462722 -0.554 47 86 153
0.455567 -0.461887 -0.553 185 195 205
0.467153 -0.461887 -0.553 174 188 199
0.470313 -0.461887 -0.553 100 135 177
0.499655 -0.462722 -0.554 172 179 187
0.483333 -0.417619 -0.5 151 110 90
0.483753 -0.406761 -0.487 170 126 97
0.487968 -0.402585 -0.482 170 123 95
0.498351 -0.398409 -0.477 171 122 90
0.51198 -0.398409 -0.477 168 119 87
0.8249 -0.47191 -0.565 100 101 96
0.825976 -0.47191 -0.565 118 118 116
0.851156 -0.472745 -0.566 123 124 119
-0.0595029 -0.447034 -0.534 188 147 117
-0.0445 -0.372529 -0.445 189 151 115
-0.0398095 -0.368343 -0.44 194 155 122
-0.02562 -0.36918 -0.441 194 151 119
-0.02394 -0.36918 -0.441 194 151 119
0.00736667 -0.3809 -0.455 164 119 98
0.00825143 -0.381737 -0.456 162 117 96
0.0109048 -0.383411 -0.458 155 113 97
0.0126771 -0.384249 -0.459 152 110 94
0.0135514 -0.384249 -0.459 147 108 93
0.0190019 -0.388434 -0.464 141 103 90
0.0236733 -0.39262 -0.469 135 99 87
0.0375686 -0.407689 -0.487 117 92 85
0.0469543 -0.416897 -0.498 117 92 87
0.0559667 -0.42778 -0.511 111 87 83
0.08464 -0.462103 -0.552 109 115 137
0.0877943 -0.462103 -0.552 67 94 137
0.113029 -0.462103 -0.552 183 185 200
0.113873 -0.461266 -0.551 147 149 164
0.132765 -0.461266 -0.551 82 116 164
0.398294 -0.461266 -0.551 213 227 236
0.401443 -0.461266 -0.551 195 213 225
0.44714 -0.46294 -0.553 50 87 157
0.45662 -0.46294 -0.553 196 205 214
0.46 -0.462103 -0.552 194 204 214
0.462103 -0.462103 -0.552 196 209 217
0.475385 -0.463777 -0.554 74 117 172
0.483317 -0.417734 -0.499 151 108 91
0.483686 -0.406851 -0.486 171 127 98
0.49062 -0.402666 -0.481 175 126 96
0.494054 -0.400991 -0.479 177 127 100
0.51272 -0.39848 -0.476 159 114 83
0.8289 -0.47466 -0.567 97 101 100
0.832526 -0.475497 -0.568 117 118 113
0.85158 -0.47466 -0.567 110 111 105
0.85266 -0.47466 -0.567 109 110 105
0.897372 -0.483031 -0.577 107 104 97
-0.0453476 -0.373376 -0.445 186 150 118
-0.0444 -0.372537 -0.444 187 151 119
-0.0105952 -0.373376 -0.445 180 136 107
-0.00974762 -0.373376 -0.445 179 135 106
0.00648571 -0.380928 -0.454 164 122 100
0.00825143 -0.382606 -0.456 159 117 95
0.0535971 -0.425397 -0.507 112 88 84
0.07714 -0.462315 -0.551 143 147 158
0.0867429 -0.463154 -0.552 63 85 122
0.403542 -0.462315 -0.551 129 150 177
0.404591 -0.462315 -0.551 117 153 187
0.423483 -0.462315 -0.551 212 221 228
0.427406 -0.463154 -0.552 215 221 233
0.431611 -0.463154 -0.552 210 221 227
0.451353 -0.463993 -0.553 105 133 173
0.45346 -0.463993 -0.553 157 180 198
0.455794 -0.463154 -0.552 190 207 214
0.457897 -0.463154 -0.552 197 207 216
0.479414 -0.465671 -0.555 67 111 156
0.483643 -0.465671 -0.555 84 126 176
0.503729 -0.465671 -0.555 119 127 129
0.511263 -0.464832 -0.554 103 110 118
0.514674 -0.463154 -0.552 108 108 110
0.48622 -0.40526 -0.483 172 122 95
0.487968 -0.404421 -0.482 171 122 92
0.4896 -0.402743 -0.48 170 125 96
0.491429 -0.402743 -0.48 171 124 96
0.510738 -0.398548 -0.475 164 117 87
0.845509 -0.476579 -0.568 106 107 102
0.856751 -0.477418 -0.569 102 103 98
0.857835 -0.477418 -0.569 105 107 102
0.8626 -0.478257 -0.57 101 103 98
0.877165 -0.479096 -0.571 103 104 99
0.884149 -0.479935 -0.572 103 102 98
0.888333 -0.481613 -0.574 93 94 88
-0.0272381 -0.370019 -0.44 196 153 121
-0.02394 -0.37086 -0.441 192 147 116
-0.017259 -0.371701 -0.442 186 143 111
-0.00637143 -0.375065 -0.446 175 131 102
0.00128857 -0.37927 -0.451 168 124 99
0.00735048 -0.381792 -0.454 160 118 96
0.00912 -0.383474 -0.456 157 115 93
0.0117771 -0.385156 -0.458 148 111 95
0.0153333 -0.386838 -0.46 144 106 93
0.0162448 -0.387679 -0.461 143 105 92
0.0265781 -0.39777 -0.473 126 97 89
0.0375686 -0.409544 -0.487 117 92 87
0.0406829 -0.412908 -0.491 115 91 81
0.047999 -0.419635 -0.499 116 91 84
0.0844867 -0.463365 -0.551 71 87 113
0.0939324 -0.463365 -0.551 76 99 143
0.102329 -0.463365 -0.551 151 159 180
0.118905 -0.462524 -0.55 48 81 135
0.123095 -0.462524 -0.55 64 93 149
0.391997 -0.463365 -0.551 206 218 230
0.398619 -0.462524 -0.55 211 221 230
0.438713 -0.465047 -0.553 144 159 190
0.442927 -0.465047 -0.553 42 87 154
0.46 -0.464206 -0.552 201 209 211
0.462103 -0.464206 -0.552 202 208 208
0.46926 -0.465047 -0.553 126 138 152
0.497386 -0.466729 -0.555 164 163 161
0.504786 -0.466729 -0.555 149 150 154
0.494813 -0.435613 -0.518 122 98 88
0.48216 -0.413749 -0.492 158 117 95
0.486131 -0.405339 -0.482 174 124 97
0.488788 -0.404498 -0.481 169 124 95
0.507119 -0.399452 -0.475 168 121 93
0.512548 -0.399452 -0.475 162 115 85
0.521066 -0.401134 -0.477 150 109 81
0.83512 -0.481025 -0.572 27 31 30
0.838389 -0.481025 -0.572 110 112 107
0.851332 -0.478502 -0.569 97 98 92
0.856086 -0.479343 -0.57 98 101 94
0.859343 -0.479343 -0.57 107 108 102
0.866289 -0.480184 -0.571 107 110 103
-0.0156105 -0.373386 -0.443 185 142 110
-0.00637143 -0.375914 -0.446 174 130 101
-0.00128286 -0.378443 -0.449 170 126 101
0.00998857 -0.384343 -0.456 151 112 97
0.010881 -0.385186 -0.457 151 112 97
0.0117514 -0.385186 -0.457 148 110 97
0.0153333 -0.387714 -0.46 144 106 93
0.0217467 -0.392771 -0.466 135 101 91
0.0236733 -0.3953 -0.469 131 97 87
0.024619 -0.396143 -0.47 128 99 93
0.0314771 -0.403729 -0.479 120 93 86
0.033441 -0.405414 -0.481 117 92 85
0.0427267 -0.415529 -0.493 115 90 83
0.085381 -0.463571 -0.55 55 82 125
0.099 -0.463571 -0.55 64 92 140
0.108429 -0.463571 -0.55 177 185 198
0.114714 -0.463571 -0.55 161 177 200
0.386048 -0.463571 -0.55 127 171 218
0.38919 -0.463571 -0.55 206 222 237
0.394096 -0.464414 -0.551 213 221 234
0.40669 -0.464414 -0.551 123 159 193
0.422433 -0.464414 -0.551 211 221 231
0.423483 -0.464414 -0.551 217 226 233
0.462103 -0.465257 -0.552 172 172 172
0.464206 -0.465257 -0.552 169 167 170
0.472219 -0.466943 -0.554 130 141 145
0.48981 -0.468629 -0.556 156 155 160
0.494046 -0.468629 -0.556 161 170 169
0.513243 -0.467786 -0.555 140 144 147
0.5143 -0.467786 -0.555 132 136 139
0.515841 -0.464414 -0.551 101 87 86
0.49764 -0.439971 -0.522 116 96 85
0.484611 -0.409629 -0.486 166 120 94
0.48438 -0.4071 -0.483 171 124 98
0.487968 -0.406257 -0.482 170 123 95
0.49223 -0.403729 -0.479 173 126 96
0.493142 -0.403729 -0.479 176 127 97
0.5035 -0.400357 -0.475 169 120 90
0.514177 -0.399514 -0.474 163 118 89
0.868895 -0.482114 -0.572 82 84 79
0.884603 -0.482957 -0.573 56 57 52
-0.0346229 -0.370006 -0.438 192 151 119
-0.0296848 -0.37085 -0.439 194 151 119
-0.0105714 -0.375074 -0.444 178 135 103
0.00735048 -0.383522 -0.454 158 116 94
0.0324571 -0.405486 -0.48 119 92 85
0.0345 -0.40802 -0.483 120 92 88
0.0406829 -0.414778 -0.491 116 91 86
0.05136 -0.42576 -0.504 112 91 86
0.0559667 -0.431673 -0.511 106 85 82
0.0637419 -0.44519 -0.527 95 82 89
0.0822381 -0.464619 -0.55 119 128 145
0.0864286 -0.464619 -0.55 52 81 125
0.122871 -0.463774 -0.549 48 80 141
0.13542 -0.463774 -0.549 199 198 212
0.380117 -0.463774 -0.549 71 115 188
0.3843 -0.463774 -0.549 78 124 176
0.40879 -0.465464 -0.551 121 156 194
0.43766 -0.467153 -0.553 162 166 175
0.494934 -0.470532 -0.557 164 170 166
0.496724 -0.439276 -0.52 121 99 86
0.489704 -0.40633 -0.481 175 128 98
0.491429 -0.405486 -0.48 171 124 94
0.498976 -0.401262 -0.475 175 124 93
0.503343 -0.400417 -0.474 170 121 91
0.508588 -0.399572 -0.473 168 118 91
0.518881 -0.401262 -0.475 152 111 83
0.840186 -0.482359 -0.571 118 120 115
0.876522 -0.483204 -0.572 120 122 119
-0.0450419 -0.374227 -0.442 192 149 117
-0.0296848 -0.371687 -0.439 192 149 117
-0.0255038 -0.371687 -0.439 193 150 118
-0.0246676 -0.371687 -0.439 192 149 117
-0.00805238 -0.376767 -0.445 173 132 102
-0.00298 -0.37846 -0.447 169 128 100
0.00473524 -0.382693 -0.452 162 121 99
0.00821524 -0.384387 -0.454 154 113 93
0.00998857 -0.38608 -0.456 152 110 94
0.0135219 -0.387773 -0.458 146 107 92
0.0226829 -0.395393 -0.467 132 98 88
0.0651143 -0.448733 -0.53 98 85 92
0.0810429 -0.46482 -0.549 136 144 163
0.0820886 -0.46482 -0.549 117 125 144
0.08418 -0.46482 -0.549 59 78 111
0.0937619 -0.465667 -0.55 44 77 128
0.105094 -0.46482 -0.549 178 179 199
0.112414 -0.46482 -0.549 182 185 202
0.342471 -0.46482 -0.549 133 164 193
0.344563 -0.46482 -0.549 127 166 205
0.348746 -0.46482 -0.549 105 146 190
0.357762 -0.465667 -0.55 202 224 237
0.364431 -0.46482 -0.549 218 222 231
0.387095 -0.465667 -0.55 142 149 167
0.415087 -0.466513 -0.551 187 191 194
0.416136 -0.466513 -0.551 186 190 193
0.435553 -0.468207 -0.553 204 203 208
0.438713 -0.468207 -0.553 196 200 201
0.457897 -0.46736 -0.552 183 187 190
0.463154 -0.46736 -0.552 186 184 187
0.474129 -0.4699 -0.555 178 178 176
0.493697 -0.47244 -0.558 163 159 158
0.512829 -0.47244 -0.558 127 131 130
0.49295 -0.435187 -0.514 128 100 88
0.495626 -0.40386 -0.477 175 126 96
0.497307 -0.403013 -0.476 173 124 94
0.501537 -0.40132 -0.474 167 118 88
0.507857 -0.40132 -0.474 173 124 94
0.531849 -0.407247 -0.481 147 111 79
0.873027 -0.485987 -0.574 96 98 95
-0.02634 -0.372523 -0.439 192 149 117
-0.013079 -0.375917 -0.443 180 137 105
-0.00128 -0.38016 -0.448 166 125 97
0.00214762 -0.382706 -0.451 162 122 97
0.00647143 -0.384403 -0.453 159 118 96
0.0117514 -0.387797 -0.457 148 108 96
0.0255686 -0.399677 -0.471 126 96 88
0.0883629 -0.465866 -0.549 42 74 121
0.0998657 -0.465866 -0.549 91 124 177
0.100911 -0.465866 -0.549 122 155 208
0.110122 -0.465017 -0.548 148 158 185
0.129954 -0.465017 -0.548 104 128 176
0.130998 -0.465017 -0.548 126 147 190
0.133086 -0.465017 -0.548 153 173 210
0.337672 -0.465017 -0.548 210 217 225
0.382905 -0.466714 -0.55 184 183 188
0.404274 -0.468411 -0.552 203 203 205
0.440562 -0.470109 -0.554 195 200 196
0.455335 -0.470109 -0.554 201 195 199
0.473071 -0.470957 -0.555 177 177 179
0.488193 -0.474351 -0.559 168 164 163
0.492452 -0.474351 -0.559 165 159 159
0.495283 -0.476049 -0.561 156 157 152
0.510243 -0.476049 -0.561 136 131 135
0.489134 -0.430226 -0.507 132 103 89
0.48314 -0.418346 -0.493 148 114 89
0.483 -0.4158 -0.49 156 116 90
0.482946 -0.414951 -0.489 158 118 92
0.484538 -0.411557 -0.485 167 123 96
0.488686 -0.407314 -0.48 171 126 95
0.4896 -0.407314 -0.48 171 126 95
0.49223 -0.406466 -0.479 171 124 94
0.500786 -0.403071 -0.475 169 119 92
0.51129 -0.401374 -0.473 168 118 91
0.514894 -0.401374 -0.473 160 114 88
0.521595 -0.403071 -0.475 150 111 82
0.850657 -0.483686 -0.57 97 98 92
0.889679 -0.489626 -0.577 99 100 95
-0.0255038 -0.373359 -0.439 191 148 116
-0.01638 -0.37506 -0.441 184 139 108
-0.0105714 -0.377611 -0.444 176 133 101
-0.00128 -0.381013 -0.448 165 123 98
0.0153 -0.390369 -0.459 146 106 94
0.045821 -0.421836 -0.496 114 89 85
0.0535971 -0.431191 -0.507 103 85 83
0.0779057 -0.466911 -0.549 144 146 159
0.119516 -0.466061 -0.548 40 77 132
0.329322 -0.466061 -0.548 190 195 198
0.35881 -0.467762 -0.55 198 199 203
0.372429 -0.467762 -0.55 200 208 211
0.375934 -0.466911 -0.549 200 205 209
0.381857 -0.467762 -0.55 206 208 207
0.38465 -0.468612 -0.551 208 207 212
0.399017 -0.469463 -0.552 206 208 207
0.40112 -0.469463 -0.552 202 204 203
0.411634 -0.469463 -0.552 202 206 209
0.427127 -0.470313 -0.553 207 205 206
0.429233 -0.470313 -0.553 204 202 203
0.446643 -0.472014 -0.555 194 195 197
0.45978 -0.470313 -0.553 176 174 175
0.473924 -0.472865 -0.556 171 169 170
0.491884 -0.477968 -0.562 158 158 158
0.492954 -0.477968 -0.562 157 157 157
0.520641 -0.478818 -0.563 100 89 85
0.483933 -0.416733 -0.49 158 116 92
0.483686 -0.413331 -0.486 166 122 97
0.488686 -0.408229 -0.48 173 123 96
0.490405 -0.407378 -0.479 172 122 95
0.491317 -0.407378 -0.479 174 125 95
0.498213 -0.404827 -0.476 175 125 98
0.500786 -0.403976 -0.475 174 124 97
0.533681 -0.409079 -0.481 144 109 77
0.864957 -0.487323 -0.573 103 104 98
0.876069 -0.489874 -0.576 113 113 111
0.880024 -0.489024 -0.575 123 125 120
-0.0488476 -0.380162 -0.446 189 151 115
-0.0386171 -0.371638 -0.436 194 154 118
-0.0278848 -0.37249 -0.437 192 149 115
-0.0271143 -0.373343 -0.438 193 150 116
-0.0122352 -0.377605 -0.443 177 133 104
-0.00803429 -0.378457 -0.444 173 132 104
-0.00550952 -0.37931 -0.445 170 129 101
-0.00128 -0.381867 -0.448 165 123 98
0.0459133 -0.423633 -0.497 114 88 87
0.05136 -0.4296 -0.504 107 87 86
0.0547781 -0.433862 -0.509 102 84 82
0.05848 -0.439829 -0.516 100 82 80
0.0755381 -0.466252 -0.547 133 139 155
0.0808952 -0.467105 -0.548 99 116 142
0.0828314 -0.466252 -0.547 53 81 118
0.0871581 -0.467105 -0.548 28 66 115
0.0944648 -0.467105 -0.548 29 70 124
0.0955086 -0.467105 -0.548 26 62 122
0.09846 -0.466252 -0.547 52 87 141
0.117214 -0.466252 -0.547 45 77 138
0.129717 -0.466252 -0.547 63 93 145
0.264123 -0.466252 -0.547 220 228 249
0.302673 -0.466252 -0.547 194 197 206
0.306841 -0.466252 -0.547 167 172 176
0.323059 -0.467105 -0.548 181 185 186
0.346238 -0.46881 -0.55 205 204 200
0.371381 -0.46881 -0.55 206 206 208
0.40606 -0.471367 -0.553 206 206 206
0.411327 -0.471367 -0.553 203 205 204
0.42186 -0.471367 -0.553 199 200 202
0.435286 -0.472219 -0.554 189 189 191
0.453225 -0.472219 -0.554 178 176 181
0.457673 -0.471367 -0.553 176 167 170
0.468843 -0.473071 -0.555 163 162 160
0.472865 -0.473924 -0.556 158 157 153
0.526937 -0.480743 -0.564 59 57 60
0.527075 -0.47989 -0.563 55 51 52
0.495828 -0.440681 -0.517 120 96 84
0.484034 -0.419371 -0.492 158 113 90
0.486955 -0.409995 -0.481 172 128 101
0.536627 -0.410848 -0.482 144 110 82
0.849974 -0.48671 -0.571 103 104 99
0.880211 -0.492676 -0.578 89 91 88
-0.0312143 -0.373323 -0.437 190 151 110
-0.00297333 -0.381011 -0.446 167 125 100
0.0135219 -0.391263 -0.458 146 108 89
0.0304371 -0.407494 -0.477 122 93 89
0.0437543 -0.422017 -0.494 116 88 85
0.0625 -0.4485 -0.525 90 79 85
0.0849152 -0.467294 -0.547 32 68 116
0.0901248 -0.467294 -0.547 23 59 107
0.104711 -0.467294 -0.547 149 161 177
0.124508 -0.467294 -0.547 47 81 144
0.305799 -0.467294 -0.547 195 196 200
0.313665 -0.468149 -0.548 204 205 210
0.315752 -0.468149 -0.548 203 204 209
0.334106 -0.469003 -0.549 211 212 214
0.337243 -0.469003 -0.549 210 211 215
0.369957 -0.470711 -0.551 213 213 211
0.379403 -0.470711 -0.551 210 212 211
0.381502 -0.470711 -0.551 209 211 210
0.395527 -0.47242 -0.553 204 202 203
0.398687 -0.47242 -0.553 203 201 202
0.408905 -0.473274 -0.554 196 194 195
0.426844 -0.473274 -0.554 188 186 189
0.451929 -0.474129 -0.555 165 160 164
0.459556 -0.473274 -0.554 152 150 151
0.4784 -0.4784 -0.56 130 126 127
0.519931 -0.471566 -0.552 94 84 82
0.499629 -0.445937 -0.522 113 95 85
0.49489 -0.439957 -0.515 125 101 89
