ply
format ascii 1.0
comment Created by Open3D
element vertex 1281
property double x
property double y
property double z
property uchar red
property uchar green
property uchar blue
end_header
0.0372533 -0.288834 -0.508 178 137 131
0.0382962 -0.289403 -0.509 175 134 128
0.0571457 -0.301911 -0.531 148 113 117
0.06604 -0.31044 -0.546 135 109 118
0.0700467 -0.31442 -0.553 133 110 120
0.07722 -0.32238 -0.567 131 109 121
0.0817371 -0.327497 -0.576 132 109 127
0.125997 -0.359906 -0.633 150 172 219
0.141671 -0.359906 -0.633 188 195 223
0.145059 -0.359337 -0.632 120 125 155
0.14867 -0.359337 -0.632 204 208 233
0.149874 -0.359337 -0.632 193 197 222
0.155647 -0.358769 -0.631 188 199 219
0.15805 -0.358769 -0.631 175 182 198
0.168868 -0.358769 -0.631 213 221 244
0.1758 -0.3582 -0.63 213 220 248
0.186304 -0.357631 -0.629 160 176 209
0.1887 -0.357631 -0.629 180 194 233
0.191096 -0.357631 -0.629 176 188 226
0.200681 -0.357631 -0.629 235 241 255
0.206343 -0.357063 -0.628 186 191 220
0.212662 -0.357631 -0.629 221 228 236
0.2946 -0.3582 -0.63 245 250 254
0.297 -0.3582 -0.63 241 246 252
0.3054 -0.3582 -0.63 168 178 203
0.3342 -0.3582 -0.63 218 223 242
0.3354 -0.3582 -0.63 212 217 236
0.365356 -0.359337 -0.632 204 206 227
0.377394 -0.359337 -0.632 43 76 153
0.408693 -0.359337 -0.632 150 156 172
0.411101 -0.359337 -0.632 131 142 164
0.415916 -0.359337 -0.632 141 152 182
0.425547 -0.359337 -0.632 164 162 175
0.433287 -0.358769 -0.631 101 114 149
0.42796 -0.31044 -0.546 121 80 76
0.432017 -0.296794 -0.522 140 91 77
0.437863 -0.293383 -0.516 156 105 86
0.439103 -0.292246 -0.514 160 108 86
0.476406 -0.299069 -0.526 144 97 81
0.483057 -0.301343 -0.53 145 98 82
0.48498 -0.301911 -0.531 145 99 83
0.491589 -0.304754 -0.536 146 99 83
0.00904762 -0.285238 -0.5 210 169 147
0.06086 -0.306346 -0.537 142 113 118
0.0687438 -0.314332 -0.551 135 109 118
0.0728057 -0.318326 -0.558 135 109 120
0.0896457 -0.337722 -0.592 130 110 119
0.0963829 -0.345709 -0.606 198 195 222
0.127203 -0.361111 -0.633 115 139 185
0.147467 -0.360541 -0.632 200 210 237
0.1686 -0.3594 -0.63 217 223 245
0.201558 -0.358259 -0.628 189 193 218
0.214716 -0.358259 -0.628 215 220 226
0.221893 -0.358259 -0.628 245 248 253
0.231463 -0.358259 -0.628 246 251 255
0.265378 -0.35883 -0.629 192 200 219
0.286488 -0.358259 -0.628 239 243 254
0.287684 -0.358259 -0.628 244 248 255
0.32049 -0.35883 -0.629 89 117 180
0.3258 -0.3594 -0.63 118 143 200
0.328877 -0.35883 -0.629 137 158 203
0.330075 -0.35883 -0.629 182 203 248
0.3522 -0.3594 -0.63 170 174 201
0.373191 -0.35997 -0.631 54 81 124
0.379201 -0.35997 -0.631 61 94 161
0.387614 -0.35997 -0.631 62 100 173
0.3894 -0.3594 -0.63 37 69 142
0.3918 -0.3594 -0.63 91 112 165
0.41045 -0.35997 -0.631 155 161 183
0.423671 -0.35997 -0.631 167 164 175
0.4417 -0.35997 -0.631 57 95 158
0.430678 -0.29893 -0.524 136 87 73
0.435466 -0.296077 -0.519 142 90 76
0.49261 -0.305775 -0.536 150 104 88
0.00244762 -0.294204 -0.514 205 164 142
0.0118571 -0.285046 -0.498 210 169 147
0.0184971 -0.285046 -0.498 207 169 148
0.0424229 -0.293059 -0.512 169 124 121
0.0621133 -0.308513 -0.539 140 109 115
0.0787143 -0.326257 -0.57 133 110 120
0.0848057 -0.333126 -0.582 128 108 117
0.120791 -0.361172 -0.631 107 129 176
0.13904 -0.361745 -0.632 185 195 222
0.146031 -0.361172 -0.631 202 208 232
0.171927 -0.360028 -0.629 176 182 206
0.182419 -0.359455 -0.628 206 211 241
0.248605 -0.360028 -0.629 179 194 235
0.260171 -0.359455 -0.628 210 224 255
0.277671 -0.358883 -0.627 208 211 218
0.297727 -0.360028 -0.629 241 245 255
0.327679 -0.360028 -0.629 97 122 189
0.331273 -0.360028 -0.629 192 203 223
0.338462 -0.360028 -0.629 210 217 235
0.348047 -0.360028 -0.629 156 160 185
0.3534 -0.3606 -0.63 174 178 205
0.3546 -0.3606 -0.63 174 178 205
0.3558 -0.3606 -0.63 170 174 201
0.357 -0.3606 -0.63 171 176 198
0.3618 -0.3606 -0.63 196 202 218
0.369 -0.3606 -0.63 153 163 188
0.411 -0.3606 -0.63 141 147 173
0.423 -0.3606 -0.63 127 123 137
0.4326 -0.3606 -0.63 50 63 105
0.4374 -0.3606 -0.63 124 143 183
0.4434 -0.3606 -0.63 60 101 163
0.462328 -0.359455 -0.628 175 171 185
0.428066 -0.307369 -0.537 117 78 73
0.430678 -0.299928 -0.524 132 86 73
0.436305 -0.297638 -0.52 141 88 72
0.437443 -0.297066 -0.519 148 97 80
0.457614 -0.294776 -0.515 144 97 79
0.0118333 -0.28542 -0.497 210 169 147
0.01562 -0.28542 -0.497 207 169 148
0.0165667 -0.28542 -0.497 209 171 150
0.01846 -0.28542 -0.497 207 169 148
0.0270886 -0.286569 -0.499 197 155 139
0.0489343 -0.298054 -0.519 158 119 120
0.050019 -0.298629 -0.52 158 119 120
0.068619 -0.315857 -0.55 136 109 116
0.0815952 -0.330214 -0.575 132 112 121
0.0912333 -0.3417 -0.595 128 110 122
0.167134 -0.361226 -0.629 220 222 243
0.16953 -0.361226 -0.629 218 221 238
0.182419 -0.360651 -0.628 209 213 240
0.202431 -0.360077 -0.627 200 205 243
0.211986 -0.360077 -0.627 245 248 255
0.21318 -0.360077 -0.627 243 246 255
0.23864 -0.360651 -0.628 223 229 245
0.281254 -0.360077 -0.627 222 224 239
0.308723 -0.360077 -0.627 118 139 182
0.318785 -0.360651 -0.628 100 128 191
0.33912 -0.360651 -0.628 210 217 233
0.363622 -0.361226 -0.629 208 210 225
0.3714 -0.3618 -0.63 87 113 162
0.3726 -0.3618 -0.63 97 123 172
0.4242 -0.3618 -0.63 161 164 173
0.441 -0.3618 -0.63 90 121 176
0.4434 -0.3618 -0.63 63 99 157
0.454677 -0.361226 -0.629 166 175 206
0.428938 -0.306094 -0.533 115 76 71
0.448122 -0.294034 -0.512 159 107 85
0.452023 -0.294034 -0.512 156 105 84
0.00147429 -0.297314 -0.516 202 166 142
0.00430286 -0.289248 -0.502 202 165 139
0.0193676 -0.28579 -0.496 204 168 144
0.0381457 -0.292129 -0.507 176 133 127
0.0401562 -0.292705 -0.508 174 133 127
0.0595029 -0.307686 -0.534 142 111 116
0.0815952 -0.33131 -0.575 135 114 121
0.125599 -0.363576 -0.631 126 148 197
0.129205 -0.363576 -0.631 116 130 177
0.13281 -0.363576 -0.631 169 183 210
0.134012 -0.363576 -0.631 191 204 223
0.1494 -0.363 -0.63 203 209 223
0.209597 -0.361271 -0.627 244 246 255
0.217957 -0.361271 -0.627 205 204 218
0.228341 -0.360695 -0.626 248 249 254
0.237066 -0.361271 -0.627 250 249 247
0.241843 -0.361271 -0.627 160 171 199
0.24662 -0.361271 -0.627 171 183 221
0.258563 -0.361271 -0.627 155 173 223
0.297253 -0.361848 -0.628 234 240 254
0.300363 -0.361271 -0.627 229 232 251
0.306334 -0.361271 -0.627 127 141 170
0.315889 -0.361271 -0.627 100 124 184
0.336728 -0.361848 -0.628 213 219 235
0.357063 -0.361848 -0.628 201 206 228
0.367829 -0.361848 -0.628 109 124 157
0.37081 -0.362424 -0.629 103 125 175
0.387584 -0.362424 -0.629 142 165 207
0.388782 -0.362424 -0.629 175 191 227
0.417536 -0.362424 -0.629 186 183 200
0.422329 -0.362424 -0.629 173 175 188
0.424725 -0.362424 -0.629 172 174 186
0.43431 -0.362424 -0.629 170 184 219
0.452758 -0.361848 -0.628 165 169 198
0.46398 -0.361271 -0.627 136 135 149
0.465174 -0.361271 -0.627 171 170 184
0.46801 -0.360695 -0.626 177 168 187
0.430363 -0.305957 -0.531 123 80 74
0.433841 -0.301348 -0.523 137 86 67
0.436305 -0.299619 -0.52 142 90 69
0.437587 -0.298467 -0.518 153 102 81
0.0155886 -0.286735 -0.496 207 169 146
0.0222019 -0.286735 -0.496 201 165 141
0.0260857 -0.287891 -0.498 195 156 139
0.0339448 -0.290204 -0.502 185 142 135
0.0657981 -0.314484 -0.544 138 109 114
0.07994 -0.330092 -0.571 136 113 121
0.135 -0.3642 -0.63 190 202 224
0.155153 -0.363622 -0.629 201 205 216
0.158748 -0.363622 -0.629 210 216 230
0.198531 -0.361888 -0.626 155 165 201
0.221187 -0.361888 -0.626 209 211 226
0.228341 -0.361888 -0.626 248 249 254
0.231918 -0.361888 -0.626 250 255 255
0.239454 -0.362466 -0.627 235 238 253
0.255766 -0.361888 -0.626 127 147 200
0.286768 -0.361888 -0.626 205 210 232
0.3135 -0.362466 -0.627 110 141 195
0.315889 -0.362466 -0.627 105 141 201
0.318277 -0.362466 -0.627 100 135 193
0.334997 -0.362466 -0.627 213 216 235
0.344551 -0.362466 -0.627 198 200 221
0.392949 -0.363044 -0.628 71 84 136
0.405555 -0.363622 -0.629 187 188 206
0.42113 -0.363622 -0.629 187 186 204
0.43076 -0.308703 -0.534 122 85 77
0.44204 -0.297141 -0.514 163 108 87
0.476677 -0.302344 -0.523 143 96 78
0.0117857 -0.2871 -0.495 210 169 149
0.0155571 -0.2871 -0.495 207 169 148
0.0183857 -0.2871 -0.495 204 166 145
0.0212143 -0.2871 -0.495 204 166 145
0.0289314 -0.28884 -0.498 190 151 134
0.0308905 -0.28942 -0.499 186 146 134
0.034901 -0.29116 -0.502 183 140 131
0.0963829 -0.35148 -0.606 218 214 228
0.110824 -0.36482 -0.629 129 140 172
0.1122 -0.3654 -0.63 134 144 180
0.1218 -0.3654 -0.63 100 130 184
0.1278 -0.3654 -0.63 94 115 168
0.1326 -0.3654 -0.63 182 198 234
0.145569 -0.36482 -0.629 201 207 223
0.146767 -0.36482 -0.629 203 209 225
0.164214 -0.36366 -0.627 221 223 244
0.18303 -0.36308 -0.626 135 152 198
0.208929 -0.3625 -0.625 238 240 255
0.218452 -0.3625 -0.625 196 197 217
0.228341 -0.36308 -0.626 245 245 255
0.234303 -0.36308 -0.626 241 249 252
0.239072 -0.36308 -0.626 216 222 236
0.244643 -0.3625 -0.625 152 169 212
0.251786 -0.3625 -0.625 135 156 203
0.304653 -0.36308 -0.626 153 160 189
0.314192 -0.36308 -0.626 114 150 208
0.333803 -0.36366 -0.627 205 217 243
0.344551 -0.36366 -0.627 208 209 227
0.357689 -0.36366 -0.627 203 205 218
0.367243 -0.36366 -0.627 68 81 113
0.382183 -0.36424 -0.628 107 140 185
0.386968 -0.36424 -0.628 148 165 208
0.390556 -0.36424 -0.628 183 190 216
0.392323 -0.36366 -0.627 119 132 177
0.407303 -0.36424 -0.628 191 190 204
0.409695 -0.36424 -0.628 177 179 200
0.415676 -0.36424 -0.628 188 188 200
0.421657 -0.36424 -0.628 185 184 202
0.422853 -0.36424 -0.628 170 176 190
0.436011 -0.36424 -0.628 160 160 184
0.468452 -0.3625 -0.625 173 167 193
0.431777 -0.30972 -0.534 124 85 78
0.431374 -0.30798 -0.531 127 84 77
0.4335 -0.3045 -0.525 141 91 80
0.458684 -0.29812 -0.514 146 98 78
0.462434 -0.29928 -0.516 141 93 73
0.470971 -0.3016 -0.52 144 95 78
0.4815 -0.3045 -0.525 151 104 88
0.492987 -0.30856 -0.532 158 110 96
0.00707143 -0.288043 -0.495 211 169 145
0.0231 -0.288043 -0.495 198 162 140
0.0250362 -0.288625 -0.496 198 161 142
0.0319048 -0.290952 -0.5 187 147 135
0.0476686 -0.300263 -0.516 162 122 120
0.0683695 -0.318884 -0.548 137 110 117
0.0711 -0.321793 -0.553 136 111 117
0.0725448 -0.323539 -0.556 135 110 116
0.0738686 -0.324703 -0.558 135 109 118
0.0944429 -0.349725 -0.601 218 205 215
0.116814 -0.366018 -0.629 140 163 213
0.126399 -0.366018 -0.629 81 103 160
0.166337 -0.364272 -0.626 221 224 243
0.192262 -0.36369 -0.625 125 141 192
0.205357 -0.36369 -0.625 237 239 252
0.206548 -0.36369 -0.625 237 239 252
0.213349 -0.363109 -0.624 217 218 236
0.243063 -0.363109 -0.624 152 169 212
0.247817 -0.363109 -0.624 152 170 218
0.257326 -0.363109 -0.624 166 184 234
0.272024 -0.36369 -0.625 244 247 254
0.276786 -0.36369 -0.625 240 243 252
0.295114 -0.364272 -0.626 239 242 255
0.326116 -0.364272 -0.626 208 219 251
0.330886 -0.364272 -0.626 113 129 163
0.385157 -0.364854 -0.627 149 167 203
0.394711 -0.364854 -0.627 79 94 135
0.398294 -0.364854 -0.627 169 181 207
0.418597 -0.364854 -0.627 186 185 201
0.435317 -0.364854 -0.627 162 165 184
0.453231 -0.364854 -0.627 179 176 197
0.439226 -0.32063 -0.551 123 82 78
0.432962 -0.313065 -0.538 125 86 81
0.432386 -0.308991 -0.531 131 84 76
0.456814 -0.298517 -0.513 150 97 79
0.00143143 -0.292489 -0.501 205 165 140
0.00331333 -0.290153 -0.497 207 167 142
0.0174076 -0.288402 -0.494 204 166 145
0.0278705 -0.28957 -0.496 188 151 133
0.0499229 -0.302997 -0.519 156 121 119
0.0522 -0.304749 -0.522 154 120 119
0.0545 -0.3065 -0.525 148 116 117
0.0642857 -0.315257 -0.54 138 111 116
0.121413 -0.366632 -0.628 69 94 151
0.127394 -0.366632 -0.628 67 91 151
0.146533 -0.366632 -0.628 205 208 225
0.152271 -0.366049 -0.627 183 189 205
0.18631 -0.364881 -0.625 121 138 190
0.224046 -0.364297 -0.624 223 224 242
0.243063 -0.364297 -0.624 165 181 217
0.244251 -0.364297 -0.624 165 182 225
0.300595 -0.364881 -0.625 170 175 197
0.306548 -0.364881 -0.625 221 228 255
0.31131 -0.364881 -0.625 176 203 248
0.323214 -0.364881 -0.625 179 200 231
0.325595 -0.364881 -0.625 210 218 241
0.329167 -0.364881 -0.625 129 144 177
0.331548 -0.364881 -0.625 121 137 171
0.33631 -0.364881 -0.625 213 217 229
0.370234 -0.365465 -0.626 198 201 220
0.386928 -0.365465 -0.626 181 187 213
0.389312 -0.365465 -0.626 192 193 214
0.390505 -0.365465 -0.626 191 192 213
0.391697 -0.365465 -0.626 184 190 216
0.400044 -0.365465 -0.626 122 125 142
0.441289 -0.366049 -0.627 116 140 188
0.44726 -0.366049 -0.627 86 109 163
0.449649 -0.366049 -0.627 81 103 150
0.443019 -0.300078 -0.514 159 106 88
0.445089 -0.299494 -0.513 157 104 88
0.452998 -0.29891 -0.512 152 99 83
0.474854 -0.304165 -0.521 143 94 77
0.495013 -0.310587 -0.532 159 108 91
0.0023619 -0.290514 -0.496 206 166 141
0.010799 -0.288757 -0.493 209 171 148
0.0117381 -0.288757 -0.493 209 171 148
0.02982 -0.2911 -0.497 186 149 133
0.0338095 -0.292857 -0.5 182 144 133
0.0421743 -0.298129 -0.509 167 128 121
0.0454371 -0.300471 -0.513 165 126 119
0.0465952 -0.301643 -0.515 163 124 119
0.0532962 -0.306329 -0.523 152 118 119
0.0642857 -0.316286 -0.54 137 110 115
0.087621 -0.343229 -0.586 134 108 119
0.122414 -0.367243 -0.627 67 89 147
0.130774 -0.367243 -0.627 73 95 153
0.170833 -0.366071 -0.625 215 220 240
0.183929 -0.366071 -0.625 141 162 205
0.191954 -0.365486 -0.624 163 185 234
0.224046 -0.365486 -0.624 234 233 249
0.265646 -0.365486 -0.624 186 197 227
0.266834 -0.365486 -0.624 217 223 247
0.296549 -0.365486 -0.624 230 235 255
0.306057 -0.365486 -0.624 224 228 253
0.320833 -0.366071 -0.625 182 204 243
0.357738 -0.366071 -0.625 199 202 219
0.371427 -0.366657 -0.626 194 199 218
0.372619 -0.366657 -0.626 181 186 205
0.390505 -0.366657 -0.626 193 191 213
0.423891 -0.366657 -0.626 149 153 188
0.434623 -0.366657 -0.626 175 181 197
0.459663 -0.366657 -0.626 168 165 182
0.468891 -0.365486 -0.624 155 161 193
0.474497 -0.364314 -0.622 138 149 179
0.434006 -0.305743 -0.522 149 100 85
0.438573 -0.3034 -0.518 149 98 81
0.458769 -0.300471 -0.513 145 94 75
0.504607 -0.3157 -0.539 155 110 91
0.00142 -0.292047 -0.497 202 165 139
0.00702857 -0.289109 -0.492 210 170 145
0.0307667 -0.292047 -0.497 185 146 131
0.0454371 -0.301449 -0.513 163 124 117
0.076539 -0.330242 -0.562 134 111 119
0.0891914 -0.346108 -0.589 133 111 123
0.114236 -0.369025 -0.628 78 106 154
0.128181 -0.36785 -0.626 58 85 140
0.135551 -0.368437 -0.627 159 170 202
0.139134 -0.368437 -0.627 189 192 211
0.157738 -0.367262 -0.625 170 171 192
0.186011 -0.366674 -0.624 129 150 195
0.191647 -0.366087 -0.623 170 193 237
0.214537 -0.366674 -0.624 241 243 255
0.22606 -0.366087 -0.623 244 246 255
0.241487 -0.366087 -0.623 241 246 255
0.269967 -0.366087 -0.623 239 244 255
0.277087 -0.366087 -0.623 242 244 255
0.296073 -0.366087 -0.623 222 228 252
0.30794 -0.366087 -0.623 196 207 235
0.317943 -0.366674 -0.624 155 174 214
0.32574 -0.366087 -0.623 219 221 236
0.344091 -0.366674 -0.624 202 209 219
0.347657 -0.366674 -0.624 150 161 183
0.3875 -0.367262 -0.625 187 192 224
0.391071 -0.367262 -0.625 189 190 210
0.422024 -0.367262 -0.625 84 99 132
0.432738 -0.367262 -0.625 175 181 197
0.474497 -0.365499 -0.622 129 142 176
0.448997 -0.301449 -0.513 156 103 85
0.455033 -0.300273 -0.511 146 95 78
0.479743 -0.306737 -0.522 148 99 82
0.488353 -0.309675 -0.527 158 106 92
0.000474286 -0.293583 -0.498 200 163 137
0.0145257 -0.290046 -0.492 208 167 145
0.0192114 -0.290046 -0.492 199 158 140
0.0230533 -0.291225 -0.494 198 160 141
0.0278143 -0.291814 -0.495 188 151 135
0.0288152 -0.292404 -0.496 186 149 133
0.0358571 -0.295941 -0.502 175 135 127
0.0368133 -0.295941 -0.502 173 133 125
0.0399981 -0.298299 -0.506 173 130 124
0.0521 -0.307142 -0.521 154 119 115
0.0531943 -0.307731 -0.522 154 119 115
0.0667114 -0.320111 -0.543 140 114 117
0.128181 -0.369042 -0.626 76 101 157
0.148214 -0.368452 -0.625 188 191 206
0.157738 -0.368452 -0.625 190 193 212
0.172937 -0.367863 -0.624 180 185 214
0.17978 -0.367273 -0.623 166 180 209
0.197263 -0.366684 -0.622 164 173 204
0.198448 -0.366684 -0.622 141 150 181
0.21182 -0.367273 -0.623 241 243 255
0.23873 -0.366684 -0.622 221 226 248
0.255316 -0.366684 -0.622 215 233 255
0.26124 -0.366684 -0.622 232 235 254
0.262847 -0.367273 -0.623 211 214 233
0.281381 -0.366684 -0.622 202 199 218
0.298447 -0.367273 -0.623 134 141 169
0.306753 -0.367273 -0.623 219 221 242
0.322848 -0.366684 -0.622 216 224 245
0.324032 -0.366684 -0.622 213 221 242
0.337607 -0.367273 -0.623 203 204 225
0.33998 -0.367273 -0.623 171 169 183
0.341714 -0.367863 -0.624 193 191 205
0.344727 -0.367273 -0.623 153 169 195
0.3536 -0.367863 -0.624 204 205 223
0.398766 -0.367863 -0.624 73 81 120
0.41131 -0.368452 -0.625 105 122 191
0.423726 -0.367863 -0.624 177 181 206
0.432046 -0.367863 -0.624 181 184 201
0.452251 -0.367863 -0.624 180 182 195
0.45344 -0.367863 -0.624 158 160 173
0.47008 -0.367863 -0.624 141 152 184
0.438573 -0.305373 -0.518 156 103 85
0.441794 -0.304194 -0.516 160 103 84
0.477831 -0.307142 -0.521 146 97 80
-0.00516 -0.35604 -0.602 197 162 134
-0.004 -0.354857 -0.6 198 163 135
-0.000473333 -0.29394 -0.497 198 161 135
0.0268714 -0.292757 -0.495 193 156 138
0.0278143 -0.292757 -0.495 189 152 136
0.0368133 -0.296897 -0.502 172 132 124
0.0399981 -0.299263 -0.506 173 130 123
0.0590571 -0.313457 -0.53 141 112 114
0.106036 -0.367869 -0.622 200 203 222
0.130357 -0.369643 -0.625 73 98 154
0.13295 -0.370234 -0.626 83 102 158
0.139881 -0.369643 -0.625 198 203 222
0.148214 -0.369643 -0.625 203 206 225
0.156548 -0.369643 -0.625 196 198 210
0.164617 -0.369051 -0.624 218 221 238
0.170287 -0.36846 -0.623 205 211 233
0.193397 -0.367277 -0.621 208 224 250
0.207591 -0.367277 -0.621 240 244 255
0.229251 -0.367869 -0.622 245 248 255
0.256089 -0.367277 -0.621 215 226 254
0.271466 -0.367277 -0.621 243 243 255
0.279746 -0.367277 -0.621 202 199 218
0.302707 -0.367869 -0.622 207 210 227
0.326402 -0.367869 -0.622 216 219 236
0.341167 -0.36846 -0.623 197 198 219
0.364297 -0.369051 -0.624 197 203 229
0.366087 -0.36846 -0.623 205 204 218
0.369051 -0.369051 -0.624 162 157 161
0.409463 -0.369051 -0.624 44 62 134
0.452251 -0.369051 -0.624 164 166 181
0.466514 -0.369051 -0.624 110 130 167
0.467703 -0.369051 -0.624 117 137 174
0.468891 -0.369051 -0.624 146 157 187
0.434006 -0.308726 -0.522 160 107 93
0.43956 -0.30636 -0.518 159 102 83
0.460723 -0.303403 -0.513 146 94 73
0.481731 -0.308726 -0.522 148 102 79
-0.000472381 -0.294293 -0.496 196 159 132
0.0191724 -0.291327 -0.491 197 156 136
0.0239457 -0.292513 -0.493 196 158 139
0.0248848 -0.292513 -0.493 196 158 139
0.0277581 -0.293107 -0.494 191 152 135
0.0824029 -0.33998 -0.573 135 109 118
0.11268 -0.371427 -0.626 79 100 143
0.127771 -0.37024 -0.624 101 124 174
0.12896 -0.37024 -0.624 100 123 173
0.144643 -0.370833 -0.625 206 209 224
0.216219 -0.369053 -0.622 247 246 255
0.224151 -0.36846 -0.621 248 248 255
0.245048 -0.367867 -0.62 207 216 249
0.267917 -0.36846 -0.621 187 189 214
0.273831 -0.36846 -0.621 239 241 253
0.275014 -0.36846 -0.621 242 244 255
0.33588 -0.369053 -0.622 149 159 186
0.34354 -0.369647 -0.623 181 192 214
0.351847 -0.369647 -0.623 189 198 227
0.392193 -0.369647 -0.623 175 179 182
0.41474 -0.369647 -0.623 126 140 177
0.427793 -0.369647 -0.623 174 184 196
0.445593 -0.369647 -0.623 77 106 150
0.46814 -0.369647 -0.623 157 163 195
0.472887 -0.369647 -0.623 69 87 135
0.476867 -0.369053 -0.622 160 168 189
0.483999 -0.367273 -0.619 147 148 178
0.477938 -0.356593 -0.601 121 92 88
0.437657 -0.3204 -0.54 151 102 87
0.43296 -0.31328 -0.528 161 103 91
0.4429 -0.305567 -0.515 160 103 83
0.452023 -0.303787 -0.512 155 100 80
0.45885 -0.303787 -0.512 149 97 75
0.0144371 -0.291071 -0.489 205 167 144
0.03266 -0.295833 -0.497 181 139 127
0.0519 -0.308929 -0.519 153 118 114
0.0530924 -0.310119 -0.521 151 117 115
0.0888886 -0.349405 -0.587 129 112 120
0.134903 -0.371429 -0.624 95 106 151
0.140846 -0.371429 -0.624 200 206 228
0.168829 -0.370238 -0.622 188 196 219
0.177122 -0.370238 -0.622 210 213 232
0.181569 -0.369643 -0.621 165 177 201
0.207591 -0.369643 -0.621 242 246 255
0.228883 -0.369643 -0.621 247 247 255
0.237163 -0.369643 -0.621 238 243 255
0.241505 -0.369048 -0.62 205 215 225
0.261581 -0.369048 -0.62 242 247 253
0.280476 -0.369048 -0.62 150 151 179
0.289209 -0.369643 -0.621 233 231 252
0.290391 -0.369643 -0.621 215 221 247
0.295123 -0.369643 -0.621 215 218 237
0.302914 -0.369048 -0.62 228 229 249
0.424737 -0.370238 -0.622 173 176 191
0.430661 -0.370238 -0.622 140 133 151
0.452713 -0.370833 -0.623 168 168 180
0.459833 -0.370833 -0.623 160 165 184
0.477283 -0.369643 -0.621 158 166 187
0.4836 -0.369048 -0.62 141 142 170
0.446893 -0.329762 -0.554 135 98 89
0.435643 -0.318452 -0.535 157 100 81
0.432674 -0.311905 -0.524 168 110 86
0.437443 -0.308929 -0.519 162 105 86
0.439696 -0.307738 -0.517 161 104 84
0.441666 -0.307738 -0.517 161 104 84
0.444977 -0.305952 -0.514 159 102 83
0.447043 -0.305357 -0.513 157 100 81
0.451048 -0.304762 -0.512 157 102 82
0.4608 -0.304762 -0.512 144 94 71
0.476986 -0.308929 -0.519 148 100 78
0.480809 -0.310119 -0.521 151 103 81
0.00512286 -0.292003 -0.489 205 165 140
0.0116429 -0.292003 -0.489 207 170 143
0.0134781 -0.291406 -0.488 205 168 142
0.0316495 -0.296183 -0.496 180 138 126
0.135873 -0.37202 -0.623 110 123 165
0.157233 -0.37202 -0.623 206 209 224
0.160535 -0.371423 -0.622 219 223 235
0.174471 -0.370826 -0.621 218 223 242
0.182751 -0.370826 -0.621 170 185 216
0.183934 -0.370826 -0.621 166 181 212
0.188362 -0.370229 -0.62 179 195 228
0.254085 -0.369631 -0.619 180 195 228
0.301733 -0.370229 -0.62 233 231 253
0.306457 -0.370229 -0.62 154 167 199
0.330609 -0.370826 -0.621 213 216 235
0.333619 -0.370229 -0.62 146 159 191
0.34362 -0.370826 -0.621 110 134 178
0.364314 -0.371423 -0.622 196 199 218
0.399214 -0.370826 -0.621 102 126 170
0.417629 -0.371423 -0.622 124 137 169
0.43777 -0.371423 -0.622 111 136 190
0.467389 -0.371423 -0.622 167 165 189
0.470943 -0.371423 -0.622 139 144 166
0.451733 -0.3344 -0.56 132 98 89
0.434006 -0.311709 -0.522 163 108 88
0.463654 -0.306334 -0.513 145 94 73
0.500005 -0.318277 -0.533 148 103 82
0.0356429 -0.298925 -0.499 172 129 122
0.0624371 -0.319292 -0.533 140 112 111
0.0638095 -0.32109 -0.536 140 112 111
0.0761305 -0.334868 -0.559 133 108 112
0.0854714 -0.346849 -0.579 129 110 112
0.121633 -0.373207 -0.623 86 109 161
0.12638 -0.373207 -0.623 151 173 220
0.134687 -0.373207 -0.623 92 106 145
0.146553 -0.373207 -0.623 204 209 228
0.158166 -0.372608 -0.622 185 189 201
0.17419 -0.37141 -0.62 220 226 240
0.176552 -0.37141 -0.62 216 219 234
0.211639 -0.37081 -0.619 237 241 252
0.239936 -0.37081 -0.619 232 241 250
0.251727 -0.37081 -0.619 189 203 240
0.282382 -0.37081 -0.619 170 182 220
0.290635 -0.37081 -0.619 140 150 185
0.295351 -0.37081 -0.619 231 233 255
0.331902 -0.37081 -0.619 176 177 198
0.333081 -0.37081 -0.619 150 163 197
0.337162 -0.37141 -0.62 108 131 173
0.338343 -0.37141 -0.62 141 154 189
0.343067 -0.37141 -0.62 117 142 183
0.34779 -0.37141 -0.62 176 191 222
0.356057 -0.37141 -0.62 71 93 140
0.358419 -0.37141 -0.62 188 196 215
0.403946 -0.372009 -0.621 169 180 208
0.427603 -0.372009 -0.621 177 184 200
0.433517 -0.372009 -0.621 129 131 154
0.43777 -0.372608 -0.622 108 131 181
0.466204 -0.372608 -0.622 173 171 193
0.482419 -0.37141 -0.62 171 168 185
0.440681 -0.309708 -0.517 170 112 92
0.452998 -0.306712 -0.512 164 107 87
0.454949 -0.306712 -0.512 163 106 86
0.456007 -0.306113 -0.511 152 102 79
0.480876 -0.311505 -0.52 151 106 85
0.5029 -0.32049 -0.535 144 102 80
0.00139429 -0.293265 -0.488 203 164 135
0.00788476 -0.292664 -0.487 207 168 139
0.028641 -0.29627 -0.493 184 147 129
0.0587229 -0.316702 -0.527 140 112 111
0.0599533 -0.317904 -0.529 140 112 111
0.0941286 -0.35997 -0.599 206 201 207
0.105695 -0.37259 -0.62 95 105 141
0.115514 -0.373792 -0.622 156 175 207
0.130916 -0.373792 -0.622 191 198 224
0.132313 -0.374393 -0.623 181 191 218
0.13706 -0.374393 -0.623 93 107 146
0.156729 -0.373191 -0.621 170 174 185
0.184521 -0.37199 -0.619 190 201 231
0.186879 -0.37199 -0.619 187 202 233
0.190416 -0.37199 -0.619 186 200 229
0.219892 -0.37199 -0.619 231 231 255
0.232862 -0.37199 -0.619 241 241 251
0.250143 -0.371389 -0.618 190 208 244
0.277666 -0.37199 -0.619 202 210 233
0.287098 -0.37199 -0.619 187 192 221
0.305963 -0.37199 -0.619 172 187 218
0.311858 -0.37199 -0.619 158 178 213
0.32129 -0.37199 -0.619 212 219 238
0.32247 -0.37199 -0.619 215 222 241
0.323649 -0.37199 -0.619 214 218 230
0.327186 -0.37199 -0.619 210 219 236
0.422871 -0.373191 -0.621 83 89 121
0.425237 -0.373191 -0.621 152 160 181
0.430457 -0.37259 -0.62 163 160 179
0.438249 -0.373191 -0.621 109 131 178
0.460723 -0.373191 -0.621 164 171 199
0.461906 -0.373191 -0.621 173 176 195
0.46782 -0.373191 -0.621 172 177 197
0.471369 -0.373191 -0.621 133 136 155
0.434477 -0.311894 -0.519 172 115 96
0.455033 -0.307087 -0.511 161 104 84
0.45698 -0.307087 -0.511 151 100 79
0.476132 -0.310692 -0.517 149 102 82
0.483786 -0.313096 -0.521 152 104 82
0.488568 -0.314899 -0.524 149 102 82
0.0190943 -0.294797 -0.489 198 160 137
0.0387257 -0.302634 -0.502 164 123 117
0.06622 -0.32494 -0.539 136 110 111
0.07896 -0.340011 -0.564 130 107 115
0.108231 -0.374374 -0.621 184 189 218
0.11433 -0.374977 -0.622 161 168 196
0.116511 -0.374374 -0.621 117 133 166
0.121243 -0.374374 -0.621 114 137 178
0.125974 -0.374374 -0.621 150 168 206
0.127157 -0.374374 -0.621 166 179 211
0.149631 -0.374374 -0.621 205 208 225
0.178626 -0.373169 -0.619 171 178 204
0.184223 -0.372566 -0.618 196 207 237
0.231683 -0.373169 -0.619 244 246 255
0.23522 -0.373169 -0.619 246 246 254
0.244257 -0.372566 -0.618 171 182 212
0.252497 -0.372566 -0.618 160 183 217
0.268977 -0.372566 -0.618 173 178 207
0.285457 -0.372566 -0.618 195 202 231
0.311354 -0.372566 -0.618 154 174 211
0.334897 -0.372566 -0.618 145 161 195
0.336074 -0.372566 -0.618 160 176 210
0.337251 -0.372566 -0.618 188 195 224
0.357841 -0.373169 -0.619 162 172 208
0.35902 -0.373169 -0.619 185 195 231
0.365505 -0.373771 -0.62 198 201 216
0.369048 -0.373771 -0.62 190 197 216
0.391486 -0.373771 -0.62 152 157 176
0.39557 -0.373169 -0.619 184 190 214
0.439431 -0.374374 -0.621 108 135 182
0.469429 -0.373771 -0.62 174 176 197
0.483999 -0.373169 -0.619 167 168 186
0.488311 -0.371963 -0.617 71 72 93
0.44204 -0.309869 -0.514 169 108 87
0.461847 -0.30806 -0.511 148 100 78
0.463726 -0.308663 -0.512 148 100 78
0.00416571 -0.293914 -0.486 202 165 138
0.02958 -0.298148 -0.493 181 142 125
0.0345533 -0.300567 -0.497 175 135 123
0.0517 -0.312662 -0.517 148 117 114
0.0773333 -0.338667 -0.56 135 110 114
0.0868733 -0.351367 -0.581 126 114 124
0.122426 -0.375557 -0.621 120 148 188
0.17716 -0.373743 -0.618 171 178 206
0.183046 -0.373743 -0.618 181 197 222
0.186577 -0.373743 -0.618 176 187 219
0.195677 -0.373138 -0.617 237 236 250
0.201553 -0.373138 -0.617 233 236 255
0.228954 -0.373743 -0.618 231 238 255
0.232486 -0.373743 -0.618 247 246 254
0.242687 -0.373138 -0.617 182 197 230
0.245037 -0.373138 -0.617 180 196 229
0.247388 -0.373138 -0.617 191 205 240
0.253264 -0.373138 -0.617 174 194 231
0.272509 -0.373743 -0.618 187 193 225
0.275593 -0.373138 -0.617 216 228 252
0.279119 -0.373138 -0.617 143 159 193
0.311354 -0.373743 -0.618 164 180 216
0.316063 -0.373743 -0.618 129 156 199
0.31724 -0.373743 -0.618 135 162 205
0.327834 -0.373743 -0.618 209 210 228
0.361378 -0.374348 -0.619 181 188 217
0.379064 -0.374348 -0.619 128 151 185
0.406182 -0.374348 -0.619 107 124 140
0.410898 -0.374348 -0.619 187 188 209
0.430942 -0.374348 -0.619 161 168 187
0.435181 -0.374952 -0.62 126 140 177
0.457619 -0.374952 -0.62 142 156 183
0.459981 -0.374952 -0.62 172 178 194
0.434006 -0.315686 -0.522 176 118 98
0.4366 -0.313267 -0.518 175 117 97
0.471411 -0.310848 -0.514 150 104 81
0.47331 -0.311452 -0.515 153 107 84
0.475211 -0.312057 -0.516 152 106 83
0.478102 -0.312662 -0.517 153 105 85
0.482857 -0.314476 -0.52 157 106 87
-0.00139143 -0.295447 -0.487 201 164 137
0.0153057 -0.295447 -0.487 200 163 137
0.0162333 -0.295447 -0.487 199 161 138
0.0227733 -0.296053 -0.488 193 155 132
0.02952 -0.29848 -0.492 180 141 126
0.0396819 -0.304547 -0.502 160 123 115
0.0418429 -0.306367 -0.505 160 123 117
0.0673714 -0.3276 -0.54 139 113 114
0.0885857 -0.3549 -0.585 129 120 121
0.118686 -0.376133 -0.62 116 130 165
0.12459 -0.376133 -0.62 116 135 167
0.128133 -0.376133 -0.62 185 197 221
0.137803 -0.37674 -0.621 166 173 201
0.138986 -0.37674 -0.621 140 155 186
0.150571 -0.376133 -0.62 166 170 199
0.156476 -0.376133 -0.62 208 210 231
0.215656 -0.374313 -0.617 134 147 179
0.245037 -0.374313 -0.617 182 196 233
0.248563 -0.374313 -0.617 189 198 237
0.256373 -0.373707 -0.616 245 245 255
0.275593 -0.374313 -0.617 214 226 250
0.277944 -0.374313 -0.617 159 174 207
0.307325 -0.374313 -0.617 155 171 205
0.313201 -0.374313 -0.617 171 189 225
0.349023 -0.37492 -0.618 203 204 225
0.380806 -0.37492 -0.618 141 162 191
0.385514 -0.37492 -0.618 189 197 208
0.393754 -0.37492 -0.618 182 184 205
0.394931 -0.37492 -0.618 184 186 207
0.39964 -0.37492 -0.618 186 190 219
0.404349 -0.37492 -0.618 189 185 218
0.442732 -0.375527 -0.619 122 155 200
0.44627 -0.375527 -0.619 131 150 183
0.447449 -0.375527 -0.619 144 163 196
0.45806 -0.375527 -0.619 176 180 192
0.460418 -0.375527 -0.619 180 176 199
0.468671 -0.375527 -0.619 179 175 202
0.47103 -0.375527 -0.619 165 164 178
0.435328 -0.319107 -0.526 170 111 97
0.459971 -0.3094 -0.51 155 104 83
0.467627 -0.310613 -0.512 153 105 85
0.468602 -0.310613 -0.512 153 105 85
0.502035 -0.323353 -0.533 145 102 85
0.00507048 -0.294549 -0.484 203 163 137
0.0152743 -0.295766 -0.486 199 162 136
0.0324629 -0.300634 -0.494 175 135 123
0.0461429 -0.310371 -0.51 155 120 116
0.0620857 -0.322543 -0.53 143 113 113
0.0686533 -0.329846 -0.542 138 112 113
0.0715009 -0.333497 -0.548 136 111 114
0.105354 -0.376097 -0.618 202 203 224
0.106704 -0.376706 -0.619 199 200 221
0.180399 -0.375489 -0.617 171 190 222
0.18128 -0.37488 -0.616 189 203 229
0.21648 -0.37488 -0.616 152 170 206
0.257547 -0.37488 -0.616 238 244 255
0.284533 -0.37488 -0.616 223 228 255
0.30096 -0.37488 -0.616 227 227 251
0.306827 -0.37488 -0.616 162 179 209
0.308 -0.37488 -0.616 176 193 223
0.328479 -0.375489 -0.617 134 136 159
0.376097 -0.376097 -0.618 109 138 178
0.388416 -0.375489 -0.617 90 97 123
0.403171 -0.376097 -0.618 187 193 215
0.405526 -0.376097 -0.618 178 183 205
0.409057 -0.376097 -0.618 186 188 209
0.420829 -0.376097 -0.618 172 177 196
0.456143 -0.376097 -0.618 169 174 196
0.439719 -0.325586 -0.535 170 110 82
0.436803 -0.321934 -0.529 171 112 96
0.436155 -0.320717 -0.527 171 112 96
0.435159 -0.317066 -0.521 172 115 95
0.439957 -0.313414 -0.515 176 115 94
0.44227 -0.311589 -0.512 172 114 92
0.0171257 -0.296691 -0.486 196 158 135
0.0803181 -0.34553 -0.566 139 112 117
0.106704 -0.377885 -0.619 197 198 219
0.120852 -0.377885 -0.619 113 130 158
0.12439 -0.377885 -0.619 105 121 157
0.129106 -0.377885 -0.619 194 196 217
0.140896 -0.377885 -0.619 88 99 131
0.16277 -0.376664 -0.617 183 190 219
0.17424 -0.376053 -0.616 218 226 247
0.18128 -0.376053 -0.616 189 204 233
0.185973 -0.376053 -0.616 170 185 218
0.268107 -0.376053 -0.616 221 223 248
0.298613 -0.376053 -0.616 229 227 249
0.312693 -0.376053 -0.616 169 188 220
0.324427 -0.376053 -0.616 201 208 234
0.330293 -0.376053 -0.616 177 177 201
0.349633 -0.376664 -0.617 197 204 220
0.36021 -0.376664 -0.617 79 97 133
0.362561 -0.376664 -0.617 122 137 166
0.377839 -0.376664 -0.617 158 181 223
0.379014 -0.376664 -0.617 158 181 223
0.410234 -0.377274 -0.618 186 191 210
0.427891 -0.377274 -0.618 127 136 165
0.434954 -0.377274 -0.618 79 110 174
0.46556 -0.377274 -0.618 169 168 186
0.476154 -0.377274 -0.618 162 165 184
0.48126 -0.376664 -0.617 163 158 165
0.48361 -0.376664 -0.617 116 110 114
0.449134 -0.335151 -0.549 145 107 98
0.4365 -0.3205 -0.525 170 113 93
0.00966 -0.29578 -0.483 202 162 137
0.0115238 -0.296392 -0.484 204 163 141
0.0385714 -0.30619 -0.5 160 123 115
0.04394 -0.310477 -0.507 156 121 115
0.0460524 -0.311702 -0.509 155 120 116
0.07124 -0.33436 -0.546 137 111 114
0.0755857 -0.339871 -0.555 137 112 116
0.139491 -0.378451 -0.618 174 183 214
0.156894 -0.377839 -0.617 153 165 191
0.16368 -0.377227 -0.616 211 218 246
0.188014 -0.376614 -0.615 169 182 214
0.21296 -0.377227 -0.616 198 213 244
0.277043 -0.376614 -0.615 184 188 213
0.286414 -0.376614 -0.615 232 233 254
0.318043 -0.376614 -0.615 184 194 229
0.3432 -0.377227 -0.616 198 205 223
0.35728 -0.377227 -0.616 193 196 215
0.372533 -0.377227 -0.616 92 122 182
0.386613 -0.377227 -0.616 60 63 104
0.40304 -0.377227 -0.616 184 185 203
0.414271 -0.377839 -0.617 182 189 208
0.422498 -0.377839 -0.617 132 133 151
0.438486 -0.378451 -0.618 37 78 142
0.441302 -0.377839 -0.617 75 107 168
0.449529 -0.377839 -0.617 70 87 139
0.45423 -0.377839 -0.617 156 154 167
0.442386 -0.328849 -0.537 164 111 93
0.437331 -0.322112 -0.526 170 113 93
0.437443 -0.317826 -0.519 179 123 100
0.470552 -0.313539 -0.512 155 107 87
0.00688571 -0.296086 -0.482 203 163 138
0.00780381 -0.296086 -0.482 204 164 139
0.0644676 -0.327414 -0.533 142 113 115
0.0657286 -0.328643 -0.535 142 113 115
0.0884343 -0.358743 -0.584 118 115 132
0.123011 -0.379629 -0.618 103 122 165
0.125366 -0.379629 -0.618 143 159 193
0.131039 -0.379014 -0.617 191 203 219
0.149843 -0.379014 -0.617 112 125 159
0.239168 -0.377171 -0.614 225 232 251
0.255541 -0.377171 -0.614 242 244 255
0.28361 -0.377171 -0.614 228 233 255
0.306329 -0.377786 -0.615 152 165 199
0.3075 -0.377786 -0.615 143 156 190
0.337957 -0.377786 -0.615 205 211 225
0.344373 -0.3784 -0.616 199 204 223
0.349067 -0.3784 -0.616 200 206 218
0.351413 -0.3784 -0.616 199 205 219
0.356107 -0.3784 -0.616 201 204 223
0.37488 -0.3784 -0.616 85 120 176
0.40304 -0.3784 -0.616 173 175 196
0.41712 -0.3784 -0.616 184 186 198
0.421813 -0.3784 -0.616 124 121 130
0.427199 -0.379014 -0.617 61 86 127
0.428374 -0.379014 -0.617 48 73 114
0.442933 -0.3784 -0.616 62 94 155
0.449973 -0.3784 -0.616 138 161 215
0.45232 -0.3784 -0.616 178 184 210
0.461281 -0.379014 -0.617 176 173 182
0.462456 -0.379014 -0.617 174 171 180
0.481653 -0.3784 -0.616 120 108 110
0.449286 -0.313286 -0.51 178 120 100
0.456086 -0.313286 -0.51 172 116 91
0.462886 -0.313286 -0.51 154 102 81
0.469577 -0.314514 -0.512 155 107 87
0.480126 -0.316971 -0.516 152 103 86
-0.0142143 -0.367866 -0.597 195 159 133
-0.00507048 -0.298236 -0.484 196 159 132
-0.00321333 -0.297004 -0.482 199 162 135
0.0115 -0.29762 -0.483 203 163 138
0.0245819 -0.300085 -0.487 184 148 126
0.0284086 -0.301317 -0.489 177 140 122
0.0323971 -0.303782 -0.493 170 132 119
0.0558543 -0.319803 -0.519 145 114 109
0.0570619 -0.321035 -0.521 146 115 113
0.0865743 -0.356774 -0.579 128 110 124
0.105013 -0.379573 -0.616 198 201 218
0.13574 -0.38019 -0.617 197 200 215
0.148668 -0.38019 -0.617 166 176 211
0.155467 -0.379573 -0.616 195 207 233
0.163414 -0.378957 -0.615 208 218 245
0.174844 -0.378341 -0.614 173 184 206
0.178352 -0.378341 -0.614 168 187 220
0.231357 -0.378957 -0.615 233 236 251
0.23449 -0.378341 -0.614 241 244 253
0.278931 -0.378341 -0.614 200 205 227
0.302322 -0.378341 -0.614 205 209 234
0.30583 -0.378341 -0.614 153 166 200
0.314017 -0.378341 -0.614 149 170 213
0.342027 -0.379573 -0.616 203 208 227
0.35728 -0.379573 -0.616 203 206 223
0.358453 -0.379573 -0.616 182 192 217
0.36432 -0.379573 -0.616 158 169 197
0.377227 -0.379573 -0.616 132 164 211
0.390671 -0.378957 -0.615 132 136 148
0.405387 -0.379573 -0.616 127 131 156
0.412929 -0.378957 -0.615 183 185 206
0.417614 -0.378957 -0.615 173 172 178
0.42416 -0.379573 -0.616 177 183 205
0.43472 -0.379573 -0.616 42 77 145
0.458187 -0.379573 -0.616 113 108 112
0.4664 -0.379573 -0.616 137 143 169
0.472267 -0.379573 -0.616 131 140 169
0.473843 -0.378957 -0.615 129 132 149
0.4879 -0.378957 -0.615 167 169 194
0.490243 -0.378957 -0.615 100 114 143
0.4385 -0.3235 -0.525 173 116 96
0.489686 -0.321651 -0.522 151 104 88
0.496384 -0.324732 -0.527 148 102 86
-0.0153514 -0.369003 -0.597 200 159 139
0.0123943 -0.297922 -0.482 202 162 137
0.0313943 -0.304103 -0.492 168 130 117
0.0323314 -0.304103 -0.492 169 131 118
0.0882829 -0.36035 -0.583 128 117 134
0.107534 -0.381365 -0.617 195 197 218
0.11341 -0.381365 -0.617 95 122 165
0.126338 -0.381365 -0.617 182 187 207
0.163149 -0.37951 -0.614 197 206 235
0.188878 -0.37951 -0.614 211 221 246
0.206085 -0.378892 -0.613 232 237 255
0.223964 -0.37951 -0.614 239 241 255
0.226303 -0.37951 -0.614 225 230 252
0.23332 -0.37951 -0.614 239 243 255
0.335069 -0.37951 -0.614 205 212 218
0.357871 -0.380129 -0.615 196 203 222
0.360214 -0.380129 -0.615 160 169 202
0.382471 -0.380129 -0.615 107 133 184
0.395357 -0.380129 -0.615 193 191 196
0.411757 -0.380129 -0.615 171 173 194
0.412929 -0.380129 -0.615 183 185 206
0.432373 -0.380747 -0.616 30 64 128
0.4633 -0.380129 -0.615 151 150 166
0.472671 -0.380129 -0.615 155 161 185
0.473843 -0.380129 -0.615 158 162 174
0.478529 -0.380129 -0.615 135 127 125
0.482043 -0.380129 -0.615 184 173 181
0.452271 -0.339334 -0.549 148 111 105
0.442966 -0.330063 -0.534 169 112 92
0.450257 -0.315229 -0.51 179 121 99
0.45907 -0.31461 -0.509 168 111 91
0.472553 -0.315847 -0.511 162 111 92
0.0236057 -0.30132 -0.486 191 148 129
0.0557467 -0.32116 -0.518 150 117 110
0.0668724 -0.33232 -0.536 142 114 113
0.119093 -0.38192 -0.616 124 146 187
0.12144 -0.38192 -0.616 101 123 164
0.134347 -0.38192 -0.616 203 200 217
0.185068 -0.38006 -0.613 173 188 217
0.186235 -0.38006 -0.613 166 181 210
0.193241 -0.38006 -0.613 232 233 251
0.20375 -0.38006 -0.613 209 215 231
0.222431 -0.38006 -0.613 241 243 255
0.28968 -0.37944 -0.612 228 229 249
0.302503 -0.37944 -0.612 167 171 198
0.325712 -0.38068 -0.614 177 191 217
0.328051 -0.38068 -0.614 206 213 229
0.369586 -0.3813 -0.615 112 144 203
0.370757 -0.3813 -0.615 95 127 186
0.411088 -0.38068 -0.614 139 142 159
0.445004 -0.38068 -0.614 44 81 136
0.447343 -0.38068 -0.614 47 71 119
0.45553 -0.38068 -0.614 182 180 191
0.4715 -0.3813 -0.615 170 171 189
0.48009 -0.38068 -0.614 171 169 170
0.487107 -0.38068 -0.614 134 138 167
0.489446 -0.38068 -0.614 83 98 127
0.45084 -0.33852 -0.546 155 108 100
0.441667 -0.3286 -0.53 170 115 94
0.438136 -0.32302 -0.521 174 117 97
0.44118 -0.31806 -0.513 180 122 100
0.444327 -0.31682 -0.511 181 123 99
0.448314 -0.3162 -0.51 181 123 101
0.454222 -0.31558 -0.509 176 120 97
0.467743 -0.3162 -0.51 164 111 93
0.0050181 -0.297892 -0.479 202 162 137
0.0105362 -0.299136 -0.481 200 163 137
0.0114524 -0.299136 -0.481 199 162 136
0.0273648 -0.302868 -0.487 176 138 119
0.04272 -0.31344 -0.504 156 120 108
0.0580543 -0.324012 -0.521 143 112 109
0.06536 -0.330853 -0.532 143 113 111
0.0864248 -0.359461 -0.578 130 113 121
0.156131 -0.38185 -0.614 207 215 238
0.157301 -0.38185 -0.614 209 217 238
0.162883 -0.381228 -0.613 134 145 167
0.187403 -0.381228 -0.613 197 208 230
0.241886 -0.380606 -0.612 186 192 226
0.252377 -0.380606 -0.612 213 219 245
0.274526 -0.380606 -0.612 234 230 247
0.285017 -0.380606 -0.612 234 233 251
0.28968 -0.380606 -0.612 228 231 250
0.308331 -0.380606 -0.612 100 131 186
0.328685 -0.381228 -0.613 211 214 231
0.35495 -0.38185 -0.614 202 208 224
0.358459 -0.38185 -0.614 198 205 223
0.363137 -0.38185 -0.614 102 102 130
0.373663 -0.38185 -0.614 50 84 156
0.381228 -0.381228 -0.613 36 74 139
0.392904 -0.381228 -0.613 134 124 123
0.399392 -0.38185 -0.614 150 153 168
0.433309 -0.38185 -0.614 28 62 133
0.444279 -0.381228 -0.613 94 126 173
0.466055 -0.38185 -0.614 175 177 190
0.483598 -0.38185 -0.614 177 173 196
0.489446 -0.38185 -0.614 88 103 134
0.447113 -0.335207 -0.539 162 110 89
0.439276 -0.32339 -0.52 175 120 99
0.43942 -0.322769 -0.519 178 121 101
0.438846 -0.320903 -0.516 180 124 101
0.465856 -0.31655 -0.509 163 111 90
0.484995 -0.321525 -0.517 153 107 84
0.4888 -0.32339 -0.52 154 109 88
-0.00410571 -0.298805 -0.479 202 162 137
0.0373933 -0.310033 -0.497 160 122 111
0.0627381 -0.328748 -0.527 143 113 111
0.0862752 -0.359938 -0.577 128 111 119
0.132957 -0.383643 -0.615 176 182 204
0.145606 -0.383019 -0.614 201 207 223
0.147945 -0.383019 -0.614 182 188 204
0.15938 -0.382395 -0.613 211 218 237
0.161715 -0.382395 -0.613 196 207 229
0.165218 -0.382395 -0.613 145 159 186
0.17544 -0.381771 -0.612 181 194 226
0.209246 -0.381771 -0.612 237 239 254
0.211923 -0.382395 -0.613 238 241 255
0.262439 -0.381148 -0.611 238 239 255
0.274077 -0.381148 -0.611 237 236 250
0.299681 -0.381148 -0.611 135 144 175
0.307828 -0.381148 -0.611 94 120 179
0.332811 -0.381771 -0.612 168 176 179
0.368384 -0.382395 -0.613 48 87 156
0.370719 -0.382395 -0.613 34 84 147
0.377725 -0.382395 -0.613 38 82 145
0.446614 -0.382395 -0.613 137 153 189
0.457123 -0.382395 -0.613 184 178 192
0.466464 -0.382395 -0.613 178 177 185
0.469967 -0.382395 -0.613 180 177 198
0.471134 -0.382395 -0.613 178 175 196
0.490615 -0.383019 -0.614 155 164 197
0.441174 -0.328748 -0.527 168 117 100
0.439829 -0.321886 -0.516 182 122 98
0.456161 -0.317519 -0.509 176 120 97
0.463006 -0.316895 -0.508 167 115 93
0.479289 -0.320014 -0.513 156 108 86
-0.00685714 -0.300343 -0.48 202 165 139
-0.00136571 -0.299091 -0.478 202 162 137
-0.000455238 -0.299091 -0.478 202 162 137
0.00682857 -0.299091 -0.478 203 163 138
0.0312667 -0.3066 -0.49 167 129 116
0.0426352 -0.314734 -0.503 154 117 108
0.05916 -0.326623 -0.522 142 113 109
0.0627381 -0.329751 -0.527 142 112 110
0.0796086 -0.351026 -0.561 132 107 110
0.126893 -0.384189 -0.614 193 198 218
0.130402 -0.384189 -0.614 194 199 219
0.132741 -0.384189 -0.614 143 150 178
0.137419 -0.384189 -0.614 195 205 232
0.143267 -0.384189 -0.614 161 163 176
0.190594 -0.382937 -0.612 220 225 244
0.215887 -0.382311 -0.611 244 244 252
0.303172 -0.382311 -0.611 133 151 201
0.317138 -0.382311 -0.611 88 112 172
0.364286 -0.382937 -0.612 62 92 152
0.385898 -0.383563 -0.613 184 195 215
0.40925 -0.383563 -0.613 184 183 197
0.415089 -0.383563 -0.613 137 134 141
0.420927 -0.383563 -0.613 175 178 197
0.440776 -0.383563 -0.613 118 146 196
0.451285 -0.383563 -0.613 109 124 153
0.47347 -0.383563 -0.613 178 177 191
0.449803 -0.338511 -0.541 144 110 101
0.444429 -0.319114 -0.51 179 121 101
0.453252 -0.318489 -0.509 180 122 100
0.462038 -0.317863 -0.508 169 115 91
-0.0138648 -0.315065 -0.502 195 160 132
-0.00227619 -0.300002 -0.478 203 163 138
0.00318 -0.299374 -0.477 201 161 136
0.0244305 -0.303768 -0.484 183 141 125
0.0253524 -0.303768 -0.484 180 138 122
0.0373181 -0.311299 -0.496 158 121 112
0.0415114 -0.314437 -0.501 155 118 109
0.0435933 -0.315692 -0.503 151 117 107
0.0532543 -0.321969 -0.513 145 114 109
0.0651143 -0.332638 -0.53 142 112 110
0.108357 -0.385986 -0.615 175 178 197
0.128063 -0.385358 -0.614 185 192 211
0.155623 -0.384103 -0.612 209 216 232
0.160024 -0.383475 -0.611 213 220 239
0.163515 -0.383475 -0.611 169 180 208
0.169334 -0.383475 -0.611 214 221 247
0.204249 -0.383475 -0.611 237 241 253
0.229852 -0.383475 -0.611 194 208 234
0.23218 -0.383475 -0.611 148 161 193
0.233344 -0.383475 -0.611 190 203 235
0.255038 -0.382848 -0.61 153 171 209
0.282924 -0.382848 -0.61 211 214 233
0.294543 -0.382848 -0.61 202 205 224
0.301514 -0.382848 -0.61 97 119 176
0.3055 -0.383475 -0.611 106 131 188
0.311319 -0.383475 -0.611 93 124 188
0.312483 -0.383475 -0.611 98 132 195
0.317138 -0.383475 -0.611 79 109 171
0.318302 -0.383475 -0.611 82 112 174
0.328776 -0.383475 -0.611 203 208 227
0.344469 -0.384103 -0.612 158 169 189
0.358457 -0.384103 -0.612 139 137 142
0.36312 -0.384103 -0.612 68 97 153
0.368949 -0.384103 -0.612 48 83 149
0.39576 -0.384103 -0.612 139 138 143
0.45288 -0.384103 -0.612 124 134 161
0.46104 -0.384103 -0.612 180 178 192
0.449374 -0.319458 -0.509 181 123 101
0.458168 -0.31883 -0.508 179 123 98
0.462038 -0.31883 -0.508 172 118 94
0.472643 -0.319458 -0.509 163 115 93
-0.000453333 -0.299653 -0.476 200 160 135
0.0141714 -0.302171 -0.48 197 157 131
0.0169495 -0.302801 -0.481 195 155 130
0.04464 -0.31728 -0.504 149 115 106
0.0532543 -0.322946 -0.513 146 115 112
0.0747686 -0.345609 -0.549 137 111 112
0.08262 -0.35694 -0.567 131 106 112
0.122215 -0.386528 -0.614 113 125 149
0.131357 -0.385898 -0.613 100 109 142
0.174867 -0.38401 -0.61 195 206 236
0.189119 -0.384639 -0.611 222 230 253
0.205412 -0.384639 -0.611 236 239 254
0.216695 -0.38401 -0.61 238 240 255
0.313133 -0.38401 -0.61 76 110 173
0.315457 -0.38401 -0.61 76 110 174
0.324752 -0.38401 -0.61 208 212 224
0.342742 -0.384639 -0.611 176 184 197
0.349725 -0.384639 -0.611 204 203 217
0.375329 -0.384639 -0.611 58 94 152
0.389931 -0.385269 -0.612 196 195 209
0.409749 -0.385269 -0.612 186 188 201
0.432603 -0.385898 -0.613 71 100 144
0.450976 -0.384639 -0.611 71 86 125
0.458709 -0.385269 -0.612 176 180 192
0.459874 -0.385269 -0.612 178 180 195
0.462206 -0.385269 -0.612 180 179 193
0.465703 -0.385269 -0.612 178 179 200
0.489017 -0.385269 -0.612 169 175 189
0.491349 -0.385269 -0.612 170 172 193
0.49439 -0.38401 -0.61 76 99 143
0.449358 -0.338684 -0.538 146 113 108
0.0187429 -0.303086 -0.48 194 154 129
0.0262743 -0.305611 -0.484 179 137 123
0.0341362 -0.310031 -0.491 160 122 113
0.0435933 -0.317609 -0.503 149 115 106
0.0746324 -0.346023 -0.548 138 112 113
0.09128 -0.37128 -0.588 200 198 219
0.109529 -0.388329 -0.615 149 169 196
0.126687 -0.387066 -0.613 183 195 221
0.151877 -0.385803 -0.611 209 215 229
0.153041 -0.385803 -0.611 208 214 228
0.16441 -0.385171 -0.61 196 202 226
0.195781 -0.385171 -0.61 222 228 254
0.206238 -0.385171 -0.61 230 233 250
0.33002 -0.38454 -0.609 208 211 226
0.33521 -0.385171 -0.61 184 184 194
0.341578 -0.385803 -0.611 184 193 200
0.352052 -0.385803 -0.611 207 205 218
0.360771 -0.385171 -0.61 116 127 159
0.366581 -0.385171 -0.61 125 156 213
0.377038 -0.385171 -0.61 157 180 222
0.39395 -0.385803 -0.611 190 193 200
0.400932 -0.385803 -0.611 191 192 210
0.405588 -0.385803 -0.611 189 189 201
0.426069 -0.386434 -0.612 167 181 207
0.430731 -0.386434 -0.612 105 132 177
0.445157 -0.385803 -0.611 174 181 207
0.449076 -0.385171 -0.61 122 130 167
0.46145 -0.385803 -0.611 179 178 192
0.470366 -0.386434 -0.612 175 172 189
0.492873 -0.385803 -0.611 118 127 158
0.0022619 -0.300833 -0.475 202 165 139
0.00316667 -0.300833 -0.475 204 167 141
0.00772286 -0.3021 -0.477 202 162 137
0.0141419 -0.303367 -0.479 196 156 131
0.0215305 -0.304633 -0.481 184 142 120
0.0520733 -0.323633 -0.511 145 115 113
0.0648686 -0.3344 -0.528 141 111 109
0.0700657 -0.3401 -0.537 136 110 111
0.108181 -0.388867 -0.614 161 168 196
0.124149 -0.3876 -0.612 168 175 201
0.135806 -0.3876 -0.612 200 203 222
0.1428 -0.3876 -0.612 201 203 216
0.1586 -0.386333 -0.61 213 219 233
0.16878 -0.3857 -0.609 190 204 239
0.19198 -0.3857 -0.609 158 169 201
0.19314 -0.3857 -0.609 186 197 229
0.21518 -0.3857 -0.609 211 212 230
0.2175 -0.3857 -0.609 213 216 231
0.339857 -0.386333 -0.61 199 204 210
0.346829 -0.386333 -0.61 201 205 216
0.357286 -0.386333 -0.61 158 162 187
0.358448 -0.386333 -0.61 135 139 164
0.402096 -0.386967 -0.611 186 188 203
0.404424 -0.386967 -0.611 187 189 202
0.463778 -0.386967 -0.611 172 173 193
0.469597 -0.386967 -0.611 168 166 190
0.49171 -0.386967 -0.611 155 155 179
0.445496 -0.322367 -0.509 180 125 104
0.458231 -0.3211 -0.507 180 125 104
0.475551 -0.322367 -0.509 158 113 92
0.484139 -0.325533 -0.514 153 110 91
-0.0208257 -0.375426 -0.591 192 157 129
0.000451429 -0.301103 -0.474 196 159 132
0.00135429 -0.301103 -0.474 200 163 136
0.00770667 -0.302373 -0.476 200 164 138
0.0122657 -0.303009 -0.477 199 162 135
0.0196571 -0.304914 -0.48 186 145 127
0.0310752 -0.309361 -0.487 161 125 113
0.0320686 -0.309996 -0.488 159 123 111
0.0487686 -0.322066 -0.507 147 114 109
0.0791829 -0.354463 -0.558 138 112 115
0.119486 -0.388766 -0.612 141 163 212
0.126273 -0.38813 -0.611 153 167 202
0.132092 -0.38813 -0.611 180 195 216
0.16298 -0.38686 -0.609 219 221 242
0.16646 -0.38686 -0.609 131 140 169
0.20938 -0.38686 -0.609 194 197 212
0.287787 -0.386225 -0.608 225 226 244
0.307474 -0.386225 -0.608 125 157 216
0.33582 -0.38686 -0.609 204 207 216
0.36366 -0.38686 -0.609 176 190 216
0.36482 -0.38686 -0.609 168 182 208
0.37874 -0.38686 -0.609 183 195 219
0.380524 -0.387495 -0.61 190 202 226
0.392143 -0.387495 -0.61 168 167 181
0.395629 -0.387495 -0.61 189 192 197
0.404924 -0.387495 -0.61 189 191 203
0.425838 -0.387495 -0.61 175 180 199
0.427 -0.387495 -0.61 148 160 184
0.433971 -0.387495 -0.61 103 135 184
0.475416 -0.38813 -0.611 146 155 184
0.443098 -0.330959 -0.521 165 119 104
0.44227 -0.325242 -0.512 179 124 103
0.451394 -0.322701 -0.508 185 128 108
0.464991 -0.322066 -0.507 173 121 99
0.48034 -0.324607 -0.511 156 113 94
0.488971 -0.327783 -0.516 153 111 97
0.00225714 -0.302006 -0.474 204 164 138
