ply
format ascii 1.0
comment Created by Open3D
element vertex 1288
property double x
property double y
property double z
property uchar red
property uchar green
property uchar blue
end_header
0.480462 -0.373169 -0.619 168 173 193
0.486749 -0.372566 -0.618 164 169 189
0.444864 -0.318911 -0.529 162 109 91
0.4435 -0.3165 -0.525 172 117 96
0.445351 -0.312883 -0.519 172 115 98
0.483848 -0.313486 -0.52 140 94 71
0.490564 -0.315897 -0.524 149 102 82
0.0176257 -0.361043 -0.597 199 167 144
0.0197971 -0.306614 -0.507 204 168 146
0.0234733 -0.304195 -0.503 198 164 139
0.0750657 -0.338062 -0.559 118 95 101
0.0965714 -0.362857 -0.6 139 134 164
0.119867 -0.374952 -0.62 195 196 216
0.128133 -0.374952 -0.62 112 134 173
0.138986 -0.375557 -0.621 147 158 190
0.140169 -0.375557 -0.621 186 197 229
0.164477 -0.374348 -0.619 55 78 128
0.178626 -0.374348 -0.619 200 206 228
0.183342 -0.374348 -0.619 204 211 230
0.36668 -0.373743 -0.618 196 200 227
0.378451 -0.373743 -0.618 202 204 227
0.379629 -0.373743 -0.618 202 204 227
0.390223 -0.373743 -0.618 119 146 191
0.42436 -0.373743 -0.618 187 189 214
0.457619 -0.374952 -0.62 122 152 204
0.44409 -0.315081 -0.521 172 112 88
0.444229 -0.314476 -0.52 170 112 90
0.457874 -0.309638 -0.512 159 103 80
0.4608 -0.309638 -0.512 160 105 84
0.476252 -0.311452 -0.515 141 95 72
0.488691 -0.315686 -0.522 149 104 83
0.0291638 -0.304547 -0.502 194 158 136
0.0497305 -0.313647 -0.517 149 114 110
0.0578286 -0.32032 -0.528 131 102 106
0.0752 -0.339733 -0.56 120 95 101
0.0949514 -0.36218 -0.597 123 120 151
0.157403 -0.375527 -0.619 136 148 188
0.16094 -0.375527 -0.619 162 167 197
0.161857 -0.37492 -0.618 139 144 174
0.172451 -0.37492 -0.618 106 127 174
0.17716 -0.37492 -0.618 197 203 217
0.183046 -0.37492 -0.618 201 208 224
0.349633 -0.374313 -0.617 209 215 237
0.362561 -0.374313 -0.617 204 208 233
0.41612 -0.37492 -0.618 189 194 214
0.426024 -0.374313 -0.617 183 192 201
0.433777 -0.37492 -0.618 158 163 185
0.470269 -0.37492 -0.618 170 174 186
0.485571 -0.37492 -0.618 170 172 185
0.444363 -0.31486 -0.519 177 120 100
0.472449 -0.31122 -0.513 148 96 74
0.0164886 -0.363317 -0.597 201 165 141
0.01968 -0.30672 -0.504 202 166 142
0.020599 -0.306111 -0.503 202 166 142
0.03006 -0.304894 -0.501 193 153 128
0.0340124 -0.306111 -0.503 187 146 118
0.0810276 -0.347494 -0.571 116 95 100
0.108886 -0.376097 -0.618 112 125 157
0.151508 -0.376706 -0.619 156 167 187
0.159761 -0.376706 -0.619 178 186 209
0.164211 -0.376097 -0.618 82 113 167
0.358453 -0.37488 -0.616 203 210 228
0.386066 -0.375489 -0.617 93 123 173
0.446726 -0.376097 -0.618 122 143 186
0.451048 -0.311589 -0.512 172 114 92
0.457874 -0.311589 -0.512 170 114 91
0.461775 -0.311589 -0.512 170 113 93
0.482041 -0.314631 -0.517 146 101 82
0.500283 -0.321934 -0.529 146 105 87
0.507046 -0.324977 -0.534 143 101 85
0.03504 -0.30768 -0.504 184 143 115
0.0400771 -0.309511 -0.507 172 128 117
0.0591686 -0.324163 -0.531 126 99 106
0.117126 -0.377274 -0.618 191 192 210
0.158326 -0.377274 -0.618 183 187 214
0.16277 -0.376664 -0.617 67 97 151
0.188626 -0.376664 -0.617 138 157 189
0.351413 -0.376053 -0.616 203 211 230
0.352587 -0.376053 -0.616 203 211 230
0.358453 -0.376053 -0.616 201 208 227
0.37488 -0.376053 -0.616 102 113 143
0.473033 -0.376664 -0.617 176 174 187
0.47891 -0.376664 -0.617 150 155 175
0.48126 -0.376664 -0.617 129 140 168
0.44462 -0.315616 -0.517 180 122 100
0.445843 -0.314395 -0.515 177 120 100
0.454949 -0.312564 -0.512 170 112 90
0.469577 -0.312564 -0.512 160 108 86
0.477286 -0.313785 -0.514 147 102 81
0.0310762 -0.307415 -0.502 191 151 126
0.0485571 -0.315376 -0.515 147 112 108
0.0531943 -0.319663 -0.522 135 105 105
0.0567152 -0.322725 -0.527 128 102 103
0.091901 -0.36253 -0.592 114 105 126
0.10871 -0.377839 -0.617 119 128 157
0.118111 -0.377839 -0.617 197 196 214
0.159245 -0.377839 -0.617 187 189 214
0.16042 -0.377839 -0.617 174 181 199
0.169547 -0.377227 -0.616 203 203 227
0.17424 -0.377227 -0.616 198 204 230
0.183627 -0.377227 -0.616 209 210 230
0.194187 -0.377227 -0.616 169 184 223
0.352014 -0.376614 -0.615 204 209 228
0.354357 -0.376614 -0.615 195 200 219
0.366071 -0.376614 -0.615 197 204 220
0.369586 -0.376614 -0.615 192 198 222
0.38192 -0.377227 -0.616 137 149 175
0.401867 -0.377227 -0.616 183 185 200
0.41008 -0.377227 -0.616 188 191 206
0.4136 -0.377227 -0.616 183 186 205
0.43472 -0.377227 -0.616 151 148 155
0.461281 -0.377839 -0.617 57 80 132
0.495733 -0.377227 -0.616 156 147 140
0.487997 -0.361917 -0.591 135 102 97
0.448569 -0.325174 -0.531 158 110 96
0.453973 -0.313539 -0.512 173 115 93
0.482091 -0.315989 -0.516 145 102 83
0.0233333 -0.307143 -0.5 196 160 136
0.0443733 -0.314514 -0.512 154 117 108
0.10871 -0.379014 -0.617 166 172 198
0.113594 -0.379629 -0.618 188 195 221
0.143967 -0.379014 -0.617 190 192 217
0.15664 -0.3784 -0.616 181 180 196
0.166027 -0.3784 -0.616 193 199 221
0.38192 -0.3784 -0.616 137 149 175
0.394827 -0.3784 -0.616 72 103 157
0.408243 -0.377786 -0.615 191 191 201
0.428157 -0.377786 -0.615 187 184 191
0.467573 -0.3784 -0.616 136 131 137
0.474613 -0.3784 -0.616 141 144 153
0.47696 -0.3784 -0.616 135 140 160
0.48048 -0.3784 -0.616 122 131 160
0.447147 -0.314514 -0.512 178 121 101
0.449097 -0.314514 -0.512 178 120 98
0.45698 -0.3139 -0.511 173 115 91
0.464829 -0.313286 -0.51 167 112 91
0.481157 -0.316357 -0.515 146 103 84
0.0360714 -0.311176 -0.505 180 133 113
0.0843686 -0.356774 -0.579 120 98 101
0.125163 -0.38019 -0.617 128 146 182
0.163414 -0.378957 -0.615 184 191 219
0.349103 -0.378341 -0.614 212 215 224
0.363729 -0.378957 -0.615 199 205 217
0.384267 -0.379573 -0.616 109 132 186
0.387787 -0.379573 -0.616 59 94 162
0.408243 -0.378957 -0.615 175 174 180
0.435186 -0.378957 -0.615 164 171 189
0.439871 -0.378957 -0.615 45 75 147
0.441043 -0.378957 -0.615 43 73 145
0.4488 -0.379573 -0.616 23 58 124
0.460533 -0.379573 -0.616 64 86 144
0.44802 -0.316106 -0.513 182 126 103
0.460873 -0.314873 -0.511 177 119 97
0.0204352 -0.30843 -0.499 202 165 138
0.0798 -0.352314 -0.57 117 95 98
0.0828343 -0.356023 -0.576 120 98 100
0.0904667 -0.364676 -0.59 119 98 105
0.156386 -0.380129 -0.615 164 168 180
0.190048 -0.37951 -0.614 127 147 182
0.193556 -0.37951 -0.614 120 140 175
0.344425 -0.37951 -0.614 202 206 217
0.374832 -0.37951 -0.614 109 111 136
0.378341 -0.37951 -0.614 65 89 137
0.383643 -0.380129 -0.615 101 129 192
0.387157 -0.380129 -0.615 56 90 161
0.40524 -0.37951 -0.614 137 128 129
0.414596 -0.37951 -0.614 146 152 176
0.420444 -0.37951 -0.614 152 157 177
0.422783 -0.37951 -0.614 137 139 154
0.437987 -0.37951 -0.614 70 89 132
0.445004 -0.37951 -0.614 26 64 135
0.4715 -0.380129 -0.615 126 122 121
0.4879 -0.380129 -0.615 151 153 165
0.489071 -0.380129 -0.615 128 126 131
0.490243 -0.380129 -0.615 126 124 129
0.445843 -0.318319 -0.515 182 126 103
0.45114 -0.315847 -0.511 179 121 99
0.46866 -0.315847 -0.511 164 109 89
0.50908 -0.330063 -0.534 149 106 89
0.01584 -0.31248 -0.504 199 161 138
0.0261381 -0.30938 -0.499 197 157 132
0.0432286 -0.3162 -0.51 155 117 106
0.127307 -0.38192 -0.616 115 133 169
0.129443 -0.3813 -0.615 101 121 171
0.16081 -0.38068 -0.614 200 202 217
0.181861 -0.38068 -0.614 190 203 238
0.18303 -0.38068 -0.614 207 214 243
0.358459 -0.38068 -0.614 173 179 203
0.398223 -0.38068 -0.614 167 177 202
0.414596 -0.38068 -0.614 146 152 176
0.449682 -0.38068 -0.614 35 74 139
0.462547 -0.38068 -0.614 152 166 195
0.481259 -0.38068 -0.614 148 154 170
0.491785 -0.38068 -0.614 175 173 178
0.496822 -0.38006 -0.613 162 169 195
0.447914 -0.31868 -0.514 181 125 102
0.45406 -0.31682 -0.511 177 119 97
0.466771 -0.3162 -0.51 169 114 93
0.475473 -0.31682 -0.511 147 95 74
0.487907 -0.32116 -0.518 150 103 85
0.0140581 -0.31655 -0.509 201 164 137
0.0270886 -0.31033 -0.499 196 156 130
0.0713571 -0.345157 -0.555 119 94 98
0.0726752 -0.346401 -0.557 117 92 96
0.11088 -0.383093 -0.616 159 168 183
0.111871 -0.382471 -0.615 124 140 166
0.116368 -0.38185 -0.614 179 178 210
0.122414 -0.382471 -0.615 162 176 202
0.1271 -0.382471 -0.615 98 124 175
0.1353 -0.382471 -0.615 135 140 182
0.150284 -0.38185 -0.614 194 197 216
0.152623 -0.38185 -0.614 199 200 221
0.153792 -0.38185 -0.614 201 202 223
0.173391 -0.381228 -0.613 209 211 226
0.17923 -0.381228 -0.613 76 92 141
0.180397 -0.381228 -0.613 129 143 182
0.186235 -0.381228 -0.613 178 183 213
0.351463 -0.380606 -0.612 164 167 184
0.36021 -0.381228 -0.613 158 164 186
0.369551 -0.381228 -0.613 157 156 164
0.394071 -0.381228 -0.613 64 100 162
0.4291 -0.381228 -0.613 184 180 179
0.454788 -0.381228 -0.613 108 141 195
0.466055 -0.38185 -0.614 168 174 186
0.485937 -0.38185 -0.614 175 173 184
0.4875 -0.363814 -0.585 137 104 99
0.447068 -0.324012 -0.521 175 124 103
0.446467 -0.322147 -0.518 177 120 100
0.447043 -0.319037 -0.513 180 123 103
0.450072 -0.318415 -0.512 180 122 100
0.45406 -0.317793 -0.511 178 120 98
0.46282 -0.317793 -0.511 176 118 98
0.519804 -0.337072 -0.542 143 102 84
0.0499229 -0.323757 -0.519 136 106 98
0.0522 -0.325629 -0.522 134 106 102
0.0532962 -0.326252 -0.523 130 105 101
0.0645238 -0.338105 -0.542 122 97 100
0.119876 -0.383019 -0.614 183 188 220
0.13391 -0.383019 -0.614 149 157 196
0.149114 -0.383019 -0.614 192 197 219
0.169611 -0.381771 -0.612 204 211 230
0.173391 -0.382395 -0.613 209 211 226
0.177771 -0.381771 -0.612 143 158 191
0.1836 -0.381771 -0.612 192 212 249
0.184766 -0.381771 -0.612 172 187 220
0.197589 -0.381771 -0.612 159 180 227
0.202251 -0.381771 -0.612 187 202 243
0.204583 -0.381771 -0.612 132 145 180
0.215074 -0.381771 -0.612 230 228 249
0.218571 -0.381771 -0.612 224 225 246
0.358457 -0.381771 -0.612 162 169 188
0.372446 -0.381771 -0.612 174 180 196
0.38006 -0.382395 -0.613 66 103 173
0.419759 -0.382395 -0.613 181 188 204
0.426765 -0.382395 -0.613 134 129 133
0.454788 -0.382395 -0.613 128 156 203
0.468799 -0.382395 -0.613 168 172 181
0.483978 -0.382395 -0.613 169 171 183
0.493319 -0.382395 -0.613 170 169 175
0.491667 -0.368048 -0.59 136 106 98
0.453304 -0.33249 -0.533 168 116 95
0.450167 -0.318767 -0.511 180 124 99
0.459971 -0.318143 -0.51 180 122 100
0.4658 -0.318143 -0.51 175 117 95
0.0194457 -0.311606 -0.498 203 164 133
0.0290476 -0.312857 -0.5 190 150 125
0.03006 -0.313483 -0.501 187 147 121
0.0814533 -0.35916 -0.574 118 97 102
0.13391 -0.384189 -0.614 149 161 203
0.150284 -0.384189 -0.614 199 200 220
0.17544 -0.382937 -0.612 202 207 229
0.1836 -0.382937 -0.612 160 179 219
0.192926 -0.382937 -0.612 94 120 169
0.352052 -0.382311 -0.611 161 167 181
0.353216 -0.382311 -0.611 163 171 190
0.35438 -0.382311 -0.611 175 183 202
0.425597 -0.383563 -0.613 155 156 161
0.427234 -0.382937 -0.612 174 175 180
0.438891 -0.382937 -0.612 157 179 218
0.491349 -0.382937 -0.612 165 164 172
0.490285 -0.367294 -0.587 137 107 97
0.450356 -0.329126 -0.526 172 120 98
0.452113 -0.31974 -0.511 180 124 99
0.466771 -0.319114 -0.51 174 116 92
0.0320324 -0.315065 -0.502 183 142 114
0.0412048 -0.319458 -0.509 153 116 107
0.0687438 -0.345818 -0.551 122 97 101
0.0891914 -0.369668 -0.589 115 98 108
0.108181 -0.385358 -0.614 201 201 213
0.117346 -0.38473 -0.613 171 183 223
0.129022 -0.38473 -0.613 89 107 157
0.136028 -0.38473 -0.613 110 131 178
0.137195 -0.38473 -0.613 127 148 195
0.165843 -0.383475 -0.611 193 191 205
0.17399 -0.383475 -0.611 209 208 224
0.178645 -0.383475 -0.611 159 166 194
0.204249 -0.383475 -0.611 163 177 216
0.31081 -0.382848 -0.61 118 124 156
0.316619 -0.382848 -0.61 86 116 176
0.366018 -0.383475 -0.611 195 193 206
0.397441 -0.383475 -0.611 160 173 205
0.398605 -0.383475 -0.611 177 184 203
0.416743 -0.384103 -0.612 193 191 202
0.447485 -0.383475 -0.611 93 132 191
0.458709 -0.384103 -0.612 166 178 202
0.464942 -0.383475 -0.611 132 144 170
0.481643 -0.38473 -0.613 169 168 176
0.48281 -0.38473 -0.613 173 172 180
0.48552 -0.384103 -0.612 174 174 186
0.497177 -0.384103 -0.612 72 85 119
0.4581 -0.319458 -0.509 179 121 97
0.464887 -0.319458 -0.509 176 118 94
0.487989 -0.323851 -0.516 154 109 90
0.492803 -0.325734 -0.519 152 107 88
0.01296 -0.31728 -0.504 201 164 137
0.02414 -0.312873 -0.497 197 160 133
0.0371067 -0.318539 -0.506 168 123 104
0.0742657 -0.353163 -0.561 116 94 97
0.123184 -0.385898 -0.613 118 132 177
0.132309 -0.385269 -0.612 112 129 183
0.143966 -0.385269 -0.612 188 192 217
0.15912 -0.385269 -0.612 140 148 167
0.170498 -0.384639 -0.611 204 210 226
0.184464 -0.384639 -0.611 99 116 160
0.199267 -0.38401 -0.61 98 133 191
0.212048 -0.38401 -0.61 224 225 245
0.21321 -0.38401 -0.61 224 226 247
0.345667 -0.38401 -0.61 207 208 226
0.362527 -0.384639 -0.611 211 209 223
0.404424 -0.384639 -0.611 192 196 207
0.41257 -0.384639 -0.611 192 191 205
0.421881 -0.384639 -0.611 193 195 207
0.440502 -0.384639 -0.611 147 158 186
0.455631 -0.384639 -0.611 152 171 203
0.46145 -0.384639 -0.611 104 121 149
0.46727 -0.384639 -0.611 117 115 136
0.465464 -0.346868 -0.551 140 111 95
0.449286 -0.321057 -0.51 182 126 101
0.454143 -0.321057 -0.51 181 125 100
0.464887 -0.320428 -0.509 178 120 98
0.473612 -0.320428 -0.509 159 107 85
0.0814533 -0.36244 -0.574 118 98 100
0.3393 -0.38454 -0.609 215 214 228
0.34046 -0.38454 -0.609 215 214 228
0.35438 -0.38454 -0.609 206 208 220
0.35554 -0.38454 -0.609 205 207 219
0.385171 -0.385171 -0.61 92 132 194
0.4026 -0.385171 -0.61 191 195 206
0.450238 -0.385171 -0.61 72 102 152
0.4514 -0.385171 -0.61 78 106 153
0.459533 -0.385171 -0.61 170 172 187
0.460695 -0.385171 -0.61 149 161 187
0.479691 -0.386434 -0.612 150 153 170
0.501362 -0.385171 -0.61 161 167 183
0.50286 -0.38454 -0.609 119 131 157
0.4515 -0.3315 -0.525 162 121 103
0.493791 -0.327711 -0.519 153 108 89
0.0222019 -0.314133 -0.496 200 161 130
0.0320324 -0.317933 -0.502 180 141 112
0.0391886 -0.321733 -0.508 158 116 102
0.0535 -0.3325 -0.525 124 100 98
0.0687438 -0.348967 -0.551 121 96 99
0.0701733 -0.350867 -0.554 118 93 96
0.0785762 -0.360367 -0.569 118 96 99
0.113471 -0.386967 -0.611 178 184 216
0.129977 -0.3876 -0.612 62 91 149
0.132092 -0.386967 -0.611 74 96 154
0.2001 -0.3857 -0.609 105 134 190
0.2117 -0.3857 -0.609 228 229 250
0.336427 -0.385067 -0.608 199 205 229
0.37526 -0.3857 -0.609 190 198 219
0.39382 -0.3857 -0.609 157 168 190
0.400276 -0.386333 -0.61 138 151 185
0.4026 -0.386333 -0.61 184 191 201
0.423514 -0.386333 -0.61 183 185 200
0.428162 -0.386333 -0.61 103 102 120
0.4321 -0.3857 -0.609 148 164 190
0.468433 -0.386967 -0.611 163 169 185
0.480071 -0.386967 -0.611 100 105 127
0.502524 -0.386333 -0.61 152 155 170
0.459135 -0.321733 -0.508 181 123 99
0.00730476 -0.37479 -0.59 203 162 132
0.0193676 -0.315078 -0.496 203 164 135
0.0222019 -0.315078 -0.496 198 158 132
0.050019 -0.330324 -0.52 134 105 99
0.0634914 -0.344299 -0.542 124 98 99
0.1015 -0.38686 -0.609 169 167 172
0.116771 -0.387495 -0.61 88 109 154
0.145819 -0.387495 -0.61 203 206 225
0.17342 -0.38686 -0.609 206 212 228
0.20093 -0.386225 -0.608 122 141 184
0.209036 -0.386225 -0.608 229 229 253
0.211352 -0.386225 -0.608 228 229 249
0.347435 -0.38559 -0.607 176 178 190
0.35206 -0.38559 -0.607 208 210 223
0.366537 -0.386225 -0.608 104 114 139
0.368853 -0.386225 -0.608 107 118 146
0.38106 -0.38686 -0.609 101 133 184
0.3973 -0.38686 -0.609 96 111 154
0.4379 -0.38686 -0.609 149 154 174
0.480448 -0.387495 -0.61 124 130 156
0.48161 -0.387495 -0.61 156 162 188
0.483933 -0.387495 -0.61 154 158 183
0.489743 -0.387495 -0.61 100 111 139
0.46046 -0.342393 -0.539 150 111 106
0.452636 -0.332865 -0.524 162 117 96
0.458168 -0.322701 -0.508 182 124 100
0.467889 -0.322066 -0.507 179 125 99
0.489986 -0.327148 -0.515 157 112 93
0.00828571 -0.369543 -0.58 205 164 136
0.0146438 -0.316023 -0.496 201 164 137
0.03504 -0.32112 -0.504 167 125 103
0.0548114 -0.336411 -0.528 124 100 98
0.066161 -0.348517 -0.547 121 97 97
0.0688686 -0.351703 -0.552 118 96 98
0.117933 -0.388657 -0.61 87 107 157
0.130714 -0.388657 -0.61 59 80 143
0.14558 -0.38802 -0.609 200 201 221
0.148143 -0.388657 -0.61 203 205 220
0.169661 -0.387383 -0.608 204 213 228
0.18819 -0.387383 -0.608 90 112 162
0.289626 -0.386746 -0.607 234 233 247
0.332405 -0.386746 -0.607 126 140 169
0.379276 -0.387383 -0.608 109 129 166
0.387383 -0.387383 -0.608 129 154 194
0.388541 -0.387383 -0.608 155 180 220
0.393173 -0.387383 -0.608 196 203 222
0.405912 -0.387383 -0.608 185 185 197
0.427916 -0.387383 -0.608 111 117 139
0.44602 -0.38802 -0.609 123 152 196
0.4495 -0.38802 -0.609 86 117 163
0.466252 -0.348517 -0.547 147 113 104
0.451283 -0.330677 -0.519 160 115 96
0.4522 -0.324943 -0.51 182 124 104
0.465038 -0.322394 -0.506 185 127 103
0.473683 -0.323031 -0.507 165 115 92
0.506422 -0.335774 -0.527 152 107 86
0.0193286 -0.316329 -0.495 202 163 134
0.0412857 -0.325914 -0.51 149 112 103
0.0815952 -0.367452 -0.575 115 95 97
0.0831219 -0.36937 -0.578 114 93 98
0.15808 -0.388541 -0.608 201 200 214
0.16066 -0.38918 -0.609 189 200 220
0.216786 -0.387902 -0.607 238 237 255
0.22141 -0.387902 -0.607 241 240 255
0.309926 -0.387263 -0.606 220 218 240
0.345709 -0.387263 -0.606 182 182 194
0.363622 -0.387902 -0.607 98 107 136
0.368247 -0.387902 -0.607 160 172 194
0.375184 -0.387902 -0.607 175 183 202
0.38559 -0.387902 -0.607 108 131 172
0.39137 -0.387902 -0.607 194 198 223
0.40707 -0.388541 -0.608 186 185 203
0.44718 -0.38918 -0.609 131 158 203
0.4553 -0.38918 -0.609 175 181 207
0.46342 -0.38918 -0.609 175 178 187
0.487428 -0.36873 -0.577 143 112 107
0.480907 -0.362979 -0.568 144 113 108
0.45114 -0.326553 -0.511 181 124 105
0.499664 -0.332944 -0.521 152 107 84
0.0146438 -0.317912 -0.496 203 166 139
0.0309524 -0.320476 -0.5 180 136 111
0.0434829 -0.328809 -0.513 148 110 99
0.0560286 -0.339705 -0.53 125 99 98
0.0675714 -0.352524 -0.55 119 95 95
0.0815952 -0.368548 -0.575 114 92 94
0.107476 -0.390981 -0.61 204 202 213
0.13166 -0.39034 -0.609 131 157 208
0.143025 -0.389699 -0.608 188 197 226
0.151131 -0.389699 -0.608 200 204 216
0.161554 -0.389699 -0.608 201 209 228
0.168226 -0.389058 -0.607 210 210 218
0.17285 -0.389058 -0.607 202 208 224
0.184412 -0.389058 -0.607 190 201 233
0.193662 -0.389058 -0.607 126 156 208
0.211811 -0.388417 -0.606 233 234 252
0.35148 -0.388417 -0.606 180 183 202
0.353789 -0.388417 -0.606 202 209 225
0.356097 -0.388417 -0.606 211 207 234
0.402932 -0.389058 -0.607 162 173 205
0.412182 -0.389058 -0.607 153 158 178
0.41565 -0.389058 -0.607 179 191 217
0.420275 -0.389058 -0.607 143 156 188
0.429525 -0.389058 -0.607 155 159 170
0.43993 -0.389058 -0.607 94 117 169
0.44413 -0.389699 -0.608 130 157 200
0.45298 -0.39034 -0.609 114 129 172
0.4611 -0.39034 -0.609 150 154 163
0.473082 -0.389699 -0.608 117 138 185
0.502034 -0.389699 -0.608 115 130 163
0.454143 -0.326886 -0.51 183 129 103
0.47658 -0.324963 -0.507 167 116 95
0.480399 -0.326245 -0.509 163 116 96
0.491948 -0.33009 -0.515 160 112 89
0.00742857 -0.334286 -0.52 205 165 139
0.0391886 -0.326571 -0.508 153 117 103
0.0412857 -0.327857 -0.51 153 114 99
0.07722 -0.3645 -0.567 119 97 99
0.0831219 -0.371571 -0.578 113 94 96
0.122179 -0.390857 -0.608 101 119 155
0.123337 -0.390857 -0.608 95 118 162
0.136076 -0.390857 -0.608 184 199 230
0.146499 -0.390857 -0.608 203 204 222
0.186725 -0.390214 -0.607 127 149 196
0.193343 -0.389571 -0.606 135 162 207
0.194497 -0.389571 -0.606 146 173 218
0.200269 -0.389571 -0.606 220 228 249
0.36764 -0.389571 -0.606 200 208 227
0.372257 -0.389571 -0.606 162 165 170
0.41565 -0.390214 -0.607 168 183 212
0.419583 -0.389571 -0.606 121 139 175
0.428817 -0.389571 -0.606 185 189 200
0.437618 -0.390214 -0.607 123 128 150
0.456869 -0.390857 -0.608 183 180 199
0.464975 -0.390857 -0.608 166 168 181
0.473082 -0.390857 -0.608 82 109 164
0.486178 -0.390214 -0.607 47 72 126
0.487334 -0.390214 -0.607 66 90 134
0.489647 -0.390214 -0.607 148 157 174
0.49774 -0.390214 -0.607 146 147 151
0.49503 -0.376714 -0.586 146 110 110
0.46748 -0.351 -0.546 146 112 111
0.456231 -0.338786 -0.527 155 118 100
0.453171 -0.327857 -0.51 183 125 101
0.466966 -0.325286 -0.506 189 133 110
0.00824095 -0.328184 -0.509 204 167 140
0.0279829 -0.321091 -0.498 186 142 117
0.0309524 -0.322381 -0.5 176 130 106
0.0340124 -0.324315 -0.503 165 124 106
0.057361 -0.343658 -0.533 126 98 94
0.114072 -0.392015 -0.608 192 201 232
0.123134 -0.39137 -0.607 102 125 169
0.129128 -0.392015 -0.608 97 127 181
0.130286 -0.392015 -0.608 122 146 192
0.14948 -0.390726 -0.606 205 207 220
0.151789 -0.390726 -0.606 203 206 221
0.179491 -0.390726 -0.606 210 215 234
0.180646 -0.390726 -0.606 201 206 225
0.194497 -0.390726 -0.606 143 166 207
0.20109 -0.390081 -0.605 221 226 245
0.203395 -0.390081 -0.605 178 186 207
0.21031 -0.390081 -0.605 233 234 255
0.341116 -0.389436 -0.604 154 161 187
0.352621 -0.389436 -0.604 195 201 223
0.37049 -0.390081 -0.605 182 186 195
0.384319 -0.390081 -0.605 114 137 181
0.393034 -0.390726 -0.606 192 198 210
0.40804 -0.390726 -0.606 146 166 199
0.409194 -0.390726 -0.606 165 185 218
0.410349 -0.390726 -0.606 171 185 230
0.435743 -0.390726 -0.606 152 157 177
0.461501 -0.392015 -0.608 175 179 188
0.466133 -0.392015 -0.608 143 156 188
0.48849 -0.39137 -0.607 121 145 189
0.466804 -0.35075 -0.544 149 112 94
0.452023 -0.330118 -0.512 184 129 108
0.466002 -0.32625 -0.506 190 133 113
0.469857 -0.32625 -0.506 177 121 98
0.473712 -0.32625 -0.506 173 121 99
0.488107 -0.330118 -0.512 157 112 91
0.0136714 -0.3201 -0.495 201 164 135
0.0145848 -0.319453 -0.494 202 165 136
0.0221124 -0.319453 -0.494 194 155 124
0.0309524 -0.323333 -0.5 174 130 105
0.0413667 -0.330447 -0.511 151 113 102
0.0549152 -0.342087 -0.529 126 98 94
0.0637257 -0.351787 -0.544 124 96 95
0.111572 -0.392527 -0.607 132 141 172
0.147171 -0.39188 -0.606 199 204 226
0.152943 -0.39188 -0.606 204 210 226
0.159869 -0.39188 -0.606 182 179 190
0.163062 -0.391233 -0.605 210 211 216
0.171129 -0.391233 -0.605 118 132 169
0.189567 -0.391233 -0.605 145 169 205
0.196481 -0.391233 -0.605 187 206 236
0.356072 -0.390587 -0.604 131 155 199
0.368186 -0.391233 -0.605 198 207 222
0.372795 -0.391233 -0.605 190 197 207
0.377931 -0.390587 -0.604 135 155 190
0.406214 -0.391233 -0.605 88 119 174
0.410824 -0.391233 -0.605 113 133 194
0.42811 -0.391233 -0.605 188 188 198
0.459586 -0.392527 -0.607 179 182 191
0.468063 -0.39188 -0.606 102 117 150
0.469991 -0.392527 -0.607 75 101 150
0.476929 -0.392527 -0.607 46 76 138
0.504167 -0.391233 -0.605 88 106 152
0.479038 -0.363427 -0.562 150 113 107
0.453373 -0.334973 -0.518 167 119 105
0.454143 -0.3298 -0.51 184 127 107
0.458231 -0.32786 -0.507 183 128 107
0.471785 -0.327213 -0.506 178 123 102
0.478511 -0.32786 -0.507 165 118 98
0.0240429 -0.321043 -0.495 189 151 128
0.0479457 -0.336609 -0.519 135 104 99
0.0503076 -0.339203 -0.523 131 102 98
0.0758714 -0.366443 -0.565 121 97 97
0.0815952 -0.372929 -0.575 119 93 92
0.0831219 -0.374874 -0.578 112 96 99
0.112543 -0.393034 -0.606 168 175 203
0.13771 -0.392386 -0.605 188 193 213
0.144863 -0.393034 -0.606 169 185 218
0.151538 -0.392386 -0.605 205 204 218
0.167394 -0.391737 -0.604 208 214 236
0.168545 -0.391737 -0.604 158 169 199
0.169695 -0.391737 -0.604 115 126 156
0.174297 -0.391737 -0.604 201 212 244
0.343997 -0.391089 -0.603 159 178 218
0.360674 -0.391737 -0.604 169 181 207
0.37563 -0.391737 -0.604 100 116 152
0.378454 -0.391089 -0.603 142 162 197
0.388286 -0.391737 -0.604 175 194 227
0.411295 -0.391737 -0.604 74 101 156
0.454211 -0.393034 -0.606 98 119 162
0.487686 -0.393034 -0.606 150 172 209
0.48438 -0.36774 -0.567 150 113 104
0.479477 -0.328826 -0.507 164 117 97
0.499747 -0.33596 -0.518 149 110 93
0.00277619 -0.379228 -0.583 197 160 131
0.03718 -0.329791 -0.507 154 116 105
0.0403143 -0.331743 -0.51 148 114 104
0.0503076 -0.340199 -0.523 133 104 98
0.0703 -0.361014 -0.555 116 92 92
0.0758714 -0.367519 -0.565 119 98 97
0.0787143 -0.370771 -0.57 119 97 99
0.13771 -0.393538 -0.605 200 203 220
0.160757 -0.393538 -0.605 206 209 216
0.168545 -0.392888 -0.604 123 134 166
0.173147 -0.392888 -0.604 197 204 230
0.18235 -0.392888 -0.604 169 180 200
0.33884 -0.391587 -0.602 111 126 165
0.356072 -0.392888 -0.604 72 107 163
0.375009 -0.392237 -0.603 97 116 156
0.379603 -0.392237 -0.603 134 158 202
0.415897 -0.392888 -0.604 42 77 141
0.4221 -0.392237 -0.603 182 186 198
0.441208 -0.392888 -0.604 93 121 169
0.461137 -0.394189 -0.606 181 180 194
0.462291 -0.394189 -0.606 182 184 199
0.499229 -0.394189 -0.606 170 170 178
0.501862 -0.393538 -0.605 76 102 151
0.468014 -0.353209 -0.543 159 115 106
0.454297 -0.330442 -0.508 177 122 102
0.462195 -0.32849 -0.505 185 130 110
0.480443 -0.329791 -0.507 165 117 97
0.496834 -0.335646 -0.516 150 111 94
0.497817 -0.335646 -0.516 151 109 95
0.5017 -0.337597 -0.519 148 106 90
0.574913 -0.377927 -0.581 111 116 136
0.00625238 -0.329452 -0.505 206 165 135
0.00717143 -0.327495 -0.502 201 166 138
0.0117619 -0.322276 -0.494 201 164 135
0.0164333 -0.321624 -0.493 204 165 136
0.0425057 -0.334671 -0.513 141 108 99
0.05624 -0.347067 -0.532 122 98 94
0.0664029 -0.358157 -0.549 119 95 93
0.0982029 -0.393386 -0.603 175 172 181
0.102154 -0.395343 -0.606 207 207 215
0.116967 -0.39469 -0.605 157 168 188
0.146686 -0.394038 -0.604 190 196 228
0.159605 -0.39469 -0.605 196 203 209
0.167394 -0.394038 -0.604 152 158 180
0.171996 -0.394038 -0.604 199 209 236
0.183197 -0.393386 -0.603 148 162 191
0.38994 -0.393386 -0.603 156 163 181
0.392237 -0.393386 -0.603 179 180 185
0.396831 -0.393386 -0.603 197 199 214
0.403723 -0.393386 -0.603 88 120 171
0.411295 -0.394038 -0.604 56 91 157
0.438907 -0.394038 -0.604 88 116 164
0.469595 -0.39469 -0.605 93 116 160
0.474989 -0.395343 -0.606 28 65 135
0.459978 -0.34511 -0.529 158 121 103
0.455237 -0.338586 -0.519 162 119 102
0.454571 -0.336629 -0.516 174 125 108
0.457266 -0.330757 -0.507 181 125 108
0.464119 -0.329452 -0.505 184 129 109
0.46416 -0.3288 -0.504 184 129 109
0.46992 -0.3288 -0.504 178 123 102
0.481409 -0.330757 -0.507 164 116 96
0.0183114 -0.322563 -0.493 198 158 132
0.025981 -0.324526 -0.496 184 142 118
0.0403143 -0.333686 -0.51 147 114 105
0.0704267 -0.363783 -0.556 117 93 93
0.0982029 -0.394534 -0.603 196 194 208
0.101986 -0.395843 -0.605 194 196 209
0.117924 -0.395189 -0.604 130 147 177
0.119074 -0.395189 -0.604 117 134 164
0.125977 -0.395189 -0.604 132 145 177
0.154739 -0.395189 -0.604 162 165 180
0.15704 -0.395189 -0.604 174 180 202
0.184346 -0.394534 -0.603 159 173 208
0.20124 -0.39388 -0.602 230 231 252
0.20468 -0.39388 -0.602 230 231 252
0.32454 -0.393226 -0.601 178 192 227
0.330264 -0.393226 -0.601 220 220 230
0.340567 -0.393226 -0.601 92 122 174
0.367507 -0.39388 -0.602 205 207 222
0.381267 -0.39388 -0.602 106 133 186
0.382413 -0.39388 -0.602 105 132 185
0.391089 -0.394534 -0.603 193 194 199
0.392237 -0.394534 -0.603 197 198 203
0.4214 -0.39388 -0.602 185 187 202
0.423693 -0.39388 -0.602 186 187 205
0.427843 -0.394534 -0.603 193 190 201
0.479173 -0.395189 -0.604 18 60 134
0.460848 -0.346771 -0.53 162 120 106
0.454297 -0.332377 -0.508 177 128 111
0.455265 -0.332377 -0.508 177 126 109
0.484293 -0.332377 -0.508 168 116 95
0.499767 -0.338266 -0.517 149 108 90
0.00897524 -0.32547 -0.496 203 164 135
0.133809 -0.395683 -0.603 197 202 222
0.137254 -0.395683 -0.603 201 204 223
0.138403 -0.395683 -0.603 200 202 227
0.160226 -0.395683 -0.603 175 179 204
0.17286 -0.395683 -0.603 213 216 233
0.219222 -0.39437 -0.601 142 160 196
0.34629 -0.39437 -0.601 68 103 167
0.354304 -0.39437 -0.601 96 133 186
0.358333 -0.395027 -0.602 181 203 244
0.382923 -0.39437 -0.601 100 132 183
0.43516 -0.395027 -0.602 86 114 177
0.448517 -0.395683 -0.603 92 124 185
0.467669 -0.396339 -0.604 132 155 199
0.504571 -0.393714 -0.6 34 71 124
0.495486 -0.38059 -0.58 144 115 109
0.48418 -0.369435 -0.563 151 117 116
0.456991 -0.341875 -0.521 161 119 103
0.455033 -0.335313 -0.511 173 128 107
0.460271 -0.331376 -0.505 177 125 104
0.487186 -0.334001 -0.509 153 110 91
0.0061781 -0.32839 -0.499 206 167 138
0.0201895 -0.324441 -0.493 192 150 125
0.0220676 -0.324441 -0.493 190 148 124
0.0239943 -0.325099 -0.494 187 145 121
0.0279267 -0.327073 -0.497 175 134 112
0.0527 -0.346816 -0.527 125 100 96
0.117729 -0.396831 -0.603 118 138 173
0.134733 -0.396173 -0.602 199 202 221
0.144146 -0.396831 -0.603 142 152 187
0.1462 -0.396173 -0.602 83 110 157
0.147591 -0.396831 -0.603 128 154 191
0.167987 -0.396173 -0.602 209 216 235
0.205485 -0.395515 -0.601 221 225 250
0.358883 -0.395515 -0.601 201 204 221
0.365751 -0.395515 -0.601 201 208 226
0.416571 -0.394857 -0.6 131 167 227
0.429427 -0.396173 -0.602 190 188 209
0.44204 -0.396173 -0.602 44 86 158
0.44548 -0.396173 -0.602 62 100 163
0.482625 -0.39749 -0.604 19 63 128
0.487569 -0.396831 -0.603 44 76 133
0.491014 -0.396831 -0.603 78 93 112
0.455114 -0.335629 -0.51 174 127 107
0.461233 -0.332338 -0.505 178 128 105
0.0182743 -0.32472 -0.492 193 153 127
0.0360714 -0.3333 -0.505 153 117 105
0.0391886 -0.33528 -0.508 149 112 103
0.06006 -0.35574 -0.539 119 98 95
0.0625743 -0.35838 -0.543 121 97 95
0.0760057 -0.37356 -0.566 118 100 100
0.100333 -0.39732 -0.602 128 135 164
0.11524 -0.39732 -0.602 149 163 192
0.123471 -0.39798 -0.603 173 184 216
0.133587 -0.39732 -0.602 199 202 221
0.207429 -0.396 -0.6 211 217 241
0.346279 -0.39534 -0.599 47 87 159
0.348 -0.396 -0.6 50 90 162
0.358286 -0.396 -0.6 193 195 218
0.365143 -0.396 -0.6 203 211 232
0.382286 -0.396 -0.6 97 135 197
0.392081 -0.39666 -0.601 187 190 205
0.413831 -0.39666 -0.601 29 71 143
0.432148 -0.39666 -0.601 121 145 193
0.471489 -0.39798 -0.603 24 63 128
0.492547 -0.37884 -0.574 147 116 113
0.481142 -0.36762 -0.557 148 114 104
0.4776 -0.33264 -0.504 172 120 96
0.575248 -0.38148 -0.578 133 116 126
0.0220676 -0.326319 -0.493 189 147 123
0.0279267 -0.328967 -0.497 171 130 108
0.0492171 -0.345514 -0.522 128 103 98
0.0528 -0.349486 -0.528 123 99 95
0.0638429 -0.360738 -0.545 118 97 96
0.0678171 -0.365371 -0.552 115 95 94
0.0760057 -0.374638 -0.566 117 99 99
0.0773562 -0.375962 -0.568 116 97 99
0.10148 -0.398467 -0.602 151 160 189
0.120973 -0.398467 -0.602 154 179 220
0.140233 -0.397805 -0.601 201 203 218
0.225338 -0.396481 -0.599 128 155 208
0.228761 -0.396481 -0.599 206 217 245
0.364534 -0.396481 -0.599 201 212 234
0.37138 -0.396481 -0.599 104 120 156
0.437871 -0.397805 -0.601 43 82 151
0.445885 -0.397805 -0.601 39 79 148
0.45236 -0.398467 -0.602 69 97 136
0.4558 -0.398467 -0.602 118 130 152
0.494787 -0.398467 -0.602 167 175 194
0.495933 -0.398467 -0.602 149 157 176
0.500833 -0.397805 -0.601 59 92 146
0.504268 -0.397805 -0.601 41 83 141
0.504571 -0.397143 -0.6 33 71 136
0.459623 -0.346838 -0.524 161 119 103
0.455114 -0.337571 -0.51 174 127 107
0.46128 -0.3336 -0.504 175 125 100
0.468055 -0.332276 -0.502 175 125 100
0.47856 -0.3336 -0.504 169 119 96
0.0173019 -0.32593 -0.491 196 154 129
0.0269257 -0.32925 -0.496 173 131 107
0.0678171 -0.366423 -0.552 115 95 94
0.0704267 -0.369078 -0.556 117 97 98
0.145957 -0.39895 -0.601 74 103 147
0.147102 -0.39895 -0.601 77 110 164
0.176571 -0.398286 -0.6 212 218 232
0.292166 -0.396958 -0.598 211 222 252
0.316086 -0.396958 -0.598 108 146 208
0.337728 -0.396958 -0.598 164 184 221
0.35883 -0.397622 -0.599 99 126 171
0.394857 -0.398286 -0.6 95 111 127
0.409714 -0.398286 -0.6 29 70 150
0.414286 -0.398286 -0.6 27 66 141
0.429143 -0.398286 -0.6 140 149 164
0.451609 -0.39895 -0.601 99 124 164
0.482173 -0.399613 -0.602 47 86 153
0.484807 -0.39895 -0.601 163 175 191
0.493965 -0.39895 -0.601 174 183 198
0.49511 -0.39895 -0.601 162 171 186
0.459742 -0.347172 -0.523 159 120 103
0.455747 -0.341198 -0.514 166 123 104
0.465187 -0.333232 -0.502 176 128 105
0.474736 -0.333896 -0.503 169 121 98
0.49494 -0.339207 -0.511 153 110 91
0.00426 -0.33086 -0.497 205 166 137
0.0230533 -0.328863 -0.494 183 146 120
0.0371067 -0.336851 -0.506 150 112 99
0.0652381 -0.364811 -0.548 118 97 96
0.0678171 -0.367474 -0.552 115 95 96
0.102286 -0.399429 -0.6 179 191 215
0.112571 -0.399429 -0.6 176 184 207
0.152826 -0.400094 -0.601 102 131 189
0.176277 -0.398763 -0.599 206 212 228
0.186234 -0.398097 -0.598 122 147 187
0.194208 -0.398097 -0.598 153 174 219
0.341711 -0.397431 -0.597 50 90 152
0.354813 -0.398097 -0.598 56 95 160
0.369621 -0.398097 -0.598 92 106 141
0.376455 -0.398097 -0.598 43 88 156
0.377594 -0.398097 -0.598 38 83 151
0.390776 -0.398763 -0.599 181 191 200
0.39534 -0.398763 -0.599 91 114 148
0.397622 -0.398763 -0.599 77 108 163
0.426857 -0.399429 -0.6 171 175 186
0.438286 -0.399429 -0.6 52 98 160
0.472214 -0.400094 -0.601 23 64 130
0.4563 -0.337517 -0.507 174 127 107
0.457266 -0.337517 -0.507 176 129 109
0.460271 -0.336186 -0.505 175 127 105
-0.0027619 -0.387219 -0.58 203 164 135
0.00425143 -0.331139 -0.496 206 165 135
0.0126257 -0.327801 -0.491 202 161 131
0.0144962 -0.327801 -0.491 197 158 127
0.0269257 -0.331139 -0.496 172 130 106
0.0309524 -0.33381 -0.5 161 123 102
0.0319686 -0.334477 -0.501 160 122 103
0.0692429 -0.370529 -0.555 115 94 99
0.103429 -0.400571 -0.6 197 204 214
0.128571 -0.400571 -0.6 108 128 165
0.129714 -0.400571 -0.6 112 132 169
0.132 -0.400571 -0.6 186 195 224
0.151429 -0.400571 -0.6 66 97 161
0.154857 -0.400571 -0.6 71 99 173
0.175136 -0.399904 -0.599 220 221 239
0.182817 -0.399236 -0.598 127 161 207
0.19193 -0.399236 -0.598 145 169 215
0.201042 -0.399236 -0.598 234 233 249
0.259837 -0.398569 -0.597 215 229 255
0.271209 -0.398569 -0.597 196 203 232
0.273483 -0.398569 -0.597 193 208 239
0.326929 -0.398569 -0.597 188 196 217
0.3383 -0.398569 -0.597 75 106 161
0.374689 -0.398569 -0.597 47 92 160
0.379872 -0.399236 -0.598 49 94 161
0.38329 -0.399236 -0.598 59 100 162
0.384429 -0.399236 -0.598 77 118 180
0.39468 -0.399236 -0.598 138 151 168
0.442119 -0.399904 -0.599 27 80 150
0.46649 -0.401239 -0.601 133 150 180
0.487429 -0.400571 -0.6 166 176 188
0.469853 -0.359179 -0.538 154 118 104
0.456726 -0.343156 -0.514 163 125 106
0.456232 -0.33915 -0.508 174 129 108
0.00424286 -0.331414 -0.495 206 165 135
0.00610381 -0.330075 -0.493 204 163 133
0.00982 -0.328736 -0.491 204 163 131
0.0116905 -0.328736 -0.491 202 161 129
0.038221 -0.340118 -0.508 148 109 94
0.0481305 -0.348822 -0.521 133 101 88
0.0516962 -0.352839 -0.527 126 99 90
0.0692429 -0.371586 -0.555 116 96 98
0.110102 -0.401045 -0.599 195 200 219
0.133143 -0.401714 -0.6 203 205 228
0.144571 -0.401714 -0.6 170 184 221
0.148 -0.401714 -0.6 80 104 164
0.164592 -0.400375 -0.598 209 215 239
0.171427 -0.400375 -0.598 218 223 243
0.188197 -0.399706 -0.597 127 158 212
0.192746 -0.399706 -0.597 134 166 207
0.193883 -0.399706 -0.597 140 172 213
0.196157 -0.399706 -0.597 213 225 255
0.325246 -0.399036 -0.596 174 186 208
0.342274 -0.399036 -0.596 41 89 165
0.375196 -0.399036 -0.596 47 94 162
0.376331 -0.399036 -0.596 40 87 155
0.383786 -0.399706 -0.597 92 138 200
0.388334 -0.399706 -0.597 185 197 219
0.389471 -0.399706 -0.597 192 198 214
0.390609 -0.399706 -0.597 193 199 215
0.391746 -0.399706 -0.597 191 194 203
0.428851 -0.400375 -0.598 180 191 213
0.433408 -0.400375 -0.598 74 107 174
0.436825 -0.400375 -0.598 60 110 163
0.444401 -0.401045 -0.599 53 103 174
0.474857 -0.401714 -0.6 24 65 131
0.459969 -0.348822 -0.521 162 123 108
0.4572 -0.340118 -0.508 177 130 112
0.475705 -0.336101 -0.502 164 116 94
0.00796571 -0.330343 -0.492 203 162 132
0.0116667 -0.329 -0.49 201 160 128
0.0144667 -0.329 -0.49 197 156 126
0.0279267 -0.3337 -0.497 170 125 104
0.0494057 -0.351829 -0.524 128 99 91
0.0565571 -0.359214 -0.535 120 95 90
0.0640771 -0.367271 -0.547 115 94 93
0.0747952 -0.379357 -0.565 117 97 99
0.152317 -0.402186 -0.599 56 91 159
0.157758 -0.401514 -0.598 69 108 173
0.1791 -0.400843 -0.597 138 166 214
0.200706 -0.400843 -0.597 231 233 255
0.236697 -0.400171 -0.596 195 200 222
0.328651 -0.400171 -0.596 200 209 224
0.335463 -0.400171 -0.596 172 188 214
0.349086 -0.400171 -0.596 46 90 161
0.353083 -0.400843 -0.597 125 161 223
0.363844 -0.400171 -0.596 163 168 187
0.377467 -0.400171 -0.596 62 109 179
0.384923 -0.400843 -0.597 159 181 205
0.39402 -0.400843 -0.597 176 180 191
0.40721 -0.401514 -0.598 29 71 147
0.410627 -0.401514 -0.598 29 69 139
0.415183 -0.401514 -0.598 76 123 191
0.425434 -0.401514 -0.598 191 192 212
0.436094 -0.400843 -0.597 62 108 167
0.455429 -0.402857 -0.6 184 184 194
0.468 -0.402857 -0.6 39 69 119
0.498333 -0.401514 -0.598 74 101 148
0.500611 -0.401514 -0.598 70 103 146
0.470878 -0.361229 -0.538 154 117 101
0.463239 -0.337729 -0.503 174 126 104
0.466143 -0.337057 -0.502 177 129 109
0.480485 -0.337729 -0.503 161 116 93
0.48528 -0.3384 -0.504 160 118 96
0.00516476 -0.331953 -0.493 204 163 133
0.02994 -0.335993 -0.499 164 121 102
0.053 -0.356867 -0.53 122 97 93
0.07068 -0.37572 -0.558 117 97 96
0.0791286 -0.38582 -0.573 117 97 98
0.108779 -0.402653 -0.598 196 197 218
0.111057 -0.402653 -0.598 180 187 215
0.113335 -0.402653 -0.598 111 129 167
0.118089 -0.403327 -0.599 99 130 185
0.154341 -0.402653 -0.598 58 90 163
0.156619 -0.402653 -0.598 64 96 169
0.158631 -0.40198 -0.597 132 167 233
0.189017 -0.401307 -0.596 116 151 207
0.201505 -0.401307 -0.596 175 184 215
0.20264 -0.401307 -0.596 149 158 189
0.2703 -0.400633 -0.595 149 165 198
0.2771 -0.400633 -0.595 89 118 174
0.326967 -0.400633 -0.595 211 219 232
0.343967 -0.400633 -0.595 49 87 158
0.360967 -0.400633 -0.595 199 205 217
0.387197 -0.40198 -0.597 194 201 211
0.389471 -0.40198 -0.597 191 201 211
0.390609 -0.40198 -0.597 191 201 211
0.395157 -0.40198 -0.597 172 174 187
0.397431 -0.40198 -0.597 151 157 169
0.399706 -0.40198 -0.597 138 145 171
0.420174 -0.40198 -0.597 144 146 159
0.423586 -0.40198 -0.597 185 193 204
0.451247 -0.403327 -0.599 140 165 205
0.45581 -0.403327 -0.599 185 188 197
0.463797 -0.403327 -0.599 116 123 151
0.480571 -0.404 -0.6 41 77 135
0.481714 -0.404 -0.6 63 86 130
0.491499 -0.402653 -0.598 169 177 190
0.498637 -0.40198 -0.597 76 97 142
0.503478 -0.401307 -0.596 106 127 170
0.462617 -0.352827 -0.524 163 125 112
0.45713 -0.342727 -0.509 173 131 109
0.458291 -0.340707 -0.506 175 130 109
0.474749 -0.338013 -0.502 164 118 95
0.476661 -0.338013 -0.502 171 125 102
0.48432 -0.33936 -0.504 162 117 94
0.48624 -0.33936 -0.504 162 117 96
0.4872 -0.33936 -0.504 160 118 96
0.494937 -0.342053 -0.508 154 113 93
0.0269257 -0.334918 -0.496 171 128 109
0.02994 -0.336944 -0.499 162 121 103
0.0319686 -0.338294 -0.501 160 118 102
0.03718 -0.342346 -0.507 148 110 97
0.0393429 -0.344371 -0.51 145 105 93
0.0415286 -0.346397 -0.513 140 103 94
0.0448067 -0.349098 -0.517 135 102 93
0.0471381 -0.351799 -0.521 131 101 93
0.106323 -0.403117 -0.597 196 198 219
0.10746 -0.403117 -0.597 196 198 223
0.108597 -0.403117 -0.597 191 193 218
0.139533 -0.403792 -0.598 176 186 213
0.145229 -0.403792 -0.598 141 162 207
0.150924 -0.403792 -0.598 55 88 159
0.156357 -0.403117 -0.597 64 97 168
0.173124 -0.402442 -0.596 176 184 207
0.175689 -0.403117 -0.597 154 170 196
0.184167 -0.401767 -0.595 106 143 198
0.186433 -0.401767 -0.595 102 139 194
0.211367 -0.401767 -0.595 110 138 178
0.224967 -0.401767 -0.595 132 158 207
0.2397 -0.401767 -0.595 151 161 197
0.336033 -0.401767 -0.595 185 196 216
0.3417 -0.401767 -0.595 53 96 164
0.3757 -0.401767 -0.595 69 114 179
0.3791 -0.401767 -0.595 84 134 193
0.397901 -0.402442 -0.596 120 129 158
0.436094 -0.403117 -0.597 81 124 179
0.445937 -0.403792 -0.598 74 119 174
0.449354 -0.403792 -0.598 107 131 169
0.459606 -0.403792 -0.598 184 182 193
0.472925 -0.404468 -0.599 84 115 169
0.459197 -0.342346 -0.507 174 129 108
0.46032 -0.34032 -0.504 178 131 111
0.46423 -0.33897 -0.502 172 125 105
0.474757 -0.338294 -0.501 167 122 101
0.481442 -0.33897 -0.502 162 117 94
0.00141429 -0.335186 -0.495 205 164 134
0.0230067 -0.333831 -0.493 179 135 110
0.0566629 -0.362949 -0.536 119 95 95
0.128143 -0.404931 -0.598 91 122 176
0.1393 -0.404254 -0.597 106 130 176
0.142711 -0.404254 -0.597 113 138 192
0.14726 -0.404254 -0.597 72 103 158
0.15522 -0.404254 -0.597 56 90 162
0.177367 -0.4029 -0.595 107 140 185
0.196633 -0.4029 -0.595 197 207 234
0.201167 -0.4029 -0.595 182 191 224
0.203433 -0.4029 -0.595 176 188 226
0.2057 -0.4029 -0.595 172 186 225
0.234033 -0.4029 -0.595 234 241 255
0.2397 -0.4029 -0.595 183 193 228
0.250611 -0.402223 -0.594 121 160 219
0.254006 -0.402223 -0.594 140 172 223
0.2574 -0.402223 -0.594 193 216 255
0.260794 -0.402223 -0.594 221 232 255
0.32868 -0.402223 -0.594 209 217 236
0.333206 -0.402223 -0.594 206 214 233
0.338863 -0.402223 -0.594 76 108 159
0.349046 -0.402223 -0.594 50 95 162
0.356433 -0.4029 -0.595 190 202 224
0.357567 -0.4029 -0.595 201 205 216
0.377967 -0.4029 -0.595 85 129 190
0.402442 -0.403577 -0.596 58 90 139
0.410389 -0.403577 -0.596 51 87 149
0.420606 -0.403577 -0.596 191 197 211
0.468718 -0.404931 -0.598 89 117 165
0.491814 -0.404254 -0.597 169 177 190
0.502343 -0.403577 -0.596 115 143 183
0.475411 -0.367011 -0.542 156 118 105
0.465266 -0.356854 -0.527 159 121 108
0.461953 -0.352791 -0.521 161 123 110
0.457953 -0.34602 -0.511 174 129 110
0.466143 -0.339926 -0.502 172 125 105
0.478573 -0.339926 -0.502 164 118 95
0.492014 -0.341957 -0.505 158 115 96
-0.00602381 -0.390452 -0.575 201 160 130
0.0259286 -0.336129 -0.495 167 126 106
0.03504 -0.34224 -0.504 149 111 100
0.0959276 -0.404712 -0.596 111 131 181
0.161771 -0.404712 -0.596 86 120 181
0.200829 -0.403354 -0.594 211 222 252
0.207617 -0.403354 -0.594 185 204 244
0.20988 -0.403354 -0.594 127 158 205
0.222326 -0.403354 -0.594 133 164 219
0.226851 -0.403354 -0.594 223 235 255
0.232509 -0.403354 -0.594 230 237 255
0.237034 -0.403354 -0.594 218 220 241
0.242691 -0.403354 -0.594 132 163 209
0.32022 -0.402675 -0.593 138 180 230
0.359229 -0.403354 -0.594 153 152 150
0.394303 -0.403354 -0.594 144 156 178
0.4131 -0.404033 -0.595 70 106 158
0.445581 -0.404712 -0.596 82 114 161
0.46566 -0.405391 -0.597 77 97 132
0.466797 -0.405391 -0.597 102 124 165
0.471346 -0.405391 -0.597 81 103 140
0.481248 -0.40607 -0.598 65 91 128
0.483526 -0.40607 -0.598 67 90 134
0.4981 -0.404033 -0.595 84 112 149
0.4581 -0.345635 -0.509 174 128 112
0.460219 -0.343598 -0.506 177 128 113
0.46423 -0.340882 -0.502 172 123 106
0.487191 -0.341561 -0.503 160 115 94
0.0042 -0.333667 -0.49 207 162 131
0.00512286 -0.332986 -0.489 206 161 130
0.0125743 -0.332986 -0.489 195 154 122
0.0329886 -0.341838 -0.502 155 113 99
0.0735886 -0.384057 -0.564 119 97 100
0.0774924 -0.387462 -0.569 117 95 98
0.130203 -0.406529 -0.597 137 156 196
0.141337 -0.405848 -0.596 90 122 171
0.156967 -0.405167 -0.595 63 102 167
0.1649 -0.405167 -0.595 158 176 212
0.1683 -0.405167 -0.595 200 212 238
0.19404 -0.404486 -0.594 208 220 242
0.200829 -0.404486 -0.594 220 232 255
0.207617 -0.404486 -0.594 190 209 249
0.22534 -0.403805 -0.593 212 232 255
0.239297 -0.404486 -0.594 180 191 219
0.242691 -0.404486 -0.594 132 163 209
0.243412 -0.403805 -0.593 136 167 213
0.260355 -0.403805 -0.593 229 241 255
0.266003 -0.403805 -0.593 231 238 254
0.32022 -0.403805 -0.593 149 187 232
0.328127 -0.403805 -0.593 212 219 235
0.331515 -0.403805 -0.593 209 217 236
0.34281 -0.403805 -0.593 125 152 199
0.346783 -0.404486 -0.594 73 108 164
0.351309 -0.404486 -0.594 69 108 167
0.379594 -0.404486 -0.594 90 127 179
0.421033 -0.405167 -0.595 184 187 202
0.47362 -0.406529 -0.597 147 163 189
0.505462 -0.403805 -0.593 92 113 156
0.459197 -0.345243 -0.507 177 130 114
0.460219 -0.344562 -0.506 176 129 113
0.468077 -0.341157 -0.501 175 126 109
0.481437 -0.341157 -0.501 166 118 96
0.49686 -0.345243 -0.507 158 115 96
0.501743 -0.347286 -0.51 149 106 87
0.504686 -0.348648 -0.512 152 111 91
0.00884857 -0.333917 -0.489 203 160 128
0.0483152 -0.357134 -0.523 128 99 93
0.0566629 -0.366011 -0.536 119 94 97
0.114091 -0.406983 -0.596 79 109 171
0.137931 -0.406983 -0.596 142 156 182
0.179331 -0.405617 -0.594 112 147 201
0.227599 -0.404934 -0.593 232 240 255
0.235506 -0.404934 -0.593 242 244 255
0.237765 -0.404934 -0.593 207 217 242
0.27683 -0.404251 -0.592 120 142 191
0.310659 -0.404251 -0.592 111 152 198
0.32419 -0.404251 -0.592 209 221 233
0.358019 -0.404251 -0.592 207 202 206
0.382344 -0.404934 -0.593 177 188 208
0.39204 -0.405617 -0.594 185 188 207
0.414669 -0.405617 -0.594 93 109 135
0.420326 -0.405617 -0.594 190 193 208
0.427114 -0.405617 -0.594 192 199 218
0.432771 -0.405617 -0.594 97 124 169
0.433903 -0.405617 -0.594 115 142 185
0.436166 -0.405617 -0.594 129 156 199
0.451257 -0.406983 -0.596 185 187 200
0.4573 -0.4063 -0.595 184 188 200
0.46261 -0.406983 -0.596 80 97 127
0.469421 -0.406983 -0.596 163 174 202
0.48872 -0.406983 -0.596 167 173 189
0.50292 -0.405617 -0.594 120 144 182
0.460557 -0.351671 -0.515 168 125 109
0.473803 -0.342111 -0.501 170 122 102
0.474757 -0.342111 -0.501 168 120 100
0.488135 -0.342794 -0.502 161 116 95
-0.00141429 -0.338957 -0.495 207 164 132
0.00419143 -0.334849 -0.489 206 163 129
0.0319686 -0.343066 -0.501 155 113 99
0.0448067 -0.354022 -0.517 132 102 94
0.0495 -0.3595 -0.525 126 98 94
0.0681857 -0.380043 -0.555 118 96 99
0.16236 -0.406749 -0.594 203 214 232
0.184677 -0.406064 -0.593 116 153 205
0.192259 -0.405379 -0.592 183 216 255
0.208046 -0.405379 -0.592 133 156 198
0.238491 -0.405379 -0.592 172 183 205
0.32419 -0.405379 -0.592 208 225 235
0.333211 -0.405379 -0.592 129 147 197
0.339977 -0.405379 -0.592 153 178 208
0.36253 -0.405379 -0.592 212 212 222
0.372178 -0.406064 -0.593 124 162 199
0.375567 -0.406064 -0.593 147 172 226
0.377826 -0.406064 -0.593 125 151 202
0.382344 -0.406064 -0.593 177 185 204
0.383473 -0.406064 -0.593 192 200 219
0.397028 -0.406064 -0.593 75 104 146
0.40788 -0.406749 -0.594 149 172 206
0.424136 -0.406064 -0.593 193 196 205
0.432043 -0.406064 -0.593 102 126 170
0.43956 -0.406749 -0.594 140 168 215
0.461833 -0.407433 -0.595 131 148 178
0.472827 -0.408118 -0.596 138 149 167
0.48645 -0.408118 -0.596 140 151 173
0.490167 -0.407433 -0.595 169 174 193
0.496131 -0.406749 -0.594 117 128 156
0.463938 -0.356761 -0.521 170 121 106
0.466169 -0.343066 -0.501 167 120 102
0.472857 -0.342381 -0.5 162 115 95
0.476667 -0.342381 -0.5 162 116 92
0.485254 -0.343066 -0.501 160 114 91
0.00418286 -0.335093 -0.488 205 162 128
0.0115952 -0.334407 -0.487 200 157 125
0.0182 -0.336467 -0.49 187 146 118
0.0230067 -0.338527 -0.493 175 133 108
0.0393429 -0.3502 -0.51 144 104 92
0.0437371 -0.35432 -0.516 133 100 91
0.06794 -0.379727 -0.553 117 97 99
0.0733276 -0.385907 -0.562 115 96 100
0.0789905 -0.392773 -0.572 113 97 100
0.0978686 -0.40788 -0.594 182 190 211
0.1377 -0.408567 -0.595 190 206 219
0.173382 -0.407193 -0.593 199 206 222
0.232853 -0.406507 -0.592 241 239 250
0.235837 -0.40582 -0.591 192 192 204
0.247094 -0.40582 -0.591 131 165 210
0.309009 -0.40582 -0.591 155 188 229
0.318014 -0.40582 -0.591 171 187 220
0.350126 -0.406507 -0.592 108 138 174
0.409452 -0.407193 -0.593 168 183 206
0.418489 -0.407193 -0.593 164 178 205
0.43769 -0.407193 -0.593 139 161 208
0.43995 -0.407193 -0.593 123 147 193
0.4641 -0.408567 -0.595 156 163 181
0.466367 -0.408567 -0.595 165 169 196
0.483367 -0.408567 -0.595 134 145 167
0.497555 -0.407193 -0.593 83 101 139
0.474762 -0.343333 -0.5 167 119 99
0.476667 -0.343333 -0.5 163 117 93
0.486209 -0.34402 -0.501 158 113 90
0.0153371 -0.336023 -0.488 191 150 120
0.0182 -0.3374 -0.49 184 145 116
0.0309524 -0.344286 -0.5 155 116 101
0.0319686 -0.344974 -0.501 151 112 97
0.0471381 -0.358746 -0.521 128 99 93
0.0733276 -0.386977 -0.562 114 98 101
0.100131 -0.409011 -0.594 199 198 214
0.1241 -0.4097 -0.595 89 125 187
0.129549 -0.409011 -0.594 189 204 225
0.1386 -0.409011 -0.594 203 208 230
0.171962 -0.407634 -0.592 217 223 239
0.191934 -0.406946 -0.591 195 214 254
0.194186 -0.406946 -0.591 228 233 252
0.213323 -0.406946 -0.591 159 180 227
0.220077 -0.406946 -0.591 128 151 195
0.24034 -0.406946 -0.591 140 172 210
0.242591 -0.406946 -0.591 141 174 215
0.317476 -0.406257 -0.59 172 187 218
0.319724 -0.406257 -0.59 210 222 238
0.348409 -0.406946 -0.591 157 180 211
0.357414 -0.406946 -0.591 203 205 218
0.445597 -0.408323 -0.593 129 145 179
0.457663 -0.409011 -0.594 65 78 112
0.478833 -0.4097 -0.595 166 173 191
0.481423 -0.409011 -0.594 172 180 201
0.460163 -0.349106 -0.507 174 127 111
0.474762 -0.344286 -0.5 165 117 97
0.481429 -0.344286 -0.5 167 121 98
-0.00431143 -0.34731 -0.503 202 161 131
0.0162667 -0.336952 -0.488 188 149 120
0.0382962 -0.351452 -0.509 143 105 94
0.102222 -0.409452 -0.593 191 198 214
0.12276 -0.410143 -0.594 100 134 195
0.149662 -0.409452 -0.593 93 128 186
0.155048 -0.408762 -0.592 83 111 161
0.168579 -0.408762 -0.592 219 225 239
0.170834 -0.408762 -0.592 216 222 238
0.1773 -0.408071 -0.591 134 163 203
0.194186 -0.408071 -0.591 230 233 252
0.20959 -0.407381 -0.59 153 182 226
0.214086 -0.407381 -0.59 136 158 197
0.220829 -0.407381 -0.59 133 157 201
0.24034 -0.408071 -0.591 147 175 212
0.241466 -0.408071 -0.591 150 178 217
