ply
format ascii 1.0
comment Created by Open3D
element vertex 1301
property double x
property double y
property double z
property uchar red
property uchar green
property uchar blue
end_header
-0.12459 -0.304095 -0.62 85 88 93
-0.109757 -0.286929 -0.585 91 91 99
-0.0999943 -0.301152 -0.614 224 224 224
0.0713314 -0.214829 -0.438 201 164 155
0.0723333 -0.212867 -0.434 205 165 153
0.0833667 -0.209433 -0.427 204 165 150
0.0886429 -0.208452 -0.425 195 152 136
0.091881 -0.208452 -0.425 189 143 127
0.0953429 -0.208943 -0.426 184 135 118
0.10656 -0.211886 -0.432 168 120 106
0.132156 -0.221695 -0.452 102 80 82
0.135063 -0.223657 -0.456 103 77 78
0.1383 -0.22611 -0.461 137 120 126
0.384171 -0.264857 -0.54 148 100 96
0.397194 -0.261914 -0.534 155 106 101
0.401527 -0.261424 -0.533 160 110 103
0.40888 -0.260933 -0.532 160 110 101
0.429943 -0.258971 -0.528 148 102 89
0.44519 -0.258481 -0.527 125 81 72
1.13759 -0.310471 -0.633 201 203 189
-0.124791 -0.305769 -0.621 85 88 95
-0.119469 -0.298383 -0.606 85 88 97
-0.108643 -0.288043 -0.585 88 88 98
-0.10548 -0.288535 -0.586 77 77 85
0.0700857 -0.219602 -0.446 200 163 154
0.0704971 -0.215663 -0.438 202 164 155
0.0734752 -0.212216 -0.431 206 168 157
0.0809267 -0.210247 -0.427 202 163 148
0.0982362 -0.210739 -0.428 175 126 109
0.11695 -0.21517 -0.437 131 94 88
0.12138 -0.21714 -0.441 122 88 86
0.1389 -0.227972 -0.463 189 177 187
0.376653 -0.282627 -0.574 127 83 84
0.378026 -0.270317 -0.549 132 86 86
0.407867 -0.261947 -0.532 160 110 101
0.415643 -0.26047 -0.529 153 105 93
0.420681 -0.26047 -0.529 144 96 84
0.441174 -0.259485 -0.527 135 91 82
0.442178 -0.259485 -0.527 139 95 86
-0.103351 -0.293111 -0.593 73 71 82
0.0747686 -0.212049 -0.429 205 169 157
0.0815486 -0.210566 -0.426 200 163 147
0.0910714 -0.210071 -0.425 186 140 125
0.10385 -0.213037 -0.431 166 118 106
0.108456 -0.214026 -0.433 157 110 100
0.12054 -0.21798 -0.441 120 89 87
0.127858 -0.221934 -0.449 104 79 83
0.131876 -0.224406 -0.454 101 76 80
0.134783 -0.226383 -0.458 98 85 95
0.141593 -0.23182 -0.469 235 241 255
0.381134 -0.268397 -0.543 135 90 87
0.394143 -0.263949 -0.534 157 108 103
0.417658 -0.261477 -0.529 148 100 88
0.429943 -0.260983 -0.528 148 100 88
0.438163 -0.260489 -0.527 143 96 86
0.443182 -0.260489 -0.527 138 92 79
0.447197 -0.260489 -0.527 129 85 74
0.45666 -0.262466 -0.531 134 91 82
0.459395 -0.263454 -0.533 135 91 80
0.472473 -0.267409 -0.541 130 87 78
0.475254 -0.268397 -0.543 131 88 79
0.486286 -0.272846 -0.552 134 91 84
0.574223 -0.313377 -0.634 157 171 200
-0.0996295 -0.307142 -0.619 221 220 225
0.378303 -0.27489 -0.554 129 85 82
0.378714 -0.272905 -0.55 131 87 84
0.382169 -0.269431 -0.543 139 90 86
0.38353 -0.268935 -0.542 141 92 88
0.398747 -0.263973 -0.532 159 109 100
0.39976 -0.263973 -0.532 157 107 96
0.430949 -0.261989 -0.528 146 98 86
0.444186 -0.261492 -0.527 137 91 76
0.465911 -0.266454 -0.537 129 87 75
-0.115613 -0.297861 -0.598 78 81 86
0.0690267 -0.216173 -0.434 204 168 156
0.0731343 -0.213683 -0.429 207 169 158
0.09638 -0.212687 -0.427 175 127 113
0.378986 -0.276443 -0.555 128 84 81
0.38353 -0.269968 -0.542 140 91 86
0.391535 -0.266979 -0.536 151 99 88
0.393862 -0.266481 -0.535 155 105 96
0.398747 -0.264987 -0.532 159 109 98
0.405077 -0.264489 -0.531 160 110 99
0.4071 -0.264489 -0.531 162 113 99
0.423704 -0.263492 -0.529 149 99 88
0.429943 -0.262994 -0.528 151 101 90
0.452925 -0.263492 -0.529 133 89 76
-0.128409 -0.3165 -0.633 77 80 85
-0.12341 -0.31 -0.62 79 82 87
0.09394 -0.2135 -0.427 172 126 111
0.0957905 -0.214 -0.428 171 123 109
0.100333 -0.215 -0.43 170 116 104
0.106807 -0.2165 -0.433 153 106 96
0.122481 -0.2225 -0.445 113 85 84
0.130433 -0.2275 -0.455 103 82 87
0.381333 -0.28 -0.56 126 81 78
0.381836 -0.272 -0.544 141 93 83
0.41665 -0.2645 -0.529 147 99 85
0.430949 -0.264 -0.528 154 104 93
0.433966 -0.264 -0.528 148 98 87
0.463157 -0.2675 -0.535 129 87 75
0.483643 -0.2745 -0.549 130 90 80
-0.10656 -0.297128 -0.592 70 70 80
-0.0969067 -0.317204 -0.632 212 212 212
0.0752333 -0.214313 -0.427 203 163 153
0.0807371 -0.213811 -0.426 200 158 144
0.09394 -0.214313 -0.427 170 122 108
0.0984657 -0.215317 -0.429 169 119 108
0.114714 -0.219834 -0.438 126 92 90
0.382872 -0.273036 -0.544 142 93 86
0.39442 -0.267515 -0.533 157 105 92
0.403054 -0.266511 -0.531 163 111 98
0.407343 -0.26601 -0.53 168 116 102
0.423909 -0.265006 -0.528 153 103 94
0.434971 -0.265006 -0.528 146 98 88
0.444186 -0.264504 -0.527 132 85 75
0.447197 -0.264504 -0.527 130 86 75
0.45666 -0.266511 -0.531 131 88 79
-0.119876 -0.309339 -0.614 76 79 84
-0.10787 -0.298759 -0.593 76 76 84
-0.10501 -0.30027 -0.596 66 66 74
0.0665467 -0.218653 -0.434 207 170 161
0.0821667 -0.214119 -0.425 198 155 139
0.0837857 -0.214119 -0.425 194 151 135
0.0854048 -0.214119 -0.425 188 147 127
0.0920971 -0.214623 -0.426 176 128 114
0.0978762 -0.216638 -0.43 169 117 106
0.104332 -0.21815 -0.433 156 108 96
0.111955 -0.220165 -0.437 138 96 82
0.113046 -0.220669 -0.438 134 95 80
0.11414 -0.221172 -0.439 132 93 78
0.12613 -0.227722 -0.452 106 80 83
0.134781 -0.233768 -0.464 199 195 210
0.381857 -0.277095 -0.55 137 92 86
0.391824 -0.269538 -0.535 149 97 86
0.392843 -0.269538 -0.535 148 96 85
0.39516 -0.269034 -0.534 157 105 92
0.428125 -0.265508 -0.527 151 101 92
-0.102968 -0.305451 -0.604 77 77 85
0.0845952 -0.214929 -0.425 190 147 130
0.101623 -0.218469 -0.432 158 108 97
0.132153 -0.233134 -0.461 148 138 149
0.383214 -0.280671 -0.555 129 89 87
0.384614 -0.275614 -0.545 142 94 84
0.393862 -0.270557 -0.535 154 102 89
0.409597 -0.267523 -0.529 164 114 103
0.419886 -0.267017 -0.528 157 107 98
0.448201 -0.266511 -0.527 130 87 78
-0.108779 -0.303556 -0.598 78 81 88
-0.106501 -0.303556 -0.598 74 77 84
-0.104746 -0.305079 -0.601 71 74 81
0.0912857 -0.216246 -0.426 173 127 112
0.0949752 -0.217261 -0.428 168 116 105
0.103508 -0.219799 -0.433 157 107 98
0.106227 -0.220307 -0.434 154 106 96
0.132727 -0.235028 -0.463 194 191 202
0.390647 -0.273607 -0.539 150 100 89
0.395435 -0.270561 -0.533 155 103 92
0.417083 -0.267515 -0.527 158 108 99
0.422903 -0.268023 -0.528 160 108 95
0.437159 -0.267515 -0.527 148 98 87
0.443343 -0.267008 -0.526 138 91 81
0.470727 -0.273607 -0.539 129 85 76
0.474534 -0.274622 -0.541 129 85 76
0.477323 -0.275637 -0.543 129 85 76
-0.100999 -0.312338 -0.613 129 128 133
0.0634314 -0.227757 -0.447 199 164 160
0.0632762 -0.22419 -0.44 198 163 159
0.0669076 -0.219605 -0.431 207 169 160
0.0734343 -0.217057 -0.426 204 164 152
0.1054 -0.221133 -0.434 150 103 93
0.267635 -0.330681 -0.649 197 213 249
0.394423 -0.293486 -0.576 128 90 87
0.386349 -0.284314 -0.558 131 87 84
0.389005 -0.275652 -0.541 143 93 86
0.392266 -0.273614 -0.537 149 99 88
0.398747 -0.271067 -0.532 161 108 100
0.420094 -0.268519 -0.527 160 110 101
0.443343 -0.26801 -0.526 142 94 82
0.44735 -0.26801 -0.526 137 90 80
0.450209 -0.268519 -0.527 137 90 80
0.0680724 -0.218891 -0.428 207 168 161
0.0703533 -0.21838 -0.427 209 163 150
0.0758686 -0.217869 -0.426 200 158 146
0.0797381 -0.217357 -0.425 195 153 139
0.0933448 -0.218891 -0.428 173 123 112
0.0978762 -0.219914 -0.43 161 109 98
0.10292 -0.22196 -0.434 155 105 94
0.273816 -0.331917 -0.649 212 222 255
0.276289 -0.331917 -0.649 247 253 255
0.282905 -0.332429 -0.65 197 203 225
0.31881 -0.332429 -0.65 228 225 242
0.403305 -0.271057 -0.53 158 108 97
0.415075 -0.269523 -0.527 164 111 103
0.41909 -0.269523 -0.527 161 111 100
0.429129 -0.269523 -0.527 161 109 96
0.433144 -0.269523 -0.527 157 105 92
0.438163 -0.269523 -0.527 153 101 87
0.446349 -0.269011 -0.526 143 94 80
-0.112124 -0.313133 -0.61 87 88 93
0.063919 -0.222273 -0.433 205 166 159
0.0758686 -0.21868 -0.426 200 158 146
0.0829762 -0.218167 -0.425 188 144 131
0.0888514 -0.21868 -0.426 173 125 111
0.101033 -0.222273 -0.433 158 112 97
0.118774 -0.22946 -0.447 102 81 80
0.20384 -0.32032 -0.624 241 248 255
0.274629 -0.33264 -0.648 227 234 252
0.275863 -0.33264 -0.648 248 255 255
0.312619 -0.333667 -0.65 205 207 232
0.313857 -0.333667 -0.65 217 221 246
0.33119 -0.333667 -0.65 193 210 254
0.393272 -0.291573 -0.568 129 84 79
0.38909 -0.279253 -0.544 134 89 84
0.391971 -0.276173 -0.538 144 95 88
0.399009 -0.27258 -0.531 157 108 94
0.401286 -0.272067 -0.53 158 109 95
0.420094 -0.270527 -0.527 166 116 105
0.421098 -0.270527 -0.527 167 115 102
0.425113 -0.270527 -0.527 163 111 98
0.442341 -0.270013 -0.526 150 98 85
0.446349 -0.270013 -0.526 145 96 82
0.495995 -0.285927 -0.557 133 90 81
-0.1144 -0.317387 -0.616 93 94 99
-0.0937514 -0.323054 -0.627 67 68 73
0.06324 -0.223613 -0.434 204 165 160
0.0672571 -0.220522 -0.428 208 167 161
0.103986 -0.224129 -0.435 149 103 90
0.108626 -0.225159 -0.437 135 95 87
0.121825 -0.232888 -0.452 96 76 75
0.1235 -0.234433 -0.455 99 79 78
0.270926 -0.333874 -0.648 188 202 241
0.28865 -0.33439 -0.649 205 224 241
0.292359 -0.33439 -0.649 230 236 255
0.294831 -0.33439 -0.649 243 247 255
0.390933 -0.288533 -0.56 126 83 77
0.389557 -0.285957 -0.555 121 81 79
0.399496 -0.274622 -0.533 155 105 94
0.41106 -0.27153 -0.527 165 115 104
0.418087 -0.27153 -0.527 161 111 100
0.42411 -0.27153 -0.527 164 112 101
0.426117 -0.27153 -0.527 162 110 99
0.433144 -0.27153 -0.527 158 106 95
0.443343 -0.271015 -0.526 149 100 86
0.485734 -0.282866 -0.549 135 93 81
0.516405 -0.296262 -0.575 137 94 87
-0.0916543 -0.325283 -0.629 61 62 67
0.0629486 -0.223406 -0.432 205 166 161
0.0756905 -0.219786 -0.425 196 156 146
0.0789286 -0.219786 -0.425 192 150 138
0.0970571 -0.222371 -0.43 162 110 99
0.126885 -0.238403 -0.461 102 86 87
0.131205 -0.241506 -0.467 211 200 216
0.133226 -0.243574 -0.471 195 192 219
0.314126 -0.335109 -0.648 219 220 238
0.325234 -0.335109 -0.648 167 186 229
0.337381 -0.336143 -0.65 146 162 198
0.341095 -0.336143 -0.65 204 216 255
0.394424 -0.292186 -0.565 117 80 72
0.3959 -0.276671 -0.535 152 104 90
0.407817 -0.273051 -0.528 164 115 101
0.416079 -0.272534 -0.527 161 112 98
0.429129 -0.272534 -0.527 160 108 94
0.464326 -0.276154 -0.534 130 86 73
0.467086 -0.277189 -0.536 128 84 71
0.48485 -0.283394 -0.548 132 90 78
0.495105 -0.287531 -0.556 134 92 80
-0.103671 -0.319214 -0.615 92 93 98
-0.0946429 -0.324405 -0.625 61 60 66
0.0671 -0.221633 -0.427 204 166 157
0.0679133 -0.221633 -0.427 203 165 156
0.071 -0.221114 -0.426 200 162 151
0.0726229 -0.221114 -0.426 201 162 155
0.0972829 -0.22371 -0.431 160 107 99
0.126007 -0.239281 -0.461 99 84 91
0.272972 -0.335824 -0.647 201 211 246
0.279134 -0.335824 -0.647 252 254 253
0.30672 -0.336343 -0.648 162 175 210
0.31857 -0.335824 -0.647 241 240 254
0.351 -0.337381 -0.65 200 211 233
0.358429 -0.337381 -0.65 70 101 166
0.400773 -0.276133 -0.532 158 109 95
0.41106 -0.273538 -0.527 163 114 100
0.427121 -0.273538 -0.527 159 107 93
0.440337 -0.273019 -0.526 155 104 87
0.570554 -0.324924 -0.626 119 144 200
-0.117637 -0.326637 -0.627 107 106 111
-0.113327 -0.324553 -0.623 103 102 107
-0.104177 -0.321949 -0.618 95 96 101
-0.0997905 -0.32299 -0.62 80 81 85
-0.0967133 -0.324553 -0.623 67 68 73
-0.0915086 -0.327158 -0.628 67 68 73
0.0756905 -0.221405 -0.425 194 154 146
0.0898733 -0.222447 -0.427 160 116 103
0.0935629 -0.223489 -0.429 159 109 98
0.101267 -0.226093 -0.434 153 101 90
0.113749 -0.231303 -0.444 112 82 80
0.121767 -0.237033 -0.455 97 75 78
0.27009 -0.336535 -0.646 196 212 246
0.277472 -0.336535 -0.646 251 254 255
0.296388 -0.337056 -0.647 184 193 232
0.313641 -0.337056 -0.647 245 243 255
0.315617 -0.336535 -0.646 242 240 253
0.32177 -0.336535 -0.646 176 189 224
0.329662 -0.337056 -0.647 144 165 210
0.332127 -0.337056 -0.647 159 181 230
0.34057 -0.338098 -0.649 182 195 237
0.344279 -0.338098 -0.649 214 219 238
0.351 -0.338619 -0.65 207 215 236
0.39376 -0.287566 -0.552 123 86 80
0.39578 -0.280793 -0.539 150 100 89
0.41106 -0.274542 -0.527 161 112 98
0.412064 -0.274542 -0.527 163 114 100
0.418295 -0.274021 -0.526 160 111 97
0.420299 -0.274021 -0.526 162 110 96
0.423305 -0.274021 -0.526 162 110 96
0.439335 -0.274021 -0.526 159 106 88
0.440337 -0.274021 -0.526 158 105 87
0.449354 -0.274021 -0.526 146 97 82
0.466214 -0.27871 -0.535 130 86 73
0.490491 -0.287566 -0.552 134 92 78
-0.10858 -0.32574 -0.623 99 100 105
-0.102317 -0.324694 -0.621 92 91 97
0.0597876 -0.229534 -0.439 205 166 161
0.0742457 -0.222737 -0.426 195 155 147
0.0750571 -0.222737 -0.426 194 154 146
0.0773095 -0.222214 -0.425 193 150 141
0.08906 -0.22326 -0.427 167 121 108
0.282394 -0.337766 -0.646 254 255 255
0.284855 -0.337766 -0.646 248 248 250
0.326691 -0.337766 -0.646 156 178 227
0.330894 -0.338289 -0.647 141 163 210
0.343043 -0.339334 -0.649 212 222 247
0.355405 -0.339334 -0.649 138 156 206
0.359113 -0.339334 -0.649 51 89 162
0.39681 -0.339857 -0.65 83 120 191
0.401762 -0.339857 -0.65 73 102 162
0.405476 -0.339857 -0.65 167 188 219
0.436757 -0.337243 -0.645 95 107 145
0.398729 -0.295414 -0.565 118 82 82
0.398957 -0.279729 -0.535 155 103 92
0.403054 -0.277637 -0.531 159 110 96
0.435328 -0.275023 -0.526 156 103 87
0.441339 -0.275023 -0.526 157 104 88
0.468107 -0.280251 -0.536 128 84 73
0.475565 -0.282866 -0.541 127 85 73
-0.111488 -0.328501 -0.626 105 106 110
-0.0992457 -0.327451 -0.624 91 90 96
0.0599333 -0.227747 -0.434 202 163 156
0.0716429 -0.223024 -0.425 204 161 154
0.0813571 -0.223024 -0.425 180 138 126
0.125943 -0.24349 -0.464 120 108 122
0.273357 -0.338471 -0.645 193 209 242
0.283186 -0.338471 -0.645 253 253 255
0.302082 -0.338996 -0.646 142 158 207
0.305773 -0.338996 -0.646 187 202 243
0.316357 -0.338471 -0.645 241 240 255
0.329152 -0.338996 -0.646 122 148 197
0.373948 -0.34057 -0.649 171 186 217
0.401762 -0.341095 -0.65 71 102 167
0.410429 -0.341095 -0.65 139 143 178
0.414143 -0.341095 -0.65 86 103 157
0.417857 -0.341095 -0.65 83 99 148
0.419095 -0.341095 -0.65 64 89 143
0.420333 -0.341095 -0.65 50 75 129
0.430238 -0.341095 -0.65 24 55 122
0.396126 -0.28757 -0.548 129 88 84
0.397249 -0.283896 -0.541 145 98 92
0.399426 -0.281797 -0.537 153 101 90
0.4165 -0.2755 -0.525 161 109 96
0.422303 -0.276025 -0.526 162 110 96
0.427312 -0.276025 -0.526 160 108 94
0.464471 -0.279698 -0.533 133 89 78
-0.101786 -0.329167 -0.625 101 102 106
0.061019 -0.226467 -0.43 202 165 157
0.0692143 -0.223833 -0.425 203 163 155
0.0874333 -0.224887 -0.427 167 119 109
0.269671 -0.3397 -0.645 190 208 246
0.273357 -0.3397 -0.645 190 209 242
0.315129 -0.3397 -0.645 240 237 254
0.377656 -0.341807 -0.649 138 142 167
0.380129 -0.341807 -0.649 183 189 223
0.42281 -0.342333 -0.65 27 58 123
0.430238 -0.342333 -0.65 29 58 126
0.432049 -0.341807 -0.649 44 69 126
0.440443 -0.3397 -0.645 169 174 206
0.412284 -0.277027 -0.526 162 110 96
0.422303 -0.277027 -0.526 160 108 94
0.424307 -0.277027 -0.526 159 107 93
0.42631 -0.277027 -0.526 161 109 96
0.4485 -0.2765 -0.525 144 95 81
0.469128 -0.282293 -0.536 129 87 75
0.471903 -0.283347 -0.538 128 86 74
0.0579829 -0.231514 -0.438 199 166 161
0.0623657 -0.226229 -0.428 202 165 157
0.06532 -0.225171 -0.426 203 165 156
0.0884533 -0.226229 -0.428 159 111 101
0.111211 -0.234686 -0.444 112 86 85
0.257812 -0.339871 -0.643 187 200 244
0.275387 -0.3404 -0.644 251 250 255
0.282747 -0.3404 -0.644 253 251 252
0.301614 -0.340929 -0.645 145 164 220
0.302843 -0.340929 -0.645 166 185 241
0.30728 -0.3404 -0.644 234 242 255
0.37584 -0.342514 -0.648 85 94 133
0.383246 -0.342514 -0.648 101 108 134
0.414742 -0.343043 -0.649 94 115 168
0.427104 -0.343043 -0.649 26 55 121
0.436879 -0.341986 -0.647 127 133 167
0.438111 -0.341986 -0.647 151 152 180
0.438665 -0.341457 -0.646 156 157 185
0.403034 -0.297057 -0.562 120 85 83
0.399015 -0.286486 -0.542 145 96 82
0.41529 -0.278029 -0.526 155 103 89
0.4355 -0.2775 -0.525 156 102 90
0.447646 -0.276971 -0.524 145 97 83
0.473807 -0.2849 -0.539 128 86 74
0.0684048 -0.225452 -0.425 202 163 156
0.0700238 -0.225452 -0.425 199 160 153
0.283532 -0.341096 -0.643 242 239 246
0.306053 -0.341627 -0.644 214 225 255
0.312187 -0.341627 -0.644 220 225 247
0.329871 -0.342157 -0.645 106 137 201
0.341457 -0.342688 -0.646 158 172 209
0.372795 -0.343218 -0.647 84 113 181
0.383246 -0.343749 -0.648 135 140 162
0.387584 -0.343218 -0.647 64 89 156
0.391281 -0.343218 -0.647 28 76 150
0.397443 -0.343218 -0.647 51 87 163
0.40114 -0.343218 -0.647 98 138 208
0.403605 -0.343218 -0.647 150 163 205
0.425868 -0.344279 -0.649 32 61 129
0.40108 -0.287518 -0.542 145 95 94
0.417083 -0.279561 -0.527 157 105 91
0.4636 -0.282213 -0.532 132 89 80
0.465487 -0.282744 -0.533 132 90 78
0.0585619 -0.228924 -0.43 201 164 158
0.0756905 -0.226262 -0.425 188 148 138
0.0805476 -0.226262 -0.425 174 134 124
0.268835 -0.342321 -0.643 181 205 251
0.340929 -0.343386 -0.645 143 159 195
0.367297 -0.343918 -0.646 46 86 158
0.395598 -0.343918 -0.646 62 100 173
0.405442 -0.343918 -0.646 182 189 217
0.438665 -0.343918 -0.646 150 152 167
0.405523 -0.298666 -0.561 114 85 87
0.401762 -0.29281 -0.55 126 88 85
0.460848 -0.282162 -0.53 133 91 79
0.465487 -0.283759 -0.533 131 89 77
0.0585619 -0.229743 -0.43 202 165 159
0.074881 -0.227071 -0.425 187 147 137
0.0756905 -0.227071 -0.425 187 147 137
0.0773095 -0.227071 -0.425 179 139 129
0.101967 -0.233483 -0.437 139 94 88
0.112213 -0.23936 -0.448 102 82 83
0.114937 -0.241497 -0.452 99 78 83
0.265971 -0.343011 -0.642 153 178 234
0.271285 -0.343546 -0.643 176 192 243
0.305578 -0.343546 -0.643 144 157 201
0.308028 -0.343546 -0.643 153 162 195
0.311702 -0.343546 -0.643 179 179 203
0.319777 -0.343011 -0.642 138 162 208
0.33304 -0.34408 -0.644 96 124 189
0.347071 -0.344614 -0.645 172 180 216
0.359357 -0.344614 -0.645 56 85 155
0.361814 -0.344614 -0.645 45 81 157
0.363043 -0.344614 -0.645 45 81 157
0.367297 -0.345149 -0.646 46 86 158
0.372795 -0.345683 -0.647 139 163 225
0.408129 -0.285843 -0.535 156 107 93
0.421301 -0.281034 -0.526 151 99 86
0.422303 -0.281034 -0.526 154 100 88
0.425309 -0.281034 -0.526 155 101 89
0.42631 -0.281034 -0.526 156 102 90
0.429316 -0.281034 -0.526 155 101 89
0.4355 -0.2805 -0.525 158 105 91
0.4375 -0.2805 -0.525 159 106 92
0.0636971 -0.228417 -0.426 199 160 153
0.0797381 -0.227881 -0.425 175 132 125
0.0884533 -0.22949 -0.428 156 108 104
0.0923571 -0.231098 -0.431 150 105 99
0.0960848 -0.23217 -0.433 145 102 93
0.101134 -0.234315 -0.437 140 97 90
0.115191 -0.242894 -0.453 96 75 80
0.290429 -0.344234 -0.642 145 162 206
0.321721 -0.343698 -0.641 125 158 212
0.349529 -0.345843 -0.645 165 179 218
0.37345 -0.346379 -0.646 176 185 218
0.3913 -0.345843 -0.645 49 94 161
0.396829 -0.346379 -0.646 62 104 176
0.40052 -0.346379 -0.646 84 129 196
0.423323 -0.346915 -0.647 40 69 135
0.435529 -0.345843 -0.645 165 173 209
0.411665 -0.304556 -0.568 115 86 88
0.447646 -0.280964 -0.524 150 98 84
0.054521 -0.235148 -0.437 197 162 156
0.0659762 -0.22869 -0.425 200 162 153
0.0684048 -0.22869 -0.425 199 161 152
0.0896857 -0.231381 -0.43 150 107 100
0.0905048 -0.231381 -0.43 150 107 100
0.0942171 -0.232457 -0.432 145 102 93
0.101134 -0.235148 -0.437 136 98 89
0.10542 -0.2373 -0.441 118 89 83
0.1157 -0.244833 -0.455 96 73 79
0.276977 -0.345457 -0.642 252 255 255
0.293639 -0.344919 -0.641 151 162 216
0.322942 -0.344919 -0.641 127 160 214
0.3741 -0.347071 -0.645 189 194 224
0.3827 -0.347071 -0.645 190 192 217
0.407271 -0.347071 -0.645 179 189 214
0.424555 -0.348148 -0.647 75 103 166
0.433743 -0.34761 -0.646 84 114 174
0.4343 -0.347071 -0.645 125 133 169
0.439214 -0.347071 -0.645 144 143 149
0.44344 -0.346533 -0.644 171 174 191
0.408669 -0.300257 -0.558 118 83 79
0.416869 -0.284114 -0.528 154 105 91
0.419886 -0.284114 -0.528 152 104 90
0.08236 -0.23004 -0.426 162 119 112
0.0923571 -0.23274 -0.431 146 103 96
0.108071 -0.2403 -0.445 105 81 77
0.114833 -0.2457 -0.455 98 78 80
0.305849 -0.34614 -0.641 228 242 255
0.341627 -0.34776 -0.644 211 219 242
0.345307 -0.34776 -0.644 206 213 242
0.363707 -0.34776 -0.644 44 80 156
0.36616 -0.34776 -0.644 44 83 158
0.429386 -0.3483 -0.645 56 87 151
0.4343 -0.3483 -0.645 89 106 149
0.446426 -0.34722 -0.643 102 117 150
0.409127 -0.29106 -0.539 149 100 86
0.409654 -0.28998 -0.537 149 102 86
0.41418 -0.28674 -0.531 158 106 93
0.443653 -0.28296 -0.524 153 100 84
0.457235 -0.28458 -0.527 141 93 79
0.47219 -0.28944 -0.536 130 86 75
0.486348 -0.2943 -0.545 132 89 80
0.0765 -0.23031 -0.425 176 133 126
0.0973571 -0.235729 -0.435 138 95 89
0.117848 -0.249276 -0.46 97 74 80
0.253774 -0.346277 -0.639 185 194 225
0.254991 -0.346277 -0.639 174 189 232
0.258643 -0.346277 -0.639 163 184 231
0.283429 -0.346819 -0.64 239 247 255
0.329047 -0.347361 -0.641 106 146 208
0.34722 -0.348445 -0.643 203 212 241
0.348445 -0.348445 -0.643 204 211 237
0.38088 -0.348987 -0.644 166 165 181
0.39928 -0.348987 -0.644 107 146 201
0.40664 -0.348987 -0.644 177 180 199
0.412773 -0.348987 -0.644 76 98 148
0.414643 -0.349529 -0.645 55 77 127
0.4171 -0.349529 -0.645 61 92 146
0.419557 -0.349529 -0.645 92 127 185
0.422014 -0.349529 -0.645 71 100 158
0.426929 -0.349529 -0.645 102 128 185
0.429386 -0.349529 -0.645 73 102 162
0.433627 -0.348987 -0.644 80 101 148
0.43608 -0.348987 -0.644 155 160 180
0.416725 -0.308344 -0.569 114 83 81
0.410153 -0.292087 -0.539 149 99 88
0.413469 -0.289377 -0.534 150 98 87
0.417438 -0.28721 -0.53 158 106 93
0.424914 -0.286126 -0.528 149 97 84
0.42592 -0.286126 -0.528 151 99 85
0.429129 -0.285584 -0.527 152 100 86
0.439661 -0.283958 -0.524 151 98 84
0.443653 -0.283958 -0.524 152 99 85
0.44565 -0.283958 -0.524 153 100 86
0.468532 -0.288835 -0.533 131 87 76
0.0540219 -0.23547 -0.433 203 166 160
0.056659 -0.23275 -0.428 201 163 154
0.0667857 -0.231119 -0.425 196 155 149
0.0700238 -0.231119 -0.425 192 151 145
0.0732619 -0.231119 -0.425 187 147 135
0.0740714 -0.231119 -0.425 185 145 135
0.0878429 -0.233294 -0.429 149 111 102
0.108557 -0.243083 -0.447 106 82 82
0.113716 -0.24689 -0.454 99 78 83
0.262294 -0.347494 -0.639 147 172 228
0.269597 -0.347494 -0.639 168 186 234
0.274466 -0.347494 -0.639 246 251 255
0.318781 -0.348038 -0.64 148 170 207
0.323657 -0.348038 -0.64 127 159 216
0.341789 -0.349126 -0.642 212 217 246
0.365591 -0.34967 -0.643 70 100 164
0.374165 -0.34967 -0.643 195 198 217
0.37539 -0.34967 -0.643 195 198 217
0.392536 -0.34967 -0.643 98 132 193
0.431173 -0.350213 -0.644 63 85 142
0.412467 -0.29257 -0.538 151 94 85
0.423704 -0.287675 -0.529 153 101 88
0.430318 -0.286044 -0.526 156 104 90
0.441657 -0.284956 -0.524 154 101 87
0.442655 -0.284956 -0.524 154 101 87
0.456368 -0.286044 -0.526 147 99 85
0.463876 -0.288219 -0.53 134 88 75
0.0515429 -0.240114 -0.44 200 163 155
0.0870257 -0.234111 -0.429 150 111 104
0.103975 -0.241206 -0.442 114 86 82
0.259453 -0.348166 -0.638 164 187 231
0.29591 -0.348166 -0.638 142 160 208
0.297126 -0.348166 -0.638 140 158 206
0.306111 -0.348711 -0.639 234 242 255
0.313905 -0.349257 -0.64 235 238 253
0.341256 -0.349803 -0.641 211 218 247
0.368691 -0.350349 -0.642 70 100 162
0.387034 -0.350349 -0.642 103 135 182
0.388257 -0.350349 -0.642 117 146 204
0.390703 -0.350349 -0.642 127 161 222
0.42438 -0.350894 -0.643 161 178 221
0.432953 -0.350894 -0.643 63 75 117
0.437852 -0.350894 -0.643 173 174 195
0.414181 -0.302326 -0.554 114 83 80
0.412706 -0.295231 -0.541 142 93 78
0.429129 -0.287591 -0.527 150 101 86
0.449642 -0.285954 -0.524 153 100 84
0.456368 -0.287046 -0.526 142 94 80
0.466774 -0.289774 -0.531 132 86 73
0.0537724 -0.236024 -0.431 203 166 158
0.278897 -0.349381 -0.638 248 252 253
0.286953 -0.348833 -0.637 156 169 214
0.306111 -0.349929 -0.639 221 233 255
0.308546 -0.349929 -0.639 234 240 254
0.321934 -0.349929 -0.639 144 169 210
0.33341 -0.350476 -0.64 128 155 200
0.41516 -0.351571 -0.642 128 144 180
0.434726 -0.351571 -0.642 127 131 166
0.446258 -0.351024 -0.641 124 133 176
0.414617 -0.304476 -0.556 113 83 81
0.41444 -0.299 -0.546 133 89 80
0.420249 -0.290786 -0.531 147 99 85
0.422271 -0.290786 -0.531 145 97 85
0.427533 -0.290238 -0.53 148 99 85
0.441657 -0.286952 -0.524 154 102 88
0.0581533 -0.234647 -0.427 199 161 152
0.061119 -0.233548 -0.425 199 160 153
0.0643571 -0.233548 -0.425 197 157 149
0.0708333 -0.233548 -0.425 187 147 137
0.0758686 -0.234097 -0.426 171 131 123
0.07668 -0.234097 -0.426 169 129 121
0.0870257 -0.235746 -0.429 150 109 103
0.259047 -0.350047 -0.637 175 194 234
0.275251 -0.350596 -0.638 245 249 255
0.311709 -0.350596 -0.638 235 238 255
0.334106 -0.351146 -0.639 168 183 224
0.341943 -0.351695 -0.64 211 218 237
0.363886 -0.351695 -0.64 145 169 213
0.365675 -0.352245 -0.641 141 165 211
0.391926 -0.352794 -0.642 113 139 196
0.418829 -0.352794 -0.642 159 168 201
0.421274 -0.352794 -0.642 110 119 150
0.433503 -0.352794 -0.642 136 144 180
0.437171 -0.352794 -0.642 114 120 152
0.438394 -0.352794 -0.642 147 153 185
0.445037 -0.352245 -0.641 147 152 181
0.450438 -0.351695 -0.64 87 113 162
0.45368 -0.349497 -0.636 80 101 146
0.415986 -0.304986 -0.555 116 82 80
0.415958 -0.301139 -0.548 128 85 78
0.431136 -0.289599 -0.527 146 97 82
0.439661 -0.28795 -0.524 154 102 88
0.445795 -0.287401 -0.523 147 95 81
0.448644 -0.28795 -0.524 151 99 86
0.05734 -0.23546 -0.427 198 160 151
0.0580171 -0.234909 -0.426 199 161 152
0.0625905 -0.233806 -0.424 197 159 150
0.0809267 -0.23546 -0.427 159 114 109
0.0853914 -0.236563 -0.429 153 108 103
0.111122 -0.250349 -0.454 97 75 77
0.251371 -0.350709 -0.636 225 232 251
0.25864 -0.350709 -0.636 183 201 239
0.316073 -0.35126 -0.637 215 219 244
0.341409 -0.352363 -0.639 206 211 233
0.34506 -0.352363 -0.639 203 210 236
0.354133 -0.352914 -0.64 173 189 225
0.372419 -0.352914 -0.64 186 195 228
0.401676 -0.352914 -0.64 190 192 213
0.405967 -0.353466 -0.641 148 154 180
0.40963 -0.353466 -0.641 134 147 182
0.416955 -0.353466 -0.641 176 181 210
0.422497 -0.354017 -0.642 138 143 172
0.42306 -0.353466 -0.641 167 171 200
0.431607 -0.353466 -0.641 168 177 208
0.440153 -0.353466 -0.641 164 174 210
0.449219 -0.352914 -0.64 77 95 145
0.419338 -0.295014 -0.535 139 92 82
0.425093 -0.29336 -0.532 145 95 86
0.430757 -0.291706 -0.529 144 95 81
0.434148 -0.290603 -0.527 142 93 79
0.0595 -0.235167 -0.425 198 160 151
0.0633981 -0.234613 -0.424 195 155 147
0.0758686 -0.23572 -0.426 169 129 121
0.111611 -0.25232 -0.456 96 75 74
0.12428 -0.264493 -0.478 103 95 116
0.280446 -0.35192 -0.636 218 221 230
0.30394 -0.352473 -0.637 184 193 234
0.30758 -0.352473 -0.637 226 233 252
0.32214 -0.352473 -0.637 173 192 232
0.35358 -0.35358 -0.639 185 196 228
0.377295 -0.354133 -0.64 187 194 222
0.38339 -0.354133 -0.64 150 157 186
0.390094 -0.354687 -0.641 107 134 189
0.398641 -0.354687 -0.641 181 185 210
0.400457 -0.354133 -0.64 176 180 205
0.413867 -0.354133 -0.64 178 182 209
0.43581 -0.354133 -0.64 70 79 122
0.445562 -0.354133 -0.64 131 141 176
0.449734 -0.35358 -0.639 80 110 164
0.452169 -0.35358 -0.639 98 122 182
0.42769 -0.318167 -0.575 119 84 80
0.425803 -0.315953 -0.571 118 83 79
0.417833 -0.301567 -0.545 126 85 79
0.419663 -0.299907 -0.542 128 88 80
0.423414 -0.296033 -0.535 142 96 83
0.435151 -0.291607 -0.527 146 97 83
0.439661 -0.289947 -0.524 152 100 86
0.443803 -0.289393 -0.523 152 100 86
0.450776 -0.289393 -0.523 147 98 81
0.472593 -0.294927 -0.533 132 88 75
0.483047 -0.298247 -0.539 138 91 75
0.493342 -0.302673 -0.547 137 97 87
0.0674362 -0.235421 -0.424 189 149 139
0.0700238 -0.235976 -0.425 187 144 135
0.0793 -0.237087 -0.427 161 118 112
0.0801133 -0.237087 -0.427 158 115 109
0.0890733 -0.239308 -0.431 143 97 97
0.0982524 -0.24375 -0.439 122 91 88
0.10624 -0.248747 -0.448 102 80 82
0.107571 -0.249857 -0.45 98 77 74
0.250976 -0.352576 -0.635 231 238 254
0.254605 -0.352576 -0.635 183 197 232
0.264697 -0.353131 -0.636 196 212 245
0.284843 -0.352576 -0.635 193 207 234
0.29331 -0.352576 -0.635 200 210 237
0.316789 -0.353131 -0.636 197 206 235
0.32942 -0.353687 -0.637 145 168 209
0.373054 -0.354797 -0.639 92 105 147
0.410786 -0.354797 -0.639 181 185 210
0.449734 -0.354797 -0.639 78 107 163
0.450951 -0.354797 -0.639 92 121 177
0.423806 -0.313154 -0.564 119 80 73
0.421423 -0.309823 -0.558 117 78 71
0.41964 -0.298718 -0.538 131 88 79
0.425452 -0.297052 -0.535 137 90 80
0.431173 -0.295387 -0.532 140 92 80
0.433966 -0.293166 -0.528 146 97 83
0.438663 -0.290945 -0.524 151 99 85
0.444799 -0.29039 -0.523 153 101 87
0.48215 -0.298718 -0.538 138 91 73
0.0484714 -0.242357 -0.435 197 160 152
0.0572057 -0.237343 -0.426 198 160 149
0.0603095 -0.236786 -0.425 193 155 144
0.0700238 -0.236786 -0.425 182 139 130
0.0718114 -0.237343 -0.426 178 135 126
0.0760467 -0.2379 -0.427 169 126 119
0.0793 -0.2379 -0.427 160 116 113
0.0845743 -0.239014 -0.429 148 102 102
0.261862 -0.353786 -0.635 212 222 255
0.316789 -0.354343 -0.636 191 202 230
0.321634 -0.354343 -0.636 160 175 216
0.386443 -0.356014 -0.639 93 118 172
0.410143 -0.355457 -0.638 181 185 210
0.419306 -0.356014 -0.639 174 179 201
0.424206 -0.298629 -0.536 126 83 74
0.43359 -0.295286 -0.53 145 96 82
0.4395 -0.2925 -0.525 149 100 85
0.442655 -0.291943 -0.524 145 96 81
0.0513095 -0.24095 -0.431 198 160 149
0.0563943 -0.238154 -0.426 201 161 149
0.0617829 -0.237036 -0.424 193 153 143
0.0625905 -0.237036 -0.424 192 152 142
0.0650133 -0.237036 -0.424 192 152 142
0.0932143 -0.243186 -0.435 134 94 94
0.117974 -0.263311 -0.471 106 87 91
0.263071 -0.354995 -0.635 194 202 239
0.264281 -0.354995 -0.635 182 195 230
0.273957 -0.354995 -0.635 248 255 255
0.28681 -0.354436 -0.634 226 238 255
0.313871 -0.354995 -0.635 226 232 254
0.360967 -0.356113 -0.637 199 206 232
0.378547 -0.356672 -0.638 177 188 220
0.390699 -0.356672 -0.638 80 114 178
0.391914 -0.356672 -0.638 80 114 178
0.396775 -0.356672 -0.638 186 187 217
0.4095 -0.356113 -0.637 179 185 207
0.419865 -0.356672 -0.638 175 180 202
0.422295 -0.356672 -0.638 178 183 205
0.430802 -0.356672 -0.638 179 183 212
0.432017 -0.356672 -0.638 178 178 204
0.435663 -0.356672 -0.638 165 167 192
0.439309 -0.356672 -0.638 86 98 124
0.4466 -0.356672 -0.638 98 125 180
0.422991 -0.306917 -0.549 121 81 73
0.423974 -0.300209 -0.537 127 84 75
0.0496676 -0.24177 -0.431 198 160 149
0.0617829 -0.237844 -0.424 193 153 143
0.0726229 -0.238966 -0.426 175 130 124
0.101063 -0.249063 -0.444 111 85 86
0.277149 -0.355644 -0.634 180 186 202
0.284394 -0.355644 -0.634 234 240 254
0.31629 -0.356205 -0.635 198 209 237
0.321129 -0.356205 -0.635 146 163 206
0.332537 -0.356766 -0.636 195 205 232
0.36582 -0.357327 -0.637 200 212 228
0.391914 -0.357888 -0.638 71 104 173
0.39313 -0.357888 -0.638 114 147 216
0.396775 -0.357888 -0.638 189 190 220
0.403433 -0.357327 -0.637 152 158 194
0.441047 -0.357327 -0.637 87 100 134
0.454393 -0.357327 -0.637 24 61 131
0.424062 -0.305719 -0.545 115 74 68
0.425553 -0.302353 -0.539 120 80 72
0.42851 -0.30011 -0.535 133 87 72
0.432999 -0.298988 -0.533 134 90 77
0.441657 -0.293939 -0.524 148 99 84
0.442655 -0.293939 -0.524 150 101 86
0.442807 -0.293378 -0.523 149 97 83
0.443803 -0.293378 -0.523 151 99 85
0.456753 -0.293378 -0.523 145 98 80
0.469047 -0.296744 -0.529 134 88 72
0.0510714 -0.241466 -0.429 199 159 147
0.0518886 -0.241466 -0.429 198 158 148
0.0557133 -0.24034 -0.427 198 158 146
0.0642057 -0.238651 -0.424 189 146 137
0.0718114 -0.239777 -0.426 173 131 119
0.0726229 -0.239777 -0.426 174 129 123
0.0750571 -0.239777 -0.426 167 122 116
0.0758686 -0.239777 -0.426 163 118 112
0.0886619 -0.243717 -0.433 142 100 101
0.09052 -0.24428 -0.434 137 97 97
0.0955257 -0.246531 -0.438 126 92 91
0.0976381 -0.247657 -0.44 120 90 90
0.102368 -0.251034 -0.446 107 83 83
0.109245 -0.257226 -0.457 100 76 76
0.110838 -0.258914 -0.46 99 75 75
0.113814 -0.261729 -0.465 103 78 81
0.258626 -0.356289 -0.633 201 214 249
0.263865 -0.356851 -0.634 184 197 229
0.269119 -0.357414 -0.635 246 249 254
0.271538 -0.357414 -0.635 248 252 255
0.272318 -0.356851 -0.634 248 252 255
0.29118 -0.356289 -0.633 219 222 239
0.326661 -0.356851 -0.634 143 164 211
0.370091 -0.357977 -0.636 194 201 220
0.381593 -0.35854 -0.637 167 172 210
0.39494 -0.35854 -0.637 136 158 208
0.397367 -0.35854 -0.637 147 158 204
0.425273 -0.35854 -0.637 173 179 205
0.432553 -0.35854 -0.637 172 179 197
0.436193 -0.35854 -0.637 129 131 146
0.447623 -0.357977 -0.636 25 54 120
0.448834 -0.357977 -0.636 28 57 123
0.460457 -0.355726 -0.632 129 137 174
0.450067 -0.33884 -0.602 120 85 81
0.42588 -0.30732 -0.546 113 75 64
0.428863 -0.302817 -0.538 125 83 71
0.441657 -0.294937 -0.524 151 100 81
0.450909 -0.293811 -0.522 157 106 85
0.458746 -0.294374 -0.523 142 95 77
0.476654 -0.300003 -0.533 141 95 80
0.485225 -0.302817 -0.538 142 95 77
0.0502543 -0.242283 -0.429 201 159 147
0.0555829 -0.240589 -0.426 198 158 146
0.0595 -0.240024 -0.425 195 152 143
0.080301 -0.241718 -0.428 160 115 112
0.0821229 -0.242283 -0.429 156 111 108
0.103911 -0.253578 -0.449 99 81 79
0.114549 -0.264309 -0.468 103 81 84
0.243771 -0.35693 -0.632 212 216 245
0.296003 -0.357494 -0.633 234 242 253
0.315792 -0.358059 -0.634 212 221 254
0.352576 -0.358624 -0.635 206 210 235
0.401589 -0.359189 -0.636 175 187 213
0.422183 -0.359189 -0.636 163 168 200
0.425273 -0.359753 -0.637 152 158 184
0.430663 -0.359189 -0.636 177 180 195
0.452967 -0.358624 -0.635 21 54 125
0.457084 -0.358059 -0.634 38 67 133
0.43209 -0.31909 -0.565 114 80 71
0.42796 -0.30836 -0.546 115 77 66
0.432586 -0.302148 -0.535 133 89 80
0.432794 -0.301583 -0.534 136 90 77
0.473854 -0.299889 -0.531 140 94 79
0.476773 -0.300453 -0.532 142 96 81
0.0494371 -0.2431 -0.429 202 159 150
0.0760467 -0.241967 -0.427 162 117 114
0.0980819 -0.250467 -0.442 113 87 86
0.303237 -0.3587 -0.633 231 238 255
0.315294 -0.3587 -0.633 209 219 255
0.338737 -0.359267 -0.634 189 199 226
0.42031 -0.359833 -0.635 141 147 179
0.44571 -0.359833 -0.635 51 80 138
0.453461 -0.359267 -0.634 39 72 139
0.441352 -0.328667 -0.58 112 80 67
0.4347 -0.3213 -0.567 113 79 69
0.429746 -0.3077 -0.543 111 75 63
0.434829 -0.3026 -0.534 137 88 74
0.437253 -0.301467 -0.532 140 88 74
0.439826 -0.299767 -0.529 146 95 76
0.443653 -0.296933 -0.524 156 106 83
0.449914 -0.2958 -0.522 161 110 83
0.459742 -0.296367 -0.523 150 102 82
0.462617 -0.296933 -0.524 142 95 77
0.472962 -0.300333 -0.53 140 96 83
0.05396 -0.242211 -0.426 200 158 146
0.104606 -0.256994 -0.452 99 79 80
0.242184 -0.358769 -0.631 189 195 229
0.266644 -0.359337 -0.632 231 237 255
0.279443 -0.358769 -0.631 224 231 239
0.283049 -0.358769 -0.631 242 251 255
0.288312 -0.359337 -0.632 235 244 253
0.345983 -0.360474 -0.634 163 165 177
0.348398 -0.360474 -0.634 201 204 221
0.350813 -0.360474 -0.634 196 201 223
0.375557 -0.361043 -0.635 159 167 188
0.411194 -0.360474 -0.634 126 133 152
0.422729 -0.361043 -0.635 150 155 184
0.426893 -0.360474 -0.634 180 178 191
0.436554 -0.360474 -0.634 159 172 206
0.45998 -0.359906 -0.633 43 68 125
0.4626 -0.3582 -0.63 161 170 201
0.433987 -0.305891 -0.538 119 79 71
0.435846 -0.303617 -0.534 134 86 74
0.43624 -0.30248 -0.532 137 88 74
0.443803 -0.297363 -0.523 158 108 85
0.445795 -0.297363 -0.523 160 110 87
0.454014 -0.296226 -0.521 158 108 85
0.463615 -0.297931 -0.524 141 94 78
0.4797 -0.303049 -0.533 144 98 83
0.499593 -0.311009 -0.547 144 98 82
0.0419571 -0.253862 -0.445 196 153 144
0.0508333 -0.243593 -0.427 201 158 149
0.0547714 -0.243023 -0.426 199 155 144
0.0841476 -0.245875 -0.431 148 102 104
0.0878371 -0.247016 -0.433 141 100 98
0.09618 -0.25158 -0.441 117 89 86
0.110918 -0.264701 -0.464 101 79 81
0.273 -0.3594 -0.63 224 229 255
0.2826 -0.3594 -0.63 241 246 250
0.285 -0.3594 -0.63 239 248 255
0.317204 -0.360541 -0.632 132 150 200
0.319611 -0.360541 -0.632 96 118 176
0.34182 -0.361111 -0.633 206 208 229
0.358059 -0.361682 -0.634 167 171 198
0.361682 -0.361682 -0.634 154 160 184
0.36772 -0.361682 -0.634 196 196 222
0.373758 -0.361682 -0.634 143 151 170
0.383419 -0.361682 -0.634 48 82 156
0.411194 -0.361682 -0.634 158 161 176
0.452746 -0.361111 -0.633 48 82 145
0.435436 -0.305775 -0.536 122 82 72
0.454014 -0.297218 -0.521 159 109 86
0.461734 -0.298359 -0.523 142 95 77
0.473077 -0.301782 -0.529 142 99 83
0.476889 -0.302923 -0.531 143 97 82
0.490233 -0.307487 -0.539 145 98 78
0.0455629 -0.246696 -0.431 198 164 154
0.0554524 -0.243262 -0.425 196 152 141
0.0651667 -0.243262 -0.425 180 136 125
0.0726229 -0.243834 -0.426 168 120 116
0.0804886 -0.245551 -0.429 151 106 103
0.231 -0.3606 -0.63 251 253 252
0.2502 -0.3606 -0.63 218 231 250
0.2538 -0.3606 -0.63 176 190 225
0.261 -0.3606 -0.63 152 166 213
0.2766 -0.3606 -0.63 238 245 253
0.304683 -0.361172 -0.631 230 235 254
0.30949 -0.361172 -0.631 204 213 242
0.323223 -0.361745 -0.632 77 105 170
0.332174 -0.362317 -0.633 88 113 177
0.352671 -0.362317 -0.633 160 166 190
0.4009 -0.362317 -0.633 179 183 210
0.402106 -0.362317 -0.633 185 189 216
0.403311 -0.362317 -0.633 189 188 206
0.418986 -0.362317 -0.633 164 173 202
0.422603 -0.362317 -0.633 166 171 193
0.445511 -0.362317 -0.633 66 98 155
0.450334 -0.362317 -0.633 46 80 144
0.4626 -0.3606 -0.63 126 137 182
0.4638 -0.3606 -0.63 150 151 179
0.435028 -0.315382 -0.551 112 78 69
0.436863 -0.305651 -0.534 129 85 74
0.43706 -0.305079 -0.533 130 86 75
0.4435 -0.3005 -0.525 156 105 86
0.446931 -0.298783 -0.522 161 111 86
0.477 -0.303362 -0.53 144 98 83
0.07442 -0.24522 -0.427 168 121 115
0.0796714 -0.246369 -0.429 150 109 107
0.09768 -0.254983 -0.444 107 86 85
0.0989695 -0.256131 -0.446 104 83 82
0.249803 -0.361226 -0.629 208 222 249
0.2622 -0.3618 -0.63 166 182 233
0.2706 -0.3618 -0.63 219 229 255
0.368346 -0.363523 -0.633 195 200 220
0.390049 -0.363523 -0.633 95 130 198
0.425547 -0.362949 -0.632 177 180 199
0.447215 -0.362949 -0.632 65 97 158
0.45203 -0.362949 -0.632 62 93 158
0.4626 -0.3618 -0.63 76 84 130
0.450634 -0.334234 -0.582 110 79 74
0.439214 -0.321026 -0.559 110 79 74
0.434571 -0.310114 -0.54 116 79 71
0.436249 -0.308391 -0.537 124 84 76
0.489437 -0.308391 -0.537 143 99 72
0.0453514 -0.247186 -0.429 202 159 150
0.0523371 -0.245457 -0.426 197 153 142
0.0562619 -0.244881 -0.425 192 149 140
0.0595 -0.244881 -0.425 187 145 133
0.0642057 -0.244305 -0.424 184 140 131
0.0684048 -0.244881 -0.425 176 132 123
0.071 -0.245457 -0.426 167 122 116
0.0762248 -0.24661 -0.428 163 115 111
0.0851657 -0.248914 -0.432 141 101 101
0.0892762 -0.251219 -0.436 131 96 94
0.0903133 -0.251795 -0.437 131 96 94
0.259388 -0.362424 -0.629 137 156 215
0.261784 -0.362424 -0.629 149 166 220
0.266576 -0.362424 -0.629 150 165 206
0.282151 -0.362424 -0.629 218 216 230
0.310906 -0.362424 -0.629 127 142 181
0.337134 -0.363576 -0.631 210 216 238
0.35693 -0.364152 -0.632 169 174 203
0.362949 -0.364152 -0.632 194 200 216
0.386431 -0.364729 -0.633 74 107 161
0.400267 -0.364152 -0.632 161 171 207
0.408047 -0.363576 -0.631 163 165 177
0.424343 -0.364152 -0.632 180 183 200
0.431566 -0.364152 -0.632 165 167 182
0.434489 -0.363576 -0.631 59 70 116
0.450113 -0.363576 -0.631 63 94 158
0.454921 -0.363576 -0.631 131 150 182
0.466658 -0.362424 -0.629 145 148 165
0.43628 -0.3146 -0.546 111 76 70
0.446791 -0.301348 -0.523 161 109 85
0.0561295 -0.245112 -0.424 191 148 139
0.0595 -0.24569 -0.425 184 140 131
0.0780371 -0.248003 -0.429 154 109 106
0.09812 -0.25783 -0.446 109 84 87
0.0994133 -0.258987 -0.448 104 79 82
0.102023 -0.261299 -0.452 99 77 80
0.243425 -0.363044 -0.628 228 234 255
0.244621 -0.363044 -0.628 195 201 227
0.251798 -0.363044 -0.628 144 165 212
0.291736 -0.363622 -0.629 204 206 227
0.304915 -0.363622 -0.629 222 230 249
0.333 -0.3642 -0.63 101 126 183
0.3414 -0.3642 -0.63 204 210 236
0.356365 -0.364778 -0.631 190 190 216
0.36598 -0.364778 -0.631 202 203 224
0.387025 -0.365356 -0.632 92 123 178
0.423671 -0.364778 -0.631 183 187 196
0.4386 -0.3642 -0.63 173 173 209
0.451315 -0.364778 -0.631 94 118 166
0.437478 -0.309859 -0.536 132 86 73
0.441841 -0.305812 -0.529 145 92 74
0.444651 -0.302922 -0.524 153 101 79
0.463834 -0.301766 -0.522 144 96 74
0.482853 -0.307547 -0.532 142 95 75
0.493423 -0.311015 -0.538 154 108 92
0.043 -0.2494 -0.43 201 157 144
0.0492067 -0.24766 -0.427 200 156 145
0.0522143 -0.2465 -0.425 195 151 140
0.0577448 -0.24592 -0.424 183 141 129
0.0808638 -0.24998 -0.431 144 103 101
0.0915629 -0.25462 -0.439 121 90 88
0.102249 -0.26274 -0.453 99 77 80
0.304915 -0.36482 -0.629 225 232 250
0.358769 -0.36598 -0.631 201 203 224
0.35997 -0.36598 -0.631 200 205 225
0.390018 -0.36598 -0.631 154 173 216
0.399633 -0.36598 -0.631 65 82 125
0.4086 -0.3654 -0.63 180 187 197
0.435508 -0.36482 -0.629 171 172 202
0.4458 -0.3654 -0.63 100 124 172
0.459 -0.3654 -0.63 179 175 200
0.467112 -0.36424 -0.628 157 156 174
0.440023 -0.32016 -0.552 114 79 75
0.436629 -0.3132 -0.54 124 85 78
0.442011 -0.30624 -0.528 144 93 76
0.449914 -0.30276 -0.522 159 107 86
0.457105 -0.3016 -0.52 155 104 83
0.466715 -0.30334 -0.523 144 96 76
0.0522143 -0.24731 -0.425 194 150 139
0.0684048 -0.24731 -0.425 172 129 120
0.0800429 -0.250801 -0.431 146 105 103
0.0826971 -0.251383 -0.432 140 100 98
0.1027 -0.264767 -0.455 97 74 80
0.2299 -0.364854 -0.627 206 207 227
0.259757 -0.364854 -0.627 168 189 236
0.3294 -0.3666 -0.63 184 198 233
0.3534 -0.3666 -0.63 202 204 225
0.3666 -0.3666 -0.63 194 196 217
0.3702 -0.3666 -0.63 95 102 130
0.375 -0.3666 -0.63 191 200 229
0.4038 -0.3666 -0.63 189 187 201
0.4098 -0.3666 -0.63 183 189 201
0.4482 -0.3666 -0.63 114 142 190
0.446647 -0.327612 -0.563 112 79 72
0.436847 -0.313647 -0.539 126 86 78
0.455124 -0.30259 -0.52 151 99 78
0.457105 -0.30259 -0.52 153 102 81
0.458095 -0.30259 -0.52 152 101 80
0.476206 -0.307246 -0.528 145 97 77
0.482048 -0.30841 -0.53 146 99 79
0.0436152 -0.24987 -0.428 201 157 144
0.0635476 -0.248119 -0.425 179 137 125
0.0867848 -0.254541 -0.436 128 93 91
0.10604 -0.26972 -0.462 96 77 83
0.280806 -0.365465 -0.626 236 242 255
0.330075 -0.367216 -0.629 207 217 242
0.332471 -0.367216 -0.629 184 193 222
0.351641 -0.367216 -0.629 197 199 220
0.381 -0.3678 -0.63 139 157 197
0.399565 -0.367216 -0.629 53 67 106
0.40915 -0.367216 -0.629 185 188 203
0.461131 -0.366632 -0.628 174 172 196
0.469502 -0.349702 -0.599 109 82 87
0.438595 -0.318176 -0.545 125 88 82
0.437657 -0.315257 -0.54 129 89 79
0.461953 -0.304165 -0.521 151 101 78
0.469604 -0.305916 -0.524 147 96 75
0.4715 -0.3065 -0.525 147 96 75
0.496497 -0.31409 -0.538 158 111 93
0.56251 -0.34795 -0.596 209 206 215
0.0507143 -0.249514 -0.426 197 154 138
0.0545143 -0.248343 -0.424 193 149 136
0.0849286 -0.254786 -0.435 130 95 93
0.109667 -0.275286 -0.47 102 79 89
0.180027 -0.367829 -0.628 191 202 232
0.250996 -0.366657 -0.626 190 208 248
0.28796 -0.366657 -0.626 211 214 229
0.290345 -0.366657 -0.626 226 232 246
0.311808 -0.366657 -0.626 195 206 238
0.318277 -0.367243 -0.627 135 159 205
0.32357 -0.367829 -0.628 122 149 194
0.355867 -0.367829 -0.628 200 201 222
0.376801 -0.368414 -0.629 185 190 209
0.377999 -0.368414 -0.629 160 171 201
0.425246 -0.367829 -0.628 172 179 198
0.461591 -0.367243 -0.627 117 109 124
0.466369 -0.367243 -0.627 59 72 104
0.474405 -0.366071 -0.625 112 125 167
0.446791 -0.306329 -0.523 158 103 83
0.466817 -0.305743 -0.522 145 95 72
0.470602 -0.306914 -0.524 147 95 73
0.476308 -0.308671 -0.527 148 97 76
0.480229 -0.309257 -0.528 148 97 78
0.482146 -0.309843 -0.529 147 96 77
0.48792 -0.3116 -0.532 148 100 80
0.504214 -0.318043 -0.543 149 108 90
0.0435133 -0.250913 -0.427 201 155 142
0.0443267 -0.250913 -0.427 201 155 142
0.0651667 -0.249738 -0.425 176 133 124
0.0711667 -0.250913 -0.427 166 122 113
0.07198 -0.250913 -0.427 166 122 113
0.0774 -0.252676 -0.43 147 106 102
0.0820638 -0.254439 -0.433 135 97 96
0.08308 -0.255027 -0.434 134 96 95
0.2375 -0.367262 -0.625 245 248 255
0.2625 -0.367262 -0.625 216 224 247
0.270074 -0.36785 -0.626 175 184 215
0.273214 -0.367262 -0.625 237 246 255
0.295833 -0.367262 -0.625 234 240 255
0.32186 -0.368437 -0.627 145 172 217
0.367829 -0.369025 -0.628 103 112 145
0.375006 -0.369025 -0.628 194 199 218
0.377398 -0.369025 -0.628 158 172 201
0.385188 -0.369612 -0.629 132 156 200
0.3971 -0.368437 -0.627 186 186 210
0.407849 -0.368437 -0.627 180 182 203
0.413284 -0.369025 -0.628 94 99 128
0.42218 -0.368437 -0.627 154 162 185
0.434123 -0.368437 -0.627 180 179 195
0.451562 -0.369025 -0.628 74 102 150
0.475595 -0.367262 -0.625 53 68 111
0.474934 -0.354334 -0.603 107 83 81
0.438499 -0.314964 -0.536 146 97 83
0.44565 -0.307912 -0.524 159 104 84
0.469704 -0.307325 -0.523 146 94 72
0.477408 -0.309088 -0.526 149 98 79
0.0569371 -0.249958 -0.424 186 142 131
0.0577448 -0.249958 -0.424 183 139 126
0.05936 -0.249958 -0.424 179 135 124
0.0764029 -0.252906 -0.429 147 106 102
0.0841 -0.256443 -0.435 134 96 95
0.0892571 -0.25939 -0.44 124 92 93
0.096 -0.264107 -0.448 101 76 80
0.270833 -0.368452 -0.625 188 198 234
0.28631 -0.368452 -0.625 205 208 225
0.327309 -0.369042 -0.626 196 208 232
0.330886 -0.369042 -0.626 211 216 236
0.332078 -0.369042 -0.626 207 208 236
0.339232 -0.369042 -0.626 203 212 229
0.357689 -0.369631 -0.627 199 199 223
0.38874 -0.369631 -0.627 112 135 177
0.389934 -0.369631 -0.627 171 184 216
0.3971 -0.369631 -0.627 186 187 208
0.401877 -0.369631 -0.627 83 97 126
0.474405 -0.368452 -0.625 101 114 158
0.476872 -0.356072 -0.604 107 88 92
0.45306 -0.33426 -0.567 126 87 82
0.438294 -0.316574 -0.537 145 95 84
0.438499 -0.315985 -0.536 150 98 84
0.454133 -0.306552 -0.52 155 100 79
0.456226 -0.305963 -0.519 155 103 82
0.47841 -0.31009 -0.526 147 99 79
0.480323 -0.310679 -0.527 146 98 78
0.48224 -0.311269 -0.528 149 98 79
0.494748 -0.315395 -0.535 155 103 82
0.052899 -0.250766 -0.424 195 149 136
0.0651667 -0.251357 -0.425 173 131 119
0.0659762 -0.251357 -0.425 170 127 118
0.0669429 -0.251949 -0.426 169 126 117
0.06954 -0.25254 -0.427 166 126 116
0.0892571 -0.260229 -0.44 126 90 90
0.177069 -0.370234 -0.626 164 171 199
0.26208 -0.369051 -0.624 228 234 250
0.292983 -0.369051 -0.624 232 237 255
0.300114 -0.369051 -0.624 161 168 186
0.309623 -0.369051 -0.624 220 223 242
0.316071 -0.369643 -0.625 173 188 227
0.373214 -0.370826 -0.627 147 146 160
0.375603 -0.370826 -0.627 184 192 211
0.409583 -0.370234 -0.626 162 171 204
0.432238 -0.370234 -0.626 174 176 191
0.472024 -0.369643 -0.625 136 142 178
0.478814 -0.357814 -0.605 110 84 83
0.438897 -0.315823 -0.534 156 101 81
0.43928 -0.31464 -0.532 159 102 82
0.444651 -0.309909 -0.524 159 102 82
0.457214 -0.306951 -0.519 155 103 82
0.458203 -0.306951 -0.519 154 102 81
0.4698 -0.308726 -0.522 144 96 74
0.481327 -0.311683 -0.527 144 97 77
0.0357114 -0.255727 -0.431 198 155 139
0.04026 -0.253353 -0.427 198 155 139
0.0427 -0.253353 -0.427 202 156 140
0.0450343 -0.25276 -0.426 200 154 138
0.0617829 -0.251573 -0.424 180 133 123
0.0651667 -0.252167 -0.425 172 128 117
0.078401 -0.255727 -0.431 149 106 99
0.09176 -0.26344 -0.444 115 83 86
0.104957 -0.2759 -0.465 94 79 84
0.269211 -0.37024 -0.624 191 197 223
0.315566 -0.37024 -0.624 170 190 225
0.324405 -0.370833 -0.625 128 152 190
0.345194 -0.371427 -0.626 191 191 215
0.353541 -0.371427 -0.626 130 152 212
0.370826 -0.37202 -0.627 195 201 223
0.37202 -0.37202 -0.627 200 204 215
0.402976 -0.370833 -0.625 51 73 131
0.404167 -0.370833 -0.625 57 79 137
0.406548 -0.370833 -0.625 92 114 171
0.41316 -0.371427 -0.626 41 64 131
0.441777 -0.371427 -0.626 73 103 153
0.452509 -0.371427 -0.626 75 106 163
0.457738 -0.370833 -0.625 155 154 159
0.460119 -0.370833 -0.625 167 171 182
0.4784 -0.37024 -0.624 120 134 173
0.481193 -0.369647 -0.623 132 143 175
0.48238 -0.369647 -0.623 132 143 175
0.443906 -0.32574 -0.549 139 96 87
0.44171 -0.323367 -0.545 147 98 83
0.44031 -0.321587 -0.542 145 96 81
0.44 -0.31328 -0.528 157 104 86
0.44017 -0.312687 -0.527 159 106 88
0.441339 -0.312093 -0.526 160 108 87
0.443653 -0.310907 -0.524 158 106 85
0.44892 -0.30972 -0.522 156 104 82
0.480413 -0.312093 -0.526 147 100 80
0.04828 -0.253571 -0.426 195 152 135
0.0814267 -0.258333 -0.434 140 99 93
0.0919667 -0.264881 -0.445 112 81 86
0.259287 -0.370833 -0.623 199 207 243
0.29726 -0.370833 -0.623 207 213 229
0.30082 -0.370833 -0.623 221 223 248
0.319131 -0.371429 -0.624 166 189 223
0.33696 -0.371429 -0.624 199 201 224
0.340526 -0.371429 -0.624 109 125 158
0.342903 -0.371429 -0.624 172 177 206
0.36131 -0.372024 -0.625 63 81 127
0.3625 -0.372024 -0.625 111 129 175
0.373811 -0.372619 -0.626 195 198 217
0.389881 -0.372024 -0.625 180 195 228
0.422024 -0.372024 -0.625 73 87 132
0.440585 -0.372619 -0.626 80 108 156
0.44297 -0.372619 -0.626 84 115 162
0.445354 -0.372619 -0.626 95 121 170
0.453701 -0.372619 -0.626 117 136 168
0.46131 -0.372024 -0.625 165 171 183
0.442655 -0.311905 -0.524 160 105 85
0.445795 -0.31131 -0.523 161 106 86
0.481415 -0.313095 -0.526 150 102 82
0.489114 -0.315476 -0.53 151 104 86
0.0497857 -0.253786 -0.425 195 152 135
0.0633981 -0.253189 -0.424 178 130 120
0.0643571 -0.253786 -0.425 175 128 118
0.0703533 -0.25498 -0.427 161 117 106
0.0824429 -0.259757 -0.435 135 95 93
0.302007 -0.37202 -0.623 227 229 254
