ply
format ascii 1.0
comment Created by Open3D
element vertex 1312
property double x
property double y
property double z
property uchar red
property uchar green
property uchar blue
end_header
0.281229 -0.175343 -0.51 96 67 71
0.288661 -0.173968 -0.506 108 82 83
0.289625 -0.173968 -0.506 108 82 83
0.348531 -0.172592 -0.502 105 79 80
0.363443 -0.177062 -0.515 64 61 72
0.42722 -0.179125 -0.521 120 80 78
0.444023 -0.181531 -0.528 137 96 92
-0.305014 -0.223677 -0.647 198 199 194
-0.296846 -0.224023 -0.648 179 180 175
-0.158837 -0.220911 -0.639 183 183 175
-0.156157 -0.222294 -0.643 185 185 177
0.133452 -0.164214 -0.475 202 153 146
0.132943 -0.162486 -0.47 201 152 145
0.177393 -0.155917 -0.451 167 117 110
0.18083 -0.155917 -0.451 158 107 103
0.22712 -0.16456 -0.476 90 61 55
0.228506 -0.164906 -0.477 90 61 55
0.231289 -0.165597 -0.479 91 61 59
0.232686 -0.165943 -0.48 91 61 59
0.273644 -0.177697 -0.514 67 47 48
0.275602 -0.177697 -0.514 75 51 51
0.284964 -0.175623 -0.508 102 76 77
0.2873 -0.175277 -0.507 106 80 81
0.30096 -0.17424 -0.504 115 87 86
0.31124 -0.173549 -0.502 117 88 92
0.319835 -0.172511 -0.499 121 91 91
0.340063 -0.172166 -0.498 118 93 99
0.352538 -0.174586 -0.505 59 46 55
0.408567 -0.178043 -0.515 162 113 99
0.417047 -0.178734 -0.517 136 93 84
0.43467 -0.181154 -0.524 136 95 89
-0.305773 -0.224562 -0.646 158 159 153
-0.293595 -0.225605 -0.649 156 157 152
-0.16345 -0.221781 -0.638 184 184 176
0.13289 -0.164424 -0.473 200 153 143
0.133609 -0.160948 -0.463 202 153 149
0.13391 -0.160252 -0.461 203 154 150
0.144617 -0.158514 -0.456 201 153 143
0.148091 -0.158514 -0.456 202 152 143
0.14896 -0.158514 -0.456 201 151 142
0.153303 -0.158514 -0.456 196 146 135
0.163511 -0.157471 -0.453 191 143 129
0.17138 -0.156776 -0.451 176 128 116
0.172239 -0.156776 -0.451 173 125 115
0.174816 -0.156776 -0.451 168 118 111
0.18422 -0.157471 -0.453 158 107 103
0.190233 -0.158167 -0.455 144 93 90
0.21393 -0.162338 -0.467 103 68 64
0.231771 -0.166857 -0.48 90 60 58
0.2465 -0.171376 -0.493 84 54 52
0.280257 -0.177286 -0.51 94 68 71
0.300363 -0.174852 -0.503 115 87 86
0.312529 -0.174157 -0.501 119 90 92
0.32204 -0.173114 -0.498 118 88 90
0.404245 -0.179719 -0.517 182 134 122
0.407586 -0.179024 -0.515 165 115 106
0.420813 -0.180067 -0.518 134 86 84
0.445871 -0.18389 -0.529 132 91 89
-0.298852 -0.226142 -0.647 139 140 134
-0.173952 -0.22719 -0.65 180 179 174
-0.16345 -0.222996 -0.638 184 184 176
0.132414 -0.162529 -0.465 202 153 146
0.14896 -0.159383 -0.456 201 153 143
0.155567 -0.159033 -0.455 191 143 131
0.166594 -0.157985 -0.452 184 136 122
0.17138 -0.157635 -0.451 174 126 114
0.172239 -0.157635 -0.451 173 125 113
0.176534 -0.157635 -0.451 168 115 109
0.213041 -0.163228 -0.467 99 64 60
0.21799 -0.164276 -0.47 100 66 64
0.222085 -0.165325 -0.473 94 63 60
0.232254 -0.168121 -0.481 90 60 58
0.271233 -0.180005 -0.515 56 36 38
0.275157 -0.180005 -0.515 76 50 51
0.277455 -0.178956 -0.512 90 62 61
0.279833 -0.178607 -0.511 96 67 71
0.290014 -0.17651 -0.505 112 83 85
0.291938 -0.17651 -0.505 111 82 84
0.324886 -0.174063 -0.498 120 91 95
0.333423 -0.174063 -0.498 127 100 105
0.338166 -0.174063 -0.498 172 146 155
0.40404 -0.181053 -0.518 181 131 120
0.404245 -0.180704 -0.517 181 131 120
0.410529 -0.180005 -0.515 152 103 86
0.434837 -0.182801 -0.523 141 100 96
0.436667 -0.18315 -0.524 138 97 93
0.44958 -0.185597 -0.531 129 88 84
-0.304071 -0.226671 -0.645 146 148 143
-0.159334 -0.225266 -0.641 185 185 175
-0.153669 -0.227726 -0.648 185 185 173
-0.15267 -0.228077 -0.649 186 186 174
-0.0475933 -0.228077 -0.649 70 69 77
0.13171 -0.165874 -0.472 199 155 142
0.179111 -0.158494 -0.451 164 111 105
0.18123 -0.158846 -0.452 157 107 100
0.18422 -0.159197 -0.453 153 102 98
0.19194 -0.160603 -0.457 135 86 82
0.197581 -0.161657 -0.46 116 71 68
0.217095 -0.165171 -0.47 101 67 65
0.218454 -0.165523 -0.471 100 66 64
0.219817 -0.165874 -0.472 98 64 62
0.226689 -0.167631 -0.477 90 60 58
0.26679 -0.180634 -0.514 50 29 28
0.26829 -0.180986 -0.515 53 33 35
0.274256 -0.181689 -0.517 68 46 49
0.276138 -0.180986 -0.515 81 56 59
0.277455 -0.179931 -0.512 90 62 61
0.282061 -0.178526 -0.508 101 72 74
0.283029 -0.178526 -0.508 105 76 80
0.304547 -0.176417 -0.502 117 88 90
0.306459 -0.176417 -0.502 118 88 88
0.315714 -0.175714 -0.5 119 89 89
0.322989 -0.175011 -0.498 119 90 94
0.32868 -0.175011 -0.498 119 90 95
0.329629 -0.175011 -0.498 120 93 98
0.331526 -0.175011 -0.498 144 117 124
0.413291 -0.181337 -0.516 150 102 90
0.437665 -0.184149 -0.524 137 96 92
0.44958 -0.186609 -0.531 128 87 83
-0.312671 -0.2279 -0.645 155 158 151
-0.16588 -0.225427 -0.638 184 183 178
-0.159334 -0.226487 -0.641 184 186 173
-0.0463571 -0.229313 -0.649 71 70 78
0.153303 -0.16112 -0.456 190 144 131
0.156433 -0.160767 -0.455 189 143 128
0.165733 -0.159707 -0.452 182 136 121
0.175675 -0.159353 -0.451 168 118 109
0.18422 -0.16006 -0.453 150 99 96
0.203279 -0.163593 -0.463 121 77 74
0.212606 -0.16536 -0.468 100 65 63
0.217557 -0.16642 -0.471 100 66 64
0.227164 -0.168893 -0.478 91 61 59
0.230422 -0.169953 -0.481 90 60 58
0.253869 -0.177373 -0.502 87 59 58
0.25584 -0.17808 -0.504 86 58 57
0.282471 -0.17914 -0.507 104 78 81
0.286733 -0.178787 -0.506 107 81 82
0.291938 -0.178433 -0.505 112 83 85
0.298447 -0.177727 -0.503 115 86 88
0.308711 -0.17702 -0.501 117 87 87
0.316033 -0.176313 -0.499 118 88 88
0.321091 -0.17596 -0.498 119 90 94
0.331526 -0.17596 -0.498 202 177 183
0.406605 -0.181967 -0.515 164 114 105
0.422614 -0.18338 -0.519 136 91 88
0.4264 -0.183733 -0.52 123 86 80
0.441339 -0.185853 -0.526 134 93 91
-0.306053 -0.228773 -0.644 148 150 145
-0.162489 -0.226997 -0.639 183 185 174
-0.160305 -0.227352 -0.64 183 185 172
0.13391 -0.162699 -0.458 204 160 147
0.147223 -0.161989 -0.456 201 153 139
0.16229 -0.160568 -0.452 191 141 130
0.182494 -0.160923 -0.453 152 103 98
0.188914 -0.161989 -0.456 140 91 87
0.213953 -0.166607 -0.469 98 64 63
0.215305 -0.166962 -0.47 98 64 63
0.23322 -0.17158 -0.483 91 61 61
0.23511 -0.17229 -0.485 90 60 60
0.243189 -0.174777 -0.492 89 60 62
0.286334 -0.180106 -0.507 105 81 81
0.299766 -0.17833 -0.502 116 87 89
0.316984 -0.177264 -0.499 118 89 91
0.324886 -0.176909 -0.498 119 90 94
0.338166 -0.176909 -0.498 120 95 101
0.404245 -0.183658 -0.517 182 133 119
0.410529 -0.182948 -0.515 156 105 84
0.435833 -0.18579 -0.523 138 97 95
0.445029 -0.187566 -0.528 132 91 89
0.467662 -0.193605 -0.545 135 94 92
-0.310477 -0.229643 -0.643 153 155 150
-0.153906 -0.231786 -0.649 185 187 174
-0.0523762 -0.231071 -0.647 68 68 78
0.135063 -0.162857 -0.456 194 147 137
0.1391 -0.1625 -0.455 202 155 145
0.146033 -0.1625 -0.455 198 152 139
0.167944 -0.161071 -0.451 174 126 114
0.177393 -0.161071 -0.451 167 117 108
0.182494 -0.161786 -0.453 151 102 97
0.193232 -0.163571 -0.458 132 83 78
0.203279 -0.165357 -0.463 115 74 68
0.204602 -0.165714 -0.464 114 73 67
0.215763 -0.168214 -0.471 100 65 59
0.259857 -0.182143 -0.51 76 65 79
0.276443 -0.186786 -0.523 47 31 32
0.290014 -0.180357 -0.505 112 82 82
0.290976 -0.180357 -0.505 113 83 83
0.314762 -0.178571 -0.5 117 87 89
0.315714 -0.178571 -0.5 118 88 90
0.353807 -0.1825 -0.511 60 62 74
0.403955 -0.186786 -0.523 181 133 121
0.42739 -0.185714 -0.52 110 71 64
0.445029 -0.188571 -0.528 130 89 85
0.456024 -0.191071 -0.535 136 95 93
-0.317331 -0.230509 -0.642 241 244 237
-0.172347 -0.231227 -0.644 182 184 171
0.130362 -0.166598 -0.464 201 157 144
0.1443 -0.163367 -0.455 198 152 137
0.150036 -0.163008 -0.454 191 145 129
0.157819 -0.163008 -0.454 200 152 138
0.188914 -0.163726 -0.456 136 88 84
0.191488 -0.164444 -0.458 134 85 81
0.213514 -0.168752 -0.47 102 68 59
0.222587 -0.170907 -0.476 96 65 60
0.231859 -0.173779 -0.484 87 58 54
0.236079 -0.174856 -0.487 89 59 61
0.248051 -0.178806 -0.498 85 55 53
0.278195 -0.185628 -0.517 79 53 62
0.29424 -0.18096 -0.504 114 84 86
0.301678 -0.180242 -0.502 116 86 86
0.414092 -0.185628 -0.517 143 99 88
0.417047 -0.185628 -0.517 140 98 86
0.42739 -0.186705 -0.52 109 71 62
0.434006 -0.187423 -0.522 137 93 90
0.450591 -0.190654 -0.531 131 90 88
-0.168838 -0.23101 -0.64 185 185 173
-0.167357 -0.230649 -0.639 186 186 176
-0.0484533 -0.232453 -0.644 71 71 81
0.145167 -0.164233 -0.455 197 151 136
0.151766 -0.163872 -0.454 187 142 123
0.153495 -0.163872 -0.454 187 142 123
0.156954 -0.163872 -0.454 195 148 132
0.183762 -0.163872 -0.454 142 95 89
0.186767 -0.164233 -0.455 138 90 88
0.193654 -0.165677 -0.459 131 83 79
0.196254 -0.166399 -0.461 127 82 77
0.206371 -0.168204 -0.466 104 69 63
0.212167 -0.169287 -0.469 102 67 61
0.259393 -0.184447 -0.511 85 72 89
0.290014 -0.182281 -0.505 113 83 83
0.29424 -0.18192 -0.504 113 85 84
0.300123 -0.180837 -0.501 117 87 89
0.304894 -0.180837 -0.501 116 86 86
0.318246 -0.179754 -0.498 118 88 88
0.404245 -0.186612 -0.517 181 132 118
0.407199 -0.186612 -0.517 172 123 109
0.415077 -0.186612 -0.517 141 97 86
0.442341 -0.189861 -0.526 131 90 86
0.458751 -0.193831 -0.537 139 99 97
0.461487 -0.194553 -0.539 141 101 99
-0.323729 -0.234043 -0.645 252 255 248
-0.0545867 -0.23368 -0.644 69 67 78
0.145167 -0.1651 -0.455 198 152 137
0.1469 -0.1651 -0.455 196 150 135
0.165 -0.163286 -0.45 176 126 115
0.168429 -0.163286 -0.45 170 120 111
0.179509 -0.164011 -0.452 155 107 97
0.182494 -0.164374 -0.453 142 95 89
0.188046 -0.165463 -0.456 136 88 86
0.205484 -0.169091 -0.466 106 71 65
0.21038 -0.17018 -0.469 102 69 62
0.22031 -0.172357 -0.475 97 66 61
0.235151 -0.176711 -0.487 90 61 63
0.24566 -0.18034 -0.497 88 63 56
0.280348 -0.189049 -0.521 78 58 67
0.280165 -0.187597 -0.517 78 57 62
0.301077 -0.181791 -0.501 117 87 89
0.318246 -0.180703 -0.498 117 87 89
0.320447 -0.18034 -0.497 121 93 92
0.402959 -0.189774 -0.523 183 135 125
0.42558 -0.188323 -0.519 115 75 67
0.4405 -0.1905 -0.525 133 92 88
-0.172079 -0.234542 -0.643 183 185 171
-0.168838 -0.233448 -0.64 186 186 174
-0.16345 -0.232718 -0.638 185 185 173
-0.156137 -0.236366 -0.648 187 188 174
-0.0462143 -0.236001 -0.647 72 72 84
0.129238 -0.16779 -0.46 199 156 140
0.131589 -0.166331 -0.456 199 152 144
0.149171 -0.165602 -0.454 192 147 128
0.176926 -0.164872 -0.452 159 111 101
0.177787 -0.164872 -0.452 159 111 101
0.178648 -0.164872 -0.452 155 106 99
0.187588 -0.166696 -0.457 136 88 86
0.190615 -0.167061 -0.458 130 82 82
0.20195 -0.16925 -0.464 110 73 67
0.209487 -0.171073 -0.469 103 70 63
0.212174 -0.171803 -0.471 103 68 62
0.222146 -0.173991 -0.477 95 64 61
0.281249 -0.189311 -0.519 81 62 68
0.29232 -0.18384 -0.504 112 84 83
0.29328 -0.18384 -0.504 112 84 83
0.295941 -0.18311 -0.502 114 85 87
0.307143 -0.182381 -0.5 118 88 90
0.316349 -0.181651 -0.498 118 88 90
0.323287 -0.181287 -0.497 118 88 90
0.331807 -0.181287 -0.497 194 177 185
0.3337 -0.181287 -0.497 121 93 105
0.402629 -0.189676 -0.52 181 133 123
0.41884 -0.188947 -0.518 138 93 87
0.426569 -0.189311 -0.519 137 94 87
0.455171 -0.194783 -0.534 128 90 87
-0.310248 -0.234667 -0.64 145 147 142
-0.16345 -0.233933 -0.638 185 185 173
-0.045121 -0.237967 -0.649 72 72 82
0.128467 -0.172333 -0.47 206 159 143
0.128536 -0.171233 -0.467 209 162 146
0.149171 -0.166467 -0.454 194 149 130
0.150901 -0.166467 -0.454 191 146 127
0.152294 -0.1661 -0.453 191 146 127
0.164011 -0.165733 -0.452 185 136 121
0.168803 -0.165367 -0.451 169 120 106
0.191031 -0.1683 -0.459 129 81 81
0.199299 -0.170133 -0.464 115 74 70
0.221237 -0.1749 -0.477 96 66 58
0.284964 -0.186267 -0.508 104 80 80
0.317297 -0.1826 -0.498 118 87 92
0.323287 -0.182233 -0.497 116 87 89
0.328967 -0.182233 -0.497 195 180 185
0.402189 -0.1914 -0.522 184 135 128
0.40523 -0.189567 -0.517 175 125 116
0.417047 -0.189567 -0.517 136 91 85
0.454319 -0.195433 -0.533 128 89 84
-0.327703 -0.238834 -0.648 251 254 247
-0.312197 -0.235517 -0.639 141 141 139
-0.168838 -0.235886 -0.64 186 187 173
-0.0593086 -0.236623 -0.642 56 55 71
-0.0542476 -0.235886 -0.64 68 68 80
-0.0506695 -0.236254 -0.641 68 71 80
0.1313 -0.1677 -0.455 196 153 137
0.141389 -0.167331 -0.454 195 150 131
0.152294 -0.166963 -0.453 192 147 128
0.161429 -0.166594 -0.452 190 141 126
0.167085 -0.166226 -0.451 169 119 108
0.169662 -0.166226 -0.451 164 112 101
0.175204 -0.166594 -0.452 160 111 104
0.1833 -0.1677 -0.455 143 94 90
0.197106 -0.170649 -0.463 118 77 73
0.2015 -0.171386 -0.465 110 71 66
0.248131 -0.185023 -0.502 86 62 62
0.284282 -0.188709 -0.512 103 78 84
0.289625 -0.186497 -0.506 109 83 86
0.305238 -0.184286 -0.5 116 85 90
0.332753 -0.18318 -0.497 127 97 109
0.403794 -0.194606 -0.528 175 122 118
0.459774 -0.197923 -0.537 137 96 94
-0.309763 -0.236734 -0.639 136 137 132
-0.0496029 -0.238216 -0.643 70 70 82
0.1313 -0.168567 -0.455 197 155 139
0.133606 -0.168196 -0.454 196 153 136
0.159707 -0.167455 -0.452 193 146 130
0.160568 -0.167455 -0.452 194 145 130
0.16229 -0.167455 -0.452 185 136 121
0.199299 -0.171901 -0.464 108 70 67
0.200614 -0.172271 -0.465 107 69 66
0.213976 -0.175235 -0.473 100 67 62
0.234733 -0.181533 -0.49 93 63 61
0.2873 -0.187831 -0.507 108 81 86
0.301429 -0.185238 -0.5 116 87 89
0.303333 -0.185238 -0.5 116 86 88
0.317297 -0.184497 -0.498 117 87 89
0.323287 -0.184127 -0.497 110 85 88
0.346891 -0.188202 -0.508 64 52 54
0.411675 -0.200428 -0.541 163 118 125
0.401194 -0.193389 -0.522 182 132 123
0.413108 -0.191536 -0.517 145 97 85
0.431352 -0.192648 -0.52 136 95 89
-0.160806 -0.239069 -0.642 187 187 177
-0.159347 -0.240558 -0.646 188 188 178
-0.0643 -0.239441 -0.643 69 67 80
-0.0563314 -0.236834 -0.636 67 67 79
0.148843 -0.168689 -0.453 195 149 133
0.189283 -0.170923 -0.459 130 85 82
0.190571 -0.171295 -0.46 129 84 81
0.206807 -0.174647 -0.469 97 66 61
0.22678 -0.17986 -0.483 92 63 59
0.231916 -0.181722 -0.488 92 64 60
0.285673 -0.190287 -0.511 104 79 85
0.303333 -0.18619 -0.5 116 86 88
0.317607 -0.185073 -0.497 117 87 89
0.32518 -0.185073 -0.497 184 159 163
0.407394 -0.192149 -0.516 162 112 101
0.42476 -0.192893 -0.518 123 78 73
-0.280367 -0.242163 -0.647 255 254 253
-0.161056 -0.240666 -0.643 187 187 177
0.140524 -0.169926 -0.454 197 151 135
0.143118 -0.169926 -0.454 197 151 135
0.164508 -0.168803 -0.451 172 119 103
0.172239 -0.168803 -0.451 162 112 101
0.176065 -0.169177 -0.452 151 101 94
0.195342 -0.173294 -0.463 118 77 75
0.196648 -0.173669 -0.464 117 76 74
0.204583 -0.175166 -0.468 101 67 65
0.206807 -0.17554 -0.469 97 66 63
0.213075 -0.177037 -0.473 98 67 65
0.23617 -0.184523 -0.493 90 62 61
0.252065 -0.190137 -0.508 75 64 78
0.259485 -0.193506 -0.517 129 142 187
0.286073 -0.193506 -0.517 86 65 70
0.287208 -0.191634 -0.512 106 76 84
0.444345 -0.196874 -0.526 127 86 80
0.468014 -0.203237 -0.543 138 99 94
-0.316073 -0.239633 -0.637 198 203 196
-0.0681857 -0.242643 -0.645 67 67 79
-0.045121 -0.244148 -0.649 71 71 79
0.126931 -0.172295 -0.458 198 156 140
0.130147 -0.17079 -0.454 197 154 138
0.1362 -0.17079 -0.454 197 152 133
0.138794 -0.17079 -0.454 197 152 133
0.148843 -0.170414 -0.453 191 148 131
0.151097 -0.170038 -0.452 193 150 133
0.163649 -0.169662 -0.451 176 123 107
0.168316 -0.170038 -0.452 166 112 100
0.170899 -0.170038 -0.452 157 107 98
0.198843 -0.174929 -0.465 110 72 71
0.205913 -0.176433 -0.469 99 68 66
0.217603 -0.179443 -0.477 98 68 68
0.21897 -0.179819 -0.478 98 68 68
0.234277 -0.18471 -0.491 91 63 62
0.256021 -0.193362 -0.514 138 145 191
0.29174 -0.189224 -0.503 109 83 86
0.304628 -0.187719 -0.499 117 86 91
0.306529 -0.187719 -0.499 118 87 92
0.31382 -0.186967 -0.497 117 86 91
0.315713 -0.186967 -0.497 118 87 92
0.317607 -0.186967 -0.497 118 87 92
0.320747 -0.18659 -0.496 116 87 89
0.334371 -0.187343 -0.498 118 87 85
0.402026 -0.198252 -0.527 169 123 123
0.410343 -0.194114 -0.516 155 105 94
0.414092 -0.19449 -0.517 153 104 97
0.430523 -0.195243 -0.519 132 92 84
-0.279566 -0.245006 -0.648 251 251 249
-0.169102 -0.242359 -0.641 188 186 174
-0.161056 -0.243115 -0.643 189 189 179
-0.0507486 -0.242737 -0.642 67 70 79
-0.0462143 -0.244628 -0.647 70 70 80
0.12546 -0.173546 -0.459 200 159 139
0.131011 -0.171655 -0.454 195 154 134
0.133606 -0.171655 -0.454 196 154 132
0.139659 -0.171655 -0.454 198 153 134
0.144848 -0.171655 -0.454 195 150 131
0.168316 -0.170899 -0.452 168 114 104
0.178573 -0.171655 -0.454 140 93 87
0.1807 -0.172033 -0.455 139 92 86
0.23998 -0.187913 -0.497 82 53 55
0.297619 -0.189048 -0.5 115 86 90
0.301429 -0.189048 -0.5 114 88 91
0.309709 -0.188291 -0.498 118 89 93
0.316968 -0.187535 -0.496 116 87 91
0.32736 -0.187535 -0.496 188 167 174
0.335993 -0.18867 -0.499 116 87 92
0.404066 -0.200769 -0.531 160 114 114
0.40129 -0.195475 -0.517 182 132 121
0.404446 -0.195097 -0.516 172 122 113
0.439818 -0.197744 -0.523 133 90 84
0.447197 -0.199256 -0.527 131 90 84
0.46182 -0.203037 -0.537 139 100 93
0.465429 -0.204171 -0.54 140 101 94
-0.30952 -0.24168 -0.636 122 124 121
-0.280367 -0.24586 -0.647 255 255 253
-0.0607924 -0.24016 -0.632 67 67 79
-0.0473733 -0.24548 -0.646 70 70 80
0.126377 -0.17328 -0.456 198 160 139
0.170899 -0.17176 -0.452 158 108 101
0.176454 -0.17214 -0.453 144 96 92
0.19488 -0.17632 -0.464 114 77 71
0.211273 -0.17974 -0.473 97 67 67
0.216694 -0.18126 -0.477 99 69 69
0.244793 -0.19114 -0.503 82 64 62
0.295351 -0.19038 -0.501 115 86 90
0.309709 -0.18924 -0.498 118 89 93
0.32736 -0.18848 -0.496 204 181 189
0.417853 -0.19684 -0.518 146 97 92
0.434324 -0.1976 -0.52 134 91 85
-0.308793 -0.243273 -0.637 117 121 120
-0.279566 -0.247474 -0.648 252 252 250
-0.277525 -0.247856 -0.649 252 252 250
-0.0713143 -0.244419 -0.64 61 59 70
-0.0507486 -0.245183 -0.642 66 69 78
0.127552 -0.173385 -0.454 196 158 137
0.136763 -0.173003 -0.453 195 154 134
0.138489 -0.173003 -0.453 194 153 133
0.147653 -0.172621 -0.452 193 147 131
0.149375 -0.172621 -0.452 192 146 130
0.182834 -0.174149 -0.456 134 89 86
0.184106 -0.17453 -0.457 136 91 88
0.217149 -0.18255 -0.478 99 67 68
0.2231 -0.18446 -0.483 94 65 67
0.229597 -0.186751 -0.489 93 64 66
0.246253 -0.193244 -0.506 81 67 67
0.296306 -0.191334 -0.501 115 86 88
0.310657 -0.190189 -0.498 118 87 92
0.311606 -0.190189 -0.498 119 88 93
0.324526 -0.189425 -0.496 123 100 108
0.411886 -0.207756 -0.544 153 114 117
0.400093 -0.197827 -0.518 185 135 124
0.40248 -0.197063 -0.516 175 125 114
0.407394 -0.197063 -0.516 160 110 101
0.408377 -0.197063 -0.516 151 101 92
0.41884 -0.197827 -0.518 143 94 89
0.428707 -0.197827 -0.518 131 88 81
0.445347 -0.200882 -0.526 121 80 74
0.46182 -0.205083 -0.537 136 95 89
-0.32568 -0.247173 -0.644 251 254 247
-0.0735219 -0.24487 -0.638 64 62 73
-0.0561543 -0.243335 -0.634 64 67 76
0.123026 -0.177704 -0.463 198 161 143
0.135037 -0.173866 -0.453 196 155 135
0.141077 -0.173866 -0.453 196 153 134
0.14421 -0.173482 -0.452 194 151 132
0.146792 -0.173482 -0.452 193 150 133
0.170038 -0.173482 -0.452 161 108 100
0.17176 -0.173482 -0.452 157 108 101
0.192696 -0.177704 -0.463 117 76 74
0.209471 -0.181542 -0.473 100 68 69
0.228198 -0.187299 -0.488 94 65 67
0.292129 -0.194591 -0.507 108 83 89
0.300476 -0.191905 -0.5 117 89 88
0.33086 -0.190753 -0.497 110 84 87
0.413291 -0.198046 -0.516 156 106 99
-0.284414 -0.248786 -0.645 176 176 176
-0.169366 -0.247629 -0.642 188 188 180
-0.0763095 -0.247243 -0.641 68 66 77
-0.0747371 -0.246086 -0.638 68 68 80
0.128134 -0.174729 -0.453 199 158 140
0.128997 -0.174729 -0.453 198 157 137
0.131295 -0.174343 -0.452 198 155 136
0.138489 -0.174729 -0.453 197 154 137
0.141077 -0.174729 -0.453 199 156 137
0.146792 -0.174343 -0.452 192 149 132
0.149904 -0.173957 -0.451 190 147 130
0.160714 -0.173571 -0.45 173 126 108
0.183235 -0.176271 -0.457 132 88 85
0.198809 -0.180129 -0.467 99 69 67
0.239049 -0.193243 -0.501 90 64 65
0.312873 -0.1917 -0.497 116 87 91
0.316968 -0.191314 -0.496 118 89 93
0.320747 -0.191314 -0.496 208 186 189
0.322636 -0.191314 -0.496 195 175 184
0.329913 -0.1917 -0.497 115 89 92
0.33086 -0.1917 -0.497 111 85 88
0.332474 -0.192086 -0.498 110 84 87
0.408377 -0.199029 -0.516 157 107 96
0.417047 -0.199414 -0.517 135 86 79
0.447197 -0.203271 -0.527 120 80 72
0.453626 -0.204814 -0.531 120 79 73
-0.312433 -0.246913 -0.637 244 247 240
-0.172882 -0.250402 -0.646 190 190 182
0.139905 -0.175204 -0.452 199 156 137
0.152143 -0.174429 -0.45 196 151 132
0.166714 -0.174429 -0.45 171 117 107
0.1781 -0.176367 -0.455 138 91 85
0.193112 -0.179855 -0.464 113 73 71
0.212613 -0.184507 -0.476 99 68 66
0.233829 -0.192259 -0.496 90 64 63
0.297931 -0.203112 -0.524 93 85 98
0.296331 -0.200011 -0.516 94 77 87
0.300476 -0.19381 -0.5 120 90 92
0.304017 -0.193034 -0.498 115 86 90
0.323581 -0.192259 -0.496 209 189 198
0.334762 -0.19381 -0.5 100 75 79
0.337057 -0.194585 -0.502 69 44 48
0.40129 -0.200399 -0.517 179 129 120
0.405429 -0.200011 -0.516 167 115 102
0.410343 -0.200011 -0.516 147 98 84
0.412309 -0.200011 -0.516 145 93 79
0.416062 -0.200399 -0.517 145 97 87
-0.326691 -0.251632 -0.646 252 253 247
-0.321219 -0.249295 -0.64 250 253 246
0.12699 -0.176065 -0.452 201 160 140
0.136461 -0.176065 -0.452 200 159 139
0.145931 -0.176065 -0.452 191 146 127
0.152143 -0.175286 -0.45 196 151 132
0.160714 -0.175286 -0.45 177 126 109
0.163286 -0.175286 -0.45 167 118 103
0.190932 -0.18035 -0.463 116 74 75
0.2041 -0.183466 -0.471 100 69 67
0.214417 -0.186192 -0.478 97 69 68
0.215778 -0.186582 -0.479 98 68 68
0.322929 -0.192814 -0.495 196 175 174
0.324814 -0.192814 -0.495 150 129 128
0.3995 -0.2045 -0.525 179 132 124
0.398667 -0.202552 -0.52 185 136 131
0.399107 -0.201773 -0.518 189 136 128
0.448201 -0.205279 -0.527 119 74 69
0.463705 -0.209564 -0.538 133 89 86
-0.314139 -0.249731 -0.638 249 252 245
-0.312924 -0.249731 -0.638 248 251 244
-0.288431 -0.251689 -0.643 255 255 253
-0.281599 -0.253254 -0.647 203 203 201
-0.278761 -0.254037 -0.649 253 253 251
-0.0541629 -0.250123 -0.639 67 67 77
-0.0507486 -0.251297 -0.642 68 68 78
0.120214 -0.179666 -0.459 205 163 147
0.149045 -0.176534 -0.451 191 148 131
0.149904 -0.176534 -0.451 193 150 133
0.159857 -0.176143 -0.45 178 125 109
0.160714 -0.176143 -0.45 176 123 107
0.236186 -0.196106 -0.501 85 61 61
0.296957 -0.198454 -0.507 103 80 86
0.316023 -0.194149 -0.496 119 90 94
0.3979 -0.203151 -0.519 183 132 128
0.39812 -0.20276 -0.518 186 131 124
0.40129 -0.202369 -0.517 181 127 117
0.411326 -0.201977 -0.516 141 93 81
0.435314 -0.203543 -0.52 139 94 89
0.452771 -0.207457 -0.53 124 80 77
-0.304152 -0.251733 -0.64 236 238 233
-0.0860771 -0.252127 -0.641 77 77 87
-0.0770314 -0.24662 -0.627 70 70 78
-0.0684524 -0.245833 -0.625 67 67 77
-0.0541629 -0.25134 -0.639 68 68 76
-0.0518905 -0.252127 -0.641 68 68 76
0.133582 -0.177393 -0.451 202 160 138
0.145609 -0.177393 -0.451 194 149 130
0.146468 -0.177393 -0.451 191 148 131
0.181891 -0.180147 -0.458 129 85 82
0.18788 -0.18172 -0.462 117 79 78
0.192643 -0.1829 -0.465 107 72 70
0.237129 -0.197847 -0.503 82 61 60
0.29881 -0.197453 -0.502 112 86 89
0.300476 -0.196667 -0.5 116 87 91
0.315078 -0.195093 -0.496 119 93 96
0.316329 -0.1947 -0.495 116 87 91
0.318214 -0.1947 -0.495 221 198 204
0.407586 -0.202567 -0.515 151 101 90
0.417047 -0.203353 -0.517 128 81 75
0.427879 -0.203353 -0.517 134 89 84
-0.314631 -0.252557 -0.639 250 251 246
-0.301714 -0.252952 -0.64 254 255 251
-0.296838 -0.252952 -0.64 254 255 250
-0.281599 -0.255719 -0.647 181 181 179
-0.165181 -0.252952 -0.64 190 190 182
-0.154903 -0.256114 -0.648 198 196 184
-0.0820695 -0.248605 -0.629 74 74 84
-0.0640981 -0.248605 -0.629 65 68 75
-0.0597771 -0.250581 -0.634 69 69 77
-0.0586619 -0.250976 -0.635 69 69 77
-0.0542476 -0.252952 -0.64 69 69 77
0.121231 -0.179043 -0.453 201 162 145
0.126429 -0.177857 -0.45 200 159 141
0.129857 -0.177857 -0.45 201 158 139
0.134441 -0.178252 -0.451 202 159 140
0.144429 -0.177857 -0.45 196 150 134
0.147857 -0.177857 -0.45 194 151 132
0.161571 -0.177857 -0.45 171 117 105
0.168803 -0.178252 -0.451 151 102 95
0.17176 -0.178648 -0.452 146 99 91
0.197873 -0.185367 -0.469 101 70 67
0.19919 -0.185762 -0.47 101 70 67
0.202735 -0.186552 -0.472 100 69 67
0.2144 -0.189714 -0.48 97 69 68
0.22678 -0.194852 -0.493 94 64 64
0.230513 -0.196433 -0.497 91 60 58
0.240927 -0.201176 -0.509 90 79 85
0.331241 -0.197224 -0.499 115 90 94
0.332857 -0.197619 -0.5 89 72 80
0.40248 -0.203943 -0.516 153 100 94
0.416062 -0.204338 -0.517 136 89 81
0.417047 -0.204338 -0.517 133 86 78
0.424925 -0.204338 -0.517 135 88 82
-0.314631 -0.253774 -0.639 252 253 247
-0.15267 -0.257746 -0.649 199 197 185
-0.0753533 -0.24742 -0.623 66 69 74
-0.0642 -0.2502 -0.63 68 68 76
-0.0576333 -0.25298 -0.637 69 69 77
-0.0542476 -0.254171 -0.64 69 69 77
0.117357 -0.184671 -0.465 208 174 164
0.130714 -0.178714 -0.45 202 161 141
0.1353 -0.179111 -0.451 201 158 139
0.137018 -0.179111 -0.451 200 157 138
0.141857 -0.178714 -0.45 198 152 136
0.15266 -0.178317 -0.449 190 144 121
0.156081 -0.178317 -0.449 184 136 114
0.161571 -0.178714 -0.45 172 118 106
0.194777 -0.185863 -0.468 105 71 70
0.204066 -0.187849 -0.473 100 69 66
0.303677 -0.198174 -0.499 116 89 94
0.314443 -0.196586 -0.495 116 87 91
0.319157 -0.196586 -0.495 208 187 196
0.329629 -0.197777 -0.498 112 87 91
0.405624 -0.204529 -0.515 153 103 96
0.440814 -0.207706 -0.523 123 82 76
0.442655 -0.208103 -0.524 121 80 74
0.475455 -0.217634 -0.548 134 93 87
-0.324 -0.258583 -0.648 252 253 247
-0.296543 -0.256189 -0.642 253 254 249
-0.29532 -0.256189 -0.642 251 252 247
-0.29333 -0.256588 -0.643 252 253 248
-0.14919 -0.259381 -0.65 193 190 181
-0.0916067 -0.254193 -0.637 67 70 79
-0.0898257 -0.252597 -0.633 64 67 76
-0.0867238 -0.250602 -0.628 61 64 71
-0.0675848 -0.250602 -0.628 66 70 82
-0.0565086 -0.254592 -0.638 69 69 77
-0.0486038 -0.257785 -0.646 69 69 79
-0.0462143 -0.258184 -0.647 70 70 80
0.138736 -0.17997 -0.451 198 155 138
0.147529 -0.179172 -0.449 195 150 129
0.15266 -0.179172 -0.449 190 143 123
0.182686 -0.183562 -0.46 121 80 74
0.251979 -0.209899 -0.526 254 255 255
0.30192 -0.20112 -0.504 115 90 94
0.305578 -0.199125 -0.499 117 90 95
0.311299 -0.197928 -0.496 119 92 97
0.311614 -0.197529 -0.495 116 89 94
0.315386 -0.197529 -0.495 155 128 133
0.332569 -0.199923 -0.501 84 62 65
0.407586 -0.20551 -0.515 148 99 92
0.427879 -0.206308 -0.517 150 101 94
-0.314886 -0.257411 -0.642 252 253 248
-0.307549 -0.257411 -0.642 251 252 246
-0.303407 -0.25701 -0.641 253 254 249
-0.300211 -0.257411 -0.642 253 254 249
-0.291333 -0.258213 -0.644 253 254 249
-0.290557 -0.258614 -0.645 253 254 249
-0.289329 -0.258614 -0.645 253 254 249
-0.0908876 -0.253402 -0.632 72 72 82
-0.0497571 -0.258614 -0.645 70 68 79
-0.0462857 -0.259817 -0.648 71 70 76
0.127003 -0.180028 -0.449 201 158 139
0.128713 -0.180028 -0.449 200 157 138
0.137571 -0.180429 -0.45 195 152 135
0.144963 -0.180028 -0.449 198 152 136
0.157791 -0.180028 -0.449 176 127 110
0.18524 -0.18524 -0.462 113 74 67
0.198717 -0.188849 -0.471 106 73 68
0.223963 -0.19767 -0.493 92 67 70
0.23 -0.200476 -0.5 93 70 76
0.318214 -0.198471 -0.495 116 93 99
0.396743 -0.210099 -0.524 166 118 114
0.396456 -0.208896 -0.521 181 126 119
0.397676 -0.208495 -0.52 184 127 120
0.3979 -0.208094 -0.519 187 130 123
0.399321 -0.207292 -0.517 181 128 122
0.440814 -0.209698 -0.523 124 80 77
-0.310477 -0.259037 -0.643 252 253 248
-0.29823 -0.259037 -0.643 252 253 248
-0.157373 -0.257023 -0.638 196 196 188
-0.151258 -0.259037 -0.643 201 199 187
-0.146263 -0.261051 -0.648 196 194 181
-0.0981333 -0.257829 -0.64 75 76 78
-0.0797143 -0.249771 -0.62 70 70 80
-0.068781 -0.252994 -0.628 69 69 77
-0.0656076 -0.254606 -0.632 69 69 77
0.118643 -0.182494 -0.453 206 164 148
0.128713 -0.180883 -0.449 203 158 139
0.137571 -0.181286 -0.45 197 151 135
0.138429 -0.181286 -0.45 200 154 138
0.142397 -0.180883 -0.449 200 151 134
0.161212 -0.180883 -0.449 163 115 101
0.171277 -0.182494 -0.453 137 92 86
0.175886 -0.183703 -0.456 125 84 80
0.195193 -0.18894 -0.469 105 72 65
0.312557 -0.199414 -0.495 114 87 92
0.403463 -0.207874 -0.516 158 106 95
0.410343 -0.207874 -0.516 149 100 86
0.425086 -0.207874 -0.516 139 92 84
0.45635 -0.214723 -0.533 120 79 75
-0.312671 -0.261071 -0.645 252 253 248
-0.301904 -0.260262 -0.643 252 253 248
-0.297929 -0.261071 -0.645 252 253 248
-0.294699 -0.261476 -0.646 253 253 251
-0.154943 -0.258238 -0.638 197 196 191
-0.148809 -0.260262 -0.643 202 200 188
-0.10488 -0.260667 -0.644 109 110 114
-0.103331 -0.259857 -0.642 76 77 81
-0.0784067 -0.250548 -0.619 70 70 80
-0.0622905 -0.257024 -0.635 70 70 80
0.116917 -0.183357 -0.453 206 168 149
0.122727 -0.181738 -0.449 203 162 144
0.143252 -0.181738 -0.449 201 154 138
0.150613 -0.181333 -0.448 195 146 129
0.156936 -0.181738 -0.449 173 126 108
0.166226 -0.182548 -0.451 144 100 89
0.175886 -0.184571 -0.456 127 84 77
0.18436 -0.187 -0.462 115 77 68
0.214786 -0.19631 -0.485 93 61 66
0.229008 -0.20319 -0.502 90 63 72
0.32934 -0.201976 -0.499 88 65 73
0.395745 -0.212095 -0.524 162 111 107
0.399107 -0.209667 -0.518 175 122 114
0.402681 -0.208452 -0.515 157 107 98
0.428864 -0.209262 -0.517 141 92 87
0.452614 -0.214929 -0.531 121 80 74
-0.315847 -0.263927 -0.649 251 252 247
-0.309465 -0.262707 -0.646 253 253 251
-0.304071 -0.2623 -0.645 251 251 249
-0.296388 -0.263113 -0.647 253 254 249
-0.293595 -0.263927 -0.649 253 254 249
-0.13681 -0.264333 -0.65 226 224 209
-0.117 -0.264333 -0.65 245 244 239
-0.11153 -0.263113 -0.647 225 226 221
-0.103903 -0.259453 -0.638 73 73 81
-0.0921143 -0.25376 -0.624 74 74 82
-0.0795857 -0.251727 -0.619 71 71 81
-0.0657114 -0.25742 -0.633 70 69 77
0.129569 -0.182593 -0.449 201 159 137
0.131279 -0.182593 -0.449 204 161 142
0.141542 -0.182593 -0.449 200 155 136
0.14464 -0.182187 -0.448 200 153 135
0.14976 -0.182187 -0.448 196 147 130
0.157791 -0.182593 -0.449 169 122 104
0.160357 -0.182593 -0.449 167 121 106
0.166226 -0.183407 -0.451 143 99 86
0.173767 -0.185033 -0.455 130 87 80
0.203974 -0.19398 -0.477 100 68 69
0.207567 -0.194793 -0.479 99 69 69
0.215671 -0.198047 -0.487 90 61 65
0.307824 -0.206993 -0.509 118 96 98
0.324526 -0.201707 -0.496 113 84 89
0.343156 -0.209027 -0.514 59 56 65
0.412309 -0.20984 -0.516 141 93 83
0.420986 -0.210247 -0.517 142 93 86
0.42312 -0.20984 -0.516 138 91 83
0.438977 -0.21228 -0.522 122 81 75
0.445347 -0.213907 -0.526 116 77 72
0.47268 -0.22204 -0.546 126 87 80
-0.313857 -0.265571 -0.65 252 253 248
-0.311657 -0.264754 -0.648 253 254 249
-0.30672 -0.264754 -0.648 251 252 247
-0.127946 -0.265163 -0.649 226 224 209
-0.12671 -0.265163 -0.649 233 229 218
-0.120343 -0.264754 -0.648 243 240 233
-0.100041 -0.256991 -0.629 75 75 85
-0.08652 -0.252497 -0.618 73 72 80
-0.0611771 -0.259851 -0.636 72 71 79
-0.0509067 -0.26312 -0.644 70 70 80
0.116659 -0.184674 -0.452 203 166 147
0.120429 -0.183857 -0.45 205 164 144
0.127858 -0.183449 -0.449 204 161 142
0.148907 -0.18304 -0.448 193 146 126
0.15488 -0.18304 -0.448 179 132 114
0.197341 -0.192846 -0.472 104 73 70
0.2211 -0.202243 -0.495 91 68 76
0.312867 -0.201834 -0.494 119 90 94
0.396456 -0.212866 -0.521 178 125 121
0.406605 -0.210414 -0.515 149 99 92
0.413291 -0.210823 -0.516 136 87 82
0.418206 -0.210823 -0.516 131 84 76
0.433489 -0.212049 -0.519 126 85 79
0.437144 -0.212866 -0.521 127 86 80
0.47719 -0.224714 -0.55 121 86 84
-0.30519 -0.26681 -0.65 252 252 250
-0.124893 -0.265168 -0.646 247 244 239
-0.0937343 -0.254085 -0.619 75 74 80
-0.0700886 -0.25819 -0.629 71 70 76
-0.0646076 -0.260242 -0.634 70 70 78
-0.0544171 -0.263526 -0.642 73 72 80
-0.0521333 -0.264347 -0.644 74 73 81
-0.0509857 -0.264757 -0.645 74 72 83
0.113597 -0.187588 -0.457 206 168 155
0.113967 -0.186767 -0.455 207 170 152
0.115191 -0.185946 -0.453 208 171 152
0.117857 -0.184714 -0.45 208 167 149
0.141227 -0.183893 -0.448 198 153 134
0.142933 -0.183893 -0.448 199 154 135
0.200405 -0.194976 -0.475 100 70 70
0.21109 -0.199081 -0.485 94 63 68
0.311589 -0.210164 -0.512 103 84 90
0.324233 -0.204007 -0.497 110 85 91
0.396911 -0.213037 -0.519 174 121 117
0.399321 -0.212216 -0.517 163 113 106
0.410343 -0.211806 -0.516 145 95 84
0.421154 -0.211806 -0.516 135 88 82
0.425086 -0.211806 -0.516 138 91 85
0.433489 -0.213037 -0.519 126 83 77
0.4435 -0.2155 -0.525 121 80 76
0.45635 -0.218784 -0.533 118 80 77
0.478058 -0.226172 -0.551 118 85 80
-0.137357 -0.264336 -0.641 243 239 236
-0.106889 -0.258563 -0.627 65 65 73
-0.102482 -0.256501 -0.622 76 75 83
-0.0498343 -0.266398 -0.646 74 72 83
0.121016 -0.185159 -0.449 203 162 144
0.121871 -0.185159 -0.449 201 160 142
0.128427 -0.184747 -0.448 205 162 145
0.130987 -0.184747 -0.448 203 160 141
0.140911 -0.184334 -0.447 198 153 134
0.144317 -0.184334 -0.447 196 149 131
0.146871 -0.184334 -0.447 194 147 127
0.15198 -0.184334 -0.447 184 137 119
0.158293 -0.184747 -0.448 164 118 102
0.176657 -0.18887 -0.458 122 83 76
0.179181 -0.189695 -0.46 119 80 73
0.219214 -0.204129 -0.495 91 68 74
0.35422 -0.246191 -0.597 126 86 95
0.311614 -0.204129 -0.495 110 85 89
0.397351 -0.213201 -0.517 168 115 109
0.402681 -0.212376 -0.515 152 102 93
0.405624 -0.212376 -0.515 151 101 90
0.41624 -0.212789 -0.516 141 92 85
0.421154 -0.212789 -0.516 138 89 84
0.433489 -0.214026 -0.519 124 81 75
0.484325 -0.229696 -0.557 116 83 76
-0.156158 -0.264314 -0.638 112 113 115
-0.13849 -0.263071 -0.635 237 237 237
-0.136286 -0.263486 -0.636 241 239 240
-0.11286 -0.259757 -0.627 69 69 79
-0.103333 -0.256857 -0.62 65 66 70
-0.0832571 -0.256857 -0.62 74 73 81
-0.0801 -0.2581 -0.623 75 74 82
-0.0703114 -0.261414 -0.631 70 71 76
-0.0692191 -0.261829 -0.632 69 70 75
-0.05564 -0.265971 -0.642 71 70 78
0.115542 -0.186843 -0.451 206 169 151
0.119893 -0.1856 -0.448 203 162 144
0.123307 -0.1856 -0.448 203 162 144
0.127573 -0.1856 -0.448 204 161 144
0.134951 -0.185186 -0.447 202 159 140
0.143466 -0.185186 -0.447 196 149 131
0.148574 -0.185186 -0.447 191 144 126
0.153683 -0.185186 -0.447 177 132 113
0.161212 -0.186014 -0.449 151 107 94
0.169061 -0.188086 -0.454 129 89 79
0.172411 -0.188914 -0.456 128 88 80
0.178305 -0.190571 -0.46 121 82 75
0.179181 -0.190571 -0.46 121 82 75
0.209243 -0.200929 -0.485 97 64 71
0.396911 -0.215014 -0.519 174 121 113
0.41624 -0.213771 -0.516 145 96 89
0.425086 -0.213771 -0.516 143 94 89
-0.145337 -0.261368 -0.628 211 212 214
-0.1116 -0.258038 -0.62 70 69 75
-0.106359 -0.25679 -0.617 71 70 78
-0.0966429 -0.255957 -0.615 75 74 82
-0.08976 -0.256373 -0.616 75 74 82
-0.0770314 -0.260951 -0.627 74 74 82
-0.0736829 -0.261784 -0.629 73 73 81
-0.0613695 -0.26553 -0.638 71 71 79
-0.0510648 -0.268859 -0.646 127 127 137
0.114076 -0.188118 -0.452 203 164 147
0.123307 -0.186453 -0.448 204 163 145
0.1344 -0.186453 -0.448 202 159 140
0.134951 -0.186037 -0.447 203 160 141
0.14602 -0.186037 -0.447 197 150 130
0.156237 -0.186037 -0.447 162 117 98
0.169061 -0.18895 -0.454 130 90 80
0.175785 -0.190615 -0.458 123 84 77
0.210106 -0.202685 -0.487 95 64 70
0.342163 -0.238477 -0.573 134 92 96
0.337735 -0.233899 -0.562 111 75 79
0.322636 -0.20643 -0.496 102 75 80
0.400786 -0.225991 -0.543 142 103 108
0.393248 -0.218916 -0.526 168 115 109
0.398549 -0.214754 -0.516 164 111 105
0.403662 -0.214338 -0.515 157 107 100
0.422137 -0.214754 -0.516 146 99 93
0.42312 -0.214754 -0.516 144 97 91
0.457043 -0.222662 -0.535 116 81 77
0.46354 -0.224327 -0.539 124 91 86
-0.13772 -0.261728 -0.626 125 125 125
-0.128386 -0.262146 -0.627 75 74 79
-0.0602486 -0.267163 -0.639 70 70 78
0.11674 -0.187725 -0.449 203 155 143
0.159147 -0.187307 -0.448 150 108 92
0.163649 -0.188561 -0.451 136 92 79
0.1703 -0.190233 -0.455 130 90 80
0.210969 -0.204449 -0.489 91 66 72
0.345833 -0.242913 -0.581 154 113 121
0.339538 -0.236224 -0.565 126 83 90
0.313808 -0.206539 -0.494 114 84 92
0.3935 -0.2195 -0.525 168 113 106
0.393993 -0.218664 -0.523 166 116 109
0.399531 -0.215737 -0.516 164 109 102
0.401497 -0.215737 -0.516 160 107 99
0.404643 -0.215319 -0.515 160 110 101
0.411326 -0.215737 -0.516 144 96 86
0.415257 -0.215737 -0.516 151 102 97
0.41624 -0.215737 -0.516 150 101 96
0.42312 -0.215737 -0.516 142 95 89
0.454319 -0.222845 -0.533 112 77 73
-0.142262 -0.2625 -0.625 99 100 104
-0.134903 -0.26208 -0.624 90 90 92
-0.132313 -0.26166 -0.623 83 83 85
-0.12321 -0.25998 -0.619 70 69 75
-0.120657 -0.25956 -0.618 66 66 74
-0.112491 -0.25704 -0.612 65 66 71
-0.111326 -0.25704 -0.612 66 67 72
-0.0682305 -0.26628 -0.634 72 71 79
-0.0475933 -0.27258 -0.649 72 70 81
0.124734 -0.18774 -0.447 199 156 137
0.131546 -0.18774 -0.447 201 160 142
0.168196 -0.19068 -0.454 134 91 82
0.210037 -0.20538 -0.489 89 61 58
0.214067 -0.20748 -0.494 87 69 65
0.350067 -0.2478 -0.59 148 107 115
0.345833 -0.24402 -0.581 154 113 121
0.34276 -0.24108 -0.574 154 109 114
0.312557 -0.2079 -0.495 112 83 88
0.394471 -0.21882 -0.521 162 109 103
0.397133 -0.21756 -0.518 165 112 106
0.403463 -0.21672 -0.516 152 102 93
0.412309 -0.21672 -0.516 148 98 89
0.417223 -0.21672 -0.516 151 100 96
0.43068 -0.21756 -0.518 122 85 79
0.448894 -0.22218 -0.529 115 80 76
0.490614 -0.23646 -0.563 123 92 89
-0.0963286 -0.258628 -0.613 77 76 82
-0.0837943 -0.263269 -0.624 75 76 81
-0.076079 -0.265378 -0.629 72 72 80
-0.0739171 -0.266222 -0.631 72 72 80
-0.0694381 -0.267488 -0.634 70 70 78
0.110356 -0.193232 -0.458 203 161 145
0.112965 -0.190279 -0.451 201 159 143
0.11503 -0.189435 -0.449 201 160 142
0.120747 -0.189013 -0.448 200 159 141
0.12218 -0.188591 -0.447 201 158 139
0.124734 -0.188591 -0.447 202 159 140
0.127289 -0.188591 -0.447 202 161 143
0.138048 -0.18817 -0.446 203 160 141
0.164011 -0.190701 -0.452 136 92 83
0.164872 -0.190701 -0.452 136 92 83
0.19154 -0.198717 -0.471 101 71 69
0.315386 -0.208843 -0.495 113 84 86
0.426894 -0.218125 -0.517 126 86 78
0.439818 -0.220656 -0.523 124 87 81
0.454319 -0.224875 -0.533 116 81 77
0.490614 -0.237532 -0.563 123 92 89
-0.142262 -0.264881 -0.625 104 105 109
-0.13921 -0.26361 -0.622 105 105 105
-0.124149 -0.259371 -0.612 66 65 71
-0.116006 -0.256829 -0.606 62 62 70
-0.102491 -0.257676 -0.608 67 68 73
-0.0795467 -0.266152 -0.628 74 74 82
-0.0784752 -0.266576 -0.629 74 74 82
-0.0579952 -0.271662 -0.641 69 69 79
0.111493 -0.191562 -0.452 199 157 141
0.114429 -0.190714 -0.45 201 160 142
0.120477 -0.189443 -0.447 200 159 141
0.127289 -0.189443 -0.447 200 159 141
0.15079 -0.189019 -0.446 175 130 111
0.168567 -0.192833 -0.455 132 89 83
0.171919 -0.193681 -0.457 128 87 81
0.18035 -0.196224 -0.463 116 78 75
0.198443 -0.203005 -0.479 98 70 69
0.345833 -0.246233 -0.581 140 91 95
0.316329 -0.209786 -0.495 114 85 87
0.393405 -0.22589 -0.533 158 109 104
0.404446 -0.218686 -0.516 160 107 101
0.405429 -0.218686 -0.516 158 105 99
0.408567 -0.218262 -0.515 155 102 94
0.415257 -0.218686 -0.516 150 102 92
0.42312 -0.218686 -0.516 130 90 82
0.451603 -0.225043 -0.531 114 79 73
0.454319 -0.22589 -0.533 114 79 73
0.457043 -0.226738 -0.535 115 80 76
-0.139657 -0.265646 -0.624 103 103 105
-0.115049 -0.255854 -0.601 78 78 86
-0.104118 -0.257131 -0.604 65 65 73
-0.103138 -0.257557 -0.605 65 65 73
-0.0993429 -0.259686 -0.61 72 71 77
-0.0904886 -0.264369 -0.621 75 74 80
-0.0882648 -0.264794 -0.622 76 75 83
-0.08722 -0.26522 -0.623 76 75 83
-0.0568629 -0.273309 -0.642 68 68 78
0.121057 -0.189869 -0.446 202 161 143
0.125305 -0.189869 -0.446 201 160 140
0.130402 -0.189869 -0.446 200 157 138
0.139747 -0.189869 -0.446 202 159 140
0.158647 -0.191146 -0.449 141 98 82
0.208514 -0.209451 -0.492 84 63 68
0.392468 -0.225203 -0.529 159 110 105
0.412309 -0.219669 -0.516 147 99 85
0.424925 -0.220094 -0.517 121 84 75
0.448046 -0.224777 -0.528 115 78 72
-0.0906343 -0.265979 -0.622 76 75 81
-0.0774 -0.2694 -0.63 73 73 81
-0.0718533 -0.27111 -0.634 73 73 81
-0.0522952 -0.276242 -0.646 76 76 86
0.117333 -0.191573 -0.448 199 161 140
0.124455 -0.190718 -0.446 200 159 139
0.1338 -0.190718 -0.446 198 155 136
0.147392 -0.190718 -0.446 181 134 114
0.153339 -0.190718 -0.446 159 116 100
0.16193 -0.192856 -0.451 135 91 80
0.170674 -0.194994 -0.456 128 88 78
0.17442 -0.196277 -0.459 121 83 74
0.191452 -0.202264 -0.473 96 68 67
0.3408 -0.239467 -0.56 128 92 94
0.341543 -0.237756 -0.556 114 79 83
0.315713 -0.212527 -0.497 108 85 91
0.323637 -0.213382 -0.499 53 38 45
0.325889 -0.214237 -0.501 50 35 42
0.471386 -0.27667 -0.647 144 104 102
0.40129 -0.221079 -0.517 155 105 98
0.413291 -0.220651 -0.516 148 100 88
0.445347 -0.224928 -0.526 118 81 73
0.448046 -0.225783 -0.528 116 79 71
0.450752 -0.226638 -0.53 114 77 71
0.475277 -0.234763 -0.549 126 89 83
-0.105094 -0.259003 -0.603 60 60 68
-0.0986638 -0.263298 -0.613 67 66 72
-0.0684457 -0.273177 -0.636 73 73 81
-0.0661267 -0.273607 -0.637 72 72 80
-0.0650152 -0.274036 -0.638 72 72 80
0.1085 -0.199729 -0.465 198 156 140
0.129262 -0.191138 -0.445 199 158 138
0.130957 -0.191138 -0.445 198 157 137
0.150452 -0.191138 -0.445 167 121 105
0.342157 -0.239245 -0.557 125 89 93
0.316984 -0.214332 -0.499 115 94 99
0.32719 -0.21605 -0.503 52 37 44
0.393289 -0.230654 -0.537 153 104 100
0.393749 -0.22507 -0.524 157 108 103
0.395464 -0.223782 -0.521 160 111 106
0.417223 -0.221634 -0.516 140 93 83
0.437144 -0.223782 -0.521 123 85 76
-0.0841971 -0.270506 -0.627 76 76 84
-0.0718533 -0.273526 -0.634 73 74 79
-0.0696571 -0.274389 -0.636 73 74 79
0.108033 -0.199751 -0.463 198 157 139
0.109151 -0.195437 -0.453 198 157 139
0.111857 -0.194143 -0.45 199 158 140
0.11622 -0.192849 -0.447 202 161 141
0.121057 -0.192417 -0.446 201 163 142
0.130957 -0.191986 -0.445 198 157 137
0.135195 -0.191986 -0.445 201 160 140
0.156587 -0.19328 -0.448 145 101 88
0.203517 -0.210969 -0.489 82 62 64
0.341256 -0.241169 -0.559 136 96 105
0.341426 -0.236854 -0.549 102 72 74
0.319194 -0.214851 -0.498 110 89 94
0.325583 -0.216577 -0.502 53 40 49
0.391824 -0.230814 -0.535 151 102 98
0.39146 -0.228226 -0.529 154 105 100
0.419189 -0.222617 -0.516 128 90 79
0.426733 -0.22348 -0.518 126 86 76
0.437144 -0.224774 -0.521 124 86 75
-0.112767 -0.257833 -0.595 98 101 106
-0.109734 -0.2587 -0.597 103 103 111
-0.08764 -0.271267 -0.626 73 76 81
-0.0843314 -0.272133 -0.628 76 76 84
-0.0764419 -0.273867 -0.632 73 73 81
-0.0719667 -0.275167 -0.635 72 73 78
0.129262 -0.192833 -0.445 196 158 137
0.13689 -0.192833 -0.445 199 158 138
0.159 -0.195 -0.45 138 94 81
0.159857 -0.195 -0.45 139 96 87
0.190051 -0.2054 -0.474 91 66 69
0.200005 -0.210167 -0.485 96 71 74
0.397676 -0.225333 -0.52 161 110 106
0.40129 -0.224033 -0.517 150 101 94
0.408377 -0.2236 -0.516 153 104 97
0.4325 -0.2249 -0.519 126 88 75
0.450752 -0.229667 -0.53 121 83 74
-0.101667 -0.265495 -0.61 59 58 66
-0.0844657 -0.273765 -0.629 73 76 83
-0.0523762 -0.281599 -0.647 67 70 77
0.117659 -0.194116 -0.446 200 162 143
0.128414 -0.193681 -0.445 195 157 136
0.136043 -0.193681 -0.445 198 155 136
0.147062 -0.193681 -0.445 169 124 103
0.159 -0.195857 -0.45 143 96 90
0.16229 -0.196728 -0.452 140 98 86
0.164737 -0.197598 -0.454 137 94 85
0.172295 -0.199339 -0.458 125 81 78
0.1748 -0.20021 -0.46 121 80 76
0.190051 -0.206303 -0.474 91 66 69
0.193476 -0.208044 -0.478 92 67 70
0.32592 -0.21936 -0.504 51 35 46
0.390181 -0.230676 -0.53 151 103 99
0.398889 -0.225889 -0.519 156 106 99
0.408377 -0.224583 -0.516 155 105 98
0.42197 -0.225018 -0.517 132 96 82
0.448894 -0.230241 -0.529 123 85 74
0.456189 -0.232417 -0.534 121 83 72
0.474411 -0.23851 -0.548 123 88 84
-0.140235 -0.281083 -0.643 112 115 120
-0.121917 -0.262723 -0.601 125 126 131
-0.105094 -0.263597 -0.603 59 59 67
-0.0972714 -0.270591 -0.619 60 60 68
-0.0891162 -0.274526 -0.628 69 72 77
-0.0685533 -0.27846 -0.637 69 72 79
0.126434 -0.194091 -0.444 192 151 131
0.148757 -0.194529 -0.445 161 118 99
0.201654 -0.213763 -0.489 90 78 88
0.342017 -0.245674 -0.562 142 107 113
0.342266 -0.239117 -0.547 120 81 82
0.395229 -0.228189 -0.522 153 106 100
0.396223 -0.228189 -0.522 153 106 100
0.396456 -0.227751 -0.521 153 106 100
0.398667 -0.227314 -0.52 150 101 96
0.42394 -0.226003 -0.517 128 88 78
0.429693 -0.22644 -0.518 126 86 78
0.436151 -0.227751 -0.521 125 87 76
0.4435 -0.2295 -0.525 120 82 71
0.457043 -0.233871 -0.535 120 83 74
-0.117103 -0.260794 -0.594 120 121 126
-0.105094 -0.264746 -0.603 61 62 67
-0.0964029 -0.272649 -0.621 62 61 69
-0.0891162 -0.275722 -0.628 71 72 77
-0.059401 -0.282308 -0.643 71 72 77
-0.0513019 -0.284942 -0.649 70 70 78
0.11596 -0.195815 -0.446 202 161 139
0.139966 -0.194937 -0.444 189 146 127
0.140811 -0.194937 -0.444 190 147 128
0.142503 -0.194937 -0.444 182 139 120
0.148757 -0.195376 -0.445 156 113 94
0.155733 -0.196693 -0.448 146 99 91
0.159353 -0.19801 -0.451 141 94 88
0.163872 -0.199328 -0.454 139 95 84
0.17518 -0.202401 -0.461 119 79 77
0.191254 -0.209426 -0.477 95 70 73
0.21911 -0.226988 -0.517 194 202 215
0.342626 -0.247184 -0.563 145 108 116
0.339313 -0.236647 -0.539 105 75 75
0.420148 -0.270892 -0.617 83 74 93
0.390343 -0.237086 -0.54 146 102 99
0.390984 -0.231378 -0.527 149 104 99
0.40326 -0.226988 -0.517 150 101 96
-0.139875 -0.285296 -0.647 114 118 121
-0.134012 -0.278241 -0.631 120 121 126
-0.113326 -0.261044 -0.592 113 117 120
-0.106067 -0.265453 -0.602 63 64 69
-0.0947943 -0.276036 -0.626 62 63 68
-0.0663343 -0.281769 -0.639 71 72 77
-0.051381 -0.286619 -0.65 70 70 78
0.108429 -0.198429 -0.45 199 160 143
0.113067 -0.197547 -0.448 200 162 141
0.131509 -0.195783 -0.444 200 159 139
0.15488 -0.197547 -0.448 149 101 91
0.157286 -0.198429 -0.45 144 95 88
0.160568 -0.19931 -0.452 143 96 88
0.18526 -0.207689 -0.471 101 75 76
0.342933 -0.246933 -0.56 142 100 112
0.428661 -0.276036 -0.626 78 69 88
0.433287 -0.278241 -0.631 74 65 84
0.439833 -0.280887 -0.637 80 71 90
0.391162 -0.239878 -0.544 142 98 99
0.390984 -0.232382 -0.527 148 100 98
0.3925 -0.2315 -0.525 151 102 98
0.399877 -0.228854 -0.519 149 100 96
0.408567 -0.22709 -0.515 151 102 97
0.419189 -0.227531 -0.516 138 93 87
0.420171 -0.227531 -0.516 137 92 86
0.482586 -0.244729 -0.555 120 87 78
-0.140308 -0.287414 -0.649 117 121 124
-0.137357 -0.283871 -0.641 119 123 126
-0.125653 -0.269257 -0.608 120 121 126
-0.116906 -0.262614 -0.593 118 119 124
-0.112198 -0.262171 -0.592 106 109 114
-0.111258 -0.262614 -0.593 102 105 110
-0.102 -0.271029 -0.612 61 62 67
-0.10032 -0.2728 -0.616 60 59 67
-0.0836648 -0.279886 -0.632 69 72 79
-0.082461 -0.279886 -0.632 70 73 80
-0.0743857 -0.281214 -0.635 73 76 81
-0.0572171 -0.286086 -0.646 71 72 77
0.10781 -0.199729 -0.451 201 163 144
0.111963 -0.197957 -0.447 201 163 142
0.1157 -0.197071 -0.445 202 164 143
0.119669 -0.196629 -0.444 201 165 141
0.129817 -0.196629 -0.444 200 159 139
0.132354 -0.196629 -0.444 200 159 139
0.135737 -0.196629 -0.444 197 156 136
0.138274 -0.196629 -0.444 193 152 130
0.141657 -0.196629 -0.444 181 140 118
0.158143 -0.199286 -0.45 143 94 89
0.161429 -0.200171 -0.452 143 96 88
0.176822 -0.205043 -0.463 109 78 76
0.184363 -0.208586 -0.471 98 72 73
0.185653 -0.209029 -0.472 95 69 70
0.19631 -0.214786 -0.485 83 61 73
0.198453 -0.216114 -0.488 99 94 124
0.335218 -0.231614 -0.523 104 89 92
0.4326 -0.279 -0.63 74 67 85
0.435866 -0.280329 -0.633 74 67 85
0.441739 -0.282543 -0.638 85 78 96
0.445037 -0.283871 -0.641 92 85 103
0.454805 -0.283871 -0.641 116 86 96
0.387748 -0.236929 -0.535 147 99 95
0.389171 -0.234714 -0.53 148 98 99
0.392246 -0.232943 -0.526 146 96 95
0.3935 -0.2325 -0.525 150 101 97
0.398889 -0.229843 -0.519 147 98 93
0.40326 -0.228957 -0.517 153 104 100
0.406605 -0.228071 -0.515 153 104 100
0.431511 -0.229843 -0.519 125 87 78
0.450752 -0.234714 -0.53 117 83 73
-0.135074 -0.282869 -0.636 117 121 124
-0.0968686 -0.277531 -0.624 59 59 67
-0.0848686 -0.28109 -0.632 67 70 77
-0.0664381 -0.284648 -0.64 69 72 77
0.124743 -0.197474 -0.444 199 161 140
0.143349 -0.197474 -0.444 170 129 107
0.14504 -0.197474 -0.444 174 129 110
0.193259 -0.214375 -0.482 95 71 71
0.342891 -0.24373 -0.548 127 85 87
0.341797 -0.23439 -0.527 51 41 52
0.406411 -0.229497 -0.516 150 101 96
0.406605 -0.229052 -0.515 150 101 96
0.41249 -0.229052 -0.515 147 98 91
0.439818 -0.23261 -0.523 120 83 74
0.448894 -0.235279 -0.529 116 82 72
0.453467 -0.236613 -0.532 116 82 72
1.13896 -0.286427 -0.644 202 208 194
-0.11107 -0.264427 -0.592 100 104 107
-0.0989276 -0.277827 -0.622 58 58 66
-0.0949457 -0.28006 -0.627 59 59 67
0.107571 -0.201 -0.45 200 164 142
0.119399 -0.197873 -0.443 201 165 141
0.12728 -0.19832 -0.444 198 160 139
0.131509 -0.19832 -0.444 196 158 135
0.137429 -0.19832 -0.444 193 152 130
0.154027 -0.200107 -0.448 153 104 97
0.157286 -0.201 -0.45 147 96 92
0.159707 -0.201893 -0.452 142 91 87
0.161786 -0.20234 -0.453 141 92 87
0.173424 -0.205913 -0.461 110 78 79
0.398667 -0.232267 -0.52 141 92 85
0.407586 -0.230033 -0.515 147 98 91
0.418206 -0.23048 -0.516 147 98 91
0.421154 -0.23048 -0.516 141 97 88
0.42591 -0.230927 -0.517 135 92 85
0.441657 -0.234053 -0.524 116 79 70
0.463371 -0.2412 -0.54 118 84 74
-0.114067 -0.264657 -0.59 109 112 117
-0.10955 -0.267349 -0.596 66 67 72
0.130663 -0.199166 -0.444 197 159 138
0.136583 -0.199166 -0.444 192 154 133
