ply
format ascii 1.0
comment Created by Open3D
element vertex 1300
property double x
property double y
property double z
property uchar red
property uchar green
property uchar blue
end_header
-0.0735714 -0.239549 -0.618 67 66 74
-0.0555533 -0.248464 -0.641 72 71 79
-0.0545019 -0.249239 -0.643 72 71 79
0.0789905 -0.221718 -0.572 209 173 161
0.110286 -0.232571 -0.6 132 96 98
0.113697 -0.234897 -0.606 120 89 94
0.121048 -0.240324 -0.62 111 91 93
0.30672 -0.19536 -0.504 95 79 82
0.30843 -0.193422 -0.499 119 97 100
0.310033 -0.192647 -0.497 122 97 101
0.310671 -0.191871 -0.495 123 97 100
0.416062 -0.200399 -0.517 187 130 123
0.419016 -0.200399 -0.517 173 120 106
0.461717 -0.205826 -0.531 126 83 74
-0.324405 -0.243452 -0.625 142 144 139
-0.289329 -0.251243 -0.645 252 253 248
-0.181223 -0.244621 -0.628 190 186 175
-0.177634 -0.244621 -0.628 189 189 177
-0.171956 -0.248516 -0.638 191 192 178
-0.103063 -0.252411 -0.648 173 172 168
-0.0976733 -0.248127 -0.637 70 68 71
-0.0777733 -0.239168 -0.614 66 64 75
-0.0662829 -0.244231 -0.627 65 65 73
-0.0588467 -0.248127 -0.637 69 69 77
-0.0522952 -0.251632 -0.646 73 72 78
-0.0499886 -0.252411 -0.648 76 75 81
0.0916114 -0.224366 -0.576 183 141 119
0.10248 -0.22904 -0.588 150 114 102
0.108779 -0.232935 -0.598 134 94 94
0.117537 -0.239168 -0.614 112 87 93
0.384429 -0.25319 -0.65 118 123 145
0.316929 -0.192035 -0.493 126 96 96
0.332217 -0.191646 -0.492 145 115 113
0.342729 -0.192814 -0.495 124 89 95
0.422955 -0.201384 -0.517 153 104 90
0.429693 -0.201773 -0.518 130 83 77
0.438431 -0.202163 -0.519 131 84 76
-0.301554 -0.247383 -0.632 73 74 69
-0.176719 -0.246209 -0.629 192 190 178
-0.156378 -0.254037 -0.649 216 213 198
-0.10195 -0.250906 -0.641 88 86 89
-0.0930038 -0.243469 -0.622 69 68 76
0.0880133 -0.22468 -0.574 195 150 129
0.123609 -0.245426 -0.627 107 87 89
0.3507 -0.196106 -0.501 91 68 74
0.412729 -0.203151 -0.519 188 130 119
0.417223 -0.201977 -0.516 164 110 100
0.438431 -0.203151 -0.519 133 86 78
0.448784 -0.204717 -0.523 142 97 92
0.44978 -0.204717 -0.523 142 97 91
0.45897 -0.207066 -0.529 132 88 79
0.461717 -0.207849 -0.531 127 83 74
0.471903 -0.210589 -0.538 125 80 75
-0.326786 -0.245833 -0.625 244 247 240
-0.318277 -0.24662 -0.627 140 142 137
-0.29348 -0.250947 -0.638 252 253 248
-0.17883 -0.247013 -0.628 191 189 177
-0.176719 -0.247407 -0.629 192 190 178
-0.164987 -0.253307 -0.644 192 190 177
-0.152905 -0.255667 -0.65 213 210 195
-0.08976 -0.242293 -0.616 69 68 76
-0.0779 -0.2419 -0.615 67 66 74
-0.0499886 -0.25488 -0.648 76 75 81
-0.0489048 -0.255667 -0.65 76 75 81
0.0753248 -0.223807 -0.569 209 171 162
0.121829 -0.24544 -0.624 108 88 90
0.314749 -0.194307 -0.494 129 93 97
0.320971 -0.19352 -0.492 124 92 95
0.410552 -0.204533 -0.52 190 132 130
0.420171 -0.20296 -0.516 161 109 96
0.421154 -0.20296 -0.516 159 109 98
-0.330886 -0.247419 -0.626 254 255 250
-0.323731 -0.247419 -0.626 247 250 243
-0.3135 -0.247814 -0.627 143 145 140
-0.29962 -0.250186 -0.633 67 69 64
-0.169791 -0.252557 -0.639 197 195 182
-0.155142 -0.25651 -0.649 217 214 199
-0.0566857 -0.252952 -0.64 73 72 78
-0.0555533 -0.253348 -0.641 72 71 77
0.0902 -0.226867 -0.574 186 143 124
0.0953971 -0.228843 -0.579 160 123 104
0.120253 -0.245838 -0.622 111 88 94
0.322846 -0.194457 -0.492 122 92 94
0.410552 -0.205524 -0.52 183 128 123
0.41174 -0.205129 -0.519 188 138 131
0.435613 -0.204733 -0.518 146 99 89
0.442248 -0.205524 -0.52 138 93 87
-0.34967 -0.255363 -0.643 251 252 246
-0.327309 -0.248611 -0.626 252 253 247
-0.298148 -0.252186 -0.635 116 117 112
-0.293181 -0.254171 -0.64 249 250 244
-0.186577 -0.251789 -0.634 200 200 192
-0.1758 -0.2502 -0.63 193 191 179
-0.170473 -0.25298 -0.637 197 195 183
-0.10413 -0.250994 -0.632 69 67 72
-0.0992457 -0.247817 -0.624 63 60 69
-0.0675848 -0.249406 -0.628 67 68 73
-0.0621924 -0.251789 -0.634 69 70 75
-0.0510648 -0.256554 -0.646 74 71 78
0.0773562 -0.225577 -0.568 206 167 160
0.0830571 -0.226371 -0.57 197 155 141
0.105967 -0.2363 -0.595 122 92 84
0.320971 -0.195394 -0.492 125 95 97
0.336903 -0.195394 -0.492 132 101 106
0.410552 -0.206514 -0.52 187 132 125
0.425086 -0.204926 -0.516 147 98 91
-0.34452 -0.254592 -0.638 251 252 246
-0.341152 -0.252996 -0.634 252 253 247
-0.312804 -0.250602 -0.628 252 253 247
-0.301301 -0.252996 -0.634 247 248 243
-0.293014 -0.257386 -0.645 252 253 248
-0.170206 -0.253794 -0.636 197 195 182
-0.117692 -0.258184 -0.647 246 243 226
-0.106537 -0.252198 -0.632 70 68 71
-0.0981324 -0.246212 -0.617 66 65 73
-0.0476667 -0.259381 -0.65 75 74 80
0.0784381 -0.226659 -0.568 201 164 155
0.0841429 -0.227457 -0.57 191 149 135
0.123 -0.2514 -0.63 109 86 96
0.390693 -0.256987 -0.644 110 110 136
0.390094 -0.25579 -0.641 111 108 129
0.316329 -0.197529 -0.495 113 92 99
0.335029 -0.196331 -0.492 141 110 118
0.428864 -0.206308 -0.517 139 91 81
0.461717 -0.211894 -0.531 129 82 76
-0.33022 -0.251397 -0.627 251 252 247
-0.297873 -0.255407 -0.637 150 151 146
-0.295157 -0.256209 -0.639 158 159 154
-0.1591 -0.258614 -0.645 217 215 200
-0.149966 -0.259817 -0.648 219 216 199
-0.114159 -0.25701 -0.641 199 198 194
-0.0989857 -0.246586 -0.615 72 71 77
-0.0974962 -0.245784 -0.613 71 70 76
-0.0843762 -0.244982 -0.611 69 68 74
-0.0762943 -0.248991 -0.621 69 68 74
-0.0545019 -0.257812 -0.643 73 72 80
0.0678257 -0.232151 -0.579 210 173 165
0.0727714 -0.226939 -0.566 212 174 163
0.0864657 -0.228944 -0.571 192 149 132
0.0889514 -0.229746 -0.573 185 142 123
0.0928695 -0.23135 -0.577 164 122 106
0.0941314 -0.23175 -0.578 157 115 99
0.0984457 -0.234156 -0.584 146 108 97
0.333154 -0.197269 -0.492 211 185 194
0.446075 -0.208896 -0.521 140 96 87
0.456231 -0.211302 -0.527 127 90 81
0.469128 -0.21491 -0.536 123 84 79
0.475565 -0.216915 -0.541 124 86 77
-0.329026 -0.252591 -0.627 251 252 247
-0.318277 -0.252591 -0.627 250 251 245
-0.152957 -0.259843 -0.645 222 219 202
-0.123663 -0.260246 -0.646 251 251 239
-0.0794571 -0.248966 -0.618 69 68 76
-0.072139 -0.252189 -0.626 68 67 75
-0.0656076 -0.254606 -0.632 69 68 74
-0.0611771 -0.256217 -0.636 72 71 79
-0.0578143 -0.257426 -0.639 73 72 80
0.07938 -0.22842 -0.567 202 162 150
0.0816838 -0.228823 -0.568 197 155 141
0.103351 -0.238894 -0.593 129 96 87
0.113843 -0.246951 -0.613 109 89 98
0.418376 -0.207471 -0.515 163 111 98
0.432803 -0.208277 -0.517 137 91 78
0.442386 -0.209083 -0.519 136 92 81
0.458103 -0.212709 -0.528 130 83 77
-0.32955 -0.25419 -0.628 252 253 247
-0.325443 -0.253786 -0.627 252 253 247
-0.3145 -0.254595 -0.629 252 253 247
-0.171653 -0.25419 -0.628 195 195 183
-0.1698 -0.255 -0.63 199 199 187
-0.145029 -0.262286 -0.648 223 221 200
-0.143794 -0.262286 -0.648 226 224 203
-0.136599 -0.26269 -0.649 232 230 215
-0.131249 -0.261881 -0.647 236 234 222
-0.125733 -0.260667 -0.644 247 246 241
-0.116903 -0.257429 -0.636 157 155 156
-0.0837571 -0.248929 -0.615 72 71 79
-0.0807648 -0.250548 -0.619 71 70 78
0.0816838 -0.229905 -0.568 196 154 140
0.106857 -0.242857 -0.6 115 91 91
0.338272 -0.199952 -0.494 120 88 93
0.341531 -0.200762 -0.496 112 85 92
0.415541 -0.217762 -0.538 150 110 111
0.409829 -0.213714 -0.528 169 120 113
0.409149 -0.211286 -0.522 175 117 106
0.432803 -0.209262 -0.517 134 91 74
0.4535 -0.2125 -0.525 126 90 78
-0.35046 -0.263927 -0.649 252 253 245
-0.345843 -0.2623 -0.645 252 253 247
-0.322887 -0.255793 -0.629 251 252 246
-0.30394 -0.259047 -0.637 252 253 248
-0.302727 -0.259047 -0.637 255 255 251
-0.300211 -0.26108 -0.642 253 254 249
-0.169261 -0.255387 -0.628 198 198 186
-0.15421 -0.260267 -0.64 223 220 203
-0.144581 -0.262707 -0.646 224 222 201
-0.143572 -0.263113 -0.647 227 224 205
-0.13064 -0.261893 -0.644 236 236 226
-0.126369 -0.260673 -0.641 233 233 225
-0.107534 -0.250913 -0.617 74 73 79
0.0695371 -0.230173 -0.566 205 171 161
0.0747952 -0.229767 -0.565 206 169 160
0.085079 -0.231393 -0.569 182 140 124
0.0902 -0.233427 -0.574 166 127 110
0.382601 -0.251727 -0.619 104 90 103
0.322276 -0.200893 -0.494 125 96 98
0.421319 -0.209433 -0.515 153 103 92
0.433788 -0.210247 -0.517 142 94 82
0.441397 -0.21106 -0.519 138 91 83
0.455366 -0.213907 -0.526 128 92 80
-0.340035 -0.261894 -0.641 252 253 247
-0.337757 -0.261077 -0.639 252 253 247
-0.3246 -0.2574 -0.63 252 253 247
-0.309266 -0.258626 -0.633 252 253 247
-0.169914 -0.255766 -0.626 201 202 194
-0.147584 -0.262711 -0.643 225 222 203
-0.140453 -0.26312 -0.644 229 226 211
-0.138 -0.26312 -0.644 230 228 215
-0.0942295 -0.248003 -0.607 72 71 77
-0.0849286 -0.251271 -0.615 72 71 77
-0.0757162 -0.255766 -0.626 70 69 75
-0.0746429 -0.256174 -0.627 70 69 75
-0.0735657 -0.256583 -0.628 70 69 75
-0.0557267 -0.262711 -0.643 71 70 76
-0.0488295 -0.265163 -0.649 72 72 80
0.0770838 -0.231251 -0.566 202 165 156
0.105538 -0.244734 -0.599 114 94 93
0.323026 -0.204694 -0.501 87 74 84
0.328736 -0.200609 -0.491 119 89 91
0.40794 -0.213683 -0.523 171 119 106
0.450776 -0.213683 -0.523 121 83 74
-0.337067 -0.262705 -0.64 252 253 247
-0.331326 -0.261063 -0.636 252 253 248
-0.320815 -0.259421 -0.632 252 253 248
-0.318408 -0.259421 -0.632 251 252 246
-0.316 -0.259421 -0.632 254 255 249
-0.171749 -0.256137 -0.624 243 243 241
-0.164476 -0.257779 -0.628 200 200 190
-0.147883 -0.262294 -0.639 225 222 205
-0.123 -0.2586 -0.63 98 97 102
-0.0983657 -0.247928 -0.604 73 72 77
-0.0810257 -0.254906 -0.621 71 70 75
-0.0778514 -0.256137 -0.624 71 70 75
0.09462 -0.238487 -0.581 144 107 91
0.10926 -0.249159 -0.607 109 90 92
0.124952 -0.262705 -0.64 98 83 90
0.328736 -0.201544 -0.491 124 92 93
0.330607 -0.201544 -0.491 120 90 92
0.34731 -0.20647 -0.503 66 49 57
0.442386 -0.213037 -0.519 139 95 82
-0.331152 -0.263099 -0.638 253 254 248
-0.303017 -0.267223 -0.648 252 252 250
-0.183387 -0.265573 -0.644 198 197 202
-0.17056 -0.257326 -0.624 247 247 245
-0.1691 -0.256913 -0.623 246 246 244
-0.16369 -0.257738 -0.625 228 229 221
-0.131027 -0.26145 -0.634 209 208 206
-0.126801 -0.260212 -0.631 105 103 104
-0.101986 -0.24949 -0.605 71 71 81
-0.0953857 -0.250315 -0.607 72 71 77
0.0780238 -0.232995 -0.565 199 161 152
0.08262 -0.23382 -0.567 190 148 136
0.113227 -0.254027 -0.616 110 88 90
0.115143 -0.255676 -0.62 110 88 90
0.38766 -0.262687 -0.637 122 103 122
0.3858 -0.2598 -0.63 98 79 98
0.325538 -0.205778 -0.499 110 95 102
0.326981 -0.203716 -0.494 119 90 92
0.407987 -0.213613 -0.518 172 117 114
0.410153 -0.213201 -0.517 176 121 116
0.44892 -0.215263 -0.522 123 89 77
-0.313905 -0.265143 -0.64 252 253 248
-0.311217 -0.265971 -0.642 252 253 248
-0.305486 -0.268457 -0.648 251 251 249
-0.157738 -0.258929 -0.625 250 250 248
-0.114635 -0.253129 -0.611 70 69 75
-0.107748 -0.250643 -0.605 73 73 81
-0.091359 -0.253129 -0.611 73 72 78
-0.0812867 -0.2581 -0.623 71 70 76
-0.0727152 -0.261414 -0.631 72 71 77
-0.0567743 -0.265557 -0.641 72 71 77
-0.05336 -0.2668 -0.644 73 72 78
0.0917705 -0.239043 -0.577 148 111 95
0.113594 -0.256029 -0.618 110 89 88
0.121366 -0.262657 -0.634 101 85 88
0.127749 -0.268457 -0.648 94 82 86
0.391886 -0.268457 -0.648 126 115 132
0.358534 -0.237386 -0.573 116 93 103
0.407581 -0.215429 -0.52 180 125 120
0.408774 -0.215014 -0.519 171 116 113
0.411326 -0.213771 -0.516 171 117 107
0.442386 -0.215014 -0.519 129 89 81
-0.327826 -0.266778 -0.641 252 253 247
-0.158838 -0.258038 -0.62 239 239 237
-0.145569 -0.261784 -0.629 241 240 238
-0.127927 -0.257622 -0.619 74 73 78
-0.08652 -0.257206 -0.618 71 72 76
-0.085481 -0.257622 -0.619 71 72 76
-0.0624867 -0.265113 -0.637 77 76 82
0.0863143 -0.237229 -0.57 162 120 104
0.0919295 -0.240558 -0.578 144 106 93
0.0963857 -0.243471 -0.585 131 99 86
0.098 -0.24472 -0.588 127 95 82
0.330075 -0.205182 -0.493 118 89 91
0.409763 -0.216003 -0.519 168 115 111
0.40996 -0.215587 -0.518 168 115 109
0.416585 -0.213922 -0.514 159 107 96
-0.341095 -0.271762 -0.65 252 253 247
-0.180544 -0.270508 -0.647 125 126 128
-0.166727 -0.260473 -0.623 148 149 151
-0.148451 -0.261728 -0.626 231 231 231
-0.128271 -0.257129 -0.615 71 70 75
-0.119666 -0.253784 -0.607 73 72 78
-0.115623 -0.25253 -0.604 74 73 79
-0.1005 -0.252111 -0.603 74 73 81
-0.065919 -0.26549 -0.635 139 138 144
0.0733276 -0.23497 -0.562 206 169 160
0.0778857 -0.235806 -0.564 198 155 148
0.3572 -0.235806 -0.564 110 90 102
0.33029 -0.20863 -0.499 101 84 92
0.438711 -0.216155 -0.517 134 90 81
0.459978 -0.221172 -0.529 119 85 76
-0.336862 -0.27258 -0.649 253 254 249
-0.324957 -0.2709 -0.645 252 253 248
-0.320539 -0.27132 -0.646 252 252 250
-0.144667 -0.2604 -0.62 129 128 133
-0.116387 -0.25284 -0.602 73 72 78
-0.0916581 -0.25746 -0.613 74 75 80
0.0983333 -0.2478 -0.59 123 94 88
0.0999629 -0.24906 -0.593 116 95 92
0.101604 -0.25032 -0.596 115 94 91
0.126124 -0.27132 -0.646 86 81 101
0.351787 -0.22848 -0.544 84 71 80
0.332892 -0.20706 -0.493 115 87 86
0.411326 -0.21672 -0.516 165 112 104
0.416585 -0.21588 -0.514 164 111 103
0.424417 -0.21588 -0.514 157 105 94
0.435757 -0.21714 -0.517 136 97 82
0.436742 -0.21714 -0.517 135 96 81
0.479238 -0.22848 -0.544 117 84 77
-0.173443 -0.269597 -0.639 123 124 126
-0.157557 -0.259471 -0.615 105 105 113
-0.154962 -0.25905 -0.614 100 99 104
-0.139758 -0.25905 -0.614 74 75 80
-0.108961 -0.252721 -0.599 75 74 80
-0.100667 -0.25483 -0.604 76 75 83
-0.0960143 -0.257784 -0.611 75 74 80
-0.0928257 -0.258628 -0.613 74 75 80
-0.0887305 -0.260315 -0.617 73 74 79
-0.0649133 -0.268753 -0.637 75 74 80
0.0614505 -0.240908 -0.571 207 174 165
0.07896 -0.237954 -0.564 192 152 142
0.0813962 -0.238798 -0.566 185 145 133
0.116257 -0.264112 -0.626 111 86 89
0.391281 -0.272972 -0.647 140 97 107
0.34375 -0.211796 -0.502 59 47 59
0.426375 -0.216859 -0.514 154 102 91
0.431966 -0.217703 -0.516 150 101 87
0.434772 -0.218125 -0.517 141 95 80
0.444363 -0.218969 -0.519 124 87 81
-0.16146 -0.263186 -0.621 106 106 114
-0.157813 -0.261067 -0.616 100 100 108
-0.149794 -0.259371 -0.612 97 96 101
-0.108961 -0.253862 -0.599 75 74 80
-0.0998457 -0.256829 -0.606 77 76 82
-0.0960143 -0.258948 -0.611 74 73 79
0.072 -0.237333 -0.56 202 165 156
0.361305 -0.250048 -0.59 152 110 120
0.357514 -0.246657 -0.582 150 108 118
0.35335 -0.238605 -0.563 85 48 55
0.3553 -0.237757 -0.561 74 48 61
0.404559 -0.224195 -0.529 165 110 107
0.40659 -0.220381 -0.52 167 114 110
0.410153 -0.21911 -0.517 164 109 104
0.415606 -0.217838 -0.514 162 109 101
0.417564 -0.217838 -0.514 161 108 100
0.432949 -0.218686 -0.516 140 96 85
0.464613 -0.225467 -0.532 119 84 80
-0.166991 -0.269477 -0.633 114 115 120
-0.164476 -0.267349 -0.628 111 111 119
-0.119366 -0.252874 -0.594 65 66 71
-0.0771543 -0.267349 -0.628 73 72 78
-0.07174 -0.269477 -0.633 71 70 76
-0.0695476 -0.270329 -0.635 157 156 164
-0.0499886 -0.275863 -0.648 72 71 77
-0.0476667 -0.276714 -0.65 72 71 77
0.355526 -0.237549 -0.558 78 51 60
0.3337 -0.21158 -0.497 106 91 96
0.403955 -0.222649 -0.523 162 111 107
0.409169 -0.220094 -0.517 169 114 109
0.419522 -0.218817 -0.514 162 109 101
0.42148 -0.218817 -0.514 159 107 96
0.4472 -0.221371 -0.52 126 87 82
0.456368 -0.223926 -0.526 123 85 76
0.478357 -0.231163 -0.543 114 81 72
1.13246 -0.275863 -0.648 207 204 189
-0.141613 -0.257427 -0.602 58 59 64
-0.112009 -0.255289 -0.597 74 73 79
-0.102154 -0.259137 -0.606 75 74 82
-0.0695476 -0.271538 -0.635 134 133 139
-0.0579952 -0.274104 -0.641 72 71 79
-0.0511438 -0.27667 -0.647 71 70 78
0.0613333 -0.239467 -0.56 207 174 165
0.0954343 -0.250585 -0.586 125 94 92
0.354251 -0.237756 -0.556 75 44 50
0.335431 -0.214237 -0.501 111 99 103
0.403267 -0.224928 -0.526 164 109 106
0.40659 -0.222362 -0.52 157 107 100
0.408973 -0.221507 -0.518 166 113 105
0.410153 -0.221079 -0.517 167 114 106
0.419522 -0.219796 -0.514 159 106 98
0.422459 -0.219796 -0.514 157 107 98
0.437727 -0.221079 -0.517 130 90 78
0.442386 -0.221934 -0.519 131 88 79
0.4555 -0.2245 -0.525 126 83 74
0.583532 -0.27667 -0.647 231 235 247
-0.0511438 -0.277902 -0.647 72 71 79
0.0620657 -0.239245 -0.557 200 166 156
0.0909857 -0.248694 -0.579 138 103 99
0.0939962 -0.250842 -0.584 130 98 99
0.351074 -0.238815 -0.556 124 81 88
0.403813 -0.228507 -0.532 159 110 105
0.404951 -0.224641 -0.523 163 113 106
0.405171 -0.224211 -0.522 164 114 107
0.440547 -0.222493 -0.518 132 90 78
1.13297 -0.278761 -0.649 203 207 193
-0.152374 -0.264466 -0.613 103 104 108
-0.140202 -0.257131 -0.596 73 74 79
-0.0804857 -0.270074 -0.626 73 72 78
-0.0522952 -0.278703 -0.646 71 70 76
0.0694924 -0.240306 -0.557 204 167 158
0.0813962 -0.244189 -0.566 171 132 117
0.117743 -0.273526 -0.634 108 88 99
0.402731 -0.226069 -0.524 161 111 104
0.408973 -0.22348 -0.518 161 111 102
0.418543 -0.221754 -0.514 160 107 101
0.42148 -0.221754 -0.514 158 108 99
0.449914 -0.225206 -0.522 137 89 79
0.460986 -0.228226 -0.529 125 84 78
0.472928 -0.232109 -0.538 123 87 75
0.477476 -0.233834 -0.542 121 85 73
-0.153369 -0.267367 -0.617 105 109 112
-0.136543 -0.255667 -0.59 68 69 74
-0.132269 -0.253933 -0.586 58 59 64
-0.129592 -0.253067 -0.584 56 57 62
-0.0963286 -0.265633 -0.613 78 77 83
-0.09328 -0.266933 -0.616 76 75 81
-0.07174 -0.2743 -0.633 73 72 78
-0.0694381 -0.274733 -0.634 74 73 78
-0.0476667 -0.281667 -0.65 70 70 78
0.0618429 -0.2405 -0.555 204 170 161
0.11196 -0.269533 -0.622 110 93 101
0.119889 -0.2769 -0.639 103 86 92
0.350651 -0.2392 -0.552 137 92 97
0.354619 -0.238333 -0.55 86 54 57
0.356714 -0.238333 -0.55 78 51 56
0.346494 -0.2249 -0.519 120 103 111
0.343311 -0.2197 -0.507 97 85 95
0.403297 -0.2314 -0.534 155 106 102
0.401783 -0.2288 -0.528 162 109 105
0.402026 -0.228367 -0.527 161 108 104
0.405388 -0.225767 -0.521 160 110 103
0.412309 -0.2236 -0.516 159 106 100
0.42148 -0.222733 -0.514 160 110 101
0.425396 -0.222733 -0.514 150 100 89
0.430148 -0.223167 -0.515 141 97 88
1.13317 -0.280367 -0.647 202 206 191
-0.113525 -0.260708 -0.599 64 65 70
-0.0901971 -0.269412 -0.619 74 73 79
-0.0740343 -0.27507 -0.632 73 72 78
-0.0661267 -0.277247 -0.637 71 70 76
-0.0488295 -0.28247 -0.649 70 71 76
0.0567 -0.24678 -0.567 204 171 164
0.0617314 -0.241122 -0.554 203 168 162
0.0704267 -0.241992 -0.556 198 160 149
0.349774 -0.243298 -0.559 152 103 122
0.350429 -0.239381 -0.55 136 94 96
0.358549 -0.23851 -0.548 86 69 75
0.346093 -0.223712 -0.514 61 46 53
0.403033 -0.232852 -0.535 162 109 103
0.415257 -0.224583 -0.516 157 104 98
0.417395 -0.224148 -0.515 155 102 94
1.13246 -0.282034 -0.648 202 206 191
-0.165755 -0.282831 -0.647 112 117 113
-0.12715 -0.254854 -0.583 101 105 108
-0.108282 -0.265783 -0.608 67 68 73
0.1183 -0.27846 -0.637 109 87 100
0.35526 -0.250483 -0.573 136 93 103
0.352685 -0.239117 -0.547 122 81 85
0.355491 -0.233434 -0.534 76 64 76
0.3515 -0.2295 -0.525 69 58 72
0.349098 -0.226003 -0.517 142 130 134
0.433931 -0.225566 -0.516 145 97 87
-0.139067 -0.261672 -0.596 125 126 131
-0.13519 -0.258599 -0.589 127 128 133
-0.11542 -0.262111 -0.597 59 60 65
-0.111205 -0.265624 -0.605 63 64 69
-0.100999 -0.269136 -0.613 75 74 80
-0.0884067 -0.273527 -0.623 74 73 79
-0.0535257 -0.283625 -0.646 70 69 75
0.0692429 -0.243671 -0.555 196 159 150
0.0750657 -0.245428 -0.559 188 148 138
0.0867686 -0.251574 -0.573 147 108 101
0.3525 -0.2305 -0.525 127 117 128
0.353105 -0.228305 -0.52 66 54 66
0.40996 -0.227427 -0.518 159 106 98
0.426375 -0.22567 -0.514 152 102 93
0.441533 -0.227427 -0.518 137 94 87
0.474833 -0.236647 -0.539 123 86 78
-0.118763 -0.260603 -0.591 63 62 68
-0.103166 -0.269863 -0.612 71 70 76
-0.0969571 -0.272068 -0.617 75 74 80
-0.0569514 -0.283532 -0.643 69 68 74
-0.0523762 -0.285296 -0.647 70 69 75
-0.0500657 -0.286178 -0.649 71 70 76
-0.0489048 -0.286619 -0.65 71 70 76
0.0615086 -0.243406 -0.552 204 169 163
0.0703 -0.244729 -0.555 197 159 148
0.0714857 -0.24517 -0.556 198 160 149
0.0738686 -0.246051 -0.558 187 147 135
0.09464 -0.25928 -0.588 117 96 103
0.407581 -0.229295 -0.52 160 107 101
0.425396 -0.22665 -0.514 152 102 93
0.426375 -0.22665 -0.514 152 102 93
0.427354 -0.22665 -0.514 152 102 93
0.444363 -0.228854 -0.519 131 88 81
0.462867 -0.233705 -0.53 120 81 74
-0.16281 -0.287857 -0.65 121 125 126
-0.1518 -0.279 -0.63 115 119 120
-0.111389 -0.268371 -0.606 61 60 65
-0.0604371 -0.283871 -0.641 70 69 77
-0.0581762 -0.284757 -0.643 69 68 76
0.0634962 -0.244014 -0.551 201 167 158
0.06478 -0.2449 -0.553 199 165 156
0.0714857 -0.246229 -0.556 195 157 146
0.11304 -0.278114 -0.628 104 89 96
0.348967 -0.244014 -0.551 157 112 119
0.357429 -0.239143 -0.54 67 38 40
0.357201 -0.234271 -0.529 87 74 81
0.408774 -0.229843 -0.519 155 102 94
1.12967 -0.285643 -0.645 202 204 191
1.12592 -0.282543 -0.638 203 205 192
-0.06734 -0.283313 -0.637 71 70 76
0.0646629 -0.245509 -0.552 199 165 156
0.0657143 -0.245509 -0.552 200 163 154
0.0703 -0.246843 -0.555 192 154 141
0.0725448 -0.247288 -0.556 187 147 135
0.0900381 -0.257962 -0.58 129 98 96
0.0932019 -0.26063 -0.586 123 96 101
0.1 -0.266857 -0.6 109 92 102
0.351526 -0.241061 -0.542 136 92 93
0.354999 -0.240616 -0.541 105 69 71
0.362611 -0.237503 -0.534 67 55 67
0.398257 -0.233945 -0.526 157 108 101
0.418376 -0.229052 -0.515 160 107 99
0.435897 -0.229497 -0.516 145 97 87
0.437863 -0.229497 -0.516 141 94 84
0.474833 -0.239727 -0.539 120 85 79
1.13037 -0.286427 -0.644 202 204 191
-0.153487 -0.284527 -0.637 110 114 115
-0.121313 -0.262193 -0.587 61 62 67
-0.0786 -0.2814 -0.63 72 71 79
0.0542467 -0.247007 -0.553 199 172 165
0.0725448 -0.248347 -0.556 186 146 134
0.10382 -0.27202 -0.609 115 89 98
0.469456 -0.286313 -0.641 127 88 93
0.394963 -0.23718 -0.531 155 104 101
0.394743 -0.23584 -0.528 158 107 103
0.409763 -0.23182 -0.519 150 98 87
0.426224 -0.230033 -0.515 154 104 93
0.440681 -0.230927 -0.517 135 91 82
1.12537 -0.284527 -0.637 203 205 192
-0.158361 -0.290226 -0.647 114 118 119
-0.156157 -0.288431 -0.643 111 115 116
-0.128483 -0.259723 -0.579 111 115 116
-0.121313 -0.263311 -0.587 64 65 70
-0.11034 -0.274974 -0.613 59 58 64
-0.105013 -0.27632 -0.616 65 64 70
-0.0886905 -0.280357 -0.625 75 74 82
-0.0864476 -0.280806 -0.626 74 73 81
-0.0685533 -0.28574 -0.637 71 70 78
-0.0559 -0.289329 -0.645 70 69 77
0.0611743 -0.246266 -0.549 204 170 161
0.0737362 -0.249854 -0.557 182 142 132
0.0969 -0.2669 -0.595 113 92 101
0.34892 -0.24492 -0.546 148 102 105
0.356105 -0.241331 -0.538 111 75 77
0.35713 -0.241331 -0.538 109 73 75
0.359214 -0.239986 -0.535 65 35 37
0.395619 -0.240434 -0.536 137 93 94
0.3985 -0.2355 -0.525 153 106 98
0.401733 -0.235051 -0.524 150 94 95
0.425243 -0.231014 -0.515 154 104 93
0.468394 -0.239537 -0.534 123 86 80
-0.117694 -0.268934 -0.597 69 68 74
-0.0986095 -0.279295 -0.62 70 69 77
-0.0775229 -0.28425 -0.631 73 72 80
-0.062781 -0.288305 -0.64 70 69 77
-0.0605314 -0.289206 -0.642 69 68 74
-0.0593086 -0.289206 -0.642 69 68 74
0.0545867 -0.290107 -0.644 205 172 167
0.0541486 -0.248663 -0.552 202 169 162
0.0549 -0.247311 -0.549 201 168 161
0.0579314 -0.246861 -0.548 202 167 161
0.0856771 -0.258123 -0.573 144 110 109
0.349319 -0.24551 -0.545 148 97 106
0.349714 -0.245059 -0.544 145 94 103
0.350229 -0.243257 -0.54 138 91 99
0.358195 -0.241005 -0.535 93 62 67
0.359214 -0.241005 -0.535 78 47 52
0.393405 -0.240104 -0.533 140 96 97
0.3975 -0.2365 -0.525 152 105 97
0.406166 -0.235149 -0.522 150 97 91
0.410947 -0.233347 -0.518 152 99 91
0.414274 -0.232446 -0.516 149 99 90
0.417395 -0.231995 -0.515 155 105 96
-0.122708 -0.263738 -0.583 67 68 72
-0.117891 -0.270524 -0.598 71 70 76
-0.117143 -0.271429 -0.6 70 69 75
-0.112491 -0.276857 -0.612 61 60 66
-0.0953733 -0.281381 -0.622 72 71 79
-0.05704 -0.291333 -0.644 69 68 76
0.05214 -0.250167 -0.553 206 173 166
0.0588676 -0.247452 -0.547 204 167 159
0.349461 -0.24519 -0.542 137 87 96
0.371141 -0.24519 -0.542 72 61 67
0.398529 -0.247452 -0.547 121 84 91
0.3935 -0.2375 -0.525 153 104 100
0.3955 -0.2375 -0.525 151 102 97
0.401963 -0.236595 -0.523 147 96 92
0.408571 -0.235238 -0.52 146 96 87
0.443507 -0.234333 -0.518 129 91 80
0.47117 -0.242476 -0.536 123 84 77
1.12713 -0.288619 -0.638 203 205 194
-0.1245 -0.26394 -0.581 90 91 96
-0.117891 -0.271663 -0.598 72 71 79
-0.113471 -0.277569 -0.611 63 62 68
-0.09434 -0.28302 -0.623 71 70 78
-0.0933029 -0.283474 -0.624 71 70 78
-0.0889743 -0.284837 -0.627 74 73 81
-0.08778 -0.284837 -0.627 75 74 82
-0.0856638 -0.285746 -0.629 74 73 81
-0.0834 -0.2862 -0.63 76 75 83
-0.059401 -0.292106 -0.643 71 70 78
0.0519514 -0.250311 -0.551 206 173 166
0.0724143 -0.252129 -0.555 186 146 136
0.0872229 -0.261669 -0.576 136 102 103
0.104502 -0.278477 -0.613 116 92 105
0.349319 -0.247586 -0.545 145 94 103
0.351633 -0.24486 -0.539 139 90 96
0.35303 -0.244406 -0.538 142 93 99
0.360233 -0.243043 -0.535 121 81 89
0.412123 -0.234866 -0.517 149 99 88
1.1289 -0.290289 -0.639 202 204 191
-0.064 -0.291962 -0.64 71 70 76
0.0665238 -0.250905 -0.55 196 159 151
0.0688686 -0.251817 -0.552 189 151 142
0.0700467 -0.252273 -0.553 184 146 135
0.0956057 -0.270977 -0.594 117 95 107
0.0975514 -0.273258 -0.599 115 93 105
0.354781 -0.244518 -0.536 146 96 105
0.359214 -0.244062 -0.535 142 95 101
0.400967 -0.238588 -0.523 149 98 94
0.420338 -0.234938 -0.515 153 103 92
0.426224 -0.234938 -0.515 153 103 92
0.431966 -0.235394 -0.516 150 102 90
0.433931 -0.235394 -0.516 152 104 94
-0.120091 -0.271192 -0.592 84 83 91
-0.112859 -0.28127 -0.614 66 65 73
-0.104683 -0.284477 -0.621 59 58 66
-0.09568 -0.285851 -0.624 67 66 74
-0.08806 -0.288142 -0.629 73 72 80
-0.0823305 -0.289058 -0.631 75 74 82
-0.0697667 -0.291807 -0.637 72 71 79
0.05356 -0.25012 -0.546 206 171 165
0.0619933 -0.250578 -0.547 198 161 155
0.0665238 -0.251952 -0.55 194 157 149
0.10858 -0.285393 -0.623 112 92 103
0.112556 -0.289516 -0.632 114 92 104
0.35234 -0.253327 -0.553 141 96 99
0.34996 -0.25012 -0.546 144 93 102
0.36397 -0.245539 -0.536 142 99 106
0.378031 -0.248746 -0.543 98 75 85
0.379764 -0.249204 -0.544 99 76 86
0.388143 -0.251952 -0.55 111 84 89
0.38924 -0.240958 -0.526 141 93 91
0.390242 -0.240958 -0.526 147 99 97
0.394747 -0.240042 -0.524 145 96 92
0.395986 -0.239584 -0.523 148 99 94
0.407372 -0.238668 -0.521 145 97 87
-0.125841 -0.26542 -0.577 91 92 96
-0.102482 -0.28612 -0.622 57 56 64
-0.0968686 -0.28704 -0.624 65 64 72
-0.09568 -0.28704 -0.624 66 65 73
-0.0946429 -0.2875 -0.625 67 66 74
-0.0912171 -0.28796 -0.626 70 69 77
-0.0858 -0.2898 -0.63 72 71 79
-0.079099 -0.29164 -0.634 73 72 80
-0.0710914 -0.29348 -0.638 72 71 79
-0.0663343 -0.29394 -0.639 69 68 74
-0.0617543 -0.29532 -0.642 70 69 75
-0.0606257 -0.29578 -0.643 70 69 75
0.0515743 -0.25162 -0.547 206 171 165
0.350877 -0.24886 -0.541 137 88 94
0.362271 -0.2461 -0.535 152 107 112
0.394747 -0.24104 -0.524 146 97 93
0.425086 -0.23736 -0.516 153 105 93
0.43688 -0.23736 -0.516 145 96 89
1.1289 -0.29394 -0.639 202 206 192
-0.116389 -0.280838 -0.608 79 78 84
-0.100273 -0.287767 -0.623 59 58 66
-0.0946429 -0.28869 -0.625 67 66 74
-0.0836648 -0.291924 -0.632 73 72 80
-0.0757143 -0.293771 -0.636 73 72 78
0.06084 -0.2522 -0.546 200 165 159
0.0665238 -0.254048 -0.55 194 157 151
0.0830571 -0.263286 -0.57 143 109 110
0.351395 -0.251738 -0.545 142 91 96
0.381724 -0.248505 -0.538 130 90 91
0.384686 -0.243886 -0.528 144 98 98
0.392997 -0.241576 -0.523 149 101 97
0.39997 -0.241576 -0.523 149 100 93
0.41174 -0.239729 -0.519 154 104 95
0.46112 -0.243886 -0.528 126 86 78
-0.11903 -0.277358 -0.598 88 87 93
-0.115799 -0.283388 -0.611 78 77 83
-0.106036 -0.28849 -0.622 55 55 63
-0.0860724 -0.293128 -0.632 71 70 78
-0.0827219 -0.294055 -0.634 74 73 81
-0.0676571 -0.296838 -0.64 71 71 79
0.05044 -0.25324 -0.546 209 174 168
0.0576143 -0.252776 -0.545 204 169 163
0.0960886 -0.276894 -0.597 115 93 106
0.35531 -0.257878 -0.556 140 98 102
0.35204 -0.25324 -0.546 142 92 95
0.368714 -0.247674 -0.534 148 104 105
0.376221 -0.248602 -0.536 133 93 94
0.385232 -0.243964 -0.526 137 92 89
0.38776 -0.243036 -0.524 145 100 97
0.402189 -0.242109 -0.522 149 100 93
0.404177 -0.242109 -0.522 151 102 97
0.406166 -0.242109 -0.522 151 102 97
0.407581 -0.241181 -0.52 146 98 88
0.415257 -0.239326 -0.516 153 105 93
0.41624 -0.239326 -0.516 153 105 93
0.418206 -0.239326 -0.516 152 104 92
0.424103 -0.239326 -0.516 155 105 96
0.437863 -0.239326 -0.516 143 96 88
0.459243 -0.244428 -0.527 125 85 77
0.481311 -0.252312 -0.544 127 90 84
-0.115198 -0.285949 -0.614 78 77 83
-0.112599 -0.288277 -0.619 68 67 73
-0.0936019 -0.291537 -0.626 62 61 69
-0.0759524 -0.297126 -0.638 72 71 79
0.06292 -0.25428 -0.546 199 162 153
0.0845857 -0.266854 -0.573 140 105 111
0.103503 -0.285949 -0.614 117 93 109
0.109103 -0.291537 -0.626 113 88 109
0.369731 -0.248691 -0.534 146 106 106
0.371766 -0.248691 -0.534 142 102 102
0.383229 -0.244966 -0.526 144 100 99
0.397978 -0.243569 -0.523 148 101 95
0.41292 -0.24124 -0.518 151 103 91
1.12966 -0.296194 -0.636 203 204 196
-0.144201 -0.28665 -0.613 98 99 104
-0.11868 -0.281507 -0.602 86 87 91
-0.114586 -0.288521 -0.617 78 77 83
0.0544 -0.254385 -0.544 202 167 161
0.0803181 -0.264672 -0.566 150 114 114
0.0927143 -0.275895 -0.59 120 96 110
0.0982029 -0.281974 -0.603 115 93 106
0.111176 -0.295068 -0.631 115 91 105
0.353727 -0.255788 -0.547 142 96 98
0.3731 -0.249241 -0.533 142 100 101
0.40638 -0.24363 -0.521 152 103 96
0.426069 -0.241291 -0.516 153 103 96
0.432949 -0.241291 -0.516 147 99 89
0.438846 -0.241291 -0.516 134 94 86
0.44265 -0.241759 -0.517 129 91 82
0.44819 -0.243162 -0.52 127 88 81
0.458371 -0.245968 -0.526 129 91 82
0.46664 -0.248773 -0.532 121 84 76
0.576338 -0.296938 -0.635 236 230 240
-0.123129 -0.274671 -0.585 76 77 82
-0.101949 -0.293922 -0.626 52 51 59
0.044741 -0.26575 -0.566 210 177 172
0.04732 -0.25636 -0.546 209 176 169
0.0501629 -0.254951 -0.543 209 174 168
0.08798 -0.272793 -0.581 130 103 112
0.0982029 -0.283123 -0.603 116 96 108
0.101833 -0.286879 -0.611 112 94 106
0.107393 -0.292513 -0.623 113 90 108
0.359886 -0.251665 -0.536 151 102 98
0.388269 -0.245091 -0.522 149 104 99
0.395229 -0.245091 -0.522 152 105 99
0.397217 -0.245091 -0.522 152 105 99
-0.121727 -0.277671 -0.589 101 102 107
-0.0794733 -0.3003 -0.637 71 70 75
-0.0771676 -0.300771 -0.638 73 72 77
-0.0748543 -0.301243 -0.639 73 72 77
0.0454886 -0.258814 -0.549 211 178 173
0.0491286 -0.255986 -0.543 206 171 165
0.0553343 -0.255986 -0.543 200 165 159
0.0947924 -0.280971 -0.596 118 96 109
0.358488 -0.262114 -0.556 136 90 93
0.356586 -0.256929 -0.545 134 88 90
0.35809 -0.255043 -0.541 147 101 101
0.373019 -0.249857 -0.53 143 102 98
0.388269 -0.246086 -0.522 147 99 95
0.391494 -0.245614 -0.521 153 106 100
0.400426 -0.245614 -0.521 156 108 96
0.403619 -0.245143 -0.52 155 107 95
0.420171 -0.243257 -0.516 147 98 84
0.425086 -0.243257 -0.516 150 100 89
0.47219 -0.252686 -0.536 121 82 75
-0.0997229 -0.29678 -0.627 51 50 58
-0.0895419 -0.298673 -0.631 64 63 69
-0.08848 -0.299147 -0.632 65 64 70
0.0562648 -0.256547 -0.542 198 163 157
0.0930286 -0.280213 -0.592 118 95 111
0.0947924 -0.282107 -0.596 117 94 110
0.107393 -0.294887 -0.623 115 95 107
0.35882 -0.255127 -0.539 147 102 99
0.371387 -0.251813 -0.532 146 102 101
0.375338 -0.250393 -0.529 140 96 93
0.395464 -0.246607 -0.521 157 108 101
0.396686 -0.246133 -0.52 157 108 101
0.397676 -0.246133 -0.52 158 108 101
0.405809 -0.24566 -0.519 159 110 96
0.406797 -0.24566 -0.519 158 109 95
0.413907 -0.245187 -0.518 159 110 96
0.428034 -0.24424 -0.516 153 104 90
0.474977 -0.254653 -0.538 124 85 78
-0.136543 -0.28039 -0.59 98 97 105
-0.128914 -0.273737 -0.576 96 97 99
-0.124286 -0.275638 -0.58 68 69 73
-0.109451 -0.29845 -0.628 68 69 74
-0.0974895 -0.29845 -0.628 50 49 55
-0.0928524 -0.298925 -0.629 55 54 60
-0.0918 -0.2994 -0.63 56 55 61
0.0572971 -0.257579 -0.542 198 163 157
0.0674486 -0.260906 -0.549 184 146 137
0.0711 -0.262807 -0.553 175 136 129
0.368024 -0.253302 -0.533 145 101 100
0.370054 -0.253302 -0.533 145 101 100
0.384766 -0.249025 -0.524 152 104 100
0.386024 -0.24855 -0.523 147 102 97
0.424103 -0.245223 -0.516 149 100 86
0.456629 -0.249025 -0.524 128 88 80
-0.130011 -0.274834 -0.576 98 99 104
-0.128914 -0.274834 -0.576 95 98 103
-0.125174 -0.276266 -0.579 74 75 79
-0.12152 -0.28056 -0.588 107 108 112
-0.117154 -0.292011 -0.612 91 92 97
-0.113872 -0.298691 -0.626 79 80 85
-0.10347 -0.299646 -0.628 52 51 59
0.0498857 -0.257657 -0.54 206 171 165
0.0509143 -0.257657 -0.54 206 171 165
0.0519429 -0.257657 -0.54 205 170 164
0.0583295 -0.258611 -0.542 198 159 154
0.0762667 -0.2672 -0.56 160 120 120
0.08046 -0.27054 -0.567 142 112 114
0.362212 -0.258134 -0.541 145 100 97
0.363626 -0.256226 -0.537 148 103 100
0.3805 -0.2505 -0.525 155 107 103
0.40482 -0.247637 -0.519 160 112 102
0.405027 -0.24716 -0.518 162 114 104
0.414092 -0.246683 -0.517 157 107 96
0.438846 -0.246206 -0.516 132 89 80
0.44548 -0.24716 -0.518 123 85 76
0.447329 -0.247637 -0.519 125 85 75
0.456629 -0.250023 -0.524 126 86 78
0.477771 -0.257657 -0.54 128 90 81
1.12674 -0.302031 -0.633 203 205 192
-0.132019 -0.277848 -0.58 96 99 104
-0.112022 -0.301321 -0.629 76 77 82
0.068619 -0.263476 -0.55 175 137 128
0.0736038 -0.26635 -0.556 163 123 121
0.11448 -0.304674 -0.636 111 98 118
0.363 -0.263476 -0.55 137 91 91
0.363185 -0.260602 -0.544 140 95 92
0.37433 -0.253416 -0.529 145 100 97
0.394705 -0.249105 -0.52 157 107 100
0.406013 -0.248147 -0.518 162 112 103
0.418031 -0.247668 -0.517 149 99 88
0.422955 -0.247668 -0.517 148 98 87
0.42591 -0.247668 -0.517 154 104 93
0.447329 -0.248626 -0.519 127 84 77
0.451037 -0.249584 -0.521 125 85 77
1.12502 -0.300842 -0.628 203 205 192
-0.144894 -0.293862 -0.611 98 99 103
-0.11322 -0.302519 -0.629 81 82 86
-0.0954 -0.303 -0.63 49 48 56
0.0437952 -0.260195 -0.541 210 177 172
0.0476514 -0.258752 -0.538 204 171 166
0.05082 -0.259233 -0.539 209 176 169
0.364431 -0.264043 -0.549 136 91 86
0.366007 -0.259233 -0.539 146 99 93
0.374029 -0.254905 -0.53 147 99 95
0.388517 -0.250576 -0.521 154 103 99
0.392724 -0.250095 -0.52 157 107 100
0.406214 -0.248652 -0.517 160 110 101
0.414092 -0.248652 -0.517 156 106 95
0.416062 -0.248652 -0.517 150 100 89
0.449181 -0.250095 -0.52 127 84 77
-0.1265 -0.277643 -0.575 101 105 108
-0.116324 -0.299371 -0.62 92 93 97
-0.111176 -0.304683 -0.631 77 78 82
-0.110149 -0.305166 -0.632 73 74 78
-0.0954 -0.3042 -0.63 47 46 54
-0.086481 -0.306614 -0.635 63 62 68
0.0419657 -0.262674 -0.544 208 175 170
0.0593619 -0.261709 -0.542 196 159 153
0.0673257 -0.264606 -0.548 184 143 137
0.0736038 -0.268469 -0.556 158 119 120
0.102167 -0.295991 -0.613 111 91 103
0.112734 -0.305649 -0.633 118 97 116
0.368123 -0.270883 -0.561 131 90 84
0.369405 -0.258329 -0.535 143 95 91
0.37664 -0.254949 -0.528 147 100 94
0.399107 -0.25012 -0.518 160 110 99
0.40326 -0.249637 -0.517 163 113 102
0.418206 -0.249154 -0.516 147 99 87
0.422137 -0.249154 -0.516 151 103 91
0.424103 -0.249154 -0.516 154 106 94
0.426069 -0.249154 -0.516 153 105 93
0.428034 -0.249154 -0.516 154 106 92
1.12558 -0.304683 -0.631 203 205 191
-0.144183 -0.294735 -0.608 96 100 103
-0.141378 -0.291342 -0.601 97 101 104
-0.131564 -0.280192 -0.578 100 103 108
-0.1189 -0.29522 -0.609 104 105 109
-0.112378 -0.305885 -0.631 81 82 86
-0.0966 -0.3054 -0.63 46 45 53
-0.08876 -0.307339 -0.634 56 55 61
0.08046 -0.27486 -0.567 137 110 117
0.368402 -0.260802 -0.538 141 96 91
0.37664 -0.255954 -0.528 147 99 95
0.37693 -0.25547 -0.527 146 98 94
0.3805 -0.2545 -0.525 155 106 101
0.385028 -0.25353 -0.523 150 101 96
0.396911 -0.251591 -0.519 160 110 103
0.407199 -0.250622 -0.517 158 110 96
0.414274 -0.250137 -0.516 152 104 92
0.415257 -0.250137 -0.516 153 105 93
0.444493 -0.251107 -0.518 124 86 75
0.44548 -0.251107 -0.518 120 82 71
0.456753 -0.25353 -0.523 129 91 82
-0.153729 -0.30806 -0.633 97 101 104
-0.133353 -0.282753 -0.581 103 106 111
-0.116071 -0.304167 -0.625 92 93 97
-0.115432 -0.305627 -0.628 89 90 94
-0.112556 -0.307573 -0.632 82 83 87
0.0428705 -0.308547 -0.634 202 168 158
0.0603943 -0.263773 -0.542 193 154 149
0.0762667 -0.272533 -0.56 149 113 117
0.0851762 -0.280807 -0.577 127 103 116
0.0884343 -0.284213 -0.584 121 100 115
0.0970543 -0.29346 -0.603 117 97 109
0.102333 -0.298813 -0.614 115 95 107
0.378219 -0.255987 -0.526 150 101 97
0.394934 -0.25258 -0.519 160 110 101
0.40108 -0.252093 -0.518 163 113 102
0.435897 -0.25112 -0.516 138 94 83
0.470563 -0.259393 -0.533 126 88 79
-0.11376 -0.308777 -0.632 89 88 93
0.0548248 -0.262851 -0.538 198 164 155
0.066161 -0.267249 -0.547 182 139 133
0.08364 -0.28044 -0.574 127 103 116
0.373314 -0.271646 -0.556 121 81 81
0.3708 -0.263829 -0.54 138 92 92
0.37114 -0.26334 -0.539 138 90 88
0.387274 -0.255034 -0.522 149 99 92
0.412309 -0.252103 -0.516 154 105 91
0.422137 -0.252103 -0.516 156 106 95
0.424103 -0.252103 -0.516 153 103 92
0.43688 -0.252103 -0.516 139 95 84
0.448317 -0.253569 -0.519 127 86 80
0.466024 -0.258454 -0.529 128 88 80
0.46968 -0.25992 -0.532 127 87 79
-0.121727 -0.28889 -0.589 223 224 229
-0.117884 -0.305076 -0.622 102 101 106
-0.102926 -0.309981 -0.632 57 56 64
-0.0920914 -0.309981 -0.632 39 38 44
0.0433905 -0.262895 -0.536 208 173 167
0.0473857 -0.262405 -0.535 205 171 162
0.0547229 -0.263386 -0.537 198 164 155
0.0558495 -0.263876 -0.538 195 161 152
0.0972152 -0.296248 -0.604 114 96 110
0.102333 -0.301152 -0.614 119 99 111
0.112556 -0.309981 -0.632 118 104 119
0.373162 -0.268781 -0.548 137 91 91
0.372501 -0.263876 -0.538 143 94 90
0.372462 -0.262405 -0.535 145 94 91
0.384031 -0.256519 -0.523 150 101 94
0.38702 -0.256519 -0.523 153 102 98
0.387274 -0.256029 -0.522 151 100 96
0.39098 -0.254557 -0.519 155 105 96
0.406411 -0.253086 -0.516 162 113 98
0.412309 -0.253086 -0.516 154 105 91
0.419189 -0.253086 -0.516 156 107 93
0.451162 -0.255048 -0.52 132 89 82
0.468797 -0.260443 -0.531 126 86 76
0.472463 -0.261914 -0.534 126 86 76
1.12143 -0.308019 -0.628 201 203 190
1.12262 -0.308019 -0.628 202 204 191
0.0453476 -0.263424 -0.535 206 172 163
0.1025 -0.302814 -0.615 120 99 114
0.259381 -0.320048 -0.65 162 172 223
0.264333 -0.320048 -0.65 231 237 255
0.269286 -0.320048 -0.65 250 252 251
0.281667 -0.320048 -0.65 223 225 237
0.387525 -0.25653 -0.521 151 100 96
0.41151 -0.253576 -0.515 155 106 92
1.12263 -0.30823 -0.626 202 204 191
-0.121309 -0.295583 -0.598 218 217 222
-0.12006 -0.30102 -0.609 183 183 183
0.0404029 -0.265431 -0.537 205 173 162
0.0413486 -0.264937 -0.536 206 172 163
0.0433095 -0.264443 -0.535 208 174 165
0.0580067 -0.26642 -0.539 191 151 151
0.0602829 -0.267409 -0.541 187 147 145
0.0637257 -0.268891 -0.544 180 139 135
0.0791 -0.279271 -0.565 140 109 115
0.0904667 -0.291629 -0.59 119 101 117
0.239203 -0.320791 -0.649 234 237 252
0.249476 -0.321286 -0.65 150 161 207
0.263927 -0.320791 -0.649 220 225 247
0.28247 -0.320791 -0.649 233 235 250
0.303952 -0.321286 -0.65 210 214 225
0.41448 -0.310411 -0.628 117 103 116
0.376293 -0.270869 -0.548 138 94 93
0.375519 -0.264443 -0.535 148 98 97
0.375834 -0.263949 -0.534 150 101 97
0.379221 -0.259994 -0.526 153 102 98
0.385028 -0.258511 -0.523 158 107 103
0.39098 -0.256534 -0.519 159 106 98
0.419189 -0.255051 -0.516 158 109 95
0.430983 -0.255051 -0.516 156 104 91
0.43688 -0.255051 -0.516 142 95 85
-0.149872 -0.30863 -0.622 92 93 97
-0.125405 -0.28531 -0.575 108 109 114
-0.119287 -0.30615 -0.617 171 172 174
-0.101561 -0.313096 -0.631 37 36 44
0.0422114 -0.264966 -0.534 205 171 162
0.0601714 -0.267943 -0.54 189 148 144
0.247856 -0.322028 -0.649 144 158 203
0.292359 -0.322028 -0.649 249 250 255
0.293595 -0.322028 -0.649 249 250 255
0.316333 -0.322524 -0.65 188 209 254
0.377467 -0.263973 -0.532 156 105 101
0.378067 -0.262981 -0.53 155 104 100
0.381225 -0.260996 -0.526 153 102 98
0.417223 -0.256034 -0.516 163 111 98
0.418206 -0.256034 -0.516 163 111 98
0.429017 -0.256034 -0.516 157 105 92
0.438846 -0.256034 -0.516 136 94 82
0.454014 -0.258515 -0.521 131 88 79
0.456874 -0.259011 -0.522 132 89 80
0.467914 -0.262981 -0.53 128 85 78
-0.138133 -0.294872 -0.592 100 101 105
-0.122918 -0.290888 -0.584 112 111 119
-0.122431 -0.292382 -0.587 217 216 224
-0.119876 -0.30583 -0.614 201 201 203
-0.11745 -0.311808 -0.626 159 161 158
-0.100041 -0.313302 -0.629 36 35 43
-0.0986857 -0.312804 -0.628 36 35 43
0.0431476 -0.265485 -0.533 206 172 162
0.0557457 -0.267477 -0.537 195 158 152
0.0613133 -0.26947 -0.541 184 144 142
0.0709714 -0.274949 -0.552 162 127 123
0.0941286 -0.298359 -0.599 118 97 114
0.100834 -0.304834 -0.612 118 100 114
0.1025 -0.306329 -0.615 118 100 114
0.18481 -0.323264 -0.649 102 123 180
0.242537 -0.322766 -0.648 167 176 219
0.262286 -0.322766 -0.648 175 192 235
0.267223 -0.322766 -0.648 255 254 255
0.283269 -0.322766 -0.648 250 248 255
0.286971 -0.322766 -0.648 251 250 255
0.288206 -0.322766 -0.648 252 251 255
0.303485 -0.323264 -0.649 203 208 230
0.319555 -0.323264 -0.649 168 191 233
0.416594 -0.310811 -0.624 123 103 115
0.37878 -0.264489 -0.531 156 105 101
0.383768 -0.261002 -0.524 153 102 98
0.38702 -0.260504 -0.523 156 103 97
0.40248 -0.257017 -0.516 164 111 103
0.431966 -0.257017 -0.516 149 103 90
1.12024 -0.311808 -0.626 202 204 190
1.12083 -0.31131 -0.625 203 205 191
1.11895 -0.308819 -0.62 205 207 193
-0.125623 -0.288 -0.576 97 98 103
-0.12264 -0.294 -0.588 206 204 215
-0.0986857 -0.314 -0.628 33 32 40
0.0709714 -0.276 -0.552 160 125 121
0.0925219 -0.298 -0.596 118 97 112
0.238466 -0.3235 -0.647 209 214 233
0.241303 -0.324 -0.648 170 179 222
0.25488 -0.324 -0.648 150 164 209
0.265989 -0.324 -0.648 234 243 252
0.267223 -0.324 -0.648 239 248 255
0.290674 -0.324 -0.648 255 255 251
0.300549 -0.324 -0.648 189 195 221
0.304251 -0.324 -0.648 214 219 248
0.310423 -0.324 -0.648 213 220 248
0.3835 -0.2625 -0.525 151 98 94
0.388269 -0.261 -0.522 156 103 97
0.422137 -0.258 -0.516 165 113 100
0.433931 -0.258 -0.516 152 104 92
0.44659 -0.2585 -0.517 134 90 77
0.447574 -0.2585 -0.517 133 89 76
0.479967 -0.2695 -0.539 125 87 76
-0.1265 -0.288595 -0.575 92 91 99
-0.122347 -0.297128 -0.592 229 226 235
0.0374038 -0.270025 -0.538 204 170 158
0.0382857 -0.269021 -0.536 202 168 156
0.0556419 -0.269021 -0.536 191 154 148
0.0696667 -0.276048 -0.55 161 126 122
0.0925219 -0.299135 -0.596 119 98 113
0.1025 -0.308671 -0.615 119 101 115
0.104177 -0.310177 -0.618 123 102 117
0.245006 -0.325234 -0.648 213 223 255
0.256114 -0.325234 -0.648 201 215 252
0.270508 -0.324732 -0.647 248 248 255
0.288993 -0.324732 -0.647 255 255 253
0.309944 -0.324732 -0.647 193 202 231
0.319803 -0.324732 -0.647 173 185 225
0.345515 -0.325736 -0.649 171 168 187
0.380507 -0.267013 -0.532 149 100 96
0.401497 -0.258983 -0.516 168 115 107
0.41169 -0.257979 -0.514 162 112 101
0.420338 -0.258481 -0.515 165 113 100
0.429017 -0.258983 -0.516 159 109 98
0.437014 -0.258481 -0.515 149 101 87
-0.139533 -0.301278 -0.598 85 86 90
-0.123857 -0.291202 -0.578 79 77 88
-0.123393 -0.292713 -0.581 74 72 85
-0.122553 -0.298759 -0.593 228 225 234
-0.119069 -0.31337 -0.622 217 218 220
0.0439971 -0.267523 -0.531 207 173 161
0.0512695 -0.26853 -0.533 203 166 158
0.0647619 -0.274072 -0.544 164 126 123
0.0824029 -0.288683 -0.573 126 103 119
0.0907733 -0.298255 -0.592 121 100 117
0.0942857 -0.302286 -0.6 117 99 115
0.0993429 -0.307324 -0.61 114 96 112
0.167762 -0.327476 -0.65 194 196 221
0.19503 -0.325461 -0.646 151 165 210
0.237233 -0.325965 -0.647 214 218 230
0.24093 -0.325965 -0.647 225 233 252
0.242163 -0.325965 -0.647 238 246 255
0.267629 -0.325461 -0.646 228 234 246
0.27255 -0.325461 -0.646 251 251 249
0.279933 -0.325461 -0.646 227 226 232
0.324732 -0.325965 -0.647 240 247 255
0.340046 -0.326469 -0.648 204 213 242
0.42768 -0.326469 -0.648 179 178 196
0.38951 -0.262485 -0.521 155 105 98
0.404643 -0.259462 -0.515 168 115 107
0.405815 -0.258958 -0.514 168 116 105
0.408752 -0.258958 -0.514 164 114 103
0.463381 -0.265004 -0.526 133 89 78
1.11957 -0.312866 -0.621 203 205 192
-0.121714 -0.303429 -0.6 229 227 232
-0.118263 -0.315566 -0.624 216 217 219
0.0371257 -0.270051 -0.534 202 169 160
0.0480429 -0.268534 -0.531 203 169 159
0.0749314 -0.282189 -0.558 145 109 119
0.181495 -0.326691 -0.646 92 118 169
0.185187 -0.326691 -0.646 113 139 190
0.240558 -0.326691 -0.646 243 252 255
0.251632 -0.326691 -0.646 196 216 251
0.292238 -0.326691 -0.646 255 255 253
0.308234 -0.326691 -0.646 210 216 230
0.311926 -0.326691 -0.646 188 201 233
0.343218 -0.327197 -0.647 197 201 226
0.353623 -0.327703 -0.648 164 180 216
0.356091 -0.327703 -0.648 114 132 178
0.378238 -0.328714 -0.65 129 159 213
0.390619 -0.328714 -0.65 189 197 216
0.3878 -0.280166 -0.554 143 94 90
0.399531 -0.260949 -0.516 160 107 101
0.401497 -0.260949 -0.516 163 110 102
0.456874 -0.263983 -0.522 134 90 79
0.4625 -0.2655 -0.525 132 90 78
1.11962 -0.31506 -0.623 202 204 191
1.11901 -0.314554 -0.622 201 205 191
-0.118073 -0.316247 -0.623 223 224 226
0.038 -0.270053 -0.532 203 170 161
0.0490543 -0.269546 -0.531 203 166 157
0.0612 -0.274114 -0.54 174 134 132
0.065919 -0.276652 -0.545 165 127 126
0.0683695 -0.278175 -0.548 162 127 123
0.0840771 -0.292896 -0.577 123 102 117
0.0925219 -0.302541 -0.596 117 99 115
0.0942857 -0.304571 -0.6 117 99 115
0.151433 -0.329445 -0.649 113 115 136
0.194729 -0.327414 -0.645 212 222 255
0.24425 -0.327922 -0.646 209 215 241
0.273357 -0.327414 -0.645 252 251 255
0.278271 -0.327414 -0.645 252 251 255
0.329152 -0.327922 -0.646 227 239 255
0.340753 -0.32843 -0.647 162 176 213
0.348686 -0.328937 -0.648 139 149 184
0.34938 -0.32843 -0.647 175 185 220
0.35431 -0.32843 -0.647 102 123 170
0.374524 -0.329952 -0.65 124 139 172
0.386905 -0.329952 -0.65 112 135 187
0.399286 -0.329952 -0.65 189 196 222
0.429 -0.329952 -0.65 182 178 201
0.42436 -0.313709 -0.618 103 105 146
0.388503 -0.280206 -0.552 138 95 89
0.389012 -0.265485 -0.523 158 106 95
0.392957 -0.263454 -0.519 158 106 95
0.416585 -0.260916 -0.514 166 117 103
0.444743 -0.261931 -0.516 144 100 87
0.0429048 -0.270048 -0.53 210 174 162
0.0722838 -0.282276 -0.554 146 114 117
0.124893 -0.329152 -0.646 74 95 152
0.143794 -0.330171 -0.648 181 179 201
0.148731 -0.330171 -0.648 184 182 204
0.16822 -0.329662 -0.647 196 200 225
0.231227 -0.328133 -0.644 222 225 232
0.232453 -0.328133 -0.644 195 197 220
0.27784 -0.328133 -0.644 249 250 255
0.29992 -0.328133 -0.644 255 254 255
0.302373 -0.328133 -0.644 254 253 255
0.3139 -0.328643 -0.645 209 223 255
0.316357 -0.328643 -0.645 205 220 253
0.342688 -0.329152 -0.646 166 187 230
0.345683 -0.329662 -0.647 176 195 238
0.346915 -0.329662 -0.647 114 133 176
0.381365 -0.330681 -0.649 114 146 195
0.38631 -0.330681 -0.649 102 127 183
0.391254 -0.330681 -0.649 188 196 217
0.397435 -0.330681 -0.649 190 195 217
0.421571 -0.33119 -0.65 169 181 223
0.385513 -0.274633 -0.539 136 91 86
0.3885 -0.2675 -0.525 155 103 92
0.418543 -0.261895 -0.514 168 119 105
0.42148 -0.261895 -0.514 164 115 100
1.11833 -0.315395 -0.619 201 205 191
-0.0983714 -0.320154 -0.626 35 36 41
0.0428238 -0.270546 -0.529 208 174 162
0.0510771 -0.271569 -0.531 199 162 153
0.0543152 -0.272591 -0.533 194 155 148
0.141326 -0.331406 -0.648 180 180 206
0.145029 -0.331406 -0.648 178 180 195
0.283973 -0.32936 -0.644 221 223 238
0.342157 -0.329871 -0.645 125 150 204
0.343386 -0.329871 -0.645 141 166 220
0.358007 -0.330894 -0.647 165 182 212
0.416619 -0.332429 -0.65 55 90 156
0.426524 -0.332429 -0.65 168 177 206
0.394494 -0.285889 -0.559 131 87 84
0.392021 -0.283331 -0.554 131 86 81
0.394934 -0.265431 -0.519 161 109 98
0.3979 -0.265431 -0.519 164 112 101
0.40129 -0.264409 -0.517 166 116 105
0.407773 -0.262874 -0.514 167 118 104
0.407957 -0.262363 -0.513 170 121 107
0.413648 -0.262874 -0.514 165 116 102
0.414627 -0.262874 -0.514 163 114 100
0.419522 -0.262874 -0.514 165 116 102
0.43211 -0.263386 -0.515 161 108 92
0.461619 -0.267989 -0.524 131 89 77
1.11839 -0.317597 -0.621 201 205 190
-0.150595 -0.320833 -0.625 74 75 80
-0.144436 -0.315187 -0.614 79 79 87
-0.121933 -0.302867 -0.59 70 69 77
-0.120903 -0.305947 -0.596 164 163 171
-0.119287 -0.316727 -0.617 230 229 234
-0.116071 -0.320833 -0.625 198 197 202
0.0359057 -0.27258 -0.531 206 170 158
0.0377857 -0.271553 -0.529 206 169 160
0.0468543 -0.271553 -0.529 205 168 159
0.0510771 -0.27258 -0.531 198 161 152
0.0532 -0.273093 -0.532 195 156 149
0.0576838 -0.275147 -0.536 182 148 146
0.0722838 -0.284387 -0.554 146 111 117
0.087621 -0.300813 -0.586 123 102 119
0.157129 -0.332127 -0.647 185 193 204
0.159593 -0.332127 -0.647 186 196 208
0.160826 -0.332127 -0.647 188 198 210
0.181877 -0.330073 -0.643 138 152 189
0.234542 -0.330073 -0.643 240 244 253
0.250853 -0.330587 -0.644 209 226 255
0.337947 -0.330587 -0.644 120 140 177
0.345843 -0.3311 -0.645 107 135 198
0.399291 -0.33264 -0.648 179 185 209
0.40176 -0.33264 -0.648 177 182 212
0.419687 -0.333153 -0.649 129 157 204
0.388976 -0.270527 -0.527 155 105 94
0.415606 -0.263853 -0.514 162 113 99
0.424417 -0.263853 -0.514 167 115 101
0.427354 -0.263853 -0.514 161 105 88
0.4635 -0.2695 -0.525 133 91 79
0.482914 -0.2772 -0.54 123 90 83
-0.121629 -0.306051 -0.594 72 71 77
