ply
format ascii 1.0
comment Created by Open3D
element vertex 1288
property double x
property double y
property double z
property uchar red
property uchar green
property uchar blue
end_header
0.397697 -0.403354 -0.594 138 146 165
0.414233 -0.404033 -0.595 170 171 189
0.421033 -0.404033 -0.595 79 107 144
0.444833 -0.404033 -0.595 82 95 129
0.458433 -0.404033 -0.595 111 117 133
0.469767 -0.404033 -0.595 159 167 188
0.485383 -0.388415 -0.572 129 104 99
0.465768 -0.369402 -0.544 141 106 100
0.456333 -0.351747 -0.518 167 118 101
0.456437 -0.351068 -0.517 165 116 99
0.45885 -0.347672 -0.512 172 123 106
0.4862 -0.346314 -0.51 164 118 95
0.508555 -0.355142 -0.523 152 110 88
0.0210486 -0.283957 -0.417 197 156 128
0.033919 -0.285319 -0.419 194 150 125
0.0838657 -0.304386 -0.447 111 82 78
0.0873867 -0.30779 -0.452 103 78 73
0.23364 -0.404486 -0.594 99 137 199
0.235903 -0.404486 -0.594 82 122 184
0.251319 -0.403805 -0.593 213 220 239
0.277298 -0.403805 -0.593 186 202 228
0.291982 -0.403805 -0.593 97 131 179
0.337163 -0.403805 -0.593 88 116 164
0.338292 -0.403805 -0.593 70 103 156
0.34452 -0.404486 -0.594 132 139 157
0.35244 -0.404486 -0.594 192 188 202
0.36653 -0.403805 -0.593 85 114 156
0.389777 -0.404486 -0.594 147 155 176
0.40788 -0.404486 -0.594 113 124 154
0.419194 -0.404486 -0.594 114 129 152
0.428246 -0.404486 -0.594 71 95 143
0.432771 -0.404486 -0.594 100 125 165
0.446349 -0.404486 -0.594 113 127 154
0.458433 -0.405167 -0.595 141 147 163
0.470109 -0.404486 -0.594 142 149 167
0.46268 -0.366352 -0.538 139 109 98
0.45737 -0.358181 -0.526 153 113 101
0.456333 -0.352733 -0.518 169 118 101
0.462948 -0.346605 -0.509 168 119 102
0.471785 -0.344562 -0.506 171 122 105
0.499783 -0.351371 -0.516 151 109 87
0.0108771 -0.288849 -0.423 198 158 132
0.0116276 -0.287483 -0.421 197 157 131
0.0132 -0.2868 -0.42 198 156 131
0.0147648 -0.286117 -0.419 197 156 128
0.0163219 -0.285434 -0.418 198 157 129
0.0171181 -0.285434 -0.418 198 157 129
0.0178714 -0.284751 -0.417 198 157 129
0.0266086 -0.284751 -0.417 199 155 128
0.0485152 -0.287483 -0.421 179 132 112
0.0510419 -0.288166 -0.422 177 130 110
0.0526495 -0.288166 -0.422 176 129 109
0.0568029 -0.288849 -0.423 172 127 104
0.0674143 -0.292946 -0.429 144 104 96
0.0850962 -0.306603 -0.449 107 81 82
0.230988 -0.404934 -0.593 109 148 203
0.292617 -0.404251 -0.592 93 133 182
0.301638 -0.404251 -0.592 105 137 196
0.303893 -0.404251 -0.592 92 129 182
0.328701 -0.404251 -0.592 128 144 178
0.332084 -0.404251 -0.592 128 138 165
0.334339 -0.404251 -0.592 159 173 202
0.341681 -0.404934 -0.593 70 101 148
0.389121 -0.404934 -0.593 159 165 187
0.406749 -0.405617 -0.594 87 100 132
0.43769 -0.404934 -0.593 164 165 183
0.491606 -0.405617 -0.594 74 98 146
0.458829 -0.361914 -0.53 146 113 104
0.460873 -0.34894 -0.511 171 122 105
0.46793 -0.345526 -0.506 172 121 104
0.471785 -0.345526 -0.506 172 123 106
0.49202 -0.34894 -0.511 157 115 93
0.4959 -0.350306 -0.513 155 112 93
0.555273 -0.381717 -0.559 150 114 98
0.0131686 -0.286915 -0.419 196 157 128
0.0147648 -0.286915 -0.419 197 156 128
0.0274029 -0.285546 -0.417 196 152 125
0.0314495 -0.28623 -0.418 192 146 120
0.0542571 -0.28897 -0.422 173 128 109
0.0733286 -0.297871 -0.435 129 91 88
0.0807657 -0.304034 -0.444 114 84 84
0.1547 -0.407433 -0.595 181 191 218
0.156967 -0.407433 -0.595 222 227 247
0.20162 -0.406064 -0.593 105 135 187
0.264427 -0.405379 -0.592 79 111 158
0.265554 -0.405379 -0.592 102 129 184
0.277958 -0.405379 -0.592 168 188 223
0.289234 -0.405379 -0.592 194 189 211
0.290362 -0.405379 -0.592 137 168 196
0.328701 -0.405379 -0.592 157 172 205
0.355235 -0.406064 -0.593 168 173 193
0.358624 -0.406064 -0.593 93 117 161
0.365912 -0.405379 -0.592 86 118 157
0.374933 -0.405379 -0.592 173 181 200
0.389121 -0.406064 -0.593 170 172 193
0.428654 -0.406064 -0.593 64 89 130
0.43769 -0.406064 -0.593 164 163 177
0.443338 -0.406064 -0.593 71 87 121
0.444468 -0.406064 -0.593 100 116 150
0.447856 -0.406064 -0.593 160 169 184
0.465929 -0.406064 -0.593 159 166 176
0.47916 -0.406749 -0.594 79 83 120
0.488211 -0.406749 -0.594 57 80 130
0.45775 -0.35813 -0.523 159 115 102
0.457214 -0.355391 -0.519 162 119 100
0.464074 -0.34649 -0.506 171 122 105
0.46793 -0.34649 -0.506 169 121 101
0.474676 -0.34649 -0.506 169 121 101
0.0274029 -0.28634 -0.417 196 152 125
0.0412 -0.2884 -0.42 188 144 119
0.0485152 -0.289087 -0.421 175 128 110
0.0517229 -0.289087 -0.421 174 129 110
0.0619286 -0.291833 -0.425 157 109 99
0.0628857 -0.29252 -0.426 156 108 98
0.230598 -0.406507 -0.592 121 161 212
0.283117 -0.40582 -0.591 188 182 186
0.316889 -0.40582 -0.591 183 195 211
0.32702 -0.40582 -0.591 173 190 218
0.350126 -0.406507 -0.592 185 186 206
0.359147 -0.406507 -0.592 95 127 168
0.377677 -0.40582 -0.591 87 97 124
0.403124 -0.406507 -0.592 164 171 190
0.418489 -0.407193 -0.593 142 152 177
0.429784 -0.407193 -0.593 74 101 146
0.436952 -0.406507 -0.592 143 144 164
0.440335 -0.406507 -0.592 68 87 120
0.450115 -0.407193 -0.593 160 167 173
0.460281 -0.407193 -0.593 149 156 166
0.476094 -0.407193 -0.593 113 122 151
0.488519 -0.407193 -0.593 52 74 134
0.459109 -0.36256 -0.528 151 113 102
0.509588 -0.357753 -0.521 147 109 88
0.0559971 -0.291266 -0.423 168 123 104
0.0788962 -0.305037 -0.443 115 84 81
0.0896143 -0.316054 -0.459 94 75 79
0.0908829 -0.317431 -0.461 92 73 77
0.0999057 -0.329826 -0.479 90 73 79
0.22947 -0.407634 -0.592 131 172 218
0.241466 -0.406946 -0.591 119 153 199
0.26398 -0.406946 -0.591 145 172 217
0.322517 -0.406946 -0.591 143 158 187
0.328714 -0.406257 -0.59 152 167 190
0.348409 -0.406946 -0.591 181 183 206
0.359666 -0.406946 -0.591 103 130 183
0.373174 -0.406946 -0.591 175 180 199
0.3743 -0.406946 -0.591 162 172 197
0.394563 -0.406946 -0.591 167 179 191
0.406507 -0.407634 -0.592 127 138 156
0.411017 -0.407634 -0.592 68 88 121
0.4144 -0.407634 -0.592 154 161 187
0.440335 -0.407634 -0.592 81 100 130
0.44259 -0.407634 -0.592 134 149 170
0.454994 -0.407634 -0.592 163 167 179
0.458377 -0.407634 -0.592 160 166 178
0.489649 -0.408323 -0.593 35 59 121
0.493626 -0.406946 -0.591 28 51 101
0.487797 -0.393174 -0.571 124 102 104
0.482891 -0.388354 -0.564 139 104 100
0.458595 -0.354614 -0.515 168 122 98
0.46793 -0.348417 -0.506 164 116 96
0.0131057 -0.287929 -0.417 198 157 127
0.0185762 -0.286548 -0.415 199 158 126
0.0217381 -0.286548 -0.415 198 159 128
0.0225286 -0.286548 -0.415 197 158 127
0.0297857 -0.287929 -0.417 195 151 124
0.0444 -0.29 -0.42 183 137 114
0.0638467 -0.294833 -0.427 149 105 96
0.0715067 -0.299667 -0.434 125 90 86
0.0756752 -0.303119 -0.439 119 85 83
0.0801 -0.307262 -0.445 113 83 81
0.0970571 -0.327286 -0.474 87 72 77
0.226831 -0.408071 -0.591 136 151 172
0.23246 -0.408071 -0.591 127 158 204
0.235837 -0.408071 -0.591 127 164 217
0.323095 -0.407381 -0.59 174 184 211
0.329838 -0.407381 -0.59 119 130 148
0.339952 -0.407381 -0.59 184 191 217
0.347819 -0.407381 -0.59 173 180 208
0.359666 -0.408071 -0.591 95 125 177
0.37479 -0.407381 -0.59 90 104 131
0.376551 -0.408071 -0.591 65 84 117
0.42158 -0.408071 -0.591 65 88 132
0.433963 -0.408071 -0.591 144 160 196
0.435476 -0.407381 -0.59 116 123 151
0.451611 -0.408762 -0.592 135 137 136
0.473036 -0.408762 -0.592 158 164 176
0.474164 -0.408762 -0.592 156 162 174
0.479802 -0.408762 -0.592 55 69 106
0.459825 -0.353524 -0.512 168 122 99
0.0123114 -0.288723 -0.417 198 157 127
0.0170362 -0.28803 -0.416 198 157 125
0.0185762 -0.287338 -0.415 199 158 126
0.0274029 -0.288723 -0.417 194 153 123
0.0314495 -0.289415 -0.418 193 149 122
0.0612629 -0.294954 -0.426 155 108 100
0.06578 -0.297031 -0.429 140 99 93
0.0667524 -0.297724 -0.43 137 96 90
0.0687086 -0.299109 -0.432 134 95 90
0.07686 -0.30534 -0.441 114 83 81
0.260162 -0.408505 -0.59 146 167 210
0.327035 -0.407812 -0.589 172 179 198
0.35119 -0.408505 -0.59 183 185 208
0.400638 -0.408505 -0.59 174 179 182
0.419743 -0.408505 -0.59 66 90 136
0.42761 -0.408505 -0.59 41 68 121
0.433963 -0.409197 -0.591 123 142 184
0.441843 -0.409197 -0.591 150 158 177
0.455351 -0.409197 -0.591 148 154 170
0.457603 -0.409197 -0.591 131 138 156
0.466609 -0.409197 -0.591 157 161 170
0.469986 -0.409197 -0.591 152 160 171
0.489123 -0.409197 -0.591 19 44 101
0.466043 -0.349652 -0.505 172 124 104
0.0076 -0.2916 -0.42 193 154 123
0.0138667 -0.288823 -0.416 197 156 126
0.0257524 -0.288823 -0.416 194 153 123
0.0387076 -0.290906 -0.419 187 141 115
0.0404 -0.2916 -0.42 188 142 116
0.0577448 -0.294377 -0.424 158 110 100
0.0620743 -0.295766 -0.426 150 106 95
0.0639962 -0.297154 -0.428 146 103 94
0.229819 -0.409629 -0.59 146 174 214
0.230943 -0.409629 -0.59 160 188 228
0.26241 -0.409629 -0.59 190 205 234
0.290012 -0.408934 -0.589 155 169 195
0.340498 -0.408934 -0.589 181 185 210
0.346695 -0.409629 -0.59 69 91 128
0.364058 -0.408934 -0.589 77 105 152
0.393228 -0.408934 -0.589 167 176 183
0.403325 -0.408934 -0.589 162 168 182
0.40669 -0.408934 -0.589 155 163 174
0.446714 -0.409629 -0.59 108 108 116
0.46886 -0.410323 -0.591 152 156 168
0.482369 -0.410323 -0.591 34 57 111
0.477495 -0.384634 -0.554 140 105 99
0.460621 -0.363806 -0.524 159 117 101
0.459663 -0.356863 -0.514 167 122 99
0.461978 -0.353391 -0.509 169 122 102
0.462948 -0.353391 -0.509 170 123 103
0.468 -0.34992 -0.504 170 124 101
0.47472 -0.34992 -0.504 169 123 100
0.48048 -0.34992 -0.504 168 123 100
0.4901 -0.352003 -0.507 151 109 87
0.511581 -0.361029 -0.52 150 109 87
0.0419 -0.291704 -0.419 182 136 110
0.0517229 -0.293096 -0.421 171 124 104
0.0586905 -0.295881 -0.425 155 108 100
0.0639962 -0.29797 -0.428 145 102 93
0.0718362 -0.303539 -0.436 123 88 86
0.150537 -0.412145 -0.592 225 233 252
0.32088 -0.40936 -0.588 186 194 213
0.353961 -0.410056 -0.589 149 165 191
0.35957 -0.410056 -0.589 83 119 169
0.36568 -0.40936 -0.588 146 160 195
0.37128 -0.40936 -0.588 90 103 135
0.39256 -0.40936 -0.588 165 172 180
0.395471 -0.410056 -0.589 170 172 184
0.4004 -0.40936 -0.588 164 169 175
0.423519 -0.410056 -0.589 38 69 126
0.43586 -0.410056 -0.589 97 116 149
0.436982 -0.410056 -0.589 141 160 193
0.442591 -0.410056 -0.589 163 163 173
0.49672 -0.40936 -0.588 23 48 88
0.4859 -0.393348 -0.565 136 102 100
0.464026 -0.352969 -0.507 171 125 102
0.470904 -0.350184 -0.503 173 126 106
0.471862 -0.350184 -0.503 169 122 102
0.473778 -0.350184 -0.503 161 115 92
0.47761 -0.350184 -0.503 170 123 103
0.493002 -0.353665 -0.508 155 113 91
0.512571 -0.362019 -0.52 149 112 86
0.569843 -0.393348 -0.565 175 160 155
0.00523714 -0.295294 -0.423 194 155 126
0.014659 -0.290408 -0.416 199 160 127
0.0436 -0.2932 -0.42 184 137 109
0.0477133 -0.293898 -0.421 180 133 105
0.0688676 -0.302275 -0.433 132 95 86
0.224942 -0.411178 -0.589 201 208 226
0.2884 -0.41048 -0.588 180 191 213
0.294 -0.41048 -0.588 101 130 170
0.29736 -0.41048 -0.588 118 149 195
0.35 -0.41048 -0.588 163 179 215
0.356205 -0.411178 -0.589 124 143 186
0.36232 -0.41048 -0.588 56 93 148
0.36456 -0.41048 -0.588 119 146 199
0.37464 -0.41048 -0.588 152 163 183
0.38248 -0.41048 -0.588 168 177 186
0.3836 -0.41048 -0.588 176 177 182
0.465343 -0.372783 -0.534 150 112 103
0.461619 -0.365802 -0.524 157 115 99
0.459825 -0.357425 -0.512 169 124 101
0.461847 -0.356727 -0.511 169 124 101
0.46896 -0.35184 -0.504 177 131 108
0.477617 -0.350444 -0.502 173 127 104
0.479527 -0.351142 -0.503 174 130 105
0.484317 -0.351142 -0.503 163 121 97
0.0130743 -0.2912 -0.416 199 160 129
0.0370229 -0.2926 -0.418 188 141 113
0.0477133 -0.2947 -0.421 178 131 103
0.050119 -0.2947 -0.421 175 129 105
0.0586905 -0.2975 -0.425 155 107 93
0.0939505 -0.3304 -0.472 91 69 72
0.152276 -0.413 -0.59 228 235 253
0.231673 -0.4123 -0.589 167 192 232
0.23576 -0.4116 -0.588 154 172 208
0.26488 -0.4116 -0.588 156 162 186
0.335988 -0.4109 -0.587 190 194 205
0.35 -0.4116 -0.588 141 160 202
0.35112 -0.4116 -0.588 166 179 213
0.366176 -0.4109 -0.587 116 133 177
0.374003 -0.4109 -0.587 165 170 189
0.37688 -0.4116 -0.588 165 174 191
0.4109 -0.4109 -0.587 108 126 164
0.414254 -0.4109 -0.587 38 64 113
0.43512 -0.4116 -0.588 72 88 124
0.44408 -0.4116 -0.588 135 133 138
0.4452 -0.4116 -0.588 149 147 152
0.45304 -0.4116 -0.588 101 109 132
0.46648 -0.4116 -0.588 127 122 128
0.474005 -0.4123 -0.589 158 157 175
0.49112 -0.4116 -0.588 34 61 116
0.49336 -0.4116 -0.588 72 104 155
0.470412 -0.3787 -0.541 149 110 103
0.464074 -0.3542 -0.506 170 124 101
0.46803 -0.3521 -0.503 166 124 102
0.472836 -0.3514 -0.502 162 115 95
0.483354 -0.3514 -0.502 165 120 97
0.48816 -0.3528 -0.504 156 114 90
0.0052 -0.2948 -0.42 195 156 125
0.00756381 -0.293396 -0.418 199 156 122
0.0106971 -0.291992 -0.416 198 157 127
0.0330419 -0.293396 -0.418 188 143 114
0.0379095 -0.294098 -0.419 186 141 112
0.0387076 -0.294098 -0.419 185 138 112
0.050119 -0.295502 -0.421 173 127 103
0.0586905 -0.29831 -0.425 152 106 91
0.0678857 -0.303223 -0.432 132 93 86
0.0688676 -0.303925 -0.433 130 91 84
0.0869914 -0.322174 -0.459 94 75 71
0.21784 -0.41272 -0.588 214 215 243
0.22904 -0.41272 -0.588 142 167 207
0.23016 -0.41272 -0.588 145 170 210
0.23464 -0.41272 -0.588 148 173 214
0.25592 -0.41272 -0.588 206 212 238
0.272256 -0.412018 -0.587 210 214 226
0.324807 -0.412018 -0.587 190 194 205
0.337106 -0.412018 -0.587 182 190 201
0.344932 -0.412018 -0.587 172 176 185
0.349405 -0.412018 -0.587 105 121 157
0.367294 -0.412018 -0.587 77 100 150
0.368412 -0.412018 -0.587 57 80 130
0.36953 -0.412018 -0.587 64 81 124
0.374003 -0.412018 -0.587 164 178 187
0.378475 -0.412018 -0.587 165 174 181
0.395247 -0.412018 -0.587 132 137 156
0.399038 -0.411316 -0.586 133 130 137
0.426553 -0.412018 -0.587 45 72 127
0.431026 -0.412018 -0.587 31 54 104
0.43438 -0.412018 -0.587 74 93 136
0.453388 -0.412018 -0.587 110 117 143
0.4732 -0.41272 -0.588 146 149 164
0.4788 -0.41272 -0.588 92 114 151
0.496147 -0.411316 -0.586 128 141 173
0.460961 -0.365692 -0.521 162 116 100
0.463973 -0.356568 -0.508 171 125 102
0.468988 -0.353058 -0.503 167 122 101
0.478574 -0.351654 -0.501 165 120 97
0.49882 -0.35727 -0.509 152 111 89
0.0153771 -0.291377 -0.414 198 157 125
0.0169543 -0.291377 -0.414 198 159 126
0.0412 -0.2956 -0.42 184 138 112
0.0526495 -0.297008 -0.422 163 116 96
0.0595 -0.299119 -0.425 150 104 89
0.0670629 -0.304046 -0.432 131 91 83
0.0873705 -0.324456 -0.461 95 75 74
0.148031 -0.415951 -0.591 196 209 241
0.238713 -0.413136 -0.587 168 184 217
0.257721 -0.413136 -0.587 204 213 230
0.309743 -0.412432 -0.586 131 144 179
0.345461 -0.412432 -0.586 163 173 200
0.373366 -0.412432 -0.586 164 174 186
0.39569 -0.412432 -0.586 108 115 133
0.398357 -0.411729 -0.585 152 151 157
0.426943 -0.412432 -0.586 66 93 148
0.434756 -0.412432 -0.586 84 103 145
0.435872 -0.412432 -0.586 120 131 159
0.438852 -0.413136 -0.587 152 155 170
0.496147 -0.412432 -0.586 134 145 173
0.46282 -0.359647 -0.511 168 121 101
0.476666 -0.352609 -0.501 171 125 102
0.492014 -0.355424 -0.505 154 113 91
0.01932 -0.292166 -0.414 195 155 120
0.050119 -0.297106 -0.421 169 123 100
0.0595 -0.299929 -0.425 149 103 90
0.0614067 -0.30134 -0.427 143 100 91
0.075521 -0.312631 -0.443 116 83 78
0.0825848 -0.320394 -0.454 101 75 74
0.0964571 -0.338743 -0.48 90 69 74
0.116278 -0.369794 -0.524 156 169 201
0.15176 -0.41496 -0.588 229 227 248
0.22865 -0.414254 -0.587 131 154 196
0.320905 -0.413549 -0.586 188 196 209
0.324253 -0.413549 -0.586 176 180 191
0.373366 -0.413549 -0.586 158 164 178
0.380063 -0.413549 -0.586 124 131 137
0.400586 -0.412843 -0.585 138 139 143
0.455964 -0.413549 -0.586 141 143 158
0.485812 -0.414254 -0.587 47 74 121
0.48693 -0.414254 -0.587 41 73 130
0.469853 -0.379674 -0.538 146 110 96
0.475711 -0.353563 -0.501 166 120 97
0.486223 -0.354269 -0.502 157 115 93
0.562884 -0.392377 -0.556 142 115 96
0.000406667 -0.302153 -0.427 189 150 119
0.00909048 -0.293662 -0.415 197 156 124
0.0177429 -0.292954 -0.414 199 158 126
0.0241095 -0.293662 -0.415 192 148 119
0.0297857 -0.295077 -0.417 191 145 119
0.0346343 -0.295785 -0.418 188 144 117
0.0362267 -0.295785 -0.418 185 141 114
0.0452 -0.2972 -0.42 176 130 106
0.046 -0.2972 -0.42 176 130 106
0.0510419 -0.298615 -0.422 169 123 100
0.0634762 -0.304276 -0.43 137 94 87
0.0691857 -0.307814 -0.435 126 89 83
0.0779057 -0.316306 -0.447 111 80 78
0.0966581 -0.340365 -0.481 89 70 72
0.0999238 -0.345318 -0.488 91 71 72
0.148905 -0.417495 -0.59 215 219 246
0.149774 -0.416788 -0.589 220 224 251
0.249469 -0.414665 -0.586 180 194 223
0.257282 -0.414665 -0.586 204 214 224
0.258398 -0.414665 -0.586 207 215 228
0.344871 -0.413957 -0.585 170 177 185
0.348214 -0.413957 -0.585 102 122 149
0.369386 -0.413957 -0.585 99 127 175
0.397676 -0.41325 -0.584 163 163 173
0.406575 -0.41325 -0.584 145 156 174
0.449267 -0.414665 -0.586 151 152 170
0.462661 -0.414665 -0.586 155 157 170
0.486101 -0.414665 -0.586 41 76 130
0.490566 -0.414665 -0.586 62 84 125
0.495566 -0.41325 -0.584 92 95 110
0.479977 -0.390606 -0.552 141 107 98
0.461775 -0.362301 -0.512 166 121 100
0.462948 -0.360178 -0.509 170 123 103
0.46803 -0.355932 -0.503 170 122 100
0.479524 -0.35381 -0.5 174 128 105
0.000404762 -0.301548 -0.425 189 150 119
0.00985714 -0.293743 -0.414 191 152 119
0.0346343 -0.296581 -0.418 188 144 117
0.0403038 -0.29729 -0.419 181 137 110
0.046 -0.298 -0.42 177 131 107
0.0768819 -0.316448 -0.446 111 80 77
0.0854286 -0.326381 -0.46 91 72 68
0.211518 -0.415781 -0.586 213 220 239
0.290271 -0.415071 -0.585 134 161 208
0.335957 -0.415071 -0.585 178 184 198
0.345394 -0.414362 -0.584 165 170 174
0.364929 -0.415071 -0.585 35 70 128
0.367642 -0.414362 -0.584 43 70 125
0.370979 -0.414362 -0.584 163 176 211
0.409912 -0.414362 -0.584 71 85 112
0.425486 -0.414362 -0.584 101 130 174
0.438471 -0.415071 -0.585 122 128 150
0.449614 -0.415071 -0.585 152 154 169
0.451843 -0.415071 -0.585 148 147 161
0.47159 -0.415781 -0.586 65 73 94
0.485271 -0.415071 -0.585 57 89 138
0.462946 -0.369662 -0.521 162 116 100
0.462346 -0.366824 -0.517 164 119 100
0.461847 -0.362567 -0.511 166 121 102
0.462886 -0.361857 -0.51 169 124 105
0.465038 -0.359019 -0.506 167 120 102
0.497808 -0.359019 -0.506 152 109 90
0.0145533 -0.29382 -0.413 203 159 130
0.0241095 -0.295243 -0.415 195 149 123
0.0329629 -0.296666 -0.417 188 144 119
0.0411019 -0.298089 -0.419 181 135 109
0.0625114 -0.305203 -0.429 137 94 87
0.0714943 -0.312317 -0.439 117 83 81
0.0770543 -0.318009 -0.447 110 79 76
0.145287 -0.419031 -0.589 219 227 250
0.1484 -0.41832 -0.588 145 152 181
0.239014 -0.416186 -0.585 189 203 229
0.330386 -0.416186 -0.585 145 153 172
0.333729 -0.416186 -0.585 130 136 150
0.394339 -0.415474 -0.584 161 170 179
0.395451 -0.415474 -0.584 162 168 180
0.396564 -0.415474 -0.584 161 167 179
0.398106 -0.414763 -0.583 161 163 176
0.401437 -0.414763 -0.583 170 171 176
0.442929 -0.416186 -0.585 153 154 172
0.4485 -0.416186 -0.585 152 154 169
0.476357 -0.416186 -0.585 147 151 163
0.480814 -0.416186 -0.585 102 116 143
0.467967 -0.359271 -0.505 174 128 105
0.468 -0.35856 -0.504 173 127 104
0.490048 -0.357137 -0.502 161 118 99
0.500723 -0.360694 -0.507 153 108 87
0.522497 -0.371366 -0.522 147 106 86
0.0426981 -0.298887 -0.419 177 132 109
0.0716571 -0.313867 -0.44 118 82 84
0.0736667 -0.315293 -0.442 113 79 80
0.0927381 -0.338833 -0.475 90 70 72
0.1155 -0.3745 -0.525 212 217 237
0.227871 -0.4173 -0.585 112 142 192
0.231214 -0.4173 -0.585 146 179 230
0.294225 -0.416587 -0.584 48 85 153
0.332046 -0.416587 -0.584 158 165 183
0.373204 -0.416587 -0.584 166 174 197
0.377653 -0.416587 -0.584 161 161 171
0.384328 -0.416587 -0.584 166 168 180
0.390332 -0.415873 -0.583 157 167 177
0.391443 -0.415873 -0.583 163 172 181
0.438834 -0.416587 -0.584 93 99 125
0.447733 -0.416587 -0.584 150 153 168
0.448846 -0.416587 -0.584 151 154 169
0.449958 -0.416587 -0.584 149 153 165
0.487779 -0.416587 -0.584 90 108 144
0.464038 -0.370933 -0.52 162 117 94
0.463973 -0.362373 -0.508 167 122 101
0.46803 -0.358807 -0.503 168 122 99
0.472849 -0.35738 -0.501 144 94 71
0.474762 -0.356667 -0.5 171 125 101
0.480476 -0.356667 -0.5 171 124 104
0.512531 -0.366653 -0.514 147 109 88
0.519494 -0.37022 -0.519 149 108 88
-0.000400952 -0.301115 -0.421 192 153 124
0.0240514 -0.296109 -0.414 194 150 123
0.0675286 -0.311129 -0.435 124 86 83
0.0696629 -0.313274 -0.438 118 82 82
0.0858 -0.33044 -0.462 94 68 69
0.0978638 -0.348321 -0.487 93 71 73
0.309268 -0.416984 -0.583 191 191 203
0.330367 -0.416984 -0.583 163 170 188
0.353687 -0.416984 -0.583 111 140 182
0.355908 -0.416984 -0.583 69 103 148
0.368123 -0.416984 -0.583 71 90 123
0.375896 -0.416984 -0.583 162 164 177
0.38589 -0.416984 -0.583 169 167 180
0.398531 -0.416269 -0.582 167 165 178
0.400749 -0.416269 -0.582 160 162 175
0.419205 -0.416984 -0.583 71 97 146
0.425868 -0.416984 -0.583 113 135 159
0.43031 -0.416984 -0.583 141 152 170
0.450298 -0.416984 -0.583 150 153 168
0.456961 -0.416984 -0.583 148 149 167
0.465845 -0.416984 -0.583 99 97 118
0.471093 -0.417699 -0.584 110 116 138
0.473318 -0.417699 -0.584 144 148 160
0.486944 -0.416984 -0.583 99 115 149
0.467154 -0.377646 -0.528 154 113 93
0.489071 -0.358334 -0.501 165 120 99
0.493898 -0.359765 -0.503 157 112 91
0.517492 -0.369778 -0.517 149 108 86
0.0137667 -0.29618 -0.413 197 153 124
0.0518457 -0.302634 -0.422 158 112 97
0.09164 -0.339926 -0.474 90 68 70
0.22637 -0.418811 -0.584 113 135 176
0.253067 -0.418811 -0.584 204 210 224
0.256404 -0.418811 -0.584 198 204 218
0.357018 -0.418094 -0.583 86 118 167
0.392989 -0.417377 -0.582 168 167 181
0.424029 -0.417377 -0.582 86 109 151
0.468066 -0.418094 -0.583 109 116 135
0.475543 -0.418811 -0.584 150 150 162
0.490543 -0.417377 -0.582 69 88 120
0.467273 -0.377934 -0.527 157 119 98
0.465611 -0.375783 -0.524 158 120 97
0.46333 -0.370763 -0.517 160 119 97
0.466002 -0.362874 -0.506 174 128 104
0.476664 -0.357854 -0.499 172 126 103
0.526487 -0.375066 -0.523 149 108 86
0.00670286 -0.297686 -0.414 200 156 127
0.00749143 -0.297686 -0.414 200 156 127
0.0145533 -0.296967 -0.413 199 156 124
0.02006 -0.296967 -0.413 193 149 120
0.0834943 -0.330043 -0.459 93 69 69
0.247081 -0.419205 -0.583 204 211 230
0.346429 -0.418486 -0.582 108 128 153
0.350863 -0.418486 -0.582 135 149 175
0.35308 -0.418486 -0.582 139 155 189
0.36084 -0.418486 -0.582 134 161 206
0.371926 -0.418486 -0.582 77 91 118
0.388993 -0.417767 -0.581 162 165 180
0.391207 -0.417767 -0.581 164 166 178
0.427354 -0.418486 -0.582 126 132 154
0.448417 -0.418486 -0.582 146 147 165
0.487217 -0.418486 -0.582 90 105 146
0.48732 -0.401229 -0.558 135 108 99
0.482256 -0.396195 -0.551 143 110 101
0.4665 -0.3775 -0.525 158 120 99
-0.00199524 -0.302079 -0.419 193 154 123
0.01062 -0.297753 -0.413 195 154 122
0.0386152 -0.301358 -0.418 179 135 110
0.0658714 -0.313614 -0.435 124 86 85
0.09522 -0.34822 -0.483 91 71 70
0.223761 -0.420315 -0.583 117 143 194
0.253744 -0.420315 -0.583 197 203 217
0.255965 -0.420315 -0.583 169 175 189
0.346429 -0.419594 -0.582 141 156 185
0.35308 -0.419594 -0.582 151 166 197
0.3901 -0.418873 -0.581 168 172 181
0.454287 -0.418873 -0.581 118 128 155
0.463937 -0.419594 -0.582 51 63 87
0.465046 -0.419594 -0.582 100 112 136
0.471697 -0.419594 -0.582 144 144 146
0.472806 -0.419594 -0.582 135 135 137
0.496837 -0.417431 -0.579 137 136 150
0.464941 -0.366244 -0.508 174 128 105
0.465957 -0.365523 -0.507 172 125 105
0.467967 -0.364081 -0.505 172 126 102
0.472849 -0.361197 -0.501 172 125 105
0.476664 -0.359755 -0.499 170 122 100
0.508515 -0.366965 -0.509 154 112 90
0.539597 -0.382826 -0.531 139 97 73
0.571356 -0.40085 -0.556 170 154 139
-0.00119143 -0.301431 -0.417 193 152 122
0.0168724 -0.297817 -0.412 196 152 123
0.0256286 -0.299263 -0.414 187 143 114
0.0288524 -0.299986 -0.415 187 142 113
0.031299 -0.300709 -0.416 187 141 115
0.103747 -0.362874 -0.502 90 74 77
0.251091 -0.420703 -0.582 202 209 225
0.341407 -0.41998 -0.581 106 116 141
0.35358 -0.41998 -0.581 109 132 164
0.402686 -0.419257 -0.58 93 105 127
0.468371 -0.420703 -0.582 142 140 151
0.476131 -0.420703 -0.582 147 152 158
0.469166 -0.381669 -0.528 159 116 100
0.4675 -0.3795 -0.525 159 116 100
0.463793 -0.36938 -0.511 171 125 102
0.477606 -0.359983 -0.498 177 129 107
0.479503 -0.359983 -0.498 175 127 105
0.48807 -0.360706 -0.499 162 118 93
0.506517 -0.366489 -0.507 157 112 89
0.00747333 -0.299327 -0.413 199 158 126
0.0184867 -0.299327 -0.413 195 151 122
0.0386152 -0.30295 -0.418 178 132 108
0.0394114 -0.30295 -0.418 177 131 107
0.046 -0.3044 -0.42 168 122 99
0.06006 -0.310923 -0.429 136 93 84
0.07552 -0.324693 -0.448 104 74 72
0.0767143 -0.326143 -0.45 103 73 71
0.100414 -0.358757 -0.495 88 70 70
0.103953 -0.364555 -0.503 90 75 78
0.105954 -0.368179 -0.508 95 80 83
0.109589 -0.373977 -0.516 196 186 194
0.14343 -0.42471 -0.586 191 192 197
0.251091 -0.421811 -0.582 202 209 225
0.288287 -0.421087 -0.581 148 171 212
0.344133 -0.420362 -0.58 150 160 187
0.369543 -0.420362 -0.58 149 155 171
0.376171 -0.420362 -0.58 173 180 198
0.43326 -0.421087 -0.581 156 155 161
0.435473 -0.421087 -0.581 148 149 167
0.46978 -0.421087 -0.581 146 145 153
0.484167 -0.421087 -0.581 87 107 142
0.498181 -0.418912 -0.578 131 130 138
0.465123 -0.376151 -0.519 164 119 96
0.47381 -0.362381 -0.5 176 128 106
0.475713 -0.361656 -0.499 173 125 102
0.479503 -0.360931 -0.498 175 127 104
0.494797 -0.363106 -0.501 153 109 84
0.00354 -0.300113 -0.413 195 154 122
0.0121638 -0.299387 -0.412 195 154 122
0.0192733 -0.300113 -0.413 193 149 120
0.0426981 -0.304473 -0.419 171 125 102
0.05358 -0.30738 -0.423 150 106 93
0.0545143 -0.308107 -0.424 148 104 91
0.0793 -0.330633 -0.455 96 72 70
0.0975333 -0.356067 -0.49 89 73 73
0.10082 -0.361153 -0.497 90 71 75
0.255087 -0.422193 -0.581 184 190 202
0.349657 -0.421467 -0.58 146 152 168
0.372857 -0.421467 -0.58 97 104 122
0.386551 -0.42074 -0.579 55 78 110
0.393169 -0.42074 -0.579 157 162 181
0.394271 -0.42074 -0.579 154 155 173
0.401991 -0.42074 -0.579 158 166 179
0.430305 -0.421467 -0.58 104 108 111
0.436933 -0.421467 -0.58 152 148 162
0.445771 -0.421467 -0.58 96 107 135
0.456819 -0.421467 -0.58 87 102 125
0.46978 -0.422193 -0.581 95 99 98
0.481124 -0.421467 -0.58 72 96 134
0.492426 -0.42074 -0.579 122 128 144
0.46793 -0.367693 -0.506 171 125 101
0.468929 -0.366967 -0.505 168 124 99
0.480451 -0.36188 -0.498 175 129 105
0.482327 -0.361153 -0.497 169 123 99
0.485194 -0.36188 -0.498 169 123 99
0.490921 -0.362607 -0.499 161 115 91
0.511424 -0.369873 -0.509 156 112 87
-0.00357429 -0.303814 -0.417 195 154 124
0.0121343 -0.299443 -0.411 194 153 121
0.0264171 -0.301629 -0.414 180 135 104
0.0304333 -0.302357 -0.415 185 140 111
0.0328838 -0.303086 -0.416 186 141 110
0.0345514 -0.303814 -0.417 185 140 111
0.0450924 -0.305271 -0.419 167 119 99
0.0527743 -0.308186 -0.423 149 106 89
0.0545143 -0.308914 -0.424 147 105 91
0.061019 -0.313286 -0.43 132 94 83
0.0629486 -0.314743 -0.432 128 90 81
0.0758571 -0.327857 -0.45 102 74 70
0.365597 -0.421843 -0.579 186 190 201
0.446876 -0.422571 -0.58 97 111 140
0.467867 -0.422571 -0.58 135 134 142
0.468971 -0.422571 -0.58 115 119 120
0.481124 -0.422571 -0.58 63 87 121
0.483333 -0.422571 -0.58 89 109 144
0.486911 -0.421843 -0.579 61 81 118
0.47188 -0.365743 -0.502 174 127 101
0.482327 -0.3621 -0.497 171 125 101
0.48804 -0.362829 -0.498 159 113 89
0.491871 -0.363557 -0.499 155 109 85
-0.00276 -0.302417 -0.414 192 151 119
-0.00118 -0.301687 -0.413 191 150 118
0.00667048 -0.300956 -0.412 192 152 117
0.0105686 -0.300226 -0.411 196 155 123
0.0144829 -0.300226 -0.411 195 152 120
0.0377286 -0.304609 -0.417 179 135 106
0.0458905 -0.30607 -0.419 165 120 101
0.0693 -0.32214 -0.441 112 82 74
0.0746667 -0.327253 -0.448 103 75 71
0.233657 -0.423676 -0.58 138 179 233
0.35126 -0.422946 -0.579 110 121 149
0.39359 -0.422215 -0.578 137 143 175
0.432871 -0.422946 -0.579 148 150 165
0.457134 -0.422946 -0.579 97 109 135
0.498418 -0.421485 -0.577 131 129 140
0.4662 -0.378387 -0.518 162 119 100
0.47188 -0.366699 -0.502 172 126 103
0.495714 -0.365238 -0.5 158 113 90
0.499569 -0.365969 -0.501 156 112 87
0.0113514 -0.301009 -0.411 197 156 124
0.0176571 -0.301741 -0.412 190 145 114
0.0288524 -0.303938 -0.415 182 137 106
0.0296429 -0.303938 -0.415 183 138 107
0.0304333 -0.303938 -0.415 184 139 108
0.050119 -0.308332 -0.421 154 111 95
0.050921 -0.308332 -0.421 151 108 92
0.0714629 -0.325177 -0.444 107 79 75
0.0860229 -0.342754 -0.468 90 69 66
0.104987 -0.37205 -0.508 95 88 96
0.110438 -0.380838 -0.52 219 217 230
0.34735 -0.423316 -0.578 182 190 203
0.362764 -0.423316 -0.578 173 188 217
0.444234 -0.423316 -0.578 97 115 139
0.449739 -0.423316 -0.578 42 66 92
0.507405 -0.369852 -0.505 153 108 85
0.00665429 -0.301791 -0.411 199 156 122
0.0168314 -0.301791 -0.411 191 146 115
0.02242 -0.30326 -0.413 187 140 110
0.0279943 -0.303994 -0.414 181 136 105
0.0602 -0.315743 -0.43 129 91 80
0.0772257 -0.332631 -0.453 98 73 69
0.0889314 -0.348051 -0.474 89 69 68
0.095081 -0.357597 -0.487 89 71 69
0.14356 -0.427354 -0.582 215 216 234
0.364966 -0.424417 -0.578 177 183 197
0.386315 -0.423683 -0.577 60 92 141
0.390711 -0.423683 -0.577 140 158 182
0.437629 -0.424417 -0.578 147 147 159
0.455244 -0.424417 -0.578 130 140 165
0.458547 -0.424417 -0.578 105 118 135
0.468163 -0.425151 -0.579 138 144 160
0.47478 -0.425151 -0.579 139 143 154
0.476986 -0.425151 -0.579 117 124 140
0.489373 -0.424417 -0.578 71 87 120
0.470924 -0.368611 -0.502 174 128 105
0.482301 -0.364206 -0.496 159 111 88
0.483246 -0.364206 -0.496 157 109 86
0.496624 -0.366409 -0.499 161 115 91
0.57981 -0.408997 -0.557 201 191 179
0.00195714 -0.302574 -0.411 198 155 123
0.00274 -0.302574 -0.411 197 154 122
0.0152657 -0.302574 -0.411 193 150 118
0.0192267 -0.30331 -0.412 187 142 111
0.0232067 -0.304047 -0.413 186 139 111
0.0239933 -0.304047 -0.413 184 137 109
0.0369343 -0.306991 -0.417 177 130 104
0.046 -0.3092 -0.42 161 115 99
0.0468 -0.3092 -0.42 156 113 96
0.0527743 -0.311409 -0.423 144 102 88
0.089119 -0.34969 -0.475 88 68 67
0.36983 -0.424782 -0.577 190 194 205
0.370929 -0.424782 -0.577 188 192 203
0.448961 -0.424782 -0.577 72 86 112
0.456345 -0.425518 -0.578 131 136 155
0.457446 -0.425518 -0.578 138 143 162
0.459648 -0.425518 -0.578 126 134 153
0.481667 -0.425518 -0.578 85 99 134
0.48523 -0.424782 -0.577 80 98 134
0.468 -0.382819 -0.52 155 116 99
0.465676 -0.37693 -0.512 164 121 102
0.46896 -0.37104 -0.504 169 122 102
0.47476 -0.366623 -0.498 174 127 107
0.474753 -0.365887 -0.497 174 127 107
0.480411 -0.36515 -0.496 169 121 99
0.0066381 -0.302619 -0.41 199 156 122
0.0105429 -0.302619 -0.41 197 154 122
0.0207962 -0.304095 -0.412 187 141 115
0.0264171 -0.305571 -0.414 182 135 109
0.035261 -0.307048 -0.416 179 133 107
0.0537067 -0.312952 -0.424 138 98 86
0.0653419 -0.322548 -0.437 119 85 76
0.0810476 -0.339524 -0.46 92 71 68
0.107414 -0.380119 -0.515 191 186 192
0.339056 -0.425881 -0.577 190 191 209
0.388937 -0.425143 -0.576 163 179 202
0.393326 -0.425143 -0.576 125 140 173
0.428079 -0.425881 -0.577 160 160 168
0.433574 -0.425881 -0.577 109 108 113
0.43907 -0.425881 -0.577 128 136 149
0.443794 -0.425143 -0.576 147 150 167
0.444891 -0.425143 -0.576 147 150 167
0.445989 -0.425143 -0.576 138 143 162
0.455555 -0.425881 -0.577 139 142 157
0.458852 -0.425881 -0.577 132 139 157
0.471758 -0.426619 -0.578 135 142 160
0.477536 -0.425881 -0.577 90 101 121
0.483031 -0.425881 -0.577 63 82 124
0.488527 -0.425881 -0.577 83 99 132
0.492069 -0.425143 -0.576 131 134 151
0.496457 -0.425143 -0.576 84 87 102
0.469604 -0.386762 -0.524 150 114 98
0.467349 -0.380857 -0.516 160 121 104
0.467844 -0.374952 -0.508 169 123 100
0.470924 -0.370524 -0.502 174 128 105
0.481329 -0.365357 -0.495 166 118 95
0.488914 -0.366095 -0.496 164 116 93
0.577743 -0.408905 -0.554 189 174 167
-0.0019619 -0.30488 -0.412 196 155 123
0.00429524 -0.3034 -0.41 196 153 119
0.0160486 -0.30414 -0.411 191 146 115
0.0232067 -0.30562 -0.413 186 141 112
0.0434962 -0.31006 -0.419 159 113 97
0.0987276 -0.36704 -0.496 92 74 72
0.139993 -0.42994 -0.581 218 225 235
0.425881 -0.42698 -0.577 154 160 174
0.429178 -0.42698 -0.577 164 164 174
0.444891 -0.42624 -0.576 150 152 165
0.45696 -0.42624 -0.576 141 147 161
0.477806 -0.42624 -0.576 93 104 132
0.483031 -0.42698 -0.577 51 78 123
0.48768 -0.42624 -0.576 94 108 143
0.493166 -0.42624 -0.576 128 133 152
0.468893 -0.37444 -0.506 170 125 102
0.468929 -0.3737 -0.505 170 125 102
0.46896 -0.37296 -0.504 169 124 101
0.47381 -0.37 -0.5 169 123 99
0.0176571 -0.305665 -0.412 187 142 113
0.0192267 -0.305665 -0.412 189 144 113
0.0264171 -0.307149 -0.414 183 136 110
0.0520914 -0.314568 -0.424 138 98 86
0.0546429 -0.31531 -0.425 134 96 85
0.0585619 -0.319019 -0.43 129 92 84
0.0896819 -0.35463 -0.478 87 67 66
0.420024 -0.426595 -0.575 99 125 160
0.432823 -0.427337 -0.576 148 151 168
0.445214 -0.426595 -0.575 151 157 171
0.453976 -0.426595 -0.575 151 153 165
0.490971 -0.427337 -0.576 118 124 146
0.473077 -0.392468 -0.529 142 110 99
0.4716 -0.388758 -0.524 145 112 97
0.469892 -0.386532 -0.521 147 114 99
0.469077 -0.385049 -0.519 152 115 99
0.480386 -0.367243 -0.495 164 118 94
0.498474 -0.369469 -0.498 158 112 89
0.579853 -0.411015 -0.554 182 179 172
0.00273333 -0.304962 -0.41 194 151 119
0.0105429 -0.304962 -0.41 194 149 118
0.0136667 -0.304962 -0.41 194 149 118
0.0144829 -0.305706 -0.411 191 146 115
0.0192267 -0.30645 -0.412 188 143 114
0.0312238 -0.308681 -0.415 178 132 108
0.046 -0.3124 -0.42 153 110 94
0.0707762 -0.330995 -0.445 105 76 70
0.0765314 -0.33769 -0.454 95 71 67
0.220359 -0.429178 -0.577 179 190 218
0.441929 -0.42769 -0.575 161 164 171
0.4485 -0.42769 -0.575 115 124 133
0.449595 -0.42769 -0.575 115 124 131
0.452881 -0.42769 -0.575 157 159 172
0.453976 -0.42769 -0.575 153 153 163
0.476709 -0.428434 -0.576 106 114 135
0.498013 -0.426947 -0.574 103 107 118
0.4698 -0.388269 -0.522 146 112 100
0.468331 -0.383806 -0.516 160 119 101
0.468474 -0.382318 -0.514 167 122 101
0.468929 -0.375624 -0.505 170 126 101
0.477577 -0.36893 -0.496 171 122 92
0.480386 -0.368186 -0.495 167 120 94
0.523114 -0.379343 -0.51 150 108 84
0.0121048 -0.305743 -0.41 192 148 119
0.0287829 -0.308726 -0.414 181 135 111
0.0304333 -0.309471 -0.415 178 132 108
0.046 -0.3132 -0.42 154 108 93
0.0494343 -0.314691 -0.422 146 102 89
0.0815762 -0.345266 -0.463 87 69 65
0.0913505 -0.359434 -0.482 93 69 65
0.140371 -0.431023 -0.578 219 221 233
0.436787 -0.42804 -0.574 93 99 113
0.43788 -0.42804 -0.574 139 148 155
0.464929 -0.428786 -0.575 94 108 137
0.468214 -0.428786 -0.575 55 70 101
0.47232 -0.429531 -0.576 128 140 166
0.474786 -0.428786 -0.575 108 119 139
0.495827 -0.42804 -0.574 70 81 99
0.498237 -0.427294 -0.573 113 117 128
0.470066 -0.387026 -0.519 151 116 96
0.468602 -0.381806 -0.512 167 121 97
0.467795 -0.379569 -0.509 171 121 96
0.482271 -0.369129 -0.495 168 122 96
0.495528 -0.369874 -0.496 160 116 91
0.521063 -0.378823 -0.508 150 108 84
-0.00988095 -0.310262 -0.415 195 152 118
0.00429524 -0.306524 -0.41 191 148 114
0.00507619 -0.306524 -0.41 192 149 117
0.00818 -0.305776 -0.409 193 150 116
0.02242 -0.308767 -0.413 187 140 114
0.0394114 -0.312505 -0.418 161 119 95
0.0547714 -0.318486 -0.426 136 93 86
0.0625571 -0.325214 -0.435 117 84 77
0.42476 -0.429133 -0.574 164 176 202
0.43166 -0.428386 -0.573 61 75 112
0.451 -0.429133 -0.574 153 157 166
0.466307 -0.429133 -0.574 59 71 95
0.47369 -0.429881 -0.575 129 143 170
0.468474 -0.384276 -0.514 164 120 95
0.47476 -0.372314 -0.498 170 122 99
0.476632 -0.370819 -0.496 172 126 102
0.477577 -0.370819 -0.496 172 126 102
0.534233 -0.386519 -0.517 144 106 83
-0.0106714 -0.311052 -0.415 193 150 116
-0.00904667 -0.309553 -0.413 191 151 116
-0.00273333 -0.307305 -0.41 195 152 118
-0.00195238 -0.307305 -0.41 194 151 117
0.00584286 -0.306555 -0.409 195 152 120
0.0144829 -0.308054 -0.411 190 145 114
0.0239933 -0.309553 -0.413 183 138 109
0.0304333 -0.311052 -0.415 177 133 106
0.0394114 -0.313301 -0.418 159 117 93
0.0503571 -0.317049 -0.423 145 101 90
0.0646571 -0.328291 -0.438 111 80 75
0.0902448 -0.360521 -0.481 87 68 64
0.103254 -0.381508 -0.509 142 140 143
0.425111 -0.429477 -0.573 171 180 197
0.426203 -0.429477 -0.573 165 174 191
0.4393 -0.429477 -0.573 143 143 143
0.451 -0.430227 -0.574 155 158 165
0.468493 -0.430227 -0.574 40 51 79
0.492547 -0.430227 -0.574 58 74 110
0.490652 -0.412988 -0.551 130 105 100
0.469946 -0.37701 -0.503 171 127 102
0.496414 -0.371014 -0.495 162 116 92
0.503217 -0.373263 -0.498 156 110 86
0.523058 -0.381508 -0.509 150 108 84
0.00506381 -0.307334 -0.409 197 152 121
0.00818 -0.307334 -0.409 195 150 117
0.0232067 -0.31034 -0.413 184 140 111
0.0279943 -0.311091 -0.414 174 130 103
0.0434962 -0.314849 -0.419 155 108 98
0.0699286 -0.334386 -0.445 102 74 70
0.0833486 -0.351669 -0.468 89 69 68
0.0981771 -0.374211 -0.498 93 79 79
0.133534 -0.433574 -0.577 218 225 235
0.138789 -0.432823 -0.576 214 218 227
0.439623 -0.429817 -0.572 170 169 167
0.443981 -0.429817 -0.572 161 168 178
0.4674 -0.43132 -0.574 95 102 120
0.475317 -0.430569 -0.573 69 90 133
0.482957 -0.430569 -0.573 24 54 104
0.491689 -0.430569 -0.573 37 54 98
0.492433 -0.41554 -0.553 128 107 102
0.467795 -0.382477 -0.509 169 123 99
0.468854 -0.380974 -0.507 170 126 101
0.472857 -0.375714 -0.5 170 124 100
0.479415 -0.371206 -0.494 171 123 100
0.500251 -0.372709 -0.496 160 114 90
0.51204 -0.377217 -0.502 152 108 83
0.532112 -0.386234 -0.514 144 104 78
0.536203 -0.388489 -0.517 147 107 81
0.5465 -0.3945 -0.525 149 109 84
0.0105171 -0.308113 -0.409 194 149 116
0.0183971 -0.30962 -0.411 185 140 109
0.0312238 -0.312633 -0.415 169 128 100
0.0520914 -0.319413 -0.424 137 97 87
0.0530238 -0.320167 -0.425 136 96 86
0.0558438 -0.322427 -0.428 131 93 84
0.0615867 -0.326947 -0.434 114 83 78
0.0646571 -0.32996 -0.438 111 80 75
0.430907 -0.430907 -0.572 138 156 194
0.433086 -0.430907 -0.572 173 179 193
0.437444 -0.430907 -0.572 156 163 171
0.44616 -0.430907 -0.572 136 144 157
0.455966 -0.430907 -0.572 151 156 159
0.458145 -0.430907 -0.572 162 167 171
0.48514 -0.43166 -0.573 47 79 120
0.489506 -0.43166 -0.573 29 52 96
0.491689 -0.43166 -0.573 29 47 95
0.478685 -0.401527 -0.533 140 112 101
0.4735 -0.3955 -0.525 147 116 98
0.468765 -0.383447 -0.509 170 123 103
0.46992 -0.37968 -0.504 175 129 106
0.488774 -0.371393 -0.493 168 120 97
0.497357 -0.3729 -0.495 163 117 91
-0.00194762 -0.308892 -0.409 196 153 119
0.0128857 -0.309648 -0.41 191 146 117
0.02484 -0.312669 -0.414 177 133 106
0.0272057 -0.312669 -0.414 170 126 99
0.03614 -0.314934 -0.417 165 123 98
0.0369343 -0.314934 -0.417 163 121 97
0.0512838 -0.320221 -0.424 140 98 84
0.05396 -0.321731 -0.426 131 95 81
0.069081 -0.336081 -0.445 102 74 71
0.0702429 -0.337591 -0.447 97 73 69
0.0921086 -0.367046 -0.486 89 71 71
0.0968381 -0.374598 -0.496 89 79 78
0.133303 -0.435017 -0.576 212 216 228
0.442117 -0.431241 -0.571 159 163 175
0.443205 -0.431241 -0.571 155 159 171
0.471219 -0.431996 -0.572 32 50 86
0.483204 -0.431996 -0.572 31 58 101
0.488651 -0.431996 -0.572 35 57 104
0.468765 -0.384416 -0.509 168 123 104
0.472857 -0.377619 -0.5 169 121 98
0.4785 -0.373843 -0.495 173 127 103
0.482238 -0.373088 -0.494 171 123 100
0.488774 -0.372332 -0.493 168 121 95
0.525967 -0.384416 -0.509 146 104 79
0.543329 -0.393479 -0.521 150 111 82
-0.0147295 -0.316486 -0.418 191 151 116
-0.0130429 -0.314214 -0.415 190 150 115
-0.00898095 -0.310429 -0.41 193 153 117
-0.00741905 -0.310429 -0.41 192 152 116
0.0183971 -0.311186 -0.411 183 138 109
0.0207962 -0.311943 -0.412 182 137 108
0.0336762 -0.314971 -0.416 170 125 102
0.0578771 -0.326329 -0.431 124 90 78
0.452993 -0.432329 -0.571 123 135 149
0.457344 -0.432329 -0.571 105 105 105
0.458431 -0.432329 -0.571 145 145 145
0.484293 -0.433086 -0.572 23 47 93
0.481297 -0.374029 -0.494 172 124 101
0.482238 -0.374029 -0.494 170 122 99
0.485018 -0.373271 -0.493 166 118 95
0.488774 -0.373271 -0.493 169 122 96
0.495411 -0.374029 -0.494 167 120 94
0.499243 -0.374786 -0.495 163 116 90
0.50993 -0.377814 -0.499 155 111 84
0.526936 -0.385386 -0.509 150 108 83
-0.0121638 -0.312728 -0.412 192 149 115
-0.0097619 -0.31121 -0.41 195 152 118
0.0183971 -0.311969 -0.411 183 138 109
0.0336762 -0.315764 -0.416 167 122 99
0.0478267 -0.320318 -0.422 146 103 87
0.0504762 -0.321836 -0.424 141 98 82
0.0638229 -0.332463 -0.438 109 81 78
0.06594 -0.33474 -0.441 106 78 75
0.0670829 -0.336258 -0.443 103 75 72
0.0761667 -0.346885 -0.457 89 69 70
0.0987686 -0.380283 -0.501 87 81 83
0.106847 -0.392428 -0.517 204 210 226
0.439171 -0.432657 -0.57 164 168 179
0.458714 -0.432657 -0.57 149 145 142
0.474746 -0.433416 -0.571 35 61 112
0.478009 -0.433416 -0.571 25 52 95
0.480184 -0.433416 -0.571 25 49 93
0.496714 -0.432657 -0.57 140 139 137
0.470924 -0.381042 -0.502 174 126 104
0.471905 -0.379524 -0.5 168 120 98
0.49253 -0.37421 -0.493 167 119 96
0.51381 -0.379524 -0.5 156 110 86
-0.00505143 -0.310469 -0.408 197 153 118
0.00349714 -0.310469 -0.408 191 146 115
0.00660571 -0.310469 -0.408 191 146 115
0.0112962 -0.31123 -0.409 189 144 111
0.0304333 -0.315795 -0.415 169 124 101
0.0369343 -0.317317 -0.417 160 115 94
0.0570562 -0.32797 -0.431 125 88 79
0.0763333 -0.348516 -0.458 90 70 71
0.0989657 -0.381998 -0.502 101 91 100
0.447857 -0.433743 -0.57 123 134 152
0.463057 -0.433743 -0.57 166 165 170
0.479343 -0.433743 -0.57 27 54 97
0.481514 -0.433743 -0.57 32 54 103
0.47212 -0.394173 -0.518 151 119 98
0.470494 -0.390369 -0.513 161 121 96
0.474753 -0.378193 -0.497 175 127 105
0.474743 -0.377432 -0.496 177 129 106
0.477557 -0.376671 -0.495 173 125 102
0.48314 -0.37515 -0.493 169 122 96
0.49253 -0.37515 -0.493 167 121 97
0.50403 -0.377432 -0.496 161 114 88
0.512782 -0.379715 -0.499 159 113 89
-0.0145886 -0.315823 -0.414 189 151 115
-0.0097381 -0.312009 -0.409 191 151 115
-0.00116571 -0.311246 -0.408 191 151 116
0.0152286 -0.312771 -0.41 184 139 108
0.0239933 -0.31506 -0.413 174 130 105
0.0328838 -0.317349 -0.416 166 121 100
0.03614 -0.318111 -0.417 160 115 94
0.0600714 -0.331843 -0.435 120 85 79
0.447857 -0.434829 -0.57 130 139 156
0.470915 -0.434066 -0.569 80 108 145
0.473083 -0.434066 -0.569 80 109 153
0.496927 -0.434066 -0.569 129 133 134
0.494697 -0.421097 -0.552 123 105 101
0.471894 -0.382191 -0.501 174 128 105
0.48872 -0.375326 -0.492 169 123 97
0.489657 -0.375326 -0.492 168 122 96
0.490594 -0.375326 -0.492 169 123 97
-0.0145533 -0.315847 -0.413 190 152 116
-0.0137333 -0.315082 -0.412 189 149 114
-0.00738286 -0.312023 -0.408 195 152 117
-0.00427429 -0.312023 -0.408 195 155 119
0.0019381 -0.311258 -0.407 186 143 109
0.00738286 -0.312023 -0.408 189 144 113
0.0112962 -0.312788 -0.409 189 144 113
0.0128543 -0.312788 -0.409 187 142 111
0.0176143 -0.314317 -0.411 180 134 108
0.0288524 -0.317376 -0.415 168 123 102
0.0353457 -0.318906 -0.417 161 116 97
0.0369343 -0.318906 -0.417 157 112 93
0.0729114 -0.346437 -0.453 93 73 74
0.0752962 -0.349496 -0.457 90 70 71
0.0828095 -0.359438 -0.47 88 69 71
0.0871324 -0.366321 -0.479 86 70 71
0.0900714 -0.37091 -0.485 86 70 70
0.470915 -0.43515 -0.569 103 130 160
0.471471 -0.392323 -0.513 164 119 98
0.470821 -0.38697 -0.506 167 122 99
0.472857 -0.382381 -0.5 171 125 101
0.47286 -0.380087 -0.497 174 128 104
0.480356 -0.377792 -0.494 172 126 100
0.484079 -0.377028 -0.493 169 123 97
0.494343 -0.376263 -0.492 163 116 90
0.496287 -0.377028 -0.493 162 115 89
0.498165 -0.377028 -0.493 164 117 91
-0.0169952 -0.318167 -0.415 190 152 116
-0.0112962 -0.313567 -0.409 189 149 113
0.0152286 -0.314333 -0.41 184 139 110
0.0232067 -0.316633 -0.413 172 126 100
0.0445057 -0.322767 -0.421 148 102 87
0.0515257 -0.3266 -0.426 134 93 87
0.0561048 -0.329667 -0.43 127 88 83
0.0663886 -0.3404 -0.444 102 76 75
0.079101 -0.355733 -0.464 90 70 71
0.09628 -0.3818 -0.498 90 76 76
0.440876 -0.435467 -0.568 180 183 192
0.444122 -0.435467 -0.568 171 171 179
0.44845 -0.435467 -0.568 176 179 188
0.451695 -0.435467 -0.568 173 173 181
0.457105 -0.435467 -0.568 171 177 173
0.463596 -0.435467 -0.568 101 111 138
0.469006 -0.435467 -0.568 140 160 184
0.485234 -0.435467 -0.568 114 132 168
0.496053 -0.435467 -0.568 120 127 146
0.49485 -0.422433 -0.551 118 99 93
0.473178 -0.396367 -0.517 154 113 93
0.472329 -0.394833 -0.515 156 115 95
0.470747 -0.389467 -0.508 168 123 100
0.471862 -0.385633 -0.503 171 127 102
0.472863 -0.3818 -0.498 171 127 102
0.475671 -0.3795 -0.495 173 127 104
0.486791 -0.376433 -0.491 172 125 99
0.499104 -0.377967 -0.493 159 112 86
0.511673 -0.381033 -0.497 159 113 89
0.585055 -0.420133 -0.548 200 190 180
1.00499 -0.4301 -0.561 118 119 113
-0.0128857 -0.315114 -0.41 193 150 116
-0.00738286 -0.313577 -0.408 194 154 118
-0.00426381 -0.312809 -0.407 197 154 119
0.0105171 -0.314346 -0.409 189 144 113
0.0160095 -0.315114 -0.41 182 137 108
0.0167905 -0.315114 -0.41 180 135 106
0.0280619 -0.318957 -0.415 167 123 98
0.042 -0.3228 -0.42 152 106 91
0.0437038 -0.323569 -0.421 150 104 91
0.0445057 -0.323569 -0.421 149 103 90
0.04794 -0.325106 -0.423 142 98 89
0.0515257 -0.327411 -0.426 133 93 85
0.0730724 -0.348931 -0.454 93 72 71
0.0756257 -0.352774 -0.459 91 71 70
0.446286 -0.436549 -0.568 171 174 181
0.490644 -0.436549 -0.568 91 100 117
0.49518 -0.43578 -0.567 95 105 132
0.472836 -0.385823 -0.502 170 126 101
0.496217 -0.378137 -0.492 164 117 91
0.516584 -0.383517 -0.499 159 113 87
0.529694 -0.389666 -0.507 146 104 80
0.995706 -0.432706 -0.563 121 124 117
0.999289 -0.431937 -0.562 109 110 105
1.01251 -0.433474 -0.564 106 108 107
1.01826 -0.435011 -0.566 105 107 106
1.03995 -0.439623 -0.572 103 103 103
0.00658952 -0.313584 -0.407 191 146 113
0.0272057 -0.318977 -0.414 166 122 97
0.037819 -0.322059 -0.418 154 109 90
0.0386152 -0.322059 -0.418 153 107 91
0.04794 -0.325911 -0.423 138 98 88
0.0632762 -0.33901 -0.44 109 81 78
0.0644057 -0.34055 -0.442 107 79 75
0.0720486 -0.349026 -0.453 95 74 71
0.0889638 -0.37291 -0.484 86 71 68
0.44874 -0.43686 -0.567 177 180 185
0.44982 -0.43686 -0.567 178 181 186
0.462514 -0.43763 -0.568 105 112 131
0.473811 -0.383697 -0.498 171 125 101
0.479415 -0.380615 -0.494 175 129 103
0.48216 -0.379074 -0.492 174 127 101
0.484034 -0.379074 -0.492 174 127 101
0.485909 -0.379074 -0.492 172 125 99
0.490532 -0.378304 -0.491 170 123 97
0.493338 -0.378304 -0.491 163 116 90
0.496217 -0.379074 -0.492 165 118 92
0.511589 -0.382156 -0.496 162 116 90
0.527605 -0.38909 -0.505 148 106 84
0.544081 -0.398336 -0.517 144 108 86
0.588214 -0.422991 -0.549 199 185 172
0.927568 -0.433008 -0.562 191 193 179
0.943962 -0.43763 -0.568 186 188 174
0.94338 -0.43686 -0.567 185 187 173
0.9537 -0.432237 -0.561 156 156 148
0.954769 -0.432237 -0.561 154 153 148
1.03522 -0.441483 -0.573 102 102 104
1.04684 -0.444565 -0.577 101 102 106
-0.00969048 -0.314359 -0.407 194 151 116
-0.00348857 -0.314359 -0.407 193 153 117
-0.00271333 -0.314359 -0.407 191 153 114
0.00426381 -0.314359 -0.407 187 148 109
0.0136333 -0.315904 -0.409 184 140 105
0.0200114 -0.318221 -0.412 178 133 100
0.0272057 -0.319766 -0.414 169 123 99
0.0280619 -0.320538 -0.415 168 122 98
0.048861 -0.32749 -0.424 134 96 83
0.05246 -0.329807 -0.427 128 94 82
0.05434 -0.331351 -0.429 122 92 82
0.0644057 -0.341392 -0.442 107 79 75
0.08622 -0.36997 -0.479 84 69 72
0.0995571 -0.390052 -0.505 148 144 158
0.45738 -0.43794 -0.567 169 174 180
0.46278 -0.43794 -0.567 74 89 112
0.49215 -0.437168 -0.566 80 91 109
0.493229 -0.437168 -0.566 59 69 96
0.4728 -0.38928 -0.504 168 124 99
0.472836 -0.387735 -0.502 166 122 97
0.476614 -0.382329 -0.495 173 127 101
0.48872 -0.380011 -0.492 170 123 95
0.492403 -0.379239 -0.491 166 119 93
0.493338 -0.379239 -0.491 165 118 92
0.518485 -0.385418 -0.499 157 111 87
0.9462 -0.440257 -0.57 172 172 160
0.952789 -0.441802 -0.572 166 166 154
0.974914 -0.435623 -0.564 108 108 106
-0.00426381 -0.315134 -0.407 194 155 116
0.0120752 -0.316683 -0.409 185 141 102
0.0152286 -0.317457 -0.41 182 137 104
0.021581 -0.319006 -0.412 175 129 103
0.0223657 -0.319006 -0.412 173 127 103
0.031299 -0.322103 -0.416 165 119 96
0.0328838 -0.322103 -0.416 161 115 91
0.042 -0.3252 -0.42 148 105 89
0.06784 -0.34688 -0.448 101 77 73
0.0723667 -0.3523 -0.455 93 72 69
0.46278 -0.43902 -0.567 81 93 117
0.465198 -0.438246 -0.566 162 168 180
0.493229 -0.438246 -0.566 89 97 120
0.475847 -0.403403 -0.521 143 111 90
0.4728 -0.39024 -0.504 168 124 99
0.492403 -0.380174 -0.491 169 122 94
0.509526 -0.382497 -0.494 162 116 92
0.526473 -0.389466 -0.503 155 110 81
-0.0193667 -0.322119 -0.415 187 147 111
-0.0144124 -0.317462 -0.409 193 150 116
-0.00734667 -0.315133 -0.406 195 153 115
0.01918 -0.319014 -0.411 176 131 100
0.0362267 -0.324448 -0.418 154 109 86
0.037819 -0.324448 -0.418 152 110 88
0.0463286 -0.328329 -0.423 140 98 84
0.0471343 -0.328329 -0.423 134 98 84
0.08604 -0.371019 -0.478 89 69 71
0.0904429 -0.378005 -0.487 86 71 66
0.101912 -0.39741 -0.512 199 196 215
