ply
format ascii 1.0
comment Created by Open3D
element vertex 1309
property double x
property double y
property double z
property uchar red
property uchar green
property uchar blue
end_header
0.9761 -0.293014 -0.645 212 214 201
0.998793 -0.292106 -0.643 210 212 198
1.00893 -0.29256 -0.644 209 211 197
1.04696 -0.29256 -0.644 207 209 196
1.05881 -0.292106 -0.643 208 210 196
1.07749 -0.291197 -0.641 205 207 193
1.08848 -0.291197 -0.641 206 208 194
1.0897 -0.291197 -0.641 206 208 194
1.10577 -0.290289 -0.639 204 207 190
1.11551 -0.290289 -0.639 205 208 191
-0.126496 -0.27417 -0.601 106 107 112
-0.107926 -0.276451 -0.606 75 75 83
-0.103333 -0.282838 -0.62 64 63 71
-0.0986857 -0.286488 -0.628 58 58 66
-0.0954 -0.2874 -0.63 59 59 67
-0.0874143 -0.288769 -0.633 66 66 74
-0.0669571 -0.294243 -0.645 73 72 80
0.0962143 -0.20483 -0.449 200 162 143
0.104343 -0.200724 -0.44 203 162 144
0.107206 -0.199811 -0.438 206 165 147
0.108874 -0.199811 -0.438 204 163 145
0.130268 -0.199355 -0.437 174 131 112
0.145557 -0.202092 -0.443 148 98 91
0.1805 -0.21669 -0.475 161 159 180
0.192425 -0.225358 -0.494 229 232 237
0.348227 -0.261853 -0.574 135 89 99
0.342602 -0.253642 -0.556 134 83 92
0.343517 -0.250449 -0.549 133 86 92
0.349071 -0.247711 -0.543 129 93 97
0.359785 -0.247255 -0.542 95 72 78
0.37513 -0.24315 -0.533 131 87 84
0.37544 -0.242693 -0.532 132 87 84
0.38924 -0.239956 -0.526 139 90 85
0.390242 -0.239956 -0.526 140 91 86
0.391244 -0.239956 -0.526 140 91 86
0.394747 -0.239044 -0.524 140 91 84
0.395986 -0.238588 -0.523 139 90 83
0.405027 -0.236307 -0.518 139 92 82
0.420813 -0.236307 -0.518 134 89 83
0.903951 -0.295155 -0.647 215 216 208
0.940699 -0.294699 -0.646 213 215 204
0.950543 -0.294699 -0.646 213 215 204
0.953004 -0.294699 -0.646 212 214 203
0.960387 -0.294699 -0.646 212 214 201
1.00247 -0.29333 -0.643 210 212 199
1.02084 -0.29333 -0.643 209 211 197
1.05349 -0.292874 -0.642 208 210 196
1.08922 -0.291962 -0.64 206 208 194
1.10334 -0.291506 -0.639 203 205 191
1.11255 -0.29105 -0.638 205 208 191
1.12537 -0.290593 -0.637 204 206 192
1.12602 -0.290137 -0.636 204 206 192
1.13094 -0.289225 -0.634 203 206 189
-0.10854 -0.276231 -0.603 81 81 89
-0.1073 -0.27898 -0.609 78 77 85
-0.106663 -0.280354 -0.612 75 74 82
-0.1035 -0.284477 -0.621 66 66 76
-0.0920914 -0.289516 -0.632 58 59 64
-0.0806867 -0.291807 -0.637 71 70 78
-0.0739829 -0.294097 -0.642 73 72 78
0.0951352 -0.207059 -0.452 199 160 143
0.096 -0.205227 -0.448 202 161 143
0.0991476 -0.202936 -0.443 206 163 144
0.107793 -0.200188 -0.437 204 163 143
0.109458 -0.200188 -0.437 203 162 142
0.120279 -0.200188 -0.437 197 155 133
0.142703 -0.202478 -0.442 154 101 93
0.144713 -0.202936 -0.443 148 98 91
0.34477 -0.257908 -0.563 132 85 91
0.353209 -0.248746 -0.543 134 91 98
0.362571 -0.247371 -0.54 118 89 91
0.369427 -0.246455 -0.538 136 96 96
0.384407 -0.242332 -0.529 143 95 91
0.386697 -0.241874 -0.528 140 92 88
0.407987 -0.237293 -0.518 145 97 87
0.4218 -0.237293 -0.518 137 93 84
0.47472 -0.252869 -0.552 127 90 82
0.955465 -0.29593 -0.646 212 214 203
0.981647 -0.294555 -0.643 211 213 200
0.988995 -0.294555 -0.643 210 212 199
0.99022 -0.294555 -0.643 210 212 199
1.00825 -0.294097 -0.642 209 211 197
1.02292 -0.294097 -0.642 209 211 197
1.0372 -0.293639 -0.641 208 210 196
1.04371 -0.294097 -0.642 207 209 196
1.05673 -0.293639 -0.641 207 209 195
1.06804 -0.292723 -0.639 207 209 195
1.08021 -0.292723 -0.639 205 207 193
1.11202 -0.291807 -0.637 206 208 194
1.1303 -0.29089 -0.635 203 205 192
1.13151 -0.29089 -0.635 203 205 192
1.13277 -0.289974 -0.633 203 205 192
-0.120195 -0.27002 -0.587 102 103 108
-0.106663 -0.28152 -0.612 77 75 86
-0.101078 -0.28888 -0.628 63 63 71
-0.0763095 -0.29486 -0.641 72 71 77
-0.0739829 -0.29532 -0.642 74 73 79
-0.0634676 -0.29762 -0.647 73 72 80
0.0940657 -0.20746 -0.451 200 161 144
0.108626 -0.20102 -0.437 206 163 144
0.16006 -0.20838 -0.453 112 76 76
0.35114 -0.24978 -0.543 149 104 111
0.352558 -0.24932 -0.542 142 97 102
0.360873 -0.24794 -0.539 127 93 92
0.38924 -0.24196 -0.526 139 91 87
0.393749 -0.24104 -0.524 140 91 86
0.407 -0.23828 -0.518 143 94 87
0.41292 -0.23828 -0.518 148 98 89
0.479414 -0.2553 -0.555 125 87 84
0.917129 -0.2967 -0.645 214 215 207
0.927973 -0.29624 -0.644 213 215 204
0.93656 -0.29624 -0.644 213 215 204
0.94024 -0.29624 -0.644 213 215 204
0.961357 -0.2967 -0.645 212 214 203
0.966271 -0.2967 -0.645 211 213 202
1.03436 -0.2944 -0.64 209 211 197
1.04452 -0.29486 -0.641 207 209 195
1.07048 -0.29394 -0.639 206 208 194
1.07291 -0.29394 -0.639 207 210 193
1.09797 -0.29348 -0.638 206 208 194
1.12062 -0.2921 -0.635 205 207 193
1.12667 -0.2921 -0.635 203 205 191
-0.103833 -0.287767 -0.623 71 70 76
-0.0979552 -0.291462 -0.631 59 59 67
-0.0969067 -0.291924 -0.632 57 58 63
-0.0875524 -0.292848 -0.634 62 62 70
-0.086481 -0.29331 -0.635 66 65 73
0.0962048 -0.205548 -0.445 202 161 143
0.111123 -0.201852 -0.437 201 158 139
0.120279 -0.201852 -0.437 195 153 131
0.18354 -0.2231 -0.483 243 246 255
0.35075 -0.251276 -0.544 146 104 108
0.35359 -0.250352 -0.542 140 99 103
0.3945 -0.2425 -0.525 141 92 87
0.400426 -0.240652 -0.521 142 95 87
0.401854 -0.239729 -0.519 142 95 87
0.435833 -0.241576 -0.523 121 82 75
0.456706 -0.248043 -0.537 122 85 77
0.903614 -0.297929 -0.645 214 215 207
0.909757 -0.297929 -0.645 214 215 207
0.948827 -0.297467 -0.644 211 213 202
0.961093 -0.297467 -0.644 213 215 202
0.972133 -0.297467 -0.644 211 213 200
0.981343 -0.296543 -0.642 211 213 200
0.987457 -0.296543 -0.642 211 213 200
0.992024 -0.296081 -0.641 210 212 199
1.01888 -0.296081 -0.641 209 212 195
1.04533 -0.295619 -0.64 207 209 195
1.04777 -0.295619 -0.64 208 210 197
1.05265 -0.295619 -0.64 207 209 196
1.07731 -0.294695 -0.638 205 208 191
1.11027 -0.293771 -0.636 204 206 192
1.11391 -0.293771 -0.636 205 207 193
-0.117557 -0.271329 -0.585 94 95 100
-0.113873 -0.273184 -0.589 71 74 81
-0.112943 -0.273648 -0.59 64 67 74
-0.10872 -0.280141 -0.604 86 87 92
-0.108104 -0.281532 -0.607 85 86 91
-0.0898257 -0.293591 -0.633 59 58 66
-0.0786286 -0.296838 -0.64 71 70 78
0.124441 -0.202685 -0.437 186 143 124
0.145886 -0.205931 -0.444 140 95 89
0.15437 -0.20825 -0.449 117 83 82
0.157985 -0.209642 -0.452 111 79 80
0.16852 -0.21428 -0.462 96 76 78
0.181864 -0.223092 -0.481 238 240 253
0.37433 -0.245355 -0.529 138 94 93
0.379657 -0.244891 -0.528 144 99 96
0.3945 -0.2435 -0.525 142 95 89
0.400426 -0.241645 -0.521 142 95 87
0.409763 -0.240717 -0.519 148 99 92
0.417853 -0.240253 -0.518 144 97 87
0.443182 -0.244428 -0.527 125 86 81
0.909386 -0.29823 -0.643 213 214 206
0.91306 -0.29823 -0.643 214 215 207
0.931431 -0.29823 -0.643 213 215 204
0.971849 -0.29823 -0.643 211 213 200
0.985919 -0.297302 -0.641 210 212 199
1.00423 -0.297302 -0.641 210 212 198
1.0051 -0.296838 -0.64 210 212 198
1.02217 -0.296838 -0.64 208 210 196
1.04735 -0.296374 -0.639 207 209 195
1.07441 -0.295447 -0.637 205 207 193
1.07926 -0.295447 -0.637 207 210 193
1.08703 -0.29591 -0.638 206 209 192
1.09867 -0.295447 -0.637 205 207 193
1.10301 -0.294983 -0.636 205 207 193
-0.117557 -0.272443 -0.585 92 92 100
-0.0821571 -0.297591 -0.639 68 67 75
-0.0706429 -0.300386 -0.645 72 71 79
0.107793 -0.203517 -0.437 199 158 138
0.111699 -0.203051 -0.436 200 157 138
0.11253 -0.203051 -0.436 203 160 141
0.114452 -0.203517 -0.437 203 160 143
0.148242 -0.207709 -0.446 133 92 86
0.172491 -0.217954 -0.468 76 70 82
0.345779 -0.258937 -0.556 134 85 91
0.353209 -0.252883 -0.543 143 104 105
0.354243 -0.252883 -0.543 141 101 102
0.354623 -0.252417 -0.542 142 102 103
0.354999 -0.251951 -0.541 145 103 105
0.359179 -0.250554 -0.538 140 98 99
0.37201 -0.246829 -0.53 143 91 95
0.3925 -0.2445 -0.525 140 93 87
0.395745 -0.244034 -0.524 141 94 88
0.40482 -0.241706 -0.519 144 97 89
0.42197 -0.240774 -0.517 134 91 82
0.42476 -0.24124 -0.518 125 84 78
0.435833 -0.243569 -0.523 122 83 78
0.462169 -0.251951 -0.541 124 87 81
0.469378 -0.254746 -0.547 131 94 88
0.902037 -0.299454 -0.643 214 215 207
0.905711 -0.299454 -0.643 213 214 206
0.906936 -0.299454 -0.643 213 214 206
0.925308 -0.299454 -0.643 213 215 204
0.93732 -0.298989 -0.642 212 214 203
0.978593 -0.298523 -0.641 211 213 200
0.984698 -0.298523 -0.641 210 212 199
0.99779 -0.298057 -0.64 210 212 198
1.02179 -0.297591 -0.639 209 211 197
1.02748 -0.297126 -0.638 208 211 194
1.05344 -0.297591 -0.639 208 210 196
1.05709 -0.297591 -0.639 206 208 194
1.05952 -0.297591 -0.639 207 209 195
1.06591 -0.29666 -0.637 206 208 194
1.07441 -0.29666 -0.637 206 208 194
1.08047 -0.29666 -0.637 207 210 193
1.10611 -0.295729 -0.635 205 207 193
1.10853 -0.295729 -0.635 204 206 192
1.12127 -0.295263 -0.634 204 207 190
1.12978 -0.294331 -0.632 203 205 192
-0.12152 -0.27496 -0.588 97 97 105
-0.117557 -0.273557 -0.585 92 92 100
-0.100836 -0.29647 -0.634 67 68 73
0.0980819 -0.206688 -0.442 204 166 147
0.129435 -0.20435 -0.437 175 130 111
0.140177 -0.206688 -0.442 147 100 90
0.144194 -0.207623 -0.444 139 98 92
0.145367 -0.20809 -0.445 135 94 88
0.157124 -0.211364 -0.452 112 80 81
0.158684 -0.212299 -0.454 110 78 79
0.351 -0.25532 -0.546 140 96 97
0.357429 -0.252514 -0.54 142 98 97
0.357793 -0.252047 -0.539 140 96 95
0.36158 -0.251111 -0.537 136 96 94
0.40482 -0.242694 -0.519 145 96 89
0.406797 -0.242694 -0.519 143 94 87
0.410751 -0.242694 -0.519 146 97 90
0.42197 -0.241759 -0.517 132 87 81
0.458581 -0.251579 -0.538 121 84 76
0.476633 -0.258593 -0.553 128 89 92
0.485867 -0.261867 -0.56 126 91 89
0.892239 -0.300679 -0.643 213 214 206
0.902037 -0.300679 -0.643 214 215 207
0.960554 -0.300211 -0.642 212 214 201
0.9856 -0.299276 -0.64 210 212 199
1.05786 -0.298341 -0.638 207 209 196
1.0603 -0.298341 -0.638 206 208 194
1.09089 -0.297406 -0.636 205 207 193
1.10127 -0.296938 -0.635 204 206 192
1.1092 -0.29647 -0.634 204 206 192
1.12799 -0.295068 -0.631 203 205 192
-0.109507 -0.282653 -0.602 95 95 105
-0.08904 -0.298617 -0.636 52 52 60
-0.0765476 -0.301904 -0.643 69 68 76
-0.0753229 -0.301904 -0.643 69 68 76
-0.0600476 -0.30519 -0.65 72 71 79
0.0930229 -0.209408 -0.446 201 162 145
0.09786 -0.20706 -0.441 207 166 148
0.125817 -0.204712 -0.436 176 133 114
0.13619 -0.20659 -0.44 163 111 100
0.13818 -0.20706 -0.441 154 104 95
0.140177 -0.20753 -0.442 147 100 90
0.147392 -0.209408 -0.446 130 91 84
0.357793 -0.253073 -0.539 138 97 95
0.36329 -0.251195 -0.535 135 93 94
0.374629 -0.247909 -0.528 140 95 92
0.387236 -0.24697 -0.526 145 98 92
0.39275 -0.24603 -0.524 143 96 88
0.40461 -0.244152 -0.52 145 96 89
0.4056 -0.244152 -0.52 144 95 88
0.409763 -0.243683 -0.519 143 94 87
0.413907 -0.243213 -0.518 145 97 87
0.422787 -0.243213 -0.518 130 85 79
0.910417 -0.301434 -0.642 213 215 204
0.975848 -0.300495 -0.64 211 213 199
0.985277 -0.300026 -0.639 210 212 199
1.00075 -0.299556 -0.638 209 211 198
1.00161 -0.299087 -0.637 209 211 198
1.00282 -0.299087 -0.637 210 212 199
1.02102 -0.299087 -0.637 208 210 196
1.02223 -0.299087 -0.637 208 210 196
1.04207 -0.299556 -0.638 209 211 197
1.09522 -0.298148 -0.635 205 207 193
-0.11368 -0.2772 -0.588 69 72 81
-0.0914629 -0.299829 -0.636 50 51 56
-0.0624276 -0.305957 -0.649 73 72 80
0.0904286 -0.212143 -0.45 205 166 151
0.104464 -0.206014 -0.437 204 161 144
0.106129 -0.206014 -0.437 203 160 141
0.111699 -0.205543 -0.436 194 151 132
0.11336 -0.205543 -0.436 199 156 137
0.129435 -0.206014 -0.437 172 125 109
0.138493 -0.208371 -0.442 152 104 94
0.147392 -0.210257 -0.446 127 90 84
0.156609 -0.213557 -0.453 107 79 78
0.168204 -0.219686 -0.466 83 66 72
0.351883 -0.258814 -0.549 140 96 95
0.356688 -0.255514 -0.542 140 96 95
0.367654 -0.250329 -0.531 143 99 98
0.369292 -0.249386 -0.529 143 99 98
0.384961 -0.248443 -0.527 150 103 97
0.388238 -0.247971 -0.526 150 103 95
0.3895 -0.2475 -0.525 147 100 92
0.397978 -0.246557 -0.523 142 95 85
0.408774 -0.244671 -0.519 141 92 85
0.409763 -0.244671 -0.519 142 93 86
0.41884 -0.2442 -0.518 140 93 85
0.420813 -0.2442 -0.518 136 91 85
0.881069 -0.302657 -0.642 215 216 208
0.919988 -0.302186 -0.641 212 214 203
0.937081 -0.302186 -0.641 212 214 201
0.96702 -0.301243 -0.639 212 214 200
0.980409 -0.301243 -0.639 211 213 200
0.985277 -0.301243 -0.639 210 212 198
1.00767 -0.3003 -0.637 210 212 199
1.01131 -0.3003 -0.637 209 211 198
1.02305 -0.299829 -0.636 208 211 194
1.02426 -0.299829 -0.636 207 210 193
1.02911 -0.299829 -0.636 207 210 193
1.04165 -0.3003 -0.637 208 210 196
1.0465 -0.3003 -0.637 207 209 196
1.05014 -0.3003 -0.637 207 209 196
1.0795 -0.299357 -0.635 206 208 194
1.08797 -0.299357 -0.635 205 207 193
1.09764 -0.299357 -0.635 204 206 192
1.10745 -0.298414 -0.633 205 207 193
1.11709 -0.298414 -0.633 204 206 192
1.1262 -0.297 -0.63 203 205 191
-0.119581 -0.276427 -0.584 95 95 103
-0.117356 -0.276427 -0.584 94 94 102
-0.112751 -0.278793 -0.589 63 66 73
-0.0777724 -0.304353 -0.643 69 68 76
0.0940848 -0.209687 -0.443 206 164 148
0.0999248 -0.207793 -0.439 201 160 142
0.119173 -0.206373 -0.436 187 144 125
0.120004 -0.206373 -0.436 185 142 123
0.121665 -0.206373 -0.436 184 139 120
0.126938 -0.206847 -0.437 174 128 112
0.132536 -0.207793 -0.439 168 116 103
0.134514 -0.208267 -0.44 166 114 101
0.15095 -0.212527 -0.449 113 82 79
0.351703 -0.26128 -0.552 139 91 91
0.361928 -0.253707 -0.536 134 90 89
0.36329 -0.253233 -0.535 135 91 90
0.365307 -0.251813 -0.532 141 97 96
0.368666 -0.25134 -0.531 144 99 96
0.382227 -0.248973 -0.526 154 107 99
0.383229 -0.248973 -0.526 155 108 100
0.398211 -0.24708 -0.522 146 99 89
0.41884 -0.245187 -0.518 138 91 83
0.879696 -0.303407 -0.641 215 216 208
0.901673 -0.303407 -0.641 214 215 207
0.918552 -0.302933 -0.64 213 215 202
0.929524 -0.302933 -0.64 212 214 201
0.945111 -0.30246 -0.639 212 214 201
0.967937 -0.301987 -0.638 211 213 199
0.99554 -0.301513 -0.637 210 212 199
0.99918 -0.301513 -0.637 210 212 199
1.02023 -0.300567 -0.635 207 210 193
1.03274 -0.30104 -0.636 208 211 194
1.05576 -0.30104 -0.636 206 208 194
1.11172 -0.299147 -0.632 205 207 193
1.12861 -0.297253 -0.628 201 205 191
1.1292 -0.29678 -0.627 201 205 190
-0.127216 -0.284668 -0.599 94 97 104
-0.110686 -0.283242 -0.596 102 105 114
-0.107186 -0.292271 -0.615 92 92 100
-0.0952467 -0.302727 -0.637 57 56 64
-0.0835048 -0.304152 -0.64 55 54 62
-0.0811933 -0.304628 -0.641 63 62 70
-0.0742133 -0.306053 -0.644 69 68 76
0.0990886 -0.20863 -0.439 201 159 143
0.105886 -0.207204 -0.436 202 161 143
0.117512 -0.207204 -0.436 192 149 130
0.143671 -0.211481 -0.445 132 93 78
0.35573 -0.271836 -0.572 125 76 79
0.352767 -0.264708 -0.557 130 88 90
0.352977 -0.263282 -0.554 136 90 92
0.353165 -0.261856 -0.551 137 93 92
0.382227 -0.249975 -0.526 156 109 101
0.383229 -0.249975 -0.526 156 108 98
0.3895 -0.2495 -0.525 152 104 94
0.3905 -0.2495 -0.525 152 104 94
0.393749 -0.249025 -0.524 153 106 96
0.398211 -0.248074 -0.522 146 99 89
0.430362 -0.247124 -0.52 122 81 75
0.432182 -0.247599 -0.521 121 80 74
0.47042 -0.259955 -0.547 128 87 83
0.482396 -0.264232 -0.556 130 92 83
0.98792 -0.302251 -0.636 210 212 198
1.0154 -0.301776 -0.635 208 210 197
1.01781 -0.301776 -0.635 209 211 197
1.0621 -0.301301 -0.634 206 209 192
1.06331 -0.301301 -0.634 206 209 192
1.06452 -0.301301 -0.634 205 207 193
1.07418 -0.301301 -0.634 206 208 194
1.07659 -0.301301 -0.634 205 207 193
1.08575 -0.300826 -0.633 205 208 191
1.08695 -0.300826 -0.633 205 208 191
1.09108 -0.301301 -0.634 204 207 190
1.11653 -0.30035 -0.632 203 205 191
-0.109918 -0.285331 -0.598 104 104 114
-0.07544 -0.30728 -0.644 69 68 76
0.0909143 -0.211851 -0.444 204 162 148
0.0984762 -0.209943 -0.44 206 164 148
0.126106 -0.208511 -0.437 177 130 114
0.1317 -0.209466 -0.439 166 121 102
0.368666 -0.253363 -0.531 144 99 94
0.371308 -0.252409 -0.529 142 97 92
0.37693 -0.251454 -0.527 147 100 94
0.380223 -0.250977 -0.526 151 104 96
0.3875 -0.2505 -0.525 150 102 92
0.421626 -0.247637 -0.519 135 90 84
0.4218 -0.24716 -0.518 129 84 78
0.433174 -0.248591 -0.521 124 81 74
0.444186 -0.251454 -0.527 124 83 77
0.955785 -0.304417 -0.638 211 213 200
0.976127 -0.30394 -0.637 211 213 200
1.00088 -0.302986 -0.635 209 211 197
1.00572 -0.302986 -0.635 209 211 198
1.04321 -0.302986 -0.635 207 209 195
1.07007 -0.302031 -0.633 206 208 194
1.09607 -0.301554 -0.632 205 208 191
1.09848 -0.301554 -0.632 204 206 192
1.09968 -0.301554 -0.632 205 207 193
1.10329 -0.301554 -0.632 206 208 194
1.12502 -0.299646 -0.628 201 205 191
-0.0943286 -0.306111 -0.639 56 57 62
-0.0743286 -0.308986 -0.645 69 68 76
-0.0696295 -0.309944 -0.647 72 71 79
0.0974162 -0.210302 -0.439 201 159 143
0.0996971 -0.209823 -0.438 198 156 140
0.104225 -0.208865 -0.436 201 159 143
0.106716 -0.208865 -0.436 204 161 145
0.13681 -0.211739 -0.442 154 104 93
0.138807 -0.212218 -0.443 145 99 86
0.155225 -0.217488 -0.454 108 77 74
0.158337 -0.219404 -0.458 104 76 75
0.361663 -0.27689 -0.578 123 81 82
0.35802 -0.27162 -0.567 124 82 84
0.35595 -0.26683 -0.557 131 87 84
0.356714 -0.263476 -0.55 136 90 90
0.359414 -0.260123 -0.543 136 90 90
0.36431 -0.25629 -0.535 136 91 88
0.367333 -0.254853 -0.532 148 100 98
0.391752 -0.251021 -0.524 153 104 97
0.41866 -0.248626 -0.519 134 90 79
0.423773 -0.248147 -0.518 127 84 77
0.4687 -0.261081 -0.545 125 86 79
0.895209 -0.306111 -0.639 213 215 204
0.939987 -0.305632 -0.638 211 213 202
0.963691 -0.304674 -0.636 210 212 199
0.967326 -0.304674 -0.636 211 213 200
0.969749 -0.304674 -0.636 211 213 200
0.97096 -0.304674 -0.636 210 212 199
0.986709 -0.304674 -0.636 210 212 198
1.01298 -0.304195 -0.635 210 212 199
1.0154 -0.304195 -0.635 209 211 198
1.02991 -0.304195 -0.635 208 210 196
1.03959 -0.304195 -0.635 207 209 195
1.05244 -0.303716 -0.634 207 209 195
1.08644 -0.302758 -0.632 205 208 191
1.09486 -0.302758 -0.632 204 206 192
1.1106 -0.3018 -0.63 203 205 191
1.11603 -0.301321 -0.629 203 206 189
1.12442 -0.300363 -0.627 201 205 190
-0.145252 -0.312138 -0.649 98 98 106
-0.132525 -0.294824 -0.613 98 98 106
-0.101631 -0.307329 -0.639 76 77 82
-0.0777724 -0.309252 -0.643 65 64 72
-0.0766667 -0.309733 -0.644 66 65 73
0.09198 -0.2121 -0.441 204 162 146
0.113929 -0.209214 -0.435 196 151 130
0.114757 -0.209214 -0.435 192 147 126
0.130028 -0.211138 -0.439 163 120 103
0.138807 -0.213062 -0.443 146 98 86
0.144844 -0.214505 -0.446 126 89 81
0.157121 -0.219795 -0.457 105 75 75
0.159905 -0.221238 -0.46 100 74 75
0.16983 -0.22749 -0.473 254 250 255
0.358506 -0.269814 -0.561 127 86 82
0.357894 -0.263081 -0.547 131 87 86
0.362949 -0.25779 -0.536 135 90 87
0.37693 -0.253462 -0.527 149 100 96
0.381225 -0.252981 -0.526 156 107 102
0.391005 -0.251538 -0.523 152 103 96
0.396223 -0.251057 -0.522 149 100 93
0.422614 -0.249614 -0.519 130 86 77
0.447887 -0.254424 -0.529 124 84 76
0.457897 -0.25779 -0.536 120 81 74
0.915682 -0.306848 -0.638 213 215 204
0.961567 -0.306367 -0.637 211 213 200
0.963993 -0.306367 -0.637 210 212 199
0.989995 -0.305405 -0.635 209 211 197
0.993267 -0.304924 -0.634 209 211 197
1.00776 -0.304924 -0.634 210 212 199
1.01863 -0.304924 -0.634 207 209 195
1.02587 -0.304924 -0.634 207 209 195
1.04519 -0.304924 -0.634 207 209 195
1.04761 -0.304924 -0.634 207 209 195
1.05514 -0.303962 -0.632 206 209 192
1.09073 -0.303481 -0.631 205 207 193
1.09193 -0.303481 -0.631 205 207 193
1.11784 -0.302038 -0.628 203 207 190
1.12323 -0.301557 -0.627 200 207 191
1.12501 -0.301076 -0.626 200 207 191
-0.14335 -0.311926 -0.646 99 99 107
-0.120487 -0.281506 -0.583 101 101 109
-0.0836352 -0.309511 -0.641 50 49 57
0.0898657 -0.213906 -0.443 202 163 148
0.0934476 -0.212457 -0.44 204 162 146
0.105886 -0.210526 -0.436 200 157 138
0.129191 -0.211974 -0.439 167 121 106
0.130028 -0.211974 -0.439 163 117 102
0.36 -0.2704 -0.56 128 84 83
0.359132 -0.268951 -0.557 127 83 82
0.361543 -0.260743 -0.54 134 90 87
0.379221 -0.253983 -0.526 148 99 95
0.3815 -0.2535 -0.525 157 108 104
0.3835 -0.2535 -0.525 153 104 100
0.388758 -0.253017 -0.524 151 104 98
0.402629 -0.251086 -0.52 139 92 82
0.408571 -0.251086 -0.52 143 96 88
0.410552 -0.251086 -0.52 143 99 88
0.417671 -0.250603 -0.519 140 93 85
0.426569 -0.250603 -0.519 125 82 75
0.430362 -0.251086 -0.52 124 86 77
0.9373 -0.30758 -0.637 212 214 203
0.939727 -0.30758 -0.637 213 215 204
0.944309 -0.307097 -0.636 212 214 203
0.961567 -0.30758 -0.637 211 213 200
0.97911 -0.306614 -0.635 210 212 199
0.998934 -0.305649 -0.633 209 211 198
1.03312 -0.306131 -0.634 208 211 194
1.05273 -0.305166 -0.632 206 209 192
1.05514 -0.305166 -0.632 205 208 191
1.08472 -0.304683 -0.631 206 208 194
1.09805 -0.303717 -0.629 204 206 192
1.12555 -0.30082 -0.623 201 204 195
1.12549 -0.299854 -0.621 201 202 194
-0.145029 -0.314126 -0.648 101 101 109
-0.132309 -0.296674 -0.612 99 99 107
-0.126367 -0.288433 -0.595 100 100 108
-0.106377 -0.302491 -0.624 97 96 104
-0.103577 -0.308309 -0.636 87 90 95
0.108957 -0.210871 -0.435 195 152 133
0.13482 -0.21378 -0.441 154 105 90
0.141129 -0.215719 -0.445 133 90 84
0.142295 -0.216204 -0.446 131 88 82
0.177639 -0.236079 -0.487 251 249 250
0.360114 -0.267589 -0.552 127 84 78
0.371308 -0.256439 -0.529 147 97 96
0.392997 -0.25353 -0.523 150 103 93
0.399433 -0.252561 -0.521 144 97 87
0.416683 -0.251591 -0.519 141 92 85
0.924926 -0.308309 -0.636 213 215 204
0.93704 -0.308309 -0.636 213 215 204
0.970643 -0.307824 -0.635 210 212 198
0.978775 -0.307339 -0.634 209 211 198
0.992906 -0.306854 -0.633 209 211 198
0.995317 -0.306854 -0.633 209 211 198
1.01581 -0.306854 -0.633 209 211 197
1.03511 -0.306854 -0.633 208 211 194
1.03631 -0.306854 -0.633 207 210 193
1.09686 -0.304915 -0.629 205 207 193
1.10947 -0.30443 -0.628 204 206 192
1.11066 -0.30443 -0.628 203 207 190
-0.10908 -0.29492 -0.606 111 110 118
-0.0859429 -0.311467 -0.64 47 46 54
-0.0847238 -0.311467 -0.64 46 45 53
0.0926095 -0.214133 -0.44 203 164 147
0.0978048 -0.212673 -0.437 204 163 145
0.0986371 -0.212673 -0.437 206 165 147
0.118071 -0.2117 -0.435 183 138 117
0.121665 -0.212187 -0.436 178 131 115
0.126394 -0.21316 -0.438 166 117 103
0.15263 -0.220947 -0.454 105 76 78
0.15538 -0.222407 -0.457 91 65 64
0.168738 -0.231167 -0.475 255 255 255
0.176349 -0.23652 -0.486 249 250 254
0.364935 -0.275453 -0.566 122 81 77
0.36244 -0.26572 -0.546 129 85 82
0.379221 -0.255987 -0.526 154 106 96
0.3815 -0.2555 -0.525 153 105 95
0.38702 -0.254527 -0.523 156 108 96
0.394471 -0.253553 -0.521 147 99 89
0.412533 -0.253067 -0.52 143 94 87
0.41866 -0.25258 -0.519 139 90 83
0.444345 -0.255987 -0.526 127 87 79
0.446193 -0.256473 -0.527 124 83 77
0.927349 -0.30952 -0.636 213 215 204
0.929519 -0.309033 -0.635 213 215 204
0.948871 -0.309033 -0.635 212 214 203
0.980849 -0.30806 -0.633 211 213 200
1.04069 -0.307573 -0.632 207 209 195
1.04792 -0.307573 -0.632 207 209 195
1.04746 -0.307087 -0.631 207 209 195
1.0698 -0.3066 -0.63 207 209 195
1.0782 -0.3066 -0.63 205 208 191
1.08008 -0.306113 -0.629 206 209 192
1.09446 -0.306113 -0.629 206 208 194
1.12261 -0.30368 -0.624 203 205 183
1.12379 -0.30368 -0.624 202 204 182
-0.142907 -0.31464 -0.644 101 101 109
0.0846162 -0.220346 -0.451 202 165 149
0.0870762 -0.217903 -0.446 204 167 149
0.136275 -0.216437 -0.443 149 101 87
0.363783 -0.271646 -0.556 125 84 80
0.363953 -0.26334 -0.539 136 88 84
0.364649 -0.262363 -0.537 135 87 83
0.36499 -0.261874 -0.536 135 87 83
0.36999 -0.258943 -0.53 144 95 90
0.3845 -0.2565 -0.525 158 108 97
0.389012 -0.255523 -0.523 156 106 97
0.41866 -0.253569 -0.519 140 92 82
0.444345 -0.256989 -0.526 126 86 78
0.46354 -0.26334 -0.539 127 86 80
0.937716 -0.309754 -0.634 212 214 203
0.943754 -0.309754 -0.634 212 214 203
0.948871 -0.310243 -0.635 212 214 203
0.964284 -0.309754 -0.634 211 213 200
0.984114 -0.308777 -0.632 209 211 198
1.0106 -0.308777 -0.632 209 211 198
1.0102 -0.308289 -0.631 209 211 198
1.0114 -0.308289 -0.631 209 211 198
1.02625 -0.308777 -0.632 208 211 194
1.0506 -0.3078 -0.63 207 210 193
1.06571 -0.307311 -0.629 206 208 194
1.07289 -0.307311 -0.629 206 208 194
1.08008 -0.307311 -0.629 206 208 194
1.1077 -0.306334 -0.627 204 207 190
1.1119 -0.305846 -0.626 204 206 192
1.11607 -0.305357 -0.625 203 205 191
1.12375 -0.303891 -0.622 201 203 190
1.12493 -0.303891 -0.622 201 203 190
-0.126367 -0.291833 -0.595 107 107 115
-0.111258 -0.290852 -0.593 215 215 225
-0.109172 -0.300662 -0.613 109 108 114
-0.103903 -0.312924 -0.638 91 95 98
-0.0961438 -0.315376 -0.643 61 64 69
0.128355 -0.215319 -0.439 164 115 101
0.142614 -0.219243 -0.447 120 85 81
0.152434 -0.223657 -0.456 102 73 77
0.365371 -0.270743 -0.552 127 86 84
0.374629 -0.258971 -0.528 142 93 88
0.399433 -0.255538 -0.521 145 98 90
0.402629 -0.255048 -0.52 148 99 92
0.422614 -0.254557 -0.519 135 91 80
0.441657 -0.25701 -0.524 124 84 76
0.48732 -0.273686 -0.558 134 91 85
0.8763 -0.311452 -0.635 215 216 208
0.890814 -0.311452 -0.635 213 215 204
0.947377 -0.310962 -0.634 211 213 202
0.969997 -0.310471 -0.633 210 212 199
0.980153 -0.30949 -0.631 210 212 199
1.01501 -0.30949 -0.631 208 211 194
1.03106 -0.309981 -0.632 208 210 196
1.0458 -0.309 -0.63 207 210 193
1.05013 -0.30851 -0.629 206 209 192
1.05564 -0.308019 -0.628 205 207 193
1.06282 -0.308019 -0.628 205 207 193
1.0681 -0.30851 -0.629 207 209 195
1.07409 -0.30851 -0.629 205 207 193
1.09272 -0.308019 -0.628 204 206 192
1.09934 -0.307529 -0.627 204 206 192
1.10412 -0.307529 -0.627 204 207 190
1.10531 -0.307529 -0.627 204 207 190
1.1119 -0.307038 -0.626 203 206 189
1.1125 -0.306548 -0.625 203 205 191
1.11369 -0.306548 -0.625 203 205 191
-0.137182 -0.309708 -0.629 96 99 104
-0.114934 -0.287058 -0.583 102 102 110
-0.108231 -0.305769 -0.621 99 100 104
-0.107738 -0.307738 -0.625 102 103 108
-0.104953 -0.313647 -0.637 96 100 103
-0.104066 -0.314631 -0.639 96 100 103
-0.0822857 -0.315124 -0.64 45 44 52
-0.0777724 -0.316601 -0.643 45 44 52
0.0838581 -0.226988 -0.461 200 160 148
0.37433 -0.26047 -0.529 143 94 90
0.375634 -0.259977 -0.528 145 96 92
0.431352 -0.256038 -0.52 122 82 72
0.46629 -0.266378 -0.541 130 93 84
0.47268 -0.26884 -0.546 129 90 83
0.888204 -0.31217 -0.634 214 215 207
0.937443 -0.311677 -0.633 212 214 201
0.943471 -0.311677 -0.633 212 214 201
0.954323 -0.311677 -0.633 212 214 203
0.96365 -0.311185 -0.632 211 213 202
0.972076 -0.311185 -0.632 211 213 200
0.974484 -0.311185 -0.632 210 212 199
0.9918 -0.3102 -0.63 210 212 199
1.035 -0.3102 -0.63 208 210 196
1.0458 -0.3102 -0.63 207 210 193
1.04966 -0.309215 -0.628 205 207 193
1.05396 -0.308723 -0.627 206 208 194
1.06999 -0.309215 -0.628 205 207 194
1.07238 -0.309215 -0.628 206 208 195
1.08913 -0.309215 -0.628 204 206 192
1.09272 -0.309215 -0.628 205 207 193
1.11606 -0.306753 -0.623 202 204 190
-0.10791 -0.309423 -0.626 104 105 107
-0.0973686 -0.317826 -0.643 63 66 71
-0.0935486 -0.317331 -0.642 57 57 65
-0.0909609 -0.316837 -0.641 53 52 60
-0.0882429 -0.315849 -0.639 48 48 56
0.0900952 -0.217486 -0.44 206 164 150
0.0915629 -0.216991 -0.439 205 163 149
0.097581 -0.215509 -0.436 204 161 145
0.104814 -0.215014 -0.435 200 157 140
0.111187 -0.21452 -0.434 194 149 130
0.1189 -0.215014 -0.435 177 131 115
0.127519 -0.216991 -0.439 162 113 99
0.155862 -0.227866 -0.461 97 75 77
0.164771 -0.234291 -0.474 216 213 232
0.366293 -0.268891 -0.544 136 91 85
0.365979 -0.267903 -0.542 139 94 88
0.380223 -0.259994 -0.526 151 102 95
0.400648 -0.257029 -0.52 149 101 91
0.417486 -0.257029 -0.52 142 93 86
0.421626 -0.256534 -0.519 135 88 80
0.426569 -0.256534 -0.519 126 83 74
0.429534 -0.256534 -0.519 127 84 75
0.434167 -0.257523 -0.521 126 83 74
0.436989 -0.258017 -0.522 128 85 76
0.437983 -0.258017 -0.522 128 85 78
0.872334 -0.312883 -0.633 214 215 207
0.87354 -0.312883 -0.633 214 215 207
0.874746 -0.312883 -0.633 214 215 207
0.880774 -0.312883 -0.633 214 215 207
0.935031 -0.312883 -0.633 212 214 203
0.93837 -0.312389 -0.632 211 213 202
0.945883 -0.312883 -0.633 212 214 201
0.957631 -0.312389 -0.632 212 214 203
0.970872 -0.312389 -0.632 211 213 200
0.9774 -0.3114 -0.63 210 212 198
0.9798 -0.3114 -0.63 209 211 197
1.0094 -0.310906 -0.629 208 210 196
1.01059 -0.310906 -0.629 208 210 196
1.01419 -0.310906 -0.629 208 211 194
1.0278 -0.3114 -0.63 208 210 196
1.04294 -0.310906 -0.629 206 209 192
1.04918 -0.309917 -0.627 205 207 193
1.06112 -0.309917 -0.627 205 207 194
1.07187 -0.309917 -0.627 206 208 195
1.08076 -0.310411 -0.628 206 208 194
1.08979 -0.309917 -0.627 206 208 194
1.1131 -0.308434 -0.624 203 205 191
1.12304 -0.305963 -0.619 202 204 191
-0.142463 -0.318554 -0.642 100 98 109
-0.116954 -0.288783 -0.582 110 110 120
-0.111633 -0.295233 -0.595 224 225 230
-0.110871 -0.296226 -0.597 227 228 233
-0.10858 -0.309127 -0.623 165 167 166
-0.1074 -0.3126 -0.63 133 135 134
-0.0821571 -0.317066 -0.639 37 36 44
0.0921886 -0.217331 -0.438 206 164 152
0.1015 -0.215843 -0.435 209 166 150
0.10788 -0.215347 -0.434 193 150 133
0.110106 -0.21485 -0.433 197 150 132
0.116147 -0.215347 -0.434 180 134 118
0.134891 -0.220309 -0.444 145 96 89
0.143252 -0.22279 -0.449 112 81 78
0.374029 -0.262981 -0.53 144 94 87
0.384031 -0.259508 -0.523 150 100 91
0.385286 -0.259011 -0.522 156 106 97
0.38628 -0.259011 -0.522 157 107 100
0.398889 -0.257523 -0.519 150 100 91
0.40659 -0.258019 -0.52 149 101 91
0.418476 -0.258019 -0.52 145 97 87
0.428546 -0.257523 -0.519 126 86 76
0.478238 -0.272905 -0.55 134 87 81
0.885597 -0.314089 -0.633 214 215 207
0.957317 -0.313096 -0.631 211 213 202
0.9786 -0.3126 -0.63 210 212 198
0.9894 -0.3126 -0.63 210 212 198
0.991424 -0.312104 -0.629 208 210 197
1.02138 -0.312104 -0.629 208 210 196
1.03815 -0.312104 -0.629 206 209 192
1.06539 -0.310615 -0.626 206 208 194
1.0874 -0.311111 -0.627 205 207 193
1.08924 -0.310615 -0.626 206 208 195
1.09401 -0.310615 -0.626 204 206 193
1.1006 -0.310119 -0.625 203 205 191
1.10597 -0.309623 -0.624 204 206 192
1.10953 -0.309623 -0.624 204 206 192
-0.142463 -0.319777 -0.642 96 96 106
-0.120693 -0.290888 -0.584 103 103 113
-0.11441 -0.291884 -0.586 79 77 88
-0.112943 -0.293876 -0.59 68 67 75
-0.111633 -0.296367 -0.595 220 219 225
-0.10757 -0.314298 -0.631 166 166 166
0.0928105 -0.217668 -0.437 207 168 153
0.0936429 -0.217668 -0.437 207 168 153
0.0973571 -0.216671 -0.435 207 164 148
0.0981857 -0.216671 -0.435 207 164 148
0.11258 -0.215675 -0.433 187 142 121
0.126683 -0.218664 -0.439 158 112 99
0.129486 -0.219162 -0.44 154 106 94
0.140373 -0.223147 -0.448 123 88 84
0.143571 -0.224143 -0.45 113 79 77
0.154106 -0.229622 -0.461 96 74 77
0.368714 -0.265983 -0.534 139 90 86
0.378219 -0.261998 -0.526 151 101 94
0.390743 -0.25901 -0.52 154 104 97
0.392724 -0.25901 -0.52 150 99 95
0.394705 -0.25901 -0.52 152 101 97
0.399877 -0.258511 -0.519 155 102 94
0.408571 -0.25901 -0.52 148 98 89
0.410552 -0.25901 -0.52 148 99 92
0.411543 -0.25901 -0.52 146 97 90
0.420457 -0.25901 -0.52 140 94 81
0.442655 -0.261002 -0.524 131 88 81
0.446349 -0.261998 -0.526 129 86 80
0.45635 -0.265485 -0.533 122 81 77
0.467321 -0.26947 -0.541 128 90 79
0.47372 -0.27196 -0.546 123 90 81
0.873364 -0.314796 -0.632 213 214 206
0.881791 -0.314796 -0.632 213 214 206
0.884198 -0.314796 -0.632 215 216 208
0.96573 -0.314298 -0.631 210 212 199
0.9822 -0.3138 -0.63 210 212 199
0.993436 -0.312804 -0.628 209 211 198
0.995829 -0.312804 -0.628 209 211 198
1.00779 -0.312804 -0.628 208 210 196
1.00899 -0.312804 -0.628 208 210 196
1.01138 -0.312804 -0.628 207 209 195
1.05228 -0.311808 -0.626 206 208 194
1.05466 -0.311808 -0.626 207 209 195
1.05824 -0.311808 -0.626 207 209 195
1.06658 -0.311808 -0.626 205 207 193
1.10121 -0.310811 -0.624 202 204 190
-0.119581 -0.292 -0.584 96 99 108
-0.112577 -0.297 -0.594 88 87 95
-0.106 -0.318 -0.636 159 160 155
-0.0799724 -0.3205 -0.641 39 38 46
-0.0788743 -0.321 -0.642 41 40 46
0.0861 -0.2205 -0.441 202 164 151
0.110106 -0.2165 -0.433 189 144 125
0.125847 -0.2195 -0.439 162 116 101
0.136043 -0.2225 -0.445 132 91 85
0.147767 -0.2275 -0.455 95 69 68
0.3717 -0.2655 -0.531 144 91 83
0.375038 -0.265 -0.53 144 95 91
0.375338 -0.2645 -0.529 146 97 92
0.388517 -0.2605 -0.521 157 106 102
0.449051 -0.264 -0.528 125 82 76
0.920058 -0.3155 -0.631 211 213 200
0.933279 -0.3155 -0.631 212 214 203
0.9654 -0.315 -0.63 210 212 201
0.995437 -0.3135 -0.627 208 210 197
1.0506 -0.3125 -0.625 206 208 194
1.12112 -0.308 -0.616 201 203 190
-0.112009 -0.299637 -0.597 182 181 187
-0.0934029 -0.321721 -0.641 40 40 48
0.0808552 -0.227865 -0.454 204 168 156
0.0919781 -0.219332 -0.437 207 168 153
0.094259 -0.21883 -0.436 205 166 151
0.0998429 -0.218329 -0.435 205 163 147
0.103747 -0.217827 -0.434 200 158 142
0.1329 -0.222344 -0.443 146 99 89
0.141857 -0.225857 -0.45 111 80 77
0.171267 -0.245933 -0.49 230 230 238
0.41128 -0.319211 -0.636 115 128 183
0.369757 -0.272534 -0.543 128 84 81
0.370749 -0.268017 -0.534 139 91 87
0.3724 -0.267013 -0.532 142 92 85
0.376048 -0.26601 -0.53 146 97 90
0.380223 -0.264002 -0.526 149 101 91
0.388762 -0.26099 -0.52 158 110 98
0.9378 -0.3162 -0.63 212 214 201
0.9534 -0.3162 -0.63 212 214 201
0.980278 -0.315196 -0.628 210 212 198
0.989848 -0.315196 -0.628 210 212 198
1.00619 -0.314694 -0.627 208 210 196
1.01216 -0.314694 -0.627 208 210 196
1.01574 -0.314694 -0.627 208 210 196
1.02813 -0.315196 -0.628 207 209 195
1.03963 -0.314694 -0.627 206 208 194
1.04821 -0.31369 -0.625 205 207 193
1.05961 -0.313189 -0.624 207 209 196
1.0744 -0.31369 -0.625 206 208 195
1.11187 -0.311181 -0.62 203 205 192
1.12112 -0.309173 -0.616 199 201 188
-0.11052 -0.309339 -0.614 228 227 233
-0.107741 -0.318408 -0.632 213 213 211
-0.0879667 -0.320927 -0.637 35 34 42
0.0859048 -0.221676 -0.44 206 168 155
0.108456 -0.21815 -0.433 190 144 128
0.113667 -0.218653 -0.434 180 133 115
0.12894 -0.22218 -0.441 149 103 90
0.134046 -0.223691 -0.444 136 93 86
0.159581 -0.237798 -0.472 242 231 235
0.371766 -0.269034 -0.534 138 91 85
0.373413 -0.268027 -0.532 141 94 88
0.388517 -0.262485 -0.521 155 107 95
0.410552 -0.261981 -0.52 157 107 98
0.416495 -0.261981 -0.52 147 98 91
0.437983 -0.262989 -0.522 129 85 76
0.969512 -0.316392 -0.628 211 213 200
0.983867 -0.316392 -0.628 209 211 197
0.989466 -0.315889 -0.627 209 211 197
1.0022 -0.315385 -0.626 208 210 196
1.04107 -0.314881 -0.625 207 209 195
1.04297 -0.314377 -0.624 204 208 194
1.04654 -0.314377 -0.624 204 208 194
1.06318 -0.314377 -0.624 205 208 191
1.08165 -0.313873 -0.623 205 207 194
1.11423 -0.312362 -0.62 202 204 190
1.12047 -0.309843 -0.615 202 204 190
-0.137836 -0.319611 -0.632 84 87 92
-0.115723 -0.296854 -0.587 79 80 85
-0.11426 -0.298877 -0.591 69 68 74
-0.112384 -0.302923 -0.599 116 114 125
-0.105118 -0.322646 -0.638 193 194 196
-0.0820286 -0.322646 -0.638 35 34 40
0.0865457 -0.222009 -0.439 205 167 154
0.0925981 -0.220491 -0.436 208 168 156
0.104573 -0.21948 -0.434 194 153 135
0.109281 -0.218974 -0.433 190 145 126
0.114493 -0.21948 -0.434 173 126 110
0.132056 -0.224031 -0.443 136 92 83
0.134348 -0.225043 -0.445 131 90 84
0.172665 -0.249823 -0.494 251 250 255
0.372167 -0.27258 -0.539 133 90 84
0.37513 -0.269546 -0.533 143 96 88
0.380946 -0.266511 -0.527 151 103 93
0.38277 -0.264994 -0.524 155 105 94
0.383768 -0.264994 -0.524 155 105 94
0.408774 -0.262466 -0.519 156 106 97
0.410751 -0.262466 -0.519 156 106 97
0.41174 -0.262466 -0.519 154 104 95
0.419649 -0.262466 -0.519 147 98 91
0.424591 -0.262466 -0.519 142 95 85
0.427557 -0.262466 -0.519 140 93 83
0.467486 -0.273086 -0.54 127 86 80
0.920736 -0.318094 -0.629 212 214 201
0.926727 -0.318094 -0.629 212 214 203
0.927925 -0.318094 -0.629 212 214 203
0.931519 -0.318094 -0.629 212 214 203
0.941104 -0.318094 -0.629 212 214 203
0.948292 -0.318094 -0.629 212 214 203
0.977523 -0.317083 -0.627 209 211 197
0.985883 -0.317083 -0.627 209 211 197
1.00179 -0.316071 -0.625 207 209 196
1.00655 -0.316071 -0.625 209 211 198
1.0177 -0.316577 -0.626 207 209 195
1.06266 -0.31506 -0.623 205 208 191
1.08639 -0.31506 -0.623 204 206 193
1.1095 -0.313543 -0.62 203 205 192
1.1176 -0.31152 -0.616 202 204 190
-0.110241 -0.314216 -0.619 228 226 231
-0.0854057 -0.322846 -0.636 34 33 39
0.09548 -0.220307 -0.434 206 164 150
0.10292 -0.220307 -0.434 200 159 141
0.107631 -0.219799 -0.433 192 147 128
0.11258 -0.219799 -0.433 179 132 112
0.11423 -0.219799 -0.433 172 125 109
0.118343 -0.221322 -0.436 163 115 101
0.12726 -0.22386 -0.441 138 91 81
0.138976 -0.227921 -0.449 118 84 82
0.140143 -0.228429 -0.45 117 83 81
0.145486 -0.231474 -0.456 104 78 79
0.14939 -0.233505 -0.46 100 75 78
0.154002 -0.23655 -0.466 96 76 78
0.37388 -0.27716 -0.546 124 84 82
0.383229 -0.267008 -0.526 152 104 92
0.392957 -0.263454 -0.519 159 111 99
0.39516 -0.262947 -0.518 156 108 96
0.41866 -0.263454 -0.519 150 100 89
0.46473 -0.273099 -0.538 127 87 79
0.467486 -0.274114 -0.54 127 86 80
0.963191 -0.318277 -0.627 210 212 199
1.03631 -0.317262 -0.625 206 210 195
1.04107 -0.317262 -0.625 206 210 195
1.05673 -0.316247 -0.623 206 209 192
1.07215 -0.316247 -0.623 206 209 192
1.08465 -0.315739 -0.622 205 207 194
-0.116314 -0.300619 -0.59 75 75 85
-0.1107 -0.313357 -0.615 229 227 232
-0.107741 -0.322019 -0.632 221 219 224
0.0963067 -0.221133 -0.434 203 164 149
0.10044 -0.221133 -0.434 198 156 140
0.10292 -0.221133 -0.434 196 155 137
0.132354 -0.226229 -0.444 131 92 85
0.1443 -0.231833 -0.455 103 78 81
0.15004 -0.2354 -0.462 99 73 74
0.381625 -0.286352 -0.562 118 78 78
0.381384 -0.269538 -0.529 151 105 92
0.396147 -0.263933 -0.518 159 110 96
0.397133 -0.263933 -0.518 160 111 97
0.420637 -0.264443 -0.519 149 100 86
0.434324 -0.264952 -0.52 135 91 80
0.450057 -0.269029 -0.528 124 80 71
0.975964 -0.318962 -0.626 210 212 199
0.985119 -0.318452 -0.625 211 213 199
1.04367 -0.317433 -0.623 204 208 191
1.05554 -0.317433 -0.623 206 209 192
1.06332 -0.316924 -0.622 206 209 192
1.08764 -0.316414 -0.621 204 206 193
1.09237 -0.316414 -0.621 204 206 192
1.10182 -0.315395 -0.619 203 205 191
1.11813 -0.313357 -0.615 201 203 189
-0.114647 -0.303277 -0.593 73 72 80
-0.108428 -0.321689 -0.629 229 227 232
-0.086481 -0.324757 -0.635 37 36 44
0.0901067 -0.222983 -0.436 206 168 157
0.0996133 -0.22196 -0.434 201 159 145
0.105157 -0.221449 -0.433 190 147 130
0.118343 -0.222983 -0.436 160 113 97
0.377667 -0.281286 -0.55 120 80 78
0.382674 -0.270034 -0.528 150 104 89
0.40108 -0.26492 -0.518 155 108 92
0.406797 -0.265431 -0.519 157 108 93
0.409763 -0.265431 -0.519 154 105 90
0.438977 -0.266966 -0.522 134 88 75
0.451917 -0.270546 -0.529 124 80 71
0.456507 -0.27208 -0.532 123 80 71
0.47946 -0.280774 -0.549 126 85 79
0.922586 -0.320666 -0.627 213 215 204
0.926169 -0.320666 -0.627 212 214 201
0.938111 -0.320666 -0.627 211 213 202
0.960463 -0.320154 -0.626 211 213 200
0.974405 -0.319643 -0.625 209 211 198
0.976786 -0.319643 -0.625 209 211 198
0.983543 -0.319131 -0.624 210 212 198
0.98592 -0.319131 -0.624 210 212 198
0.99146 -0.31862 -0.623 209 211 197
0.993833 -0.31862 -0.623 209 211 197
1.00689 -0.31862 -0.623 207 209 195
1.02231 -0.31862 -0.623 207 209 195
1.03109 -0.319131 -0.624 206 210 196
1.05198 -0.31862 -0.623 206 208 194
1.07344 -0.317597 -0.621 205 207 193
1.07991 -0.318109 -0.622 204 206 192
1.09297 -0.317086 -0.62 203 205 191
1.0971 -0.316574 -0.619 204 206 192
1.10064 -0.316574 -0.619 203 205 191
1.10182 -0.316574 -0.619 203 205 191
1.11631 -0.314017 -0.614 201 203 189
1.12033 -0.313506 -0.613 203 205 191
-0.14036 -0.327507 -0.638 79 82 89
-0.129022 -0.314673 -0.613 74 77 84
-0.119165 -0.304407 -0.593 76 77 82
0.0884457 -0.223813 -0.436 202 164 153
0.0915571 -0.2233 -0.435 206 166 154
0.101858 -0.222273 -0.433 194 151 132
0.120554 -0.22484 -0.438 159 111 97
0.38152 -0.273093 -0.532 145 99 86
0.382105 -0.272067 -0.53 150 104 89
0.38423 -0.270013 -0.526 151 104 88
0.3845 -0.2695 -0.525 152 105 89
0.38702 -0.268473 -0.523 155 109 94
0.387274 -0.26796 -0.522 154 108 93
0.388517 -0.267447 -0.521 155 109 94
0.39812 -0.265907 -0.518 153 106 90
0.399107 -0.265907 -0.518 154 107 91
0.426733 -0.265907 -0.518 143 96 80
0.451917 -0.271553 -0.529 124 80 69
0.885563 -0.32186 -0.627 214 215 207
0.940192 -0.321347 -0.626 212 214 201
0.956886 -0.321347 -0.626 210 212 199
0.974034 -0.32032 -0.624 209 211 198
1.00451 -0.319807 -0.623 207 209 196
1.01757 -0.319807 -0.623 208 210 196
1.02469 -0.319807 -0.623 208 210 196
1.03418 -0.319807 -0.623 206 210 195
1.08172 -0.31878 -0.621 205 207 194
1.08589 -0.318267 -0.62 203 205 192
1.09828 -0.317753 -0.619 203 205 191
-0.112357 -0.311719 -0.605 75 75 85
-0.0854057 -0.327691 -0.636 43 42 48
0.0788962 -0.22825 -0.443 204 167 158
0.100209 -0.223098 -0.433 198 155 139
0.111755 -0.223098 -0.433 170 124 109
0.147081 -0.237525 -0.461 98 75 81
0.151339 -0.240101 -0.466 97 81 92
0.379353 -0.277713 -0.539 136 89 83
0.384407 -0.272561 -0.529 150 104 89
0.486814 -0.285957 -0.555 125 86 79
0.912768 -0.322539 -0.626 213 215 202
0.979593 -0.320993 -0.623 208 210 197
0.996977 -0.320478 -0.622 209 211 198
1.0029 -0.320478 -0.622 207 209 196
1.01356 -0.320478 -0.622 207 209 195
1.03134 -0.320478 -0.622 206 210 195
1.0337 -0.320478 -0.622 205 209 192
1.07171 -0.319448 -0.62 205 207 193
1.0729 -0.319448 -0.62 205 207 193
1.1185 -0.315326 -0.612 201 203 189
-0.136849 -0.327351 -0.633 77 80 85
-0.112357 -0.312871 -0.605 76 76 84
-0.107059 -0.324766 -0.628 225 225 227
-0.0901095 -0.328386 -0.635 42 41 49
0.0993838 -0.223923 -0.433 202 160 148
0.100209 -0.223923 -0.433 198 154 141
0.117782 -0.225991 -0.437 157 109 97
0.399877 -0.268397 -0.519 152 106 91
0.410751 -0.268397 -0.519 151 104 88
0.41174 -0.268397 -0.519 152 105 89
0.419649 -0.268397 -0.519 149 102 86
0.462138 -0.276671 -0.535 125 87 74
0.923214 -0.323214 -0.625 212 214 201
0.926786 -0.323214 -0.625 212 214 203
0.945833 -0.323214 -0.625 211 213 200
0.979206 -0.321663 -0.622 209 211 198
0.99774 -0.321146 -0.621 207 209 195
1.05097 -0.321146 -0.621 207 210 193
1.06463 -0.320629 -0.62 205 208 191
-0.13295 -0.324924 -0.626 79 82 87
-0.12648 -0.317657 -0.612 77 78 83
0.105157 -0.224748 -0.433 183 141 119
0.114757 -0.225786 -0.435 162 113 99
0.12474 -0.2289 -0.441 144 101 94
0.135857 -0.233571 -0.45 110 85 81
0.382556 -0.284438 -0.548 120 87 80
0.381836 -0.282362 -0.544 128 91 85
0.384849 -0.275614 -0.531 150 102 88
0.389263 -0.270943 -0.522 155 107 93
0.390257 -0.270943 -0.522 154 108 93
0.393946 -0.269386 -0.519 153 107 91
0.394934 -0.269386 -0.519 153 107 91
0.396911 -0.269386 -0.519 148 102 86
0.402843 -0.269386 -0.519 151 103 89
0.405809 -0.269386 -0.519 151 103 89
0.408774 -0.269386 -0.519 151 104 88
0.416683 -0.269386 -0.519 151 103 89
0.433489 -0.269386 -0.519 138 92 79
0.440966 -0.270943 -0.522 129 85 74
0.487871 -0.288071 -0.555 128 89 82
0.91936 -0.323886 -0.624 211 213 200
0.924114 -0.323886 -0.624 212 214 201
0.969728 -0.322848 -0.622 209 211 198
0.984729 -0.322329 -0.621 208 210 197
1.03038 -0.32181 -0.62 206 209 192
1.05584 -0.32129 -0.619 206 208 194
1.07885 -0.320771 -0.618 205 207 193
1.10179 -0.320252 -0.617 203 205 192
1.10414 -0.320252 -0.617 203 205 192
1.11173 -0.319733 -0.616 203 205 192
-0.135214 -0.328721 -0.631 81 84 89
-0.113322 -0.314655 -0.604 73 74 79
0.0777 -0.22974 -0.441 204 167 158
0.0927857 -0.225572 -0.433 202 163 148
0.136159 -0.23495 -0.451 109 84 80
0.158959 -0.250578 -0.481 221 222 242
0.384644 -0.285482 -0.548 120 87 80
0.385133 -0.276105 -0.53 150 104 91
0.443803 -0.272458 -0.523 129 87 75
0.45666 -0.276626 -0.531 121 81 71
0.465911 -0.279751 -0.537 122 84 73
0.547303 -0.318823 -0.612 181 192 222
0.88608 -0.325074 -0.624 213 215 204
0.908663 -0.325074 -0.624 212 214 201
0.909851 -0.325074 -0.624 211 213 200
0.916983 -0.325074 -0.624 211 213 202
0.956695 -0.324032 -0.622 210 212 199
0.975651 -0.324032 -0.622 210 212 199
0.976836 -0.324032 -0.622 210 212 199
0.988277 -0.323511 -0.621 209 211 198
0.99141 -0.32299 -0.62 208 210 197
1.01621 -0.32299 -0.62 208 210 197
1.02518 -0.32247 -0.619 207 210 193
1.04405 -0.32247 -0.619 206 209 192
1.0582 -0.32247 -0.619 206 209 192
1.07061 -0.321949 -0.618 205 207 193
1.08768 -0.321428 -0.617 203 205 192
1.10939 -0.320907 -0.616 203 205 192
1.11291 -0.320907 -0.616 202 204 191
1.11397 -0.319865 -0.614 202 204 191
1.11683 -0.319344 -0.613 202 204 191
1.11734 -0.318823 -0.612 203 205 192
-0.137065 -0.331491 -0.634 78 81 86
-0.122179 -0.317897 -0.608 84 87 94
-0.114472 -0.315806 -0.604 79 79 87
-0.111144 -0.319466 -0.611 76 76 84
-0.107883 -0.323649 -0.619 231 230 238
-0.0947981 -0.331491 -0.634 50 50 58
0.07902 -0.229534 -0.439 201 165 153
0.0805086 -0.229011 -0.438 201 163 152
0.0944352 -0.226397 -0.433 200 158 142
0.0977343 -0.226397 -0.433 194 151 135
0.103508 -0.226397 -0.433 183 142 122
0.113929 -0.227443 -0.435 158 110 98
0.147154 -0.242606 -0.464 100 80 81
0.386006 -0.279206 -0.534 140 97 88
0.3895 -0.2745 -0.525 154 104 93
0.394705 -0.271886 -0.52 149 101 87
0.400866 -0.271363 -0.519 148 99 85
0.41866 -0.271363 -0.519 150 101 86
0.440121 -0.272409 -0.521 129 85 72
0.47788 -0.28548 -0.546 131 91 83
0.481551 -0.287049 -0.549 125 87 78
0.485234 -0.288617 -0.552 122 84 75
0.92382 -0.32574 -0.623 212 214 201
0.939247 -0.32574 -0.623 211 213 199
0.949927 -0.32574 -0.623 212 214 200
0.985911 -0.324694 -0.621 209 211 198
0.99141 -0.324171 -0.62 208 210 196
0.996133 -0.324171 -0.62 208 210 196
1.01457 -0.323649 -0.619 208 210 196
1.04471 -0.323126 -0.618 207 209 195
1.0724 -0.322603 -0.617 205 208 191
1.07946 -0.322603 -0.617 204 206 192
1.08063 -0.322603 -0.617 204 206 192
1.08416 -0.322603 -0.617 204 206 193
1.08533 -0.322603 -0.617 204 206 193
1.10704 -0.32208 -0.616 204 206 193
-0.116967 -0.317481 -0.605 84 87 92
-0.0922371 -0.332174 -0.633 43 42 48
0.0730724 -0.238242 -0.454 204 168 156
0.0809714 -0.228796 -0.436 208 170 159
0.0894867 -0.227222 -0.433 206 166 154
0.0903114 -0.227222 -0.433 204 165 150
0.0911362 -0.227222 -0.433 201 162 147
0.106807 -0.227222 -0.433 174 132 110
0.1131 -0.228271 -0.435 157 111 96
0.12615 -0.23247 -0.443 132 91 85
0.14627 -0.24349 -0.464 103 78 82
0.395122 -0.297015 -0.566 116 84 85
0.3905 -0.2755 -0.525 153 103 92
0.392001 -0.27445 -0.523 155 105 94
0.39324 -0.273926 -0.522 155 105 94
0.394471 -0.273401 -0.521 152 102 91
0.436454 -0.272351 -0.519 135 89 76
0.441113 -0.273401 -0.521 133 89 78
0.450356 -0.276025 -0.526 124 84 74
0.887033 -0.326927 -0.623 213 215 202
0.922337 -0.326402 -0.622 212 214 201
0.943663 -0.326402 -0.622 211 213 199
0.947217 -0.326402 -0.622 212 214 200
0.952791 -0.325877 -0.621 210 212 199
0.989048 -0.325352 -0.62 208 210 196
0.99259 -0.325352 -0.62 208 210 196
1.01058 -0.324303 -0.618 208 210 196
1.0301 -0.323778 -0.617 207 210 193
1.04001 -0.324303 -0.618 205 208 191
1.05478 -0.323778 -0.617 205 208 191
1.05595 -0.323778 -0.617 205 208 191
1.07771 -0.323253 -0.616 204 206 192
1.07888 -0.323253 -0.616 204 206 192
1.09061 -0.323253 -0.616 204 206 193
1.09821 -0.322729 -0.615 202 204 191
-0.125366 -0.32548 -0.618 89 92 99
-0.1189 -0.32074 -0.609 89 93 96
-0.112308 -0.321793 -0.611 80 83 88
0.102683 -0.228047 -0.433 182 139 123
0.105737 -0.22752 -0.432 175 133 111
0.109533 -0.228573 -0.434 168 122 106
0.123339 -0.232787 -0.442 140 97 91
0.155886 -0.2528 -0.48 255 251 255
0.390574 -0.28914 -0.549 113 82 79
0.389171 -0.279133 -0.53 147 99 89
0.401854 -0.27334 -0.519 147 99 85
0.41866 -0.27334 -0.519 149 100 85
0.42476 -0.272813 -0.518 150 101 86
0.426894 -0.272287 -0.517 142 93 78
0.428864 -0.272287 -0.517 142 93 78
0.430833 -0.272287 -0.517 143 95 81
0.466065 -0.282293 -0.536 130 90 82
0.952438 -0.326533 -0.62 210 212 198
0.963067 -0.326533 -0.62 210 212 199
0.96661 -0.326533 -0.62 209 211 198
1.01952 -0.324953 -0.617 207 210 193
1.02069 -0.324953 -0.617 207 210 193
1.03245 -0.324953 -0.617 206 209 192
1.05478 -0.324953 -0.617 205 207 193
1.08299 -0.3239 -0.615 204 206 193
0.09526 -0.228871 -0.433 193 152 134
0.104914 -0.228343 -0.432 174 131 114
0.107631 -0.228871 -0.433 170 127 110
0.117217 -0.231514 -0.438 150 104 91
0.121105 -0.232571 -0.44 140 97 90
0.126434 -0.234686 -0.444 130 89 83
0.397449 -0.275386 -0.521 150 102 88
0.399433 -0.275386 -0.521 150 102 88
0.417671 -0.274329 -0.519 148 99 84
0.438431 -0.274329 -0.519 133 87 74
0.476289 -0.287014 -0.543 123 85 76
0.932683 -0.328243 -0.621 211 213 200
0.995274 -0.326657 -0.618 208 210 196
0.997629 -0.326657 -0.618 208 210 196
0.997189 -0.326129 -0.617 208 210 196
1.00587 -0.326657 -0.618 209 211 197
1.00659 -0.326129 -0.617 208 210 196
1.01717 -0.326129 -0.617 208 211 194
1.02373 -0.3256 -0.616 207 210 193
1.02725 -0.3256 -0.616 206 209 192
1.04016 -0.3256 -0.616 205 208 191
1.04251 -0.3256 -0.616 205 208 191
1.05541 -0.3256 -0.616 205 207 193
1.05839 -0.325071 -0.615 204 206 192
1.11163 -0.324543 -0.614 202 204 191
1.11332 -0.324014 -0.613 202 204 191
-0.116368 -0.325712 -0.614 99 100 104
-0.110063 -0.327834 -0.618 95 96 101
-0.108886 -0.327834 -0.618 80 80 88
-0.102976 -0.331548 -0.625 61 60 68
