ply
format ascii 1.0
comment Created by Open3D
element vertex 1290
property double x
property double y
property double z
property uchar red
property uchar green
property uchar blue
end_header
0.325331 -0.0974343 -0.578 89 79 87
0.326997 -0.0976029 -0.579 86 76 84
0.33814 -0.0982771 -0.583 112 100 110
0.349153 -0.09794 -0.581 128 114 131
0.35026 -0.09794 -0.581 128 114 131
0.352855 -0.0974343 -0.578 141 121 133
0.358217 -0.0970971 -0.576 121 109 123
0.35046 -0.0895114 -0.531 152 121 127
0.36627 -0.0891743 -0.529 157 124 131
0.367971 -0.0893429 -0.53 158 125 132
0.368981 -0.0893429 -0.53 159 126 133
0.0420914 -0.0866019 -0.508 194 154 146
0.0477086 -0.0862609 -0.506 197 153 144
0.0740229 -0.0866019 -0.508 179 130 116
0.0883067 -0.0883067 -0.518 170 113 106
0.138855 -0.0923981 -0.542 154 106 94
0.154133 -0.0954667 -0.56 109 70 71
0.176306 -0.102797 -0.603 134 83 88
0.204046 -0.107741 -0.632 75 46 64
0.207986 -0.107911 -0.633 75 49 62
0.22386 -0.108593 -0.637 203 133 135
0.320931 -0.0992171 -0.582 85 79 83
0.32257 -0.0983648 -0.577 84 78 82
0.348552 -0.0988762 -0.58 116 103 121
0.361177 -0.0975124 -0.572 113 95 107
0.357437 -0.0956371 -0.561 147 114 123
0.346053 -0.0906933 -0.532 144 111 118
0.34808 -0.0906933 -0.532 147 114 121
0.352829 -0.0903524 -0.53 148 115 122
0.0384467 -0.0880867 -0.511 193 152 146
0.0449057 -0.0873971 -0.507 198 155 148
0.0931438 -0.0901552 -0.523 174 116 112
0.0956819 -0.0906724 -0.526 174 119 114
0.120983 -0.0923962 -0.536 193 141 130
0.15252 -0.0961886 -0.558 109 70 71
0.219161 -0.110496 -0.641 209 157 159
0.330876 -0.0999809 -0.58 75 65 73
0.348678 -0.0937752 -0.544 146 113 120
0.358537 -0.0910171 -0.528 147 115 120
0.03404 -0.09028 -0.518 190 151 146
0.05616 -0.08784 -0.504 197 153 144
0.05808 -0.08784 -0.504 194 150 141
0.0648 -0.08784 -0.504 192 148 137
0.0833829 -0.0892343 -0.512 166 109 100
0.089121 -0.0901057 -0.517 169 112 105
0.107486 -0.0941143 -0.54 198 145 141
0.113447 -0.09394 -0.539 207 154 148
0.120306 -0.0928943 -0.533 187 135 124
0.191704 -0.109974 -0.631 101 68 75
0.320372 -0.101609 -0.583 88 78 86
0.32038 -0.10126 -0.581 86 76 84
0.326997 -0.100911 -0.579 85 75 84
0.335873 -0.10126 -0.581 66 52 65
0.339193 -0.10126 -0.581 102 89 99
0.3403 -0.10126 -0.581 78 66 76
0.344133 -0.101086 -0.58 170 157 174
0.354443 -0.100563 -0.577 167 158 175
0.356641 -0.100563 -0.577 174 167 183
0.3498 -0.0923714 -0.53 148 115 122
0.351155 -0.0921971 -0.529 146 113 120
0.373623 -0.0920229 -0.528 157 122 126
0.033181 -0.091619 -0.52 190 151 144
0.0375467 -0.0902095 -0.512 197 158 151
0.0402352 -0.089681 -0.509 200 160 152
0.0449057 -0.0893286 -0.507 195 155 147
0.05808 -0.0888 -0.504 194 151 142
0.0719457 -0.0893286 -0.507 185 136 119
0.0822467 -0.0900333 -0.511 166 109 100
0.0843581 -0.0902095 -0.512 166 109 100
0.0961324 -0.0921476 -0.523 185 131 121
0.114214 -0.0939095 -0.533 203 150 142
0.206424 -0.113995 -0.647 214 163 162
0.34735 -0.101838 -0.578 175 164 180
0.359914 -0.100429 -0.57 162 142 153
0.35234 -0.0974333 -0.553 151 119 124
0.344303 -0.0940857 -0.534 146 113 120
0.0366429 -0.0913629 -0.513 195 156 149
0.0617971 -0.0895819 -0.503 192 148 139
0.0678143 -0.0899381 -0.505 188 141 131
0.0729114 -0.0902943 -0.507 180 131 116
0.0759581 -0.0904724 -0.508 177 125 111
0.0920752 -0.0920752 -0.517 170 113 104
0.0945905 -0.0926095 -0.52 180 123 114
0.121648 -0.0943905 -0.53 179 122 111
0.331981 -0.103295 -0.58 71 61 72
0.33861 -0.103295 -0.58 82 72 83
0.353956 -0.102939 -0.578 129 121 142
0.34879 -0.0943905 -0.53 151 116 122
0.35585 -0.0938562 -0.527 146 114 117
0.37693 -0.0938562 -0.527 153 121 126
0.377934 -0.0938562 -0.527 153 118 122
0.0365714 -0.09216 -0.512 194 157 149
0.0550905 -0.09054 -0.503 196 153 144
0.06384 -0.09072 -0.504 191 147 134
0.06576 -0.09072 -0.504 192 146 133
0.0897571 -0.0927 -0.515 165 106 98
0.14196 -0.09828 -0.546 121 80 74
0.15606 -0.10206 -0.567 120 74 84
0.325331 -0.10404 -0.578 91 81 90
0.329771 -0.1044 -0.58 75 65 74
0.336923 -0.10422 -0.579 77 66 80
0.340231 -0.10422 -0.579 142 131 147
0.341846 -0.10404 -0.578 138 125 142
0.359183 -0.09468 -0.526 145 113 116
0.361187 -0.09468 -0.526 145 115 115
0.365194 -0.09468 -0.526 147 115 116
0.376215 -0.09468 -0.526 150 120 122
0.377217 -0.09468 -0.526 149 119 119
0.0467448 -0.0920438 -0.506 195 152 145
0.0570067 -0.0914981 -0.503 191 148 141
0.0716619 -0.0918619 -0.505 180 128 117
0.091719 -0.0936809 -0.515 168 111 100
0.0950295 -0.0940448 -0.517 174 117 110
0.10092 -0.0949543 -0.522 193 136 125
0.10211 -0.0951362 -0.523 195 138 129
0.121189 -0.0960457 -0.528 174 116 104
0.139624 -0.0991381 -0.545 123 79 76
0.144048 -0.100048 -0.55 114 64 67
0.169149 -0.108051 -0.594 181 111 121
0.318726 -0.105141 -0.578 81 74 82
0.333086 -0.105505 -0.58 75 63 73
0.3364 -0.105505 -0.58 80 64 75
0.34565 -0.104959 -0.577 131 123 144
0.359786 -0.104595 -0.575 138 124 137
0.351922 -0.100775 -0.554 143 113 121
0.3635 -0.0955 -0.525 148 114 115
0.0448171 -0.0930076 -0.506 198 155 149
0.0485762 -0.0928238 -0.505 198 155 148
0.0905619 -0.0944781 -0.514 165 108 97
0.101719 -0.0957648 -0.521 197 140 131
0.125686 -0.097419 -0.53 155 101 91
0.14615 -0.10183 -0.554 115 67 67
0.317014 -0.107529 -0.585 82 72 81
0.326997 -0.106426 -0.579 103 92 100
0.35869 -0.10569 -0.575 90 84 96
0.354667 -0.102933 -0.56 146 115 121
0.343169 -0.0987057 -0.537 146 117 121
0.34338 -0.0976029 -0.531 154 119 125
0.3785 -0.0965 -0.525 148 113 117
0.386234 -0.0966838 -0.526 153 118 122
0.388976 -0.0968676 -0.527 151 116 122
0.0504 -0.0936 -0.504 201 158 151
0.0840286 -0.0947143 -0.51 167 110 99
0.0872838 -0.0950857 -0.512 165 111 101
0.0882591 -0.0950857 -0.512 163 109 99
0.141952 -0.102143 -0.55 116 70 73
0.322029 -0.107343 -0.578 83 71 81
0.338543 -0.107343 -0.578 122 108 125
0.341846 -0.107343 -0.578 213 200 218
0.354926 -0.106971 -0.576 144 147 162
0.350831 -0.0978714 -0.527 151 116 122
0.36181 -0.0973143 -0.524 150 115 119
0.3668 -0.0973143 -0.524 147 113 114
0.378777 -0.0973143 -0.524 146 114 115
0.38277 -0.0973143 -0.524 150 118 121
0.0466524 -0.0947476 -0.505 195 155 147
0.04848 -0.09456 -0.504 198 155 148
0.0504 -0.09456 -0.504 200 157 150
0.0522162 -0.0943724 -0.503 199 156 149
0.0696 -0.09456 -0.504 183 134 119
0.0746952 -0.0949352 -0.506 173 121 108
0.0872838 -0.096061 -0.512 165 111 101
0.09234 -0.0962486 -0.513 174 117 110
0.0944781 -0.0964362 -0.514 178 121 114
0.0977943 -0.0968114 -0.516 188 131 124
0.108666 -0.0977495 -0.521 190 135 128
0.139094 -0.102628 -0.547 118 72 75
0.145095 -0.103941 -0.554 117 66 63
0.157167 -0.107881 -0.575 139 84 89
0.329203 -0.108631 -0.579 59 46 55
0.346149 -0.108069 -0.576 106 102 117
0.351634 -0.108069 -0.576 144 149 168
0.342146 -0.100751 -0.537 143 112 117
0.354173 -0.0986876 -0.526 149 114 120
0.0392657 -0.0964676 -0.509 198 157 153
0.0401562 -0.0962781 -0.508 197 156 152
0.0892343 -0.0970362 -0.512 162 108 98
0.0989686 -0.0979838 -0.517 193 136 129
0.121963 -0.099879 -0.527 153 100 86
0.15309 -0.10765 -0.568 171 106 110
0.325894 -0.109734 -0.579 73 63 71
0.347246 -0.109166 -0.576 127 125 138
0.351168 -0.0996895 -0.526 150 115 122
0.3575 -0.0995 -0.525 148 113 119
0.3661 -0.099121 -0.523 149 114 118
0.371081 -0.099121 -0.523 147 113 114
0.384031 -0.099121 -0.523 144 112 115
0.3925 -0.0995 -0.525 152 117 121
0.442927 -0.104807 -0.553 194 137 143
0.0355962 -0.0980114 -0.512 190 151 146
0.0503 -0.0962886 -0.503 198 154 143
0.0911848 -0.0980114 -0.512 173 119 109
0.0987771 -0.0987771 -0.516 193 136 129
0.104294 -0.0993514 -0.519 195 140 135
0.106271 -0.0993514 -0.519 191 134 127
0.111643 -0.0997343 -0.521 176 119 108
0.129686 -0.102223 -0.534 131 80 76
0.143243 -0.106243 -0.555 118 76 80
0.314877 -0.110454 -0.577 79 74 81
0.343452 -0.110454 -0.577 96 92 109
0.345051 -0.110263 -0.576 100 96 111
0.346149 -0.110263 -0.576 106 104 117
0.35402 -0.109306 -0.571 76 75 83
0.349164 -0.100691 -0.526 150 115 122
0.3661 -0.100117 -0.523 149 114 118
0.373073 -0.100117 -0.523 145 111 112
0.03144 -0.101307 -0.524 197 154 147
0.0364286 -0.0986 -0.51 192 153 146
0.0401562 -0.0982133 -0.508 197 154 147
0.0493419 -0.0972467 -0.503 197 153 142
0.0503 -0.0972467 -0.503 196 152 141
0.0796714 -0.09802 -0.507 180 123 114
0.110438 -0.100533 -0.52 177 120 109
0.111643 -0.100727 -0.521 176 118 106
0.125686 -0.102467 -0.53 140 90 81
0.152275 -0.110007 -0.569 228 162 163
0.313778 -0.111553 -0.577 70 63 70
0.345051 -0.11136 -0.576 83 79 94
0.348833 -0.111167 -0.575 61 61 73
0.351507 -0.110973 -0.574 64 69 88
0.338056 -0.102273 -0.529 144 113 119
0.33979 -0.101887 -0.527 145 112 119
0.3525 -0.1015 -0.525 148 113 119
0.354823 -0.101307 -0.524 146 111 117
0.380314 -0.10092 -0.522 144 109 113
0.387274 -0.10092 -0.522 140 106 107
0.0347562 -0.100352 -0.514 191 152 145
0.0869429 -0.0995714 -0.51 175 118 107
0.0879143 -0.0995714 -0.51 175 118 109
0.0942943 -0.100157 -0.513 180 124 111
0.0964362 -0.100352 -0.514 185 128 117
0.1232 -0.103086 -0.528 144 94 85
0.343452 -0.112652 -0.577 72 65 81
0.346149 -0.112457 -0.576 105 101 115
0.373354 -0.101914 -0.522 145 113 114
0.374349 -0.101914 -0.522 143 111 112
0.0346886 -0.101134 -0.513 192 151 145
0.0503 -0.0991629 -0.503 189 146 137
0.0596429 -0.0987686 -0.501 191 144 134
0.0755095 -0.0995571 -0.505 180 128 115
0.0785505 -0.0997543 -0.506 181 129 116
0.127173 -0.10488 -0.532 129 82 76
0.138557 -0.108231 -0.549 111 72 75
0.318726 -0.113949 -0.578 79 69 78
0.334139 -0.113949 -0.578 60 47 57
0.366394 -0.102909 -0.522 148 114 115
0.371366 -0.102909 -0.522 146 112 113
0.03132 -0.103903 -0.522 196 156 148
0.04752 -0.10032 -0.504 198 153 147
0.04848 -0.10032 -0.504 195 150 144
0.07248 -0.10032 -0.504 181 130 113
0.0745476 -0.100519 -0.505 182 130 116
0.0972257 -0.102111 -0.513 183 127 114
0.3105 -0.114452 -0.575 76 68 79
0.313234 -0.114651 -0.576 74 66 79
0.314331 -0.114651 -0.576 75 65 74
0.327562 -0.115448 -0.58 52 40 50
0.341254 -0.11485 -0.577 84 76 87
0.348103 -0.113855 -0.572 59 64 70
0.3415 -0.1045 -0.525 144 111 118
0.362417 -0.103903 -0.522 148 113 117
0.375343 -0.103903 -0.522 146 111 115
0.378593 -0.103704 -0.521 146 110 114
0.380578 -0.103704 -0.521 141 109 112
0.397217 -0.103903 -0.522 153 114 117
0.03132 -0.104897 -0.522 197 157 149
0.0605971 -0.100677 -0.501 192 145 135
0.0645429 -0.100878 -0.502 188 140 128
0.07248 -0.10128 -0.504 180 131 116
0.0856343 -0.102084 -0.508 178 125 109
0.103691 -0.103691 -0.516 189 131 119
0.109027 -0.104093 -0.518 170 114 99
0.115834 -0.104897 -0.522 148 95 89
0.142954 -0.112131 -0.558 138 91 97
0.3445 -0.1055 -0.525 148 115 122
0.352827 -0.105299 -0.524 145 110 116
0.362417 -0.104897 -0.522 148 113 117
0.369377 -0.104897 -0.522 146 111 115
0.393479 -0.104696 -0.521 139 107 110
0.394471 -0.104696 -0.521 139 109 109
0.0456 -0.10224 -0.504 201 154 146
0.0512581 -0.102037 -0.503 195 147 137
0.0521124 -0.101834 -0.502 196 148 138
0.0540248 -0.101834 -0.502 195 148 138
0.0664552 -0.101834 -0.502 186 138 126
0.0774333 -0.102443 -0.505 175 123 109
0.106847 -0.104877 -0.517 176 120 105
0.11341 -0.105486 -0.52 150 97 89
0.12891 -0.108529 -0.535 109 69 69
0.31269 -0.116643 -0.575 74 64 75
0.317625 -0.117251 -0.578 73 63 72
0.33582 -0.117454 -0.579 57 44 53
0.343452 -0.117049 -0.577 56 44 54
0.344551 -0.117049 -0.577 58 50 61
0.345051 -0.116846 -0.576 70 62 73
0.3385 -0.1065 -0.525 142 111 117
0.371647 -0.105689 -0.521 143 111 114
0.395695 -0.105486 -0.52 138 104 105
0.0511562 -0.10279 -0.502 195 147 137
0.0521124 -0.10279 -0.502 197 149 139
0.0577343 -0.102586 -0.501 194 146 136
0.0605971 -0.102586 -0.501 193 145 135
0.065499 -0.10279 -0.502 187 139 129
0.0713781 -0.102995 -0.503 177 128 114
0.07248 -0.1032 -0.504 178 126 113
0.101331 -0.105248 -0.514 187 134 118
0.108816 -0.105862 -0.517 161 108 92
0.112203 -0.106271 -0.519 152 100 87
0.115834 -0.106886 -0.522 141 90 87
0.139567 -0.113233 -0.553 155 106 112
0.324248 -0.118762 -0.58 69 57 67
0.343043 -0.113643 -0.555 141 115 118
0.3344 -0.108114 -0.528 143 112 118
0.337141 -0.107705 -0.526 142 109 116
0.3395 -0.1075 -0.525 142 109 116
0.354146 -0.10709 -0.523 144 109 113
0.366685 -0.106681 -0.521 145 110 114
0.371647 -0.106681 -0.521 142 112 114
0.400648 -0.106476 -0.52 140 106 107
0.432999 -0.109138 -0.533 207 148 154
0.0596429 -0.10354 -0.501 193 145 135
0.0989867 -0.105813 -0.512 191 135 120
0.11462 -0.107673 -0.521 144 91 85
0.1232 -0.10912 -0.528 115 74 72
0.347013 -0.118213 -0.572 83 83 91
0.333394 -0.10912 -0.528 144 115 120
0.333767 -0.108913 -0.527 148 117 122
0.356451 -0.10788 -0.522 145 110 114
0.359434 -0.10788 -0.522 145 110 114
0.362715 -0.107673 -0.521 147 112 116
0.365692 -0.107673 -0.521 145 110 114
0.387026 -0.10726 -0.519 139 108 113
0.395923 -0.10726 -0.519 137 106 104
0.421689 -0.109327 -0.529 153 118 116
0.43016 -0.109947 -0.532 193 140 146
0.0483838 -0.104911 -0.503 197 150 140
0.0529629 -0.104494 -0.501 194 147 137
0.0696 -0.10512 -0.504 188 136 123
0.07152 -0.10512 -0.504 189 137 126
0.110013 -0.10804 -0.518 155 102 86
0.313234 -0.120137 -0.576 68 57 65
0.328127 -0.12118 -0.581 47 35 45
0.331409 -0.120763 -0.579 47 34 44
0.334717 -0.120763 -0.579 47 34 43
0.3345 -0.1095 -0.525 138 103 107
0.34518 -0.109083 -0.523 147 112 118
0.397133 -0.10804 -0.518 138 102 102
0.421897 -0.110126 -0.528 146 115 112
0.4332 -0.11096 -0.532 206 150 153
0.03114 -0.109237 -0.519 193 150 141
0.0362857 -0.106922 -0.508 198 155 146
0.0492438 -0.105659 -0.502 195 147 137
0.0793571 -0.10629 -0.505 185 128 117
0.0822429 -0.10629 -0.505 183 126 115
0.126397 -0.112184 -0.533 113 71 72
0.129391 -0.113026 -0.537 110 68 70
0.300229 -0.11955 -0.568 78 67 75
0.321487 -0.122287 -0.581 53 43 52
0.336923 -0.121866 -0.579 44 35 40
0.345437 -0.120603 -0.573 48 36 46
0.341256 -0.117656 -0.559 133 113 125
0.335626 -0.114289 -0.543 146 114 117
0.349165 -0.110079 -0.523 147 112 116
0.3647 -0.109658 -0.521 146 111 115
0.372914 -0.109448 -0.52 144 109 113
0.374895 -0.109448 -0.52 146 109 116
0.388014 -0.109237 -0.519 118 86 89
0.39098 -0.109237 -0.519 115 89 88
0.415707 -0.11029 -0.524 144 110 109
0.0474257 -0.106828 -0.503 197 149 139
0.0577343 -0.106403 -0.501 197 149 139
0.07344 -0.10704 -0.504 188 134 122
0.07536 -0.10704 -0.504 189 135 123
0.0793571 -0.107252 -0.505 186 129 118
0.0956857 -0.108314 -0.51 186 130 115
0.11341 -0.110438 -0.52 142 92 83
0.298093 -0.120208 -0.566 72 61 67
0.330876 -0.123181 -0.58 42 29 39
0.340745 -0.122756 -0.578 49 36 43
0.338853 -0.111288 -0.524 143 111 116
0.357753 -0.11065 -0.521 145 110 114
0.374174 -0.110226 -0.519 149 109 117
0.375163 -0.110226 -0.519 144 104 112
0.396367 -0.109801 -0.517 137 98 101
0.0353876 -0.109071 -0.509 193 152 146
0.0502 -0.107571 -0.502 194 147 139
0.0832048 -0.108214 -0.505 182 126 111
0.10664 -0.110571 -0.516 161 109 95
0.120959 -0.112929 -0.527 126 77 73
0.122194 -0.113143 -0.528 123 74 70
0.297057 -0.120429 -0.562 97 80 86
0.329995 -0.113357 -0.529 156 125 131
0.336857 -0.112286 -0.524 144 109 115
0.355769 -0.111643 -0.521 142 110 113
0.362019 -0.111429 -0.52 146 111 115
0.36499 -0.111429 -0.52 145 110 116
0.379117 -0.111214 -0.519 132 101 106
0.382333 -0.111 -0.518 144 115 117
0.434409 -0.113786 -0.531 204 153 150
0.0353876 -0.110041 -0.509 193 152 146
0.0444629 -0.108528 -0.502 199 154 148
0.0529629 -0.108311 -0.501 200 151 144
0.0675457 -0.108744 -0.503 188 138 127
0.07248 -0.10896 -0.504 188 134 122
0.0945286 -0.110041 -0.509 185 132 118
0.33034 -0.125607 -0.581 38 26 36
0.34169 -0.122148 -0.565 113 97 98
0.348497 -0.112851 -0.522 144 112 115
0.354776 -0.112635 -0.521 143 111 114
0.381347 -0.111987 -0.518 140 110 112
0.38332 -0.111987 -0.518 140 110 112
0.40248 -0.111554 -0.516 132 98 97
0.411543 -0.112419 -0.52 135 99 101
0.417703 -0.113284 -0.524 119 95 93
0.03114 -0.113191 -0.519 194 151 144
0.0327981 -0.112101 -0.514 192 149 143
0.0501 -0.109266 -0.501 194 147 139
0.07152 -0.10992 -0.504 189 132 121
0.09144 -0.110792 -0.508 183 127 114
0.112203 -0.113191 -0.519 136 89 79
0.137957 -0.121043 -0.555 181 119 132
0.140016 -0.121915 -0.559 188 126 139
0.315429 -0.125623 -0.576 52 47 51
0.342655 -0.12475 -0.572 43 32 40
0.342543 -0.124314 -0.57 44 29 34
0.38332 -0.112973 -0.518 138 108 110
0.386519 -0.112755 -0.517 127 96 101
0.397776 -0.112319 -0.515 138 106 107
0.413327 -0.113628 -0.521 129 99 99
0.0312 -0.1144 -0.52 193 150 143
0.0344857 -0.1122 -0.51 189 148 142
0.0371067 -0.11132 -0.506 199 156 149
0.0472371 -0.11022 -0.501 199 152 144
0.0566667 -0.11 -0.5 197 148 141
0.0945286 -0.11198 -0.509 181 128 114
0.107623 -0.11352 -0.516 156 104 91
0.109801 -0.11374 -0.517 147 99 87
0.111 -0.11396 -0.518 146 99 91
0.316526 -0.12672 -0.576 50 41 46
0.3237 -0.12782 -0.581 28 15 24
0.341846 -0.12716 -0.578 40 26 39
0.348822 -0.11462 -0.521 146 111 115
0.3633 -0.11418 -0.519 145 110 116
0.372467 -0.11396 -0.518 145 114 120
0.396583 -0.11352 -0.516 118 86 87
0.411543 -0.1144 -0.52 136 100 102
0.43359 -0.1166 -0.53 201 145 146
0.0490476 -0.110952 -0.5 194 147 139
0.07728 -0.11184 -0.504 186 133 119
0.0860905 -0.112062 -0.505 184 128 115
0.111 -0.114947 -0.518 146 99 91
0.113628 -0.115612 -0.521 137 92 86
0.12312 -0.118053 -0.532 115 74 72
0.287566 -0.122491 -0.552 161 129 134
0.287571 -0.122048 -0.55 162 130 135
0.31872 -0.127817 -0.576 38 27 33
0.32612 -0.116722 -0.526 139 107 110
0.329241 -0.116056 -0.523 140 106 107
0.338207 -0.116056 -0.523 141 109 112
0.356076 -0.11539 -0.52 143 111 114
0.366266 -0.115169 -0.519 136 106 106
0.425719 -0.117388 -0.529 46 16 16
0.431374 -0.117831 -0.531 169 119 120
0.432581 -0.11761 -0.53 196 140 141
0.0471429 -0.111905 -0.5 194 147 139
0.0625057 -0.112129 -0.501 195 147 135
0.07042 -0.112576 -0.503 192 139 125
0.07248 -0.1128 -0.504 187 134 120
0.0822429 -0.113024 -0.505 188 132 119
0.0872248 -0.113248 -0.506 182 129 115
0.09144 -0.113695 -0.508 175 122 108
0.0997667 -0.114367 -0.511 164 111 97
0.103089 -0.114814 -0.513 162 110 97
0.109801 -0.11571 -0.517 142 94 84
0.116278 -0.117276 -0.524 128 84 81
0.302925 -0.12511 -0.559 111 90 89
0.341846 -0.129362 -0.578 35 25 34
0.326876 -0.117276 -0.524 139 107 110
0.377656 -0.11571 -0.517 137 111 114
0.423704 -0.118395 -0.529 45 23 25
0.0327981 -0.116017 -0.514 189 148 142
0.0881886 -0.114211 -0.506 180 126 114
0.0964676 -0.114889 -0.509 166 112 100
0.29068 -0.12324 -0.546 162 131 136
0.331981 -0.130914 -0.58 32 21 29
0.340819 -0.130914 -0.58 35 24 32
0.339061 -0.127754 -0.566 61 46 51
0.332589 -0.117823 -0.522 142 106 108
0.33756 -0.117823 -0.522 140 106 107
0.342868 -0.117597 -0.521 143 111 112
0.3633 -0.117146 -0.519 144 109 113
0.44232 -0.12008 -0.532 183 130 124
0.0345533 -0.116313 -0.511 193 150 144
0.0442857 -0.11381 -0.5 193 149 140
0.0556029 -0.113582 -0.499 195 147 137
0.0664552 -0.114265 -0.502 190 141 126
0.0693238 -0.114265 -0.502 192 138 128
0.0723362 -0.114492 -0.503 186 129 118
0.0792 -0.11472 -0.504 191 133 121
0.0872248 -0.115175 -0.506 179 125 113
0.0933752 -0.11563 -0.508 170 116 104
0.107623 -0.117451 -0.516 144 96 84
0.111214 -0.118134 -0.519 131 87 78
0.119403 -0.12041 -0.529 117 76 74
0.122336 -0.121321 -0.533 117 73 72
0.13052 -0.12428 -0.546 116 75 71
0.28236 -0.12428 -0.546 164 128 140
0.287518 -0.12337 -0.542 161 134 141
0.32308 -0.130653 -0.574 37 28 33
0.325303 -0.131109 -0.576 28 21 28
0.364573 -0.117907 -0.518 144 110 111
0.372732 -0.117679 -0.517 248 236 246
0.377909 -0.117451 -0.516 144 108 112
0.393852 -0.117224 -0.515 135 100 104
0.398757 -0.117224 -0.515 85 57 56
0.429147 -0.121093 -0.532 66 36 38
0.03138 -0.120041 -0.523 191 148 141
0.0371067 -0.116139 -0.506 192 149 140
0.0488514 -0.114303 -0.498 198 151 141
0.0507486 -0.114303 -0.498 195 149 136
0.0575038 -0.114532 -0.499 188 140 130
0.06346 -0.114991 -0.501 192 142 131
0.0644143 -0.114991 -0.501 195 143 130
0.07028 -0.115221 -0.502 190 136 126
0.105248 -0.117975 -0.514 148 100 88
0.282343 -0.123943 -0.54 160 127 134
0.296422 -0.12555 -0.547 156 123 130
0.303381 -0.127156 -0.554 147 116 122
0.308249 -0.128304 -0.559 142 115 120
0.33861 -0.133124 -0.58 28 17 25
0.331594 -0.119811 -0.522 140 106 105
0.345181 -0.119352 -0.52 144 110 111
0.34946 -0.119123 -0.519 143 108 112
0.372732 -0.118664 -0.517 247 233 233
0.386005 -0.118205 -0.515 131 101 103
0.387967 -0.118205 -0.515 135 103 106
0.395046 -0.117975 -0.514 137 98 101
0.400719 -0.118205 -0.515 125 95 93
0.411342 -0.119582 -0.521 128 97 102
0.431571 -0.121648 -0.53 167 112 115
0.439648 -0.121648 -0.53 189 135 133
0.0328619 -0.119186 -0.515 188 148 140
0.0337114 -0.118723 -0.513 189 149 141
0.0406381 -0.116177 -0.502 196 153 146
0.0545429 -0.115251 -0.498 197 149 139
0.0556029 -0.115483 -0.499 194 146 136
0.0575038 -0.115483 -0.499 192 144 134
0.0585714 -0.115714 -0.5 194 144 133
0.0653686 -0.115946 -0.501 192 140 127
0.0976286 -0.118029 -0.51 162 108 98
0.0986 -0.118029 -0.51 155 101 91
0.107831 -0.119649 -0.517 139 92 82
0.127499 -0.125434 -0.542 105 65 63
0.29268 -0.125434 -0.542 156 123 132
0.300643 -0.127054 -0.549 155 122 129
0.34419 -0.120343 -0.52 143 109 110
0.406013 -0.11988 -0.518 136 103 110
0.419886 -0.122194 -0.528 46 26 28
0.432772 -0.122426 -0.529 186 130 129
0.440657 -0.122657 -0.53 187 127 126
0.0379952 -0.117833 -0.505 192 149 140
0.0761686 -0.117367 -0.503 183 132 115
0.0771267 -0.117367 -0.503 182 131 114
0.0860905 -0.117833 -0.505 174 123 106
0.12797 -0.126933 -0.544 115 74 72
0.281797 -0.1253 -0.537 161 125 139
0.318526 -0.1316 -0.564 38 22 32
0.336858 -0.134633 -0.577 31 20 28
0.322268 -0.122033 -0.523 139 105 106
0.346494 -0.1211 -0.519 142 110 113
0.352426 -0.1211 -0.519 143 111 116
0.357667 -0.120867 -0.518 142 110 113
0.371748 -0.120633 -0.517 146 124 127
0.375943 -0.1204 -0.516 139 107 112
0.378891 -0.1204 -0.516 120 88 93
0.389929 -0.120167 -0.515 136 104 107
0.399738 -0.120167 -0.515 124 94 94
0.432772 -0.123433 -0.529 186 130 129
0.0362857 -0.119501 -0.508 193 150 143
0.0644143 -0.117854 -0.501 189 140 125
0.0721924 -0.11809 -0.502 187 136 119
0.0891524 -0.11903 -0.506 164 112 99
0.0924076 -0.119501 -0.508 161 109 98
0.0966571 -0.119971 -0.51 152 99 91
0.282786 -0.125852 -0.535 162 126 140
0.311329 -0.130557 -0.555 143 122 131
0.320674 -0.132674 -0.564 30 14 24
0.328429 -0.134086 -0.57 26 13 22
0.336786 -0.135262 -0.575 27 15 25
0.337706 -0.134321 -0.571 32 19 28
0.334524 -0.132204 -0.562 111 91 100
0.323131 -0.126088 -0.536 140 108 111
0.329606 -0.122794 -0.522 140 105 109
0.340229 -0.122324 -0.52 145 109 111
0.36808 -0.121383 -0.516 142 111 116
0.369063 -0.121383 -0.516 141 110 115
0.380119 -0.121148 -0.515 93 68 71
0.383062 -0.121148 -0.515 98 78 79
0.395046 -0.120912 -0.514 134 98 102
0.411137 -0.122794 -0.522 109 80 85
0.425674 -0.125617 -0.534 36 24 26
0.432772 -0.124441 -0.529 185 129 128
0.03792 -0.11952 -0.504 195 152 145
0.0584543 -0.118334 -0.499 194 146 134
0.0604762 -0.118571 -0.5 195 146 132
0.0790429 -0.119283 -0.503 184 133 114
0.299907 -0.128531 -0.542 152 120 131
0.312313 -0.13114 -0.553 140 119 128
0.331686 -0.135171 -0.57 27 17 26
0.327617 -0.123789 -0.522 136 104 105
0.338586 -0.123077 -0.519 146 107 110
0.346813 -0.12284 -0.518 141 111 113
0.36808 -0.122366 -0.516 138 107 112
0.371029 -0.122366 -0.516 137 106 111
0.378891 -0.122366 -0.516 115 83 86
0.383062 -0.122129 -0.515 76 58 58
0.39015 -0.121891 -0.514 133 103 105
0.393088 -0.121891 -0.514 139 103 107
0.395046 -0.121891 -0.514 129 97 100
0.0379952 -0.120719 -0.505 195 152 146
0.0565533 -0.119285 -0.499 196 148 136
0.0790429 -0.120241 -0.503 182 131 114
0.08208 -0.12048 -0.504 179 128 111
0.0851286 -0.120719 -0.505 172 123 108
0.0872248 -0.120958 -0.506 162 113 98
0.09782 -0.122153 -0.511 145 95 86
0.113284 -0.125261 -0.524 113 72 68
0.114718 -0.125739 -0.526 107 67 67
0.11761 -0.126695 -0.53 102 63 64
0.33102 -0.13554 -0.567 25 14 22
0.329167 -0.132193 -0.553 141 118 128
0.320909 -0.127651 -0.534 137 107 109
0.377176 -0.12311 -0.515 121 89 92
0.385255 -0.12287 -0.514 104 78 81
0.40482 -0.124066 -0.519 132 100 105
0.4135 -0.1255 -0.525 72 45 50
0.430687 -0.128847 -0.539 36 21 24
0.435977 -0.126217 -0.528 199 149 142
0.0362857 -0.122404 -0.508 191 148 141
0.0535943 -0.119994 -0.498 196 149 139
0.0565533 -0.120235 -0.499 195 147 135
0.0604762 -0.120476 -0.5 192 144 130
0.0720486 -0.120717 -0.501 176 127 112
0.0956857 -0.122886 -0.51 146 98 88
0.112071 -0.126018 -0.523 115 75 73
0.11638 -0.127464 -0.529 112 72 73
0.125666 -0.130837 -0.543 107 67 68
0.284774 -0.128428 -0.533 157 124 131
0.299743 -0.129632 -0.538 154 119 126
0.312621 -0.132042 -0.548 149 123 126
0.32109 -0.12915 -0.536 141 112 116
0.342867 -0.124813 -0.518 143 108 114
0.34484 -0.124813 -0.518 140 109 114
0.380119 -0.12409 -0.515 122 97 100
0.0396819 -0.121914 -0.502 192 149 142
0.0487533 -0.1207 -0.497 195 148 138
0.0595238 -0.121429 -0.5 195 147 135
0.0653686 -0.121671 -0.501 184 135 121
0.07014 -0.121671 -0.501 185 136 121
0.093559 -0.123614 -0.509 151 101 92
0.112286 -0.127257 -0.524 119 79 79
0.127633 -0.132843 -0.547 126 87 92
0.27821 -0.130171 -0.536 160 124 134
0.280223 -0.129686 -0.534 163 127 137
0.28124 -0.129686 -0.534 162 126 136
0.299743 -0.130657 -0.538 154 119 126
0.312621 -0.133086 -0.548 149 123 126
0.319786 -0.134786 -0.555 120 98 100
0.317674 -0.126771 -0.522 136 105 102
0.321651 -0.126771 -0.522 137 106 104
0.332305 -0.126286 -0.52 94 92 93
0.353037 -0.125557 -0.517 135 103 108
0.354022 -0.125557 -0.517 158 126 131
0.3612 -0.125314 -0.516 139 104 110
0.366114 -0.125314 -0.516 135 100 106
0.402275 -0.125557 -0.517 132 95 102
0.432586 -0.129929 -0.535 113 68 71
0.440833 -0.128471 -0.529 184 131 125
0.0535943 -0.121891 -0.498 193 146 136
0.0595238 -0.122381 -0.5 194 146 134
0.0750609 -0.12287 -0.502 179 130 115
0.0760171 -0.12287 -0.502 179 130 113
0.0771267 -0.123115 -0.503 178 129 112
0.0790429 -0.123115 -0.503 177 128 111
0.0851286 -0.123605 -0.505 166 116 105
0.093559 -0.124584 -0.509 151 101 92
0.108457 -0.127276 -0.52 117 76 72
0.124402 -0.132661 -0.542 107 68 71
0.125897 -0.13315 -0.544 113 74 77
0.286267 -0.130213 -0.532 159 124 131
0.29548 -0.130703 -0.534 156 121 128
0.319292 -0.130458 -0.533 138 108 110
0.317706 -0.12899 -0.527 139 108 106
0.342867 -0.126787 -0.518 141 108 115
0.34319 -0.126542 -0.517 140 107 114
0.346144 -0.126542 -0.517 137 111 114
0.364149 -0.126297 -0.516 139 103 107
0.370046 -0.126297 -0.516 140 101 106
0.372011 -0.126297 -0.516 139 104 108
0.387437 -0.125563 -0.513 86 60 63
0.432849 -0.132906 -0.543 37 20 26
0.442676 -0.129724 -0.53 178 127 123
0.444523 -0.129969 -0.531 171 120 116
0.057619 -0.123333 -0.5 194 148 133
0.0604762 -0.123333 -0.5 192 144 130
0.0625057 -0.12358 -0.501 192 143 128
0.0790429 -0.124073 -0.503 180 128 115
0.102709 -0.12728 -0.516 130 89 87
0.103892 -0.127527 -0.517 128 87 85
0.27612 -0.13468 -0.546 162 125 132
0.277171 -0.13172 -0.534 161 125 135
0.318094 -0.13098 -0.531 134 105 109
0.316895 -0.129253 -0.524 134 105 107
0.33562 -0.12802 -0.519 168 168 176
0.347129 -0.127527 -0.517 137 108 112
0.357269 -0.12728 -0.516 141 107 106
0.397004 -0.126787 -0.514 132 100 103
0.437079 -0.134927 -0.547 41 20 27
0.0362857 -0.126274 -0.508 193 148 142
0.0486552 -0.123291 -0.496 195 149 136
0.0682314 -0.124534 -0.501 188 135 119
0.0730029 -0.124534 -0.501 183 130 116
0.0739571 -0.124534 -0.501 181 128 112
0.0760171 -0.124783 -0.502 179 127 113
0.08304 -0.12528 -0.504 167 115 101
0.112714 -0.130749 -0.526 119 77 78
0.12166 -0.13398 -0.539 109 69 70
0.131851 -0.138206 -0.556 167 115 117
0.133867 -0.1392 -0.56 171 119 121
0.291248 -0.131743 -0.53 155 123 128
0.31275 -0.134477 -0.541 148 116 121
0.318058 -0.129506 -0.521 140 108 113
0.331027 -0.12876 -0.518 191 212 215
0.338266 -0.128511 -0.517 194 190 191
0.34744 -0.128263 -0.516 132 100 103
0.348423 -0.128263 -0.516 139 107 110
0.359519 -0.128014 -0.515 145 109 111
0.0347562 -0.128745 -0.514 185 147 138
0.0486552 -0.124236 -0.496 195 149 136
0.0925895 -0.127492 -0.509 146 96 89
0.0983943 -0.128745 -0.514 138 88 87
0.130322 -0.138764 -0.554 228 182 182
0.273614 -0.134506 -0.537 162 124 135
0.278683 -0.133504 -0.533 157 124 131
0.283227 -0.133253 -0.532 155 122 129
0.304064 -0.133504 -0.533 148 116 121
0.31204 -0.134756 -0.538 145 113 118
0.316574 -0.134506 -0.537 146 116 118
0.315897 -0.13125 -0.524 132 106 107
0.324381 -0.130248 -0.52 82 80 81
0.325734 -0.129997 -0.519 82 96 99
0.34122 -0.129496 -0.517 131 116 119
0.342205 -0.129496 -0.517 139 112 117
0.355303 -0.129246 -0.516 243 216 223
0.381339 -0.128745 -0.514 133 101 106
0.387657 -0.128244 -0.512 130 98 101
0.402843 -0.129997 -0.519 124 95 99
0.0486552 -0.125181 -0.496 195 149 136
0.05254 -0.125433 -0.497 193 146 136
0.0544333 -0.125433 -0.497 196 150 137
0.0584543 -0.125938 -0.499 194 146 132
0.0680952 -0.12619 -0.5 185 133 112
0.080001 -0.126948 -0.503 172 121 104
0.0819171 -0.126948 -0.503 169 118 101
0.0872248 -0.127705 -0.506 157 104 98
0.11029 -0.132248 -0.524 123 77 79
0.27816 -0.134267 -0.532 156 124 129
0.283227 -0.134267 -0.532 154 122 127
0.285729 -0.134014 -0.531 153 121 126
0.313201 -0.134519 -0.533 152 117 121
0.381574 -0.129471 -0.513 132 100 105
0.385707 -0.129219 -0.512 132 102 104
0.392323 -0.129471 -0.513 119 89 91
0.448791 -0.14209 -0.563 43 26 34
0.432581 -0.133762 -0.53 179 126 122
0.0506467 -0.12638 -0.497 198 152 139
0.0652381 -0.127143 -0.5 185 134 115
0.0749114 -0.127397 -0.501 175 124 105
0.0895048 -0.129177 -0.508 150 97 93
0.100743 -0.131211 -0.516 131 82 85
0.127517 -0.140111 -0.551 145 95 94
0.273 -0.13884 -0.546 161 126 133
0.271553 -0.13706 -0.539 159 127 130
0.272591 -0.136551 -0.537 158 126 131
0.312687 -0.134009 -0.527 136 107 109
0.315081 -0.132483 -0.521 130 104 103
0.322769 -0.131974 -0.519 144 149 153
0.333 -0.13172 -0.518 123 140 147
0.342526 -0.131211 -0.516 138 119 121
0.381574 -0.130449 -0.513 131 99 104
0.461809 -0.138077 -0.543 176 132 123
0.0554914 -0.127583 -0.498 197 149 137
0.0660581 -0.127839 -0.499 185 132 114
0.0739571 -0.128351 -0.501 177 125 111
0.104495 -0.133219 -0.52 127 81 81
0.277637 -0.136037 -0.531 155 123 128
0.280671 -0.136037 -0.531 156 121 127
0.304229 -0.135269 -0.528 149 114 118
0.308671 -0.135012 -0.527 151 116 120
0.311091 -0.134756 -0.526 133 101 104
0.323757 -0.132963 -0.519 230 237 245
0.331372 -0.13245 -0.517 174 188 197
0.3598 -0.131682 -0.514 137 108 112
0.384731 -0.13117 -0.512 131 99 102
0.432386 -0.136037 -0.531 175 120 123
0.43378 -0.135525 -0.529 193 142 138
0.434971 -0.135269 -0.528 194 145 140
0.456531 -0.13783 -0.538 161 117 108
0.0749114 -0.129306 -0.501 171 119 106
0.0873971 -0.130854 -0.507 147 97 90
0.109709 -0.135758 -0.526 119 78 76
0.271063 -0.138339 -0.536 159 124 128
0.277114 -0.13679 -0.53 154 122 127
0.281152 -0.13679 -0.53 154 122 127
0.290603 -0.136016 -0.527 152 117 121
0.29261 -0.136016 -0.527 153 118 122
0.303076 -0.135758 -0.526 148 113 119
0.310313 -0.134984 -0.523 135 105 107
0.323757 -0.133951 -0.519 219 227 238
0.339577 -0.133177 -0.516 218 221 230
0.345474 -0.133177 -0.516 135 104 109
0.385707 -0.132145 -0.512 132 102 104
0.458057 -0.148663 -0.576 47 32 39
0.434415 -0.138339 -0.536 136 91 94
0.432999 -0.137565 -0.533 160 106 106
0.0449667 -0.12922 -0.497 199 152 142
0.0622562 -0.12974 -0.499 187 136 119
0.067959 -0.12974 -0.499 179 127 113
0.0851286 -0.1313 -0.505 150 99 95
0.0908286 -0.1326 -0.51 141 90 86
0.113786 -0.13806 -0.531 114 74 74
0.27 -0.1404 -0.54 160 123 130
0.271576 -0.13858 -0.533 158 123 129
0.2995 -0.1365 -0.525 147 112 116
0.3035 -0.1365 -0.525 144 112 115
0.307325 -0.13598 -0.523 140 108 109
0.309317 -0.13598 -0.523 135 105 107
0.324746 -0.13494 -0.519 210 214 226
0.383007 -0.13286 -0.511 130 98 101
0.462033 -0.15106 -0.581 51 35 45
0.46215 -0.15002 -0.577 62 43 45
0.0430733 -0.130167 -0.497 199 155 144
0.06986 -0.13069 -0.499 179 126 110
0.0966238 -0.134881 -0.515 134 86 84
0.111342 -0.138548 -0.529 115 75 76
0.120272 -0.141952 -0.542 114 73 71
0.305743 -0.136714 -0.522 152 120 121
0.314476 -0.13619 -0.52 135 105 107
0.32178 -0.135929 -0.519 51 85 84
0.328067 -0.135667 -0.518 196 212 212
0.336629 -0.135143 -0.516 181 190 195
0.34056 -0.135143 -0.516 116 123 129
0.352652 -0.134881 -0.515 156 133 141
0.354905 -0.134619 -0.514 130 103 110
0.363716 -0.134619 -0.514 199 176 182
0.445705 -0.13881 -0.53 171 122 108
0.05644 -0.131377 -0.498 192 144 132
0.0573886 -0.131377 -0.498 187 139 127
0.0738095 -0.131905 -0.5 171 119 105
0.0758657 -0.132169 -0.501 166 117 103
0.0944781 -0.135598 -0.514 133 88 83
0.0956429 -0.135862 -0.515 132 87 82
0.120716 -0.143512 -0.544 116 76 77
0.267975 -0.14193 -0.538 163 123 131
0.269034 -0.140874 -0.534 158 123 129
0.30334 -0.137972 -0.523 145 115 115
0.311505 -0.137181 -0.52 135 103 106
0.325107 -0.136653 -0.518 160 171 177
0.328418 -0.13639 -0.517 208 224 224
0.345786 -0.135862 -0.515 128 97 105
0.346767 -0.135862 -0.515 154 133 138
0.356863 -0.135598 -0.514 133 107 116
0.373029 -0.13507 -0.512 162 151 157
0.374979 -0.13507 -0.512 124 102 105
0.37888 -0.13507 -0.512 136 101 105
0.38398 -0.134807 -0.511 128 99 101
0.464051 -0.152482 -0.578 76 46 54
0.44286 -0.144831 -0.549 88 56 61
0.433144 -0.139028 -0.527 193 142 138
0.438163 -0.139028 -0.527 196 143 135
0.0467657 -0.131794 -0.496 194 147 137
0.0486552 -0.131794 -0.496 195 148 138
0.0573886 -0.132326 -0.498 187 139 127
0.0832048 -0.134186 -0.505 147 98 91
0.0944781 -0.136577 -0.514 132 87 84
0.0956429 -0.136843 -0.515 130 85 82
0.103903 -0.138703 -0.522 115 82 75
0.26853 -0.141626 -0.533 158 123 129
0.269546 -0.141094 -0.531 156 121 128
0.287131 -0.140297 -0.528 152 120 125
0.300926 -0.139234 -0.524 148 113 119
0.32412 -0.13764 -0.518 196 209 215
0.326449 -0.137374 -0.517 151 160 169
0.350989 -0.136577 -0.514 159 138 147
0.374979 -0.136046 -0.512 121 102 106
0.384953 -0.13578 -0.511 130 101 103
0.477031 -0.158631 -0.597 70 45 49
0.47042 -0.145346 -0.547 159 117 105
0.0334286 -0.144514 -0.54 194 151 144
0.03404 -0.138627 -0.518 189 148 142
0.0544333 -0.133007 -0.497 195 148 138
0.0651076 -0.133542 -0.499 182 130 117
0.0779295 -0.134345 -0.502 157 107 100
0.08112 -0.13488 -0.504 152 101 97
0.110543 -0.141838 -0.53 117 77 75
0.300351 -0.139965 -0.523 147 112 118
0.329749 -0.138091 -0.516 149 153 162
0.346093 -0.137556 -0.514 172 154 166
0.352947 -0.137556 -0.514 128 103 107
0.354905 -0.137556 -0.514 127 102 108
0.367177 -0.137021 -0.512 236 232 246
0.377905 -0.137021 -0.512 131 101 103
0.37814 -0.136753 -0.511 132 103 107
0.466804 -0.145585 -0.544 159 116 110
0.0361429 -0.136379 -0.506 193 150 143
0.04118 -0.133953 -0.497 184 141 134
0.0594048 -0.134492 -0.499 185 137 127
0.0670086 -0.134492 -0.499 178 126 115
0.0822429 -0.13611 -0.505 145 94 90
0.266378 -0.145812 -0.541 161 121 129
0.265926 -0.145004 -0.538 158 121 128
0.2665 -0.143656 -0.533 157 120 128
0.287591 -0.142039 -0.527 152 117 123
0.306552 -0.140152 -0.52 137 105 108
0.316227 -0.139613 -0.518 133 101 104
0.329749 -0.139074 -0.516 177 181 190
0.334014 -0.138805 -0.515 228 228 238
0.341198 -0.138535 -0.514 150 145 151
0.342177 -0.138535 -0.514 132 115 121
0.347072 -0.138535 -0.514 213 197 210
0.356863 -0.138535 -0.514 129 104 110
0.363009 -0.138266 -0.513 234 231 240
0.371078 -0.137996 -0.512 236 235 243
0.377905 -0.137996 -0.512 129 103 106
0.433324 -0.14177 -0.526 196 147 140
0.4355 -0.1415 -0.525 194 147 139
0.03404 -0.1406 -0.518 190 151 144
0.04118 -0.1349 -0.497 186 143 136
0.0430733 -0.1349 -0.497 195 150 144
0.0439314 -0.134629 -0.496 194 149 143
0.0466714 -0.134357 -0.495 198 151 143
0.0476143 -0.134357 -0.495 197 150 142
0.0583371 -0.135171 -0.498 188 140 128
0.081281 -0.137071 -0.505 148 97 93
0.0856343 -0.137886 -0.508 141 91 92
0.0936809 -0.139786 -0.515 124 80 79
0.0971867 -0.1406 -0.518 122 82 83
0.1045 -0.1425 -0.525 115 76 79
0.114473 -0.1463 -0.539 112 76 80
0.266511 -0.144129 -0.531 156 119 126
0.337282 -0.139514 -0.514 220 218 229
0.341198 -0.139514 -0.514 126 116 124
0.343156 -0.139514 -0.514 129 110 116
0.344135 -0.139514 -0.514 174 149 155
0.35226 -0.139243 -0.513 131 104 109
0.358123 -0.139243 -0.513 131 110 115
0.365227 -0.138971 -0.512 233 231 242
0.3723 -0.1387 -0.511 242 237 244
0.379113 -0.1387 -0.511 133 107 110
0.393852 -0.139786 -0.515 111 86 89
0.435226 -0.145757 -0.537 133 88 91
0.432999 -0.144671 -0.533 163 113 112
0.432386 -0.144129 -0.531 177 127 126
0.431765 -0.143586 -0.529 188 135 131
0.4345 -0.1425 -0.525 195 148 140
0.455005 -0.145214 -0.535 158 113 108
0.0602343 -0.13612 -0.498 188 139 125
0.0670086 -0.136393 -0.499 180 129 112
0.0690476 -0.136667 -0.5 176 124 110
0.07 -0.136667 -0.5 173 121 107
0.0869429 -0.1394 -0.51 136 91 88
0.12511 -0.152793 -0.559 174 124 136
0.264443 -0.146233 -0.535 161 124 132
0.269538 -0.144593 -0.529 152 119 126
0.304571 -0.142133 -0.52 136 104 105
0.314253 -0.141587 -0.518 135 103 106
0.317586 -0.141313 -0.517 134 102 107
0.324834 -0.14104 -0.516 90 107 115
0.363276 -0.139947 -0.512 234 234 244
0.364251 -0.139947 -0.512 231 231 241
0.37522 -0.139673 -0.511 235 229 241
0.385927 -0.139673 -0.511 126 95 100
0.440337 -0.143773 -0.526 185 136 129
-0.13289 -0.17863 -0.649 195 192 185
-0.124429 -0.178905 -0.65 201 198 191
0.0602343 -0.137069 -0.498 188 139 124
0.0621314 -0.137069 -0.498 188 137 120
0.0739571 -0.137894 -0.501 158 108 97
0.100117 -0.14395 -0.523 113 78 76
0.273051 -0.145326 -0.528 152 117 123
0.277027 -0.144775 -0.526 151 116 120
0.280032 -0.144775 -0.526 152 117 121
0.288949 -0.144225 -0.524 149 114 120
0.299777 -0.143674 -0.522 144 109 115
0.303581 -0.143124 -0.52 134 102 103
0.307347 -0.142573 -0.518 139 107 110
0.309708 -0.142298 -0.517 135 103 106
0.32054 -0.142298 -0.517 150 163 169
0.332387 -0.141472 -0.514 190 195 199
0.341511 -0.141197 -0.513 130 113 119
0.353524 -0.140922 -0.512 131 102 104
0.36354 -0.140647 -0.511 234 234 244
0.364513 -0.140647 -0.511 236 235 243
0.371327 -0.140647 -0.511 238 233 240
0.374486 -0.140371 -0.51 229 226 237
0.4345 -0.1445 -0.525 191 142 135
0.0403143 -0.138017 -0.498 196 155 149
0.0651076 -0.138294 -0.499 181 129 115
0.0846667 -0.140789 -0.508 141 94 88
0.0918971 -0.143006 -0.516 122 82 80
0.0989314 -0.144669 -0.522 116 80 80
0.112629 -0.149657 -0.54 109 77 78
0.119121 -0.152706 -0.551 122 87 91
0.263973 -0.14744 -0.532 156 121 127
0.278029 -0.145777 -0.526 152 117 123
0.284956 -0.145223 -0.524 151 116 120
0.288949 -0.145223 -0.524 149 114 120
0.289947 -0.145223 -0.524 148 113 119
0.296794 -0.144669 -0.522 145 110 116
0.3016 -0.144114 -0.52 144 112 115
0.308723 -0.143283 -0.517 135 105 107
0.316601 -0.143283 -0.517 137 101 105
0.327783 -0.143006 -0.516 70 82 94
0.343466 -0.142174 -0.513 195 180 187
0.34542 -0.142174 -0.513 159 144 149
0.352549 -0.141897 -0.512 134 104 114
0.36938 -0.14162 -0.511 237 229 240
0.497819 -0.173491 -0.626 96 70 73
0.481248 -0.165731 -0.598 113 78 82
0.441339 -0.145777 -0.526 185 136 129
-0.141108 -0.180544 -0.647 191 188 181
-0.125473 -0.181102 -0.649 201 198 191
-0.12319 -0.181381 -0.65 202 199 192
0.0543238 -0.138408 -0.496 190 140 129
0.0760171 -0.140082 -0.502 154 104 93
0.0824057 -0.141198 -0.506 145 98 90
0.0907381 -0.14371 -0.515 122 82 80
0.0993105 -0.146221 -0.524 115 79 79
0.1005 -0.1465 -0.525 113 77 77
0.108731 -0.14957 -0.536 110 76 75
0.262405 -0.14929 -0.535 157 120 128
0.276025 -0.146779 -0.526 151 116 122
0.278029 -0.146779 -0.526 151 116 122
0.28795 -0.146221 -0.524 150 115 121
0.289947 -0.146221 -0.524 148 113 119
0.294374 -0.145942 -0.523 147 112 116
0.296794 -0.145663 -0.522 145 110 114
0.302997 -0.144826 -0.519 136 104 107
0.309109 -0.143989 -0.516 136 104 107
0.316601 -0.144268 -0.517 138 104 105
0.324834 -0.143989 -0.516 155 166 172
0.350598 -0.142872 -0.512 132 102 112
0.359375 -0.142872 -0.512 237 225 227
0.372543 -0.142314 -0.51 240 237 248
0.5034 -0.1758 -0.63 110 83 88
-0.138 -0.180933 -0.644 195 192 185
-0.136773 -0.180933 -0.644 195 192 185
0.0360714 -0.141881 -0.505 195 154 148
0.0769733 -0.141038 -0.502 153 103 94
0.0792 -0.1416 -0.504 149 101 91
0.11222 -0.152557 -0.543 117 83 82
0.113671 -0.153119 -0.545 118 84 83
0.120418 -0.15649 -0.557 164 126 139
0.262466 -0.149186 -0.531 155 120 127
0.267515 -0.148062 -0.527 154 119 125
0.269523 -0.148062 -0.527 150 118 123
0.27153 -0.148062 -0.527 153 118 124
0.284956 -0.147219 -0.524 149 114 118
0.289947 -0.147219 -0.524 148 113 117
0.308126 -0.144971 -0.516 136 104 107
0.315616 -0.145252 -0.517 136 105 103
0.33009 -0.14469 -0.515 220 229 234
0.339557 -0.144129 -0.513 125 104 113
0.342489 -0.144129 -0.513 237 218 224
0.347672 -0.143848 -0.512 129 106 112
0.348648 -0.143848 -0.512 134 105 110
0.362567 -0.143567 -0.511 244 232 242
0.5034 -0.177 -0.63 114 89 93
0.43132 -0.147781 -0.526 202 144 140
0.483827 -0.155648 -0.554 137 97 95
-0.140235 -0.181877 -0.643 192 189 180
-0.130843 -0.182443 -0.645 197 194 185
0.037619 -0.141429 -0.5 195 152 143
0.0524343 -0.140297 -0.496 190 140 129
0.0661905 -0.141429 -0.5 179 127 113
0.0947724 -0.147369 -0.521 118 78 78
0.131817 -0.165189 -0.584 174 139 181
0.261454 -0.150197 -0.531 157 120 127
0.3016 -0.147086 -0.52 142 107 111
0.31304 -0.145954 -0.516 136 104 107
0.366714 -0.144257 -0.51 243 241 246
0.491873 -0.17622 -0.623 101 82 84
0.498213 -0.177634 -0.628 104 82 85
0.431136 -0.149066 -0.527 202 147 142
0.4395 -0.1485 -0.525 177 123 113
0.0401524 -0.141242 -0.496 195 152 143
0.0457286 -0.140957 -0.495 193 149 140
0.0495 -0.140957 -0.495 192 148 139
0.0573886 -0.141811 -0.498 188 138 127
0.0761686 -0.143235 -0.503 151 103 91
0.0863086 -0.145798 -0.512 126 88 85
0.118509 -0.158897 -0.558 176 128 128
0.122148 -0.16089 -0.565 186 136 147
0.260897 -0.152063 -0.534 157 120 127
0.261424 -0.151778 -0.533 157 120 127
0.27153 -0.15007 -0.527 152 117 123
0.28242 -0.14893 -0.523 151 116 120
0.323224 -0.146652 -0.515 206 194 198
0.32945 -0.146368 -0.514 217 225 228
0.332387 -0.146368 -0.514 124 125 129
0.342489 -0.146083 -0.513 229 212 218
0.36062 -0.145513 -0.511 127 104 114
0.368657 -0.145229 -0.51 231 230 236
0.3706 -0.145229 -0.51 236 223 230
0.383756 -0.145798 -0.512 120 95 99
0.434793 -0.153487 -0.539 138 104 105
0.431173 -0.151493 -0.532 163 121 122
0.4305 -0.1495 -0.525 205 147 143
0.436667 -0.149215 -0.524 185 131 119
-0.137357 -0.183753 -0.641 195 192 183
0.0345533 -0.146487 -0.511 199 159 149
0.0804781 -0.145053 -0.506 141 96 90
0.0887762 -0.147633 -0.515 122 84 83
0.106063 -0.154227 -0.538 112 78 79
0.278968 -0.150213 -0.524 150 115 119
0.279966 -0.150213 -0.524 151 116 120
0.302009 -0.14878 -0.519 141 109 112
0.302413 -0.148493 -0.518 145 113 116
0.310091 -0.14792 -0.516 138 106 109
0.314023 -0.14792 -0.516 137 106 104
0.322243 -0.147633 -0.515 144 123 130
0.332717 -0.14706 -0.513 147 134 141
0.36062 -0.146487 -0.511 126 99 106
0.383756 -0.146773 -0.512 120 95 99
0.49742 -0.17974 -0.627 103 83 85
0.4305 -0.1505 -0.525 202 144 140
0.4395 -0.1505 -0.525 165 110 103
0.443343 -0.150787 -0.526 142 89 85
0.452453 -0.152507 -0.532 140 92 90
0.4644 -0.1548 -0.54 150 109 103
-0.147125 -0.184974 -0.641 186 183 174
0.0534867 -0.14342 -0.497 190 140 129
0.07014 -0.144574 -0.501 159 111 97
0.261477 -0.152654 -0.529 154 119 123
0.262994 -0.152366 -0.528 153 118 122
0.272017 -0.151789 -0.526 153 118 124
0.2725 -0.1515 -0.525 152 117 123
0.2745 -0.1515 -0.525 151 116 122
0.28188 -0.150634 -0.522 150 115 119
0.284317 -0.150346 -0.521 146 111 117
0.322243 -0.148614 -0.515 133 106 111
0.327491 -0.148326 -0.514 178 173 177
0.355753 -0.14746 -0.511 131 106 112
0.361857 -0.147171 -0.51 122 95 100
0.379343 -0.147171 -0.51 99 72 77
0.4305 -0.1515 -0.525 202 144 140
0.443343 -0.151789 -0.526 142 89 85
-0.1408 -0.185905 -0.64 189 189 179
-0.131046 -0.187648 -0.646 198 195 186
-0.130016 -0.187938 -0.647 201 198 189
0.03834 -0.144367 -0.497 198 155 148
0.0573886 -0.144657 -0.498 186 136 125
0.0592857 -0.144657 -0.498 186 137 123
0.0652381 -0.145238 -0.5 175 123 109
0.0661905 -0.145238 -0.5 173 121 107
0.0672771 -0.145529 -0.501 176 124 110
0.0761686 -0.14611 -0.503 145 98 88
0.0795143 -0.146981 -0.506 144 97 91
0.0866457 -0.149305 -0.514 117 82 80
0.110323 -0.159471 -0.549 122 96 99
0.264 -0.153371 -0.528 153 118 122
0.267515 -0.153081 -0.527 151 119 122
0.289834 -0.151629 -0.522 146 111 115
0.298629 -0.151048 -0.52 145 110 114
0.302814 -0.150176 -0.517 148 113 119
0.317338 -0.149595 -0.515 138 104 105
0.320281 -0.149595 -0.515 138 106 109
0.32945 -0.149305 -0.514 134 114 115
0.333694 -0.149014 -0.513 131 104 109
0.340846 -0.148724 -0.512 229 209 218
0.353807 -0.148433 -0.511 123 98 102
0.360886 -0.148143 -0.51 120 91 96
0.3638 -0.148143 -0.51 120 95 99
0.379343 -0.148143 -0.51 105 78 83
0.440205 -0.15889 -0.547 135 99 99
0.4405 -0.1525 -0.525 145 92 88
0.443343 -0.15279 -0.526 137 84 80
0.459774 -0.155986 -0.537 137 92 89
-0.133093 -0.188293 -0.644 197 195 183
-0.126905 -0.190048 -0.65 198 198 188
0.0485571 -0.144729 -0.495 192 144 132
0.0752105 -0.147068 -0.503 147 100 90
0.0906286 -0.152038 -0.52 109 80 72
0.0931438 -0.152915 -0.523 109 76 69
0.100001 -0.155839 -0.533 108 72 72
0.289279 -0.15233 -0.521 145 110 114
0.292686 -0.152038 -0.52 145 110 114
0.30102 -0.151746 -0.519 145 110 116
0.315743 -0.150284 -0.514 138 104 105
0.34894 -0.149407 -0.511 126 101 105
0.354086 -0.149114 -0.51 124 97 102
0.360886 -0.149114 -0.51 120 93 100
0.390458 -0.151161 -0.517 100 75 81
0.430132 -0.154085 -0.527 203 145 141
0.436667 -0.153208 -0.524 172 118 106
-0.128143 -0.191286 -0.65 200 197 188
0.0344181 -0.149791 -0.509 196 156 146
0.050341 -0.145377 -0.494 184 136 124
0.0894657 -0.152734 -0.519 110 79 74
0.097419 -0.155971 -0.53 110 74 78
0.108034 -0.161269 -0.548 119 90 94
0.25688 -0.15656 -0.532 155 120 126
0.264504 -0.155089 -0.527 148 116 121
0.266006 -0.154794 -0.526 149 117 122
0.284762 -0.153029 -0.52 147 112 116
0.299043 -0.152734 -0.519 144 110 111
0.30949 -0.151557 -0.515 137 105 106
0.310471 -0.151557 -0.515 136 104 105
0.312433 -0.151557 -0.515 136 105 103
0.330763 -0.150969 -0.513 130 98 103
0.334994 -0.150674 -0.512 130 103 108
0.346993 -0.15038 -0.511 126 101 105
0.361148 -0.149791 -0.509 123 98 102
0.373751 -0.149791 -0.509 127 98 103
0.430363 -0.156266 -0.531 178 130 126
0.473021 -0.160091 -0.544 152 111 107
-0.146207 -0.188673 -0.637 187 187 175
-0.13432 -0.190747 -0.644 195 195 187
0.0418724 -0.146318 -0.494 193 153 143
0.0455438 -0.146022 -0.493 192 148 139
0.0563267 -0.147207 -0.497 185 136 129
0.07632 -0.14928 -0.504 139 96 87
0.0785505 -0.149872 -0.506 135 94 88
0.0843581 -0.15165 -0.512 119 83 83
0.0935 -0.1555 -0.525 109 74 72
0.264504 -0.156092 -0.527 150 118 123
0.265004 -0.155796 -0.526 150 118 123
0.30183 -0.15313 -0.517 139 104 108
0.321969 -0.151946 -0.513 138 106 109
0.329143 -0.15165 -0.512 139 99 107
0.351171 -0.151057 -0.51 130 100 102
0.35533 -0.150761 -0.509 128 98 100
0.384506 -0.151946 -0.513 120 91 95
0.492663 -0.184823 -0.624 74 55 61
0.428937 -0.156389 -0.528 189 139 130
-0.150823 -0.189589 -0.636 184 184 172
-0.14058 -0.190483 -0.639 193 191 179
-0.138578 -0.191079 -0.641 194 192 180
0.03652 -0.148451 -0.498 198 158 150
0.0446048 -0.146961 -0.493 195 151 142
0.0712362 -0.149644 -0.502 154 108 92
0.112734 -0.167231 -0.561 171 131 155
0.264504 -0.157096 -0.527 150 118 121
0.266006 -0.156798 -0.526 150 118 121
0.2675 -0.1565 -0.525 150 118 121
0.2705 -0.1565 -0.525 150 115 121
0.271981 -0.156202 -0.524 149 114 120
0.28179 -0.15501 -0.52 145 110 114
0.305567 -0.153519 -0.515 138 104 105
0.332393 -0.152327 -0.511 133 102 107
0.339207 -0.152327 -0.511 185 165 174
0.351171 -0.152029 -0.51 131 99 100
0.351452 -0.15173 -0.509 131 99 100
0.365026 -0.15173 -0.509 129 97 98
0.3774 -0.152029 -0.51 126 96 98
0.47775 -0.18303 -0.614 69 52 58
0.490662 -0.183925 -0.617 73 54 58
0.47977 -0.178559 -0.599 104 72 73
0.46646 -0.173193 -0.581 131 99 100
0.430678 -0.156202 -0.524 192 142 135
0.4395 -0.1565 -0.525 148 96 83
0.456024 -0.159481 -0.535 127 84 78
0.457897 -0.159779 -0.536 127 84 78
-0.159334 -0.1923 -0.641 181 178 169
-0.147189 -0.1908 -0.636 189 187 175
-0.131451 -0.1944 -0.648 197 194 185
-0.130418 -0.1947 -0.649 197 194 185
0.0591667 -0.1491 -0.497 183 135 123
0.0742524 -0.1509 -0.503 145 101 88
0.07536 -0.1512 -0.504 144 102 90
0.07774 -0.1521 -0.507 137 97 89
0.102532 -0.1623 -0.541 117 82 86
0.112734 -0.1683 -0.561 171 131 155
0.265004 -0.1578 -0.526 149 117 120
0.267989 -0.1572 -0.524 151 116 120
0.275914 -0.1566 -0.522 148 113 119
0.279355 -0.1563 -0.521 144 109 115
0.288724 -0.156 -0.52 140 108 111
0.290705 -0.156 -0.52 144 109 113
0.297066 -0.1557 -0.519 144 108 112
