ply
format ascii 1.0
comment Created by Open3D
element vertex 1291
property double x
property double y
property double z
property uchar red
property uchar green
property uchar blue
end_header
0.0671648 -0.330894 -0.647 148 166 212
0.0756743 -0.330383 -0.646 140 163 213
0.0693448 -0.222983 -0.436 204 167 158
0.0780371 -0.219403 -0.429 203 165 154
0.0860076 -0.218891 -0.428 191 150 128
0.0874333 -0.21838 -0.427 189 146 127
0.108377 -0.222983 -0.436 152 103 96
0.261051 -0.331406 -0.648 184 192 228
0.266399 -0.331917 -0.649 188 197 226
0.293595 -0.331917 -0.649 237 237 245
0.304721 -0.331917 -0.649 233 236 255
0.333667 -0.332429 -0.65 164 176 216
0.392266 -0.274637 -0.537 153 104 97
0.398481 -0.272591 -0.533 158 108 97
0.422102 -0.269523 -0.527 163 111 98
0.423106 -0.269523 -0.527 161 109 96
0.443343 -0.269011 -0.526 144 94 83
0.597071 -0.328849 -0.643 204 210 226
0.60348 -0.328337 -0.642 95 124 184
0.604703 -0.328337 -0.642 76 105 165
1.12722 -0.317086 -0.62 201 203 189
-0.015381 -0.331613 -0.646 207 205 206
0.00061619 -0.332127 -0.647 216 214 215
0.01292 -0.331613 -0.646 224 222 227
0.0166114 -0.331613 -0.646 229 227 232
0.0658305 -0.331613 -0.646 154 175 222
0.0707524 -0.331613 -0.646 148 169 222
0.0732133 -0.331613 -0.646 142 163 216
0.0744438 -0.331613 -0.646 144 166 215
0.0703543 -0.22176 -0.432 205 168 160
0.08662 -0.219193 -0.427 189 148 130
0.108377 -0.223813 -0.436 151 101 94
0.1144 -0.225867 -0.44 135 92 85
0.118823 -0.22792 -0.444 131 88 82
0.135071 -0.2387 -0.465 125 109 120
0.247557 -0.3311 -0.645 232 240 253
0.252863 -0.331613 -0.646 233 236 255
0.269275 -0.332127 -0.647 199 205 237
0.27667 -0.332127 -0.647 252 254 251
0.286971 -0.33264 -0.648 229 233 245
0.339857 -0.333667 -0.65 210 222 246
0.388767 -0.279767 -0.545 141 94 88
0.391673 -0.276687 -0.539 151 102 95
0.418087 -0.270527 -0.527 165 116 99
0.421098 -0.270527 -0.527 165 112 94
0.4697 -0.276687 -0.539 128 81 73
0.478043 -0.279767 -0.545 135 91 82
0.610817 -0.32956 -0.642 212 204 219
-0.0485286 -0.332329 -0.645 184 184 184
-0.0374714 -0.332329 -0.645 194 193 191
-0.0166114 -0.332844 -0.646 207 205 206
-0.00676762 -0.332844 -0.646 212 210 211
-0.00553714 -0.332844 -0.646 213 211 212
-0.000615238 -0.332844 -0.646 215 213 214
0.00307619 -0.332844 -0.646 217 215 218
0.0165857 -0.332329 -0.645 229 227 232
0.0337857 -0.332329 -0.645 246 243 250
0.0423857 -0.332329 -0.645 253 253 255
0.0683571 -0.224129 -0.435 202 165 157
0.0860076 -0.220522 -0.428 187 146 128
0.0933448 -0.220522 -0.428 173 127 112
0.0997457 -0.222068 -0.431 156 110 97
0.122727 -0.231342 -0.449 104 83 78
0.128983 -0.234949 -0.456 98 77 74
0.260649 -0.333359 -0.647 207 222 251
0.261881 -0.333359 -0.647 217 232 255
0.28944 -0.333874 -0.648 214 217 250
0.348524 -0.334905 -0.65 195 199 228
0.425868 -0.33439 -0.649 32 65 134
0.396437 -0.294201 -0.571 114 82 83
0.389863 -0.28235 -0.548 137 96 90
0.390126 -0.28029 -0.544 138 95 88
0.399496 -0.274622 -0.533 156 107 93
0.405567 -0.272561 -0.529 164 115 100
0.422102 -0.27153 -0.527 160 109 90
0.423106 -0.27153 -0.527 162 111 92
0.42411 -0.27153 -0.527 163 112 93
0.434148 -0.27153 -0.527 157 104 86
0.440337 -0.271015 -0.526 149 97 83
0.442341 -0.271015 -0.526 147 98 83
0.448201 -0.27153 -0.527 142 96 83
0.464176 -0.275652 -0.535 126 82 71
0.466934 -0.276683 -0.537 127 83 74
0.505088 -0.291625 -0.566 133 90 83
0.606203 -0.330268 -0.641 171 198 241
-0.112543 -0.313389 -0.606 89 90 95
-0.104161 -0.315974 -0.611 80 79 87
-0.0202714 -0.333557 -0.645 206 204 205
-0.00676762 -0.334074 -0.646 213 211 212
-0.00307619 -0.334074 -0.646 215 213 214
0.00553714 -0.334074 -0.646 220 218 219
0.0129 -0.333557 -0.645 223 221 224
0.0165857 -0.333557 -0.645 229 227 232
0.0215 -0.333557 -0.645 234 232 237
0.0251857 -0.333557 -0.645 239 236 243
0.0276429 -0.333557 -0.645 241 238 245
0.0410933 -0.33304 -0.644 250 249 254
0.04968 -0.33304 -0.644 251 255 255
0.0571286 -0.333557 -0.645 229 235 249
0.0858067 -0.22082 -0.427 188 150 131
0.0882467 -0.22082 -0.427 181 140 122
0.0970571 -0.222371 -0.43 155 107 95
0.234542 -0.332523 -0.643 219 223 232
0.247173 -0.33304 -0.644 235 234 242
0.261476 -0.334074 -0.646 215 229 255
0.31536 -0.335109 -0.648 240 240 252
0.327703 -0.335109 -0.648 161 180 220
0.35046 -0.335626 -0.649 139 152 187
0.369571 -0.336143 -0.65 124 150 207
0.385073 -0.335626 -0.649 97 119 177
0.396199 -0.335626 -0.649 89 117 180
0.400524 -0.336143 -0.65 135 157 215
0.415381 -0.336143 -0.65 130 148 186
0.391657 -0.285463 -0.552 130 89 85
0.393429 -0.279257 -0.54 151 101 90
0.395334 -0.277706 -0.537 155 107 93
0.41909 -0.272534 -0.527 164 115 100
0.42411 -0.272534 -0.527 164 113 96
0.441339 -0.272017 -0.526 150 98 84
0.446349 -0.272017 -0.526 147 98 83
0.464176 -0.276671 -0.535 128 84 73
0.474379 -0.280291 -0.542 129 85 74
0.491213 -0.286497 -0.554 132 89 80
-0.0509067 -0.334267 -0.644 185 183 186
-0.0484533 -0.334267 -0.644 186 186 186
-0.0141286 -0.334786 -0.645 210 208 209
-0.00675714 -0.334786 -0.645 213 211 212
-0.00184286 -0.334786 -0.645 217 215 216
0.0263733 -0.334267 -0.644 240 237 244
0.05336 -0.334267 -0.644 252 252 252
0.0558133 -0.334267 -0.644 236 234 245
0.0631733 -0.334267 -0.644 235 246 250
0.07176 -0.334267 -0.644 184 203 245
0.0826714 -0.333748 -0.643 184 171 178
0.0887952 -0.333748 -0.643 195 160 154
0.0898733 -0.221633 -0.427 179 136 120
0.112724 -0.228381 -0.44 131 90 84
0.124958 -0.235648 -0.454 101 80 77
0.137105 -0.24499 -0.472 255 248 255
0.262707 -0.335305 -0.646 217 229 251
0.265168 -0.335305 -0.646 210 222 255
0.266398 -0.335305 -0.646 210 222 255
0.289777 -0.335305 -0.646 185 197 235
0.29839 -0.335305 -0.646 177 191 230
0.304543 -0.335305 -0.646 167 175 212
0.330894 -0.335824 -0.647 160 184 232
0.332127 -0.335824 -0.647 145 174 214
0.382601 -0.336862 -0.649 165 178 212
0.409797 -0.336862 -0.649 154 163 192
0.42768 -0.336343 -0.648 70 93 145
0.393786 -0.288071 -0.555 128 88 86
0.437159 -0.273538 -0.527 159 106 90
-0.108816 -0.318302 -0.611 87 87 95
-0.0496029 -0.334972 -0.643 188 186 189
-0.03128 -0.335493 -0.644 203 199 200
-0.00306667 -0.335493 -0.644 217 215 216
0.00674667 -0.335493 -0.644 223 221 224
0.02392 -0.335493 -0.644 238 235 242
0.0483781 -0.334972 -0.643 255 255 255
0.0630752 -0.334972 -0.643 243 252 251
0.0678857 -0.225051 -0.432 203 166 158
0.0729638 -0.222968 -0.428 202 165 159
0.0851924 -0.222968 -0.428 186 144 130
0.129238 -0.239638 -0.46 99 78 75
0.132414 -0.242243 -0.465 123 105 105
0.242737 -0.334451 -0.642 243 246 255
0.257386 -0.336014 -0.645 193 207 244
0.259843 -0.336014 -0.645 207 222 255
0.2795 -0.336014 -0.645 248 254 254
0.294699 -0.336535 -0.646 163 180 223
0.315617 -0.336535 -0.646 237 240 255
0.318078 -0.336535 -0.646 181 191 216
0.325461 -0.336535 -0.646 130 157 204
0.326691 -0.336535 -0.646 127 155 203
0.345683 -0.337056 -0.647 209 211 236
0.346915 -0.337056 -0.647 206 208 233
0.359794 -0.337577 -0.648 51 83 156
0.372137 -0.337577 -0.648 185 188 219
0.424631 -0.338098 -0.649 20 58 131
0.42768 -0.337577 -0.648 53 74 129
0.43195 -0.337056 -0.647 69 84 127
0.434853 -0.335493 -0.644 88 100 142
0.395914 -0.290691 -0.558 123 87 87
0.394157 -0.281835 -0.541 147 99 89
0.39578 -0.280793 -0.539 153 103 92
0.396357 -0.279751 -0.537 153 104 89
0.4028 -0.277147 -0.532 160 111 96
0.41909 -0.274542 -0.527 160 111 96
0.422102 -0.274542 -0.527 159 110 93
0.437331 -0.274021 -0.526 159 106 90
0.448352 -0.274021 -0.526 144 95 80
0.473504 -0.281835 -0.541 128 84 73
0.595791 -0.332889 -0.639 188 191 210
-0.0989276 -0.325217 -0.622 64 65 70
-0.0238829 -0.336197 -0.643 206 204 205
-0.0153333 -0.33672 -0.644 210 208 209
0.01286 -0.336197 -0.643 226 224 227
0.0189543 -0.335674 -0.642 235 233 238
0.0287819 -0.336197 -0.643 244 241 248
0.0667495 -0.336197 -0.643 197 213 239
0.0728733 -0.336197 -0.643 188 203 236
0.0753229 -0.336197 -0.643 217 228 255
0.0708476 -0.224829 -0.43 204 165 158
0.0874333 -0.22326 -0.427 180 138 124
0.228929 -0.335151 -0.641 175 186 218
0.245183 -0.335674 -0.642 247 253 253
0.329152 -0.337766 -0.646 138 170 227
0.337766 -0.337766 -0.646 206 213 242
0.34938 -0.338289 -0.647 188 202 228
0.350612 -0.338289 -0.647 174 197 239
0.37584 -0.338811 -0.648 171 178 206
0.382011 -0.338811 -0.648 142 162 199
0.419687 -0.339334 -0.649 40 64 128
0.42768 -0.338811 -0.648 43 63 122
0.43195 -0.338289 -0.647 73 88 129
0.434973 -0.337766 -0.646 98 107 138
0.435529 -0.337243 -0.645 116 125 156
0.399976 -0.279729 -0.535 160 108 94
0.406333 -0.277114 -0.53 164 112 98
0.475411 -0.283389 -0.542 127 85 73
0.479238 -0.284434 -0.544 129 87 75
0.59214 -0.334106 -0.639 217 223 235
-0.11124 -0.324303 -0.618 98 98 106
-0.0568629 -0.336897 -0.642 182 180 185
-0.0348514 -0.336897 -0.642 200 198 199
0.00794857 -0.336897 -0.642 224 222 225
0.0214 -0.336897 -0.642 238 236 241
0.0324057 -0.336897 -0.642 246 244 249
0.0593086 -0.336897 -0.642 255 255 255
0.0703143 -0.336897 -0.642 195 207 231
0.0752057 -0.336897 -0.642 213 224 252
0.0683905 -0.225648 -0.43 202 165 159
0.0849933 -0.224073 -0.427 183 141 129
0.0882467 -0.224073 -0.427 173 134 119
0.0972829 -0.226172 -0.431 156 107 100
0.125784 -0.239816 -0.457 100 76 76
0.239917 -0.336372 -0.641 218 225 253
0.241138 -0.336372 -0.641 245 250 255
0.25576 -0.337947 -0.644 191 200 243
0.271707 -0.337947 -0.644 222 231 255
0.27784 -0.337947 -0.644 249 250 254
0.28888 -0.337947 -0.644 141 157 206
0.297467 -0.337947 -0.644 149 163 210
0.311443 -0.338471 -0.645 241 239 253
0.413464 -0.339521 -0.647 70 88 136
0.422743 -0.340046 -0.648 28 62 126
0.429485 -0.339521 -0.647 93 115 175
0.39812 -0.282322 -0.538 158 106 92
0.417083 -0.27655 -0.527 157 105 91
0.4405 -0.2755 -0.525 151 100 83
0.452216 -0.27655 -0.527 135 89 74
0.45408 -0.277074 -0.528 134 88 73
0.455948 -0.277599 -0.529 132 88 75
-0.104514 -0.326533 -0.62 92 91 99
-0.00915714 -0.337593 -0.641 214 213 211
0.0250295 -0.337593 -0.641 243 241 246
0.0457857 -0.337593 -0.641 252 251 249
0.0653209 -0.337593 -0.641 196 206 233
0.0665419 -0.337593 -0.641 195 199 234
0.0675714 -0.226467 -0.43 205 166 159
0.08662 -0.224887 -0.427 180 139 121
0.100209 -0.228047 -0.433 154 101 97
0.233448 -0.337067 -0.64 163 172 211
0.238324 -0.337067 -0.64 209 215 237
0.252913 -0.338647 -0.643 192 203 223
0.27416 -0.339173 -0.644 249 250 255
0.29992 -0.339173 -0.644 174 191 237
0.30728 -0.339173 -0.644 228 230 253
0.324453 -0.339173 -0.644 112 145 199
0.34761 -0.340227 -0.646 107 130 182
0.34884 -0.340227 -0.646 105 128 180
0.356223 -0.340227 -0.646 60 91 158
0.370989 -0.340227 -0.646 86 101 140
0.391907 -0.340227 -0.646 42 86 161
0.396829 -0.340227 -0.646 67 102 170
0.42702 -0.340753 -0.647 77 102 166
0.430717 -0.340753 -0.647 137 155 195
0.439077 -0.338647 -0.643 169 170 191
0.439617 -0.33812 -0.642 162 164 189
0.405138 -0.300727 -0.571 117 86 83
0.398294 -0.290193 -0.551 128 91 85
0.397683 -0.28598 -0.543 138 95 86
0.403033 -0.281767 -0.535 158 107 90
0.407343 -0.279133 -0.53 163 111 97
0.408352 -0.279133 -0.53 163 111 97
0.412064 -0.277553 -0.527 155 103 89
0.414288 -0.277027 -0.526 153 104 89
0.420094 -0.277553 -0.527 153 101 87
0.4345 -0.2765 -0.525 157 106 89
0.452216 -0.277553 -0.527 135 89 74
0.470878 -0.283347 -0.538 127 85 71
-0.109414 -0.328243 -0.621 105 104 112
-0.00549429 -0.338814 -0.641 216 215 213
0.00305238 -0.338814 -0.641 221 219 220
0.01282 -0.338814 -0.641 228 226 231
0.0444952 -0.338286 -0.64 249 248 244
0.0591238 -0.338286 -0.64 253 251 252
0.0615619 -0.338286 -0.64 223 230 246
0.0654171 -0.228343 -0.432 201 164 158
0.0660867 -0.227814 -0.431 202 165 159
0.0683905 -0.227286 -0.43 204 165 158
0.0698657 -0.226757 -0.429 202 163 156
0.0721486 -0.226229 -0.428 201 164 158
0.07686 -0.2257 -0.427 192 153 146
0.103394 -0.230457 -0.436 148 98 89
0.114852 -0.235214 -0.445 117 86 83
0.11596 -0.235743 -0.446 115 84 81
0.237105 -0.338286 -0.64 213 222 255
0.265161 -0.339871 -0.643 176 193 239
0.27006 -0.339871 -0.643 192 204 246
0.289656 -0.339871 -0.643 144 164 215
0.32936 -0.3404 -0.644 101 141 203
0.334267 -0.3404 -0.644 115 140 196
0.33672 -0.3404 -0.644 133 151 187
0.354443 -0.340929 -0.645 66 91 157
0.420208 -0.341457 -0.646 21 56 137
0.428821 -0.341457 -0.646 93 122 188
0.437434 -0.341457 -0.646 172 178 192
0.440153 -0.338814 -0.641 141 145 174
0.440686 -0.338286 -0.64 95 106 138
0.404572 -0.281729 -0.533 160 109 92
0.407867 -0.2812 -0.532 163 112 95
0.408111 -0.280671 -0.531 166 114 100
0.412064 -0.278557 -0.527 156 104 90
0.414071 -0.278557 -0.527 156 104 90
0.418087 -0.278557 -0.527 152 100 86
0.429316 -0.278029 -0.526 157 106 89
0.433324 -0.278029 -0.526 158 107 90
0.437665 -0.276971 -0.524 160 105 85
0.4465 -0.2775 -0.525 146 97 80
0.4475 -0.2775 -0.525 145 96 79
0.482195 -0.288071 -0.545 129 87 73
0.491543 -0.291771 -0.552 131 91 79
0.5915 -0.3367 -0.637 213 221 232
-0.0493714 -0.339505 -0.64 192 190 191
-0.0274286 -0.339505 -0.64 207 205 206
-0.00670476 -0.339505 -0.64 216 214 215
0.00792381 -0.339505 -0.64 227 225 228
0.0188952 -0.339505 -0.64 239 237 242
0.0335238 -0.339505 -0.64 248 245 254
0.0786286 -0.339505 -0.64 185 161 161
0.0633857 -0.230757 -0.435 204 167 159
0.0752333 -0.226513 -0.427 197 159 150
0.0793 -0.226513 -0.427 181 141 131
0.093781 -0.228105 -0.43 157 108 101
0.0964619 -0.228635 -0.431 158 105 99
0.102564 -0.231288 -0.436 149 101 91
0.104464 -0.231818 -0.437 141 97 88
0.108287 -0.232879 -0.439 133 94 89
0.109371 -0.23341 -0.44 134 95 90
0.112903 -0.235531 -0.444 117 88 82
0.117595 -0.238184 -0.449 105 79 78
0.120369 -0.240306 -0.453 99 75 73
0.12546 -0.243489 -0.459 95 74 73
0.248464 -0.340035 -0.641 253 252 255
0.271285 -0.341096 -0.643 217 238 255
0.27251 -0.341096 -0.643 236 243 255
0.279858 -0.341096 -0.643 214 222 245
0.281869 -0.340566 -0.642 205 218 250
0.290881 -0.341096 -0.643 138 155 201
0.292106 -0.341096 -0.643 138 156 202
0.331298 -0.341096 -0.643 100 131 188
0.339173 -0.341627 -0.644 205 214 245
0.350213 -0.341627 -0.644 100 128 176
0.370414 -0.342157 -0.645 175 184 215
0.439214 -0.342157 -0.645 171 171 183
0.40108 -0.287518 -0.542 151 99 85
0.40194 -0.285927 -0.539 154 105 90
0.405071 -0.283805 -0.535 157 108 93
0.409123 -0.281683 -0.531 160 111 97
0.42411 -0.279561 -0.527 154 105 90
0.433324 -0.27903 -0.526 158 105 89
0.442655 -0.27797 -0.524 149 100 85
0.458829 -0.281152 -0.53 132 90 76
0.471903 -0.285396 -0.538 124 85 70
-0.00792381 -0.340724 -0.64 216 214 215
-0.00304762 -0.340724 -0.64 220 218 219
0.0359057 -0.340191 -0.639 248 248 255
0.0432086 -0.340191 -0.639 229 231 243
0.0578143 -0.340191 -0.639 255 251 248
0.0614657 -0.340191 -0.639 212 223 241
0.0797229 -0.340191 -0.639 185 154 151
0.0821571 -0.340191 -0.639 193 158 154
0.0705181 -0.227859 -0.428 199 161 152
0.0736067 -0.227327 -0.427 197 159 150
0.0892686 -0.227859 -0.428 165 121 112
0.0919286 -0.228391 -0.429 154 110 101
0.10044 -0.231053 -0.434 147 100 92
0.10962 -0.23478 -0.441 132 93 88
0.11674 -0.239039 -0.449 106 81 76
0.250906 -0.341256 -0.641 216 227 255
0.287534 -0.341256 -0.641 136 152 203
0.30388 -0.341789 -0.642 148 161 203
0.309994 -0.341789 -0.642 203 204 224
0.31244 -0.341789 -0.642 211 215 240
0.319777 -0.341789 -0.642 116 152 204
0.334451 -0.341789 -0.642 169 199 253
0.341096 -0.342321 -0.643 214 218 243
0.342321 -0.342321 -0.643 204 208 233
0.345995 -0.342321 -0.643 185 194 227
0.35144 -0.342853 -0.644 107 133 194
0.38088 -0.342853 -0.644 142 146 173
0.40196 -0.29068 -0.546 135 89 76
0.408633 -0.283759 -0.533 158 109 94
0.410371 -0.282162 -0.53 156 109 93
0.41262 -0.28163 -0.529 160 111 96
0.417874 -0.281097 -0.528 154 105 90
0.443653 -0.278968 -0.524 147 98 81
0.483233 -0.290148 -0.545 132 90 78
0.592994 -0.338594 -0.636 121 135 162
-0.0237714 -0.341943 -0.64 209 207 208
-0.01278 -0.341409 -0.639 214 212 213
0.0310371 -0.341409 -0.639 249 243 245
0.0675514 -0.341409 -0.639 225 233 252
0.0820286 -0.340874 -0.638 195 160 156
0.06132 -0.234017 -0.438 203 166 160
0.06324 -0.23188 -0.434 203 166 158
0.0682314 -0.229209 -0.429 201 163 154
0.110961 -0.236689 -0.443 119 90 82
0.12257 -0.244703 -0.458 95 75 68
0.131152 -0.251114 -0.47 166 153 163
0.252127 -0.342477 -0.641 181 195 224
0.253348 -0.342477 -0.641 176 194 240
0.261894 -0.342477 -0.641 151 178 233
0.300965 -0.342477 -0.641 176 188 240
0.327114 -0.343011 -0.642 109 147 210
0.34967 -0.343546 -0.643 136 155 197
0.354569 -0.343546 -0.643 47 84 155
0.357573 -0.34408 -0.644 34 72 147
0.409093 -0.34408 -0.644 127 129 150
0.438533 -0.34408 -0.644 150 150 162
0.41239 -0.283171 -0.53 156 108 94
0.414635 -0.282637 -0.529 155 106 91
0.474833 -0.28798 -0.539 131 87 76
0.555719 -0.326449 -0.611 141 152 174
0.0273429 -0.34209 -0.638 245 243 248
0.0322038 -0.34209 -0.638 246 247 249
0.0710914 -0.34209 -0.638 213 215 236
0.0604857 -0.234851 -0.438 201 164 158
0.101733 -0.233779 -0.436 147 98 91
0.105778 -0.235388 -0.439 138 93 90
0.109869 -0.236996 -0.442 120 87 80
0.128536 -0.250401 -0.467 104 87 97
0.229927 -0.341553 -0.637 140 157 209
0.249295 -0.343162 -0.64 199 203 215
0.25661 -0.343162 -0.64 148 168 219
0.271662 -0.343698 -0.641 208 215 234
0.28221 -0.343162 -0.64 204 215 243
0.302186 -0.343698 -0.641 217 226 255
0.341256 -0.343698 -0.641 212 217 239
0.354569 -0.34477 -0.643 47 84 155
0.355793 -0.34477 -0.643 44 82 157
0.401733 -0.345307 -0.644 181 188 207
0.40296 -0.345307 -0.644 183 188 210
0.407867 -0.345307 -0.644 151 153 174
0.422587 -0.345307 -0.644 55 84 150
0.4134 -0.284181 -0.53 158 109 95
0.443653 -0.280964 -0.524 149 100 83
0.444651 -0.280964 -0.524 148 99 82
0.447646 -0.280964 -0.524 145 96 79
0.459978 -0.283645 -0.529 136 88 76
0.466502 -0.28579 -0.533 130 84 71
0.473952 -0.28847 -0.538 131 87 76
0.479541 -0.290615 -0.542 134 90 79
0.483383 -0.291688 -0.544 135 91 80
0.4862 -0.29276 -0.546 135 91 80
-0.0467867 -0.343305 -0.638 196 194 195
-0.0151905 -0.343305 -0.638 214 212 213
0.0503533 -0.342767 -0.637 255 252 255
0.0649133 -0.342767 -0.637 218 234 255
0.0629486 -0.232457 -0.432 199 162 156
0.0644448 -0.231919 -0.431 199 162 156
0.0665971 -0.230843 -0.429 201 162 155
0.0969095 -0.232995 -0.433 144 99 94
0.0996133 -0.233533 -0.434 146 101 96
0.11752 -0.243219 -0.452 102 74 71
0.118643 -0.243757 -0.453 98 76 78
0.223509 -0.342229 -0.636 144 160 209
0.267999 -0.344919 -0.641 170 188 234
0.272883 -0.344919 -0.641 243 251 255
0.354017 -0.345457 -0.642 53 88 156
0.368691 -0.345457 -0.642 186 197 227
0.371137 -0.345457 -0.642 191 196 215
0.381513 -0.345995 -0.643 89 124 180
0.409731 -0.300257 -0.558 113 84 86
0.411434 -0.287343 -0.534 149 100 86
0.411679 -0.286805 -0.533 150 101 87
0.432322 -0.283038 -0.526 152 101 84
0.437665 -0.281962 -0.524 153 101 87
0.492751 -0.29649 -0.551 137 91 76
-0.0455 -0.34398 -0.637 198 196 197
-0.0200514 -0.34452 -0.638 211 209 210
0.00182 -0.34398 -0.637 223 221 224
0.00788667 -0.34398 -0.637 232 230 235
0.0589514 -0.23706 -0.439 203 164 159
0.0614448 -0.23382 -0.433 202 165 157
0.0921429 -0.2322 -0.43 154 107 101
0.104942 -0.23706 -0.439 131 90 84
0.225931 -0.34344 -0.636 141 160 203
0.229566 -0.34344 -0.636 158 172 217
0.309029 -0.3456 -0.64 235 240 255
0.326605 -0.34614 -0.641 118 152 213
0.329047 -0.34614 -0.641 120 159 216
0.331489 -0.34614 -0.641 106 145 202
0.341256 -0.34614 -0.641 209 213 238
0.350349 -0.34668 -0.642 81 113 172
0.369914 -0.34668 -0.642 187 201 236
0.381513 -0.34722 -0.643 114 138 184
0.406009 -0.34722 -0.643 171 165 179
0.417031 -0.34722 -0.643 141 162 215
0.418256 -0.34722 -0.643 93 114 167
0.431729 -0.34722 -0.643 137 160 202
0.443816 -0.34614 -0.641 97 115 161
0.412267 -0.3024 -0.56 113 81 82
0.436667 -0.28296 -0.524 154 101 85
0.440659 -0.28296 -0.524 151 99 85
0.443803 -0.28242 -0.523 148 97 80
0.446648 -0.28296 -0.524 150 98 84
0.4535 -0.2835 -0.525 143 95 81
0.46664 -0.28728 -0.532 131 87 74
0.490963 -0.29646 -0.549 138 92 76
-0.0248733 -0.345193 -0.637 211 209 210
-0.0188067 -0.345193 -0.637 214 212 213
0.0611771 -0.344651 -0.636 196 211 242
0.0586829 -0.236812 -0.437 208 166 168
0.0703533 -0.231393 -0.427 200 161 154
0.0736067 -0.231393 -0.427 191 151 141
0.0851924 -0.231935 -0.428 160 116 103
0.0921429 -0.233019 -0.43 157 109 105
0.0931781 -0.233561 -0.431 153 108 103
0.09796 -0.235187 -0.434 143 98 93
0.279334 -0.346277 -0.639 246 255 250
0.308546 -0.346277 -0.639 235 242 255
0.323151 -0.346277 -0.639 116 146 196
0.327314 -0.346819 -0.64 134 165 220
0.349803 -0.347361 -0.641 80 111 168
0.367469 -0.347903 -0.642 86 119 173
0.370559 -0.347361 -0.641 197 196 214
0.393149 -0.347903 -0.642 99 131 182
0.428611 -0.347903 -0.642 80 102 143
0.411129 -0.294254 -0.543 135 93 81
0.41371 -0.288835 -0.533 140 92 78
0.415973 -0.288293 -0.532 141 95 80
0.421476 -0.28721 -0.53 146 99 83
0.440659 -0.283958 -0.524 151 100 83
0.441657 -0.283958 -0.524 148 97 80
0.489174 -0.296422 -0.547 137 91 75
0.0567 -0.23982 -0.441 202 164 155
0.0578505 -0.237645 -0.437 208 166 154
0.0619819 -0.234382 -0.431 201 162 155
0.0760467 -0.232207 -0.427 192 153 138
0.0793 -0.232207 -0.427 185 143 131
0.0827467 -0.23275 -0.428 173 131 119
0.110863 -0.242539 -0.446 111 83 79
0.121352 -0.250152 -0.46 95 74 69
0.226786 -0.345319 -0.635 154 171 227
0.247301 -0.34695 -0.638 249 253 255
0.250947 -0.34695 -0.638 175 187 211
0.252162 -0.34695 -0.638 173 190 233
0.273249 -0.347494 -0.639 254 255 255
0.325586 -0.347494 -0.639 137 165 215
0.329752 -0.348038 -0.64 118 151 196
0.338286 -0.348038 -0.64 212 220 243
0.341943 -0.348038 -0.64 209 213 238
0.347361 -0.348582 -0.641 88 110 160
0.353466 -0.348582 -0.641 148 173 227
0.354687 -0.348582 -0.641 116 147 202
0.377251 -0.349126 -0.642 194 195 213
0.405377 -0.349126 -0.642 185 187 212
0.415734 -0.348582 -0.641 158 170 210
0.420051 -0.349126 -0.642 147 156 195
0.421274 -0.349126 -0.642 163 176 210
0.433503 -0.349126 -0.642 149 155 191
0.440153 -0.348582 -0.641 170 175 195
0.446083 -0.347494 -0.639 89 112 156
0.447623 -0.345863 -0.636 106 124 170
0.423283 -0.288763 -0.531 142 99 83
0.428937 -0.287131 -0.528 146 97 82
0.451638 -0.284956 -0.524 144 96 84
0.463001 -0.287675 -0.529 133 87 74
0.47894 -0.293113 -0.539 136 94 80
0.0734343 -0.232474 -0.426 192 153 138
0.0809267 -0.23302 -0.427 173 131 119
0.0870257 -0.234111 -0.429 161 112 107
0.08866 -0.234111 -0.429 156 109 103
0.0931781 -0.235203 -0.431 152 107 102
0.107586 -0.241751 -0.443 117 88 84
0.124175 -0.253211 -0.464 90 74 77
0.221598 -0.345983 -0.634 147 164 216
0.246913 -0.34762 -0.637 246 253 255
0.274036 -0.348166 -0.638 245 254 253
0.28574 -0.34762 -0.637 165 177 219
0.352914 -0.349257 -0.64 184 202 248
0.372419 -0.349257 -0.64 196 198 221
0.425502 -0.349803 -0.641 160 171 199
0.445562 -0.349257 -0.64 83 104 149
0.448327 -0.34762 -0.637 92 113 158
0.419629 -0.311057 -0.57 107 82 78
0.415541 -0.293594 -0.538 136 90 77
0.426317 -0.289774 -0.531 147 99 87
0.427329 -0.289774 -0.531 147 99 87
0.434326 -0.287046 -0.526 149 98 81
0.4365 -0.2865 -0.525 153 101 87
0.444799 -0.285409 -0.523 151 99 85
0.463001 -0.288683 -0.529 130 87 71
0.469548 -0.290866 -0.533 129 90 75
0.0585695 -0.34719 -0.634 200 211 241
0.0597771 -0.34719 -0.634 202 213 243
0.0693771 -0.233286 -0.426 198 158 150
0.0835619 -0.234381 -0.428 168 125 116
0.0933943 -0.236571 -0.432 148 103 98
0.112464 -0.245881 -0.449 106 81 77
0.114937 -0.247524 -0.452 103 77 76
0.189186 -0.336786 -0.615 161 177 229
0.257833 -0.348833 -0.637 169 191 228
0.266745 -0.349381 -0.638 188 208 245
0.269175 -0.349381 -0.638 246 255 255
0.271606 -0.349381 -0.638 242 251 255
0.290593 -0.348833 -0.637 175 189 228
0.322646 -0.349381 -0.638 157 181 219
0.332889 -0.349929 -0.639 203 218 249
0.355352 -0.350476 -0.64 128 146 184
0.367543 -0.350476 -0.64 105 123 161
0.368762 -0.350476 -0.64 159 177 215
0.377295 -0.350476 -0.64 191 196 226
0.381548 -0.351024 -0.641 153 166 183
0.398019 -0.350476 -0.64 188 189 207
0.40899 -0.350476 -0.64 178 179 210
0.413867 -0.350476 -0.64 172 179 207
0.415086 -0.350476 -0.64 167 174 202
0.417524 -0.350476 -0.64 116 121 150
0.419962 -0.350476 -0.64 164 169 198
0.426057 -0.350476 -0.64 171 178 207
0.43581 -0.350476 -0.64 144 148 183
0.438248 -0.350476 -0.64 173 175 200
0.450046 -0.348286 -0.636 73 90 144
0.424782 -0.315976 -0.577 118 80 79
0.42032 -0.311048 -0.568 115 81 79
0.418434 -0.308857 -0.564 115 81 79
0.416109 -0.305571 -0.558 114 83 78
0.416566 -0.294619 -0.538 134 90 81
0.4173 -0.292976 -0.535 136 92 81
0.418319 -0.292976 -0.535 135 91 80
0.419571 -0.292429 -0.534 142 96 83
0.4365 -0.2875 -0.525 152 100 86
0.4565 -0.2875 -0.525 134 90 77
0.473348 -0.292976 -0.535 136 96 86
0.0633286 -0.235746 -0.429 200 160 152
0.0685657 -0.234097 -0.426 198 158 150
0.0750571 -0.234097 -0.426 188 146 134
0.08174 -0.234647 -0.427 171 129 117
0.0981857 -0.239043 -0.435 138 94 93
0.227636 -0.348398 -0.634 152 168 219
0.234043 -0.348948 -0.635 163 177 216
0.251371 -0.349497 -0.636 176 191 230
0.2639 -0.350047 -0.637 175 190 229
0.265113 -0.350047 -0.637 180 196 232
0.278023 -0.349497 -0.636 215 221 235
0.307097 -0.349497 -0.636 233 239 255
0.326291 -0.350596 -0.638 148 172 210
0.340874 -0.350596 -0.638 204 213 242
0.345735 -0.350596 -0.638 152 166 201
0.34695 -0.350596 -0.638 156 170 205
0.361533 -0.350596 -0.638 168 181 215
0.364534 -0.351146 -0.639 179 192 226
0.38339 -0.351695 -0.64 98 115 158
0.398614 -0.351146 -0.639 187 189 210
0.424838 -0.351695 -0.64 175 180 209
0.441214 -0.351146 -0.639 136 141 170
0.448327 -0.350047 -0.637 99 128 186
0.422886 -0.313229 -0.57 118 84 82
0.417043 -0.304986 -0.555 119 85 76
0.422395 -0.293995 -0.535 140 94 81
0.437665 -0.28795 -0.524 150 101 84
0.463131 -0.290149 -0.528 135 91 78
0.0827467 -0.236011 -0.428 165 123 111
0.253395 -0.350157 -0.635 187 205 241
0.270754 -0.350709 -0.636 249 254 255
0.2756 -0.350709 -0.636 246 251 255
0.279234 -0.350709 -0.636 172 179 208
0.28408 -0.350709 -0.636 193 203 238
0.30104 -0.350709 -0.636 184 193 232
0.315577 -0.350709 -0.636 168 179 211
0.320927 -0.35126 -0.637 187 202 241
0.3367 -0.35126 -0.637 211 217 241
0.357888 -0.351811 -0.638 190 199 230
0.366969 -0.352363 -0.639 174 183 214
0.36761 -0.351811 -0.638 106 115 146
0.402266 -0.352363 -0.639 77 82 120
0.4047 -0.352363 -0.639 120 129 162
0.407134 -0.352363 -0.639 179 186 212
0.416871 -0.352363 -0.639 164 168 193
0.424174 -0.352363 -0.639 173 179 203
0.445385 -0.351811 -0.638 77 100 150
0.453719 -0.347951 -0.631 168 171 202
0.42042 -0.29722 -0.539 126 83 74
0.431765 -0.291706 -0.529 147 98 83
0.437665 -0.288949 -0.524 148 101 83
0.439818 -0.288397 -0.523 146 99 81
0.480101 -0.296669 -0.538 136 93 76
0.0639962 -0.236827 -0.428 199 159 149
0.0661314 -0.23572 -0.426 195 155 145
0.0684048 -0.235167 -0.425 194 151 142
0.0776733 -0.236273 -0.427 178 134 123
0.0853914 -0.23738 -0.429 156 112 103
0.110753 -0.248447 -0.449 106 82 80
0.113466 -0.25066 -0.453 101 77 75
0.218491 -0.349707 -0.632 165 180 223
0.220899 -0.349707 -0.632 195 211 247
0.238505 -0.350813 -0.634 242 245 250
0.242128 -0.350813 -0.634 249 254 250
0.246138 -0.351367 -0.635 253 253 255
0.275167 -0.351367 -0.635 242 250 252
0.280446 -0.35192 -0.636 173 180 209
0.283633 -0.351367 -0.635 205 214 243
0.291349 -0.35192 -0.636 230 236 255
0.304674 -0.35192 -0.636 228 234 255
0.311943 -0.35192 -0.636 224 231 255
0.342767 -0.352473 -0.637 181 190 221
0.345193 -0.352473 -0.637 198 209 239
0.34762 -0.352473 -0.637 201 208 236
0.356672 -0.353027 -0.638 196 203 231
0.366394 -0.353027 -0.638 189 199 226
0.392529 -0.35358 -0.639 131 149 187
0.419865 -0.353027 -0.638 172 178 200
0.433232 -0.353027 -0.638 134 139 171
0.4459 -0.352473 -0.637 60 89 149
0.419753 -0.305993 -0.553 123 85 76
0.429953 -0.294927 -0.533 139 90 75
0.432581 -0.293267 -0.53 146 97 82
0.464137 -0.29216 -0.528 134 88 72
0.470693 -0.294373 -0.532 134 91 74
0.0638467 -0.237087 -0.427 200 160 150
0.0927857 -0.240418 -0.433 146 102 101
0.100761 -0.24375 -0.439 135 91 92
0.108314 -0.247636 -0.446 111 85 84
0.109653 -0.248747 -0.448 109 83 82
0.112354 -0.250968 -0.452 100 79 76
0.246958 -0.352021 -0.634 250 250 252
0.249373 -0.352021 -0.634 215 220 240
0.260652 -0.352576 -0.635 197 210 244
0.269543 -0.353131 -0.636 248 249 253
0.29089 -0.352576 -0.635 227 228 255
0.29331 -0.352576 -0.635 231 232 255
0.31871 -0.352576 -0.635 157 173 207
0.336171 -0.353131 -0.636 194 203 232
0.359753 -0.353687 -0.637 193 203 228
0.388269 -0.354242 -0.638 87 116 174
0.39556 -0.354242 -0.638 181 188 216
0.41865 -0.354242 -0.638 176 182 204
0.433767 -0.353687 -0.637 139 146 174
0.437407 -0.353687 -0.637 107 118 148
0.441047 -0.353687 -0.637 124 142 188
0.425633 -0.31371 -0.565 118 79 72
0.422433 -0.305936 -0.551 118 80 71
0.42172 -0.30316 -0.546 117 76 70
0.421728 -0.300939 -0.542 122 82 74
0.424041 -0.300384 -0.541 123 80 73
0.427043 -0.298163 -0.537 128 84 73
0.427269 -0.297608 -0.536 129 85 74
0.432386 -0.294831 -0.531 145 96 81
0.451903 -0.289834 -0.522 152 103 86
0.491538 -0.302605 -0.545 140 97 81
0.0571886 -0.240686 -0.432 197 160 151
0.0623657 -0.238457 -0.428 201 161 153
0.0654733 -0.2379 -0.427 198 155 148
0.07686 -0.2379 -0.427 177 133 124
0.0835619 -0.238457 -0.428 159 112 106
0.0880476 -0.239571 -0.43 155 110 107
0.0917486 -0.240686 -0.432 143 102 98
0.109898 -0.250157 -0.449 104 80 78
0.111247 -0.251271 -0.451 102 81 80
0.248166 -0.353229 -0.634 235 240 255
0.325269 -0.354343 -0.636 131 149 195
0.328903 -0.354343 -0.636 165 184 224
0.33306 -0.3549 -0.637 210 216 240
0.348286 -0.354343 -0.636 202 210 233
0.36582 -0.3549 -0.637 193 204 226
0.401007 -0.3549 -0.637 156 167 189
0.42042 -0.3549 -0.637 176 181 203
0.437931 -0.354343 -0.636 76 95 138
0.449338 -0.353786 -0.635 25 56 120
0.455157 -0.352671 -0.633 53 81 146
0.424611 -0.310886 -0.558 119 82 73
0.424286 -0.300857 -0.54 124 81 74
0.43378 -0.294729 -0.529 144 95 80
0.439661 -0.291943 -0.524 152 101 82
0.449052 -0.290271 -0.521 154 105 88
0.481254 -0.299186 -0.537 142 95 79
0.0563657 -0.241509 -0.432 199 159 149
0.0669429 -0.238154 -0.426 193 153 145
0.0837571 -0.239831 -0.429 160 115 110
0.0853914 -0.239831 -0.429 159 114 109
0.0880476 -0.24039 -0.43 155 107 105
0.0898943 -0.24095 -0.431 155 107 105
0.0927857 -0.242068 -0.433 146 98 96
0.0996971 -0.244863 -0.438 127 89 86
0.111493 -0.25269 -0.452 99 77 79
0.226918 -0.353318 -0.632 240 245 255
0.229326 -0.353318 -0.632 224 232 251
0.23053 -0.353318 -0.632 223 232 247
0.252597 -0.353877 -0.633 181 197 231
0.289225 -0.354436 -0.634 219 224 243
0.302509 -0.354436 -0.634 157 166 197
0.312883 -0.353877 -0.633 193 202 231
0.364034 -0.355554 -0.636 195 201 223
0.425817 -0.355554 -0.636 177 181 206
0.442081 -0.354995 -0.635 53 80 147
0.43658 -0.324807 -0.581 117 79 76
0.431984 -0.297972 -0.533 135 88 78
0.438333 -0.294059 -0.526 153 100 84
0.4385 -0.2935 -0.525 154 101 83
0.446075 -0.291264 -0.521 160 109 88
0.447068 -0.291264 -0.521 159 108 89
0.4842 -0.300768 -0.538 140 97 81
0.06006 -0.240649 -0.429 199 159 149
0.080301 -0.240088 -0.428 166 121 115
0.0837571 -0.240649 -0.429 163 115 111
0.11174 -0.254111 -0.453 101 72 74
0.117989 -0.260282 -0.464 97 77 78
0.1986 -0.3534 -0.63 219 230 255
0.22055 -0.353961 -0.631 236 242 255
0.22451 -0.354522 -0.632 203 205 226
0.286357 -0.355083 -0.633 232 239 247
0.297209 -0.355083 -0.633 235 237 250
0.305649 -0.355083 -0.633 155 158 189
0.3165 -0.355083 -0.633 142 158 192
0.3731 -0.357327 -0.637 113 130 158
0.408214 -0.356205 -0.635 177 183 207
0.423938 -0.356205 -0.635 174 178 203
0.442081 -0.356205 -0.635 29 56 125
0.437283 -0.324791 -0.579 116 79 73
0.426392 -0.305158 -0.544 116 76 68
0.428863 -0.301792 -0.538 123 80 73
0.432999 -0.298988 -0.533 134 87 77
0.434014 -0.298988 -0.533 135 87 73
0.435795 -0.296744 -0.529 147 95 81
0.439335 -0.295061 -0.526 148 99 84
0.440659 -0.293939 -0.524 154 105 88
0.44806 -0.292256 -0.521 159 110 93
0.0538971 -0.243154 -0.432 202 162 154
0.07686 -0.24034 -0.427 170 126 117
0.0778552 -0.240903 -0.428 168 123 117
0.0855905 -0.242029 -0.43 160 112 108
0.08928 -0.243154 -0.432 152 107 102
0.093 -0.24428 -0.434 140 103 97
0.196511 -0.355163 -0.631 188 197 230
0.236174 -0.355163 -0.631 185 192 211
0.249395 -0.355163 -0.631 192 199 228
0.253402 -0.355726 -0.632 188 197 226
0.258626 -0.356289 -0.633 184 197 232
0.262243 -0.356289 -0.633 194 205 237
0.294331 -0.355726 -0.632 236 243 255
0.296739 -0.355726 -0.632 233 241 255
0.324246 -0.356851 -0.634 135 158 210
0.331491 -0.356851 -0.634 199 206 235
0.364097 -0.356851 -0.634 196 202 216
0.365881 -0.357414 -0.635 195 201 215
0.36951 -0.357414 -0.635 192 201 230
0.411843 -0.357414 -0.635 146 152 178
0.423938 -0.357414 -0.635 166 168 191
0.434829 -0.320829 -0.57 108 78 70
0.432855 -0.318577 -0.566 107 77 69
0.431352 -0.301691 -0.536 129 86 79
0.433811 -0.300566 -0.534 131 87 76
0.445937 -0.293811 -0.522 159 111 89
0.0523724 -0.244542 -0.433 203 163 155
0.0576086 -0.242283 -0.429 199 156 147
0.0630333 -0.241153 -0.427 194 151 142
0.0693771 -0.240589 -0.426 187 147 139
0.0778552 -0.241718 -0.428 166 121 115
0.0874314 -0.243412 -0.431 157 109 105
0.09592 -0.246236 -0.436 130 97 92
0.107332 -0.253578 -0.449 104 79 83
0.28109 -0.35693 -0.632 234 241 249
0.366512 -0.358059 -0.634 197 203 219
0.400326 -0.358059 -0.634 176 178 199
0.406364 -0.358059 -0.634 173 171 184
0.414817 -0.358059 -0.634 109 120 152
0.419648 -0.358059 -0.634 129 136 165
0.444943 -0.294806 -0.522 162 112 89
0.445083 -0.294241 -0.521 164 113 92
0.459742 -0.29537 -0.523 143 96 78
0.465385 -0.297065 -0.526 142 96 80
0.469166 -0.298194 -0.528 141 98 81
0.474866 -0.299889 -0.531 143 98 79
0.506127 -0.312313 -0.553 147 104 87
0.05992 -0.242533 -0.428 198 155 146
0.0693771 -0.2414 -0.426 184 144 136
0.0884571 -0.2448 -0.432 148 104 101
0.10038 -0.2499 -0.441 121 87 85
0.10145 -0.250467 -0.442 120 86 84
0.231 -0.357 -0.63 246 251 254
0.23377 -0.357567 -0.631 246 251 254
0.2346 -0.357 -0.63 246 253 255
0.2358 -0.357 -0.63 234 241 247
0.28109 -0.358133 -0.632 238 245 253
0.282293 -0.358133 -0.632 239 248 255
0.283049 -0.357567 -0.631 238 247 254
0.287856 -0.357567 -0.631 235 242 252
0.311894 -0.357567 -0.631 167 180 222
0.318408 -0.358133 -0.632 134 155 210
0.384627 -0.359267 -0.634 37 71 143
0.398489 -0.3587 -0.633 180 182 205
0.412402 -0.359267 -0.634 138 145 171
0.429837 -0.3587 -0.633 176 173 192
0.431043 -0.3587 -0.633 175 176 196
0.4424 -0.358133 -0.632 43 81 146
0.446011 -0.358133 -0.632 37 75 137
0.459729 -0.357567 -0.631 114 124 160
0.441929 -0.325833 -0.575 110 79 74
0.430571 -0.310533 -0.548 113 76 68
0.436619 -0.300333 -0.53 138 91 81
0.445937 -0.2958 -0.522 164 114 91
0.450045 -0.295233 -0.521 158 107 86
0.451162 -0.294667 -0.52 161 110 89
0.480715 -0.302033 -0.533 143 98 77
0.0591048 -0.243349 -0.428 199 157 143
0.10781 -0.256426 -0.451 99 78 83
0.218652 -0.357631 -0.629 246 249 255
0.2286 -0.3582 -0.63 248 252 253
0.2382 -0.3582 -0.63 227 234 242
0.249 -0.3582 -0.63 213 220 248
0.257809 -0.358769 -0.631 179 191 233
0.272663 -0.359337 -0.632 234 240 255
0.280645 -0.358769 -0.631 231 238 246
0.3114 -0.3582 -0.63 147 164 208
0.329242 -0.359337 -0.632 95 118 186
0.348503 -0.359337 -0.632 167 172 191
0.359906 -0.359906 -0.633 165 170 192
0.370757 -0.359906 -0.633 127 132 154
0.393666 -0.359906 -0.633 57 84 137
0.410546 -0.359906 -0.633 161 166 188
0.42675 -0.359337 -0.632 160 163 172
0.448911 -0.358769 -0.631 101 126 183
0.459729 -0.358769 -0.631 62 74 114
0.4602 -0.3582 -0.63 108 120 160
0.434415 -0.304754 -0.536 126 83 76
0.486484 -0.304754 -0.536 147 102 83
0.495027 -0.308166 -0.542 149 106 89
0.0497829 -0.246446 -0.432 201 161 151
0.0551571 -0.244734 -0.429 199 157 145
0.05992 -0.244164 -0.428 195 152 143
0.0736067 -0.243593 -0.427 178 133 127
0.07442 -0.243593 -0.427 174 131 124
0.0884571 -0.246446 -0.432 147 103 100
0.0953076 -0.249298 -0.437 135 95 95
0.209597 -0.357689 -0.627 243 250 255
0.215912 -0.358259 -0.628 229 234 238
0.2466 -0.3594 -0.63 228 236 255
0.266222 -0.35997 -0.631 189 199 224
0.278241 -0.35997 -0.631 238 245 253
0.3078 -0.3594 -0.63 151 160 189
0.313302 -0.35883 -0.629 103 125 182
0.3162 -0.3594 -0.63 88 113 177
0.342484 -0.360541 -0.632 207 209 224
0.35693 -0.360541 -0.632 169 173 200
0.358133 -0.360541 -0.632 163 168 190
0.371963 -0.361111 -0.633 156 162 186
0.381609 -0.361111 -0.633 52 91 158
0.400267 -0.360541 -0.632 184 185 205
0.40147 -0.360541 -0.632 183 184 204
0.429681 -0.35997 -0.631 146 151 181
0.453719 -0.35997 -0.631 134 152 190
0.4614 -0.3594 -0.63 109 120 152
0.436619 -0.302352 -0.53 136 88 78
0.482746 -0.304064 -0.533 142 97 78
0.0513095 -0.246696 -0.431 202 159 152
0.0528286 -0.246124 -0.43 199 156 147
0.0591048 -0.244979 -0.428 197 153 144
0.0915571 -0.248986 -0.435 140 99 97
0.112835 -0.263868 -0.461 95 72 78
0.187502 -0.360028 -0.629 178 192 229
0.195577 -0.359455 -0.628 222 231 255
0.233855 -0.359455 -0.628 253 254 255
0.331125 -0.361172 -0.631 150 171 226
0.34675 -0.361172 -0.631 136 139 156
0.349153 -0.361172 -0.631 169 171 194
0.388816 -0.361172 -0.631 103 134 189
0.395451 -0.361745 -0.632 64 82 120
0.397859 -0.361745 -0.632 157 165 201
0.400267 -0.361745 -0.632 184 187 202
0.42247 -0.361172 -0.631 175 178 195
0.465625 -0.35831 -0.626 169 167 181
0.454932 -0.337132 -0.589 110 79 76
0.433315 -0.309658 -0.541 123 83 75
0.446931 -0.298783 -0.522 162 111 90
0.450045 -0.29821 -0.521 161 109 85
0.46273 -0.299355 -0.523 143 98 79
0.471289 -0.301645 -0.527 145 97 75
0.477108 -0.30279 -0.529 145 98 80
0.483761 -0.305079 -0.533 149 102 84
0.499043 -0.310803 -0.543 158 114 101
0.0574743 -0.245794 -0.428 195 155 145
0.0605933 -0.24522 -0.427 199 156 147
0.06222 -0.24522 -0.427 190 147 138
0.0638467 -0.24522 -0.427 185 142 135
0.0685657 -0.244646 -0.426 181 138 132
0.0968 -0.252686 -0.44 122 93 89
0.107426 -0.260151 -0.453 96 77 81
0.193185 -0.360651 -0.628 162 175 219
0.236248 -0.360651 -0.628 251 251 251
0.252199 -0.361226 -0.629 135 152 204
0.255793 -0.361226 -0.629 141 161 214
0.285746 -0.361226 -0.629 194 196 217
0.297727 -0.361226 -0.629 227 232 252
0.308019 -0.360651 -0.628 114 126 166
0.309215 -0.360651 -0.628 114 126 166
0.325283 -0.361226 -0.629 93 124 178
0.3522 -0.3618 -0.63 177 182 204
0.386412 -0.362374 -0.631 138 162 210
0.408047 -0.362374 -0.631 171 171 183
0.417 -0.3618 -0.63 183 182 200
0.4218 -0.3618 -0.63 179 180 198
0.423 -0.3618 -0.63 177 178 196
0.4278 -0.3618 -0.63 144 147 162
0.446508 -0.362374 -0.631 97 124 177
0.451315 -0.362374 -0.631 116 143 190
0.46268 -0.34572 -0.602 105 81 81
0.441571 -0.322749 -0.562 115 81 79
0.433767 -0.30954 -0.539 123 83 75
0.43503 -0.306094 -0.533 135 88 78
0.442341 -0.302074 -0.526 152 101 82
0.446791 -0.300351 -0.523 160 109 88
0.447068 -0.299203 -0.521 161 110 93
0.0467067 -0.250067 -0.434 194 151 144
0.0474238 -0.24949 -0.433 195 151 140
0.0574743 -0.24661 -0.428 196 153 144
0.0630333 -0.246033 -0.427 184 141 132
0.07704 -0.24661 -0.428 166 122 113
0.0859886 -0.248914 -0.432 149 103 103
0.234677 -0.361271 -0.627 252 251 255
0.252994 -0.361848 -0.628 126 145 201
0.277359 -0.362424 -0.629 230 236 248
0.294861 -0.361848 -0.628 232 234 255
0.306823 -0.361848 -0.628 139 145 171
0.324085 -0.362424 -0.629 132 162 212
0.331273 -0.362424 -0.629 120 131 177
0.334868 -0.362424 -0.629 207 214 242
0.3378 -0.363 -0.63 207 209 234
0.3582 -0.363 -0.63 195 201 217
0.370788 -0.363576 -0.631 64 73 112
0.381 -0.363 -0.63 91 123 170
0.387 -0.363 -0.63 151 170 212
0.3894 -0.363 -0.63 173 179 213
0.3918 -0.363 -0.63 182 188 220
0.405 -0.363 -0.63 169 167 178
0.4086 -0.363 -0.63 185 184 200
0.4146 -0.363 -0.63 185 186 207
0.458271 -0.362424 -0.629 169 166 193
0.46814 -0.358967 -0.623 163 165 188
0.446286 -0.327276 -0.568 114 80 81
0.438713 -0.318633 -0.553 123 79 78
0.44 -0.304229 -0.528 144 92 78
0.45326 -0.299043 -0.519 152 104 84
0.04326 -0.25494 -0.441 194 152 140
0.0636971 -0.246269 -0.426 185 142 133
0.09724 -0.255518 -0.442 117 89 86
0.190792 -0.363044 -0.628 138 158 208
0.19257 -0.361888 -0.626 137 155 201
0.199405 -0.36131 -0.625 182 194 232
0.208929 -0.36131 -0.625 246 249 254
0.21131 -0.36131 -0.625 248 249 253
0.233483 -0.362466 -0.627 252 253 255
0.247814 -0.362466 -0.627 137 153 202
0.249009 -0.362466 -0.627 141 157 206
0.256174 -0.362466 -0.627 138 155 209
0.291272 -0.363044 -0.628 223 225 246
0.314694 -0.362466 -0.627 100 135 193
0.32186 -0.362466 -0.627 142 178 238
0.33966 -0.363622 -0.629 215 213 235
0.3642 -0.3642 -0.63 186 188 213
0.4002 -0.3642 -0.63 167 176 215
0.4074 -0.3642 -0.63 186 187 215
0.417536 -0.363622 -0.629 181 183 195
0.430715 -0.363622 -0.629 160 161 192
0.435508 -0.363622 -0.629 179 184 204
0.465174 -0.362466 -0.627 171 170 201
0.46801 -0.361888 -0.626 165 160 182
0.45461 -0.335295 -0.58 115 81 79
0.438971 -0.319109 -0.552 114 79 75
0.436619 -0.30639 -0.53 148 96 83
0.45326 -0.300031 -0.519 154 103 84
0.459969 -0.301188 -0.521 146 98 78
0.0430638 -0.25462 -0.439 194 152 140
0.05734 -0.24766 -0.427 197 153 142
0.07442 -0.24766 -0.427 167 127 117
0.0930229 -0.25404 -0.438 124 93 90
0.0940714 -0.25462 -0.439 122 91 88
0.1057 -0.26274 -0.453 97 78 82
0.109962 -0.2668 -0.46 98 76 79
0.185711 -0.36366 -0.627 142 161 203
0.187204 -0.36424 -0.628 141 159 209
0.239454 -0.36366 -0.627 232 236 248
0.253381 -0.36308 -0.626 136 153 205
0.276918 -0.36424 -0.628 236 246 255
0.27931 -0.36424 -0.628 228 236 247
0.282449 -0.36366 -0.627 218 219 237
0.295586 -0.36366 -0.627 230 237 255
0.375 -0.3654 -0.63 179 190 208
0.387584 -0.36482 -0.629 139 157 193
0.39597 -0.36482 -0.629 107 123 156
0.40915 -0.36482 -0.629 180 181 202
0.420461 -0.36424 -0.628 180 177 198
0.455875 -0.36482 -0.629 167 167 191
0.458739 -0.36424 -0.628 170 168 189
0.452881 -0.3335 -0.575 114 80 81
0.44017 -0.30566 -0.527 146 97 82
0.451162 -0.3016 -0.52 156 104 83
0.45326 -0.30102 -0.519 153 102 81
0.456226 -0.30102 -0.519 154 103 84
0.460961 -0.30218 -0.521 147 96 75
0.461953 -0.30218 -0.521 145 94 73
0.463834 -0.30276 -0.522 143 92 73
0.469604 -0.30392 -0.524 145 97 77
0.0558438 -0.249055 -0.428 198 156 144
0.0685657 -0.247891 -0.426 179 135 126
0.0693771 -0.247891 -0.426 178 134 125
0.0711667 -0.248473 -0.427 174 130 121
0.0762248 -0.249055 -0.428 168 125 118
0.0806762 -0.250219 -0.43 151 112 105
0.0825057 -0.250801 -0.431 143 106 100
0.08352 -0.251383 -0.432 143 106 100
0.10112 -0.260693 -0.448 108 82 81
0.191377 -0.364272 -0.626 136 157 200
0.195833 -0.36369 -0.625 146 163 215
0.235495 -0.364272 -0.626 249 250 254
0.23788 -0.364272 -0.626 245 249 255
0.243842 -0.364272 -0.626 162 176 213
0.246227 -0.364272 -0.626 169 184 223
0.248611 -0.364272 -0.626 169 186 230
0.260535 -0.364272 -0.626 163 182 225
0.268117 -0.364854 -0.627 231 238 254
0.311808 -0.364272 -0.626 188 210 251
0.328354 -0.365436 -0.628 206 213 242
0.358259 -0.365436 -0.628 195 202 218
0.376202 -0.365436 -0.628 138 153 182
0.37979 -0.365436 -0.628 133 154 199
0.384575 -0.365436 -0.628 133 149 185
0.400126 -0.365436 -0.628 153 155 178
0.444385 -0.365436 -0.628 104 132 180
0.45515 -0.365436 -0.628 176 174 195
0.444538 -0.325285 -0.559 120 85 81
0.441617 -0.322375 -0.554 118 83 79
0.441174 -0.306664 -0.527 150 99 82
0.460076 -0.30259 -0.52 147 96 77
0.49271 -0.311319 -0.535 153 108 89
0.0780371 -0.250454 -0.429 160 119 113
0.0816848 -0.251622 -0.431 145 106 101
0.10956 -0.26972 -0.462 97 74 80
0.210633 -0.363713 -0.623 247 248 253
0.21182 -0.363713 -0.623 248 249 254
0.224405 -0.364881 -0.625 222 223 241
0.227976 -0.364881 -0.625 248 246 255
0.23631 -0.364881 -0.625 251 251 255
0.252976 -0.364881 -0.625 151 173 222
0.257326 -0.364297 -0.624 190 209 249
0.271267 -0.365465 -0.626 240 250 255
0.284383 -0.365465 -0.626 211 214 229
0.304653 -0.365465 -0.626 189 193 220
0.342163 -0.366049 -0.627 204 206 221
0.392323 -0.366049 -0.627 187 192 214
0.398294 -0.366049 -0.627 114 118 147
0.404266 -0.366049 -0.627 178 178 204
0.441289 -0.366049 -0.627 95 121 172
0.450366 -0.366632 -0.628 83 106 158
0.473646 -0.364297 -0.624 36 55 111
0.451407 -0.332188 -0.569 122 84 81
0.450045 -0.304165 -0.521 149 96 78
0.451037 -0.304165 -0.521 155 102 84
0.452152 -0.303581 -0.52 153 100 82
0.481234 -0.308251 -0.528 145 98 80
0.497522 -0.31409 -0.538 149 106 89
0.0440229 -0.253029 -0.432 199 151 141
0.0462762 -0.251857 -0.43 200 157 140
0.0502543 -0.251271 -0.429 200 157 141
0.0589667 -0.2501 -0.427 192 150 136
0.05978 -0.2501 -0.427 190 148 136
0.0727933 -0.2501 -0.427 169 126 117
0.0745943 -0.250686 -0.428 168 125 116
0.0790381 -0.251857 -0.43 156 115 109
0.17978 -0.3649 -0.623 145 160 203
0.189577 -0.365486 -0.624 134 151 203
0.222857 -0.365486 -0.624 216 218 230
0.229167 -0.366071 -0.625 248 248 255
0.233929 -0.366071 -0.625 255 254 255
0.257326 -0.365486 -0.624 205 219 254
0.296307 -0.366657 -0.626 229 231 254
0.301076 -0.366657 -0.626 140 144 169
0.307738 -0.366071 -0.625 218 220 243
0.318962 -0.366657 -0.626 145 164 204
0.326116 -0.366657 -0.626 212 216 245
0.335655 -0.366657 -0.626 171 180 213
0.34281 -0.366657 -0.626 159 158 174
0.38812 -0.366657 -0.626 178 191 223
0.409583 -0.366657 -0.626 96 105 146
0.422699 -0.366657 -0.626 78 89 134
0.452037 -0.367243 -0.627 156 156 184
0.47008 -0.365486 -0.624 142 155 189
0.474834 -0.365486 -0.624 64 83 139
0.476867 -0.364314 -0.622 123 136 168
0.447994 -0.329171 -0.562 126 85 83
0.44427 -0.325657 -0.556 129 88 82
0.443653 -0.306914 -0.524 158 105 87
0.456226 -0.303986 -0.519 151 100 81
0.47841 -0.308086 -0.526 144 95 78
0.490868 -0.312186 -0.533 155 108 92
0.0509524 -0.251501 -0.428 203 157 142
0.0620743 -0.250326 -0.426 189 145 132
0.0755857 -0.252089 -0.429 163 123 113
0.0994133 -0.263253 -0.448 108 83 86
0.105763 -0.268542 -0.457 100 75 81
0.107333 -0.270305 -0.46 98 73 79
0.191647 -0.366087 -0.623 190 210 255
0.199632 -0.365499 -0.622 158 169 201
0.203187 -0.365499 -0.622 243 241 255
0.21148 -0.365499 -0.622 245 246 251
0.243063 -0.366674 -0.624 241 240 255
0.274405 -0.367262 -0.625 241 244 251
0.299405 -0.367262 -0.625 134 138 163
0.341617 -0.36785 -0.626 169 168 186
0.364854 -0.368437 -0.627 188 195 221
0.366049 -0.368437 -0.627 190 197 223
0.402429 -0.36785 -0.626 94 112 160
0.426786 -0.367262 -0.625 176 180 192
0.442483 -0.368437 -0.627 103 132 190
0.449649 -0.368437 -0.627 80 106 163
0.476447 -0.366087 -0.623 142 163 208
0.441571 -0.32319 -0.55 134 94 86
0.436431 -0.312026 -0.531 155 104 87
0.474594 -0.307912 -0.524 148 100 80
0.4765 -0.3085 -0.525 147 99 79
0.51281 -0.32319 -0.55 149 103 88
0.0401857 -0.256443 -0.435 199 157 143
0.0669429 -0.251137 -0.426 180 133 127
0.0685657 -0.251137 -0.426 178 131 125
0.0693771 -0.251137 -0.426 178 131 125
0.0917714 -0.25939 -0.44 128 94 95
0.17802 -0.366094 -0.621 185 200 223
0.190154 -0.366684 -0.622 166 186 236
0.202002 -0.366684 -0.622 210 210 238
0.205226 -0.366094 -0.621 244 246 255
0.224873 -0.367273 -0.623 242 245 252
0.25098 -0.367273 -0.623 175 194 234
0.260473 -0.367273 -0.623 245 247 255
0.277976 -0.368452 -0.625 240 242 255
0.279167 -0.368452 -0.625 237 235 255
0.2875 -0.368452 -0.625 235 236 255
0.294643 -0.368452 -0.625 232 234 255
0.302491 -0.367863 -0.624 222 227 249
0.310811 -0.367863 -0.624 159 174 207
0.312 -0.367863 -0.624 166 181 214
0.320833 -0.368452 -0.625 148 166 206
0.335119 -0.368452 -0.625 158 164 190
0.3375 -0.368452 -0.625 191 196 225
0.341071 -0.368452 -0.625 178 179 200
0.346387 -0.369042 -0.626 163 180 206
0.348771 -0.369042 -0.626 93 108 165
0.372024 -0.368452 -0.625 164 169 188
0.404167 -0.368452 -0.625 97 114 160
0.431548 -0.368452 -0.625 139 138 152
0.466514 -0.367863 -0.624 127 137 173
0.468891 -0.367863 -0.624 151 163 189
0.476447 -0.367273 -0.623 140 157 200
0.477633 -0.367273 -0.623 150 165 194
0.446931 -0.328954 -0.558 126 92 83
0.44101 -0.323059 -0.548 140 100 90
0.4405 -0.3095 -0.525 157 104 86
0.445795 -0.308321 -0.523 159 104 84
0.48233 -0.310679 -0.527 152 103 86
0.043819 -0.254314 -0.43 200 157 140
0.0501371 -0.253131 -0.428 201 155 139
0.0509524 -0.253131 -0.428 200 154 138
0.05246 -0.25254 -0.427 197 151 135
0.0661314 -0.251949 -0.426 177 130 122
0.0764029 -0.253723 -0.429 166 119 113
0.0774 -0.254314 -0.43 164 117 111
0.0886486 -0.258454 -0.437 130 95 93
0.108033 -0.273831 -0.463 96 74 77
0.109621 -0.275606 -0.466 96 75 80
0.198129 -0.367277 -0.621 199 204 223
0.199311 -0.367277 -0.621 156 166 202
0.21385 -0.367869 -0.622 246 249 255
0.216219 -0.367869 -0.622 250 250 255
0.2403 -0.36846 -0.623 209 216 235
0.245047 -0.36846 -0.623 217 223 247
0.254131 -0.367869 -0.622 182 196 233
0.256501 -0.367869 -0.622 207 216 247
0.262847 -0.36846 -0.623 240 240 250
0.275154 -0.369051 -0.624 237 241 252
0.347024 -0.369643 -0.625 100 125 156
