ply
format ascii 1.0
comment Created by Open3D
element vertex 1314
property double x
property double y
property double z
property uchar red
property uchar green
property uchar blue
end_header
0.286503 -0.0879657 -0.516 49 47 58
0.294366 -0.0879657 -0.516 47 45 56
0.298467 -0.0883067 -0.518 48 46 57
0.314694 -0.089841 -0.527 55 45 53
0.323552 -0.0903524 -0.53 89 65 65
0.326972 -0.0901819 -0.529 103 77 78
0.34144 -0.0900114 -0.528 153 120 129
0.347781 -0.0903524 -0.53 151 118 129
0.21666 -0.0811914 -0.471 187 137 128
0.219382 -0.0815362 -0.473 184 136 126
0.223024 -0.081881 -0.475 174 125 118
0.234625 -0.0834324 -0.484 147 102 99
0.245561 -0.0849838 -0.493 120 76 73
0.252794 -0.0858457 -0.498 135 94 90
0.25718 -0.0863629 -0.501 148 109 104
0.263081 -0.0870524 -0.505 90 65 68
0.286503 -0.0889486 -0.516 48 46 57
0.28791 -0.0887762 -0.515 46 43 54
0.304165 -0.0898105 -0.521 124 121 138
0.312093 -0.0906724 -0.526 48 42 54
0.323552 -0.0913619 -0.53 90 66 66
0.32798 -0.0911895 -0.529 109 83 84
0.335406 -0.0910171 -0.528 141 109 114
0.21306 -0.08174 -0.469 187 139 129
0.219382 -0.0824371 -0.473 181 132 125
0.2244 -0.08296 -0.476 168 121 115
0.22578 -0.0831343 -0.477 163 116 110
0.241267 -0.0854 -0.49 127 86 84
0.245561 -0.0859229 -0.493 117 73 72
0.2475 -0.0862714 -0.495 110 66 65
0.273554 -0.0892343 -0.512 34 24 33
0.28791 -0.0897571 -0.515 45 42 53
0.316297 -0.0920229 -0.528 36 25 33
0.321533 -0.0923714 -0.53 83 64 66
0.336778 -0.0918486 -0.527 147 114 121
0.345463 -0.0920229 -0.528 150 118 129
0.209034 -0.0821048 -0.466 182 133 126
0.269043 -0.089681 -0.509 41 18 24
0.306329 -0.0921476 -0.523 97 93 107
0.312093 -0.0926762 -0.526 51 43 54
0.340793 -0.0928524 -0.527 150 119 127
0.34782 -0.0928524 -0.527 146 115 123
0.349164 -0.0926762 -0.526 148 117 125
0.209922 -0.0829924 -0.466 183 134 127
0.212606 -0.0833486 -0.468 184 135 130
0.213497 -0.0833486 -0.468 183 134 129
0.229029 -0.0854857 -0.48 147 99 95
0.23652 -0.0865543 -0.486 139 95 96
0.244622 -0.087801 -0.493 118 74 75
0.299453 -0.0922533 -0.518 89 86 97
0.304749 -0.0929657 -0.522 114 111 122
0.333767 -0.0938562 -0.527 131 99 102
0.19887 -0.08334 -0.463 184 134 127
0.204161 -0.08334 -0.463 183 134 127
0.22578 -0.08586 -0.477 152 104 102
0.246557 -0.0891 -0.495 107 65 66
0.25381 -0.09 -0.5 121 79 80
0.258207 -0.09054 -0.503 130 95 93
0.268073 -0.09162 -0.509 127 86 92
0.284537 -0.09288 -0.516 47 41 53
0.320927 -0.09522 -0.529 88 68 70
0.324957 -0.09522 -0.529 100 74 75
0.326354 -0.09504 -0.528 107 81 82
0.329751 -0.09486 -0.527 121 91 93
0.3445 -0.0945 -0.525 148 116 119
0.3515 -0.0945 -0.525 149 114 120
0.19492 -0.08404 -0.462 183 133 124
0.19801 -0.0838581 -0.461 186 133 127
0.21574 -0.0853133 -0.469 169 120 115
0.2323 -0.08786 -0.483 132 91 95
0.262119 -0.0918619 -0.505 127 88 89
0.285257 -0.0931352 -0.512 44 40 54
0.315889 -0.0962276 -0.529 72 55 65
0.319919 -0.0962276 -0.529 84 65 69
0.325349 -0.0960457 -0.528 103 77 76
0.326354 -0.0960457 -0.528 104 78 77
0.330755 -0.0958638 -0.527 123 95 94
0.332131 -0.0956819 -0.526 129 99 99
0.3375 -0.0955 -0.525 135 103 106
0.359866 -0.0958638 -0.527 148 117 122
0.217095 -0.0863905 -0.47 164 116 112
0.234669 -0.0893314 -0.486 126 85 89
0.27702 -0.0942943 -0.513 27 18 21
0.291109 -0.0941105 -0.512 57 55 69
0.316896 -0.0972352 -0.529 74 57 65
0.333133 -0.0966838 -0.526 131 99 102
0.3355 -0.0965 -0.525 134 104 106
0.343844 -0.0963162 -0.524 142 110 113
0.351157 -0.0961324 -0.523 148 113 119
0.18035 -0.0859857 -0.463 199 154 148
0.188409 -0.0852429 -0.459 183 134 129
0.190157 -0.0852429 -0.459 184 135 131
0.206807 -0.0859857 -0.463 182 129 123
0.266054 -0.0941571 -0.507 132 86 89
0.285948 -0.0956429 -0.515 44 37 45
0.286647 -0.0949 -0.511 45 41 55
0.292084 -0.0950857 -0.512 70 68 82
0.3085 -0.0975 -0.525 48 40 51
0.320927 -0.0982429 -0.529 89 69 71
0.183636 -0.0859295 -0.458 204 156 144
0.191488 -0.0859295 -0.458 184 131 127
0.194105 -0.0859295 -0.458 180 129 125
0.19585 -0.0859295 -0.458 178 127 123
0.20636 -0.08668 -0.462 182 129 125
0.209021 -0.0870552 -0.464 175 122 116
0.21393 -0.0876181 -0.467 158 109 104
0.265089 -0.0951229 -0.507 121 76 79
0.273993 -0.0958733 -0.511 84 52 57
0.27648 -0.096061 -0.512 33 17 20
0.286647 -0.0958733 -0.511 49 45 59
0.312687 -0.0988752 -0.527 65 50 55
0.324343 -0.0990629 -0.528 100 74 77
0.353469 -0.0979371 -0.522 146 111 118
0.355457 -0.0979371 -0.522 148 113 120
0.359127 -0.0981248 -0.523 146 111 118
0.203714 -0.087181 -0.46 179 126 122
0.20857 -0.0877495 -0.463 177 124 118
0.266579 -0.0962781 -0.508 129 83 86
0.271514 -0.0966571 -0.51 148 102 105
0.279518 -0.0974152 -0.514 22 16 18
0.325349 -0.100069 -0.528 103 77 80
0.325736 -0.099879 -0.527 109 80 82
0.332131 -0.0996895 -0.526 128 96 97
0.342191 -0.099121 -0.523 139 107 110
0.34452 -0.0989314 -0.522 139 107 110
0.357753 -0.0987419 -0.521 146 114 119
0.180229 -0.0872914 -0.456 206 156 145
0.223493 -0.09112 -0.476 125 81 82
0.249546 -0.0959057 -0.501 94 52 56
0.251 -0.0960971 -0.502 99 57 61
0.253416 -0.0962886 -0.503 107 65 69
0.293225 -0.0983943 -0.514 105 102 119
0.30259 -0.0995429 -0.52 51 44 52
0.317303 -0.101074 -0.528 84 64 65
0.32032 -0.101074 -0.528 92 70 72
0.323337 -0.101074 -0.528 100 71 73
0.324343 -0.101074 -0.528 103 74 76
0.330128 -0.100691 -0.526 124 92 95
0.339203 -0.100117 -0.523 139 104 108
0.342191 -0.100117 -0.523 139 107 110
0.351799 -0.0997343 -0.521 138 106 109
0.17028 -0.08932 -0.462 200 150 141
0.184167 -0.0879667 -0.455 186 134 121
0.195863 -0.08816 -0.456 178 128 119
0.223493 -0.0920267 -0.476 121 77 78
0.241843 -0.0957 -0.495 98 55 62
0.245206 -0.09628 -0.498 89 46 53
0.267104 -0.0984067 -0.509 129 80 84
0.273993 -0.0987933 -0.511 141 91 100
0.277997 -0.09918 -0.513 30 15 20
0.278974 -0.09918 -0.513 28 13 18
0.29789 -0.0999533 -0.517 65 61 76
0.309088 -0.101693 -0.526 37 27 35
0.319713 -0.101887 -0.527 93 68 72
0.320717 -0.101887 -0.527 98 69 71
0.328124 -0.101693 -0.526 121 91 93
0.346837 -0.100727 -0.521 142 107 113
0.171295 -0.0898095 -0.46 201 152 145
0.192389 -0.0890286 -0.456 181 129 118
0.216633 -0.0915667 -0.469 139 93 93
0.227673 -0.0939095 -0.481 102 60 64
0.235667 -0.0956667 -0.49 103 60 69
0.238503 -0.0960571 -0.492 100 57 66
0.2409 -0.0966429 -0.495 95 52 59
0.250542 -0.0982048 -0.503 93 50 57
0.258783 -0.0987905 -0.506 105 60 65
0.259747 -0.0987905 -0.506 104 59 62
0.291267 -0.100352 -0.514 102 98 112
0.319314 -0.103086 -0.528 97 72 76
0.3325 -0.1025 -0.525 129 97 102
0.332865 -0.102305 -0.524 131 99 104
0.165714 -0.0914743 -0.464 199 149 140
0.173048 -0.0906857 -0.46 201 151 144
0.182433 -0.0897 -0.455 182 129 121
0.191967 -0.0897 -0.455 181 126 119
0.210334 -0.0912771 -0.463 165 114 111
0.225814 -0.0944314 -0.479 111 69 73
0.238531 -0.0973886 -0.494 95 54 62
0.262709 -0.100149 -0.508 105 55 66
0.2686 -0.100543 -0.51 131 76 82
0.282024 -0.101529 -0.515 24 9 14
0.286791 -0.101134 -0.513 29 19 27
0.30218 -0.102711 -0.521 46 36 45
0.314694 -0.103894 -0.527 77 60 68
0.315698 -0.103894 -0.527 82 65 73
0.319713 -0.103894 -0.527 88 69 75
0.3315 -0.1035 -0.525 128 98 100
0.339549 -0.102909 -0.522 141 109 112
0.341875 -0.102711 -0.521 140 108 111
0.367962 -0.102514 -0.52 146 108 121
0.169543 -0.0915619 -0.46 203 150 144
0.173546 -0.0913629 -0.459 206 153 145
0.176271 -0.0909648 -0.457 204 151 143
0.230015 -0.096339 -0.484 99 56 63
0.25008 -0.10032 -0.504 91 48 55
0.260773 -0.101116 -0.508 99 53 64
0.267629 -0.101514 -0.51 125 68 74
0.280497 -0.10231 -0.514 26 11 16
0.28552 -0.102709 -0.516 22 17 23
0.2924 -0.102709 -0.516 104 102 116
0.29748 -0.103107 -0.518 57 45 65
0.299619 -0.103505 -0.52 50 38 58
0.324116 -0.104699 -0.526 110 81 83
0.365277 -0.103306 -0.519 144 113 118
0.417833 -0.108481 -0.545 207 147 146
0.169543 -0.0924381 -0.46 204 154 147
0.17366 -0.0918352 -0.457 206 153 145
0.175886 -0.0916343 -0.456 203 150 142
0.1807 -0.0914333 -0.455 180 126 116
0.190233 -0.0914333 -0.455 180 125 118
0.244286 -0.100476 -0.5 83 42 48
0.246219 -0.100878 -0.502 83 42 48
0.2686 -0.102486 -0.51 129 72 78
0.27648 -0.102888 -0.512 131 89 93
0.283005 -0.10349 -0.515 19 10 15
0.299619 -0.104495 -0.52 50 38 58
0.308086 -0.105701 -0.526 62 51 57
0.333863 -0.105299 -0.524 130 98 101
0.33989 -0.104696 -0.521 141 109 112
0.37022 -0.104294 -0.519 141 108 117
0.373631 -0.104696 -0.521 144 108 112
0.415287 -0.108313 -0.539 204 149 154
0.172295 -0.0929086 -0.458 206 153 145
0.192833 -0.0923 -0.455 180 123 116
0.230966 -0.0985886 -0.486 96 55 61
0.248652 -0.102443 -0.505 83 42 48
0.265165 -0.103254 -0.509 115 58 65
0.27302 -0.10366 -0.511 129 76 82
0.297066 -0.105283 -0.519 45 43 57
0.312687 -0.106906 -0.527 74 57 65
0.328872 -0.106297 -0.524 123 93 95
0.32987 -0.106297 -0.524 125 95 97
0.338898 -0.105689 -0.521 139 107 108
0.354707 -0.10508 -0.518 136 104 107
0.372197 -0.105283 -0.519 147 111 115
0.163593 -0.0948048 -0.463 200 145 140
0.166914 -0.0941905 -0.46 196 143 135
0.17366 -0.0935762 -0.457 204 151 143
0.177233 -0.0931667 -0.455 196 142 132
0.1781 -0.0931667 -0.455 191 137 127
0.180303 -0.0929619 -0.454 176 122 112
0.229567 -0.0993095 -0.485 92 52 60
0.240946 -0.102176 -0.499 70 31 36
0.273993 -0.104633 -0.511 131 78 84
0.295657 -0.106476 -0.52 64 61 72
0.309675 -0.10791 -0.527 69 56 65
0.3275 -0.1075 -0.525 119 90 92
0.332865 -0.107295 -0.524 128 96 99
0.333863 -0.107295 -0.524 129 97 98
0.334222 -0.10709 -0.523 130 98 99
0.351437 -0.106271 -0.519 137 105 108
0.352426 -0.106271 -0.519 137 105 108
0.3619 -0.105862 -0.517 134 99 103
0.365839 -0.105862 -0.517 141 109 112
0.409654 -0.109957 -0.537 177 116 123
0.161103 -0.0963067 -0.466 198 141 134
0.171049 -0.0944467 -0.457 201 148 140
0.189815 -0.0938267 -0.454 181 124 117
0.193274 -0.0938267 -0.454 170 115 108
0.234754 -0.10168 -0.492 77 35 45
0.264714 -0.1054 -0.51 110 59 66
0.284537 -0.10664 -0.516 37 15 17
0.288043 -0.106847 -0.517 35 20 25
0.300926 -0.108293 -0.524 40 32 43
0.306082 -0.108707 -0.526 56 45 51
0.313095 -0.108707 -0.526 81 62 66
0.3155 -0.1085 -0.525 88 66 69
0.32987 -0.108293 -0.524 124 94 96
0.336566 -0.10788 -0.522 133 101 102
0.34221 -0.107467 -0.52 142 107 111
0.3432 -0.107467 -0.52 142 107 111
0.3478 -0.107053 -0.518 141 106 112
0.35372 -0.107053 -0.518 138 106 107
0.412694 -0.110153 -0.533 208 143 151
0.166038 -0.0959429 -0.46 198 143 138
0.191545 -0.0946914 -0.454 175 120 113
0.193274 -0.0946914 -0.454 170 115 108
0.198033 -0.0949 -0.455 176 121 114
0.233342 -0.102409 -0.491 81 41 49
0.24335 -0.104703 -0.502 76 35 41
0.272047 -0.10658 -0.511 121 65 76
0.27843 -0.106789 -0.512 137 82 87
0.290573 -0.10804 -0.518 95 80 83
0.3165 -0.1095 -0.525 90 68 71
0.321886 -0.109291 -0.524 108 82 85
0.340229 -0.108457 -0.52 138 106 107
0.367097 -0.107623 -0.516 139 105 106
0.413169 -0.110751 -0.531 192 135 144
0.160215 -0.0980819 -0.466 199 147 136
0.172411 -0.0959771 -0.456 200 147 139
0.175979 -0.0955562 -0.454 192 135 128
0.180303 -0.0955562 -0.454 182 127 122
0.218454 -0.0991343 -0.471 128 86 87
0.259393 -0.107553 -0.511 95 48 56
0.260367 -0.107553 -0.511 97 50 56
0.26134 -0.107553 -0.511 99 52 58
0.269127 -0.107553 -0.511 118 62 73
0.279951 -0.107974 -0.513 144 95 98
0.311683 -0.110921 -0.527 79 60 64
0.358946 -0.108816 -0.517 72 42 44
0.369063 -0.108606 -0.516 137 101 103
0.405324 -0.111552 -0.53 176 114 125
0.406811 -0.111131 -0.528 206 144 149
0.15878 -0.0991819 -0.467 198 143 136
0.172411 -0.0968457 -0.456 198 146 135
0.175979 -0.096421 -0.454 189 132 125
0.179438 -0.096421 -0.454 181 126 121
0.188086 -0.096421 -0.454 185 128 121
0.207643 -0.0974829 -0.459 158 102 101
0.218918 -0.100244 -0.472 121 79 80
0.255025 -0.108739 -0.512 68 23 30
0.26718 -0.108527 -0.511 115 59 70
0.289587 -0.110013 -0.518 172 138 137
0.2958 -0.110863 -0.522 36 24 24
0.304078 -0.111712 -0.526 57 42 49
0.306664 -0.111925 -0.527 64 47 53
0.335571 -0.110863 -0.522 133 101 102
0.3432 -0.110438 -0.52 141 107 108
0.3478 -0.110013 -0.518 140 105 109
0.358946 -0.109801 -0.517 59 32 37
0.35993 -0.109801 -0.517 59 32 37
0.399014 -0.111925 -0.527 141 90 99
0.174633 -0.0975 -0.455 193 144 130
0.185083 -0.0970714 -0.453 192 135 128
0.186809 -0.0970714 -0.453 187 130 123
0.191986 -0.0970714 -0.453 172 115 108
0.193711 -0.0970714 -0.453 170 113 106
0.22631 -0.103286 -0.482 92 51 57
0.228643 -0.103929 -0.485 84 43 49
0.272579 -0.109714 -0.512 113 58 64
0.273554 -0.109714 -0.512 117 58 62
0.275505 -0.109714 -0.512 140 75 81
0.27843 -0.109714 -0.512 174 107 114
0.294241 -0.111643 -0.521 128 99 101
0.298359 -0.112071 -0.523 35 21 20
0.317893 -0.112286 -0.524 102 76 79
0.327249 -0.112071 -0.523 124 92 97
0.334577 -0.111857 -0.522 133 99 100
0.357961 -0.110786 -0.517 61 39 41
0.35993 -0.110786 -0.517 55 33 35
0.377176 -0.110357 -0.515 143 107 109
0.387026 -0.111214 -0.519 147 106 114
0.392997 -0.112071 -0.523 152 109 116
0.3975 -0.1125 -0.525 122 76 79
0.406272 -0.112714 -0.526 200 143 150
0.162009 -0.0996638 -0.461 197 144 136
0.167061 -0.0990152 -0.458 201 149 138
0.182032 -0.0981505 -0.454 191 134 127
0.23714 -0.107447 -0.497 90 42 54
0.249171 -0.110257 -0.51 95 48 56
0.255523 -0.110906 -0.513 80 33 41
0.30566 -0.113932 -0.527 59 43 46
0.32426 -0.113068 -0.523 119 88 93
0.331594 -0.112851 -0.522 132 97 101
0.334577 -0.112851 -0.522 133 99 100
0.341551 -0.112203 -0.519 139 105 106
0.346813 -0.111987 -0.518 140 105 109
0.3478 -0.111987 -0.518 140 105 109
0.376444 -0.111122 -0.514 138 99 104
0.41028 -0.113716 -0.526 209 148 156
0.153612 -0.103159 -0.473 206 153 147
0.15386 -0.102723 -0.471 202 149 141
0.154429 -0.102505 -0.47 199 146 138
0.165316 -0.0998876 -0.458 198 148 137
0.166696 -0.0996695 -0.457 200 150 139
0.190701 -0.098579 -0.452 172 115 108
0.191986 -0.0987971 -0.453 170 113 106
0.22399 -0.104468 -0.479 89 47 49
0.268678 -0.111665 -0.512 109 52 61
0.291134 -0.113191 -0.519 160 114 116
0.297931 -0.114282 -0.524 55 34 33
0.30566 -0.114936 -0.527 60 44 45
0.311091 -0.114718 -0.526 83 63 65
0.3145 -0.1145 -0.525 91 66 70
0.341551 -0.113191 -0.519 139 105 106
0.349773 -0.112973 -0.518 139 103 105
0.35076 -0.112973 -0.518 137 105 108
0.375465 -0.112101 -0.514 133 97 101
0.152963 -0.10362 -0.471 203 150 142
0.1541 -0.10318 -0.469 199 146 138
0.155554 -0.10296 -0.468 200 147 139
0.156329 -0.1023 -0.465 200 147 139
0.15972 -0.10164 -0.462 195 140 133
0.166696 -0.10054 -0.457 203 151 140
0.17425 -0.09988 -0.454 188 136 125
0.202367 -0.1001 -0.455 159 104 99
0.21076 -0.10164 -0.462 147 96 92
0.2424 -0.11088 -0.504 93 43 54
0.245774 -0.11154 -0.507 94 44 55
0.260443 -0.1133 -0.515 68 26 30
0.264832 -0.11308 -0.514 91 40 49
0.297931 -0.11528 -0.524 77 53 51
0.306664 -0.11594 -0.527 62 46 47
0.323264 -0.11506 -0.523 116 85 90
0.3306 -0.11484 -0.522 129 97 98
0.346813 -0.11396 -0.518 142 106 108
0.354022 -0.11374 -0.517 136 106 108
0.363716 -0.11308 -0.514 112 83 87
0.37278 -0.11286 -0.513 137 102 106
0.375711 -0.11286 -0.513 135 96 101
0.385024 -0.1133 -0.515 150 114 118
0.39098 -0.11418 -0.519 150 114 118
0.4055 -0.1155 -0.525 205 154 159
0.4105 -0.1155 -0.525 196 141 147
0.159184 -0.102742 -0.463 196 143 135
0.161657 -0.102076 -0.46 194 140 130
0.168567 -0.100967 -0.455 202 148 138
0.17079 -0.100745 -0.454 200 146 136
0.194574 -0.100523 -0.453 162 109 103
0.212098 -0.102742 -0.463 142 97 92
0.229114 -0.107846 -0.486 78 33 38
0.237617 -0.110509 -0.498 85 39 49
0.252099 -0.113615 -0.512 95 45 56
0.253569 -0.113837 -0.513 93 46 54
0.276799 -0.11295 -0.509 184 130 128
0.293249 -0.115612 -0.521 140 94 96
0.308086 -0.116722 -0.526 71 53 53
0.325256 -0.116056 -0.523 121 91 93
0.326252 -0.116056 -0.523 123 93 95
0.34188 -0.114947 -0.518 138 106 109
0.343853 -0.114947 -0.518 139 104 108
0.353037 -0.114725 -0.517 141 107 108
0.358251 -0.114503 -0.516 124 95 97
0.359234 -0.114503 -0.516 124 95 97
0.360217 -0.114503 -0.516 132 103 107
0.3612 -0.114503 -0.516 134 105 109
0.365674 -0.114059 -0.514 110 84 85
0.386005 -0.114281 -0.515 134 98 100
0.395464 -0.115612 -0.521 129 97 100
0.417083 -0.116944 -0.527 185 133 135
0.15288 -0.104743 -0.468 201 148 140
0.181631 -0.101386 -0.453 189 135 125
0.1963 -0.101386 -0.453 157 104 98
0.237617 -0.111457 -0.498 85 38 48
0.264832 -0.115038 -0.514 78 33 38
0.268678 -0.11459 -0.512 128 69 75
0.28178 -0.114367 -0.511 166 111 108
0.303076 -0.117724 -0.526 48 32 32
0.31009 -0.117724 -0.526 79 59 60
0.327617 -0.116829 -0.522 126 96 98
0.329967 -0.116605 -0.521 129 99 99
0.334286 -0.116381 -0.52 133 103 103
0.337933 -0.115933 -0.518 138 106 107
0.342867 -0.115933 -0.518 138 106 109
0.346144 -0.11571 -0.517 138 106 109
0.349098 -0.11571 -0.517 140 104 104
0.374979 -0.11459 -0.512 132 100 101
0.38083 -0.11459 -0.512 131 97 96
0.382551 -0.114814 -0.513 131 100 98
0.4045 -0.1175 -0.525 159 128 125
0.155992 -0.104731 -0.464 199 147 136
0.173003 -0.102249 -0.453 187 133 123
0.17818 -0.102249 -0.453 189 132 123
0.184674 -0.102023 -0.452 180 126 116
0.187257 -0.102023 -0.452 172 118 108
0.188979 -0.102023 -0.452 167 112 105
0.195437 -0.102249 -0.453 156 103 97
0.203233 -0.1027 -0.455 147 97 90
0.268678 -0.115566 -0.512 142 80 85
0.271951 -0.114889 -0.509 187 128 130
0.317674 -0.117823 -0.522 106 80 81
0.351371 -0.116469 -0.516 141 107 108
0.38872 -0.116469 -0.516 124 96 95
0.4135 -0.1185 -0.525 194 145 149
0.17818 -0.103111 -0.453 191 137 127
0.181631 -0.103111 -0.453 192 138 128
0.182952 -0.102884 -0.452 186 132 122
0.184674 -0.102884 -0.452 181 127 117
0.234292 -0.112216 -0.493 79 34 41
0.252099 -0.116541 -0.512 86 39 47
0.253569 -0.116769 -0.513 86 41 48
0.267249 -0.116769 -0.513 115 58 65
0.268153 -0.116313 -0.511 153 88 94
0.270982 -0.115858 -0.509 185 120 124
0.275711 -0.115403 -0.507 188 130 128
0.286929 -0.117224 -0.515 123 77 80
0.3115 -0.1195 -0.525 90 65 68
0.327982 -0.11859 -0.521 128 96 97
0.344174 -0.117679 -0.517 137 105 106
0.353337 -0.117451 -0.516 139 109 111
0.355303 -0.117451 -0.516 136 104 107
0.361758 -0.116996 -0.514 129 97 102
0.370826 -0.116769 -0.513 109 80 82
0.376193 -0.116313 -0.511 132 98 96
0.4085 -0.1195 -0.525 198 148 151
0.152786 -0.106729 -0.465 200 145 138
0.160781 -0.105581 -0.46 193 138 131
0.163726 -0.104663 -0.456 199 144 137
0.168196 -0.104204 -0.454 200 145 138
0.182952 -0.103745 -0.452 189 132 123
0.18942 -0.103515 -0.451 164 109 104
0.194145 -0.103745 -0.452 158 105 99
0.257 -0.117975 -0.514 90 47 56
0.267629 -0.117057 -0.51 158 99 101
0.2686 -0.117057 -0.51 170 111 113
0.3005 -0.1205 -0.525 53 31 34
0.329333 -0.119352 -0.52 132 100 101
0.359519 -0.118205 -0.515 134 100 99
0.362737 -0.117975 -0.514 131 99 104
0.367894 -0.117746 -0.513 110 80 82
0.374004 -0.117516 -0.512 128 100 99
0.387967 -0.118205 -0.515 130 100 102
0.392957 -0.119123 -0.519 94 72 75
0.40872 -0.12027 -0.524 200 146 144
0.149952 -0.108771 -0.47 198 145 137
0.173482 -0.104606 -0.452 191 134 125
0.175204 -0.104606 -0.452 193 136 127
0.186843 -0.104374 -0.451 177 120 109
0.190279 -0.104374 -0.451 165 110 105
0.195006 -0.104606 -0.452 159 106 100
0.198889 -0.104837 -0.453 156 103 97
0.202367 -0.1053 -0.455 151 98 92
0.203233 -0.1053 -0.455 148 98 91
0.262405 -0.119186 -0.515 60 19 25
0.286929 -0.119186 -0.515 120 76 77
0.311905 -0.121269 -0.524 91 66 69
0.32699 -0.120574 -0.521 125 95 95
0.342205 -0.119649 -0.517 139 105 106
0.346144 -0.119649 -0.517 138 103 107
0.346457 -0.119417 -0.516 139 104 108
0.352652 -0.119186 -0.515 133 104 109
0.38106 -0.11826 -0.511 132 98 99
0.382781 -0.118491 -0.512 127 93 94
0.398974 -0.121037 -0.523 46 30 33
0.404269 -0.121731 -0.526 42 11 16
0.174343 -0.105467 -0.452 190 136 126
0.195006 -0.105467 -0.452 159 106 100
0.196728 -0.105467 -0.452 157 104 98
0.205868 -0.106633 -0.457 147 98 91
0.224432 -0.111533 -0.478 114 74 82
0.255523 -0.1197 -0.513 86 43 50
0.2712 -0.1176 -0.504 194 140 140
0.30891 -0.122267 -0.524 82 60 62
0.312306 -0.122033 -0.523 97 71 72
0.319663 -0.1218 -0.522 109 80 82
0.320043 -0.121567 -0.521 113 84 86
0.321035 -0.121567 -0.521 116 87 89
0.33596 -0.120867 -0.518 138 104 105
0.362031 -0.1197 -0.513 125 93 96
0.379113 -0.119233 -0.511 126 95 93
0.407274 -0.122733 -0.526 152 108 109
0.409718 -0.122267 -0.524 203 150 146
0.149108 -0.111268 -0.473 194 140 140
0.15708 -0.10868 -0.462 203 148 143
0.157618 -0.108445 -0.461 200 145 140
0.173482 -0.106328 -0.452 189 135 125
0.174343 -0.106328 -0.452 190 136 126
0.179111 -0.106092 -0.451 191 137 127
0.193284 -0.106328 -0.452 160 107 101
0.195006 -0.106328 -0.452 157 104 98
0.205417 -0.107269 -0.456 149 100 93
0.221651 -0.111503 -0.474 127 85 87
0.223963 -0.112209 -0.477 117 77 85
0.248683 -0.119736 -0.509 73 30 39
0.265686 -0.119971 -0.51 161 109 113
0.270662 -0.118325 -0.503 191 135 134
0.272578 -0.118325 -0.503 194 135 137
0.280126 -0.119501 -0.508 159 109 108
0.2822 -0.119971 -0.51 141 95 95
0.296367 -0.12303 -0.523 69 43 46
0.30891 -0.123265 -0.524 83 61 63
0.320043 -0.122559 -0.521 115 86 88
0.327711 -0.122089 -0.519 131 99 100
0.33925 -0.121618 -0.517 139 104 108
0.346457 -0.121383 -0.516 136 104 107
0.355595 -0.121148 -0.515 136 106 108
0.395464 -0.122559 -0.521 44 28 29
0.4015 -0.1235 -0.525 39 18 23
0.403267 -0.123735 -0.526 34 13 18
0.414709 -0.123265 -0.524 192 136 137
0.191997 -0.106951 -0.451 159 109 102
0.201922 -0.107663 -0.454 152 105 95
0.21252 -0.10956 -0.462 147 97 88
0.238087 -0.11786 -0.497 61 20 26
0.264714 -0.120943 -0.51 144 98 101
0.27108 -0.119046 -0.502 187 131 130
0.274494 -0.119283 -0.503 181 127 127
0.2822 -0.120943 -0.51 138 94 93
0.321035 -0.123551 -0.521 117 87 89
0.345474 -0.122366 -0.516 137 105 108
0.419297 -0.124737 -0.526 176 127 123
0.151339 -0.111396 -0.466 198 144 144
0.16112 -0.109006 -0.456 196 141 138
0.196728 -0.10805 -0.452 150 102 92
0.19845 -0.10805 -0.452 151 104 94
0.237608 -0.118568 -0.496 62 21 27
0.242877 -0.120241 -0.503 70 24 34
0.336296 -0.123588 -0.517 141 106 110
0.354905 -0.12287 -0.514 133 104 108
0.3591 -0.122631 -0.513 129 100 104
0.362031 -0.122631 -0.513 136 104 107
0.390227 -0.123827 -0.518 57 38 40
0.148792 -0.11373 -0.472 197 143 141
0.183 -0.108429 -0.45 184 132 121
0.222554 -0.114211 -0.474 120 84 88
0.253553 -0.123127 -0.511 82 36 46
0.259431 -0.123609 -0.513 81 38 45
0.267677 -0.120717 -0.501 184 131 127
0.279574 -0.122163 -0.507 149 101 99
0.3025 -0.1265 -0.525 58 39 43
0.307325 -0.126018 -0.523 83 61 64
0.311709 -0.125777 -0.522 99 70 72
0.336296 -0.124572 -0.517 139 107 110
0.351671 -0.12409 -0.515 242 224 236
0.352652 -0.12409 -0.515 221 196 202
0.352947 -0.12385 -0.514 147 122 128
0.361054 -0.123609 -0.513 130 98 99
0.383529 -0.123609 -0.513 132 102 104
0.405806 -0.127223 -0.528 50 20 22
0.409718 -0.126259 -0.524 190 139 135
0.149174 -0.116329 -0.479 195 144 140
0.150206 -0.113657 -0.468 197 145 149
0.158337 -0.111229 -0.458 195 141 139
0.174816 -0.109529 -0.451 187 137 128
0.19845 -0.109771 -0.452 152 105 95
0.202787 -0.110257 -0.454 150 103 93
0.208935 -0.111229 -0.458 145 98 88
0.225343 -0.116086 -0.478 110 74 78
0.237129 -0.120214 -0.495 63 22 26
0.263226 -0.123614 -0.509 148 99 102
0.263602 -0.122886 -0.506 169 113 116
0.26352 -0.1224 -0.504 180 124 127
0.267677 -0.121671 -0.501 184 131 127
0.269048 -0.121429 -0.5 183 127 126
0.3025 -0.1275 -0.525 58 39 43
0.30392 -0.127257 -0.524 65 46 48
0.310313 -0.127014 -0.523 89 64 67
0.324746 -0.126043 -0.519 128 96 99
0.335311 -0.125557 -0.517 138 106 109
0.342526 -0.125314 -0.516 137 102 108
0.347748 -0.125071 -0.515 231 199 200
0.352652 -0.125071 -0.515 221 196 202
0.366917 -0.124586 -0.513 133 98 102
0.370103 -0.124343 -0.512 129 97 98
0.371327 -0.1241 -0.511 130 98 101
0.381806 -0.124343 -0.512 126 96 98
0.390227 -0.1258 -0.518 45 29 30
0.4075 -0.1275 -0.525 161 110 107
0.412712 -0.127257 -0.524 192 141 138
0.41371 -0.127257 -0.524 194 140 140
0.14824 -0.116507 -0.476 194 144 137
0.151339 -0.114059 -0.466 199 145 145
0.1562 -0.11308 -0.462 204 150 150
0.178714 -0.110143 -0.45 187 134 126
0.180429 -0.110143 -0.45 183 133 122
0.219781 -0.115038 -0.47 130 88 90
0.261851 -0.125318 -0.512 103 60 67
0.262313 -0.125073 -0.511 123 77 80
0.281093 -0.124339 -0.508 127 89 86
0.31131 -0.12801 -0.523 93 68 71
0.317066 -0.127521 -0.521 114 82 85
0.329053 -0.126787 -0.518 136 106 108
0.338266 -0.126542 -0.517 137 105 108
0.3591 -0.125563 -0.513 105 83 86
0.362031 -0.125563 -0.513 134 98 102
0.4175 -0.1285 -0.525 181 130 127
0.14824 -0.117413 -0.476 193 142 139
0.159383 -0.11248 -0.456 195 142 138
0.164872 -0.111493 -0.452 188 138 131
0.174429 -0.111 -0.45 187 137 128
0.227673 -0.118647 -0.481 106 67 72
0.244793 -0.124073 -0.503 71 28 38
0.261951 -0.12358 -0.501 182 123 125
0.292123 -0.12802 -0.519 60 35 38
0.306329 -0.129007 -0.523 80 58 60
0.322769 -0.12802 -0.519 126 93 100
0.32708 -0.127773 -0.518 133 102 107
0.336629 -0.12728 -0.516 133 101 106
0.345786 -0.127033 -0.515 137 101 105
0.351968 -0.126787 -0.514 142 111 116
0.353926 -0.126787 -0.514 122 93 97
0.3591 -0.12654 -0.513 74 52 54
0.379855 -0.126293 -0.512 129 97 100
0.384276 -0.126787 -0.514 93 67 68
0.4085 -0.1295 -0.525 175 121 119
0.412712 -0.129253 -0.524 196 145 141
0.15356 -0.11484 -0.462 195 144 140
0.158862 -0.113597 -0.457 194 143 139
0.159383 -0.113349 -0.456 193 142 138
0.176607 -0.111609 -0.449 187 137 128
0.179172 -0.111609 -0.449 184 134 125
0.189 -0.111857 -0.45 161 113 103
0.195433 -0.112106 -0.451 153 106 96
0.253553 -0.12702 -0.511 80 33 41
0.267971 -0.123789 -0.498 181 123 122
0.292123 -0.129009 -0.519 55 33 36
0.294241 -0.129506 -0.521 48 29 33
0.296367 -0.130003 -0.523 50 31 35
0.29893 -0.130251 -0.524 51 35 38
0.312104 -0.129506 -0.521 99 75 75
0.329053 -0.12876 -0.518 139 104 108
0.377905 -0.127269 -0.512 130 100 102
0.407045 -0.130997 -0.527 124 80 81
0.407274 -0.130749 -0.526 138 94 95
0.420299 -0.130749 -0.526 173 124 119
0.432586 -0.132986 -0.535 172 122 121
0.439498 -0.134477 -0.541 188 137 136
0.14858 -0.12098 -0.483 195 147 147
0.1599 -0.113967 -0.455 193 142 138
0.16229 -0.113215 -0.452 191 140 136
0.171857 -0.112714 -0.45 195 142 136
0.174896 -0.112464 -0.449 191 141 134
0.186429 -0.112714 -0.45 168 118 107
0.203203 -0.113466 -0.453 147 100 90
0.258886 -0.127743 -0.51 106 59 65
0.260383 -0.124737 -0.498 185 126 128
0.267433 -0.124487 -0.497 183 125 124
0.274905 -0.125739 -0.502 160 105 98
0.29893 -0.13125 -0.524 51 34 40
0.304336 -0.130999 -0.523 72 53 55
0.306329 -0.130999 -0.523 84 62 65
0.308321 -0.130999 -0.523 85 63 66
0.317448 -0.130248 -0.52 116 92 90
0.365227 -0.128244 -0.512 126 96 98
0.373273 -0.127993 -0.511 132 96 98
0.410716 -0.13125 -0.524 194 143 140
0.4185 -0.1315 -0.525 180 131 126
0.422102 -0.132001 -0.527 168 123 120
0.156934 -0.115843 -0.459 195 148 142
0.177462 -0.113319 -0.449 184 134 125
0.203203 -0.114329 -0.453 148 101 93
0.208479 -0.115338 -0.457 142 97 92
0.259434 -0.125686 -0.498 188 129 131
0.264061 -0.125181 -0.496 183 121 122
0.278471 -0.127452 -0.505 136 89 83
0.297363 -0.131995 -0.523 51 34 40
0.305332 -0.131995 -0.523 74 55 57
0.313486 -0.131238 -0.52 98 79 81
0.317448 -0.131238 -0.52 118 97 96
0.32141 -0.131238 -0.52 126 91 95
0.343824 -0.129976 -0.515 135 100 106
0.351283 -0.129471 -0.513 134 103 108
0.354214 -0.129471 -0.513 122 93 97
0.356169 -0.129471 -0.513 102 76 79
0.359375 -0.129219 -0.512 70 45 49
0.389752 -0.131238 -0.52 41 22 24
0.404314 -0.134771 -0.534 34 19 22
0.407366 -0.134771 -0.534 35 18 24
0.4185 -0.1325 -0.525 178 131 125
0.157646 -0.115954 -0.456 193 146 140
0.1599 -0.1157 -0.455 192 145 137
0.171 -0.114429 -0.45 196 146 139
0.173186 -0.114174 -0.449 192 142 135
0.17792 -0.11392 -0.448 182 132 125
0.18048 -0.11392 -0.448 180 127 119
0.185159 -0.114174 -0.449 173 120 112
0.192429 -0.114429 -0.45 159 111 101
0.194143 -0.114429 -0.45 157 109 99
0.253057 -0.129686 -0.51 74 29 36
0.258571 -0.127143 -0.5 182 127 130
0.265414 -0.125871 -0.495 182 122 122
0.274357 -0.127397 -0.501 153 103 94
0.300926 -0.133246 -0.524 62 43 49
0.30334 -0.132991 -0.523 70 52 52
0.316457 -0.132229 -0.52 115 96 98
0.320419 -0.132229 -0.52 120 95 98
0.347072 -0.130703 -0.514 135 100 104
0.378643 -0.130449 -0.513 126 95 100
0.37962 -0.130449 -0.513 126 95 100
0.407609 -0.136551 -0.537 34 19 22
0.420299 -0.133754 -0.526 173 126 120
0.426524 -0.134771 -0.53 156 111 108
0.445862 -0.138586 -0.545 184 130 130
0.15004 -0.11836 -0.462 195 148 142
0.200588 -0.115542 -0.451 147 100 90
0.202754 -0.115798 -0.452 147 100 92
0.233775 -0.125021 -0.488 96 54 56
0.27641 -0.128864 -0.503 141 94 88
0.300926 -0.134244 -0.524 62 46 49
0.32178 -0.132963 -0.519 132 103 108
0.323133 -0.132707 -0.518 132 100 103
0.348351 -0.131426 -0.513 135 100 104
0.350306 -0.131426 -0.513 137 102 106
0.364513 -0.130913 -0.511 85 59 62
0.374979 -0.13117 -0.512 127 93 94
0.37962 -0.131426 -0.513 122 91 96
0.383806 -0.132194 -0.516 68 43 46
0.411404 -0.138855 -0.542 33 21 25
0.421301 -0.134756 -0.526 170 121 117
0.438086 -0.13783 -0.538 188 140 136
0.147531 -0.120789 -0.468 193 143 142
0.165857 -0.116143 -0.45 186 137 132
0.169286 -0.116143 -0.45 193 144 137
0.227164 -0.12337 -0.478 125 81 80
0.255971 -0.131629 -0.51 95 49 52
0.25787 -0.131112 -0.508 143 94 98
0.25702 -0.128273 -0.497 186 136 137
0.259232 -0.127499 -0.494 189 130 132
0.27641 -0.129822 -0.503 133 88 83
0.28054 -0.130854 -0.507 109 74 72
0.316457 -0.13421 -0.52 180 177 186
0.342177 -0.132661 -0.514 134 102 107
0.346093 -0.132661 -0.514 132 100 105
0.359375 -0.132145 -0.512 133 98 104
0.362567 -0.131887 -0.511 119 90 94
0.364513 -0.131887 -0.511 112 81 86
0.370353 -0.131887 -0.511 86 56 58
0.376689 -0.132403 -0.513 132 97 101
0.147267 -0.1222 -0.47 193 143 144
0.152019 -0.1196 -0.46 195 146 141
0.15625 -0.11882 -0.457 189 140 135
0.165367 -0.11726 -0.451 187 138 133
0.183893 -0.11648 -0.448 173 123 116
0.186453 -0.11648 -0.448 168 115 107
0.191146 -0.11674 -0.449 161 111 102
0.197571 -0.117 -0.45 152 104 94
0.200588 -0.11726 -0.451 148 100 90
0.25641 -0.12844 -0.494 186 136 137
0.259647 -0.12818 -0.493 185 126 128
0.26784 -0.12896 -0.496 164 110 108
0.290012 -0.13442 -0.517 49 33 34
0.308134 -0.13546 -0.521 75 89 90
0.316837 -0.13494 -0.519 179 181 193
0.342177 -0.13364 -0.514 133 101 106
0.359647 -0.13286 -0.511 130 95 101
0.409649 -0.13858 -0.533 83 53 55
0.421301 -0.13676 -0.526 175 125 118
0.448363 -0.14118 -0.543 177 125 127
0.147216 -0.12231 -0.467 194 146 142
0.151143 -0.120476 -0.46 198 150 146
0.156777 -0.119429 -0.456 192 141 138
0.161429 -0.118381 -0.452 193 144 137
0.178773 -0.117333 -0.448 177 124 118
0.218798 -0.122048 -0.466 132 88 85
0.255371 -0.128857 -0.492 189 136 142
0.256309 -0.128857 -0.492 185 132 138
0.258183 -0.128857 -0.492 182 127 130
0.260057 -0.128857 -0.492 180 125 128
0.293676 -0.13619 -0.52 48 32 35
0.311505 -0.13619 -0.52 148 163 170
0.313486 -0.13619 -0.52 81 94 100
0.318814 -0.135929 -0.519 166 169 176
0.335976 -0.134881 -0.515 142 103 108
0.338919 -0.134881 -0.515 133 93 94
0.34542 -0.134357 -0.513 129 98 103
0.351573 -0.134095 -0.512 127 98 102
0.3584 -0.134095 -0.512 133 98 104
0.368657 -0.133571 -0.51 100 71 73
0.38184 -0.135143 -0.516 66 46 48
0.415266 -0.142214 -0.543 56 35 42
0.431984 -0.139595 -0.533 148 105 98
0.147028 -0.128475 -0.487 197 147 146
0.147216 -0.123199 -0.467 195 146 142
0.147471 -0.122671 -0.465 195 146 142
0.148038 -0.122408 -0.464 195 147 143
0.148837 -0.121616 -0.461 196 147 143
0.16279 -0.118978 -0.451 189 140 133
0.174896 -0.11845 -0.449 194 141 133
0.18816 -0.118187 -0.448 168 115 107
0.195422 -0.11845 -0.449 151 102 97
0.196714 -0.118714 -0.45 152 101 97
0.199286 -0.118714 -0.45 149 100 95
0.214694 -0.121616 -0.461 132 84 82
0.218798 -0.122935 -0.466 132 87 84
0.22294 -0.124254 -0.471 125 80 77
0.228551 -0.126365 -0.479 124 78 78
0.252065 -0.134015 -0.508 68 26 30
0.255431 -0.133751 -0.507 129 82 88
0.254691 -0.131377 -0.498 173 124 128
0.264342 -0.130058 -0.493 164 113 110
0.270273 -0.131113 -0.497 146 93 89
0.28735 -0.135598 -0.514 54 38 38
0.313486 -0.137181 -0.52 53 66 74
0.325107 -0.136653 -0.518 131 98 105
0.327783 -0.136126 -0.516 132 99 106
0.340219 -0.135598 -0.514 126 96 98
0.342489 -0.135334 -0.513 132 107 110
0.343466 -0.135334 -0.513 130 104 107
0.349623 -0.13507 -0.512 136 116 118
0.354499 -0.13507 -0.512 131 96 102
0.356727 -0.134807 -0.511 137 102 108
0.367686 -0.134543 -0.51 105 76 78
0.369629 -0.134543 -0.51 127 95 100
0.409052 -0.139028 -0.527 165 114 111
0.409932 -0.137972 -0.523 196 145 142
0.433811 -0.140874 -0.534 153 108 105
0.435643 -0.141138 -0.535 166 121 118
0.164508 -0.119837 -0.451 188 138 131
0.166714 -0.119571 -0.45 191 141 134
0.176213 -0.11904 -0.448 190 137 129
0.18178 -0.118774 -0.447 175 120 115
0.193711 -0.119306 -0.449 153 102 98
0.214694 -0.122494 -0.461 132 82 81
0.218329 -0.123557 -0.465 131 83 79
0.243309 -0.132326 -0.498 60 21 26
0.254333 -0.1302 -0.49 185 130 133
0.311111 -0.138437 -0.521 132 145 153
0.316837 -0.137906 -0.519 63 77 86
0.319187 -0.13764 -0.518 130 139 148
0.328766 -0.137109 -0.516 133 104 109
0.33009 -0.136843 -0.515 174 157 167
0.353524 -0.136046 -0.512 131 102 107
0.368657 -0.135514 -0.51 127 98 100
0.409932 -0.138969 -0.523 195 144 141
0.438499 -0.142423 -0.536 176 126 125
0.145786 -0.126049 -0.471 197 148 144
0.15609 -0.121499 -0.454 194 145 138
0.158334 -0.121231 -0.453 193 144 137
0.167199 -0.120161 -0.449 193 143 136
0.199286 -0.120429 -0.45 144 94 93
0.201447 -0.120696 -0.451 140 92 92
0.207567 -0.121767 -0.455 138 89 85
0.247668 -0.134612 -0.503 64 25 28
0.253869 -0.134345 -0.502 163 113 116
0.255677 -0.130866 -0.489 179 125 125
0.275861 -0.134345 -0.502 108 73 69
0.278471 -0.135148 -0.505 103 68 64
0.327783 -0.138091 -0.516 129 100 105
0.335324 -0.137556 -0.514 131 102 106
0.360178 -0.136218 -0.509 128 98 100
0.3723 -0.136753 -0.511 124 93 98
0.410929 -0.139965 -0.523 192 141 138
0.422303 -0.140768 -0.526 165 116 111
0.145786 -0.126946 -0.471 198 149 144
0.146901 -0.125598 -0.466 195 146 139
0.160568 -0.121825 -0.452 198 149 142
0.16279 -0.121555 -0.451 191 142 135
0.212889 -0.123711 -0.459 131 83 81
0.231819 -0.12991 -0.482 107 71 73
0.235151 -0.131258 -0.487 96 60 62
0.251623 -0.132606 -0.492 177 125 129
0.254225 -0.131528 -0.488 177 122 125
0.281093 -0.136918 -0.508 81 60 57
0.294241 -0.140422 -0.521 55 40 45
0.298359 -0.140961 -0.523 62 47 52
0.313871 -0.139883 -0.519 140 155 158
0.3268 -0.139074 -0.516 131 104 109
0.327783 -0.139074 -0.516 146 119 124
0.341821 -0.137996 -0.512 168 145 151
0.342796 -0.137996 -0.512 233 218 223
0.348648 -0.137996 -0.512 113 107 111
0.365995 -0.137188 -0.509 121 90 95
0.369629 -0.137457 -0.51 123 94 98
0.376444 -0.138535 -0.514 89 63 66
0.42411 -0.142039 -0.527 160 113 107
0.430363 -0.143117 -0.531 149 102 96
0.434014 -0.143656 -0.533 147 102 96
0.15223 -0.124314 -0.458 193 146 136
0.16193 -0.122414 -0.451 193 145 135
0.167571 -0.122143 -0.45 190 142 132
0.179226 -0.121329 -0.447 170 120 111
0.186453 -0.1216 -0.448 165 112 104
0.189013 -0.1216 -0.448 157 107 98
0.196277 -0.121871 -0.449 146 97 92
0.21739 -0.125671 -0.463 126 80 80
0.226166 -0.128657 -0.474 122 78 77
0.231338 -0.130557 -0.481 115 74 78
0.294806 -0.141686 -0.522 53 40 47
0.300771 -0.141686 -0.522 59 48 52
0.303172 -0.141414 -0.521 57 62 65
0.312883 -0.140871 -0.519 143 152 159
0.321886 -0.140057 -0.516 116 105 111
0.330429 -0.139514 -0.514 194 177 185
0.335324 -0.139514 -0.514 131 104 109
0.33858 -0.139243 -0.513 129 102 109
0.33987 -0.138971 -0.512 126 101 107
0.371327 -0.1387 -0.511 125 96 100
0.410134 -0.144129 -0.531 126 86 87
0.445454 -0.145757 -0.537 172 114 113
0.161071 -0.123273 -0.451 195 147 135
0.17062 -0.122727 -0.449 193 143 134
0.17792 -0.122453 -0.448 177 127 116
0.186037 -0.12218 -0.447 166 113 105
0.194567 -0.122727 -0.449 150 101 96
0.197132 -0.122727 -0.449 144 96 92
0.204066 -0.12382 -0.453 136 91 86
0.20976 -0.12464 -0.456 129 84 81
0.21739 -0.126553 -0.463 124 80 79
0.221047 -0.127647 -0.467 122 78 77
0.246154 -0.13612 -0.498 115 69 71
0.252776 -0.133113 -0.487 175 123 127
0.253704 -0.133113 -0.487 174 122 126
0.288469 -0.14104 -0.516 49 35 34
0.30615 -0.142407 -0.521 131 134 141
0.333366 -0.140493 -0.514 130 105 109
0.336303 -0.140493 -0.514 124 97 104
0.339557 -0.14022 -0.513 127 106 111
0.340846 -0.139947 -0.512 186 171 178
0.353807 -0.139673 -0.511 130 101 105
0.356029 -0.1394 -0.51 128 98 100
0.361406 -0.138853 -0.508 128 96 99
0.411342 -0.142407 -0.521 196 142 142
0.145769 -0.134591 -0.489 197 152 146
0.145214 -0.130738 -0.475 197 152 146
0.151028 -0.125784 -0.457 188 141 131
0.151898 -0.125784 -0.457 189 142 132
0.153303 -0.125509 -0.456 192 145 137
0.165 -0.123857 -0.45 190 142 130
0.167199 -0.123582 -0.449 190 140 131
0.182631 -0.123031 -0.447 169 117 106
0.214229 -0.12661 -0.46 126 82 79
0.225211 -0.129912 -0.472 121 80 78
0.344747 -0.140922 -0.512 237 231 245
0.355057 -0.140371 -0.51 129 100 105
0.413524 -0.143124 -0.52 192 138 136
0.145769 -0.135523 -0.489 200 153 147
0.147081 -0.127763 -0.461 188 145 136
0.148191 -0.127209 -0.459 193 146 138
0.151028 -0.126654 -0.457 193 146 138
0.168054 -0.124437 -0.449 192 142 133
0.169765 -0.124437 -0.449 193 143 132
0.186037 -0.123883 -0.447 161 111 102
0.220573 -0.129149 -0.466 124 80 77
0.238862 -0.134969 -0.487 144 98 98
0.245355 -0.134969 -0.487 173 121 123
0.245777 -0.134691 -0.486 177 122 125
0.258872 -0.135246 -0.488 166 112 112
0.26676 -0.136909 -0.494 143 98 93
0.279574 -0.140511 -0.507 93 64 60
0.284282 -0.141897 -0.512 67 42 45
0.286929 -0.142729 -0.515 52 36 39
0.308134 -0.144391 -0.521 133 140 148
0.312883 -0.143837 -0.519 211 214 223
0.322869 -0.143006 -0.516 123 102 109
0.330429 -0.142451 -0.514 132 101 109
0.332387 -0.142451 -0.514 127 102 108
0.339557 -0.142174 -0.513 116 94 106
0.362373 -0.140789 -0.508 127 97 97
0.375214 -0.142729 -0.515 77 58 60
0.411543 -0.144114 -0.52 198 142 145
0.417296 -0.144391 -0.521 179 129 120
0.452057 -0.149657 -0.54 156 101 98
0.14547 -0.136175 -0.488 201 154 148
0.151566 -0.127246 -0.456 195 148 140
0.157635 -0.12585 -0.451 192 145 135
0.162429 -0.125571 -0.45 190 143 133
0.192856 -0.125292 -0.449 148 99 94
0.201893 -0.12613 -0.452 137 89 85
0.20976 -0.127246 -0.456 124 80 77
0.212425 -0.127804 -0.458 124 80 77
0.227971 -0.132269 -0.474 120 79 75
0.293249 -0.145384 -0.521 53 39 39
0.326512 -0.14343 -0.514 204 184 195
0.341821 -0.142872 -0.512 232 222 231
0.352143 -0.142314 -0.51 114 99 106
0.409357 -0.145384 -0.521 190 139 136
0.41035 -0.145384 -0.521 190 139 136
0.42089 -0.145942 -0.523 173 120 114
0.4235 -0.1465 -0.525 172 119 113
0.147869 -0.128676 -0.458 191 147 138
0.17582 -0.125586 -0.447 184 132 121
0.179226 -0.125586 -0.447 170 118 107
0.18647 -0.125305 -0.446 158 107 103
0.198429 -0.126429 -0.45 140 92 88
0.201893 -0.12699 -0.452 137 89 87
0.225152 -0.132048 -0.47 118 77 73
0.22701 -0.13261 -0.472 118 77 73
0.2415 -0.1357 -0.483 166 116 117
0.244165 -0.135138 -0.481 174 119 122
0.24886 -0.1357 -0.483 170 118 122
0.287486 -0.144971 -0.516 48 33 36
0.30276 -0.146657 -0.522 42 52 54
0.307142 -0.146376 -0.521 129 138 143
0.321886 -0.144971 -0.516 115 100 107
0.323224 -0.14469 -0.515 122 99 109
0.338895 -0.143848 -0.512 209 193 204
0.477757 -0.177281 -0.631 126 119 126
0.48333 -0.177562 -0.632 132 119 128
0.40794 -0.146938 -0.523 192 141 137
0.427121 -0.148062 -0.527 164 111 107
0.144857 -0.132377 -0.468 195 148 142
0.145126 -0.131811 -0.466 194 147 141
0.159857 -0.127286 -0.45 193 145 135
0.17582 -0.126437 -0.447 184 132 121
0.183072 -0.126154 -0.446 167 114 108
0.202754 -0.127851 -0.452 133 88 85
0.206246 -0.128417 -0.454 128 83 80
0.219627 -0.131246 -0.464 114 73 69
0.221461 -0.131811 -0.466 113 72 68
0.236763 -0.135489 -0.479 155 107 105
0.24 -0.135771 -0.48 162 112 113
0.24315 -0.135489 -0.479 174 119 124
0.252141 -0.136903 -0.484 168 113 118
0.25451 -0.137186 -0.485 165 111 111
0.262733 -0.1386 -0.49 149 100 93
0.272857 -0.141429 -0.5 107 74 69
0.30615 -0.147369 -0.521 83 93 95
0.307142 -0.147369 -0.521 117 126 131
0.315616 -0.146237 -0.517 226 218 233
0.356568 -0.143691 -0.508 124 94 94
0.365026 -0.143974 -0.509 122 96 99
0.483513 -0.18018 -0.637 101 90 96
0.154541 -0.128712 -0.452 192 143 136
0.156263 -0.128712 -0.452 190 142 132
0.159 -0.128143 -0.45 192 144 134
0.173266 -0.127289 -0.447 182 132 121
0.178825 -0.127004 -0.446 172 119 111
0.185621 -0.127004 -0.446 161 108 104
0.18732 -0.127004 -0.446 154 103 99
0.201893 -0.128712 -0.452 134 89 84
0.21109 -0.130136 -0.457 122 77 74
0.222826 -0.132984 -0.467 118 74 71
0.229292 -0.134692 -0.473 124 81 75
0.234448 -0.136116 -0.478 144 99 96
0.246913 -0.13697 -0.481 167 115 119
0.25451 -0.13811 -0.485 165 111 111
0.293811 -0.148646 -0.522 54 40 40
0.299777 -0.148646 -0.522 65 56 57
0.304165 -0.148361 -0.521 139 147 149
0.319555 -0.147222 -0.517 204 201 208
0.330429 -0.146368 -0.514 123 98 102
0.331408 -0.146368 -0.514 125 98 105
0.337603 -0.146083 -0.513 109 92 102
0.352143 -0.145229 -0.51 233 226 234
0.409357 -0.148361 -0.521 190 139 136
0.413717 -0.147791 -0.519 188 138 131
0.453086 -0.153771 -0.54 149 98 97
0.15368 -0.129573 -0.452 196 147 140
0.157635 -0.129287 -0.451 190 142 132
0.162429 -0.129 -0.45 190 141 134
0.17582 -0.12814 -0.447 180 130 121
0.195422 -0.128713 -0.449 139 91 87
0.203203 -0.12986 -0.453 132 87 82
0.220986 -0.1333 -0.465 117 73 70
0.24783 -0.137887 -0.481 164 112 114
0.25254 -0.13846 -0.483 166 111 114
0.296933 -0.150213 -0.524 64 48 49
0.310514 -0.149067 -0.52 137 146 155
0.314253 -0.148493 -0.518 149 151 163
0.319555 -0.148207 -0.517 219 214 220
0.330429 -0.147347 -0.514 120 98 101
0.341821 -0.146773 -0.512 233 227 237
0.342796 -0.146773 -0.512 229 226 237
0.344073 -0.146487 -0.511 229 226 237
0.34602 -0.146487 -0.511 228 225 236
0.354632 -0.145627 -0.508 121 101 103
0.361406 -0.145627 -0.508 127 97 99
0.476555 -0.180887 -0.631 97 84 91
0.409597 -0.151647 -0.529 149 110 111
0.43624 -0.152507 -0.532 154 100 100
0.453086 -0.1548 -0.54 147 97 96
0.1443 -0.138803 -0.481 198 149 145
0.1495 -0.1313 -0.455 187 140 134
0.156776 -0.130146 -0.451 190 141 134
0.159 -0.129857 -0.45 190 142 132
0.162923 -0.129569 -0.449 191 143 133
0.176671 -0.128991 -0.447 177 127 118
0.179674 -0.128703 -0.446 173 120 114
0.182223 -0.128703 -0.446 167 114 108
0.183922 -0.128703 -0.446 163 110 106
0.192427 -0.12928 -0.448 143 94 89
0.197571 -0.129857 -0.45 139 91 87
0.212425 -0.132166 -0.458 123 78 75
0.213297 -0.132166 -0.458 123 78 75
0.231995 -0.136494 -0.473 146 101 98
0.237093 -0.13736 -0.476 152 102 101
0.238 -0.13736 -0.476 155 105 104
0.250181 -0.139091 -0.482 159 108 107
0.251099 -0.139091 -0.482 162 108 108
0.305157 -0.150346 -0.521 147 156 161
0.307543 -0.150057 -0.52 50 64 67
0.308533 -0.150057 -0.52 51 65 68
0.314253 -0.14948 -0.518 178 180 192
0.327491 -0.148326 -0.514 125 99 112
0.346993 -0.14746 -0.511 226 222 236
0.3502 -0.147171 -0.51 228 225 236
0.418289 -0.150346 -0.521 181 130 126
0.421887 -0.150923 -0.523 172 121 117
0.439914 -0.154097 -0.534 159 103 104
0.146443 -0.133329 -0.459 194 147 139
0.151233 -0.132167 -0.455 187 140 132
0.16512 -0.130133 -0.448 197 147 138
0.16768 -0.130133 -0.448 194 144 135
0.178825 -0.129552 -0.446 174 121 115
0.186889 -0.129843 -0.447 154 105 100
0.201032 -0.131295 -0.452 138 90 88
0.245887 -0.139138 -0.479 162 112 113
0.248229 -0.139429 -0.48 158 107 106
0.25346 -0.1403 -0.483 156 102 100
0.255829 -0.14059 -0.484 155 101 99
0.279158 -0.147562 -0.508 63 43 42
0.28178 -0.148433 -0.511 56 36 35
0.286503 -0.149886 -0.516 47 32 35
0.32847 -0.149305 -0.514 123 97 110
0.332717 -0.149014 -0.513 124 98 109
0.334671 -0.149014 -0.513 120 96 109
0.345047 -0.148433 -0.511 229 223 235
0.347967 -0.148433 -0.511 230 224 238
0.36646 -0.148433 -0.511 124 95 99
0.431765 -0.153662 -0.529 164 108 107
0.457861 -0.157438 -0.542 137 89 85
0.144503 -0.135665 -0.464 192 144 140
0.145325 -0.134788 -0.461 191 144 138
0.146996 -0.13391 -0.458 194 147 139
0.148091 -0.133326 -0.456 191 144 138
0.14896 -0.133326 -0.456 189 142 136
0.176671 -0.130694 -0.447 177 124 116
0.196714 -0.131571 -0.45 139 91 89
0.200588 -0.131864 -0.451 138 90 90
0.22914 -0.137127 -0.469 136 92 89
0.232809 -0.137711 -0.471 146 96 95
0.292817 -0.152623 -0.522 54 39 42
0.309917 -0.151746 -0.519 135 148 154
0.31228 -0.151453 -0.518 97 106 113
0.316601 -0.151161 -0.517 183 185 198
0.480161 -0.184492 -0.631 73 56 62
0.408823 -0.154377 -0.528 163 117 119
0.4475 -0.157009 -0.537 160 109 106
0.457861 -0.15847 -0.542 129 84 79
0.155917 -0.132723 -0.451 187 138 131
0.156429 -0.132429 -0.45 188 139 132
0.16512 -0.13184 -0.448 194 146 136
0.168157 -0.131546 -0.447 194 144 135
0.192427 -0.13184 -0.448 144 93 92
0.198429 -0.132429 -0.45 133 88 85
0.207567 -0.1339 -0.455 126 81 78
0.2553 -0.14214 -0.483 158 103 100
0.271905 -0.147143 -0.5 88 53 51
0.274494 -0.148026 -0.503 68 53 56
0.304571 -0.153029 -0.52 131 130 136
0.320903 -0.151851 -0.516 172 155 165
0.324205 -0.151557 -0.515 216 199 207
0.326512 -0.151263 -0.514 120 97 105
0.348257 -0.150086 -0.51 234 228 242
0.36959 -0.151263 -0.514 83 61 64
0.463206 -0.181869 -0.618 68 52 62
0.4758 -0.1854 -0.63 60 47 56
0.416566 -0.159503 -0.542 120 80 80
0.407722 -0.154206 -0.524 198 139 141
0.453273 -0.15862 -0.539 155 99 100
-0.143 -0.192524 -0.65 191 190 185
0.1434 -0.141579 -0.478 196 148 144
0.147546 -0.135359 -0.457 190 146 137
0.148091 -0.135063 -0.456 188 144 135
0.15368 -0.133878 -0.452 188 141 133
0.157286 -0.133286 -0.45 190 141 134
0.164267 -0.132693 -0.448 192 144 134
0.171563 -0.132397 -0.447 179 131 119
0.177126 -0.132101 -0.446 174 121 113
0.182223 -0.132101 -0.446 159 108 104
0.183922 -0.132101 -0.446 152 103 98
0.185621 -0.132101 -0.446 151 100 97
0.18732 -0.132101 -0.446 146 97 92
0.18817 -0.132101 -0.446 145 98 92
0.199729 -0.133582 -0.451 128 87 81
0.215981 -0.136248 -0.46 113 69 66
0.220035 -0.137136 -0.463 114 70 67
0.221394 -0.137432 -0.464 115 71 68
0.224124 -0.138025 -0.466 119 76 70
0.228651 -0.138617 -0.468 129 86 80
0.265281 -0.146022 -0.493 118 80 77
0.280257 -0.151057 -0.51 48 32 35
0.291264 -0.154315 -0.521 56 40 43
0.298359 -0.154908 -0.523 71 52 56
0.304165 -0.154315 -0.521 84 74 82
0.304571 -0.154019 -0.52 146 145 151
0.316601 -0.15313 -0.517 130 123 131
0.321262 -0.152538 -0.515 195 175 186
0.322243 -0.152538 -0.515 223 207 217
0.325186 -0.152538 -0.515 129 109 118
0.325533 -0.152242 -0.514 123 100 108
0.330763 -0.151946 -0.513 124 95 100
0.344371 -0.151057 -0.51 236 226 237
0.346314 -0.151057 -0.51 232 224 237
0.348257 -0.151057 -0.51 230 227 238
0.463955 -0.183342 -0.619 66 50 60
0.414514 -0.154019 -0.52 184 125 117
0.143074 -0.139509 -0.468 195 148 142
0.14335 -0.138912 -0.466 193 146 138
0.146675 -0.13623 -0.457 191 147 138
0.152294 -0.135037 -0.453 191 144 136
0.156429 -0.134143 -0.45 190 143 133
0.171179 -0.13295 -0.446 183 133 122
0.182223 -0.13295 -0.446 156 107 100
0.195422 -0.133845 -0.449 130 87 80
0.204516 -0.135335 -0.454 124 83 77
0.213297 -0.136528 -0.458 116 72 69
0.23321 -0.140105 -0.47 145 97 93
0.243833 -0.141595 -0.475 162 112 111
0.303172 -0.155308 -0.521 86 73 80
0.308929 -0.154711 -0.519 136 137 141
0.30932 -0.154413 -0.518 118 117 123
0.318937 -0.153817 -0.516 109 88 97
0.321262 -0.153519 -0.515 145 125 136
0.326512 -0.153221 -0.514 117 94 102
0.378777 -0.156202 -0.524 44 32 34
0.472779 -0.186608 -0.626 58 42 52
0.475923 -0.186906 -0.627 67 56 64
0.416495 -0.15501 -0.52 167 114 110
0.437253 -0.158587 -0.532 140 90 89
0.450383 -0.160375 -0.538 155 99 98
0.147546 -0.1371 -0.457 190 143 135
0.154199 -0.1353 -0.451 189 142 132
0.155058 -0.1353 -0.451 192 144 134
0.156776 -0.1353 -0.451 192 144 134
0.159 -0.135 -0.45 194 146 136
0.16256 -0.1344 -0.448 192 144 134
0.167306 -0.1341 -0.447 192 142 133
0.174577 -0.1338 -0.446 180 125 118
0.188591 -0.1341 -0.447 141 96 90
0.20234 -0.1359 -0.453 125 84 80
0.207567 -0.1365 -0.455 119 78 74
0.20976 -0.1368 -0.456 117 76 72
0.216857 -0.138 -0.46 115 71 72
0.242417 -0.1422 -0.474 167 112 109
0.246677 -0.1431 -0.477 163 110 106
0.257281 -0.1455 -0.485 146 97 93
0.293811 -0.1566 -0.522 64 45 49
0.312662 -0.1551 -0.517 118 103 110
0.340486 -0.153 -0.51 124 97 106
0.364513 -0.1533 -0.511 110 88 91
0.374174 -0.1557 -0.519 41 29 31
0.406724 -0.1572 -0.524 196 143 139
0.410751 -0.1557 -0.519 185 129 128
0.415505 -0.156 -0.52 163 110 96
0.43909 -0.1599 -0.533 150 99 98
-0.141326 -0.195634 -0.648 193 193 185
0.143611 -0.14733 -0.488 201 152 148
0.142499 -0.142499 -0.472 196 147 142
0.14331 -0.139782 -0.463 190 143 135
0.151431 -0.136763 -0.453 190 143 135
0.164267 -0.135253 -0.448 191 143 133
0.17033 -0.13465 -0.446 183 133 124
0.172878 -0.13465 -0.446 187 133 123
