ply
format ascii 1.0
comment Created by Open3D
element vertex 1277
property double x
property double y
property double z
property uchar red
property uchar green
property uchar blue
end_header
-0.0201857 -0.314449 -0.471 190 153 124
-0.0135219 -0.30577 -0.458 194 155 124
-0.010881 -0.305102 -0.457 196 157 126
0.00836 -0.30844 -0.462 196 155 125
0.0146143 -0.310443 -0.465 188 146 121
0.0190838 -0.31111 -0.466 186 141 118
0.0236229 -0.312446 -0.468 178 136 111
0.0245143 -0.312446 -0.468 180 135 112
0.0557476 -0.339818 -0.509 127 99 95
0.05694 -0.341153 -0.511 128 100 96
0.0663733 -0.349832 -0.524 127 101 100
0.39025 -0.395898 -0.593 50 87 142
0.401546 -0.395898 -0.593 185 188 203
0.404934 -0.395898 -0.593 181 187 199
0.417359 -0.395898 -0.593 119 150 197
0.421877 -0.395898 -0.593 130 161 208
0.432043 -0.395898 -0.593 180 184 195
0.433172 -0.395898 -0.593 181 185 196
0.484001 -0.395898 -0.593 110 133 175
0.454671 -0.343824 -0.515 164 120 109
0.452509 -0.337815 -0.506 172 126 110
0.465295 -0.331139 -0.496 166 118 98
0.466243 -0.330471 -0.495 160 114 91
0.479487 -0.331807 -0.497 161 116 95
0.485238 -0.33381 -0.5 160 115 96
0.487163 -0.334477 -0.501 160 115 96
1.01529 -0.38121 -0.571 204 206 192
-0.0117514 -0.305972 -0.457 196 157 126
-0.00826952 -0.305972 -0.457 197 158 125
-0.00391714 -0.305972 -0.457 195 156 123
0.01012 -0.30932 -0.462 197 153 126
0.0235724 -0.312668 -0.467 179 135 110
0.0675 -0.3515 -0.525 127 101 100
0.0950676 -0.386315 -0.577 148 159 191
0.10728 -0.399036 -0.596 112 121 154
0.112009 -0.399706 -0.597 180 183 198
0.143367 -0.398367 -0.595 136 149 184
0.397028 -0.397028 -0.593 80 102 139
0.411711 -0.397028 -0.593 155 168 176
0.41397 -0.397028 -0.593 89 112 156
0.41623 -0.397028 -0.593 108 139 186
0.421877 -0.397028 -0.593 144 171 216
0.424136 -0.397028 -0.593 105 134 176
0.429784 -0.397028 -0.593 180 183 192
0.465929 -0.397028 -0.593 134 144 169
0.481423 -0.397697 -0.594 75 102 145
0.455789 -0.333423 -0.498 170 122 102
0.460553 -0.332753 -0.497 172 123 106
0.490048 -0.336101 -0.502 150 105 84
1.02763 -0.381629 -0.57 202 204 190
-0.0125943 -0.306171 -0.456 195 159 127
-0.00130571 -0.306843 -0.457 198 159 128
0.0083419 -0.309529 -0.461 197 153 126
0.0217467 -0.312886 -0.466 178 133 110
0.0235724 -0.313557 -0.467 177 131 107
0.0431343 -0.326986 -0.487 133 104 100
0.0711714 -0.355857 -0.53 126 100 99
0.105789 -0.398829 -0.594 101 117 153
0.132033 -0.3995 -0.595 86 116 180
0.1445 -0.3995 -0.595 185 195 230
0.399741 -0.397486 -0.592 155 178 196
0.40989 -0.397486 -0.592 182 185 204
0.4144 -0.397486 -0.592 83 110 153
0.415528 -0.397486 -0.592 106 133 176
0.46254 -0.398157 -0.593 163 165 186
0.487695 -0.397486 -0.592 71 93 143
0.48995 -0.397486 -0.592 79 102 144
0.453472 -0.339743 -0.506 169 126 107
0.453763 -0.336386 -0.501 174 127 107
1.01134 -0.382714 -0.57 204 207 190
-0.00564571 -0.30704 -0.456 198 159 126
0.00305333 -0.308387 -0.458 191 150 122
0.0217467 -0.313773 -0.466 177 132 109
0.0290952 -0.316467 -0.47 166 123 106
0.0367971 -0.32118 -0.477 149 112 103
0.0398543 -0.323873 -0.481 138 107 104
0.0420333 -0.326567 -0.485 136 105 102
0.0442429 -0.32926 -0.489 132 102 100
0.0592324 -0.346093 -0.514 125 100 96
0.07504 -0.360907 -0.536 126 100 101
0.0931543 -0.385147 -0.572 120 139 172
0.11484 -0.39996 -0.594 179 185 197
0.117103 -0.39996 -0.594 180 186 198
0.135206 -0.39996 -0.594 54 81 148
0.136337 -0.39996 -0.594 58 80 140
0.141994 -0.39996 -0.594 159 177 223
0.439208 -0.398613 -0.592 95 105 132
0.476094 -0.399287 -0.593 165 174 191
0.48093 -0.398613 -0.592 80 97 140
0.475967 -0.366967 -0.545 150 113 97
0.470003 -0.36158 -0.537 151 114 98
0.4545 -0.340033 -0.505 170 125 104
0.453658 -0.338687 -0.503 171 126 105
0.4719 -0.3333 -0.495 164 119 98
0.498771 -0.340707 -0.506 147 100 80
0.502698 -0.342727 -0.509 137 90 70
1.02474 -0.383127 -0.569 202 205 188
1.0345 -0.383127 -0.569 203 206 189
1.03666 -0.383127 -0.569 203 205 191
-0.0198 -0.31196 -0.462 196 157 128
-0.0117 -0.307233 -0.455 196 157 126
0.000435238 -0.308584 -0.457 194 153 123
0.0136695 -0.312635 -0.463 191 147 122
0.0698971 -0.356526 -0.528 125 101 99
0.0763448 -0.363278 -0.538 126 100 101
0.0949029 -0.388937 -0.576 125 143 181
0.131811 -0.401091 -0.594 53 80 149
0.15305 -0.400416 -0.593 193 198 218
0.156439 -0.400416 -0.593 109 137 184
0.391186 -0.399066 -0.591 144 159 182
0.392311 -0.399066 -0.591 115 127 149
0.395689 -0.399066 -0.591 101 115 141
0.396814 -0.399066 -0.591 101 115 141
0.417077 -0.399066 -0.591 116 148 195
0.456477 -0.399066 -0.591 164 173 190
0.46627 -0.399741 -0.592 69 80 112
0.493914 -0.39839 -0.59 151 161 186
0.45456 -0.34032 -0.504 170 125 104
0.455714 -0.337619 -0.5 163 116 98
0.45866 -0.335593 -0.497 174 127 107
0.462461 -0.334918 -0.496 166 119 99
0.480411 -0.334918 -0.496 157 112 93
0.00217619 -0.309454 -0.457 194 153 123
0.0092 -0.311486 -0.46 193 149 122
0.0109762 -0.312163 -0.461 194 150 123
0.0208143 -0.314871 -0.465 179 134 113
0.0226343 -0.315549 -0.466 177 130 112
0.0290952 -0.318257 -0.47 161 118 102
0.0399371 -0.326383 -0.482 142 109 100
0.0498 -0.337217 -0.498 129 100 96
0.0557476 -0.344666 -0.509 124 98 97
0.0675 -0.3555 -0.525 126 102 100
0.110314 -0.402223 -0.594 166 177 209
0.11484 -0.402223 -0.594 180 186 200
0.144014 -0.401546 -0.593 185 188 207
0.145144 -0.401546 -0.593 188 194 216
0.148532 -0.401546 -0.593 195 203 226
0.159558 -0.400869 -0.592 119 151 200
0.387809 -0.400191 -0.591 143 155 181
0.415248 -0.399514 -0.59 90 122 169
0.456477 -0.400191 -0.591 167 175 188
0.462106 -0.400191 -0.591 165 172 190
0.47788 -0.36972 -0.546 148 114 102
0.45752 -0.349406 -0.516 160 121 104
0.45456 -0.34128 -0.504 172 127 108
0.465295 -0.335863 -0.496 167 120 100
0.467185 -0.335863 -0.496 166 119 99
0.468129 -0.335186 -0.495 166 119 99
1.03376 -0.384617 -0.568 203 206 189
0.0092 -0.312362 -0.46 191 147 120
0.0145514 -0.314399 -0.463 184 140 115
0.0522162 -0.341561 -0.503 126 98 95
0.0686305 -0.357179 -0.526 125 101 99
0.09126 -0.38502 -0.567 105 128 169
0.109183 -0.403354 -0.594 138 151 186
0.113517 -0.402675 -0.593 179 182 199
0.134978 -0.402675 -0.593 48 82 145
0.136108 -0.402675 -0.593 59 95 155
0.137237 -0.402675 -0.593 90 126 186
0.157303 -0.401996 -0.592 112 140 190
0.406257 -0.400638 -0.59 182 193 213
0.453457 -0.400638 -0.59 168 176 187
0.485746 -0.401317 -0.591 78 102 162
0.491955 -0.399959 -0.589 129 151 188
0.496443 -0.399959 -0.589 83 96 128
0.497565 -0.399959 -0.589 130 137 166
0.475411 -0.368044 -0.542 144 110 100
0.454669 -0.340882 -0.502 172 127 108
0.45866 -0.337487 -0.497 175 128 110
0.46435 -0.336808 -0.496 167 120 102
0.476614 -0.336129 -0.495 160 113 95
0.477557 -0.336129 -0.495 160 113 95
0.48419 -0.336808 -0.496 161 115 99
0.500699 -0.343598 -0.506 148 107 87
0.501663 -0.343598 -0.506 149 106 87
1.0341 -0.38502 -0.567 203 205 191
-0.00906 -0.308471 -0.453 199 160 127
0.00304667 -0.311195 -0.457 199 158 128
0.0235219 -0.317324 -0.466 175 127 113
0.0253514 -0.318005 -0.467 170 124 108
0.0319162 -0.32141 -0.472 152 112 100
0.0388571 -0.326857 -0.48 147 110 101
0.0398543 -0.327538 -0.481 143 109 100
0.0420333 -0.330262 -0.485 136 105 100
0.0441524 -0.332305 -0.488 131 103 100
0.0486552 -0.337752 -0.496 127 99 98
0.0544552 -0.344562 -0.506 123 98 94
0.0759191 -0.36431 -0.535 125 98 103
0.0829829 -0.373162 -0.548 119 101 101
0.110314 -0.404486 -0.594 164 178 217
0.139261 -0.403124 -0.592 104 133 191
0.154786 -0.402443 -0.591 101 129 169
0.159289 -0.402443 -0.591 82 113 167
0.410056 -0.401081 -0.589 161 176 195
0.425763 -0.401081 -0.589 158 167 184
0.4602 -0.401762 -0.59 166 172 184
0.463571 -0.401762 -0.59 170 179 188
0.470314 -0.401762 -0.59 94 109 142
0.487171 -0.401762 -0.59 38 69 115
0.496714 -0.388143 -0.57 137 116 111
0.46018 -0.353414 -0.519 154 116 107
0.455625 -0.341838 -0.502 173 128 109
0.468129 -0.337071 -0.495 166 121 100
0.470014 -0.337071 -0.495 168 123 102
0.472829 -0.33639 -0.494 168 121 103
0.479415 -0.33639 -0.494 164 118 102
0.49968 -0.3432 -0.504 150 107 88
0.00217143 -0.311383 -0.456 194 155 122
0.018079 -0.316163 -0.463 182 137 118
0.026241 -0.318894 -0.467 167 123 110
0.0430457 -0.331869 -0.486 133 102 97
0.0463886 -0.335966 -0.492 128 102 101
0.0709029 -0.360549 -0.528 126 102 100
0.124602 -0.404251 -0.592 60 85 142
0.128894 -0.403569 -0.591 46 80 144
0.382009 -0.402203 -0.589 179 188 205
0.439226 -0.402203 -0.589 171 178 194
0.450445 -0.402203 -0.589 171 179 190
0.462786 -0.402203 -0.589 165 172 180
0.484924 -0.402886 -0.59 61 91 153
0.49448 -0.40152 -0.588 112 126 165
0.45698 -0.34894 -0.511 162 121 103
0.476592 -0.337331 -0.494 166 120 104
0.487025 -0.338697 -0.496 156 113 96
0.49381 -0.341429 -0.5 150 109 91
1.02654 -0.38718 -0.567 203 206 187
1.03443 -0.386497 -0.566 204 207 190
-0.00560857 -0.310197 -0.453 195 156 125
-0.00389143 -0.310882 -0.454 198 159 128
-0.00129714 -0.310882 -0.454 196 157 126
0.026241 -0.319784 -0.467 165 123 109
0.0580267 -0.350598 -0.512 122 97 93
0.065001 -0.356761 -0.521 123 99 97
0.10787 -0.406064 -0.593 80 106 157
0.108999 -0.406064 -0.593 112 132 182
0.126643 -0.404694 -0.591 42 70 133
0.128894 -0.404694 -0.591 53 83 147
0.42392 -0.40264 -0.588 142 162 199
0.433616 -0.403325 -0.589 99 120 149
0.447079 -0.403325 -0.589 176 177 182
0.448201 -0.403325 -0.589 174 175 180
0.476249 -0.403325 -0.589 94 116 163
0.458684 -0.351968 -0.514 149 116 99
0.45713 -0.348544 -0.509 162 124 105
0.469071 -0.338957 -0.495 168 121 101
0.479384 -0.337588 -0.493 162 116 100
0.511512 -0.350598 -0.512 148 106 90
1.03012 -0.387575 -0.566 204 207 190
-0.02128 -0.31312 -0.456 196 156 130
-0.0167886 -0.310373 -0.452 198 161 134
-0.0150333 -0.309687 -0.451 195 158 131
0.0056581 -0.313807 -0.457 191 152 121
0.01716 -0.31724 -0.462 181 136 115
0.0207695 -0.318613 -0.464 174 127 109
0.0299905 -0.322733 -0.47 160 117 108
0.0308857 -0.322733 -0.47 159 116 107
0.0387762 -0.328913 -0.479 144 107 98
0.0441524 -0.335093 -0.488 128 100 97
0.0498 -0.34196 -0.498 123 97 96
0.0707686 -0.361873 -0.527 121 100 97
0.0772257 -0.36874 -0.537 120 100 99
0.103952 -0.405133 -0.59 67 94 149
0.107688 -0.406507 -0.592 71 96 152
0.131146 -0.40582 -0.591 51 81 145
0.46536 -0.40376 -0.588 166 174 185
0.463406 -0.340587 -0.496 173 126 106
0.46435 -0.340587 -0.496 175 128 108
1.0326 -0.387967 -0.565 203 206 187
-0.0185105 -0.311234 -0.452 196 159 130
-0.0133152 -0.310546 -0.451 196 157 128
0.00652857 -0.314677 -0.457 192 151 121
0.0144886 -0.317431 -0.461 185 140 117
0.0337857 -0.325694 -0.473 150 110 100
0.0613095 -0.354614 -0.515 122 98 94
0.0719086 -0.363566 -0.528 121 100 99
0.0731905 -0.364943 -0.53 120 99 98
0.0800095 -0.373206 -0.542 122 98 98
0.0844867 -0.379403 -0.551 118 100 100
0.0875286 -0.383534 -0.557 102 105 124
0.0909381 -0.389043 -0.565 65 93 143
0.107688 -0.407634 -0.592 86 107 160
0.116314 -0.406257 -0.59 118 131 148
0.117438 -0.406257 -0.59 123 142 175
0.160993 -0.405569 -0.589 86 123 178
0.4109 -0.404191 -0.587 146 166 201
0.424317 -0.404191 -0.587 124 137 182
0.427671 -0.404191 -0.587 109 121 159
0.44632 -0.40488 -0.588 171 178 186
0.45304 -0.40488 -0.588 166 172 184
0.45752 -0.40488 -0.588 144 144 154
0.455574 -0.346351 -0.503 173 128 109
0.457686 -0.342909 -0.498 171 125 110
0.45866 -0.34222 -0.497 171 124 106
0.462461 -0.341531 -0.496 174 127 107
0.506517 -0.349106 -0.507 145 107 88
0.510486 -0.351171 -0.51 147 108 91
-0.0231181 -0.316238 -0.458 191 155 129
-0.0184695 -0.311405 -0.451 195 158 129
-0.0107381 -0.311405 -0.451 200 161 130
0.04186 -0.3335 -0.483 132 103 97
0.0451743 -0.337643 -0.489 126 101 97
0.0588867 -0.352833 -0.511 122 98 96
0.0647514 -0.358357 -0.519 123 99 97
0.0719086 -0.364571 -0.528 121 99 101
0.0770819 -0.370095 -0.536 117 99 99
0.11519 -0.407381 -0.59 167 176 193
0.12081 -0.407381 -0.59 170 184 211
0.12397 -0.40669 -0.589 87 119 170
0.139677 -0.40669 -0.589 178 192 221
0.149774 -0.40669 -0.589 195 201 217
0.464569 -0.40531 -0.587 165 169 181
0.492521 -0.40531 -0.587 22 52 106
0.464357 -0.341786 -0.495 174 128 105
0.481223 -0.339714 -0.492 162 117 96
1.0326 -0.390119 -0.565 203 206 189
0.0162448 -0.319188 -0.461 179 134 113
0.0308857 -0.325419 -0.47 153 114 99
0.0377057 -0.330266 -0.477 144 107 98
0.0407705 -0.333035 -0.481 136 103 94
0.0451743 -0.338574 -0.489 125 100 96
0.0497 -0.344113 -0.497 121 97 95
0.0798619 -0.374578 -0.541 121 97 95
0.0875286 -0.385656 -0.557 100 102 123
0.107324 -0.408505 -0.59 139 159 210
0.110695 -0.408505 -0.59 180 185 205
0.119483 -0.407812 -0.589 173 181 204
0.13519 -0.407812 -0.589 54 85 149
0.14753 -0.407812 -0.589 193 199 221
0.4102 -0.405735 -0.586 107 134 181
0.412432 -0.405735 -0.586 44 79 137
0.416897 -0.405735 -0.586 41 79 142
0.41913 -0.405735 -0.586 31 63 124
0.42471 -0.405735 -0.586 52 81 149
0.432524 -0.405735 -0.586 178 180 192
0.474631 -0.406428 -0.587 32 64 123
0.476868 -0.406428 -0.587 44 80 138
0.456626 -0.346883 -0.501 171 124 104
0.464357 -0.342729 -0.495 176 130 107
0.474663 -0.340651 -0.492 170 124 101
0.4756 -0.340651 -0.492 168 122 99
0.483097 -0.340651 -0.492 163 118 97
0.58266 -0.39258 -0.567 195 190 187
-0.0141114 -0.311734 -0.449 195 156 127
-0.0132562 -0.311734 -0.449 196 157 126
-0.00983524 -0.311734 -0.449 199 160 127
-0.00301333 -0.313817 -0.452 195 156 125
0.0171229 -0.320066 -0.461 178 133 110
0.0298629 -0.324926 -0.468 154 115 100
0.0366429 -0.329786 -0.475 145 109 95
0.0407705 -0.333951 -0.481 135 105 97
0.107324 -0.409629 -0.59 147 168 221
0.108448 -0.409629 -0.59 173 184 204
0.13608 -0.40824 -0.588 91 121 183
0.14168 -0.40824 -0.588 189 194 216
0.45708 -0.406851 -0.586 134 138 147
0.464893 -0.406851 -0.586 172 174 186
0.468242 -0.406851 -0.586 164 166 187
0.481636 -0.406851 -0.586 25 60 114
0.488333 -0.406851 -0.586 62 92 142
0.49842 -0.39366 -0.567 135 112 104
0.457654 -0.346449 -0.499 170 125 104
0.46435 -0.344366 -0.496 174 126 104
0.467186 -0.343671 -0.495 176 128 106
0.474633 -0.340894 -0.491 168 122 99
0.477439 -0.340894 -0.491 168 122 99
0.498571 -0.347143 -0.5 152 107 84
-0.00812476 -0.31259 -0.449 196 157 126
-0.00557143 -0.313286 -0.45 196 157 128
0.0065 -0.316767 -0.455 188 149 118
0.0153333 -0.320248 -0.46 180 136 111
0.0198 -0.32164 -0.462 172 128 103
0.0289714 -0.325817 -0.468 157 115 103
0.0355876 -0.329298 -0.473 146 109 101
0.051801 -0.347399 -0.499 123 99 97
0.0719086 -0.367589 -0.528 119 99 98
0.110508 -0.410056 -0.589 180 186 200
0.11928 -0.40936 -0.588 155 172 200
0.149266 -0.408664 -0.587 203 207 219
0.429557 -0.407271 -0.585 130 153 195
0.455186 -0.407271 -0.585 160 162 174
0.462986 -0.407271 -0.585 169 168 176
0.462434 -0.359234 -0.516 153 116 108
0.457537 -0.349488 -0.502 172 125 105
0.462447 -0.346007 -0.497 176 128 106
0.46435 -0.34531 -0.496 175 127 105
0.466243 -0.344614 -0.495 173 125 103
0.468129 -0.344614 -0.495 170 122 100
0.580651 -0.392651 -0.564 197 186 182
-0.00641429 -0.313445 -0.449 193 154 123
0.0135219 -0.319728 -0.458 180 136 109
0.0153 -0.320426 -0.459 182 138 113
0.0197571 -0.321822 -0.461 175 131 106
0.0355124 -0.329501 -0.472 148 108 100
0.0622905 -0.359519 -0.515 124 100 98
0.138085 -0.409782 -0.587 95 119 165
0.451843 -0.408386 -0.585 157 166 183
0.461621 -0.358821 -0.514 152 115 109
0.48305 -0.342765 -0.491 161 113 91
0.483986 -0.342765 -0.491 166 121 100
-0.0236762 -0.3164 -0.452 196 157 124
-0.0227143 -0.315 -0.45 196 157 124
0.00388286 -0.3171 -0.453 192 151 121
0.018879 -0.3227 -0.461 175 130 107
0.0289095 -0.3269 -0.467 159 117 103
0.0494 -0.3458 -0.494 119 98 97
0.0505448 -0.3472 -0.496 118 97 96
0.0610714 -0.3591 -0.513 123 99 99
0.0622905 -0.3605 -0.515 124 100 100
0.0693676 -0.3668 -0.524 121 101 102
0.0926657 -0.3983 -0.569 106 124 164
0.1092 -0.4116 -0.588 177 184 200
0.138085 -0.4109 -0.587 77 102 142
0.417699 -0.4088 -0.584 43 79 141
0.482217 -0.4088 -0.584 48 88 140
0.492229 -0.4088 -0.584 114 120 142
0.470285 -0.3689 -0.527 151 113 104
0.465123 -0.3633 -0.519 154 116 107
0.462519 -0.3605 -0.515 155 117 108
0.4617 -0.3591 -0.513 155 117 106
0.463406 -0.3472 -0.496 176 128 108
0.46904 -0.3444 -0.492 172 124 102
0.478289 -0.3423 -0.489 169 121 98
-0.0226638 -0.315155 -0.449 197 158 127
-0.00214286 -0.315857 -0.45 191 152 121
-0.00128571 -0.315857 -0.45 192 153 122
0.0188381 -0.322876 -0.46 174 129 108
0.0243048 -0.325684 -0.464 165 122 105
0.0437905 -0.339722 -0.484 130 99 96
0.0828314 -0.383942 -0.547 115 99 102
0.117959 -0.412018 -0.587 114 118 143
0.126688 -0.411316 -0.586 94 120 171
0.490004 -0.409912 -0.584 131 135 170
0.491116 -0.409912 -0.584 108 110 133
0.459555 -0.35025 -0.499 174 126 106
0.4746 -0.343933 -0.49 159 111 89
0.484867 -0.343933 -0.49 163 118 97
0.490652 -0.346039 -0.493 153 108 87
0.505347 -0.352356 -0.502 150 109 89
-0.02176 -0.315307 -0.448 199 160 129
-0.0200086 -0.314603 -0.447 197 158 127
-0.000428571 -0.316714 -0.45 192 151 121
0.00128857 -0.317418 -0.451 193 152 122
0.0355124 -0.332198 -0.472 146 108 99
0.0437905 -0.340644 -0.484 130 99 96
0.0460114 -0.343459 -0.488 126 98 97
0.0481648 -0.34557 -0.491 122 98 98
0.0552 -0.35472 -0.504 120 96 92
0.470287 -0.410321 -0.583 159 167 190
0.471397 -0.410321 -0.583 159 167 190
0.483612 -0.410321 -0.583 68 97 141
0.475639 -0.37513 -0.533 149 112 103
0.461009 -0.358239 -0.509 160 118 106
0.460531 -0.350497 -0.498 170 123 105
0.4615 -0.349793 -0.497 174 125 110
0.4746 -0.344867 -0.49 168 120 98
0.480151 -0.344163 -0.489 168 120 100
0.482014 -0.344163 -0.489 171 125 102
0.483877 -0.344163 -0.489 167 121 98
0.4858 -0.344867 -0.49 162 116 93
0.506303 -0.353312 -0.502 146 108 87
0.565209 -0.386391 -0.549 150 119 99
-0.0131381 -0.314043 -0.445 198 158 123
-0.00976952 -0.314749 -0.446 194 154 119
0.0108571 -0.321806 -0.456 180 136 111
0.02244 -0.32604 -0.462 169 124 101
0.101957 -0.412843 -0.585 78 105 150
0.118671 -0.412843 -0.585 67 89 130
0.126471 -0.412843 -0.585 148 172 210
0.138729 -0.412843 -0.585 106 121 154
0.470589 -0.410726 -0.582 167 172 191
0.480281 -0.411431 -0.583 70 98 146
0.497194 -0.410726 -0.582 37 51 78
0.478316 -0.378263 -0.536 144 110 100
0.461914 -0.359914 -0.51 162 120 106
0.46032 -0.35568 -0.504 163 120 103
0.462461 -0.350034 -0.496 172 125 107
0.481958 -0.344389 -0.488 168 122 99
0.483877 -0.345094 -0.489 167 121 98
0.586023 -0.398023 -0.564 188 183 179
-0.0373257 -0.401928 -0.568 190 153 124
-0.026201 -0.319136 -0.451 196 157 126
0.00387429 -0.319844 -0.452 191 148 114
0.0152333 -0.323382 -0.457 176 132 107
0.016139 -0.32409 -0.458 170 126 101
0.0242524 -0.327628 -0.463 167 122 101
0.0306886 -0.330458 -0.467 156 114 98
0.0873714 -0.393436 -0.556 129 133 160
0.10548 -0.414665 -0.586 167 175 198
0.115329 -0.413957 -0.585 166 174 195
0.134271 -0.413957 -0.585 149 161 183
0.137614 -0.413957 -0.585 100 115 144
0.478349 -0.411834 -0.582 90 114 158
0.493869 -0.411834 -0.582 151 164 173
0.466242 -0.349564 -0.494 175 129 106
0.469957 -0.347441 -0.491 170 122 100
0.481958 -0.345318 -0.488 167 121 98
0.498362 -0.350979 -0.496 152 111 91
-0.0242657 -0.317157 -0.447 196 157 126
-0.0233619 -0.316448 -0.446 196 155 123
-0.0224619 -0.315738 -0.445 195 154 122
0.00559619 -0.320705 -0.452 182 139 105
0.0108095 -0.322124 -0.454 181 137 112
0.0170114 -0.324962 -0.458 170 125 102
0.0374686 -0.336314 -0.474 143 105 96
0.0416 -0.340571 -0.48 140 103 94
0.0504429 -0.351214 -0.495 122 96 95
0.0539171 -0.355471 -0.501 120 94 93
0.0797143 -0.383143 -0.54 118 97 96
0.101783 -0.414362 -0.584 102 125 166
0.117356 -0.414362 -0.584 102 107 145
0.494934 -0.395205 -0.557 140 110 102
0.466285 -0.366824 -0.517 153 115 102
0.463393 -0.352633 -0.497 170 125 104
0.467183 -0.350505 -0.494 172 126 102
0.47917 -0.346248 -0.488 166 118 96
0.480099 -0.346248 -0.488 166 118 96
-0.0215657 -0.315874 -0.444 196 155 123
-0.0189857 -0.315163 -0.443 201 161 126
-0.013079 -0.315163 -0.443 194 154 118
-0.00298 -0.318009 -0.447 194 154 119
-0.00213333 -0.31872 -0.448 193 153 118
0.00214286 -0.320143 -0.45 193 153 118
0.00559619 -0.321566 -0.452 183 142 112
0.0197143 -0.327257 -0.46 170 128 104
0.0395229 -0.339351 -0.477 138 105 98
0.0470371 -0.347889 -0.489 120 94 95
0.0875286 -0.396266 -0.557 128 138 165
0.112907 -0.415474 -0.584 159 166 182
0.478633 -0.41334 -0.581 109 132 174
0.462948 -0.362117 -0.509 162 119 102
0.462147 -0.359983 -0.506 166 121 102
0.470892 -0.349311 -0.491 172 124 104
0.4718 -0.3486 -0.49 168 120 100
0.479115 -0.346466 -0.487 169 121 99
0.481958 -0.347177 -0.488 169 121 99
0.51216 -0.35856 -0.504 151 105 81
-0.0250048 -0.317433 -0.445 196 158 122
-0.0181419 -0.316007 -0.443 198 158 122
-0.00128 -0.319573 -0.448 193 152 120
0.00817905 -0.322427 -0.452 177 136 108
0.0125667 -0.324567 -0.455 178 134 109
0.0152 -0.32528 -0.456 175 131 106
0.0196714 -0.32742 -0.459 169 127 105
0.0470371 -0.34882 -0.489 121 96 92
0.0549809 -0.358093 -0.502 117 95 97
0.0608333 -0.364513 -0.511 119 98 97
0.0642524 -0.367367 -0.515 120 98 100
0.0858467 -0.394473 -0.553 123 117 127
0.0909381 -0.403033 -0.565 139 156 186
0.102719 -0.415873 -0.583 144 155 185
0.121597 -0.415873 -0.583 177 183 209
0.474495 -0.413733 -0.58 87 108 153
0.462318 -0.358093 -0.502 167 125 103
0.462381 -0.356667 -0.5 170 123 105
0.469022 -0.350247 -0.491 174 126 106
0.470892 -0.350247 -0.491 174 126 106
0.474522 -0.348107 -0.488 168 120 100
0.481898 -0.347393 -0.487 166 118 96
0.587156 -0.400893 -0.562 198 190 188
-0.039281 -0.40411 -0.565 189 153 119
-0.017259 -0.316135 -0.442 199 159 123
-0.0122352 -0.31685 -0.443 193 153 117
-0.0105476 -0.31685 -0.443 195 155 120
0.0169743 -0.326864 -0.457 173 128 105
0.0416 -0.343314 -0.48 131 102 98
0.0678476 -0.371924 -0.52 120 100 101
0.0858467 -0.395527 -0.553 122 116 128
0.462351 -0.358334 -0.501 168 123 104
0.466237 -0.352612 -0.493 174 126 104
0.469957 -0.351182 -0.491 174 126 106
0.482826 -0.348321 -0.487 166 119 99
0.510066 -0.358334 -0.501 146 108 87
0.97479 -0.399818 -0.559 205 207 193
0.983308 -0.399818 -0.559 204 207 190
-0.0297686 -0.324866 -0.453 192 156 122
-0.00888 -0.318411 -0.444 191 153 116
-0.00720476 -0.319129 -0.445 196 156 121
0.000425714 -0.320563 -0.447 186 145 113
0.0021381 -0.321997 -0.449 188 144 117
0.00642857 -0.322714 -0.45 182 138 113
0.00816095 -0.323431 -0.451 177 133 108
0.0107857 -0.324866 -0.453 179 135 110
0.0143 -0.3263 -0.455 176 131 108
0.0287857 -0.333471 -0.465 152 113 96
0.0459171 -0.349249 -0.487 125 97 96
0.0810419 -0.388691 -0.542 117 97 99
0.108086 -0.417377 -0.582 164 169 191
0.115846 -0.417377 -0.582 177 183 205
0.473677 -0.415226 -0.579 75 100 141
0.480481 -0.383671 -0.535 148 114 105
0.46435 -0.355703 -0.496 168 123 102
0.4914 -0.3514 -0.49 161 116 95
0.51504 -0.36144 -0.504 146 108 87
0.901321 -0.400883 -0.559 207 209 195
-0.0307667 -0.327167 -0.455 192 156 122
-0.0248362 -0.317819 -0.442 196 158 122
-0.0231 -0.3171 -0.441 201 163 127
-0.00886 -0.318538 -0.443 192 154 117
-0.00635714 -0.319976 -0.445 194 156 119
0.012539 -0.326448 -0.454 177 133 108
0.0326067 -0.337233 -0.469 145 109 95
0.0426914 -0.346581 -0.482 129 99 97
0.0537019 -0.358805 -0.499 118 93 96
0.106977 -0.418486 -0.582 158 166 189
0.470369 -0.416329 -0.579 165 168 183
0.497949 -0.401229 -0.558 140 113 104
0.464308 -0.358805 -0.499 162 115 95
0.464326 -0.358086 -0.498 168 121 101
0.476332 -0.350176 -0.487 167 119 96
0.973424 -0.40051 -0.557 204 206 192
0.99324 -0.401229 -0.558 203 205 192
-0.02944 -0.322987 -0.448 192 156 124
-0.02658 -0.319382 -0.443 193 157 123
-0.0256781 -0.318661 -0.442 195 159 125
-0.0130495 -0.318661 -0.442 194 154 118
-0.00381429 -0.320824 -0.445 189 149 114
0.0125114 -0.326591 -0.453 175 130 107
0.0160686 -0.328754 -0.456 169 127 105
0.0196286 -0.330196 -0.458 167 124 105
0.03454 -0.339569 -0.471 141 107 97
0.0480667 -0.353267 -0.49 122 94 93
0.0754933 -0.383547 -0.532 111 97 94
0.466253 -0.41671 -0.578 164 171 179
0.475061 -0.41671 -0.578 85 113 152
0.4815 -0.38571 -0.535 153 115 104
0.466242 -0.35615 -0.494 173 126 106
0.478131 -0.350383 -0.486 173 125 105
0.479057 -0.350383 -0.486 173 125 105
0.499104 -0.35543 -0.493 148 106 82
0.968119 -0.40157 -0.557 204 206 192
-0.04 -0.4048 -0.56 191 155 123
-0.00296667 -0.321671 -0.445 188 147 115
0.0116486 -0.327454 -0.453 174 129 106
0.0160333 -0.3289 -0.455 168 126 104
0.0169371 -0.329623 -0.456 167 125 103
0.0196286 -0.331069 -0.458 166 123 104
0.0241476 -0.333237 -0.461 158 117 99
0.02596 -0.33396 -0.462 153 112 94
0.03454 -0.340466 -0.471 140 106 96
0.0547619 -0.361429 -0.5 117 93 91
0.05712 -0.36432 -0.504 119 93 92
0.0811914 -0.392511 -0.543 115 99 99
0.08268 -0.39468 -0.546 117 101 101
0.465152 -0.417811 -0.578 168 173 179
0.46423 -0.362874 -0.502 166 121 100
0.465258 -0.360706 -0.499 171 126 105
0.476332 -0.352031 -0.487 169 121 99
0.478995 -0.350586 -0.485 173 125 105
0.522998 -0.367211 -0.508 145 107 86
-0.0292429 -0.322519 -0.445 191 155 121
-0.0273619 -0.320345 -0.442 192 156 122
-0.022159 -0.31817 -0.439 199 160 127
-0.0196505 -0.31817 -0.439 196 158 122
-0.0138286 -0.318895 -0.44 190 150 115
-0.0105 -0.31962 -0.441 196 155 123
-0.00380571 -0.321794 -0.444 189 146 114
-0.00211905 -0.322519 -0.445 188 144 115
0.00127429 -0.323244 -0.446 183 139 114
0.00469333 -0.324693 -0.448 182 138 111
0.02142 -0.332666 -0.459 161 118 99
0.0306886 -0.338464 -0.467 146 110 96
0.1044 -0.420362 -0.58 145 161 186
0.470942 -0.418188 -0.577 96 108 120
0.465155 -0.364555 -0.503 167 124 105
0.479919 -0.35151 -0.485 171 123 101
0.490324 -0.353684 -0.488 160 115 94
-0.0300905 -0.323367 -0.445 191 155 121
-0.0146333 -0.319007 -0.439 190 150 115
-0.00717238 -0.321913 -0.443 192 152 117
-0.00548476 -0.321913 -0.443 192 149 117
0.0064 -0.325547 -0.448 175 133 109
0.0107381 -0.327727 -0.451 175 129 106
0.0151333 -0.329907 -0.454 168 123 102
0.0240952 -0.334267 -0.46 163 117 101
0.0325371 -0.34008 -0.468 142 105 96
0.0385333 -0.345893 -0.476 136 105 100
0.0677171 -0.37714 -0.519 118 97 96
0.0766505 -0.387313 -0.533 109 96 88
0.1044 -0.421467 -0.58 117 136 166
0.466233 -0.361153 -0.497 173 126 106
0.48276 -0.35316 -0.486 167 119 97
0.50781 -0.360427 -0.496 148 109 92
0.964263 -0.404027 -0.556 205 208 191
0.968499 -0.404027 -0.556 203 205 191
0.984385 -0.404027 -0.556 203 205 191
-0.0171419 -0.319843 -0.439 200 160 125
-0.00464095 -0.322757 -0.443 193 152 122
-0.00380571 -0.323486 -0.444 187 146 116
-0.00126857 -0.323486 -0.444 182 141 113
0.00554667 -0.3264 -0.448 177 135 111
0.0344667 -0.342429 -0.47 141 105 93
0.0426914 -0.351171 -0.482 124 95 91
0.0726381 -0.383229 -0.526 115 95 96
0.475592 -0.381771 -0.524 158 117 95
0.466143 -0.365743 -0.502 164 119 100
0.466209 -0.363557 -0.499 175 128 108
0.469906 -0.356271 -0.489 166 118 96
0.481767 -0.353357 -0.485 167 119 96
0.503799 -0.359186 -0.493 150 108 86
0.57881 -0.400714 -0.55 183 164 149
0.961086 -0.405086 -0.556 205 207 193
-0.012961 -0.320679 -0.439 192 151 119
0.0384524 -0.346976 -0.475 135 105 97
0.050239 -0.360125 -0.493 120 95 91
0.08418 -0.401031 -0.549 73 90 136
0.471223 -0.420754 -0.576 94 122 161
0.491538 -0.39811 -0.545 147 114 95
0.48625 -0.392996 -0.538 152 114 93
0.478315 -0.384961 -0.527 157 116 96
0.466143 -0.366699 -0.502 165 124 104
0.469933 -0.357933 -0.49 167 119 99
0.477148 -0.354281 -0.485 173 126 106
0.481767 -0.354281 -0.485 168 122 99
0.502777 -0.359394 -0.492 152 110 88
0.58513 -0.404684 -0.554 195 186 177
0.894366 -0.406145 -0.556 206 209 192
0.899661 -0.406145 -0.556 206 209 192
0.977678 -0.404684 -0.554 203 205 191
-0.0212257 -0.32005 -0.437 200 160 125
-0.012961 -0.321515 -0.439 191 150 118
-0.00211429 -0.325177 -0.444 185 144 114
0.0168629 -0.332501 -0.454 165 121 96
0.0213267 -0.334698 -0.457 163 121 97
0.0296714 -0.340557 -0.465 141 107 97
0.0325371 -0.342754 -0.468 140 106 96
0.0437 -0.35374 -0.483 125 96 90
0.08418 -0.402077 -0.549 60 82 132
0.0875286 -0.407936 -0.557 49 70 133
0.483651 -0.391091 -0.534 151 116 97
0.48013 -0.38743 -0.529 153 116 98
0.468127 -0.363993 -0.497 171 125 102
0.471733 -0.357402 -0.488 173 125 103
0.472622 -0.35667 -0.487 176 128 106
0.472577 -0.355937 -0.486 172 124 102
0.481767 -0.355205 -0.485 167 121 98
0.488314 -0.355937 -0.486 158 113 90
0.978733 -0.405739 -0.554 204 207 190
-0.00798 -0.32382 -0.441 191 152 121
0.00126857 -0.326023 -0.444 179 138 110
0.0142057 -0.331897 -0.452 166 121 98
0.0286619 -0.339974 -0.463 140 106 96
0.0306229 -0.342177 -0.466 138 104 95
0.0374686 -0.348051 -0.474 140 101 94
0.0546524 -0.366409 -0.499 120 94 93
0.0638781 -0.375954 -0.512 121 97 95
0.0675867 -0.38036 -0.518 117 96 95
0.0858467 -0.40606 -0.553 51 69 115
0.467123 -0.367877 -0.501 165 124 104
0.469022 -0.360534 -0.491 171 125 102
0.4753 -0.356129 -0.485 167 119 97
0.48924 -0.356863 -0.486 157 112 89
0.509614 -0.363471 -0.495 147 105 83
0.518654 -0.367877 -0.501 149 108 88
-0.0253876 -0.321715 -0.437 190 151 122
-0.0203933 -0.321715 -0.437 201 160 130
-0.00463048 -0.325396 -0.442 184 145 114
-0.00295333 -0.326132 -0.443 183 144 113
0.0150667 -0.332758 -0.452 163 118 97
0.0240429 -0.337911 -0.459 153 112 92
0.0437 -0.35558 -0.483 122 95 88
0.0725 -0.3865 -0.525 115 93 95
0.08418 -0.404169 -0.549 64 74 110
0.0876857 -0.410794 -0.558 33 64 128
0.104959 -0.424782 -0.577 146 164 204
0.470552 -0.37693 -0.512 161 118 99
0.469874 -0.359261 -0.488 178 132 109
0.472577 -0.357789 -0.486 172 124 102
0.476164 -0.356316 -0.484 176 128 105
0.483614 -0.357052 -0.485 160 114 90
0.488314 -0.357789 -0.486 160 115 92
0.975568 -0.40785 -0.554 203 205 191
-0.0335562 -0.32919 -0.446 201 155 129
-0.024499 -0.32181 -0.436 193 154 125
-0.0137343 -0.322548 -0.437 191 152 121
-0.00463048 -0.326238 -0.442 183 142 112
0.00126857 -0.327714 -0.444 177 136 108
0.00296667 -0.328452 -0.445 177 135 110
0.0159276 -0.333619 -0.452 164 119 100
0.0168257 -0.334357 -0.453 163 118 99
0.0186333 -0.335833 -0.455 158 115 96
0.0221971 -0.33731 -0.457 157 114 95
0.0344667 -0.346905 -0.47 138 103 97
0.03944 -0.351333 -0.476 129 100 92
0.0570067 -0.371262 -0.503 118 94 90
0.0603571 -0.374214 -0.507 120 96 94
0.0766505 -0.393405 -0.533 113 90 100
0.465213 -0.423667 -0.574 160 172 198
0.471773 -0.423667 -0.574 124 147 181
0.468854 -0.374214 -0.507 159 121 102
0.474376 -0.357976 -0.485 175 127 105
0.5115 -0.365357 -0.495 151 109 85
-0.030521 -0.32486 -0.439 197 157 131
-0.0137343 -0.32338 -0.437 193 152 120
-0.00462 -0.32634 -0.441 184 140 113
-0.00210476 -0.32708 -0.442 183 139 110
0.00808857 -0.33078 -0.447 167 125 101
0.0404314 -0.35298 -0.477 126 97 89
0.0512819 -0.36556 -0.494 119 95 91
0.0638781 -0.37888 -0.512 119 95 93
0.07392 -0.39072 -0.528 115 93 95
0.477673 -0.38702 -0.523 152 114 101
0.475009 -0.38406 -0.519 152 114 101
0.469779 -0.37592 -0.508 157 119 100
0.468115 -0.36482 -0.493 171 126 103
0.469 -0.3626 -0.49 172 127 104
0.470767 -0.36038 -0.487 173 127 104
0.477086 -0.35816 -0.484 170 122 99
0.493957 -0.36038 -0.487 157 111 88
0.49776 -0.36112 -0.488 164 118 95
0.501574 -0.36186 -0.489 155 110 87
-0.0287171 -0.324212 -0.437 193 157 125
-0.02616 -0.32347 -0.436 199 158 130
-0.00294667 -0.327922 -0.442 182 138 109
0.012401 -0.333115 -0.449 169 124 103
0.0363343 -0.349437 -0.471 135 103 90
0.0725 -0.3895 -0.525 114 92 94
0.483969 -0.393951 -0.531 148 112 100
0.472577 -0.360566 -0.486 170 124 101
0.502506 -0.362791 -0.489 152 110 86
-0.0461514 -0.414302 -0.557 194 153 121
-0.0178143 -0.323557 -0.435 196 155 123
-0.00378 -0.32802 -0.441 184 140 111
0.00210952 -0.329508 -0.443 175 134 106
0.00550952 -0.330995 -0.445 172 130 105
0.0141429 -0.334714 -0.45 162 120 98
0.02128 -0.339177 -0.456 157 116 98
0.0239905 -0.340665 -0.458 147 110 92
0.049 -0.364467 -0.49 118 93 86
0.05808 -0.37488 -0.504 122 94 91
0.0712276 -0.389012 -0.523 115 90 93
0.0725 -0.3905 -0.525 113 92 91
0.0795667 -0.400913 -0.539 111 96 99
0.0878429 -0.41579 -0.559 56 82 131
0.47158 -0.380087 -0.511 156 117 100
0.469011 -0.373392 -0.502 166 123 104
0.469 -0.364467 -0.49 171 126 105
0.521429 -0.371905 -0.5 150 110 85
-0.0169857 -0.324386 -0.435 191 150 120
-0.00794381 -0.327369 -0.439 191 148 116
0.00635714 -0.331843 -0.445 171 129 104
0.0468448 -0.363163 -0.487 121 94 85
0.0558257 -0.373603 -0.501 120 95 90
0.0591571 -0.376586 -0.505 119 94 90
0.0603571 -0.378077 -0.507 119 94 90
0.0651067 -0.383297 -0.514 120 96 94
0.475148 -0.385534 -0.517 154 115 100
0.472503 -0.381806 -0.512 150 112 99
0.470786 -0.378077 -0.507 156 117 102
0.474376 -0.361671 -0.485 173 127 104
0.478008 -0.360926 -0.484 169 125 100
0.482617 -0.360926 -0.484 162 118 91
0.504369 -0.364654 -0.489 151 109 85
-0.0294143 -0.325214 -0.435 193 154 121
-0.0194267 -0.324467 -0.434 193 152 120
-0.00710762 -0.328205 -0.439 188 145 113
-0.00627143 -0.328205 -0.439 187 144 110
0.000420952 -0.330448 -0.442 179 135 108
0.00892 -0.333438 -0.446 166 121 98
0.0296076 -0.346895 -0.464 140 104 90
0.0315105 -0.34839 -0.466 139 106 91
0.0334286 -0.349886 -0.468 137 103 91
0.0364114 -0.352876 -0.472 134 102 91
0.0546524 -0.373062 -0.499 121 96 89
0.469031 -0.374557 -0.501 169 125 100
0.470837 -0.365586 -0.489 175 129 106
0.471694 -0.36409 -0.487 172 126 103
0.520291 -0.372314 -0.498 148 106 82
0.581852 -0.407452 -0.545 184 167 151
-0.0302429 -0.326043 -0.435 193 154 121
-0.0218562 -0.324544 -0.433 193 152 122
-0.0161571 -0.326043 -0.435 191 150 120
-0.00627143 -0.329041 -0.439 186 143 111
0.0185514 -0.339534 -0.453 158 117 99
0.0415133 -0.359022 -0.479 127 99 88
0.0436095 -0.36127 -0.482 124 96 85
0.0457286 -0.363519 -0.485 122 93 85
0.0725 -0.3935 -0.525 113 92 89
0.0811914 -0.406991 -0.543 120 138 178
0.494906 -0.406991 -0.543 135 108 99
0.471714 -0.380758 -0.508 155 116 99
0.469073 -0.372513 -0.497 172 126 102
0.469054 -0.369515 -0.493 171 129 105
0.473503 -0.364269 -0.486 177 131 108
0.486305 -0.36277 -0.484 163 119 94
0.48907 -0.36277 -0.484 156 112 87
0.49572 -0.364269 -0.486 159 114 91
0.510172 -0.368016 -0.491 155 113 91
0.515171 -0.370265 -0.494 152 110 88
-0.0472124 -0.418546 -0.557 189 155 128
-0.01612 -0.32612 -0.434 188 147 115
0.00379714 -0.332883 -0.443 173 131 106
0.00549714 -0.333634 -0.444 170 128 104
0.00892 -0.335137 -0.446 166 124 100
0.0185514 -0.340397 -0.453 157 116 98
0.0343933 -0.35242 -0.469 133 101 90
0.0545429 -0.374211 -0.498 121 96 91
0.49764 -0.41028 -0.546 135 108 99
0.476194 -0.387737 -0.516 146 110 96
0.469993 -0.370454 -0.493 174 129 106
0.47886 -0.36294 -0.483 169 123 99
0.48254 -0.36294 -0.483 169 123 99
0.511108 -0.368951 -0.491 152 107 84
-0.0338657 -0.330713 -0.439 198 154 125
-0.0293467 -0.326947 -0.434 195 156 127
-0.00955048 -0.328453 -0.436 189 146 114
-0.00625714 -0.32996 -0.438 184 140 111
0.00805238 -0.335233 -0.445 167 125 101
0.0123733 -0.337493 -0.448 160 117 98
0.0176495 -0.340507 -0.452 156 114 98
0.0239381 -0.344273 -0.457 146 108 95
0.0404314 -0.35934 -0.477 127 96 91
0.0725 -0.3955 -0.525 110 88 90
0.47001 -0.375913 -0.499 169 124 101
0.48346 -0.36386 -0.483 167 121 97
0.540687 -0.384953 -0.511 144 104 79
0.584967 -0.410567 -0.545 187 177 167
-0.0481867 -0.419912 -0.556 186 152 124
-0.034781 -0.332305 -0.44 192 157 127
-0.0319 -0.328529 -0.435 196 159 130
-0.0284543 -0.327018 -0.433 195 156 123
-0.02016 -0.326263 -0.432 196 156 121
0.00634286 -0.335326 -0.444 168 126 102
0.0132267 -0.338347 -0.448 159 118 100
0.0194143 -0.342123 -0.453 153 114 97
0.0425143 -0.362514 -0.48 125 94 89
0.0478705 -0.368556 -0.488 121 93 89
0.0500352 -0.370822 -0.491 119 91 88
0.0863124 -0.419912 -0.556 94 117 159
0.476252 -0.388948 -0.515 148 116 101
0.474453 -0.386682 -0.512 152 119 100
0.47184 -0.38064 -0.504 165 125 100
0.47094 -0.378374 -0.501 165 123 98
0.4807 -0.36478 -0.483 165 119 96
0.48622 -0.36478 -0.483 160 114 90
0.48806 -0.36478 -0.483 159 113 89
0.497471 -0.36629 -0.485 162 116 92
0.51496 -0.371577 -0.492 150 107 90
0.524086 -0.376109 -0.498 154 109 86
0.591351 -0.414626 -0.549 190 187 180
-0.0492457 -0.420971 -0.556 186 153 122
-0.031 -0.3286 -0.434 196 160 128
-0.029279 -0.327843 -0.433 195 157 121
-0.0177324 -0.327843 -0.433 191 150 118
-0.0152581 -0.327843 -0.433 190 149 117
0.010619 -0.337686 -0.446 162 119 100
0.0114943 -0.338443 -0.447 162 119 100
0.0123457 -0.338443 -0.447 161 118 99
0.0373105 -0.357371 -0.472 129 95 86
0.0660857 -0.389171 -0.514 114 92 94
0.0673257 -0.390686 -0.516 113 93 94
0.0712276 -0.395986 -0.523 111 91 92
0.470804 -0.369486 -0.488 172 128 103
0.48714 -0.3657 -0.483 157 111 87
0.513913 -0.371757 -0.491 153 110 94
-0.0103571 -0.330186 -0.435 186 145 113
-0.00458857 -0.332463 -0.438 178 134 105
-0.00376286 -0.333222 -0.439 179 135 106
0.00378857 -0.335499 -0.442 168 126 104
0.0373105 -0.35827 -0.472 128 95 88
0.0489 -0.371174 -0.489 119 93 92
0.0660857 -0.39015 -0.514 113 93 94
0.502333 -0.417476 -0.55 121 106 103
0.472577 -0.368897 -0.486 168 124 99
0.48162 -0.36662 -0.483 168 121 101
0.48622 -0.36662 -0.483 162 116 92
1.01071 -0.429621 -0.566 101 102 104
-0.01364 -0.330253 -0.434 187 146 116
-0.00209048 -0.334058 -0.439 178 134 107
0.0167143 -0.342429 -0.45 157 116 98
0.0285381 -0.350799 -0.461 143 106 97
0.0414267 -0.363735 -0.478 125 96 92
0.05904 -0.38352 -0.504 115 94 93
0.0712276 -0.397978 -0.523 108 90 90
0.488105 -0.403305 -0.53 133 112 107
0.47188 -0.381998 -0.502 161 124 98
0.471905 -0.380476 -0.5 167 125 100
0.470964 -0.377432 -0.496 170 125 102
0.477086 -0.368301 -0.484 172 126 103
0.48622 -0.36754 -0.483 168 120 98
0.497368 -0.368301 -0.484 163 115 92
0.51182 -0.372106 -0.489 152 107 84
1.00198 -0.432982 -0.569 101 101 103
-0.0326533 -0.33108 -0.434 200 161 130
-0.0308571 -0.329554 -0.432 199 160 129
-0.0201133 -0.328791 -0.431 191 152 121
-0.00952857 -0.331843 -0.435 183 140 108
0.00548476 -0.337946 -0.443 164 121 105
0.00717238 -0.337946 -0.443 162 119 103
0.01408 -0.34176 -0.448 158 117 99
0.0194143 -0.345574 -0.453 152 115 99
0.0276 -0.350914 -0.46 145 107 96
0.0566667 -0.381429 -0.5 117 93 93
0.0726381 -0.401263 -0.526 108 88 90
0.503381 -0.419571 -0.55 124 103 100
0.471894 -0.382191 -0.501 164 123 95
0.471913 -0.37914 -0.497 168 126 101
0.471733 -0.372274 -0.488 174 130 105
0.47432 -0.369223 -0.484 174 128 104
0.488886 -0.367697 -0.482 166 118 95
0.49358 -0.36846 -0.483 165 117 94
0.49542 -0.36846 -0.483 165 117 95
0.505903 -0.370749 -0.486 156 110 87
0.515667 -0.3738 -0.49 150 108 84
0.517654 -0.374563 -0.491 150 108 84
0.520702 -0.376089 -0.493 149 107 83
-0.0362914 -0.334966 -0.438 192 153 122
-0.026619 -0.328848 -0.43 192 156 122
-0.024981 -0.328848 -0.43 195 156 123
-0.0208857 -0.328848 -0.43 191 152 119
-0.0201133 -0.329612 -0.431 191 152 119
-0.00292667 -0.33573 -0.439 176 134 109
0.0229667 -0.347967 -0.455 147 108 91
0.02948 -0.35332 -0.462 141 105 93
0.0712276 -0.39997 -0.523 109 87 90
0.471911 -0.381616 -0.499 165 123 98
0.488886 -0.368615 -0.482 166 118 95
0.4991 -0.36938 -0.483 160 114 91
0.517654 -0.375498 -0.491 152 110 86
0.594407 -0.418325 -0.547 196 191 185
0.965881 -0.43209 -0.565 121 110 106
0.970825 -0.432855 -0.566 112 114 101
0.98139 -0.43515 -0.569 107 107 107
1.01937 -0.441268 -0.577 104 105 107
-0.0299648 -0.330433 -0.431 195 159 125
-0.0168686 -0.3312 -0.432 187 149 112
-0.0160457 -0.3312 -0.432 187 149 112
-0.00292 -0.3358 -0.438 175 133 108
0.00378 -0.3381 -0.441 166 123 106
0.0372314 -0.3611 -0.471 127 97 87
0.0565533 -0.382567 -0.499 114 93 92
0.0832857 -0.421667 -0.55 114 134 169
0.474376 -0.371833 -0.485 171 125 102
0.476164 -0.371067 -0.484 178 130 107
0.480623 -0.369533 -0.482 172 124 101
0.48705 -0.369533 -0.482 166 120 96
0.494394 -0.369533 -0.482 166 118 95
0.497149 -0.369533 -0.482 161 115 92
-0.0522343 -0.425789 -0.554 190 157 126
-0.0265571 -0.329717 -0.429 191 155 121
0.00717238 -0.340477 -0.443 160 119 101
0.0248086 -0.351237 -0.457 146 108 95
0.0304257 -0.355849 -0.463 138 104 94
0.0510743 -0.378137 -0.492 117 93 93
0.0521171 -0.378906 -0.493 117 93 93
0.0554914 -0.382749 -0.498 117 93 93
0.07854 -0.41426 -0.539 86 102 138
0.0832857 -0.422714 -0.55 112 132 169
0.479244 -0.395046 -0.514 147 113 101
0.474376 -0.372757 -0.485 173 127 103
0.482459 -0.370451 -0.482 171 123 100
0.48705 -0.370451 -0.482 166 120 96
0.50186 -0.37122 -0.483 158 113 90
-0.0378733 -0.336698 -0.437 189 156 125
-0.0298952 -0.331305 -0.43 192 158 121
-0.0151876 -0.332075 -0.431 186 148 111
-0.00208571 -0.337469 -0.438 174 130 105
0.00631429 -0.34055 -0.442 160 119 99
0.0521171 -0.379845 -0.493 119 94 97
0.07854 -0.415287 -0.539 84 99 138
0.0817895 -0.42145 -0.547 109 129 166
0.472843 -0.381386 -0.495 169 123 100
0.487871 -0.370599 -0.481 169 121 98
0.506587 -0.37291 -0.484 157 111 87
-0.0265571 -0.331351 -0.429 192 156 120
-0.00125143 -0.338303 -0.438 171 129 105
0.0532714 -0.382329 -0.495 119 94 97
0.0577343 -0.386963 -0.501 119 93 96
0.0588057 -0.387735 -0.502 118 92 95
0.0659571 -0.396231 -0.513 111 89 91
0.472829 -0.381556 -0.494 168 122 98
0.473452 -0.374605 -0.485 174 126 103
0.495201 -0.371515 -0.481 164 118 95
0.582453 -0.413996 -0.536 159 141 121
-0.0160086 -0.333717 -0.431 185 145 110
-0.0143667 -0.333717 -0.431 183 143 107
-0.0103333 -0.33604 -0.434 181 139 101
-0.00868 -0.33604 -0.434 178 135 100
-0.0053981 -0.337589 -0.436 175 131 102
-0.00456762 -0.337589 -0.436 172 130 105
-0.000417143 -0.339137 -0.438 168 126 102
0.000418095 -0.339911 -0.439 166 126 101
0.0220514 -0.351526 -0.454 146 108 97
0.02754 -0.355397 -0.459 141 105 93
0.06 -0.39024 -0.504 112 92 94
0.0647267 -0.39566 -0.511 116 88 87
0.0659571 -0.397209 -0.513 113 85 84
0.473807 -0.38482 -0.497 170 122 100
0.4727 -0.378626 -0.489 170 122 100
0.481541 -0.373206 -0.482 174 126 103
0.482459 -0.373206 -0.482 172 124 101
0.509352 -0.374754 -0.484 156 110 87
0.533692 -0.386369 -0.499 143 102 80
0.593163 -0.420437 -0.543 192 181 175
0.595291 -0.421211 -0.544 199 188 182
-0.0340695 -0.334538 -0.431 195 159 125
-0.0306429 -0.332986 -0.429 198 162 128
-0.0273105 -0.33221 -0.428 192 153 120
-0.00868 -0.336867 -0.434 178 135 100
0.0114429 -0.345405 -0.445 155 116 99
0.0266076 -0.355495 -0.458 143 105 94
0.057619 -0.388095 -0.5 112 92 94
0.061081 -0.391976 -0.505 110 90 91
0.0635038 -0.395081 -0.509 112 88 86
0.0789771 -0.420695 -0.542 91 107 143
0.502034 -0.422248 -0.544 118 99 93
0.484838 -0.403619 -0.52 135 106 92
0.47281 -0.382662 -0.493 169 123 100
0.47794 -0.3749 -0.483 175 127 105
0.504493 -0.374124 -0.482 158 111 85
0.598462 -0.423024 -0.545 198 191 181
0.6006 -0.4238 -0.546 200 197 188
-0.0207886 -0.333025 -0.428 192 152 117
-0.00868 -0.337693 -0.434 180 135 102
-0.00208095 -0.340028 -0.437 167 125 100
0.00544762 -0.342362 -0.44 162 121 103
0.00886 -0.344696 -0.443 153 115 96
0.0332143 -0.361814 -0.465 138 101 92
0.0361029 -0.364149 -0.468 131 97 87
0.0454457 -0.375042 -0.482 114 90 90
0.05538 -0.386713 -0.497 113 91 93
0.0660857 -0.399941 -0.514 113 87 86
0.0820886 -0.427174 -0.549 118 138 173
0.478787 -0.375042 -0.482 173 127 103
0.484114 -0.373486 -0.48 173 127 101
0.491429 -0.373486 -0.48 167 120 92
0.492343 -0.373486 -0.48 167 120 94
0.496117 -0.374264 -0.481 168 121 93
0.531429 -0.385935 -0.496 152 108 83
0.590914 -0.420171 -0.54 200 184 171
-0.0207886 -0.33384 -0.428 190 150 115
-0.0143333 -0.3354 -0.43 188 145 113
-0.0119314 -0.33696 -0.432 184 141 106
-0.00538571 -0.3393 -0.435 175 130 101
0.00292667 -0.34242 -0.439 166 124 102
0.0131676 -0.34788 -0.446 153 114 97
0.0220029 -0.35334 -0.453 145 105 97
0.0229162 -0.35412 -0.454 147 104 97
0.0256229 -0.35568 -0.456 147 104 95
0.0443429 -0.3744 -0.48 117 91 92
0.0454457 -0.37596 -0.482 116 90 91
0.04646 -0.37674 -0.483 114 90 90
0.0520114 -0.38376 -0.492 117 93 93
0.0530562 -0.38454 -0.493 115 91 91
0.057619 -0.39 -0.5 112 93 89
0.059881 -0.39234 -0.503 111 92 86
0.0647267 -0.39858 -0.511 110 86 86
0.477869 -0.37596 -0.482 173 127 101
0.480542 -0.37518 -0.481 171 126 97
0.485029 -0.3744 -0.48 170 125 96
0.493257 -0.3744 -0.48 168 121 95
0.500571 -0.3744 -0.48 160 112 89
0.512118 -0.37752 -0.484 155 109 85
0.517011 -0.37908 -0.486 156 111 88
0.519003 -0.37986 -0.487 157 112 89
0.60372 -0.42588 -0.546 196 198 187
0.839363 -0.43758 -0.561 120 121 115
0.848352 -0.43836 -0.562 120 120 112
0.851564 -0.43836 -0.562 115 115 107
0.856296 -0.43914 -0.563 121 121 113
-0.0392667 -0.339347 -0.434 191 155 121
-0.0383514 -0.338565 -0.433 190 151 118
-0.0356286 -0.336219 -0.43 192 153 120
-0.02806 -0.333873 -0.427 191 150 118
-0.0223667 -0.333873 -0.427 191 148 114
0.00544762 -0.344038 -0.44 161 118 99
0.0079981 -0.345602 -0.442 158 115 96
0.0131676 -0.34873 -0.446 155 113 99
0.0220029 -0.354203 -0.453 147 107 97
0.0520114 -0.384697 -0.492 116 92 92
0.500296 -0.42301 -0.541 120 100 93
0.475714 -0.390952 -0.5 164 118 94
0.47476 -0.389389 -0.498 165 119 96
0.474376 -0.379224 -0.485 172 126 102
0.481458 -0.376096 -0.481 170 125 96
0.485943 -0.375314 -0.48 172 125 97
0.495086 -0.375314 -0.48 168 120 97
-0.0373533 -0.337822 -0.431 186 147 114
-0.0305 -0.334687 -0.427 198 158 123
-0.02556 -0.333903 -0.426 188 145 113
-0.00783524 -0.33939 -0.433 178 131 101
-0.00124857 -0.342525 -0.437 169 124 101
0.0105714 -0.348011 -0.444 154 112 96
0.0122905 -0.348795 -0.445 156 114 98
0.0131676 -0.349579 -0.446 155 113 97
0.0220029 -0.355066 -0.453 147 109 96
0.03124 -0.36212 -0.462 138 104 95
0.0411667 -0.37231 -0.475 121 93 92
0.0432476 -0.374661 -0.478 119 93 92
0.0688381 -0.407581 -0.52 105 84 89
0.502146 -0.425609 -0.543 118 99 93
0.47375 -0.386418 -0.493 170 124 100
0.53534 -0.389553 -0.497 146 106 80
0.5962 -0.424825 -0.542 189 185 176
0.857625 -0.443636 -0.566 114 111 104
-0.0400933 -0.341 -0.434 194 155 124
-0.00783524 -0.340214 -0.433 174 130 101
-0.00041619 -0.343357 -0.437 168 123 100
0.0519057 -0.385786 -0.491 116 92 92
0.059881 -0.395214 -0.503 110 89 88
0.0662143 -0.404643 -0.515 105 85 87
0.0794143 -0.428214 -0.545 88 101 133
0.475688 -0.389714 -0.496 167 123 98
0.47702 -0.3795 -0.483 174 128 102
0.481541 -0.378714 -0.482 174 127 101
0.502266 -0.376357 -0.479 165 115 88
0.505143 -0.377143 -0.48 160 113 85
0.533186 -0.388929 -0.495 143 101 76
0.816533 -0.44 -0.56 120 120 112
0.858491 -0.446286 -0.568 127 124 117
0.882214 -0.451786 -0.575 129 126 119
-0.0399086 -0.340251 -0.432 193 154 123
-0.0231257 -0.335526 -0.426 192 149 117
0.0140486 -0.352066 -0.447 152 113 96
0.0149 -0.352066 -0.447 152 113 96
0.0341 -0.366243 -0.465 130 99 94
0.0370733 -0.369393 -0.469 124 95 89
0.0586886 -0.394597 -0.501 113 89 89
0.0624114 -0.40011 -0.508 109 89 91
0.502253 -0.42689 -0.542 111 96 89
0.496027 -0.419013 -0.532 124 104 93
0.476667 -0.39381 -0.5 153 113 88
0.474563 -0.385146 -0.489 168 124 99
0.47886 -0.38042 -0.483 171 125 101
0.482374 -0.378845 -0.481 171 125 99
0.493142 -0.37727 -0.479 172 125 95
0.506057 -0.378057 -0.48 161 114 86
0.520714 -0.382783 -0.486 151 109 84
0.602545 -0.428465 -0.544 193 193 185
0.8016 -0.441067 -0.56 100 99 97
0.815168 -0.442642 -0.562 124 123 118
0.819449 -0.442642 -0.562 121 120 115
0.82627 -0.44343 -0.563 114 111 106
0.828414 -0.44343 -0.563 117 114 107
0.829487 -0.44343 -0.563 121 118 111
0.835257 -0.444217 -0.564 124 121 116
0.848754 -0.447368 -0.568 117 114 109
0.854584 -0.448155 -0.569 119 118 113
0.889454 -0.456031 -0.579 116 117 109
-0.0320514 -0.336337 -0.426 192 151 119
-0.0143 -0.338706 -0.429 186 141 108
-0.0110829 -0.340285 -0.431 182 137 108
0.00376286 -0.346601 -0.439 160 122 101
0.00459905 -0.346601 -0.439 159 121 100
0.0283524 -0.361602 -0.458 142 102 90
0.0719086 -0.416869 -0.528 94 85 86
0.0763448 -0.424764 -0.538 129 139 164
0.476664 -0.393972 -0.499 158 117 95
0.476164 -0.38213 -0.484 164 118 94
0.491429 -0.378971 -0.48 175 125 100
0.513674 -0.38055 -0.482 158 112 88
0.51566 -0.38134 -0.483 157 111 87
0.522713 -0.384498 -0.487 154 108 82
0.814846 -0.445291 -0.564 119 118 114
0.84294 -0.44766 -0.567 120 117 112
0.855 -0.450029 -0.57 98 99 94
0.8626 -0.450029 -0.57 110 111 106
0.00628571 -0.348229 -0.44 155 117 98
0.0105476 -0.350603 -0.443 154 116 97
0.0228657 -0.358517 -0.453 143 105 94
0.0264914 -0.360891 -0.456 143 105 92
0.03212 -0.36564 -0.462 135 102 93
0.035061 -0.368806 -0.466 126 99 92
0.0369943 -0.370389 -0.468 121 96 91
0.04216 -0.37672 -0.476 118 92 93
0.057619 -0.395714 -0.5 109 90 94
0.0675867 -0.40996 -0.518 101 81 83
0.475628 -0.390174 -0.493 171 124 98
0.47628 -0.384634 -0.486 170 124 98
0.478008 -0.383051 -0.484 170 126 101
0.485943 -0.379886 -0.48 175 128 102
0.4896 -0.379886 -0.48 178 128 101
0.494054 -0.379094 -0.479 171 122 90
0.495754 -0.378303 -0.478 168 121 91
0.806251 -0.446366 -0.564 100 98 99
0.83646 -0.44874 -0.567 128 127 123
0.846997 -0.450323 -0.569 119 118 114
0.85909 -0.452697 -0.572 89 91 86
