ply
format ascii 1.0
comment Created by Open3D
element vertex 1293
property double x
property double y
property double z
property uchar red
property uchar green
property uchar blue
end_header
0.447557 -0.122889 -0.531 194 144 143
0.106187 -0.143733 -0.616 205 155 148
0.147497 -0.1512 -0.648 119 62 68
0.299353 -0.126233 -0.541 158 124 138
0.311823 -0.129267 -0.554 103 77 86
0.323897 -0.1316 -0.564 32 21 25
0.331686 -0.133 -0.57 34 23 29
0.33998 -0.1337 -0.573 36 27 32
0.346529 -0.1337 -0.573 32 23 28
0.344967 -0.129033 -0.553 135 114 119
0.33223 -0.122033 -0.523 134 99 103
0.367097 -0.1204 -0.516 143 108 112
0.372994 -0.1204 -0.516 140 105 109
0.376926 -0.1204 -0.516 141 106 110
0.421448 -0.121333 -0.52 134 98 100
0.4295 -0.1225 -0.525 119 87 88
0.445705 -0.123667 -0.53 197 146 145
0.119863 -0.143025 -0.608 199 146 138
0.128689 -0.145142 -0.617 184 134 125
0.28728 -0.125147 -0.532 162 126 138
0.347988 -0.132439 -0.563 66 49 55
0.344535 -0.130322 -0.554 129 106 112
0.331314 -0.122324 -0.52 138 102 102
0.33892 -0.121853 -0.518 139 105 106
0.357557 -0.121148 -0.515 143 108 112
0.386234 -0.120912 -0.514 135 106 110
0.398962 -0.120912 -0.514 111 81 83
0.10987 -0.143234 -0.604 197 147 138
0.111021 -0.143234 -0.604 197 147 138
0.124905 -0.144657 -0.61 199 147 136
0.12648 -0.145131 -0.612 196 143 135
0.147497 -0.153669 -0.648 110 54 57
0.28721 -0.125686 -0.53 160 127 134
0.331314 -0.123314 -0.52 137 103 104
0.33925 -0.122603 -0.517 139 105 106
0.352354 -0.122366 -0.516 142 108 109
0.356576 -0.122129 -0.515 143 109 110
0.359519 -0.122129 -0.515 143 109 110
0.386234 -0.121891 -0.514 134 109 113
0.41071 -0.121891 -0.514 107 71 73
0.436803 -0.125449 -0.529 86 50 54
0.442676 -0.125686 -0.53 200 144 145
0.106419 -0.144385 -0.604 199 151 141
0.112947 -0.143907 -0.602 198 148 137
0.284335 -0.12813 -0.536 161 125 135
0.301792 -0.128608 -0.538 159 127 138
0.308267 -0.130042 -0.544 152 125 132
0.31921 -0.132432 -0.554 86 63 71
0.32306 -0.13315 -0.557 32 21 29
0.342056 -0.136496 -0.571 52 46 50
0.329689 -0.124066 -0.519 137 105 106
0.343509 -0.123349 -0.516 140 106 107
0.357557 -0.12311 -0.515 143 109 110
0.358538 -0.12311 -0.515 143 109 110
0.361481 -0.12311 -0.515 144 110 111
0.364424 -0.12311 -0.515 143 108 112
0.366386 -0.12311 -0.515 141 106 110
0.367367 -0.12311 -0.515 142 107 111
0.39113 -0.12287 -0.514 133 101 102
0.392109 -0.12287 -0.514 132 100 101
0.406794 -0.12287 -0.514 132 102 102
0.429316 -0.125739 -0.526 89 60 62
0.431136 -0.125978 -0.527 68 39 41
0.43296 -0.126217 -0.528 65 35 37
0.434788 -0.126456 -0.529 58 28 30
0.105094 -0.145294 -0.603 200 152 142
0.121576 -0.145776 -0.605 200 151 137
0.13447 -0.149872 -0.622 182 132 125
0.140466 -0.152523 -0.633 161 107 105
0.283171 -0.127705 -0.53 159 126 135
0.28512 -0.127223 -0.528 160 127 136
0.322375 -0.133488 -0.554 26 13 22
0.343629 -0.137343 -0.57 45 39 43
0.330755 -0.126982 -0.527 137 102 108
0.329606 -0.125777 -0.522 136 100 102
0.332357 -0.124572 -0.517 136 104 105
0.333342 -0.124572 -0.517 138 104 105
0.34122 -0.124572 -0.517 139 105 106
0.344491 -0.124331 -0.516 141 107 108
0.373252 -0.12409 -0.515 142 107 111
0.38036 -0.12385 -0.514 248 226 238
0.383297 -0.12385 -0.514 245 228 234
0.383529 -0.123609 -0.513 238 221 227
0.403071 -0.123609 -0.513 133 99 100
0.434788 -0.127464 -0.529 52 22 24
0.439648 -0.127705 -0.53 145 104 108
0.444695 -0.127705 -0.53 197 139 138
0.102968 -0.146686 -0.604 205 156 149
0.12524 -0.147171 -0.606 194 144 133
0.129977 -0.148629 -0.612 184 134 125
0.13772 -0.152029 -0.626 173 120 114
0.28512 -0.128229 -0.528 160 127 136
0.311375 -0.132114 -0.544 151 121 129
0.342543 -0.138429 -0.57 31 25 29
0.345843 -0.136729 -0.563 31 21 22
0.342425 -0.134543 -0.554 140 119 124
0.342526 -0.125314 -0.516 139 105 106
0.348423 -0.125314 -0.516 140 106 107
0.382318 -0.124829 -0.514 247 230 238
0.387437 -0.124586 -0.513 133 102 107
0.424875 -0.127014 -0.523 119 89 91
0.10067 -0.14955 -0.611 207 159 149
0.110286 -0.146857 -0.6 199 149 140
0.117338 -0.147102 -0.601 201 149 138
0.287591 -0.12899 -0.527 166 124 136
0.325071 -0.135843 -0.555 31 16 23
0.344614 -0.137311 -0.561 44 32 34
0.328343 -0.127276 -0.52 142 103 106
0.336296 -0.126542 -0.517 138 104 105
0.34744 -0.126297 -0.516 140 106 107
0.35069 -0.126052 -0.515 141 107 108
0.352652 -0.126052 -0.515 141 107 108
0.356576 -0.126052 -0.515 143 109 110
0.359519 -0.126052 -0.515 143 109 110
0.369329 -0.126052 -0.515 142 107 111
0.37031 -0.126052 -0.515 143 108 112
0.381339 -0.125808 -0.514 249 232 242
0.404049 -0.125563 -0.513 131 95 97
0.430949 -0.129234 -0.528 62 36 37
0.10782 -0.147753 -0.599 200 152 142
0.113525 -0.147753 -0.599 199 149 138
0.131357 -0.151207 -0.613 190 138 125
0.139134 -0.15466 -0.627 171 116 111
0.281683 -0.13098 -0.531 161 128 137
0.306224 -0.131967 -0.535 150 119 125
0.328834 -0.137147 -0.556 32 17 22
0.33108 -0.13764 -0.558 28 16 20
0.327711 -0.12802 -0.519 137 101 103
0.342526 -0.12728 -0.516 136 104 105
0.357557 -0.127033 -0.515 144 112 113
0.373252 -0.127033 -0.515 140 106 107
0.382318 -0.126787 -0.514 246 230 233
0.383529 -0.12654 -0.513 192 173 177
0.39015 -0.126787 -0.514 114 85 89
0.431765 -0.130487 -0.529 52 33 35
0.442849 -0.130487 -0.529 188 133 128
0.444864 -0.130487 -0.529 193 138 133
0.106501 -0.148646 -0.598 203 155 145
0.119429 -0.149143 -0.6 198 150 136
0.300333 -0.131743 -0.53 150 119 125
0.328707 -0.137709 -0.554 28 11 17
0.32708 -0.12876 -0.518 139 103 105
0.339577 -0.128263 -0.516 138 104 103
0.34971 -0.128014 -0.515 137 105 106
0.354614 -0.128014 -0.515 142 108 107
0.357557 -0.128014 -0.515 138 106 107
0.358538 -0.128014 -0.515 138 106 107
0.361758 -0.127766 -0.514 143 109 108
0.382551 -0.127517 -0.513 174 152 155
0.38646 -0.127517 -0.513 118 89 91
0.401117 -0.127517 -0.513 137 103 104
0.429943 -0.131246 -0.528 56 31 35
0.437443 -0.131991 -0.531 70 31 34
0.449743 -0.131743 -0.53 187 129 125
0.0977429 -0.155796 -0.622 199 155 144
0.102115 -0.150035 -0.599 206 159 149
0.105186 -0.149534 -0.597 205 159 146
0.124413 -0.150787 -0.602 192 143 126
0.190697 -0.162309 -0.648 202 143 137
0.285042 -0.13175 -0.526 157 126 132
0.288048 -0.13175 -0.526 156 124 129
0.305957 -0.133003 -0.531 151 119 124
0.319077 -0.136009 -0.543 151 118 125
0.326449 -0.129496 -0.517 139 103 103
0.345786 -0.128995 -0.515 135 106 108
0.348729 -0.128995 -0.515 140 108 109
0.355595 -0.128995 -0.515 142 108 109
0.366917 -0.128494 -0.513 139 107 110
0.373507 -0.128745 -0.514 137 105 108
0.441841 -0.132502 -0.529 179 124 119
0.115227 -0.150419 -0.596 198 150 136
0.121511 -0.151176 -0.599 194 146 132
0.131444 -0.153448 -0.608 184 132 118
0.282036 -0.132752 -0.526 156 125 131
0.322773 -0.137295 -0.544 136 113 119
0.333829 -0.139314 -0.552 37 22 29
0.324746 -0.130986 -0.519 140 104 104
0.327783 -0.130229 -0.516 134 102 103
0.334014 -0.129976 -0.515 139 100 103
0.3399 -0.129976 -0.515 122 102 101
0.344135 -0.129724 -0.514 142 110 113
0.395459 -0.129219 -0.512 131 99 102
0.400335 -0.129219 -0.512 132 100 103
0.465946 -0.137043 -0.543 165 106 102
0.1 -0.152571 -0.6 209 163 148
0.101774 -0.151809 -0.597 206 160 147
0.104833 -0.1513 -0.595 207 161 148
0.105967 -0.1513 -0.595 206 160 147
0.108233 -0.1513 -0.595 203 157 144
0.111446 -0.151046 -0.594 202 154 140
0.118632 -0.151554 -0.596 199 151 139
0.119969 -0.151809 -0.597 197 149 137
0.1914 -0.162234 -0.638 172 118 108
0.278223 -0.136806 -0.538 162 127 134
0.289947 -0.133246 -0.524 154 121 128
0.317597 -0.136551 -0.537 138 111 116
0.330366 -0.139349 -0.548 29 6 14
0.330073 -0.13706 -0.539 139 112 119
0.324834 -0.131211 -0.516 134 103 101
0.3268 -0.131211 -0.516 134 104 104
0.33924 -0.130703 -0.514 95 95 97
0.37278 -0.130449 -0.513 136 105 110
0.394484 -0.130194 -0.512 125 96 98
0.39936 -0.130194 -0.512 131 101 103
0.456189 -0.135789 -0.534 174 114 113
0.108999 -0.151921 -0.593 205 157 145
0.136748 -0.156532 -0.611 179 122 113
0.286952 -0.134244 -0.524 156 123 130
0.294806 -0.133731 -0.522 152 119 126
0.313037 -0.136037 -0.531 144 115 119
0.325384 -0.13655 -0.533 146 116 124
0.32911 -0.131938 -0.515 137 107 107
0.332387 -0.131682 -0.514 94 89 86
0.361054 -0.131426 -0.513 134 102 105
0.363009 -0.131426 -0.513 206 175 181
0.367894 -0.131426 -0.513 138 107 112
0.37693 -0.13117 -0.512 138 103 109
0.38982 -0.130913 -0.511 77 53 51
0.39858 -0.130913 -0.511 125 95 97
0.406003 -0.131426 -0.513 124 92 95
0.413108 -0.13245 -0.517 132 98 99
0.431173 -0.136293 -0.532 49 27 29
0.439826 -0.135525 -0.529 154 99 96
0.440833 -0.135525 -0.529 165 110 107
0.442011 -0.135269 -0.528 186 128 126
0.446879 -0.135525 -0.529 196 138 136
0.0968933 -0.155373 -0.602 202 158 145
0.101433 -0.153567 -0.595 204 160 147
0.103351 -0.15305 -0.593 208 164 151
0.1207 -0.153567 -0.595 196 147 130
0.18318 -0.164923 -0.639 187 126 123
0.276069 -0.136274 -0.528 162 125 132
0.284956 -0.135242 -0.524 156 124 129
0.286405 -0.134984 -0.523 155 123 128
0.297218 -0.134468 -0.521 150 119 124
0.331408 -0.132661 -0.514 77 87 86
0.332387 -0.132661 -0.514 72 82 81
0.344443 -0.132403 -0.513 160 162 161
0.355191 -0.132403 -0.513 139 107 110
0.357146 -0.132403 -0.513 137 105 108
0.3591 -0.132403 -0.513 140 105 109
0.362031 -0.132403 -0.513 160 131 136
0.374734 -0.132403 -0.513 138 106 111
0.375711 -0.132403 -0.513 135 103 108
0.426727 -0.136532 -0.529 72 48 48
0.444023 -0.136274 -0.528 194 139 136
0.112009 -0.15366 -0.591 201 155 139
0.15885 -0.16874 -0.649 155 102 96
0.181109 -0.16536 -0.636 188 127 124
0.200571 -0.16848 -0.648 132 85 77
0.275063 -0.13728 -0.528 159 124 130
0.275546 -0.13702 -0.527 160 125 131
0.280428 -0.13598 -0.523 155 123 128
0.285409 -0.13598 -0.523 157 122 128
0.289279 -0.13546 -0.521 151 119 124
0.300195 -0.13546 -0.521 149 118 123
0.3095 -0.1365 -0.525 149 117 122
0.326512 -0.13364 -0.514 133 109 105
0.33858 -0.13338 -0.513 209 232 238
0.339557 -0.13338 -0.513 222 239 246
0.342489 -0.13338 -0.513 197 206 211
0.351283 -0.13338 -0.513 130 108 111
0.356169 -0.13338 -0.513 136 105 110
0.360077 -0.13338 -0.513 139 104 111
0.366202 -0.13312 -0.512 141 112 117
0.367177 -0.13312 -0.512 136 107 112
0.368152 -0.13312 -0.512 138 109 114
0.370826 -0.13338 -0.513 134 103 108
0.373757 -0.13338 -0.513 135 103 108
0.38083 -0.13312 -0.512 134 99 105
0.396633 -0.13286 -0.511 124 94 96
0.406003 -0.13338 -0.513 129 94 98
0.429147 -0.13832 -0.532 59 38 37
0.435226 -0.13962 -0.537 38 22 22
0.441562 -0.13936 -0.536 95 53 57
0.11426 -0.154786 -0.591 195 152 135
0.125023 -0.155571 -0.594 189 140 126
0.130421 -0.156619 -0.598 187 130 121
0.142097 -0.16081 -0.614 170 112 110
0.155671 -0.167881 -0.641 163 105 101
0.175071 -0.168929 -0.645 194 135 127
0.1806 -0.165 -0.63 173 119 107
0.1905 -0.16631 -0.635 149 99 92
0.200881 -0.169976 -0.649 127 82 79
0.2755 -0.1375 -0.525 158 126 131
0.285409 -0.136976 -0.523 157 125 130
0.291264 -0.136452 -0.521 152 120 125
0.306737 -0.136714 -0.522 146 114 119
0.320173 -0.135667 -0.518 126 105 102
0.333366 -0.134619 -0.514 143 162 166
0.334671 -0.134357 -0.513 76 95 101
0.339557 -0.134357 -0.513 163 182 188
0.340534 -0.134357 -0.513 115 134 140
0.350306 -0.134357 -0.513 136 107 111
0.361054 -0.134357 -0.513 222 192 202
0.363276 -0.134095 -0.512 242 221 230
0.376689 -0.134357 -0.513 134 104 106
0.377905 -0.134095 -0.512 136 106 106
0.382033 -0.133833 -0.511 134 99 103
0.399553 -0.133833 -0.511 123 91 94
0.44031 -0.141952 -0.542 45 25 27
0.444226 -0.142214 -0.543 55 33 35
0.0922371 -0.166991 -0.633 199 157 145
0.0918076 -0.161979 -0.614 200 158 144
0.108448 -0.155648 -0.59 204 158 143
0.112943 -0.155648 -0.59 202 156 140
0.117637 -0.155911 -0.591 199 152 134
0.119889 -0.155911 -0.591 196 147 130
0.128633 -0.156967 -0.595 185 133 120
0.179453 -0.165145 -0.626 169 112 101
0.182129 -0.165409 -0.627 162 106 93
0.273569 -0.139555 -0.529 160 125 131
0.293676 -0.137181 -0.52 149 117 122
0.31992 -0.136126 -0.516 127 106 103
0.339557 -0.135334 -0.513 79 98 104
0.340534 -0.135334 -0.513 59 78 84
0.341511 -0.135334 -0.513 62 83 88
0.349623 -0.13507 -0.512 131 106 110
0.366202 -0.13507 -0.512 134 105 110
0.370103 -0.13507 -0.512 131 92 95
0.37693 -0.13507 -0.512 136 110 111
0.377167 -0.134807 -0.511 128 102 103
0.394886 -0.134543 -0.51 128 96 99
0.446193 -0.139028 -0.527 199 144 141
0.109386 -0.156506 -0.589 201 155 140
0.118562 -0.156771 -0.59 198 151 133
0.140477 -0.161289 -0.607 173 115 111
0.166571 -0.168994 -0.636 194 135 131
0.171107 -0.166337 -0.626 188 129 121
0.197186 -0.171386 -0.645 122 78 77
0.273977 -0.139234 -0.524 157 122 128
0.279431 -0.138969 -0.523 155 123 128
0.28188 -0.138703 -0.522 154 122 127
0.295657 -0.138171 -0.52 149 117 122
0.311505 -0.138171 -0.52 145 110 114
0.3193 -0.136843 -0.515 127 106 103
0.341821 -0.136046 -0.512 60 81 86
0.348648 -0.136046 -0.512 128 112 115
0.349623 -0.136046 -0.512 125 109 112
0.367177 -0.136046 -0.512 137 102 106
0.3842 -0.135514 -0.51 123 91 94
0.444186 -0.140031 -0.527 200 147 141
0.0903429 -0.163783 -0.612 198 156 144
0.10602 -0.157628 -0.589 205 159 144
0.109386 -0.157628 -0.589 202 156 141
0.118361 -0.157628 -0.589 198 151 133
0.119686 -0.157895 -0.59 198 149 132
0.126857 -0.15843 -0.592 190 136 124
0.172451 -0.165389 -0.618 175 118 107
0.176552 -0.165924 -0.62 163 107 94
0.184811 -0.168065 -0.628 144 89 86
0.188992 -0.16967 -0.634 136 85 82
0.1911 -0.170473 -0.637 134 86 84
0.27153 -0.141035 -0.527 160 123 130
0.277903 -0.139697 -0.522 156 121 127
0.28134 -0.13943 -0.521 153 121 126
0.282332 -0.13943 -0.521 153 121 126
0.287733 -0.139162 -0.52 150 118 123
0.292123 -0.138894 -0.519 149 117 122
0.295089 -0.138894 -0.519 150 115 121
0.299043 -0.138894 -0.519 147 112 118
0.305373 -0.138627 -0.518 146 111 115
0.321969 -0.137289 -0.513 133 105 102
0.331093 -0.137021 -0.512 209 218 227
0.341821 -0.137021 -0.512 91 110 114
0.368407 -0.136753 -0.511 131 99 102
0.376193 -0.136753 -0.511 143 128 133
0.388294 -0.136218 -0.509 130 98 101
0.393914 -0.136486 -0.51 128 96 99
0.395857 -0.136486 -0.51 123 91 94
0.444186 -0.141035 -0.527 202 147 142
0.124181 -0.159019 -0.59 193 141 127
0.143709 -0.163331 -0.606 180 123 114
0.158582 -0.166835 -0.619 190 131 123
0.175983 -0.166566 -0.618 160 104 89
0.270546 -0.142578 -0.529 160 124 128
0.284317 -0.140422 -0.521 152 120 125
0.292123 -0.139883 -0.519 149 117 122
0.304387 -0.139613 -0.518 143 111 116
0.312057 -0.139074 -0.516 136 104 107
0.319659 -0.138535 -0.514 133 103 105
0.328809 -0.138266 -0.513 178 187 196
0.342796 -0.137996 -0.512 172 183 189
0.345047 -0.137727 -0.511 219 226 236
0.34602 -0.137727 -0.511 211 214 223
0.350887 -0.137727 -0.511 127 107 109
0.367433 -0.137727 -0.511 133 102 107
0.380087 -0.137727 -0.511 216 205 211
0.444186 -0.142039 -0.527 202 147 144
0.447197 -0.142039 -0.527 196 143 137
0.11928 -0.1596 -0.588 197 150 134
0.135206 -0.161229 -0.594 184 127 118
0.15938 -0.166386 -0.613 190 132 121
0.169611 -0.166114 -0.612 175 118 107
0.171056 -0.166386 -0.613 167 110 99
0.192 -0.173714 -0.64 127 83 84
0.275914 -0.141686 -0.522 155 119 123
0.280348 -0.141414 -0.521 155 120 124
0.28718 -0.140871 -0.519 151 116 120
0.302413 -0.1406 -0.518 141 109 114
0.321969 -0.139243 -0.513 137 105 108
0.322946 -0.139243 -0.513 135 101 102
0.335313 -0.1387 -0.511 202 215 221
0.34018 -0.1387 -0.511 175 184 191
0.341153 -0.1387 -0.511 171 180 187
0.346993 -0.1387 -0.511 118 121 130
0.352833 -0.1387 -0.511 135 104 109
0.365487 -0.1387 -0.511 133 102 107
0.380314 -0.138429 -0.51 178 165 174
0.388294 -0.138157 -0.509 128 96 99
0.456497 -0.151457 -0.558 74 52 55
0.446505 -0.147114 -0.542 103 63 64
0.443182 -0.143043 -0.527 196 141 138
0.443343 -0.142771 -0.526 199 144 141
0.119077 -0.160447 -0.587 197 150 132
0.146443 -0.16482 -0.603 185 128 119
0.166187 -0.166187 -0.608 174 117 106
0.178914 -0.169467 -0.62 148 95 79
0.270983 -0.143227 -0.524 159 120 125
0.275386 -0.142407 -0.521 156 117 122
0.27981 -0.142133 -0.52 153 117 121
0.28179 -0.142133 -0.52 153 118 122
0.296493 -0.141587 -0.518 148 113 117
0.298467 -0.141587 -0.518 146 111 115
0.31806 -0.14022 -0.513 132 102 100
0.320014 -0.14022 -0.513 133 103 105
0.33726 -0.139673 -0.511 179 188 195
0.3431 -0.139673 -0.511 172 176 185
0.344073 -0.139673 -0.511 165 169 181
0.368657 -0.1394 -0.51 133 106 111
0.413327 -0.142407 -0.521 119 90 92
0.444234 -0.147053 -0.538 114 72 74
0.44 -0.14432 -0.528 175 120 115
0.44017 -0.144047 -0.527 184 129 126
0.480847 -0.151153 -0.553 173 125 115
0.0888324 -0.172299 -0.626 197 155 143
0.08874 -0.16762 -0.609 198 156 144
0.101015 -0.16129 -0.586 207 159 147
0.108643 -0.161014 -0.585 204 158 143
0.118874 -0.16129 -0.586 198 151 133
0.133397 -0.162666 -0.591 193 136 127
0.154739 -0.166244 -0.604 190 131 123
0.270466 -0.14395 -0.523 157 118 123
0.29748 -0.142573 -0.518 147 112 116
0.321969 -0.141197 -0.513 132 100 103
0.33142 -0.140647 -0.511 156 167 173
0.338233 -0.140647 -0.511 172 172 184
0.3434 -0.140371 -0.51 189 191 204
0.360886 -0.140371 -0.51 130 105 111
0.373514 -0.140371 -0.51 236 235 241
0.374721 -0.140096 -0.509 233 236 245
0.383447 -0.140096 -0.509 132 107 113
0.389264 -0.140096 -0.509 129 97 100
0.439826 -0.145601 -0.529 164 109 104
0.44017 -0.14505 -0.527 185 130 125
0.452925 -0.145601 -0.529 173 123 114
0.478238 -0.151381 -0.55 175 125 116
0.09154 -0.165454 -0.597 204 160 149
0.144743 -0.165177 -0.596 188 130 119
0.275848 -0.144114 -0.52 155 118 125
0.278819 -0.144114 -0.52 153 116 123
0.286191 -0.143837 -0.519 153 116 123
0.290573 -0.14356 -0.518 152 116 120
0.314514 -0.141897 -0.512 138 105 100
0.321969 -0.142174 -0.513 139 102 109
0.325242 -0.141897 -0.512 87 77 78
0.352833 -0.14162 -0.511 123 101 104
0.357 -0.141343 -0.51 183 166 176
0.391203 -0.141066 -0.509 133 98 102
0.393142 -0.141066 -0.509 130 95 99
0.40131 -0.141897 -0.512 127 98 102
0.404836 -0.142451 -0.514 125 96 100
0.46248 -0.156309 -0.564 65 36 41
0.0922114 -0.165754 -0.594 202 160 148
0.110682 -0.162964 -0.584 201 155 140
0.12914 -0.163801 -0.587 192 141 124
0.132946 -0.164359 -0.589 191 138 120
0.148149 -0.166312 -0.596 190 134 121
0.268 -0.14957 -0.536 163 120 127
0.2665 -0.1465 -0.525 161 122 127
0.269949 -0.145663 -0.522 158 118 126
0.272409 -0.145384 -0.521 157 117 125
0.28026 -0.144826 -0.519 151 114 121
0.294936 -0.144268 -0.517 149 112 119
0.305567 -0.14371 -0.515 145 110 114
0.313539 -0.142872 -0.512 131 106 102
0.323633 -0.142593 -0.511 100 90 91
0.335629 -0.142314 -0.51 150 157 167
0.341457 -0.142314 -0.51 221 221 233
0.3502 -0.142314 -0.51 120 97 105
0.355057 -0.142314 -0.51 228 209 215
0.374721 -0.142035 -0.509 236 228 241
0.391402 -0.141756 -0.508 130 95 99
0.39605 -0.142035 -0.509 128 96 99
0.399553 -0.142593 -0.511 127 96 101
0.402094 -0.143151 -0.513 129 100 104
0.0874362 -0.170819 -0.608 195 155 145
0.0885714 -0.168571 -0.6 201 158 149
0.123129 -0.164357 -0.585 199 148 131
0.13879 -0.165762 -0.59 192 139 125
0.152946 -0.167729 -0.597 185 129 114
0.154341 -0.16801 -0.598 177 121 106
0.161107 -0.169133 -0.602 166 110 97
0.266979 -0.15059 -0.536 161 121 129
0.265992 -0.147219 -0.524 158 121 128
0.278283 -0.145814 -0.519 154 114 122
0.28564 -0.145533 -0.518 150 114 118
0.287613 -0.145533 -0.518 152 115 122
0.290012 -0.145252 -0.517 151 115 119
0.327527 -0.143567 -0.511 68 85 93
0.345343 -0.143286 -0.51 186 184 195
0.349513 -0.143005 -0.509 120 97 105
0.361857 -0.143286 -0.51 129 102 107
0.379569 -0.143005 -0.509 229 227 232
0.468971 -0.162952 -0.58 69 40 44
0.475243 -0.164357 -0.585 73 44 49
0.472859 -0.16239 -0.578 59 29 37
0.0891162 -0.168583 -0.596 203 161 149
0.156619 -0.169149 -0.598 172 120 99
0.159429 -0.169714 -0.6 167 111 98
0.166794 -0.171411 -0.606 154 97 90
0.170219 -0.172543 -0.61 149 95 83
0.265485 -0.150763 -0.533 158 121 128
0.265004 -0.148783 -0.526 157 120 127
0.271416 -0.147369 -0.521 155 118 125
0.294366 -0.145954 -0.516 149 112 119
0.32558 -0.14454 -0.511 48 77 75
0.332714 -0.144257 -0.51 168 182 191
0.337571 -0.144257 -0.51 182 189 199
0.350483 -0.143974 -0.509 146 125 132
0.360178 -0.143974 -0.509 124 102 104
0.362117 -0.143974 -0.509 125 98 103
0.370114 -0.143691 -0.508 230 229 237
0.393337 -0.143691 -0.508 128 98 100
0.406214 -0.146237 -0.517 118 92 95
0.410552 -0.147086 -0.52 103 78 82
0.480429 -0.166886 -0.59 77 48 53
0.4475 -0.1485 -0.525 192 139 131
-0.121952 -0.185095 -0.65 195 194 189
0.09352 -0.16744 -0.588 206 162 149
0.10476 -0.165731 -0.582 210 164 151
0.111411 -0.165731 -0.582 204 158 143
0.122918 -0.166301 -0.584 198 146 132
0.130929 -0.166586 -0.585 192 141 124
0.148532 -0.168864 -0.593 188 135 119
0.157758 -0.170288 -0.598 168 116 94
0.184492 -0.179685 -0.631 119 73 73
0.265 -0.150924 -0.53 158 121 128
0.26796 -0.148646 -0.522 156 119 126
0.276306 -0.147791 -0.519 153 116 123
0.297314 -0.146937 -0.516 147 110 117
0.299681 -0.146652 -0.515 144 109 115
0.318415 -0.145798 -0.512 137 102 108
0.320366 -0.145798 -0.512 139 104 108
0.32266 -0.145513 -0.511 132 101 99
0.326553 -0.145513 -0.511 47 76 74
0.327527 -0.145513 -0.511 112 129 137
0.345635 -0.144944 -0.509 175 172 181
0.350483 -0.144944 -0.509 146 125 132
0.35727 -0.144944 -0.509 130 103 110
0.365026 -0.144944 -0.509 129 102 111
0.395081 -0.144944 -0.509 130 101 105
0.444431 -0.152917 -0.537 134 89 86
0.4435 -0.1495 -0.525 198 145 139
0.451212 -0.15007 -0.527 183 131 120
0.4558 -0.150924 -0.53 167 114 106
0.492452 -0.159182 -0.559 165 116 111
-0.128983 -0.18576 -0.648 192 189 182
0.0872829 -0.171713 -0.599 198 158 146
0.087981 -0.170853 -0.596 200 158 146
0.119376 -0.167127 -0.583 197 148 133
0.168503 -0.174293 -0.608 150 96 86
0.182419 -0.180027 -0.628 118 74 73
0.303605 -0.147633 -0.515 144 109 113
0.31549 -0.146773 -0.512 136 100 100
0.31744 -0.146773 -0.512 135 103 104
0.320366 -0.146773 -0.512 132 98 99
0.32558 -0.146487 -0.511 155 169 169
0.335629 -0.1462 -0.51 170 185 192
0.338849 -0.145913 -0.509 179 183 194
0.351452 -0.145913 -0.509 172 155 163
0.373985 -0.145627 -0.508 240 232 245
0.400335 -0.146773 -0.512 121 95 98
0.439826 -0.151647 -0.529 168 115 109
0.4465 -0.1505 -0.525 190 137 129
0.449354 -0.150787 -0.526 182 132 121
-0.12319 -0.187571 -0.65 194 193 188
0.0992171 -0.167949 -0.582 204 162 148
0.102367 -0.16766 -0.581 206 162 149
0.109924 -0.167371 -0.58 204 158 145
0.113433 -0.16766 -0.581 203 155 141
0.118063 -0.167949 -0.582 200 151 136
0.152177 -0.171411 -0.594 171 120 101
0.1547 -0.1717 -0.595 170 119 100
0.16707 -0.175163 -0.607 146 91 84
0.17802 -0.179203 -0.621 122 77 74
0.18271 -0.181511 -0.629 115 71 72
0.266454 -0.150346 -0.521 155 119 123
0.28115 -0.149191 -0.517 152 117 123
0.295757 -0.148614 -0.515 146 109 116
0.303015 -0.148326 -0.514 144 109 113
0.31682 -0.14746 -0.511 134 104 104
0.32266 -0.14746 -0.511 134 100 98
0.323 -0.147171 -0.51 136 108 107
0.359209 -0.146883 -0.509 126 101 104
0.365995 -0.146883 -0.509 159 138 145
0.373985 -0.146594 -0.508 237 229 242
0.385596 -0.146594 -0.508 124 99 105
0.390434 -0.146594 -0.508 130 100 102
0.485633 -0.1717 -0.595 96 66 76
0.455567 -0.15958 -0.553 97 56 60
0.4415 -0.1515 -0.525 197 144 136
0.467804 -0.155251 -0.538 152 112 104
0.0894943 -0.171671 -0.591 200 160 148
0.0920857 -0.170219 -0.586 203 161 149
0.10126 -0.168767 -0.581 206 164 150
0.109924 -0.168476 -0.58 203 157 142
0.113238 -0.168476 -0.58 203 155 141
0.124929 -0.169348 -0.583 198 149 134
0.170498 -0.177481 -0.611 140 87 81
0.193762 -0.18881 -0.65 161 115 115
0.262994 -0.153371 -0.528 162 122 130
0.295183 -0.149305 -0.514 146 109 116
0.296738 -0.149595 -0.515 146 109 116
0.297141 -0.149305 -0.514 146 109 116
0.300078 -0.149305 -0.514 146 109 116
0.306334 -0.149014 -0.513 142 107 111
0.310007 -0.148433 -0.511 133 101 104
0.3139 -0.148433 -0.511 136 101 105
0.320713 -0.148433 -0.511 135 101 100
0.326886 -0.148143 -0.51 214 217 226
0.328829 -0.148143 -0.51 164 173 180
0.329153 -0.147852 -0.509 157 166 173
0.331092 -0.147852 -0.509 72 87 92
0.332062 -0.147852 -0.509 57 75 79
0.349794 -0.147562 -0.508 161 149 159
0.353665 -0.147562 -0.508 169 148 155
0.357535 -0.147562 -0.508 124 99 102
0.370114 -0.147562 -0.508 235 230 237
0.376888 -0.147562 -0.508 234 231 240
0.378823 -0.147562 -0.508 231 231 239
0.382693 -0.147562 -0.508 236 226 235
0.395857 -0.148143 -0.51 122 93 97
0.396829 -0.148143 -0.51 123 94 98
0.440337 -0.15279 -0.526 196 143 137
0.0868457 -0.174259 -0.596 195 157 144
0.109734 -0.169289 -0.579 204 161 145
0.11194 -0.169289 -0.579 203 157 141
0.123606 -0.170166 -0.582 198 151 135
0.152177 -0.173674 -0.594 168 117 100
0.262466 -0.155254 -0.531 161 122 127
0.261989 -0.154377 -0.528 161 122 127
0.267924 -0.152038 -0.52 156 119 126
0.276226 -0.151161 -0.517 150 115 121
0.278195 -0.151161 -0.517 150 115 121
0.298517 -0.149991 -0.513 145 108 115
0.300471 -0.149991 -0.513 145 108 115
0.324306 -0.148822 -0.509 112 97 102
0.354632 -0.14853 -0.508 130 101 106
0.359209 -0.148822 -0.509 127 104 110
0.368179 -0.14853 -0.508 233 228 235
0.369147 -0.14853 -0.508 237 232 239
0.370114 -0.14853 -0.508 232 227 234
0.377111 -0.148237 -0.507 234 228 238
0.393142 -0.148822 -0.509 125 96 98
0.444651 -0.153208 -0.524 196 143 137
0.452216 -0.154085 -0.527 178 128 117
0.459547 -0.155547 -0.532 157 110 102
-0.141762 -0.191286 -0.65 186 183 176
-0.13741 -0.190403 -0.647 189 186 179
-0.136178 -0.190403 -0.647 190 187 178
0.0885181 -0.174217 -0.592 199 159 147
0.0928838 -0.171863 -0.584 204 162 146
0.109734 -0.170391 -0.579 205 159 144
0.125823 -0.171274 -0.582 199 152 134
0.130481 -0.171569 -0.583 196 147 130
0.140321 -0.172746 -0.587 181 132 115
0.153309 -0.174806 -0.594 166 115 98
0.159163 -0.176277 -0.599 155 106 92
0.174523 -0.181574 -0.617 124 76 72
0.263962 -0.153029 -0.52 155 118 125
0.270374 -0.152734 -0.519 151 116 122
0.271827 -0.15244 -0.518 150 115 121
0.282571 -0.151851 -0.516 150 114 118
0.289871 -0.151557 -0.515 148 112 116
0.299494 -0.150969 -0.513 145 109 113
0.315229 -0.150086 -0.51 136 101 105
0.318143 -0.150086 -0.51 133 101 104
0.328184 -0.149791 -0.509 194 195 200
0.332377 -0.149497 -0.508 92 101 110
0.340118 -0.149497 -0.508 194 198 199
0.349106 -0.149203 -0.507 226 213 222
0.369147 -0.149497 -0.508 236 233 244
0.370114 -0.149497 -0.508 239 233 247
0.376146 -0.149203 -0.507 236 230 242
0.383871 -0.149203 -0.507 162 142 151
0.394886 -0.150086 -0.51 124 94 96
0.442655 -0.154206 -0.524 198 143 138
0.451358 -0.154794 -0.526 186 133 127
0.480839 -0.160974 -0.547 144 101 95
0.0955619 -0.17179 -0.58 208 162 147
0.11505 -0.171198 -0.578 207 160 144
0.130257 -0.172383 -0.582 195 146 129
0.135154 -0.172975 -0.584 191 143 123
0.146657 -0.174752 -0.59 170 121 104
0.152177 -0.175937 -0.594 166 115 98
0.163943 -0.178899 -0.604 144 94 85
0.260489 -0.156092 -0.527 161 120 126
0.260504 -0.154908 -0.523 160 119 125
0.284967 -0.152538 -0.515 149 112 119
0.286929 -0.152538 -0.515 147 110 117
0.29891 -0.15165 -0.512 145 109 113
0.301836 -0.15165 -0.512 143 108 112
0.305737 -0.15165 -0.512 143 108 112
0.310371 -0.151057 -0.51 139 104 108
0.323336 -0.150761 -0.509 132 100 101
0.329153 -0.150761 -0.509 169 164 168
0.3549 -0.150169 -0.507 129 103 106
0.357535 -0.150465 -0.508 129 103 106
0.360438 -0.150465 -0.508 128 103 107
0.362626 -0.150169 -0.507 118 95 101
0.370351 -0.150169 -0.507 239 231 242
0.384837 -0.150169 -0.507 127 106 113
0.393142 -0.150761 -0.509 124 95 97
0.446648 -0.155204 -0.524 188 135 129
0.45322 -0.156092 -0.527 180 127 119
0.47996 -0.16172 -0.546 148 103 100
-0.14089 -0.19257 -0.646 188 185 176
-0.139443 -0.192271 -0.645 189 186 177
-0.129815 -0.19257 -0.646 193 190 181
-0.127946 -0.193464 -0.649 193 193 185
-0.125667 -0.193762 -0.65 194 194 186
0.0843762 -0.182136 -0.611 191 155 143
0.0880695 -0.175578 -0.589 198 158 146
0.0897 -0.174386 -0.585 199 157 143
0.090659 -0.174088 -0.584 202 160 146
0.111747 -0.172299 -0.578 209 160 145
0.142557 -0.174982 -0.587 179 128 111
0.17974 -0.186906 -0.627 120 75 70
0.272287 -0.154115 -0.517 153 116 123
0.27864 -0.153817 -0.516 150 113 120
0.281043 -0.153519 -0.515 150 113 120
0.285948 -0.153519 -0.515 148 111 118
0.300861 -0.152625 -0.512 143 108 112
0.307087 -0.152327 -0.511 155 120 126
0.31655 -0.15173 -0.509 137 102 106
0.317519 -0.15173 -0.509 136 101 105
0.322367 -0.15173 -0.509 133 101 102
0.327214 -0.15173 -0.509 133 113 112
0.329474 -0.151432 -0.508 192 185 193
0.337517 -0.151134 -0.507 143 134 139
0.346209 -0.151134 -0.507 161 142 148
-0.134529 -0.1935 -0.645 190 187 178
0.118557 -0.1737 -0.579 202 155 139
0.140082 -0.1758 -0.586 178 129 112
0.157494 -0.1791 -0.597 153 106 90
0.171614 -0.1845 -0.615 124 79 76
0.26492 -0.1554 -0.518 155 116 121
0.270317 -0.1551 -0.517 151 114 121
0.29696 -0.1536 -0.512 144 110 111
0.308429 -0.153 -0.51 142 105 112
0.317519 -0.1527 -0.509 136 101 105
0.319458 -0.1527 -0.509 133 101 102
0.344562 -0.1518 -0.506 227 212 217
0.352969 -0.1521 -0.507 121 96 99
0.389467 -0.1524 -0.508 119 90 95
0.438163 -0.1581 -0.527 188 133 128
0.442807 -0.1569 -0.523 189 134 129
0.462441 -0.1599 -0.533 145 102 96
0.465195 -0.1605 -0.535 150 107 101
-0.136561 -0.194125 -0.643 191 188 179
-0.131046 -0.19503 -0.646 193 190 181
0.0983648 -0.174199 -0.577 212 164 150
0.11595 -0.174199 -0.577 205 158 142
0.118352 -0.174501 -0.578 202 155 139
0.128705 -0.175105 -0.58 198 147 130
0.160839 -0.181445 -0.601 142 94 82
0.273271 -0.156085 -0.517 152 115 122
0.28833 -0.155179 -0.514 147 111 115
0.321397 -0.15367 -0.509 133 101 104
0.323669 -0.153368 -0.508 134 102 103
0.336248 -0.153368 -0.508 127 105 108
0.352969 -0.153066 -0.507 124 97 102
0.357797 -0.153066 -0.507 124 93 99
0.363591 -0.153066 -0.507 131 105 108
0.372283 -0.153066 -0.507 130 104 107
0.373249 -0.153066 -0.507 134 108 117
0.376146 -0.153066 -0.507 175 155 164
0.381187 -0.152764 -0.506 139 116 122
0.38215 -0.152764 -0.506 126 103 109
0.403831 -0.156689 -0.519 83 60 66
0.445681 -0.16333 -0.541 141 95 98
0.438333 -0.158802 -0.526 196 141 136
0.44181 -0.157896 -0.523 194 139 134
0.448644 -0.158198 -0.524 176 121 114
-0.147042 -0.196261 -0.646 180 180 172
-0.145586 -0.195957 -0.645 185 182 175
-0.132071 -0.195957 -0.645 192 189 180
0.111553 -0.175298 -0.577 209 160 143
0.119453 -0.175602 -0.578 203 154 137
0.121655 -0.175602 -0.578 200 151 134
0.138729 -0.177729 -0.585 181 130 113
0.142557 -0.178336 -0.587 172 120 106
0.258515 -0.158285 -0.521 153 118 124
0.260489 -0.157677 -0.519 153 118 122
0.26492 -0.157373 -0.518 150 118 123
0.282455 -0.156158 -0.514 148 112 116
0.283434 -0.156158 -0.514 147 111 115
0.307824 -0.154639 -0.509 138 102 106
0.323669 -0.154335 -0.508 135 103 104
0.324636 -0.154335 -0.508 135 103 104
0.325604 -0.154335 -0.508 130 98 103
0.329474 -0.154335 -0.508 136 101 105
0.337215 -0.154335 -0.508 131 102 106
0.340414 -0.154031 -0.507 127 102 108
0.363591 -0.154031 -0.507 133 107 108
0.395459 -0.15555 -0.512 118 95 101
0.439661 -0.159196 -0.524 197 142 135
0.442954 -0.158589 -0.522 188 133 126
-0.142463 -0.196269 -0.642 187 184 177
-0.135547 -0.19688 -0.644 190 188 176
0.08386 -0.183123 -0.599 192 152 140
0.102583 -0.176091 -0.576 211 165 149
0.10368 -0.176091 -0.576 212 165 149
0.119247 -0.176397 -0.577 205 154 137
0.13114 -0.17762 -0.581 193 142 123
0.186486 -0.196269 -0.642 150 109 107
0.25701 -0.160194 -0.524 155 118 125
0.26196 -0.15836 -0.518 150 118 123
0.265393 -0.158054 -0.517 148 116 121
0.286371 -0.157137 -0.514 146 110 112
0.295985 -0.156526 -0.512 144 108 112
0.308793 -0.155609 -0.509 136 101 105
0.313025 -0.155303 -0.508 136 101 105
0.322367 -0.155609 -0.509 134 102 103
0.324636 -0.155303 -0.508 135 103 104
0.332377 -0.155303 -0.508 132 100 103
0.336551 -0.154997 -0.507 124 94 96
0.337517 -0.154997 -0.507 130 101 105
0.339449 -0.154997 -0.507 135 108 113
0.34138 -0.154997 -0.507 132 100 105
0.375404 -0.154691 -0.506 119 93 96
0.386769 -0.154997 -0.507 108 83 87
0.440106 -0.162946 -0.533 163 115 115
0.0848476 -0.181495 -0.59 197 155 143
0.0980238 -0.176881 -0.575 213 167 152
0.099119 -0.176881 -0.575 211 165 149
0.25779 -0.164884 -0.536 156 119 126
0.257409 -0.163346 -0.531 155 118 125
0.256519 -0.160885 -0.523 155 118 125
0.264409 -0.159039 -0.517 148 117 123
0.27756 -0.158116 -0.514 146 114 119
0.303946 -0.156578 -0.509 149 114 118
0.321733 -0.15627 -0.508 133 101 102
0.330757 -0.155963 -0.507 131 102 104
0.348417 -0.155655 -0.506 127 98 103
0.377331 -0.155655 -0.506 118 94 94
0.383114 -0.155655 -0.506 108 78 86
0.388499 -0.15627 -0.508 111 88 94
0.521957 -0.197184 -0.641 119 87 90
0.52481 -0.197799 -0.643 151 110 118
0.52562 -0.197184 -0.641 134 89 96
0.439914 -0.164269 -0.534 161 113 111
0.4365 -0.1615 -0.525 195 138 131
0.437826 -0.160885 -0.523 199 142 135
0.438822 -0.160885 -0.523 199 142 135
0.442954 -0.160577 -0.522 185 130 125
0.449642 -0.161192 -0.524 149 94 87
0.456955 -0.16273 -0.529 139 91 89
0.474534 -0.166422 -0.541 150 104 104
0.0865048 -0.181381 -0.586 197 159 146
0.0873219 -0.180762 -0.584 201 159 147
0.102227 -0.177667 -0.574 214 167 151
0.114452 -0.177976 -0.575 204 155 138
0.115548 -0.177976 -0.575 204 155 138
0.117943 -0.178286 -0.576 204 152 138
0.260973 -0.160333 -0.518 152 117 121
0.271233 -0.159405 -0.515 151 116 120
0.273195 -0.159405 -0.515 150 115 119
0.276581 -0.159095 -0.514 149 114 118
0.307219 -0.157238 -0.508 139 103 105
0.321733 -0.157238 -0.508 132 101 99
0.329791 -0.156929 -0.507 140 101 102
0.34167 -0.156619 -0.506 236 221 226
0.357091 -0.156619 -0.506 125 96 100
0.368657 -0.156619 -0.506 125 94 99
0.378295 -0.156619 -0.506 127 96 101
0.388499 -0.157238 -0.508 123 94 98
0.39274 -0.158167 -0.511 117 92 98
0.517036 -0.195619 -0.632 111 77 78
0.442954 -0.161571 -0.522 190 136 126
0.48308 -0.169 -0.546 145 104 102
-0.133713 -0.201494 -0.647 189 189 179
0.0840076 -0.184366 -0.592 193 155 144
0.0858257 -0.183431 -0.589 196 156 144
0.0987743 -0.178449 -0.573 214 166 152
0.102227 -0.17876 -0.574 214 166 152
0.105507 -0.17876 -0.574 215 168 152
0.113357 -0.179071 -0.575 206 157 142
0.120137 -0.179383 -0.576 202 151 134
0.122544 -0.179694 -0.577 199 150 133
0.128483 -0.180317 -0.579 192 141 124
0.129586 -0.180317 -0.579 189 138 121
0.133124 -0.180629 -0.58 179 130 113
0.267829 -0.160697 -0.516 151 116 122
0.288183 -0.159451 -0.512 143 108 112
0.289158 -0.159451 -0.512 143 108 112
0.292084 -0.159451 -0.512 142 107 111
0.295407 -0.15914 -0.511 142 106 110
0.31883 -0.158206 -0.508 135 101 102
0.323997 -0.157894 -0.507 135 103 104
0.331723 -0.157894 -0.507 135 99 99
0.33396 -0.157583 -0.506 127 93 92
0.349381 -0.157583 -0.506 130 98 101
0.355424 -0.157271 -0.505 127 94 103
0.35831 -0.157271 -0.505 125 96 100
0.359271 -0.157271 -0.505 125 96 100
0.497343 -0.192463 -0.618 78 56 59
0.509743 -0.194954 -0.626 118 86 91
0.436667 -0.163189 -0.524 199 142 135
0.437983 -0.162566 -0.522 198 140 136
0.438977 -0.162566 -0.522 198 140 136
0.44196 -0.162566 -0.522 189 132 125
0.45236 -0.163811 -0.526 133 79 77
-0.14102 -0.200847 -0.641 184 184 174
-0.134737 -0.202413 -0.646 188 188 180
-0.133713 -0.202727 -0.647 189 189 181
0.08568 -0.18424 -0.588 195 155 145
0.0895724 -0.180793 -0.577 204 160 149
0.104231 -0.17954 -0.573 214 166 152
0.117738 -0.180167 -0.575 205 154 137
0.176719 -0.197087 -0.629 121 75 77
0.256348 -0.167007 -0.533 120 89 95
0.26488 -0.16168 -0.516 150 115 121
0.270252 -0.161367 -0.515 149 114 118
0.278974 -0.16074 -0.513 145 110 114
0.280381 -0.160427 -0.512 143 111 114
0.287208 -0.160427 -0.512 143 108 112
0.323031 -0.15886 -0.507 136 104 105
0.344843 -0.158233 -0.505 126 104 107
0.345805 -0.158233 -0.505 128 98 100
0.346767 -0.158233 -0.505 129 99 101
0.34869 -0.158233 -0.505 129 97 100
0.354462 -0.158233 -0.505 129 94 100
0.355424 -0.158233 -0.505 130 95 101
0.369621 -0.158547 -0.506 125 94 99
0.377548 -0.158233 -0.505 125 96 100
0.37851 -0.158233 -0.505 125 94 99
0.394277 -0.16074 -0.513 114 91 97
0.438977 -0.16356 -0.522 197 140 133
0.45236 -0.164813 -0.526 135 82 78
0.46898 -0.16826 -0.537 144 101 95
-0.140017 -0.202383 -0.642 185 185 175
-0.13901 -0.202698 -0.643 185 185 175
-0.133713 -0.203959 -0.647 190 187 180
-0.132686 -0.204274 -0.648 191 188 181
0.257728 -0.169598 -0.538 93 70 76
0.255431 -0.166761 -0.529 98 71 78
0.256519 -0.16487 -0.523 130 100 108
0.274089 -0.161717 -0.513 148 113 119
0.280381 -0.161402 -0.512 143 111 116
0.305284 -0.160141 -0.508 137 101 103
0.315306 -0.159826 -0.507 134 100 101
0.322394 -0.15951 -0.506 134 102 103
0.32849 -0.159195 -0.505 134 102 105
0.343881 -0.159195 -0.505 126 100 103
0.347729 -0.159195 -0.505 129 97 100
0.356386 -0.159195 -0.505 128 98 100
0.372512 -0.15951 -0.506 125 95 97
0.381395 -0.159195 -0.505 123 93 95
0.383114 -0.15951 -0.506 121 92 94
0.395814 -0.162348 -0.515 101 80 85
0.468526 -0.186621 -0.592 71 57 57
0.494611 -0.191034 -0.606 105 69 71
0.43683 -0.16487 -0.523 201 143 139
0.445795 -0.16487 -0.523 163 110 96
0.466214 -0.168652 -0.535 132 89 83
-0.145676 -0.202971 -0.64 184 181 172
-0.138 -0.20424 -0.644 186 186 178
0.108597 -0.181723 -0.573 208 161 145
0.125841 -0.182991 -0.577 190 143 125
0.12694 -0.182991 -0.577 188 141 123
0.128039 -0.182991 -0.577 185 138 120
0.1358 -0.184577 -0.582 170 121 104
0.137144 -0.184894 -0.583 167 118 101
0.144165 -0.186797 -0.589 154 102 91
0.15574 -0.189969 -0.599 133 88 82
0.160757 -0.191871 -0.605 127 83 84
0.179897 -0.201703 -0.636 121 80 84
0.25901 -0.164914 -0.52 147 114 121
0.26488 -0.163646 -0.516 149 114 120
0.27648 -0.162377 -0.512 146 111 115
0.282331 -0.162377 -0.512 144 109 115
0.311443 -0.160791 -0.507 137 103 104
0.324322 -0.160474 -0.506 135 103 106
0.332996 -0.160474 -0.506 131 97 98
0.334262 -0.160157 -0.505 132 100 103
0.335224 -0.160157 -0.505 137 105 108
0.34608 -0.15984 -0.504 124 94 96
0.375624 -0.160157 -0.505 124 93 98
0.38215 -0.160474 -0.506 122 93 97
0.486257 -0.193457 -0.61 67 48 50
0.4387 -0.169671 -0.535 146 106 104
0.435328 -0.166817 -0.526 191 136 129
0.435669 -0.166183 -0.524 200 145 140
0.435833 -0.165866 -0.523 201 146 141
0.437983 -0.165549 -0.522 193 138 133
-0.146895 -0.20419 -0.64 185 182 173
0.082259 -0.192705 -0.604 187 149 136
0.0865743 -0.184729 -0.579 200 158 144
0.094079 -0.182176 -0.571 211 164 148
0.0984295 -0.182176 -0.571 214 168 153
0.108408 -0.182495 -0.572 209 162 146
0.128039 -0.18409 -0.577 182 135 117
0.144165 -0.187919 -0.589 152 99 91
0.15269 -0.190152 -0.596 138 90 86
0.170923 -0.198129 -0.621 117 76 82
0.175521 -0.200681 -0.629 117 76 80
0.257447 -0.168776 -0.529 113 92 97
0.260489 -0.165586 -0.519 147 115 120
0.26196 -0.165267 -0.518 149 114 120
0.271157 -0.163671 -0.513 145 110 116
0.281356 -0.163352 -0.512 142 107 113
0.285673 -0.163033 -0.511 144 109 115
0.298129 -0.162395 -0.509 143 106 113
0.306973 -0.161438 -0.506 138 102 106
0.307937 -0.161438 -0.506 136 102 103
0.317575 -0.161438 -0.506 133 101 102
0.320467 -0.161438 -0.506 133 101 102
0.339071 -0.161119 -0.505 190 164 173
0.36528 -0.1608 -0.504 124 94 96
0.387325 -0.162395 -0.509 121 91 93
0.445795 -0.166862 -0.523 164 115 101
-0.152483 -0.206372 -0.643 183 180 171
-0.145676 -0.20541 -0.64 185 182 173
0.0864248 -0.18551 -0.578 201 159 145
0.0971714 -0.182943 -0.57 213 167 152
0.11972 -0.184227 -0.574 195 148 132
0.123214 -0.184548 -0.575 190 143 127
0.125623 -0.184869 -0.576 187 140 122
0.135567 -0.186473 -0.581 168 120 100
0.14441 -0.189362 -0.59 150 97 91
0.148532 -0.190325 -0.593 139 90 86
0.171473 -0.199953 -0.623 116 75 79
0.173769 -0.201237 -0.627 119 79 80
0.294829 -0.163686 -0.51 142 105 112
0.2958 -0.163686 -0.51 143 106 113
0.297159 -0.163365 -0.509 141 104 111
0.325605 -0.162081 -0.505 135 103 106
0.330414 -0.162081 -0.505 133 99 100
0.331376 -0.162081 -0.505 133 99 100
0.34896 -0.16176 -0.504 129 95 96
0.36816 -0.16176 -0.504 124 94 96
0.483933 -0.195781 -0.61 64 48 51
0.495201 -0.196102 -0.611 68 37 43
0.43467 -0.168179 -0.524 201 148 140
-0.279997 -0.209534 -0.649 252 253 248
-0.149567 -0.206951 -0.641 182 182 174
0.095 -0.184029 -0.57 210 162 148
0.0971714 -0.184029 -0.57 213 167 154
0.110587 -0.184674 -0.572 205 158 142
0.11972 -0.18532 -0.574 193 148 129
0.15652 -0.19436 -0.602 129 85 86
0.15819 -0.195006 -0.604 122 83 76
0.160132 -0.195974 -0.607 123 84 77
0.165757 -0.198557 -0.615 117 77 78
0.261477 -0.167563 -0.519 107 82 86
0.263424 -0.166917 -0.517 145 116 121
0.264409 -0.166917 -0.517 143 114 119
0.268749 -0.165949 -0.514 144 109 115
0.277455 -0.165303 -0.512 144 109 115
0.27843 -0.165303 -0.512 145 110 116
0.298129 -0.164334 -0.509 152 115 122
0.305649 -0.163689 -0.507 134 98 102
0.324643 -0.163043 -0.505 133 104 109
0.33168 -0.16272 -0.504 129 99 101
0.34416 -0.16272 -0.504 125 93 96
0.360723 -0.162397 -0.503 123 93 95
0.492303 -0.195651 -0.606 70 35 41
0.4387 -0.172729 -0.535 153 113 111
-0.295611 -0.210446 -0.648 254 255 250
-0.287316 -0.209796 -0.646 253 254 248
-0.286086 -0.209796 -0.646 252 253 248
0.0820286 -0.192909 -0.594 191 151 139
0.08786 -0.186089 -0.573 204 160 147
0.105857 -0.185114 -0.57 209 161 147
0.13446 -0.188687 -0.581 167 119 99
0.1358 -0.189011 -0.582 165 114 97
0.275505 -0.166278 -0.512 145 108 116
0.280381 -0.166278 -0.512 142 110 115
0.299098 -0.165304 -0.509 141 104 111
0.330414 -0.164005 -0.505 130 99 104
0.34512 -0.16368 -0.504 129 98 103
0.366471 -0.163355 -0.503 123 94 96
0.37104 -0.16368 -0.504 130 98 101
0.381187 -0.16433 -0.506 127 97 95
0.492252 -0.201028 -0.619 73 50 58
0.43561 -0.172124 -0.53 165 124 118
0.462441 -0.173098 -0.533 129 81 77
-0.289329 -0.2107 -0.645 196 199 192
-0.280367 -0.211353 -0.647 249 250 245
-0.152009 -0.209393 -0.641 184 181 172
-0.14168 -0.210373 -0.644 187 184 175
-0.139443 -0.2107 -0.645 189 186 177
0.08272 -0.201227 -0.616 190 154 138
0.113656 -0.186527 -0.571 204 159 138
0.14168 -0.19208 -0.588 146 99 93
0.168557 -0.20286 -0.621 116 77 78
0.269271 -0.168233 -0.515 141 108 115
0.273554 -0.167253 -0.512 142 107 114
0.277455 -0.167253 -0.512 148 111 119
0.306614 -0.16562 -0.507 136 100 104
0.310829 -0.165293 -0.506 135 101 102
0.320467 -0.165293 -0.506 134 102 103
0.327529 -0.164967 -0.505 135 100 104
0.361681 -0.164313 -0.503 128 94 95
0.364555 -0.164313 -0.503 123 93 95
0.39516 -0.169213 -0.518 91 66 70
0.435833 -0.170847 -0.523 194 148 133
0.439129 -0.170193 -0.521 185 129 116
0.471753 -0.176073 -0.539 149 106 100
-0.297929 -0.211929 -0.645 238 241 234
-0.276289 -0.213243 -0.649 250 251 246
0.0815781 -0.196814 -0.599 191 151 141
0.0831562 -0.192543 -0.586 192 152 142
0.083841 -0.191557 -0.583 194 154 144
0.0851762 -0.189586 -0.577 198 155 146
0.103686 -0.187286 -0.57 210 162 148
0.108029 -0.187286 -0.57 208 160 146
0.111286 -0.187286 -0.57 206 159 143
0.130689 -0.190243 -0.579 163 116 98
0.132019 -0.190571 -0.58 161 114 96
0.164853 -0.2024 -0.616 117 79 78
0.263477 -0.171186 -0.521 99 77 89
0.269271 -0.169214 -0.515 141 108 115
0.269728 -0.168886 -0.514 142 111 117
0.27648 -0.168229 -0.512 144 107 115
0.2822 -0.167571 -0.51 142 107 113
0.284143 -0.167571 -0.51 142 107 113
0.296575 -0.166914 -0.508 150 113 120
0.29851 -0.166914 -0.508 140 103 110
0.309865 -0.166257 -0.506 135 101 102
0.318871 -0.165929 -0.505 133 101 102
0.3336 -0.1656 -0.504 134 103 108
0.3384 -0.1656 -0.504 204 173 179
0.34512 -0.1656 -0.504 130 98 101
0.34608 -0.1656 -0.504 130 98 101
0.349226 -0.165271 -0.503 129 94 98
0.354016 -0.165271 -0.503 127 95 98
0.354974 -0.165271 -0.503 130 94 96
0.360723 -0.165271 -0.503 128 94 95
0.373178 -0.165271 -0.503 223 198 204
0.375094 -0.165271 -0.503 158 131 136
0.381187 -0.166257 -0.506 128 99 101
0.385386 -0.167243 -0.509 124 98 101
0.501003 -0.206014 -0.627 100 80 92
0.497713 -0.202729 -0.617 62 35 42
0.49358 -0.2001 -0.609 59 30 34
-0.289656 -0.212496 -0.643 139 142 135
-0.281957 -0.213157 -0.645 131 132 126
-0.277902 -0.213818 -0.647 206 206 204
-0.160333 -0.21481 -0.65 181 181 173
-0.146895 -0.211505 -0.64 185 182 173
-0.145904 -0.211835 -0.641 185 182 173
-0.137623 -0.214149 -0.648 188 188 176
-0.135571 -0.21481 -0.65 188 188 176
0.0813057 -0.197294 -0.597 192 149 140
0.09342 -0.18738 -0.567 211 163 149
0.109114 -0.188371 -0.57 208 161 145
0.112371 -0.188371 -0.57 206 159 143
0.136033 -0.192668 -0.583 151 103 89
0.15782 -0.200599 -0.607 120 85 81
0.1595 -0.20126 -0.609 115 84 81
0.269728 -0.169865 -0.514 146 110 120
0.27453 -0.169204 -0.512 142 107 114
0.283171 -0.168543 -0.51 142 105 112
0.284143 -0.168543 -0.51 143 106 113
0.286086 -0.168543 -0.51 143 107 111
0.32112 -0.16656 -0.504 132 100 103
0.32208 -0.16656 -0.504 134 102 105
0.32304 -0.16656 -0.504 134 102 105
0.33456 -0.16656 -0.504 136 104 109
0.33744 -0.16656 -0.504 191 160 166
0.3384 -0.16656 -0.504 153 122 128
0.436989 -0.172509 -0.522 183 134 117
0.438977 -0.172509 -0.522 182 126 111
0.46898 -0.177466 -0.537 136 96 88
0.478509 -0.179118 -0.542 145 106 101
-0.2795 -0.214386 -0.645 128 129 124
-0.27667 -0.21505 -0.647 189 188 184
-0.0315714 -0.216048 -0.65 79 77 80
0.105671 -0.189125 -0.569 211 164 148
0.118007 -0.18979 -0.571 191 144 126
0.123 -0.190787 -0.574 179 134 115
0.12672 -0.191451 -0.576 172 125 107
0.133353 -0.193113 -0.581 159 110 95
0.142162 -0.196105 -0.59 134 90 87
0.165924 -0.206076 -0.62 117 81 81
0.269794 -0.171509 -0.516 138 106 117
0.274089 -0.170511 -0.513 138 101 109
0.27453 -0.170179 -0.512 139 102 110
0.2822 -0.169514 -0.51 143 106 113
0.283171 -0.169514 -0.51 142 105 112
0.287464 -0.169182 -0.509 142 106 110
0.289403 -0.169182 -0.509 142 106 110
0.297543 -0.16885 -0.508 135 99 103
0.312138 -0.167852 -0.505 132 101 99
0.33264 -0.16752 -0.504 133 101 104
0.383661 -0.16885 -0.508 123 92 97
0.386143 -0.169514 -0.51 121 94 99
0.487429 -0.199429 -0.6 84 50 51
0.476357 -0.194443 -0.585 114 80 81
0.435994 -0.173503 -0.522 188 139 124
0.4495 -0.1745 -0.525 139 96 90
0.45408 -0.175497 -0.528 128 88 86
-0.302657 -0.214611 -0.642 238 243 237
-0.271344 -0.216951 -0.649 247 248 243
-0.0339429 -0.216617 -0.648 76 73 80
0.0834095 -0.193886 -0.58 199 157 143
0.08802 -0.18954 -0.567 209 163 148
0.103322 -0.189874 -0.568 210 163 147
0.110007 -0.190209 -0.569 208 161 143
0.134923 -0.194889 -0.583 152 105 89
0.148646 -0.199903 -0.598 123 85 84
0.181102 -0.216951 -0.649 166 116 125
0.27843 -0.171154 -0.512 141 106 110
0.281229 -0.170486 -0.51 144 109 115
0.2822 -0.170486 -0.51 143 108 114
0.285114 -0.170486 -0.51 141 106 112
0.31791 -0.168814 -0.505 137 103 104
0.32304 -0.16848 -0.504 133 99 100
0.324 -0.16848 -0.504 134 100 101
0.32688 -0.16848 -0.504 131 99 102
0.354269 -0.167811 -0.502 129 94 100
0.362874 -0.167811 -0.502 127 95 98
0.364787 -0.167811 -0.502 123 91 94
0.368611 -0.167811 -0.502 158 126 129
0.507406 -0.211269 -0.632 96 70 79
0.433966 -0.176503 -0.528 166 126 118
0.439971 -0.174497 -0.522 171 114 103
0.474686 -0.180514 -0.54 141 102 97
-0.29486 -0.215498 -0.641 150 155 149
-0.157137 -0.215834 -0.642 183 180 171
-0.146131 -0.215834 -0.642 186 184 172
-0.14212 -0.217179 -0.646 184 184 172
-0.141108 -0.217515 -0.647 187 185 173
0.10314 -0.19062 -0.567 210 163 147
0.124093 -0.192973 -0.574 174 128 112
0.156922 -0.204404 -0.608 117 82 80
0.271302 -0.17381 -0.517 96 70 79
0.292705 -0.170785 -0.508 139 102 109
0.321441 -0.169104 -0.503 131 99 100
0.342519 -0.169104 -0.503 130 98 101
0.344435 -0.169104 -0.503 128 96 99
0.352356 -0.168768 -0.502 129 94 98
0.360962 -0.168768 -0.502 127 95 100
0.362874 -0.168768 -0.502 128 96 101
0.369568 -0.168768 -0.502 183 167 177
0.372436 -0.168768 -0.502 219 199 208
0.375094 -0.169104 -0.503 159 134 140
0.380223 -0.170112 -0.506 120 89 97
0.384416 -0.171121 -0.509 121 90 96
0.391669 -0.173474 -0.516 82 57 63
0.435994 -0.175491 -0.522 188 138 127
0.445795 -0.175828 -0.523 146 96 89
0.464326 -0.179526 -0.534 128 87 81
0.474686 -0.181543 -0.54 136 95 89
-0.301714 -0.216381 -0.64 173 176 169
-0.291962 -0.216381 -0.64 148 150 145
-0.290743 -0.216381 -0.64 147 149 144
-0.148346 -0.216719 -0.641 185 182 173
-0.14212 -0.21841 -0.646 185 185 175
0.10314 -0.1917 -0.567 209 162 146
0.153843 -0.204548 -0.605 115 81 82
0.157438 -0.206238 -0.61 116 80 80
0.1698 -0.213 -0.63 122 80 82
0.270943 -0.176486 -0.522 97 83 96
0.29077 -0.171752 -0.508 142 105 112
0.32016 -0.1704 -0.504 135 104 102
0.33198 -0.170062 -0.503 131 97 98
0.346351 -0.170062 -0.503 130 95 99
0.367655 -0.169724 -0.502 194 165 170
0.373392 -0.169724 -0.502 145 126 132
0.45408 -0.178514 -0.528 128 87 85
-0.2944 -0.2176 -0.64 151 153 148
-0.150317 -0.21726 -0.639 186 183 174
-0.144357 -0.2193 -0.645 184 184 174
-0.140308 -0.22066 -0.649 187 187 177
0.0824467 -0.19754 -0.581 204 161 144
0.08364 -0.19516 -0.574 204 161 144
0.0860114 -0.19312 -0.568 206 163 146
0.0867867 -0.19244 -0.566 203 160 143
0.10746 -0.19278 -0.567 209 164 143
