ply
format ascii 1.0
comment Created by Open3D
element vertex 1303
property double x
property double y
property double z
property uchar red
property uchar green
property uchar blue
end_header
0.355753 -0.161087 -0.511 126 94 97
0.379138 -0.162348 -0.515 115 90 96
0.429943 -0.166446 -0.528 193 146 130
0.434326 -0.165815 -0.526 172 115 104
-0.142241 -0.203289 -0.641 186 186 174
-0.140017 -0.203606 -0.642 188 188 176
0.0482133 -0.14208 -0.448 195 153 137
0.0505467 -0.141446 -0.446 196 153 137
0.0521286 -0.141129 -0.445 197 151 136
0.0604686 -0.140811 -0.444 188 136 122
0.0727971 -0.141763 -0.447 177 126 109
0.0873867 -0.143349 -0.452 144 97 91
0.0992143 -0.146837 -0.463 120 82 79
0.10519 -0.149057 -0.47 111 76 74
0.261771 -0.171257 -0.54 86 63 73
0.262851 -0.170623 -0.538 98 72 81
0.265983 -0.169354 -0.534 128 97 103
0.277553 -0.167134 -0.527 138 103 107
0.300031 -0.164597 -0.519 133 98 102
0.307347 -0.16428 -0.518 134 100 101
0.308333 -0.16428 -0.518 134 100 101
0.315989 -0.163646 -0.516 138 104 105
0.347967 -0.16206 -0.511 129 97 100
0.34894 -0.16206 -0.511 129 97 100
0.43214 -0.167134 -0.527 183 126 115
0.443686 -0.168086 -0.53 138 89 82
0.451103 -0.169354 -0.534 131 84 78
0.472852 -0.172843 -0.545 139 105 95
0.0586448 -0.141338 -0.443 186 138 124
0.0604686 -0.141657 -0.444 185 136 121
0.0719457 -0.142614 -0.447 176 125 108
0.0772267 -0.142933 -0.448 168 116 102
0.09486 -0.146443 -0.459 123 83 81
0.261951 -0.175157 -0.549 98 82 95
0.264937 -0.17101 -0.536 123 93 101
0.26904 -0.169733 -0.532 133 97 99
0.272067 -0.169095 -0.53 134 99 103
0.304387 -0.165267 -0.518 133 98 102
0.308333 -0.165267 -0.518 134 100 101
0.30932 -0.165267 -0.518 134 100 101
0.322596 -0.16399 -0.514 136 101 105
0.323575 -0.16399 -0.514 134 99 103
0.324554 -0.16399 -0.514 133 98 102
0.32847 -0.16399 -0.514 136 101 105
0.356727 -0.163033 -0.511 127 95 98
0.42975 -0.168776 -0.529 194 147 131
0.43214 -0.168138 -0.527 181 124 113
0.438994 -0.168457 -0.528 146 99 93
0.449243 -0.170052 -0.533 131 84 76
0.47476 -0.1742 -0.546 139 102 93
-0.15834 -0.204447 -0.637 179 179 167
-0.144457 -0.20541 -0.64 184 184 172
-0.14146 -0.206372 -0.643 187 187 175
0.0665381 -0.142824 -0.445 183 132 115
0.0719457 -0.143466 -0.447 177 126 109
0.0745 -0.143466 -0.447 173 122 105
0.0791095 -0.144108 -0.449 164 115 101
0.0828981 -0.14475 -0.451 153 105 95
0.0856648 -0.14507 -0.452 145 98 92
0.0927057 -0.146675 -0.457 128 87 83
0.0996429 -0.149243 -0.465 116 78 75
0.102069 -0.150206 -0.468 113 78 74
0.112467 -0.154699 -0.482 115 80 78
0.314023 -0.165611 -0.516 138 103 107
0.317338 -0.16529 -0.515 135 100 104
0.324554 -0.16497 -0.514 135 100 104
0.333694 -0.164649 -0.513 131 99 102
0.340846 -0.164328 -0.512 129 99 101
0.355753 -0.164007 -0.511 128 96 99
0.365743 -0.163686 -0.51 219 200 202
0.369629 -0.163686 -0.51 126 101 105
0.384548 -0.167216 -0.521 51 40 44
0.388016 -0.167858 -0.523 43 37 41
0.442414 -0.178129 -0.555 145 106 111
0.429943 -0.169463 -0.528 188 139 125
0.433324 -0.168821 -0.526 169 111 100
0.449243 -0.171068 -0.533 131 82 77
-0.147651 -0.205983 -0.638 186 184 172
-0.134333 -0.209857 -0.65 192 190 178
0.0449276 -0.147869 -0.458 200 154 139
0.0630057 -0.143349 -0.444 183 134 117
0.0665381 -0.143671 -0.445 183 132 115
0.0745 -0.144317 -0.447 174 122 108
0.0763733 -0.14464 -0.448 172 120 106
0.0907657 -0.147223 -0.456 129 88 84
0.0929086 -0.147869 -0.458 127 86 82
0.0998571 -0.150451 -0.466 115 77 74
0.102287 -0.15142 -0.469 111 76 72
0.114326 -0.156909 -0.486 126 88 85
0.266378 -0.174666 -0.541 87 71 81
0.27655 -0.170146 -0.527 138 103 107
0.30932 -0.16724 -0.518 131 99 100
0.321617 -0.165949 -0.514 136 101 105
0.429943 -0.170469 -0.528 181 132 118
0.434326 -0.169823 -0.526 160 103 94
0.444523 -0.171437 -0.531 132 87 81
0.456706 -0.173374 -0.537 126 77 73
0.4644 -0.174343 -0.54 142 101 95
-0.143686 -0.208497 -0.642 185 185 173
0.0518943 -0.14387 -0.443 195 152 135
0.0543029 -0.143545 -0.442 196 150 134
0.10362 -0.152963 -0.471 110 75 73
0.10631 -0.154262 -0.475 108 73 71
0.267855 -0.17667 -0.544 85 69 82
0.267943 -0.175371 -0.54 81 63 79
0.273569 -0.171799 -0.529 132 97 101
0.275546 -0.17115 -0.527 132 103 107
0.290271 -0.169201 -0.521 139 104 108
0.3034 -0.168227 -0.518 131 99 100
0.31304 -0.167577 -0.516 137 105 106
0.316357 -0.167252 -0.515 138 104 105
0.326854 -0.166603 -0.513 133 98 102
0.342127 -0.165953 -0.511 132 97 101
0.342429 -0.165629 -0.51 130 95 99
0.348257 -0.165629 -0.51 129 97 98
0.361593 -0.165953 -0.511 120 88 89
0.362829 -0.165629 -0.51 189 168 173
0.3638 -0.165629 -0.51 217 202 207
0.437989 -0.171474 -0.528 146 93 85
0.449243 -0.173098 -0.533 125 80 74
0.46629 -0.175696 -0.541 146 99 93
-0.157843 -0.207433 -0.635 181 178 169
-0.156633 -0.207433 -0.635 181 178 169
-0.152034 -0.20776 -0.636 183 181 169
-0.142907 -0.210373 -0.644 186 186 174
0.0478905 -0.145367 -0.445 196 157 142
0.0818571 -0.147 -0.45 154 106 94
0.105405 -0.155167 -0.475 107 72 70
0.113867 -0.159413 -0.488 139 97 101
0.277027 -0.171827 -0.526 134 102 105
0.2795 -0.1715 -0.525 135 103 106
0.293111 -0.16954 -0.519 132 98 99
0.296077 -0.16954 -0.519 135 101 102
0.297066 -0.16954 -0.519 134 100 101
0.308723 -0.168887 -0.517 131 99 100
0.351171 -0.1666 -0.51 128 94 95
0.353114 -0.1666 -0.51 130 98 101
0.361857 -0.1666 -0.51 193 172 177
0.373029 -0.167253 -0.512 114 88 91
0.38036 -0.169213 -0.518 51 37 36
0.428742 -0.172807 -0.529 190 140 131
0.452967 -0.174767 -0.535 133 85 81
0.459606 -0.175747 -0.538 138 91 85
0.472852 -0.178033 -0.545 147 93 91
-0.141108 -0.212586 -0.647 188 186 174
0.0665381 -0.146214 -0.445 182 130 116
0.0858543 -0.148843 -0.453 139 95 86
0.10428 -0.155743 -0.474 112 74 73
0.276069 -0.173486 -0.528 136 104 107
0.2795 -0.1725 -0.525 135 103 106
0.312057 -0.169543 -0.516 137 103 104
0.321617 -0.168886 -0.514 136 102 103
0.33792 -0.168229 -0.512 131 96 100
0.34018 -0.1679 -0.511 133 98 102
0.342429 -0.167571 -0.51 130 95 99
0.352143 -0.167571 -0.51 127 93 94
0.355057 -0.167571 -0.51 128 96 99
0.361857 -0.167571 -0.51 193 172 177
0.457729 -0.176443 -0.537 129 81 77
0.47563 -0.179729 -0.547 145 94 91
-0.296846 -0.214149 -0.648 250 251 246
-0.289887 -0.214479 -0.649 250 251 246
-0.289095 -0.21481 -0.65 251 252 247
-0.141108 -0.213818 -0.647 188 186 173
0.0437667 -0.150367 -0.455 199 157 143
0.0470429 -0.147062 -0.445 196 157 142
0.0719457 -0.147723 -0.447 177 125 111
0.0839429 -0.149375 -0.452 148 101 93
0.0943952 -0.15235 -0.461 119 81 78
0.0967771 -0.153341 -0.464 115 77 74
0.101826 -0.155654 -0.471 110 72 69
0.107429 -0.158629 -0.48 113 75 74
0.2715 -0.179449 -0.543 91 78 85
0.272084 -0.177135 -0.536 84 69 74
0.293111 -0.171517 -0.519 131 97 98
0.299453 -0.171187 -0.518 135 99 101
0.320991 -0.169534 -0.513 137 103 104
0.333044 -0.169204 -0.512 133 98 102
0.334994 -0.169204 -0.512 133 98 102
0.33597 -0.169204 -0.512 133 98 102
0.347286 -0.168543 -0.51 127 95 98
0.363087 -0.168212 -0.509 202 185 193
0.434148 -0.174161 -0.527 161 103 91
0.459606 -0.177796 -0.538 140 92 88
0.478414 -0.181431 -0.549 136 93 86
-0.148346 -0.213056 -0.641 184 182 169
0.0509352 -0.146912 -0.442 193 150 134
0.0656905 -0.14791 -0.445 183 131 117
0.0869086 -0.150901 -0.454 135 91 88
0.0879667 -0.151233 -0.455 133 89 86
0.289279 -0.17317 -0.521 140 105 109
0.297066 -0.172506 -0.519 134 100 101
0.298467 -0.172173 -0.518 134 100 101
0.322946 -0.170511 -0.513 135 100 104
0.33434 -0.169847 -0.511 133 98 102
0.427923 -0.177159 -0.533 191 141 130
0.427329 -0.176494 -0.531 194 144 133
0.436155 -0.175165 -0.527 156 98 84
0.446373 -0.176827 -0.532 135 88 82
0.47563 -0.181812 -0.547 138 94 83
-0.285737 -0.216617 -0.648 251 252 247
-0.282905 -0.217286 -0.65 252 253 248
-0.147354 -0.214611 -0.642 185 183 171
-0.144357 -0.215614 -0.645 184 185 171
-0.0424514 -0.215949 -0.646 73 71 76
0.0500933 -0.147754 -0.442 196 153 137
0.0801429 -0.150429 -0.45 155 105 96
0.082039 -0.150763 -0.451 150 102 92
0.0828981 -0.150763 -0.451 149 102 96
0.0848038 -0.151097 -0.452 140 95 90
0.275147 -0.179177 -0.536 86 69 75
0.287846 -0.174497 -0.522 137 103 104
0.289714 -0.173829 -0.52 139 105 106
0.298467 -0.17316 -0.518 134 100 101
0.301427 -0.17316 -0.518 133 99 98
0.306753 -0.172826 -0.517 133 102 100
0.346605 -0.170151 -0.509 127 93 94
0.348544 -0.170151 -0.509 130 95 99
0.389445 -0.176837 -0.529 54 53 71
0.470083 -0.181517 -0.543 134 97 89
0.0446 -0.149941 -0.446 202 158 145
0.0476752 -0.148932 -0.443 199 155 142
0.0727971 -0.150277 -0.447 175 123 109
0.0860438 -0.15263 -0.454 135 90 87
0.0961 -0.156329 -0.465 117 76 74
0.280565 -0.177172 -0.527 130 99 104
0.308126 -0.173474 -0.516 133 102 100
0.314764 -0.172802 -0.514 136 102 101
0.326217 -0.17213 -0.512 132 97 101
0.366965 -0.171121 -0.509 122 92 92
0.430132 -0.177172 -0.527 168 114 102
0.435151 -0.177172 -0.527 158 101 90
-0.294555 -0.217395 -0.643 138 141 134
-0.162681 -0.21469 -0.635 181 178 171
-0.159757 -0.214014 -0.633 182 179 170
-0.145811 -0.21841 -0.646 183 183 171
-0.144805 -0.218748 -0.647 184 184 172
-0.14278 -0.219424 -0.649 185 185 173
-0.0377038 -0.219424 -0.649 82 77 84
0.0422181 -0.15451 -0.457 201 156 150
0.0569571 -0.149776 -0.443 185 133 119
0.0801429 -0.152143 -0.45 152 104 92
0.092639 -0.155862 -0.461 120 78 79
0.100244 -0.159581 -0.472 112 72 73
0.285409 -0.176824 -0.523 136 102 103
0.286405 -0.176824 -0.523 137 103 104
0.29986 -0.174795 -0.517 132 98 97
0.358239 -0.17209 -0.509 134 103 108
0.365995 -0.17209 -0.509 119 88 93
0.42712 -0.179867 -0.532 185 137 125
0.427329 -0.179529 -0.531 189 141 131
0.434148 -0.178176 -0.527 160 106 94
-0.16562 -0.21658 -0.637 180 180 168
-0.152512 -0.21692 -0.638 184 181 172
-0.0399286 -0.2193 -0.645 76 74 79
0.0613143 -0.15096 -0.444 184 133 114
0.0702429 -0.15198 -0.447 177 128 111
0.07552 -0.15232 -0.448 165 116 101
0.27923 -0.18224 -0.536 88 72 83
0.310848 -0.17476 -0.514 134 103 101
0.313785 -0.17476 -0.514 137 103 102
0.3563 -0.17306 -0.509 139 109 111
0.36938 -0.17374 -0.511 120 90 92
0.42712 -0.18088 -0.532 187 139 127
0.435151 -0.17918 -0.527 152 100 87
0.455005 -0.1819 -0.535 124 84 76
0.456024 -0.1819 -0.535 137 94 87
0.459774 -0.18258 -0.537 143 100 93
-0.30707 -0.219161 -0.641 168 171 164
-0.169366 -0.219503 -0.642 181 179 167
0.052619 -0.151122 -0.442 192 144 130
0.0763733 -0.153173 -0.448 165 116 101
0.0980286 -0.160695 -0.47 112 74 73
0.290705 -0.17779 -0.52 129 99 97
0.29452 -0.177107 -0.518 133 97 99
0.29748 -0.177107 -0.518 132 96 98
0.300845 -0.176765 -0.517 132 98 99
0.305177 -0.176423 -0.516 134 100 101
0.319037 -0.175397 -0.513 131 100 98
0.348827 -0.173688 -0.508 129 95 94
0.445534 -0.181551 -0.531 134 89 83
0.446546 -0.181551 -0.531 129 84 78
-0.300495 -0.220038 -0.64 147 148 143
-0.298057 -0.220038 -0.64 144 145 140
-0.277525 -0.223132 -0.649 251 252 247
-0.163632 -0.217975 -0.634 183 181 169
-0.155424 -0.218319 -0.635 184 182 170
-0.0447038 -0.22107 -0.643 68 65 72
0.052619 -0.151964 -0.442 191 143 129
0.0648429 -0.152995 -0.445 186 135 118
0.0709352 -0.153339 -0.446 176 127 110
0.0727971 -0.153683 -0.447 170 121 104
0.09196 -0.15884 -0.462 115 84 81
0.285995 -0.189439 -0.551 73 62 76
0.283227 -0.182907 -0.532 92 72 81
0.283645 -0.181875 -0.529 91 72 76
0.316106 -0.176374 -0.513 133 101 102
0.332062 -0.174999 -0.509 130 96 95
0.343989 -0.174655 -0.508 128 94 93
0.372528 -0.176718 -0.514 60 47 54
0.457043 -0.183938 -0.535 145 102 96
-0.162169 -0.218837 -0.633 183 180 171
-0.155424 -0.219529 -0.635 184 182 170
-0.14727 -0.223677 -0.647 185 183 171
-0.03882 -0.223677 -0.647 75 72 81
0.041479 -0.155226 -0.449 201 159 145
0.0586448 -0.153151 -0.443 188 139 122
0.0782543 -0.155226 -0.449 154 107 91
0.0843143 -0.156954 -0.454 131 92 85
0.0932419 -0.160411 -0.464 109 78 75
0.0958286 -0.161794 -0.468 111 77 75
0.291134 -0.179426 -0.519 128 93 97
0.29452 -0.17908 -0.518 130 96 95
0.306548 -0.178043 -0.515 133 99 100
0.30791 -0.177697 -0.514 133 99 100
0.309869 -0.177697 -0.514 134 100 101
0.322316 -0.177006 -0.512 129 97 98
0.324943 -0.176314 -0.51 129 97 98
0.350762 -0.175623 -0.508 123 91 94
0.440833 -0.182883 -0.529 139 96 89
0.459939 -0.185303 -0.536 138 95 88
0.46182 -0.185649 -0.537 135 92 85
-0.30394 -0.221433 -0.637 150 151 146
-0.302727 -0.221433 -0.637 154 155 150
-0.274238 -0.225952 -0.65 254 255 250
-0.159505 -0.219695 -0.632 184 181 172
-0.0513019 -0.225605 -0.649 62 62 70
0.287518 -0.18841 -0.542 106 85 94
0.298875 -0.179719 -0.517 131 97 98
0.304586 -0.179024 -0.515 133 99 100
0.320713 -0.177633 -0.511 128 97 95
0.324943 -0.177286 -0.51 129 98 96
0.33497 -0.176938 -0.509 130 96 95
0.337215 -0.17659 -0.508 129 95 94
0.344956 -0.17659 -0.508 126 92 93
0.378593 -0.18111 -0.521 68 60 71
0.42829 -0.186324 -0.536 178 130 120
0.43132 -0.182848 -0.526 162 107 100
0.471117 -0.188757 -0.543 134 91 85
-0.275863 -0.226491 -0.648 251 252 247
-0.0510648 -0.225792 -0.646 60 60 68
-0.0482276 -0.224045 -0.641 67 65 70
0.0441 -0.15414 -0.441 197 153 142
0.0594886 -0.154839 -0.443 190 139 122
0.0975467 -0.164975 -0.472 109 77 80
0.288419 -0.187345 -0.536 98 78 87
0.2941 -0.181403 -0.519 131 95 95
0.311589 -0.178956 -0.512 135 101 100
0.328829 -0.178257 -0.51 130 96 97
0.347859 -0.177558 -0.508 127 93 92
0.360438 -0.177558 -0.508 129 97 100
0.361406 -0.177558 -0.508 122 90 93
0.364056 -0.177908 -0.509 125 93 98
0.368152 -0.178956 -0.512 99 72 79
0.426926 -0.184549 -0.528 182 132 121
0.430318 -0.18385 -0.526 171 114 105
0.44 -0.184549 -0.528 139 94 89
-0.03882 -0.227374 -0.647 75 72 81
0.0465143 -0.154629 -0.44 197 149 135
0.053461 -0.155331 -0.442 191 139 125
0.0561133 -0.155683 -0.443 191 140 123
0.0569571 -0.155683 -0.443 190 139 122
0.06216 -0.156034 -0.444 190 139 122
0.0638514 -0.156034 -0.444 188 137 120
0.080499 -0.158846 -0.452 140 96 87
0.0845 -0.1599 -0.455 129 88 84
0.0880571 -0.161657 -0.46 116 80 80
0.291823 -0.183446 -0.522 101 78 86
0.300662 -0.180986 -0.515 130 96 97
0.334001 -0.178877 -0.509 129 95 96
0.338483 -0.178174 -0.507 128 94 95
0.426926 -0.185554 -0.528 182 132 121
0.44 -0.185554 -0.528 138 93 88
0.457206 -0.187663 -0.534 142 99 93
-0.302251 -0.22472 -0.636 149 148 144
-0.16831 -0.225427 -0.638 183 183 173
-0.16631 -0.224367 -0.635 184 182 170
-0.161912 -0.223307 -0.632 186 184 172
-0.0454286 -0.22472 -0.636 68 65 74
-0.0430733 -0.225073 -0.637 71 68 77
0.0646971 -0.15688 -0.444 188 137 120
0.0672343 -0.15688 -0.444 181 130 113
0.0717848 -0.157587 -0.446 169 120 105
0.0994886 -0.16854 -0.477 123 83 84
0.105069 -0.17172 -0.486 151 102 105
0.292817 -0.18444 -0.522 97 74 80
0.294241 -0.184087 -0.521 113 87 90
0.295089 -0.18338 -0.519 131 101 103
0.326886 -0.1802 -0.51 129 95 94
0.33528 -0.179493 -0.508 127 93 92
0.337215 -0.179493 -0.508 127 93 94
0.342346 -0.17914 -0.507 126 94 95
0.372011 -0.18232 -0.516 66 55 69
0.432911 -0.193273 -0.547 175 124 120
0.43132 -0.185853 -0.526 168 111 104
0.441841 -0.186913 -0.529 141 96 90
-0.307824 -0.225576 -0.635 146 149 142
-0.305405 -0.225576 -0.635 146 147 142
-0.146489 -0.23055 -0.649 187 185 170
-0.04914 -0.226287 -0.637 66 63 72
0.0638514 -0.157726 -0.444 186 137 120
0.0944476 -0.166962 -0.47 109 65 66
0.0994886 -0.169449 -0.477 123 83 84
0.317793 -0.181527 -0.511 131 97 96
0.33141 -0.180461 -0.508 130 96 95
0.336248 -0.180461 -0.508 127 93 92
0.342346 -0.180106 -0.507 125 95 97
0.346209 -0.180106 -0.507 124 94 96
0.371748 -0.183658 -0.517 59 39 51
0.427838 -0.191118 -0.538 189 138 135
0.428314 -0.186855 -0.526 173 120 112
0.46662 -0.191473 -0.539 134 94 94
-0.309754 -0.226429 -0.634 147 152 145
-0.302986 -0.226786 -0.635 146 145 141
-0.03882 -0.231071 -0.647 75 72 81
0.0441 -0.1575 -0.441 199 155 142
0.0448381 -0.157143 -0.44 197 154 137
0.0498667 -0.157143 -0.44 193 144 130
0.0551448 -0.157857 -0.442 193 144 129
0.0586448 -0.158214 -0.443 193 141 127
0.0873705 -0.164643 -0.461 117 79 76
0.0905905 -0.165714 -0.464 112 74 73
0.102792 -0.172857 -0.484 135 94 92
0.294171 -0.188571 -0.528 87 70 78
0.295657 -0.185714 -0.52 99 73 84
0.296648 -0.185714 -0.52 99 73 84
0.308289 -0.183214 -0.513 130 98 99
0.311589 -0.182857 -0.512 132 98 97
0.319114 -0.182143 -0.51 129 95 93
0.320086 -0.182143 -0.51 130 96 94
0.329153 -0.181786 -0.509 129 95 94
0.330123 -0.181786 -0.509 129 95 94
0.432322 -0.187857 -0.526 163 110 96
0.434326 -0.187857 -0.526 149 99 88
0.444864 -0.188929 -0.529 124 79 74
-0.32 -0.22979 -0.64 252 255 248
-0.149503 -0.231945 -0.646 187 185 172
-0.0453571 -0.227995 -0.635 68 66 77
-0.0409019 -0.23015 -0.641 70 69 77
0.0381429 -0.161571 -0.45 202 162 154
0.05082 -0.15834 -0.441 194 145 131
0.0559867 -0.158699 -0.442 194 145 130
0.0663886 -0.159417 -0.444 182 133 119
0.0827667 -0.163367 -0.455 128 87 81
0.0850571 -0.164444 -0.458 123 84 79
0.0933533 -0.168393 -0.469 109 69 69
0.0959514 -0.16983 -0.473 112 76 76
0.10166 -0.17342 -0.483 141 100 106
0.303994 -0.18455 -0.514 131 95 97
0.306334 -0.184191 -0.513 134 98 98
0.330442 -0.182396 -0.508 128 94 93
0.342634 -0.181678 -0.506 120 88 89
0.357797 -0.182037 -0.507 123 94 98
0.428314 -0.188859 -0.526 173 119 107
0.429316 -0.188859 -0.526 170 116 104
0.430318 -0.188859 -0.526 169 115 103
0.432322 -0.188859 -0.526 157 105 92
0.449743 -0.190295 -0.53 149 104 99
0.465754 -0.193168 -0.538 136 97 92
-0.317287 -0.229927 -0.637 250 253 246
-0.166571 -0.229566 -0.636 185 183 171
-0.0567743 -0.23137 -0.641 67 64 75
-0.0442171 -0.229566 -0.636 67 67 77
0.0373686 -0.16279 -0.451 205 162 153
0.304973 -0.18553 -0.514 129 97 100
0.306334 -0.185169 -0.513 133 99 98
0.342634 -0.182642 -0.506 125 91 92
0.343598 -0.182642 -0.506 127 93 94
0.3549 -0.183003 -0.507 152 131 140
0.425113 -0.190222 -0.527 185 132 124
0.439167 -0.190222 -0.527 144 97 89
0.443017 -0.190583 -0.528 145 100 94
0.494025 -0.202855 -0.562 137 96 90
-0.0565086 -0.231503 -0.638 65 63 76
-0.0487543 -0.229326 -0.632 69 65 79
-0.0475505 -0.229326 -0.632 66 66 78
0.04158 -0.16002 -0.441 202 163 156
0.0808552 -0.164737 -0.454 135 92 85
0.322367 -0.184694 -0.509 129 95 93
0.333654 -0.183969 -0.507 128 94 93
0.341957 -0.183243 -0.505 130 96 95
0.372914 -0.188686 -0.52 71 63 74
0.423495 -0.192314 -0.53 192 139 135
0.434326 -0.190863 -0.526 141 92 85
0.491388 -0.202837 -0.559 140 97 91
-0.0562429 -0.231624 -0.635 65 63 77
-0.0549467 -0.231259 -0.634 67 63 78
-0.0475505 -0.23053 -0.632 66 66 78
0.0365095 -0.164508 -0.451 201 161 151
0.0473524 -0.160495 -0.44 201 153 139
0.0481905 -0.160495 -0.44 198 150 136
0.0646971 -0.161954 -0.444 183 136 120
0.0655429 -0.161954 -0.444 181 134 118
0.069081 -0.162319 -0.445 170 123 107
0.0756886 -0.163778 -0.449 149 105 96
0.0854286 -0.16779 -0.46 121 86 84
0.301018 -0.194418 -0.533 101 88 98
0.3009 -0.193689 -0.531 96 83 93
0.318489 -0.185664 -0.509 131 97 96
0.324636 -0.185299 -0.508 129 95 93
0.423704 -0.192959 -0.529 187 137 130
0.425113 -0.19223 -0.527 187 134 126
0.430318 -0.191865 -0.526 162 108 96
0.437159 -0.19223 -0.527 150 103 95
0.441006 -0.192594 -0.528 142 95 87
0.453626 -0.193689 -0.531 141 98 92
-0.321219 -0.234667 -0.64 249 254 247
-0.311185 -0.231733 -0.632 237 243 233
-0.307087 -0.231367 -0.631 128 133 129
-0.170057 -0.234667 -0.64 183 183 173
-0.155429 -0.234667 -0.64 188 186 174
-0.0560657 -0.2321 -0.633 65 63 77
-0.049879 -0.231367 -0.631 67 67 75
-0.0453571 -0.232833 -0.635 67 67 79
0.037719 -0.163167 -0.445 206 164 152
0.0383933 -0.162433 -0.443 206 164 152
0.04074 -0.1617 -0.441 203 165 156
0.0507048 -0.161333 -0.44 195 147 135
0.0738133 -0.164267 -0.448 152 106 90
0.08208 -0.1672 -0.456 128 90 87
0.0833124 -0.167933 -0.458 125 87 84
0.311953 -0.187367 -0.511 131 97 96
0.318489 -0.186633 -0.509 131 97 96
0.325929 -0.1859 -0.507 128 94 92
0.448894 -0.193967 -0.529 127 82 76
0.47963 -0.200933 -0.548 133 92 86
-0.329952 -0.239571 -0.65 251 254 247
-0.311185 -0.232937 -0.632 240 245 238
-0.166833 -0.23478 -0.637 186 184 171
-0.0658305 -0.238097 -0.646 69 66 77
-0.0612733 -0.23478 -0.637 52 50 63
-0.0521171 -0.231831 -0.629 64 64 76
-0.0375876 -0.238466 -0.647 68 68 78
0.0490286 -0.162171 -0.44 198 150 138
0.0568286 -0.162909 -0.442 192 144 130
0.057801 -0.163277 -0.443 191 143 129
0.0977771 -0.177651 -0.482 155 143 153
0.306548 -0.189814 -0.515 128 96 99
0.31098 -0.18834 -0.511 130 96 95
0.331723 -0.186866 -0.507 129 95 94
0.33462 -0.186866 -0.507 129 95 94
0.336851 -0.186497 -0.506 128 94 93
0.340707 -0.186497 -0.506 122 91 96
0.343598 -0.186497 -0.506 127 93 94
0.442011 -0.194606 -0.528 147 100 90
0.47422 -0.200134 -0.543 128 90 81
-0.32395 -0.238216 -0.643 251 253 248
-0.162425 -0.234882 -0.634 188 186 173
-0.0487543 -0.234141 -0.632 68 66 79
-0.0409657 -0.237846 -0.642 70 70 80
-0.0398667 -0.238587 -0.644 69 69 79
0.0354924 -0.166344 -0.449 202 164 153
0.0414857 -0.16301 -0.44 202 164 153
0.0473524 -0.16301 -0.44 198 151 141
0.0490286 -0.16301 -0.44 197 151 138
0.3055 -0.1945 -0.525 97 80 88
0.306753 -0.191536 -0.517 122 91 96
0.307143 -0.191166 -0.516 126 95 100
0.31883 -0.188202 -0.508 130 96 95
0.325929 -0.187831 -0.507 128 94 93
0.335888 -0.187461 -0.506 126 92 91
0.426643 -0.201169 -0.543 168 120 120
0.448894 -0.195982 -0.529 125 80 74
0.463157 -0.198205 -0.535 135 90 85
0.465911 -0.198946 -0.537 131 88 81
0.470571 -0.200057 -0.54 128 90 79
-0.274586 -0.240186 -0.645 251 252 247
-0.162425 -0.23609 -0.634 188 186 173
-0.158091 -0.236834 -0.636 189 187 174
-0.0398667 -0.239813 -0.644 69 69 79
-0.0375876 -0.24093 -0.647 69 69 79
0.0374648 -0.164592 -0.442 201 163 152
0.03906 -0.16422 -0.441 201 163 152
0.0791257 -0.169061 -0.454 129 90 83
0.0836762 -0.171295 -0.46 113 83 83
0.326894 -0.188797 -0.507 128 94 93
0.33396 -0.188425 -0.506 129 95 94
0.428314 -0.195872 -0.526 168 116 103
0.455649 -0.197734 -0.531 138 95 88
0.463157 -0.199224 -0.535 130 91 84
-0.32395 -0.240666 -0.643 250 253 246
-0.275387 -0.24104 -0.644 250 251 245
-0.149966 -0.242537 -0.648 191 189 176
0.0586448 -0.165809 -0.443 191 142 128
0.0665381 -0.166557 -0.445 175 126 111
0.314873 -0.19126 -0.511 129 97 98
0.31655 -0.190511 -0.509 130 96 94
0.329141 -0.189389 -0.506 129 95 94
0.340995 -0.189014 -0.505 126 87 88
0.345805 -0.189014 -0.505 194 173 180
0.351309 -0.189389 -0.506 128 93 99
0.45752 -0.19912 -0.532 140 96 87
-0.313377 -0.238505 -0.634 251 253 248
-0.0759086 -0.243771 -0.648 80 79 85
-0.047701 -0.238505 -0.634 67 67 77
0.0439 -0.165148 -0.439 200 157 148
0.0551448 -0.166276 -0.442 192 142 133
0.0568286 -0.166276 -0.442 191 141 130
0.0852876 -0.174552 -0.464 108 78 78
0.0865429 -0.175305 -0.466 107 77 77
0.0878057 -0.176057 -0.468 107 77 79
0.308671 -0.198252 -0.527 96 80 91
0.308723 -0.19449 -0.517 109 83 86
0.309869 -0.193362 -0.514 129 99 101
0.314873 -0.192233 -0.511 130 98 99
0.31655 -0.191481 -0.509 132 98 97
0.340995 -0.189976 -0.505 132 96 96
0.419457 -0.199381 -0.53 187 138 131
0.424307 -0.197876 -0.526 183 128 123
0.430318 -0.197876 -0.526 158 106 93
0.432322 -0.197876 -0.526 160 108 97
0.434326 -0.197876 -0.526 161 108 102
0.439167 -0.198252 -0.527 139 89 80
0.44017 -0.198252 -0.527 139 90 83
0.442011 -0.198629 -0.528 143 94 87
-0.167881 -0.242359 -0.641 185 185 173
-0.0489086 -0.239712 -0.634 66 66 74
-0.0409657 -0.242737 -0.642 69 69 79
-0.0364676 -0.245384 -0.649 71 71 81
0.0350971 -0.167874 -0.444 203 165 154
0.0439 -0.165984 -0.439 199 156 147
0.0551448 -0.167118 -0.442 191 143 131
0.0761943 -0.170899 -0.452 131 94 88
0.309909 -0.198122 -0.524 90 77 87
0.312564 -0.193585 -0.512 131 95 97
0.315229 -0.192829 -0.51 129 97 98
0.31655 -0.19245 -0.509 131 97 98
0.317863 -0.192072 -0.508 131 97 96
0.323358 -0.191316 -0.506 126 95 93
0.336851 -0.191316 -0.506 125 93 96
0.357971 -0.192829 -0.51 115 90 93
0.420357 -0.202281 -0.535 185 134 131
0.419237 -0.200769 -0.531 188 138 129
0.419457 -0.20039 -0.53 190 140 133
0.42411 -0.199256 -0.527 184 131 125
0.437159 -0.199256 -0.527 135 85 78
0.449051 -0.199634 -0.528 137 90 82
0.478043 -0.206062 -0.545 131 86 80
-0.321721 -0.24358 -0.641 252 253 248
-0.27174 -0.24586 -0.647 253 254 249
-0.270926 -0.24624 -0.648 252 253 248
-0.15272 -0.24472 -0.644 193 191 178
-0.0808457 -0.24624 -0.648 130 129 127
0.0638514 -0.16872 -0.444 177 128 114
0.311452 -0.1957 -0.515 126 95 100
0.322066 -0.19266 -0.507 126 94 95
0.331069 -0.19228 -0.506 125 93 94
0.332032 -0.19228 -0.506 125 93 94
0.337815 -0.19228 -0.506 123 91 94
0.340995 -0.1919 -0.505 122 90 93
0.42411 -0.20026 -0.527 182 129 123
0.442011 -0.20064 -0.528 140 90 83
0.444023 -0.20064 -0.528 131 82 77
0.446034 -0.20064 -0.528 135 86 81
0.450057 -0.20064 -0.528 139 92 84
0.4697 -0.20482 -0.539 123 80 74
-0.270926 -0.247474 -0.648 254 255 250
-0.168405 -0.245565 -0.643 198 200 189
-0.0634867 -0.237927 -0.623 66 66 76
-0.047701 -0.242128 -0.634 65 65 73
0.03654 -0.16842 -0.441 202 164 153
0.0422276 -0.167656 -0.439 200 160 150
0.0481905 -0.168038 -0.44 197 153 142
0.05334 -0.16842 -0.441 194 148 135
0.0787781 -0.17453 -0.457 122 88 89
0.0847676 -0.177968 -0.466 110 79 77
0.312903 -0.200118 -0.524 97 77 88
0.317171 -0.194771 -0.51 128 96 97
0.319798 -0.194008 -0.508 131 95 95
0.33396 -0.193244 -0.506 124 92 93
0.352697 -0.194008 -0.508 123 87 89
-0.315577 -0.244103 -0.636 252 253 248
-0.300826 -0.242951 -0.633 253 254 249
-0.300093 -0.243335 -0.634 247 248 243
-0.294983 -0.244103 -0.636 201 202 197
-0.274586 -0.247557 -0.645 242 243 238
-0.16919 -0.247941 -0.646 213 214 208
-0.159303 -0.244103 -0.636 186 187 173
-0.145476 -0.249476 -0.65 193 191 178
-0.0830571 -0.247941 -0.646 79 76 83
-0.0797229 -0.245254 -0.639 66 65 73
-0.0565476 -0.239881 -0.625 67 67 75
-0.0532305 -0.241032 -0.628 67 67 75
-0.0455 -0.244487 -0.637 66 66 74
0.0321429 -0.172714 -0.45 205 162 153
0.0603324 -0.170028 -0.443 178 129 115
0.0714124 -0.17233 -0.449 142 99 92
0.0837 -0.178471 -0.465 111 77 76
0.313871 -0.199197 -0.519 89 73 84
0.315376 -0.197662 -0.515 122 94 93
0.32625 -0.194208 -0.506 127 93 92
0.344843 -0.193824 -0.505 219 200 204
0.438163 -0.202268 -0.527 131 81 74
-0.28542 -0.246471 -0.639 249 251 248
-0.159052 -0.244929 -0.635 189 190 176
-0.0522 -0.243 -0.63 68 67 75
-0.0352857 -0.250714 -0.65 73 73 83
0.0327067 -0.172029 -0.446 206 162 151
0.0340971 -0.170486 -0.442 204 164 156
0.0430638 -0.169329 -0.439 202 159 150
0.0490286 -0.169714 -0.44 198 151 143
0.0603324 -0.170871 -0.443 176 127 113
0.3165 -0.2025 -0.525 88 76 88
0.315467 -0.200571 -0.52 94 81 91
0.316106 -0.197871 -0.513 123 97 98
0.324322 -0.195171 -0.506 125 94 92
0.421098 -0.203271 -0.527 189 134 131
0.453932 -0.204043 -0.529 147 100 94
-0.150033 -0.249239 -0.643 196 194 182
-0.0862114 -0.248851 -0.642 77 76 82
-0.0714476 -0.240324 -0.62 68 66 77
0.0656905 -0.17249 -0.445 161 113 103
0.06854 -0.173266 -0.447 148 107 101
0.0736114 -0.175204 -0.452 130 95 91
0.0854952 -0.182181 -0.47 107 77 75
0.320428 -0.197298 -0.509 127 95 96
0.42631 -0.203888 -0.526 165 109 96
0.439167 -0.204275 -0.527 138 85 79
0.44519 -0.204275 -0.527 134 85 78
0.448201 -0.204275 -0.527 140 92 88
0.463309 -0.206989 -0.534 126 81 75
0.476289 -0.210477 -0.543 130 87 81
-0.319547 -0.250853 -0.644 252 253 248
-0.302986 -0.247348 -0.635 252 253 248
-0.286313 -0.249685 -0.641 251 253 248
-0.281957 -0.251243 -0.645 248 250 245
-0.27667 -0.252022 -0.647 153 155 152
-0.161471 -0.247348 -0.635 206 206 194
-0.157594 -0.246958 -0.634 193 194 180
-0.0725114 -0.241115 -0.619 69 67 78
-0.0653314 -0.240726 -0.618 66 66 74
-0.0544267 -0.244621 -0.628 67 67 77
-0.0533152 -0.24501 -0.629 67 67 77
-0.051081 -0.24579 -0.631 68 68 78
-0.0477762 -0.247348 -0.635 68 68 78
-0.0410295 -0.250464 -0.643 70 70 80
0.0319286 -0.174117 -0.447 207 163 152
0.03256 -0.172949 -0.444 208 164 153
0.0447362 -0.171001 -0.439 201 158 149
0.0455724 -0.171001 -0.439 200 157 148
0.0780781 -0.178402 -0.458 116 80 82
0.08052 -0.17996 -0.462 113 78 82
0.334262 -0.19671 -0.505 123 91 94
0.33811 -0.19671 -0.505 133 97 99
0.352422 -0.198268 -0.509 120 91 93
0.421098 -0.205279 -0.527 185 128 121
0.432322 -0.20489 -0.526 145 95 84
0.439167 -0.205279 -0.527 139 89 80
0.442178 -0.205279 -0.527 150 101 94
0.468829 -0.209564 -0.538 125 82 75
-0.323762 -0.254429 -0.65 252 253 248
-0.313905 -0.250514 -0.64 252 253 248
-0.286313 -0.250906 -0.641 254 255 251
-0.155179 -0.248166 -0.634 193 194 180
-0.141326 -0.253646 -0.648 194 192 179
-0.140308 -0.254037 -0.649 197 195 182
-0.0955095 -0.253254 -0.647 205 205 203
-0.0747486 -0.241903 -0.618 70 69 77
-0.0675762 -0.241511 -0.617 68 67 75
-0.0653314 -0.241903 -0.618 67 67 75
-0.0352314 -0.254037 -0.649 72 70 81
0.03402 -0.17262 -0.441 204 164 154
0.0586448 -0.173403 -0.443 180 132 122
0.0613143 -0.173794 -0.444 171 123 113
0.0639952 -0.174186 -0.445 164 116 106
0.0686933 -0.17536 -0.448 142 105 99
0.0737743 -0.177317 -0.453 125 91 89
0.320014 -0.200803 -0.513 123 97 100
0.34032 -0.19728 -0.504 203 176 181
0.34224 -0.19728 -0.504 206 180 189
0.3432 -0.19728 -0.504 147 121 130
0.353114 -0.199629 -0.51 116 92 92
0.449205 -0.206283 -0.527 147 100 92
0.468829 -0.210589 -0.538 123 82 76
0.47996 -0.21372 -0.546 130 86 83
-0.30758 -0.250553 -0.637 252 253 248
-0.288305 -0.251733 -0.64 254 255 251
-0.285982 -0.252913 -0.643 254 255 251
-0.166268 -0.255273 -0.649 243 244 239
-0.154934 -0.24898 -0.633 193 193 183
-0.1419 -0.2537 -0.645 196 194 181
-0.0500371 -0.24898 -0.633 68 66 77
-0.0444257 -0.25134 -0.639 68 68 78
0.0304962 -0.177393 -0.451 206 163 154
0.0363743 -0.172673 -0.439 205 162 153
0.0372105 -0.172673 -0.439 204 161 152
0.0568286 -0.173853 -0.442 184 136 126
0.0761667 -0.179753 -0.457 117 87 85
0.323669 -0.199813 -0.508 127 95 100
0.349106 -0.19942 -0.507 120 91 93
0.418319 -0.210433 -0.535 172 122 123
0.41909 -0.207287 -0.527 187 132 125
0.421301 -0.206893 -0.526 182 127 120
0.4315 -0.2065 -0.525 149 96 88
0.4345 -0.2065 -0.525 147 94 86
0.451063 -0.20768 -0.528 153 104 97
0.467957 -0.21122 -0.537 123 84 77
-0.308546 -0.252557 -0.639 252 253 247
-0.297126 -0.252162 -0.638 255 255 253
-0.287207 -0.254138 -0.643 254 255 253
-0.283625 -0.255324 -0.646 253 255 250
-0.2808 -0.256114 -0.648 249 251 246
-0.135571 -0.256905 -0.65 223 217 201
-0.105857 -0.256905 -0.65 241 241 231
-0.0908876 -0.24979 -0.632 69 72 77
-0.0863095 -0.247024 -0.625 65 66 71
-0.0643619 -0.245048 -0.62 70 68 79
0.0295714 -0.177857 -0.45 205 167 158
0.0331048 -0.173905 -0.44 206 166 156
0.05502 -0.1743 -0.441 183 135 125
0.0568286 -0.174695 -0.442 179 131 121
0.323133 -0.204733 -0.518 88 73 80
0.358251 -0.203943 -0.516 69 50 52
0.420171 -0.213429 -0.54 162 117 124
0.417438 -0.209476 -0.53 187 137 128
0.420094 -0.20829 -0.527 189 136 128
0.4275 -0.2075 -0.525 159 106 98
0.441339 -0.207895 -0.526 150 101 94
0.448201 -0.20829 -0.527 151 102 95
0.467957 -0.212243 -0.537 127 90 82
-0.300495 -0.254171 -0.64 252 253 248
-0.289206 -0.254966 -0.642 253 253 251
-0.144766 -0.252583 -0.636 199 200 186
-0.106436 -0.256554 -0.646 231 231 223
-0.0857571 -0.246626 -0.621 62 63 68
-0.081679 -0.245037 -0.617 72 71 77
-0.0666162 -0.245831 -0.619 70 68 81
-0.0612114 -0.247817 -0.624 71 69 80
-0.0523657 -0.250994 -0.632 70 68 79
0.0347019 -0.174346 -0.439 204 164 154
0.0362914 -0.173949 -0.438 203 163 153
0.05334 -0.17514 -0.441 184 137 129
0.0559867 -0.175537 -0.442 179 130 123
0.0803295 -0.185069 -0.466 109 83 84
0.328177 -0.200954 -0.506 127 95 98
0.34224 -0.20016 -0.504 131 102 106
0.4305 -0.2085 -0.525 154 101 95
0.476289 -0.215649 -0.543 130 91 84
0.479081 -0.216443 -0.545 134 93 87
0.483643 -0.218031 -0.549 137 96 90
0.48822 -0.21962 -0.553 133 94 89
-0.306803 -0.256588 -0.643 252 253 248
-0.28247 -0.258982 -0.649 253 253 251
-0.127749 -0.258583 -0.648 228 222 206
-0.120529 -0.258982 -0.649 229 226 209
-0.119292 -0.258982 -0.649 230 227 212
-0.0950971 -0.250602 -0.628 72 70 81
-0.0936019 -0.249804 -0.626 72 70 81
-0.0921143 -0.249006 -0.624 69 67 80
-0.0825857 -0.245414 -0.615 74 73 81
-0.0634867 -0.248607 -0.623 69 69 79
0.03796 -0.174783 -0.438 204 161 152
0.0430638 -0.175182 -0.439 199 156 147
0.0623 -0.177576 -0.445 159 114 108
0.0649886 -0.177975 -0.446 147 106 102
0.0744257 -0.182365 -0.457 114 85 87
0.32849 -0.201519 -0.505 125 93 96
0.3336 -0.20112 -0.504 123 93 95
0.419143 -0.215486 -0.54 158 109 112
0.41652 -0.213091 -0.534 172 118 116
0.420094 -0.210298 -0.527 183 133 126
0.4215 -0.2095 -0.525 176 123 115
0.4295 -0.2095 -0.525 158 105 97
0.4335 -0.2095 -0.525 147 94 86
0.442341 -0.209899 -0.526 147 97 88
-0.313857 -0.260619 -0.65 252 253 247
-0.118557 -0.258614 -0.645 246 242 233
-0.0602152 -0.250996 -0.626 68 68 78
-0.0434114 -0.257411 -0.642 68 68 78
0.0299552 -0.177622 -0.443 207 164 155
0.0307295 -0.177221 -0.442 206 163 154
0.0321933 -0.176018 -0.439 210 163 153
0.0346229 -0.175617 -0.438 206 163 154
0.0631476 -0.178424 -0.445 152 111 105
0.0649886 -0.178825 -0.446 142 103 98
0.32786 -0.203283 -0.507 128 96 99
0.32849 -0.202481 -0.505 125 93 98
0.33677 -0.201679 -0.503 223 192 197
0.338687 -0.201679 -0.503 213 192 191
0.4385 -0.2105 -0.525 141 89 78
0.473504 -0.216915 -0.541 125 88 80
-0.295611 -0.261051 -0.648 253 253 251
-0.133486 -0.257829 -0.64 232 229 220
-0.103635 -0.253397 -0.629 72 71 77
-0.0995638 -0.252189 -0.626 75 74 82
-0.0965581 -0.250577 -0.622 78 77 83
-0.0924057 -0.248966 -0.618 75 74 82
-0.08582 -0.246951 -0.613 73 72 80
-0.0833486 -0.246549 -0.612 72 73 78
-0.0546867 -0.254203 -0.631 65 65 73
-0.0399286 -0.259843 -0.645 67 67 77
0.0354571 -0.176451 -0.438 204 164 154
0.0362914 -0.176451 -0.438 202 162 152
0.0422276 -0.176854 -0.439 200 157 150
0.05166 -0.17766 -0.441 188 140 130
0.0735552 -0.184106 -0.457 114 85 89
0.33072 -0.20304 -0.504 120 90 98
0.34032 -0.20304 -0.504 159 139 138
0.347174 -0.204249 -0.507 111 81 89
0.352549 -0.206263 -0.512 82 66 67
0.419297 -0.211903 -0.526 176 123 117
0.4235 -0.2115 -0.525 166 111 106
0.45494 -0.213111 -0.529 133 86 78
0.46056 -0.21432 -0.532 127 87 79
0.482762 -0.220766 -0.548 123 86 80
-0.159593 -0.261881 -0.647 122 122 120
-0.150361 -0.254595 -0.629 197 197 197
-0.145833 -0.252976 -0.625 230 230 230
-0.143452 -0.252976 -0.625 232 232 232
-0.124757 -0.258643 -0.639 246 247 241
-0.0918076 -0.248524 -0.614 75 74 80
-0.06586 -0.252167 -0.623 70 71 76
-0.0547733 -0.25581 -0.632 70 70 78
-0.0513238 -0.256619 -0.634 71 71 79
-0.0375876 -0.261881 -0.647 70 70 80
-0.0364114 -0.262286 -0.648 71 71 81
0.0313571 -0.17769 -0.439 208 164 151
0.0354571 -0.177286 -0.438 205 165 155
0.0430638 -0.17769 -0.439 200 156 147
0.0448381 -0.178095 -0.44 196 152 143
0.0490286 -0.178095 -0.44 191 143 133
0.0671362 -0.181738 -0.449 131 99 100
0.329143 -0.207238 -0.512 133 114 118
0.331376 -0.204405 -0.505 121 94 99
0.342919 -0.204405 -0.505 121 92 96
0.347859 -0.205619 -0.508 115 89 90
0.4325 -0.2125 -0.525 148 95 87
0.4375 -0.2125 -0.525 142 92 83
0.451212 -0.21331 -0.527 141 92 87
0.482762 -0.22181 -0.548 125 90 84
-0.149163 -0.255793 -0.629 129 130 132
-0.140329 -0.25498 -0.627 235 235 233
-0.128611 -0.257827 -0.634 235 236 231
-0.0832124 -0.248473 -0.611 72 72 80
-0.0779 -0.2501 -0.615 72 72 80
-0.0399286 -0.2623 -0.645 66 66 76
0.06528 -0.182187 -0.448 138 102 102
0.329791 -0.20618 -0.507 122 92 100
0.33264 -0.20496 -0.504 117 90 95
0.414725 -0.216753 -0.533 171 122 117
0.415643 -0.215127 -0.529 176 127 122
0.425688 -0.213093 -0.524 160 107 101
0.4415 -0.2135 -0.525 140 96 85
-0.152273 -0.26026 -0.637 108 110 109
-0.142034 -0.254949 -0.624 200 201 203
-0.140846 -0.254949 -0.624 205 207 206
-0.105013 -0.25168 -0.616 70 69 77
-0.0946952 -0.249229 -0.61 75 74 82
-0.0790714 -0.251271 -0.615 72 73 78
-0.0422543 -0.262711 -0.643 70 70 80
-0.03876 -0.263937 -0.646 69 69 79
0.0337886 -0.178954 -0.438 204 164 156
0.0345438 -0.178546 -0.437 203 163 155
0.05166 -0.18018 -0.441 180 133 125
0.06244 -0.182223 -0.446 149 106 99
0.0654257 -0.183449 -0.449 136 100 100
0.368412 -0.239831 -0.587 93 75 91
0.358651 -0.232069 -0.568 93 79 96
0.33456 -0.20592 -0.504 121 92 96
0.33552 -0.20592 -0.504 121 91 93
0.414725 -0.217769 -0.533 173 124 119
0.42968 -0.214091 -0.524 160 110 101
0.4445 -0.2145 -0.525 152 105 99
0.458683 -0.216951 -0.531 124 91 84
0.491043 -0.226757 -0.555 124 94 86
-0.129731 -0.255316 -0.622 112 114 113
-0.126177 -0.255316 -0.622 86 88 87
-0.0909105 -0.24957 -0.608 75 74 80
-0.08758 -0.24998 -0.609 77 76 82
-0.0738095 -0.254495 -0.62 73 74 79
-0.0683429 -0.256137 -0.624 72 73 78
0.0413914 -0.180199 -0.439 197 154 145
0.0597571 -0.182662 -0.445 156 108 106
0.0757286 -0.190871 -0.465 104 81 89
0.3333 -0.20729 -0.505 124 93 99
0.416828 -0.222068 -0.541 163 114 110
0.42968 -0.21509 -0.524 159 109 100
0.433672 -0.21509 -0.524 156 106 97
0.4395 -0.2155 -0.525 153 100 92
0.4405 -0.2155 -0.525 150 102 92
0.453074 -0.216731 -0.528 127 88 81
0.465195 -0.219605 -0.535 118 85 80
-0.145106 -0.258563 -0.627 108 109 113
-0.114823 -0.252377 -0.612 61 60 68
-0.105791 -0.250315 -0.607 61 60 66
-0.0919171 -0.250315 -0.607 76 75 83
-0.0492171 -0.263099 -0.638 146 146 154
-0.04232 -0.265573 -0.644 75 75 83
-0.0399286 -0.265986 -0.645 68 68 76
0.0297524 -0.181448 -0.44 207 167 159
0.0439 -0.181035 -0.439 191 147 138
0.0722857 -0.189695 -0.46 110 87 95
0.334001 -0.209902 -0.509 132 111 118
0.41418 -0.218974 -0.531 181 128 124
0.420697 -0.216088 -0.524 173 116 109
0.432674 -0.216088 -0.524 153 103 94
0.453074 -0.217737 -0.528 128 91 85
0.469853 -0.221861 -0.538 118 85 80
0.482762 -0.225985 -0.548 124 93 88
-0.132 -0.2552 -0.616 97 96 101
-0.112543 -0.251057 -0.606 57 55 66
-0.0991867 -0.2494 -0.602 69 68 74
-0.0982029 -0.249814 -0.603 71 70 75
-0.083621 -0.254371 -0.614 74 75 79
-0.0717933 -0.2581 -0.623 73 72 80
-0.0606 -0.261 -0.63 71 72 77
-0.0583848 -0.261829 -0.632 72 73 78
-0.043479 -0.266386 -0.643 97 97 105
-0.04232 -0.2668 -0.644 71 71 79
0.0387943 -0.181457 -0.438 195 152 143
0.0647143 -0.186429 -0.45 134 99 97
0.07638 -0.1943 -0.469 102 81 90
0.0804086 -0.197614 -0.477 110 98 112
0.336186 -0.209214 -0.505 116 87 92
0.33811 -0.209214 -0.505 117 91 94
0.360811 -0.217086 -0.524 56 53 62
0.468921 -0.268043 -0.647 69 70 91
0.415643 -0.219157 -0.529 174 119 114
0.423879 -0.216671 -0.523 165 110 103
0.42886 -0.216671 -0.523 160 107 99
0.467957 -0.222471 -0.537 120 85 81
-0.145289 -0.263449 -0.633 110 114 113
-0.105362 -0.248882 -0.598 60 59 67
-0.0988571 -0.249714 -0.6 68 67 75
-0.0978771 -0.25013 -0.601 69 68 76
-0.09292 -0.252211 -0.606 76 75 81
-0.0919171 -0.252628 -0.607 76 75 81
-0.0773524 -0.258038 -0.62 73 74 79
0.0362086 -0.181875 -0.437 201 158 149
0.0490286 -0.183124 -0.44 176 131 125
0.371167 -0.247633 -0.595 94 58 62
0.340543 -0.217251 -0.522 57 48 51
0.4205 -0.2185 -0.525 167 112 105
0.423691 -0.218084 -0.524 163 108 101
0.446349 -0.218916 -0.526 128 90 79
-0.12429 -0.253784 -0.607 68 69 74
-0.113525 -0.250439 -0.599 66 67 72
-0.0959057 -0.252111 -0.603 71 70 78
-0.0891771 -0.255874 -0.612 75 74 82
-0.0584771 -0.264654 -0.633 71 70 78
-0.0469333 -0.267581 -0.64 128 127 135
-0.0376457 -0.270926 -0.648 72 70 81
0.0404629 -0.183126 -0.438 193 149 140
0.0422276 -0.183544 -0.439 191 146 140
0.044 -0.183962 -0.44 188 143 137
0.07172 -0.19316 -0.462 107 84 92
0.36342 -0.23706 -0.567 85 59 70
0.340235 -0.216155 -0.517 63 51 55
0.412694 -0.222845 -0.533 173 122 119
0.4205 -0.2195 -0.525 168 113 108
0.438663 -0.219082 -0.524 152 100 89
0.459694 -0.222009 -0.531 129 89 81
0.479081 -0.227862 -0.545 120 86 77
-0.133822 -0.25998 -0.619 103 104 108
-0.129977 -0.25704 -0.612 99 100 104
-0.125033 -0.2541 -0.605 74 75 80
-0.123676 -0.25368 -0.604 74 75 80
-0.102567 -0.2499 -0.595 49 48 56
-0.0730971 -0.26208 -0.624 73 74 79
-0.0607924 -0.26544 -0.632 71 70 78
0.0413914 -0.18438 -0.439 190 145 139
0.07084 -0.19404 -0.462 109 88 95
0.364334 -0.24234 -0.577 77 40 48
0.364627 -0.24108 -0.574 90 60 68
0.42279 -0.23394 -0.557 151 112 117
0.416079 -0.22134 -0.527 170 115 112
0.417083 -0.22134 -0.527 170 115 110
0.417293 -0.22092 -0.526 172 117 112
0.4195 -0.2205 -0.525 167 109 105
0.470727 -0.22638 -0.539 121 83 74
1.14865 -0.27132 -0.646 201 205 190
-0.13904 -0.266644 -0.632 111 112 114
-0.10638 -0.249346 -0.591 53 54 59
-0.0942295 -0.256096 -0.607 68 67 75
-0.0894686 -0.25905 -0.614 72 71 79
-0.0841657 -0.260737 -0.618 74 74 82
-0.0607924 -0.266644 -0.632 73 72 80
-0.0584771 -0.267066 -0.633 71 70 78
-0.05278 -0.268753 -0.637 72 71 79
0.0303819 -0.184372 -0.437 199 161 150
0.0509352 -0.186482 -0.442 166 121 118
0.0564933 -0.18817 -0.446 155 114 112
0.0794152 -0.203358 -0.482 109 93 104
0.363533 -0.242173 -0.574 77 40 47
0.364446 -0.24133 -0.572 73 48 54
0.34138 -0.213906 -0.507 117 91 94
0.417293 -0.221922 -0.526 168 113 108
0.420697 -0.221078 -0.524 168 113 108
0.423691 -0.221078 -0.524 162 109 101
0.42469 -0.221078 -0.524 163 110 102
0.4435 -0.2215 -0.525 127 85 71
0.452069 -0.222766 -0.528 124 86 75
0.462441 -0.224875 -0.533 122 85 76
0.469853 -0.226985 -0.538 121 83 74
0.483643 -0.231626 -0.549 122 83 78
-0.0962238 -0.256405 -0.605 64 63 71
-0.0789133 -0.264033 -0.623 76 76 84
-0.0744048 -0.264881 -0.625 74 74 82
-0.072139 -0.265305 -0.626 73 74 79
-0.0596829 -0.268271 -0.633 73 72 80
-0.0365238 -0.275476 -0.65 70 69 75
0.0241571 -0.188595 -0.445 204 166 155
0.02562 -0.1869 -0.441 204 166 157
0.0271143 -0.185629 -0.438 203 165 156
0.0752295 -0.200462 -0.473 106 83 93
0.343696 -0.215719 -0.509 115 90 94
-0.115971 -0.252874 -0.594 80 81 86
-0.105254 -0.251597 -0.591 114 115 120
-0.0970543 -0.256706 -0.603 60 59 67
-0.0811562 -0.264794 -0.622 75 74 82
-0.0801 -0.26522 -0.623 76 75 83
-0.0678 -0.2682 -0.63 70 70 78
-0.0643019 -0.268626 -0.631 74 73 79
-0.0516476 -0.271606 -0.638 71 70 76
-0.0492943 -0.272031 -0.639 72 71 77
0.0353762 -0.186037 -0.437 196 153 146
0.364929 -0.249043 -0.585 148 107 115
0.348162 -0.223926 -0.526 69 49 58
0.344517 -0.220946 -0.519 65 45 54
0.342843 -0.219243 -0.515 110 87 93
0.464505 -0.275011 -0.646 63 60 81
0.418087 -0.224351 -0.527 169 114 109
0.431849 -0.222649 -0.523 157 108 93
1.14933 -0.274586 -0.645 202 205 188
-0.107324 -0.252295 -0.59 119 120 125
-0.09804 -0.257427 -0.602 59 57 68
-0.0767857 -0.267262 -0.625 75 75 83
0.0219057 -0.192856 -0.451 206 168 157
0.0647086 -0.194994 -0.456 120 93 102
0.069379 -0.198415 -0.464 108 84 97
0.07866 -0.20654 -0.483 104 86 100
0.364305 -0.24973 -0.584 144 101 108
0.425688 -0.224072 -0.524 161 111 100
0.425871 -0.223645 -0.523 159 109 98
0.429856 -0.223645 -0.523 154 105 90
0.430852 -0.223645 -0.523 152 105 89
0.452069 -0.225783 -0.528 136 94 82
1.15 -0.275387 -0.644 204 206 193
-0.136561 -0.276184 -0.643 114 116 115
-0.134284 -0.274036 -0.638 119 121 120
-0.0998333 -0.257285 -0.599 61 60 66
-0.0857571 -0.266734 -0.621 72 71 79
-0.0528629 -0.274036 -0.638 68 67 73
-0.0516476 -0.274036 -0.638 71 70 76
0.0225124 -0.191568 -0.446 205 167 158
0.0303124 -0.187272 -0.436 198 158 148
0.0605629 -0.193715 -0.451 136 97 102
0.077579 -0.20703 -0.482 103 86 102
0.363214 -0.242681 -0.565 106 67 68
0.348834 -0.22507 -0.524 124 108 111
0.463991 -0.277902 -0.647 66 62 85
0.410933 -0.230225 -0.536 167 109 105
0.412933 -0.228507 -0.532 165 112 108
0.4195 -0.2255 -0.525 160 107 99
0.433841 -0.224641 -0.523 145 97 83
0.464326 -0.229366 -0.534 127 87 77
-0.10696 -0.25368 -0.588 113 114 119
-0.0950057 -0.264034 -0.612 60 58 69
-0.0912286 -0.266623 -0.618 63 61 72
-0.087981 -0.267486 -0.62 68 66 77
-0.08694 -0.267917 -0.621 68 66 77
-0.0505905 -0.276114 -0.64 72 71 77
0.0371257 -0.188966 -0.438 191 146 141
0.0387943 -0.188966 -0.438 190 145 140
0.04578 -0.19026 -0.441 178 130 126
0.07222 -0.203203 -0.471 106 83 93
0.0737381 -0.204929 -0.475 104 81 91
0.363646 -0.243326 -0.564 105 69 71
0.36432 -0.238149 -0.552 81 60 65
0.352114 -0.224343 -0.52 52 42 53
0.410933 -0.231246 -0.536 164 109 104
0.412694 -0.229951 -0.533 165 112 106
0.415863 -0.227794 -0.528 166 113 105
0.430852 -0.225637 -0.523 153 105 93
0.431849 -0.225637 -0.523 153 105 93
0.437665 -0.226069 -0.524 146 98 84
0.469853 -0.232109 -0.538 129 86 77
-0.0903429 -0.268667 -0.62 61 59 70
-0.0826057 -0.2704 -0.624 72 70 81
-0.0620943 -0.2743 -0.633 71 71 81
-0.0586619 -0.275167 -0.635 70 70 78
-0.0460714 -0.2795 -0.645 72 71 77
0.0223105 -0.191533 -0.442 205 167 156
0.0606971 -0.195867 -0.452 125 94 99
0.364791 -0.252633 -0.583 136 93 103
0.361 -0.247 -0.57 141 91 103
0.361497 -0.2444 -0.564 131 85 88
0.414037 -0.238767 -0.551 152 111 107
0.409912 -0.232267 -0.536 164 110 108
0.411434 -0.2314 -0.534 162 112 105
0.425688 -0.227067 -0.524 157 107 98
0.445347 -0.227933 -0.526 138 92 79
0.461573 -0.230533 -0.532 132 90 78
-0.0915238 -0.269848 -0.62 60 58 69
-0.0506695 -0.278988 -0.641 70 70 78
-0.0495257 -0.279423 -0.642 70 70 78
-0.0425829 -0.282034 -0.648 69 68 74
-0.0401762 -0.28247 -0.649 69 68 74
0.0253876 -0.190199 -0.437 200 162 151
0.0484095 -0.192375 -0.442 167 121 121
0.361633 -0.248521 -0.571 144 92 105
0.412534 -0.238946 -0.549 153 108 103
0.416869 -0.229806 -0.528 160 107 101
0.44735 -0.228935 -0.526 142 98 87
0.46898 -0.233723 -0.537 125 85 75
-0.10584 -0.25704 -0.588 104 105 110
-0.0839286 -0.273214 -0.625 66 64 75
-0.0657114 -0.276711 -0.633 73 73 83
0.02142 -0.19278 -0.441 206 168 155
0.0285857 -0.190157 -0.435 197 157 149
0.0631095 -0.199774 -0.457 114 91 101
0.0690857 -0.204583 -0.468 105 81 94
0.360856 -0.246111 -0.563 140 97 104
0.362551 -0.244363 -0.559 120 81 84
0.364029 -0.243926 -0.558 105 69 71
0.36564 -0.242177 -0.554 72 40 45
0.408584 -0.236494 -0.541 163 112 109
0.435669 -0.229063 -0.524 150 101 87
-0.130229 -0.279234 -0.636 114 118 121
-0.120225 -0.265185 -0.604 113 116 121
-0.0738 -0.2766 -0.63 73 71 82
-0.0576333 -0.279673 -0.637 71 71 79
0.0277571 -0.190986 -0.435 198 158 150
0.0371257 -0.192303 -0.438 187 144 138
0.048519 -0.194498 -0.443 162 121 119
0.05032 -0.194937 -0.444 155 113 115
0.0589752 -0.19845 -0.452 128 97 103
0.06454 -0.202401 -0.461 110 87 97
0.0681943 -0.205474 -0.468 104 82 94
0.4425 -0.2305 -0.525 144 96 86
0.457819 -0.232695 -0.53 129 91 80
0.463456 -0.234012 -0.533 121 83 74
0.46898 -0.235769 -0.537 122 84 75
-0.107529 -0.257957 -0.585 103 106 111
-0.0634 -0.279564 -0.634 73 73 81
0.0228905 -0.192696 -0.437 203 163 153
0.0362086 -0.192696 -0.437 189 146 140
0.0388829 -0.193578 -0.439 183 138 133
0.039719 -0.193578 -0.439 183 138 133
0.051281 -0.196224 -0.445 150 108 112
0.361487 -0.246492 -0.559 135 95 96
0.365095 -0.242524 -0.55 70 40 42
0.449129 -0.279123 -0.633 71 61 85
0.409912 -0.23635 -0.536 158 105 97
0.414635 -0.233264 -0.529 158 105 97
0.4235 -0.2315 -0.525 160 110 101
0.436667 -0.231059 -0.524 156 104 93
0.445347 -0.231941 -0.526 138 94 83
0.455948 -0.233264 -0.529 128 88 80
0.461573 -0.234587 -0.532 126 88 79
0.471753 -0.237673 -0.539 122 84 75
0.489273 -0.243847 -0.553 124 87 79
-0.106596 -0.259514 -0.586 99 102 107
-0.0954714 -0.272357 -0.615 64 62 73
-0.0542476 -0.283429 -0.64 71 72 77
-0.0531114 -0.283871 -0.641 70 71 76
0.0175324 -0.198843 -0.449 204 166 157
0.0228905 -0.193529 -0.437 202 162 152
0.0336343 -0.193086 -0.436 190 147 141
0.0602333 -0.2015 -0.455 121 92 97
0.0729886 -0.213457 -0.482 104 82 94
0.365433 -0.255529 -0.577 139 99 107
0.361067 -0.248 -0.56 136 96 97
0.362724 -0.246229 -0.556 125 83 84
0.364221 -0.240914 -0.544 63 36 43
0.469929 -0.285643 -0.645 120 100 109
0.4225 -0.2325 -0.525 158 108 99
0.427864 -0.231614 -0.523 158 105 97
0.437665 -0.232057 -0.524 156 104 93
-0.106414 -0.260186 -0.585 95 98 103
0.0236686 -0.193916 -0.436 199 159 151
0.0261 -0.193471 -0.435 199 156 149
0.0294143 -0.193471 -0.435 192 149 143
0.0458838 -0.196585 -0.442 168 122 122
0.0522457 -0.198364 -0.446 147 105 109
0.0541867 -0.199253 -0.448 141 100 106
0.36556 -0.24284 -0.546 72 41 47
0.37076 -0.24284 -0.546 64 47 55
0.403993 -0.239727 -0.539 158 106 95
0.406318 -0.239282 -0.538 156 106 99
0.4094 -0.237503 -0.534 155 102 96
0.412933 -0.236613 -0.532 148 98 91
0.417874 -0.234834 -0.528 148 95 87
0.4235 -0.2335 -0.525 158 108 97
0.460706 -0.236169 -0.531 127 89 78
0.483806 -0.24373 -0.548 126 88 79
-0.101604 -0.266213 -0.596 86 86 94
-0.04968 -0.287653 -0.644 69 69 77
0.0236686 -0.194747 -0.436 199 159 151
0.0277571 -0.1943 -0.435 197 154 147
0.0303124 -0.194747 -0.436 191 146 141
0.0572533 -0.201893 -0.452 127 96 102
0.362474 -0.247453 -0.554 127 83 82
0.368313 -0.244327 -0.547 56 36 38
0.369355 -0.244327 -0.547 61 41 43
0.374524 -0.245667 -0.55 59 46 56
0.411679 -0.238073 -0.533 151 101 94
0.419297 -0.234947 -0.526 151 98 90
0.422303 -0.234947 -0.526 156 106 95
0.433672 -0.234053 -0.524 156 104 91
0.436667 -0.234053 -0.524 157 104 90
0.453074 -0.23584 -0.528 131 89 77
0.456955 -0.236287 -0.529 128 88 78
