ply
format ascii 1.0
comment Created by Open3D
element vertex 1279
property double x
property double y
property double z
property uchar red
property uchar green
property uchar blue
end_header
0.0725 -0.3915 -0.525 113 93 92
0.436679 -0.425803 -0.571 178 182 193
0.472043 -0.427294 -0.573 114 138 164
0.49192 -0.426549 -0.572 139 143 152
0.469977 -0.366891 -0.492 167 125 103
-0.0276295 -0.323719 -0.433 194 155 124
-0.0268048 -0.323719 -0.433 196 157 126
-0.00874 -0.32671 -0.437 187 146 114
-0.00209524 -0.328952 -0.44 179 135 108
0.0167514 -0.337176 -0.451 157 116 98
0.0332857 -0.34839 -0.466 135 102 87
0.0352114 -0.349886 -0.468 132 100 87
0.03618 -0.350633 -0.469 131 99 88
0.0521171 -0.368576 -0.493 117 94 88
0.0781029 -0.400724 -0.536 111 99 101
0.0860019 -0.414181 -0.554 70 91 138
0.418922 -0.427638 -0.572 184 187 218
0.429066 -0.42689 -0.571 129 140 136
0.453787 -0.427638 -0.572 164 171 177
0.465771 -0.427638 -0.572 159 173 199
0.472309 -0.427638 -0.572 73 96 146
0.485622 -0.42689 -0.571 117 123 149
0.468129 -0.370071 -0.495 169 126 107
0.469977 -0.367829 -0.492 171 126 105
0.472663 -0.364838 -0.488 173 128 107
0.4753 -0.362595 -0.485 172 126 103
0.486386 -0.362595 -0.485 154 113 85
-0.32538 -0.420483 -0.561 228 229 223
-0.32489 -0.421232 -0.562 229 230 224
-0.318467 -0.421232 -0.562 229 230 224
-0.314185 -0.421232 -0.562 229 230 225
-0.0111857 -0.326043 -0.435 192 148 119
-0.00542286 -0.328291 -0.438 184 141 107
0.0221 -0.341033 -0.455 149 110 95
0.0696943 -0.389003 -0.519 114 92 94
0.07378 -0.394999 -0.527 111 91 92
0.439942 -0.427978 -0.571 180 183 188
0.452697 -0.428728 -0.572 177 178 180
0.489972 -0.427978 -0.571 149 161 185
0.49541 -0.427978 -0.571 155 156 161
0.485791 -0.399496 -0.533 148 111 102
0.470837 -0.366517 -0.489 175 130 109
0.481695 -0.36277 -0.484 163 119 94
0.49683 -0.365768 -0.488 160 118 93
0.501574 -0.366517 -0.489 149 107 83
0.582968 -0.410739 -0.548 186 170 157
-0.339271 -0.421551 -0.561 227 230 221
-0.330723 -0.421551 -0.561 227 230 221
-0.306146 -0.421551 -0.561 229 230 224
-0.0358619 -0.332883 -0.443 192 155 128
-0.0193371 -0.324617 -0.432 193 153 118
-0.0185571 -0.325369 -0.433 191 151 116
-0.00376286 -0.329877 -0.439 180 136 109
-0.00125714 -0.330629 -0.44 178 134 109
0.0158571 -0.338143 -0.45 158 116 100
0.0372314 -0.353923 -0.471 132 100 87
0.0499333 -0.3682 -0.49 120 92 88
0.0671952 -0.386986 -0.515 113 93 92
0.413114 -0.428314 -0.57 117 152 194
0.420714 -0.428314 -0.57 124 143 175
0.425057 -0.428314 -0.57 93 112 155
0.431571 -0.428314 -0.57 116 118 117
0.478009 -0.429066 -0.571 47 77 129
0.499761 -0.429066 -0.571 151 157 169
0.470892 -0.368951 -0.491 171 126 105
0.476164 -0.363691 -0.484 175 129 106
0.47893 -0.363691 -0.484 164 119 96
-0.3376 -0.421867 -0.56 227 230 221
-0.305077 -0.42262 -0.561 229 230 224
-0.029279 -0.326193 -0.433 196 157 124
-0.0283886 -0.32544 -0.432 197 158 125
-0.0250971 -0.32544 -0.432 199 161 125
-0.0209829 -0.32544 -0.432 197 157 122
-0.0103571 -0.3277 -0.435 191 148 116
-0.00955048 -0.328453 -0.436 187 146 114
-0.00542286 -0.32996 -0.438 183 139 110
0.010619 -0.335987 -0.446 164 121 104
0.0521171 -0.371393 -0.493 117 92 88
0.430486 -0.4294 -0.57 181 180 186
0.431571 -0.4294 -0.57 132 131 137
0.434066 -0.428647 -0.569 177 180 185
0.43515 -0.428647 -0.569 179 182 187
0.454371 -0.4294 -0.57 172 175 180
0.461971 -0.4294 -0.57 68 80 104
0.492371 -0.4294 -0.57 157 158 162
0.499971 -0.4294 -0.57 126 133 143
-0.339733 -0.422933 -0.56 226 229 218
-0.336533 -0.422933 -0.56 226 229 220
-0.330133 -0.422933 -0.56 226 229 222
-0.320533 -0.422933 -0.56 228 229 223
-0.317333 -0.422933 -0.56 228 229 223
-0.2608 -0.422933 -0.56 228 229 221
-0.0366229 -0.333815 -0.442 191 155 123
-0.0355381 -0.33155 -0.439 195 159 127
-0.0345438 -0.330039 -0.437 196 160 128
-0.0327286 -0.328529 -0.435 196 160 126
-0.02016 -0.326263 -0.432 195 154 124
-0.0144333 -0.327018 -0.433 191 150 120
-0.00952857 -0.328529 -0.435 187 144 110
-0.00707524 -0.330039 -0.437 181 140 108
-0.00125429 -0.33155 -0.439 178 134 109
0.000419048 -0.332305 -0.44 176 131 108
0.00463048 -0.333815 -0.442 169 124 103
0.0229667 -0.343633 -0.455 147 110 94
0.0323286 -0.351186 -0.465 134 100 90
0.0332857 -0.351941 -0.466 134 100 90
0.0352114 -0.353451 -0.468 133 101 90
0.03618 -0.354207 -0.469 132 100 87
0.0392743 -0.357983 -0.474 127 96 91
0.0423371 -0.361004 -0.478 123 94 88
0.382043 -0.42973 -0.569 197 202 208
0.415641 -0.42973 -0.569 131 145 174
0.426479 -0.42973 -0.569 179 187 200
0.447071 -0.42973 -0.569 158 161 166
0.456826 -0.42973 -0.569 172 174 187
0.45791 -0.42973 -0.569 162 168 182
0.462245 -0.42973 -0.569 53 72 114
0.476086 -0.430486 -0.57 26 58 117
0.481514 -0.430486 -0.57 39 72 125
0.491508 -0.42973 -0.569 154 155 159
0.477905 -0.392724 -0.52 144 111 102
0.490081 -0.36629 -0.485 154 110 83
0.516214 -0.373843 -0.495 148 108 83
-0.338062 -0.423243 -0.559 226 229 220
-0.332267 -0.424 -0.56 226 229 222
-0.3088 -0.424 -0.56 228 229 223
-0.0393467 -0.343743 -0.454 188 152 120
-0.0233971 -0.326329 -0.431 191 152 121
-0.0225762 -0.326329 -0.431 194 153 123
-0.0160457 -0.327086 -0.432 189 150 117
-0.01116 -0.3286 -0.434 187 148 117
-0.00624286 -0.330871 -0.437 181 137 108
0.00463048 -0.334657 -0.442 168 126 104
0.0157867 -0.3392 -0.448 158 116 100
0.0294162 -0.349043 -0.461 143 107 91
0.0332143 -0.352071 -0.465 133 101 88
0.0352114 -0.354343 -0.468 130 100 89
0.03618 -0.3551 -0.469 128 98 87
0.0412533 -0.3604 -0.476 125 94 89
0.0554914 -0.377057 -0.498 117 93 89
0.0861571 -0.420214 -0.555 98 113 154
0.470915 -0.430814 -0.569 34 69 127
0.490424 -0.430814 -0.569 153 152 157
0.474403 -0.388414 -0.513 150 114 100
0.471714 -0.384629 -0.508 156 117 100
0.469071 -0.374786 -0.495 170 125 104
0.471769 -0.370243 -0.489 175 128 108
0.49572 -0.367971 -0.486 160 116 91
0.50045 -0.368729 -0.487 157 113 88
-0.335932 -0.424308 -0.559 225 228 219
-0.311443 -0.424308 -0.559 228 229 223
-0.0363743 -0.333222 -0.439 190 154 122
-0.0326533 -0.329427 -0.434 199 160 129
-0.0300343 -0.327909 -0.432 195 159 127
-0.0144333 -0.328668 -0.433 187 148 115
0.000419048 -0.333981 -0.44 174 129 106
0.00888 -0.337017 -0.444 162 119 100
0.00972571 -0.337017 -0.444 162 119 100
0.0114429 -0.337776 -0.445 164 119 100
0.0184695 -0.34233 -0.451 157 115 99
0.0220514 -0.344608 -0.454 147 108 93
0.025679 -0.346885 -0.457 145 108 92
0.0341733 -0.353716 -0.466 132 102 92
0.0454457 -0.365861 -0.482 116 93 85
0.0521171 -0.37421 -0.493 114 93 88
0.0797143 -0.409886 -0.54 115 129 156
0.46576 -0.431139 -0.568 33 71 118
0.481989 -0.431139 -0.568 39 67 117
0.495843 -0.431898 -0.569 166 167 171
0.500381 -0.431139 -0.568 145 151 163
0.470014 -0.375729 -0.495 163 125 104
0.472622 -0.369656 -0.487 170 123 103
0.475242 -0.367379 -0.484 169 121 99
0.49572 -0.368897 -0.486 162 118 91
-0.339127 -0.425372 -0.559 226 229 220
-0.32364 -0.424611 -0.558 227 228 220
-0.311443 -0.425372 -0.559 229 230 225
-0.0352952 -0.331775 -0.436 190 154 122
-0.0258 -0.32721 -0.43 194 155 122
-0.0168686 -0.328731 -0.432 193 152 122
-0.01116 -0.330253 -0.434 187 146 116
-0.00705905 -0.331775 -0.436 182 141 111
-0.00125429 -0.334058 -0.439 177 132 109
0.00125714 -0.334819 -0.44 169 124 101
0.0193714 -0.34395 -0.452 155 113 97
0.0554914 -0.378954 -0.498 116 92 88
0.41742 -0.43146 -0.567 24 64 125
0.42174 -0.43146 -0.567 173 185 201
0.43794 -0.43146 -0.567 124 142 166
0.444122 -0.432221 -0.568 140 154 167
0.47898 -0.43146 -0.567 59 84 138
0.498217 -0.432221 -0.568 165 169 172
0.50058 -0.43146 -0.567 154 158 170
0.5049 -0.43146 -0.567 150 151 153
0.506166 -0.430699 -0.566 153 154 158
0.501286 -0.418524 -0.55 126 105 100
0.47804 -0.394173 -0.518 150 114 102
0.471785 -0.385042 -0.506 161 118 99
0.469986 -0.381237 -0.501 166 124 99
0.47432 -0.368301 -0.484 164 120 95
0.475242 -0.368301 -0.484 168 124 99
0.476164 -0.368301 -0.484 175 129 105
0.507163 -0.372106 -0.489 153 109 84
-0.33852 -0.425674 -0.558 226 229 220
-0.328954 -0.425674 -0.558 226 229 220
-0.327891 -0.425674 -0.558 226 229 220
-0.313011 -0.425674 -0.558 228 229 223
-0.024981 -0.328029 -0.43 194 155 122
-0.0119867 -0.33108 -0.434 188 145 113
0.00631429 -0.337183 -0.442 165 119 103
0.0105714 -0.338709 -0.444 161 118 99
0.0114429 -0.339471 -0.445 161 118 99
0.02754 -0.350151 -0.459 143 105 92
0.0509705 -0.374563 -0.491 114 93 90
0.05538 -0.37914 -0.497 114 93 88
0.0565533 -0.380666 -0.499 115 94 89
0.059881 -0.383717 -0.503 112 93 89
0.0709552 -0.397449 -0.521 107 89 87
0.41958 -0.43254 -0.567 105 137 184
0.46278 -0.43254 -0.567 41 68 113
0.48114 -0.43254 -0.567 88 106 144
0.486176 -0.403551 -0.529 137 111 98
0.4745 -0.38982 -0.511 154 117 101
0.470017 -0.379903 -0.498 168 126 101
0.470006 -0.376851 -0.494 167 130 104
0.469993 -0.376089 -0.493 172 130 106
0.48162 -0.36846 -0.483 168 122 98
0.48346 -0.36846 -0.483 168 122 98
0.491929 -0.369986 -0.485 164 118 94
0.500349 -0.370749 -0.486 162 116 90
-0.321999 -0.425972 -0.557 228 229 223
-0.313011 -0.426737 -0.558 228 229 223
-0.0360429 -0.332671 -0.435 189 153 121
-0.0290762 -0.328848 -0.43 194 158 126
-0.0144 -0.330377 -0.432 189 148 116
0.000418095 -0.33573 -0.439 170 125 102
0.00209524 -0.336495 -0.44 171 126 105
0.00378 -0.33726 -0.441 169 124 105
0.00462 -0.33726 -0.441 167 122 103
0.0266076 -0.350261 -0.458 144 108 92
0.02754 -0.351026 -0.459 142 106 90
0.059881 -0.384675 -0.503 111 92 88
0.0658286 -0.391558 -0.512 110 91 87
0.07378 -0.40303 -0.527 108 90 86
0.44982 -0.43362 -0.567 179 183 182
0.45414 -0.43362 -0.567 150 151 155
0.46818 -0.43362 -0.567 65 97 144
0.47682 -0.43362 -0.567 25 65 114
0.4941 -0.43362 -0.567 167 172 178
0.503119 -0.43209 -0.565 158 159 164
0.504195 -0.43209 -0.565 156 157 162
0.47002 -0.380087 -0.497 167 127 102
0.470892 -0.375498 -0.491 170 128 104
0.471694 -0.372439 -0.487 173 128 105
0.48622 -0.36938 -0.483 160 114 88
0.504161 -0.372439 -0.487 156 110 84
0.524086 -0.380851 -0.498 148 111 84
0.566848 -0.405324 -0.53 144 112 91
1.00747 -0.428267 -0.56 151 156 149
1.02209 -0.429031 -0.561 117 118 112
-0.338974 -0.427033 -0.557 226 229 222
-0.337913 -0.427033 -0.557 225 228 221
-0.316694 -0.427033 -0.557 227 228 222
-0.301841 -0.427033 -0.557 228 229 223
-0.26683 -0.427033 -0.557 229 231 220
-0.0324276 -0.330433 -0.431 195 159 125
-0.0184286 -0.329667 -0.43 191 150 120
-0.0143667 -0.330433 -0.431 188 147 117
0.00377143 -0.337333 -0.44 165 122 103
0.0166771 -0.344233 -0.449 153 114 97
0.0247543 -0.3496 -0.456 145 108 92
0.0266076 -0.351133 -0.458 142 106 90
0.0361029 -0.3588 -0.468 124 96 84
0.0381286 -0.3611 -0.471 121 96 91
0.0401771 -0.3634 -0.474 116 93 87
0.0443429 -0.368 -0.48 117 94 88
0.0508667 -0.375667 -0.49 115 94 89
0.0531638 -0.378733 -0.494 114 93 90
0.0769381 -0.410167 -0.535 107 96 102
0.0831343 -0.4209 -0.549 114 135 178
0.430699 -0.433933 -0.566 181 184 193
0.431777 -0.433933 -0.566 182 187 190
0.44148 -0.433933 -0.566 162 168 184
0.443636 -0.433933 -0.566 175 181 195
0.444714 -0.433933 -0.566 174 178 187
0.460886 -0.433933 -0.566 91 110 143
0.478135 -0.433933 -0.566 107 137 175
0.485682 -0.433933 -0.566 93 101 124
0.491072 -0.433933 -0.566 169 169 177
0.498619 -0.433933 -0.566 162 165 170
0.47188 -0.384867 -0.502 162 120 98
0.470961 -0.382567 -0.499 167 125 101
0.47002 -0.381033 -0.497 166 125 103
0.471694 -0.373367 -0.487 170 125 102
0.47794 -0.3703 -0.483 170 126 101
0.494602 -0.371067 -0.484 167 117 90
0.500243 -0.371833 -0.485 162 115 89
0.507985 -0.374133 -0.488 156 110 86
0.995733 -0.429333 -0.56 151 152 144
-0.337307 -0.427326 -0.556 226 229 222
-0.315067 -0.427326 -0.556 228 229 223
-0.0358771 -0.332791 -0.433 191 155 121
-0.0151876 -0.331254 -0.431 185 146 115
0.01664 -0.34432 -0.448 153 112 94
0.0293524 -0.353543 -0.46 138 104 92
0.0391086 -0.362766 -0.472 119 94 89
0.0443429 -0.368914 -0.48 116 92 88
0.0487 -0.374294 -0.487 114 93 88
0.063379 -0.390434 -0.508 106 88 86
0.423481 -0.434243 -0.565 141 141 151
0.431014 -0.434243 -0.565 186 189 198
0.434243 -0.434243 -0.565 184 185 190
0.438548 -0.434243 -0.565 170 172 184
0.449027 -0.435011 -0.566 175 179 182
0.500967 -0.434243 -0.565 163 162 168
0.502043 -0.434243 -0.565 161 160 166
0.504195 -0.434243 -0.565 148 145 152
0.476404 -0.393509 -0.512 153 118 99
0.475242 -0.371989 -0.484 175 129 105
0.47794 -0.37122 -0.483 171 125 102
0.48806 -0.37122 -0.483 165 118 92
0.499211 -0.371989 -0.484 160 114 90
0.50209 -0.372757 -0.485 158 112 88
0.509844 -0.375063 -0.488 154 110 85
0.516834 -0.378137 -0.492 151 109 85
0.985437 -0.429631 -0.559 144 147 140
0.989696 -0.429631 -0.559 133 134 128
0.997511 -0.431169 -0.561 121 122 117
-0.0387943 -0.337469 -0.438 192 158 121
-0.0183857 -0.330534 -0.429 189 149 114
-0.0119314 -0.332846 -0.432 189 144 113
-0.00868 -0.334387 -0.434 184 139 110
-0.00125143 -0.337469 -0.438 172 127 104
-0.000417143 -0.337469 -0.438 171 126 103
0.05538 -0.382927 -0.497 115 96 92
0.459808 -0.43609 -0.566 89 103 129
0.465452 -0.435319 -0.565 123 149 186
0.475138 -0.435319 -0.565 67 103 153
0.490205 -0.435319 -0.565 134 141 160
0.502043 -0.435319 -0.565 159 159 167
0.473738 -0.38909 -0.505 162 120 98
0.47432 -0.37291 -0.484 174 128 105
0.48806 -0.37214 -0.483 168 120 97
0.510773 -0.375992 -0.488 156 110 86
0.906645 -0.430696 -0.559 199 202 185
0.911467 -0.431467 -0.56 197 200 183
0.9712 -0.431467 -0.56 122 124 119
1.01861 -0.43763 -0.568 100 101 103
1.02078 -0.43763 -0.568 100 101 103
-0.332471 -0.428671 -0.555 227 230 223
-0.318729 -0.428671 -0.555 226 227 221
-0.0248648 -0.330579 -0.428 191 153 117
-0.0240495 -0.330579 -0.428 193 155 119
-0.0183857 -0.331351 -0.429 189 149 114
0.00460952 -0.339848 -0.44 165 123 101
0.01664 -0.346027 -0.448 152 110 94
0.0219543 -0.349116 -0.452 149 110 93
0.02748 -0.35375 -0.458 142 104 91
0.0331429 -0.358385 -0.464 136 105 87
0.0443429 -0.370743 -0.48 115 94 91
0.0646 -0.393914 -0.51 106 90 91
0.429177 -0.435623 -0.564 188 189 194
0.430251 -0.435623 -0.564 189 188 202
0.436697 -0.435623 -0.564 183 186 193
0.444217 -0.435623 -0.564 183 183 193
0.44931 -0.436395 -0.565 180 185 191
0.461148 -0.436395 -0.565 168 172 184
0.50008 -0.435623 -0.564 163 163 173
0.471871 -0.380784 -0.493 170 125 104
0.474429 -0.375377 -0.486 174 128 105
0.477869 -0.372288 -0.482 171 123 101
0.48714 -0.37306 -0.483 168 120 98
0.48898 -0.37306 -0.483 167 119 96
0.4991 -0.37306 -0.483 160 114 90
0.520702 -0.380784 -0.493 151 106 83
0.587991 -0.419403 -0.543 201 185 169
0.924423 -0.435623 -0.564 187 189 175
0.940717 -0.431761 -0.559 155 157 146
0.969067 -0.432533 -0.56 104 106 105
0.97788 -0.434078 -0.562 101 103 102
0.985757 -0.433306 -0.561 105 107 104
1.03047 -0.443347 -0.574 97 98 103
-0.327186 -0.429729 -0.555 227 228 222
-0.325071 -0.429729 -0.555 227 228 222
-0.322957 -0.429729 -0.555 227 228 222
-0.316044 -0.428954 -0.554 227 228 222
-0.304986 -0.429729 -0.555 229 230 224
-0.0375267 -0.335266 -0.433 190 154 120
-0.0306429 -0.332169 -0.429 199 161 125
-0.00455714 -0.336814 -0.435 176 130 106
0.0157514 -0.346106 -0.447 151 109 93
0.0256229 -0.353074 -0.456 144 104 92
0.0292886 -0.355397 -0.459 141 105 89
0.0443429 -0.371657 -0.48 115 91 87
0.0453514 -0.372431 -0.481 116 92 88
0.0586886 -0.387917 -0.501 112 94 94
0.442069 -0.436697 -0.564 183 180 189
0.448233 -0.437471 -0.565 180 183 192
0.456843 -0.437471 -0.565 76 93 113
0.471074 -0.436697 -0.564 71 98 143
0.473223 -0.436697 -0.564 93 121 168
0.48504 -0.436697 -0.564 142 150 171
0.497931 -0.436697 -0.564 166 166 176
0.495472 -0.416566 -0.538 127 103 101
0.4718 -0.3794 -0.49 176 131 110
0.471769 -0.378626 -0.489 170 125 104
0.471694 -0.377077 -0.487 171 126 105
0.472622 -0.377077 -0.487 170 125 104
0.4761 -0.37398 -0.483 177 129 106
0.480623 -0.373206 -0.482 172 124 101
0.495312 -0.373206 -0.482 162 114 92
0.514614 -0.378626 -0.489 156 112 87
0.521641 -0.381723 -0.493 151 109 84
0.948057 -0.436697 -0.564 131 131 123
0.963317 -0.434374 -0.561 112 112 102
-0.32132 -0.43001 -0.554 227 228 222
-0.320265 -0.43001 -0.554 227 228 222
-0.0540505 -0.427681 -0.551 191 155 121
-0.03146 -0.332986 -0.429 197 159 123
-0.02806 -0.331433 -0.427 192 154 118
-0.0239933 -0.331433 -0.427 194 154 119
-0.0183429 -0.33221 -0.428 191 148 114
0.0131381 -0.345405 -0.445 156 115 95
0.0148667 -0.346181 -0.446 153 112 94
0.0265495 -0.354719 -0.457 141 103 92
0.0351362 -0.362481 -0.467 130 100 90
0.0443429 -0.372571 -0.48 114 90 88
0.0530562 -0.382662 -0.493 114 93 90
0.0575038 -0.387319 -0.499 112 94 94
0.0699629 -0.404395 -0.521 102 86 86
0.0786857 -0.419143 -0.54 78 100 141
0.427344 -0.436995 -0.563 191 192 197
0.440212 -0.436995 -0.563 187 182 189
0.458183 -0.437771 -0.564 112 119 135
0.469167 -0.436995 -0.563 93 117 163
0.473456 -0.436995 -0.563 79 113 151
0.489337 -0.437771 -0.564 57 79 103
0.500266 -0.436995 -0.563 160 160 170
0.5058 -0.436219 -0.562 138 147 164
0.471851 -0.381886 -0.492 169 127 102
0.486131 -0.374124 -0.482 167 119 96
0.49623 -0.374124 -0.482 161 114 88
0.904011 -0.437771 -0.564 179 181 170
0.946269 -0.448638 -0.578 148 148 138
0.97686 -0.4401 -0.567 110 107 102
-0.32706 -0.430287 -0.553 226 229 222
-0.318633 -0.430287 -0.553 227 228 222
-0.306547 -0.431065 -0.554 228 229 223
-0.304436 -0.431065 -0.554 228 229 223
-0.03744 -0.336137 -0.432 188 152 118
-0.0119038 -0.335359 -0.431 185 142 108
-0.00866 -0.336915 -0.433 180 135 104
-0.00290667 -0.33925 -0.436 168 126 101
0.00798 -0.34314 -0.441 157 115 93
0.0175324 -0.349365 -0.449 148 109 94
0.0302286 -0.357924 -0.46 137 104 85
0.0391086 -0.367261 -0.472 118 94 90
0.0788314 -0.42095 -0.541 92 111 151
0.081939 -0.426396 -0.548 116 134 172
0.452811 -0.438846 -0.564 78 100 123
0.46595 -0.438068 -0.563 78 105 150
0.476897 -0.43729 -0.562 114 121 140
0.480963 -0.438068 -0.563 169 173 185
0.48418 -0.438068 -0.563 164 168 177
0.497931 -0.438846 -0.564 164 164 176
0.499006 -0.438846 -0.564 156 156 168
0.482917 -0.403831 -0.519 136 110 97
0.477457 -0.396829 -0.51 151 116 97
0.473803 -0.389826 -0.501 164 122 98
0.47286 -0.386713 -0.497 169 126 94
0.477869 -0.375042 -0.482 170 124 98
0.479705 -0.375042 -0.482 172 126 100
0.49623 -0.375042 -0.482 164 117 91
0.511457 -0.378154 -0.486 156 110 86
0.964805 -0.439624 -0.565 111 112 106
-0.32706 -0.43134 -0.553 228 229 223
-0.326007 -0.43134 -0.553 228 229 223
-0.0551 -0.42978 -0.551 189 153 121
-0.0347286 -0.33462 -0.429 194 155 122
-0.0263714 -0.33228 -0.426 189 149 114
-0.0158971 -0.33384 -0.428 186 143 109
0.00544762 -0.3432 -0.44 161 119 97
0.0131381 -0.3471 -0.445 155 114 96
0.0175324 -0.35022 -0.449 149 109 97
0.0264914 -0.35568 -0.456 142 104 93
0.0283524 -0.35724 -0.458 139 106 91
0.0391086 -0.36816 -0.472 119 95 91
0.04646 -0.37674 -0.483 112 91 88
0.431937 -0.43836 -0.562 193 194 199
0.461406 -0.43992 -0.564 175 180 186
0.489542 -0.43914 -0.563 119 126 145
0.507037 -0.43758 -0.561 108 121 140
0.483848 -0.4056 -0.52 134 108 93
0.473452 -0.3783 -0.485 172 128 103
0.473398 -0.37752 -0.484 173 129 104
0.485123 -0.37518 -0.481 174 124 101
0.494285 -0.37518 -0.481 166 118 95
0.987827 -0.44772 -0.574 102 104 93
0.993463 -0.44928 -0.576 104 101 92
-0.31126 -0.432393 -0.553 227 228 222
-0.302833 -0.432393 -0.553 228 229 223
-0.0288057 -0.333091 -0.426 190 150 115
-0.00701048 -0.338565 -0.433 174 130 105
0.00125143 -0.342474 -0.438 166 124 102
0.00208571 -0.342474 -0.438 168 126 104
0.00628571 -0.344038 -0.44 160 118 96
0.0302286 -0.359676 -0.46 136 104 89
0.0400924 -0.369841 -0.473 118 94 90
0.0685733 -0.405027 -0.518 104 86 84
0.0699629 -0.407372 -0.521 99 87 91
0.0727762 -0.412064 -0.527 96 91 98
0.0791229 -0.424574 -0.543 101 117 150
0.466192 -0.43943 -0.562 98 123 163
0.475827 -0.43943 -0.562 82 101 131
0.485461 -0.43943 -0.562 170 172 184
0.492954 -0.43943 -0.562 91 103 125
0.494025 -0.43943 -0.562 118 130 156
0.472843 -0.387043 -0.495 168 124 99
0.472733 -0.383133 -0.49 170 126 101
0.47432 -0.378442 -0.484 172 128 103
0.480542 -0.376096 -0.481 175 128 102
0.481458 -0.376096 -0.481 170 123 97
0.487871 -0.376096 -0.481 171 121 98
0.493369 -0.376096 -0.481 166 118 95
0.500698 -0.376096 -0.481 160 114 88
0.836561 -0.435521 -0.557 198 200 186
0.839744 -0.435521 -0.557 196 198 184
0.871572 -0.435521 -0.557 164 163 158
-0.330674 -0.432663 -0.552 226 227 221
-0.309646 -0.432663 -0.552 228 229 223
-0.03294 -0.334687 -0.427 196 155 123
-0.0142667 -0.33547 -0.428 187 143 114
-0.0118762 -0.337038 -0.43 183 139 110
-0.00372 -0.340173 -0.434 174 129 106
0.00208571 -0.343309 -0.438 167 125 103
0.0105476 -0.347228 -0.443 155 113 97
0.0122629 -0.348011 -0.444 153 114 99
0.0264914 -0.357417 -0.456 141 105 93
0.035061 -0.365255 -0.466 126 97 89
0.0431571 -0.373877 -0.477 117 93 89
0.0563267 -0.389553 -0.497 112 91 90
0.0776571 -0.423257 -0.54 105 121 146
0.442642 -0.440501 -0.562 179 183 195
0.444783 -0.440501 -0.562 174 178 190
0.449864 -0.441285 -0.563 133 143 168
0.466192 -0.440501 -0.562 100 124 160
0.470706 -0.439717 -0.561 141 161 185
0.473911 -0.439717 -0.561 99 119 146
0.477117 -0.439717 -0.561 126 142 167
0.496166 -0.440501 -0.562 98 116 152
0.484838 -0.407581 -0.52 135 107 93
0.472763 -0.38485 -0.491 169 125 98
0.478787 -0.377796 -0.482 173 127 101
0.484207 -0.377012 -0.481 172 125 99
0.49062 -0.377012 -0.481 167 119 96
0.50738 -0.37858 -0.483 163 114 84
0.844889 -0.43815 -0.559 180 182 171
0.847018 -0.43815 -0.559 178 180 169
0.850817 -0.437366 -0.558 172 174 163
0.856131 -0.437366 -0.558 163 165 154
0.864533 -0.438933 -0.56 158 159 151
-0.315382 -0.432929 -0.551 226 227 221
-0.289669 -0.433714 -0.552 227 228 220
-0.282309 -0.433714 -0.552 228 229 223
-0.0255 -0.333929 -0.425 190 145 114
-0.00207143 -0.341786 -0.435 172 128 103
0.00124857 -0.343357 -0.437 167 125 101
0.00884 -0.347286 -0.442 149 110 93
0.0148667 -0.350429 -0.446 149 112 94
0.0255667 -0.3575 -0.455 142 104 93
0.0264914 -0.358286 -0.456 141 105 93
0.0431571 -0.374786 -0.477 117 93 91
0.0452571 -0.377143 -0.48 111 90 87
0.0496276 -0.382643 -0.487 113 92 91
0.0585714 -0.392857 -0.5 111 90 89
0.46084 -0.441571 -0.562 177 181 192
0.470706 -0.440786 -0.561 153 170 190
0.4848 -0.44 -0.56 172 172 180
0.501694 -0.440786 -0.561 61 84 115
0.48943 -0.413286 -0.526 134 106 92
0.473631 -0.384214 -0.489 167 123 96
0.474477 -0.382643 -0.487 170 124 98
0.475242 -0.380286 -0.484 174 128 102
0.492452 -0.377929 -0.481 167 120 94
0.500698 -0.377929 -0.481 161 116 87
0.527275 -0.387357 -0.493 152 108 79
0.862871 -0.440786 -0.561 130 130 122
-0.314332 -0.433978 -0.551 226 227 221
-0.25346 -0.433978 -0.551 228 230 219
-0.0568876 -0.431615 -0.548 191 157 122
-0.0328629 -0.335526 -0.426 195 154 124
-0.01586 -0.336313 -0.427 188 143 112
-0.00941905 -0.338676 -0.43 178 134 107
0.00208095 -0.34419 -0.437 167 124 105
0.00970381 -0.348915 -0.443 152 113 96
0.0122629 -0.349703 -0.444 153 114 97
0.0148667 -0.351278 -0.446 151 112 95
0.0192429 -0.353641 -0.449 144 105 90
0.0292248 -0.36073 -0.458 142 104 91
0.0495257 -0.382783 -0.486 114 93 92
0.0539952 -0.388296 -0.493 109 89 88
0.454677 -0.441854 -0.561 183 185 184
0.466431 -0.441854 -0.561 123 144 173
0.4688 -0.441067 -0.56 142 160 182
0.499733 -0.441067 -0.56 75 97 146
0.487635 -0.411925 -0.523 132 106 93
0.483074 -0.406411 -0.516 137 107 96
0.481243 -0.404049 -0.513 142 106 94
0.47471 -0.389084 -0.494 170 126 101
0.4761 -0.38042 -0.483 173 128 99
0.476032 -0.379632 -0.482 171 127 98
0.487871 -0.378845 -0.481 172 125 97
0.492452 -0.378845 -0.481 167 120 92
0.494285 -0.378845 -0.481 169 122 94
0.498743 -0.378057 -0.48 163 116 90
0.512118 -0.381208 -0.484 158 113 84
0.588793 -0.424527 -0.539 186 171 150
0.803288 -0.437916 -0.556 191 193 182
0.813878 -0.437916 -0.556 184 185 177
0.817055 -0.437916 -0.556 182 185 176
0.8368 -0.441067 -0.56 142 141 136
0.846843 -0.441854 -0.561 131 131 123
0.851564 -0.442642 -0.562 129 129 121
-0.323778 -0.435028 -0.551 226 227 221
-0.309571 -0.434238 -0.55 226 227 221
-0.0352971 -0.336337 -0.426 199 158 126
-0.0344857 -0.336337 -0.426 196 155 125
-0.0214524 -0.335548 -0.425 190 145 116
-0.0166733 -0.337127 -0.427 188 143 112
0.0139857 -0.351338 -0.445 151 112 97
0.0166029 -0.352917 -0.447 148 109 94
0.0201429 -0.355286 -0.45 143 106 90
0.0237286 -0.357654 -0.453 143 107 95
0.0264333 -0.359233 -0.455 141 105 91
0.0462676 -0.379761 -0.481 112 93 89
0.0562133 -0.391604 -0.496 108 87 86
0.0585714 -0.394762 -0.5 108 88 87
0.0702314 -0.412921 -0.523 96 88 85
0.07476 -0.421606 -0.534 150 146 169
0.0763448 -0.424764 -0.538 136 149 181
0.463467 -0.442133 -0.56 85 110 150
0.464533 -0.442133 -0.56 103 128 168
0.477333 -0.442133 -0.56 103 119 142
0.481805 -0.441344 -0.559 174 179 183
0.475709 -0.393183 -0.498 165 120 97
0.474477 -0.384498 -0.487 169 123 97
0.475405 -0.384498 -0.487 167 121 95
0.475354 -0.383709 -0.486 174 128 102
0.493369 -0.379761 -0.481 168 121 93
0.505279 -0.379761 -0.481 163 116 88
0.580133 -0.420027 -0.532 139 113 88
0.818525 -0.439765 -0.557 159 160 152
0.821708 -0.439765 -0.557 155 156 148
0.867948 -0.446081 -0.565 119 116 109
-0.329026 -0.436077 -0.551 226 227 221
-0.253 -0.435286 -0.55 229 231 220
-0.0424752 -0.342689 -0.433 189 150 117
-0.0190238 -0.336357 -0.425 189 144 111
-0.0118486 -0.339523 -0.429 180 136 107
-0.000414286 -0.344271 -0.435 167 125 103
0.00124571 -0.345063 -0.436 164 121 102
0.00458857 -0.346646 -0.438 159 118 100
0.0527333 -0.3878 -0.49 110 90 89
0.0550457 -0.390966 -0.494 110 89 88
0.0733286 -0.420249 -0.531 145 142 163
0.454933 -0.4432 -0.56 167 176 173
0.457067 -0.4432 -0.56 188 191 196
0.463467 -0.4432 -0.56 87 112 153
0.463704 -0.442409 -0.559 108 133 174
0.470933 -0.4432 -0.56 149 170 197
0.486064 -0.442409 -0.559 178 176 187
0.5031 -0.442409 -0.559 33 60 113
0.484057 -0.408377 -0.516 139 106 91
0.475405 -0.385426 -0.487 172 127 98
0.4753 -0.383843 -0.485 173 129 102
0.479626 -0.380677 -0.481 173 127 103
0.507111 -0.380677 -0.481 160 113 85
0.81401 -0.442409 -0.559 144 144 136
0.840211 -0.445574 -0.563 117 114 107
0.8475 -0.447157 -0.565 122 122 114
0.870392 -0.449531 -0.568 119 119 111
-0.333667 -0.436333 -0.55 225 226 218
-0.320048 -0.436333 -0.55 226 227 221
-0.295952 -0.436333 -0.55 227 228 220
-0.287571 -0.436333 -0.55 228 229 221
-0.284429 -0.436333 -0.55 227 228 222
-0.0435 -0.3451 -0.435 190 151 118
-0.0360238 -0.337167 -0.425 195 154 122
-0.0352143 -0.337167 -0.425 197 156 124
-0.0344048 -0.337167 -0.425 196 155 123
-0.0286705 -0.336373 -0.424 192 152 116
-0.0238248 -0.336373 -0.424 186 146 110
-0.0166343 -0.33796 -0.426 186 141 108
-0.00206667 -0.344307 -0.434 165 125 100
0.00628571 -0.349067 -0.44 160 119 99
0.0113914 -0.351447 -0.443 156 114 98
0.0192429 -0.356207 -0.449 144 106 95
0.0227648 -0.357793 -0.451 144 107 98
0.0273 -0.360967 -0.455 140 102 91
0.0409933 -0.375247 -0.473 116 92 90
0.0461714 -0.3808 -0.48 113 92 89
0.0472819 -0.382387 -0.482 112 91 88
0.0494238 -0.384767 -0.485 111 90 89
0.0662143 -0.408567 -0.515 98 82 82
0.0703657 -0.415707 -0.524 95 89 93
0.445333 -0.444267 -0.56 62 97 151
0.4624 -0.444267 -0.56 82 116 151
0.484999 -0.443473 -0.559 172 177 183
0.489258 -0.443473 -0.559 167 177 189
0.494582 -0.443473 -0.559 49 78 120
0.484995 -0.410153 -0.517 136 107 93
0.475709 -0.39508 -0.498 162 120 98
0.475651 -0.391907 -0.494 169 124 101
0.474663 -0.39032 -0.492 168 126 102
0.479705 -0.382387 -0.482 175 129 103
0.482374 -0.381593 -0.481 172 125 99
0.511838 -0.382387 -0.482 159 114 83
0.788461 -0.441093 -0.556 139 138 133
0.830814 -0.44506 -0.561 118 115 108
0.844271 -0.448233 -0.565 114 114 106
0.847922 -0.449027 -0.566 119 119 111
0.85482 -0.44982 -0.567 118 118 110
0.8559 -0.44982 -0.567 116 116 108
0.85806 -0.44982 -0.567 110 110 102
-0.330969 -0.436586 -0.549 225 226 220
-0.329923 -0.436586 -0.549 226 227 221
-0.0376429 -0.337976 -0.425 189 148 116
-0.031901 -0.337181 -0.424 193 153 118
-0.0286705 -0.337181 -0.424 192 152 116
-0.0237686 -0.336386 -0.423 187 147 111
-0.0198333 -0.337976 -0.425 185 142 108
-0.0086 -0.341952 -0.43 175 132 100
0.00374571 -0.347519 -0.437 161 120 98
0.0227648 -0.358652 -0.451 144 108 96
0.0273 -0.361833 -0.455 141 103 90
0.0792686 -0.43261 -0.544 81 96 129
0.439491 -0.443743 -0.558 117 145 192
0.453867 -0.445333 -0.56 189 188 184
0.482006 -0.443743 -0.558 169 175 175
0.48732 -0.443743 -0.558 175 176 181
0.495823 -0.443743 -0.558 38 61 111
0.501327 -0.430224 -0.541 110 95 90
0.495013 -0.423067 -0.532 120 101 95
0.481343 -0.405571 -0.51 140 111 95
0.475628 -0.392052 -0.493 172 126 103
0.474633 -0.390462 -0.491 170 124 101
0.477086 -0.384895 -0.484 175 129 103
0.47886 -0.3841 -0.483 175 128 102
0.485123 -0.38251 -0.481 172 125 97
0.485943 -0.381714 -0.48 173 126 98
0.493142 -0.380919 -0.479 170 123 97
0.502266 -0.380919 -0.479 163 116 86
0.507886 -0.381714 -0.48 160 115 84
0.798039 -0.444538 -0.559 102 101 96
0.802667 -0.445333 -0.56 101 100 95
0.814097 -0.446924 -0.562 120 119 114
0.816238 -0.446924 -0.562 118 117 112
0.825471 -0.446129 -0.561 111 112 104
0.835921 -0.447719 -0.563 113 113 105
-0.287049 -0.437631 -0.549 226 227 219
-0.035939 -0.337989 -0.424 196 156 121
-0.0245743 -0.337191 -0.423 189 149 114
0.0045781 -0.348351 -0.437 162 121 101
0.0113657 -0.352337 -0.442 153 114 97
0.0131086 -0.353931 -0.444 149 110 95
0.0245371 -0.360309 -0.452 143 106 90
0.0300971 -0.365091 -0.458 137 101 87
0.0349105 -0.369874 -0.464 124 95 87
0.0537762 -0.391397 -0.491 111 90 89
0.0622886 -0.404151 -0.507 104 86 84
0.455186 -0.445603 -0.559 191 195 196
0.457315 -0.445603 -0.559 197 193 190
0.459445 -0.445603 -0.559 156 155 160
0.485386 -0.444009 -0.557 180 181 186
0.48504 -0.411326 -0.516 132 102 91
0.476664 -0.397774 -0.499 161 116 97
0.476614 -0.394586 -0.495 167 121 98
0.494054 -0.381831 -0.479 168 121 93
0.51658 -0.38502 -0.483 154 111 79
0.836331 -0.449589 -0.564 121 120 115
0.882651 -0.459154 -0.576 123 120 113
0.89099 -0.462343 -0.58 121 121 111
-0.327831 -0.438677 -0.549 225 226 218
-0.323649 -0.438677 -0.549 226 227 219
-0.0393543 -0.340394 -0.426 188 146 108
-0.0335162 -0.338796 -0.424 196 153 118
-0.0213514 -0.337997 -0.423 188 149 110
-0.0205943 -0.338796 -0.424 187 148 109
-0.0150114 -0.340394 -0.426 179 134 103
-0.0101905 -0.341992 -0.428 175 131 102
-0.00858 -0.342791 -0.429 173 129 100
-0.00451524 -0.34439 -0.431 169 128 98
0.0200533 -0.357973 -0.448 144 106 95
0.0515886 -0.389935 -0.488 112 91 90
0.0607181 -0.401122 -0.502 106 87 83
0.0730524 -0.422696 -0.529 88 95 124
0.438704 -0.44507 -0.557 60 94 155
0.444806 -0.445869 -0.558 80 115 169
0.465 -0.445869 -0.558 84 118 164
0.470314 -0.445869 -0.558 72 108 158
0.474776 -0.44507 -0.557 70 104 152
0.493873 -0.44507 -0.557 67 98 145
0.498117 -0.44507 -0.557 29 59 111
0.499178 -0.44507 -0.557 32 62 114
0.47794 -0.38594 -0.483 169 123 97
0.839297 -0.452261 -0.566 122 122 114
0.845913 -0.454658 -0.569 119 120 114
0.875213 -0.458653 -0.574 108 109 101
0.888351 -0.462649 -0.579 106 109 100
-0.298008 -0.438922 -0.548 227 228 222
-0.0375543 -0.339604 -0.424 196 153 119
-0.0302143 -0.338803 -0.423 191 153 117
-0.0294086 -0.338803 -0.423 191 152 113
-0.0237124 -0.338002 -0.422 189 145 110
-0.0229629 -0.338803 -0.423 187 144 109
-0.0205457 -0.338803 -0.423 190 147 113
-0.00937524 -0.342808 -0.428 174 130 101
0.00625714 -0.350817 -0.438 158 120 101
0.0088 -0.352419 -0.44 150 114 92
0.0122076 -0.354021 -0.442 150 110 98
0.0310371 -0.367637 -0.459 135 98 89
0.0418943 -0.37885 -0.473 113 89 87
0.0439733 -0.381253 -0.476 113 89 87
0.436857 -0.44533 -0.556 53 87 151
0.447191 -0.44613 -0.557 146 154 167
0.470532 -0.44613 -0.557 54 95 149
0.485573 -0.44533 -0.556 176 175 180
0.486632 -0.44533 -0.556 178 178 186
0.497223 -0.44533 -0.556 26 57 111
0.498282 -0.44533 -0.556 30 61 115
0.477593 -0.398073 -0.497 159 117 95
0.48329 -0.385258 -0.481 172 127 98
0.487771 -0.384457 -0.48 176 129 101
0.495754 -0.382855 -0.478 170 123 93
0.50577 -0.382855 -0.478 161 115 89
0.804452 -0.452538 -0.565 99 98 96
0.875643 -0.460548 -0.575 100 101 95
0.894063 -0.466154 -0.582 104 107 100
-0.0580067 -0.43274 -0.539 193 152 120
-0.0383619 -0.340411 -0.424 192 149 115
-0.0237124 -0.338806 -0.422 188 144 109
-0.0165562 -0.340411 -0.424 181 138 106
-0.0149762 -0.341214 -0.425 179 135 106
0.000413333 -0.34844 -0.434 163 121 97
0.00709143 -0.351651 -0.438 156 118 95
0.0218086 -0.360483 -0.449 145 105 95
0.0290333 -0.3653 -0.455 141 103 90
0.0703657 -0.420697 -0.524 70 72 87
0.0733286 -0.426317 -0.531 58 75 121
0.438975 -0.446389 -0.556 48 87 152
0.44613 -0.447191 -0.557 155 162 170
0.472865 -0.446389 -0.556 66 105 160
0.480278 -0.446389 -0.556 183 184 186
0.481337 -0.446389 -0.556 180 181 183
0.48875 -0.446389 -0.556 158 168 180
0.4995 -0.445586 -0.555 34 63 119
0.477606 -0.399823 -0.498 155 117 96
0.480623 -0.386977 -0.482 172 126 100
0.487771 -0.385371 -0.48 178 129 97
0.504859 -0.383766 -0.478 160 114 88
0.50577 -0.383766 -0.478 163 117 91
0.513371 -0.385371 -0.48 157 113 86
0.810888 -0.456023 -0.568 84 79 76
0.813051 -0.456023 -0.568 69 64 61
0.816297 -0.456023 -0.568 59 60 55
0.819543 -0.456023 -0.568 121 122 117
0.869747 -0.46084 -0.574 104 105 100
0.886146 -0.464854 -0.579 101 104 97
-0.331847 -0.440205 -0.547 224 225 217
-0.323511 -0.440205 -0.547 226 227 219
-0.306841 -0.440205 -0.547 226 227 221
-0.03666 -0.340414 -0.423 196 153 118
-0.0358543 -0.340414 -0.423 195 152 117
-0.0333581 -0.33961 -0.422 196 153 118
-0.0245162 -0.33961 -0.422 190 147 112
-0.01098 -0.343633 -0.427 172 128 99
-0.00288 -0.347657 -0.432 168 123 100
0.00541048 -0.351681 -0.437 158 117 95
0.0734667 -0.428133 -0.532 47 71 119
0.443211 -0.447448 -0.556 149 168 183
0.451684 -0.447448 -0.556 204 205 210
0.47816 -0.447448 -0.556 159 170 198
0.478357 -0.446643 -0.555 157 168 196
0.485757 -0.446643 -0.555 138 144 160
0.494046 -0.447448 -0.556 34 72 119
0.495105 -0.447448 -0.556 33 66 117
0.486039 -0.38709 -0.481 177 130 100
0.493809 -0.383871 -0.477 171 125 92
0.507437 -0.383871 -0.477 160 115 86
0.532618 -0.395138 -0.491 147 110 81
0.823514 -0.458714 -0.57 117 118 113
0.832908 -0.45791 -0.569 117 117 109
-0.3302 -0.44044 -0.546 224 225 217
-0.0481905 -0.354933 -0.44 191 150 120
-0.0407848 -0.342027 -0.424 191 148 113
-0.0308733 -0.339607 -0.421 197 153 116
-0.0276 -0.3388 -0.42 189 146 111
0.00207143 -0.3509 -0.435 162 120 96
0.03476 -0.37268 -0.462 124 95 87
0.0396686 -0.37752 -0.468 118 92 91
0.0427048 -0.380747 -0.472 113 89 87
0.048 -0.3872 -0.48 113 89 87
0.0524105 -0.392847 -0.487 110 89 88
0.0689705 -0.420273 -0.521 72 78 100
0.0720448 -0.426727 -0.529 45 72 119
0.450625 -0.448507 -0.556 204 199 206
0.461443 -0.4477 -0.555 62 108 168
0.474129 -0.4477 -0.555 69 108 163
0.486814 -0.4477 -0.555 107 117 142
0.496329 -0.4477 -0.555 32 63 117
0.490624 -0.421887 -0.523 118 98 91
0.482314 -0.4114 -0.51 135 107 86
0.482358 -0.409787 -0.508 137 105 92
0.479527 -0.405753 -0.503 143 110 91
0.477557 -0.3993 -0.495 163 117 101
0.477533 -0.398493 -0.494 164 118 102
0.47731 -0.393653 -0.488 169 124 95
0.479851 -0.390427 -0.484 172 126 100
0.47978 -0.38962 -0.483 171 125 99
0.500027 -0.383973 -0.476 165 118 90
0.502747 -0.383973 -0.476 162 115 87
0.822784 -0.460607 -0.571 75 76 71
0.839098 -0.460607 -0.571 99 100 94
0.852253 -0.463027 -0.574 107 109 104
0.858119 -0.463833 -0.575 95 97 92
0.88394 -0.46706 -0.579 79 80 74
-0.0452457 -0.346069 -0.428 189 148 116
-0.0382714 -0.342026 -0.423 191 148 114
-0.0373771 -0.341217 -0.422 191 148 113
-0.0268 -0.3396 -0.42 190 147 112
-0.0228543 -0.340409 -0.421 187 142 109
-0.0221048 -0.341217 -0.422 187 142 109
-0.021301 -0.341217 -0.422 186 141 108
-0.0109543 -0.344451 -0.426 172 128 101
-0.00450476 -0.347686 -0.43 167 123 98
0.0130495 -0.357389 -0.442 151 109 93
0.0200086 -0.361431 -0.447 144 106 93
0.0457867 -0.38488 -0.476 114 90 88
0.0491181 -0.389731 -0.482 112 91 88
0.0524105 -0.393774 -0.487 109 88 87
0.0621657 -0.409137 -0.506 99 80 82
0.444529 -0.448757 -0.555 155 167 179
0.449566 -0.449566 -0.556 164 171 181
0.459329 -0.448757 -0.555 70 110 162
0.475186 -0.448757 -0.555 60 103 148
0.494214 -0.448757 -0.555 38 63 119
0.499655 -0.447949 -0.554 29 60 106
0.479524 -0.404286 -0.5 154 116 97
0.477506 -0.398626 -0.493 164 118 95
0.478289 -0.395391 -0.489 167 122 93
0.481541 -0.389731 -0.482 178 133 104
0.484207 -0.388923 -0.481 176 129 101
0.493809 -0.385689 -0.477 173 124 94
0.500027 -0.38488 -0.476 165 118 90
0.589253 -0.43016 -0.532 182 161 140
0.83621 -0.462503 -0.572 101 102 96
0.857024 -0.464929 -0.575 101 104 97
0.8655 -0.466546 -0.577 103 106 99
0.867698 -0.466546 -0.577 102 105 98
-0.32708 -0.44252 -0.546 224 225 217
-0.32396 -0.44252 -0.546 225 226 218
-0.3198 -0.44252 -0.546 225 226 218
-0.31876 -0.44252 -0.546 225 226 218
-0.304681 -0.44171 -0.545 226 227 221
-0.0398829 -0.342831 -0.423 190 145 114
-0.0244581 -0.34121 -0.421 188 145 111
-0.021301 -0.342021 -0.422 186 141 108
-0.0109543 -0.345263 -0.426 172 128 101
-0.00692952 -0.346884 -0.428 168 122 98
0.000412381 -0.350936 -0.433 161 119 97
0.00206667 -0.351747 -0.434 162 120 98
0.0130495 -0.35823 -0.442 150 108 92
0.0139229 -0.359041 -0.443 150 108 92
0.0182238 -0.360662 -0.445 150 111 96
0.0621657 -0.410101 -0.506 96 80 80
0.439507 -0.449004 -0.554 55 93 156
0.450871 -0.449814 -0.555 173 184 202
0.493324 -0.449004 -0.554 37 69 118
0.48144 -0.40848 -0.504 141 105 89
0.477474 -0.398754 -0.492 159 115 88
0.47978 -0.39146 -0.483 173 129 102
0.486857 -0.389029 -0.48 172 125 97
0.494717 -0.386597 -0.477 172 121 92
0.594614 -0.433605 -0.535 187 171 156
0.868101 -0.468455 -0.578 99 100 94
0.884362 -0.470076 -0.58 66 69 60
-0.32129 -0.442748 -0.545 225 226 218
-0.306757 -0.442748 -0.545 226 227 221
-0.0431057 -0.343637 -0.423 185 146 115
-0.0212505 -0.342012 -0.421 186 141 108
-0.0196933 -0.342825 -0.422 181 136 103
-0.0173229 -0.343637 -0.423 179 134 103
-0.0109543 -0.346074 -0.426 171 127 102
-0.000412381 -0.351761 -0.433 162 117 96
0.0677171 -0.421626 -0.519 81 81 89
0.0693676 -0.425688 -0.524 88 101 120
0.0709029 -0.428937 -0.528 108 121 140
0.439507 -0.450059 -0.554 55 90 156
0.450059 -0.450059 -0.554 134 151 171
0.453225 -0.450059 -0.554 151 159 170
0.47242 -0.449247 -0.553 66 111 168
0.481716 -0.450059 -0.554 167 183 196
0.494376 -0.428125 -0.527 113 94 88
0.481423 -0.411065 -0.506 138 105 88
0.48329 -0.390755 -0.481 176 130 104
0.491991 -0.387506 -0.477 176 127 97
0.497307 -0.386693 -0.476 168 119 86
0.511813 -0.386693 -0.476 159 114 85
0.52486 -0.39238 -0.483 151 107 80
0.533243 -0.397254 -0.489 149 110 81
0.831086 -0.467931 -0.576 49 54 47
0.832183 -0.467931 -0.576 102 107 101
0.865899 -0.469556 -0.578 97 100 93
-0.0422 -0.343629 -0.422 189 146 111
-0.0244 -0.342 -0.42 186 143 109
-0.00774476 -0.348514 -0.428 168 124 97
0.0190714 -0.362357 -0.445 149 107 91
0.0226638 -0.365614 -0.449 146 104 90
0.0584543 -0.406329 -0.499 99 83 83
0.0636286 -0.415286 -0.51 91 79 79
0.43766 -0.4503 -0.553 48 89 155
0.445033 -0.4503 -0.553 73 109 161
0.458727 -0.4503 -0.553 84 120 168
0.47824 -0.397371 -0.488 164 124 98
0.479919 -0.394929 -0.485 171 125 99
0.480773 -0.394114 -0.484 174 129 100
0.48162 -0.3933 -0.483 172 126 100
0.487668 -0.390043 -0.479 173 126 98
0.498213 -0.3876 -0.476 171 121 88
0.5035 -0.386786 -0.475 168 119 87
0.83287 -0.470657 -0.578 22 25 18
0.836947 -0.4674 -0.574 118 115 108
0.855609 -0.469843 -0.577 100 103 96
0.887826 -0.474729 -0.583 87 90 83
0.8931 -0.476357 -0.585 103 104 96
-0.327954 -0.444008 -0.544 224 225 217
-0.325882 -0.444008 -0.544 224 225 217
-0.0447171 -0.345249 -0.423 192 148 113
-0.0332 -0.3428 -0.42 193 151 111
-0.0323229 -0.341984 -0.419 193 151 111
-0.0299286 -0.341984 -0.419 191 149 109
0.0289695 -0.37055 -0.454 138 101 83
0.036599 -0.377896 -0.463 118 93 86
0.0375619 -0.378712 -0.464 118 93 86
0.0479 -0.390955 -0.479 111 92 86
0.0728619 -0.436662 -0.535 138 156 178
0.43792 -0.450537 -0.552 56 91 155
0.446087 -0.451353 -0.553 96 125 159
0.449247 -0.451353 -0.553 169 180 198
0.460833 -0.451353 -0.553 92 132 181
0.465047 -0.451353 -0.553 35 85 148
0.467153 -0.451353 -0.553 50 99 165
0.46926 -0.451353 -0.553 70 116 176
0.47242 -0.451353 -0.553 92 135 190
0.476633 -0.451353 -0.553 158 184 217
0.479793 -0.451353 -0.553 182 191 196
0.492269 -0.45217 -0.554 125 143 163
0.497545 -0.45217 -0.554 25 64 119
0.483326 -0.414625 -0.508 138 103 83
0.4807 -0.39422 -0.483 173 127 101
0.485029 -0.391771 -0.48 172 125 97
0.50531 -0.38769 -0.475 168 119 89
0.595437 -0.43503 -0.533 139 130 125
0.834727 -0.470942 -0.577 90 95 91
0.843881 -0.46931 -0.575 101 102 94
0.857091 -0.471758 -0.578 99 102 95
-0.0481371 -0.353417 -0.432 189 150 117
-0.0355152 -0.342782 -0.419 192 149 114
-0.0298571 -0.341964 -0.418 191 149 111
-0.0236 -0.3436 -0.42 185 142 107
-0.00933143 -0.348509 -0.426 169 123 99
0.00206667 -0.355053 -0.434 157 114 95
0.00289333 -0.355053 -0.434 155 112 93
0.0173371 -0.363234 -0.444 150 108 92
0.0190714 -0.364052 -0.445 147 110 92
0.0385286 -0.380414 -0.465 118 93 86
0.0479 -0.391868 -0.479 111 92 86
0.0524105 -0.398412 -0.487 106 87 81
0.0597619 -0.410684 -0.502 97 83 83
0.445033 -0.452407 -0.553 161 178 194
0.454513 -0.452407 -0.553 188 196 209
0.476633 -0.452407 -0.553 155 184 218
0.489273 -0.452407 -0.553 176 180 191
0.492269 -0.453225 -0.554 119 134 157
0.496647 -0.452407 -0.553 34 69 123
0.490174 -0.390231 -0.477 177 127 100
0.491083 -0.390231 -0.477 174 124 97
0.501537 -0.387777 -0.474 172 122 95
0.504246 -0.387777 -0.474 170 120 93
0.506954 -0.387777 -0.474 163 113 86
0.840595 -0.470405 -0.575 116 116 108
0.881869 -0.476131 -0.582 107 112 105
-0.32218 -0.44526 -0.543 225 226 218
-0.294254 -0.44526 -0.543 225 226 220
-0.0387076 -0.34358 -0.419 194 154 118
-0.0314495 -0.34276 -0.418 190 147 112
-0.0204 -0.3444 -0.42 179 136 101
-0.0180429 -0.34522 -0.421 180 137 103
0.00707524 -0.35834 -0.437 151 108 91
0.0217114 -0.36654 -0.447 145 106 89
0.0327143 -0.37556 -0.458 125 97 86
0.0698971 -0.43296 -0.528 160 170 179
0.433978 -0.45182 -0.551 45 88 156
0.435028 -0.45182 -0.551 49 89 158
0.46 -0.45264 -0.552 108 146 185
0.465257 -0.45264 -0.552 47 96 155
0.482953 -0.45346 -0.553 181 191 193
0.494379 -0.45428 -0.554 55 78 110
0.50718 -0.45346 -0.553 115 114 120
0.479384 -0.40426 -0.493 155 114 92
0.479919 -0.3977 -0.485 166 124 99
0.480773 -0.39688 -0.484 166 122 95
0.4807 -0.39606 -0.483 168 124 99
0.482459 -0.39524 -0.482 156 110 84
0.484207 -0.39442 -0.481 170 123 95
0.489381 -0.39196 -0.478 180 130 103
0.490174 -0.39114 -0.477 176 126 101
0.491991 -0.39114 -0.477 172 122 97
0.494452 -0.3895 -0.475 173 121 97
0.495357 -0.3895 -0.475 172 120 96
0.497926 -0.38868 -0.474 172 121 94
0.499731 -0.38868 -0.474 173 122 95
0.50244 -0.38868 -0.474 171 121 94
0.506786 -0.38786 -0.473 161 114 86
0.855638 -0.4756 -0.58 101 103 98
0.861914 -0.47724 -0.582 107 109 104
0.883787 -0.47888 -0.584 116 121 114
-0.0616524 -0.439719 -0.535 190 150 115
-0.0455229 -0.347666 -0.423 188 150 114
-0.0446114 -0.346844 -0.422 188 148 113
-0.0395057 -0.344378 -0.419 193 153 118
-0.0117381 -0.34931 -0.425 169 125 100
-0.00286667 -0.353419 -0.43 160 117 98
-0.000411429 -0.355063 -0.432 156 113 94
0.00372 -0.356707 -0.434 156 113 96
0.00876 -0.359994 -0.438 152 109 93
0.0155752 -0.363282 -0.442 150 108 92
0.0164543 -0.364104 -0.443 151 109 93
0.019919 -0.365748 -0.445 150 111 94
0.026201 -0.370679 -0.451 141 104 88
0.0445971 -0.388761 -0.473 111 91 84
0.0535571 -0.401911 -0.489 103 85 81
0.06536 -0.424103 -0.516 158 153 159
0.423483 -0.45287 -0.551 199 208 225
0.424532 -0.45287 -0.551 191 207 240
0.432929 -0.45287 -0.551 43 88 153
0.456846 -0.453691 -0.552 118 154 190
0.47558 -0.454513 -0.553 109 136 165
0.481716 -0.455335 -0.554 188 193 196
0.497386 -0.456157 -0.555 138 142 145
0.498443 -0.456157 -0.555 139 143 146
0.503876 -0.455335 -0.554 149 150 152
0.479515 -0.41013 -0.499 143 107 93
0.480773 -0.397802 -0.484 167 121 95
0.505885 -0.388761 -0.473 165 116 86
0.845349 -0.473417 -0.576 111 114 107
0.849014 -0.474239 -0.577 106 109 102
0.863395 -0.47917 -0.583 113 115 110
0.873419 -0.481636 -0.586 115 117 112
-0.0485067 -0.35259 -0.428 188 150 114
-0.0473571 -0.350119 -0.425 187 149 113
-0.0411019 -0.345176 -0.419 193 150 115
-0.0403038 -0.345176 -0.419 194 151 117
-0.037819 -0.344352 -0.418 193 150 116
-0.0313743 -0.343529 -0.417 187 142 109
-0.0204 -0.346 -0.42 178 135 101
-0.00770857 -0.350943 -0.426 164 122 97
0.0280429 -0.373186 -0.453 134 101 86
0.0625343 -0.419319 -0.509 83 71 73
0.417186 -0.453919 -0.551 208 222 233
0.442126 -0.454743 -0.552 175 197 211
0.453691 -0.454743 -0.552 198 206 208
0.467153 -0.455567 -0.553 70 116 166
0.474527 -0.455567 -0.553 101 127 160
0.483827 -0.45639 -0.554 160 165 168
0.490158 -0.45639 -0.554 148 149 151
0.500557 -0.457214 -0.555 154 155 157
0.479919 -0.399548 -0.485 165 121 96
0.480773 -0.398724 -0.484 167 121 97
0.485739 -0.393781 -0.478 170 123 97
0.48756 -0.393781 -0.478 171 124 98
0.48847 -0.393781 -0.478 175 125 100
0.494452 -0.39131 -0.475 173 122 91
0.504083 -0.389662 -0.473 168 119 87
0.517071 -0.39131 -0.475 150 106 79
0.526171 -0.395429 -0.48 146 106 80
0.876769 -0.485224 -0.589 119 121 116
-0.319522 -0.447537 -0.542 225 226 220
-0.31849 -0.447537 -0.542 226 227 221
-0.312295 -0.447537 -0.542 225 226 218
-0.31023 -0.447537 -0.542 225 226 218
-0.029061 -0.345149 -0.418 190 147 112
-0.0242838 -0.345149 -0.418 184 141 107
-0.0227457 -0.345974 -0.419 182 139 105
-0.0132943 -0.349277 -0.423 167 126 98
0.0435114 -0.388911 -0.471 112 89 81
0.0490162 -0.397169 -0.481 108 89 83
0.0671143 -0.431023 -0.522 171 176 182
0.43319 -0.454143 -0.55 66 105 182
0.441325 -0.454969 -0.551 165 184 198
0.449486 -0.455794 -0.552 202 208 222
0.456846 -0.455794 -0.552 127 144 164
0.491814 -0.428546 -0.519 117 97 88
0.481442 -0.414509 -0.502 136 104 89
0.480411 -0.409554 -0.496 146 111 91
0.479267 -0.4046 -0.49 161 116 95
0.485739 -0.394691 -0.478 168 121 93
0.48847 -0.394691 -0.478 173 123 96
0.491867 -0.39304 -0.476 172 123 91
0.50931 -0.389737 -0.472 163 116 86
0.51129 -0.390563 -0.473 162 115 85
0.515983 -0.391389 -0.474 151 107 80
0.523979 -0.394691 -0.478 145 108 81
0.533322 -0.399646 -0.484 137 103 78
0.5915 -0.4335 -0.525 65 61 62
-0.294201 -0.447742 -0.541 225 226 220
-0.0402076 -0.345945 -0.418 192 149 114
-0.03614 -0.345117 -0.417 185 142 107
-0.0313743 -0.345117 -0.417 182 139 104
-0.0266086 -0.345117 -0.417 181 141 105
-0.0234876 -0.345945 -0.418 182 139 105
-0.018 -0.3476 -0.42 175 132 100
0.0104286 -0.362497 -0.438 151 109 93
0.0307667 -0.376567 -0.455 128 98 87
0.0345343 -0.379877 -0.459 119 95 85
0.0704267 -0.440293 -0.532 136 149 168
0.41119 -0.45519 -0.55 206 219 235
0.429509 -0.456846 -0.552 57 90 157
0.482586 -0.459329 -0.555 174 172 175
0.497056 -0.460984 -0.557 154 152 153
0.504483 -0.460984 -0.557 142 140 141
0.505544 -0.460984 -0.557 140 138 139
0.513243 -0.459329 -0.555 117 109 106
0.497388 -0.436155 -0.527 113 93 86
0.489034 -0.425396 -0.514 127 97 86
0.480466 -0.412982 -0.499 141 108 91
0.479443 -0.409671 -0.495 146 111 91
0.491867 -0.393947 -0.476 172 123 91
0.498522 -0.390636 -0.472 170 121 89
0.501219 -0.390636 -0.472 171 122 90
0.50931 -0.390636 -0.472 163 118 87
0.511109 -0.390636 -0.472 157 113 84
0.52489 -0.395602 -0.478 142 108 81
-0.0305067 -0.345082 -0.416 180 141 102
-0.0234876 -0.346741 -0.418 181 138 104
-0.0156371 -0.34923 -0.421 170 128 103
0.00371143 -0.359184 -0.433 155 114 96
0.0112629 -0.363331 -0.438 152 109 93
0.0216629 -0.369968 -0.446 144 105 90
0.02432 -0.371627 -0.448 141 102 87
0.0413629 -0.387388 -0.467 115 91 81
0.0688914 -0.437989 -0.528 159 163 175
0.412238 -0.456238 -0.55 215 219 228
0.422433 -0.457068 -0.551 194 203 208
0.43056 -0.457897 -0.552 99 117 153
0.432663 -0.457897 -0.552 116 130 143
0.454513 -0.458727 -0.553 185 186 188
0.471164 -0.459556 -0.554 171 176 179
0.484514 -0.461215 -0.556 171 169 172
0.48981 -0.461215 -0.556 165 163 166
0.507514 -0.462874 -0.558 125 121 120
0.50964 -0.462874 -0.558 120 116 115
0.515227 -0.461215 -0.556 103 95 93
0.511989 -0.454579 -0.548 96 85 81
0.479415 -0.409785 -0.494 150 109 89
0.4807 -0.40066 -0.483 162 121 93
0.48162 -0.40066 -0.483 161 120 92
0.489266 -0.395683 -0.477 170 123 93
0.490174 -0.395683 -0.477 170 123 93
0.493548 -0.394024 -0.475 171 122 90
0.497926 -0.393194 -0.474 166 117 85
0.501219 -0.391535 -0.472 172 126 93
-0.323486 -0.448971 -0.54 224 225 219
-0.0187552 -0.348369 -0.419 175 131 102
-0.00448381 -0.355851 -0.428 156 115 93
0.00788952 -0.362503 -0.436 152 110 94
0.012961 -0.364997 -0.439 154 111 95
0.0146667 -0.365829 -0.44 153 111 95
0.0252295 -0.373311 -0.449 141 102 87
