ply
format ascii 1.0
comment Created by Open3D
element vertex 1324
property double x
property double y
property double z
property uchar red
property uchar green
property uchar blue
end_header
-0.146037 -0.203959 -0.647 192 191 186
-0.143794 -0.204274 -0.648 193 192 187
0.13641 -0.141542 -0.449 194 144 133
0.147577 -0.139966 -0.444 187 135 124
0.157143 -0.138705 -0.44 183 130 122
0.164686 -0.138705 -0.44 174 124 113
0.168876 -0.138705 -0.44 162 112 101
0.185216 -0.13965 -0.443 131 86 83
0.201857 -0.141857 -0.45 113 72 70
0.207975 -0.143118 -0.454 111 67 66
0.215511 -0.144694 -0.459 111 67 64
0.217733 -0.14501 -0.46 116 71 68
0.22044 -0.14564 -0.462 126 81 78
0.228071 -0.146586 -0.465 146 92 90
0.237798 -0.148792 -0.472 127 80 74
0.276138 -0.162348 -0.515 63 37 46
0.289871 -0.162348 -0.515 84 59 63
0.308429 -0.160771 -0.51 139 114 118
0.31883 -0.160141 -0.508 115 86 91
0.34224 -0.15888 -0.504 120 91 95
0.408973 -0.163293 -0.518 177 127 118
0.411933 -0.163293 -0.518 160 108 97
0.42108 -0.164554 -0.522 134 87 81
0.431954 -0.166446 -0.528 123 75 71
0.43378 -0.166761 -0.529 123 78 75
0.439466 -0.167391 -0.531 151 106 103
-0.15272 -0.20424 -0.644 188 188 180
0.129426 -0.148106 -0.467 202 153 139
0.130397 -0.146203 -0.461 199 149 138
0.13952 -0.14208 -0.448 194 144 133
0.16301 -0.139543 -0.44 175 125 116
0.193267 -0.141446 -0.446 119 78 74
0.1984 -0.14208 -0.448 115 74 72
0.228957 -0.147471 -0.465 139 85 83
0.289871 -0.163329 -0.515 85 60 64
0.306486 -0.161743 -0.51 109 84 88
0.320766 -0.161109 -0.508 115 86 90
0.33072 -0.15984 -0.504 116 87 92
0.335812 -0.159523 -0.503 116 87 91
0.351576 -0.160157 -0.505 118 92 95
0.365405 -0.163329 -0.515 44 33 47
0.406013 -0.16428 -0.518 175 125 116
0.411933 -0.16428 -0.518 160 108 97
0.414706 -0.164597 -0.519 150 98 87
0.439466 -0.168403 -0.531 148 104 101
0.447871 -0.169671 -0.535 145 101 98
-0.161557 -0.205786 -0.645 182 183 175
-0.153708 -0.205148 -0.643 187 187 179
-0.145029 -0.206743 -0.648 192 191 186
0.135 -0.143571 -0.45 191 143 131
0.141227 -0.142933 -0.448 192 143 129
0.146214 -0.141976 -0.445 193 140 132
0.15062 -0.141338 -0.443 187 135 124
0.1533 -0.1407 -0.441 189 137 126
0.159657 -0.140381 -0.44 177 127 118
0.163848 -0.140381 -0.44 173 123 114
0.17934 -0.1407 -0.441 140 95 89
0.192417 -0.142295 -0.446 123 82 78
0.233109 -0.149314 -0.468 128 79 74
0.263955 -0.160481 -0.503 51 29 41
0.279623 -0.164629 -0.516 70 44 53
0.29891 -0.163352 -0.512 102 73 75
0.313641 -0.162395 -0.509 110 87 93
0.323358 -0.161438 -0.506 114 88 91
0.33072 -0.1608 -0.504 116 87 91
0.334854 -0.160481 -0.503 116 87 91
0.33677 -0.160481 -0.503 118 89 93
0.401963 -0.166862 -0.523 174 127 119
0.409763 -0.165586 -0.519 172 120 109
0.44232 -0.169733 -0.532 141 104 96
0.457861 -0.172924 -0.542 132 94 91
0.467563 -0.175795 -0.551 133 93 93
-0.164777 -0.207977 -0.648 178 179 171
-0.153708 -0.206372 -0.643 187 187 177
0.131586 -0.145391 -0.453 193 146 138
0.134143 -0.144429 -0.45 195 147 135
0.165524 -0.141219 -0.44 167 117 108
0.185216 -0.142182 -0.443 129 86 79
0.188595 -0.142824 -0.445 130 87 80
0.198843 -0.144108 -0.449 113 72 68
0.201 -0.144429 -0.45 113 73 71
0.21417 -0.146996 -0.458 111 70 66
0.266493 -0.162402 -0.506 53 31 43
0.274623 -0.16497 -0.514 66 39 48
0.27918 -0.165932 -0.517 70 43 52
0.280606 -0.165611 -0.516 72 46 55
0.289871 -0.16529 -0.515 89 62 67
0.290852 -0.16529 -0.515 91 65 68
0.295183 -0.16497 -0.514 98 72 75
0.297141 -0.16497 -0.514 98 72 73
0.29754 -0.164649 -0.513 100 74 75
0.309763 -0.163365 -0.509 209 190 194
0.312671 -0.163365 -0.509 111 89 92
0.318203 -0.162723 -0.507 116 85 91
0.32143 -0.162402 -0.506 116 85 90
0.323358 -0.162402 -0.506 113 87 90
0.358943 -0.163686 -0.51 59 34 38
0.420086 -0.167537 -0.522 132 87 82
0.434788 -0.169784 -0.529 129 85 82
0.453273 -0.172993 -0.539 133 98 92
-0.155914 -0.207274 -0.642 187 187 179
-0.147497 -0.209211 -0.648 191 191 183
0.129087 -0.15142 -0.469 199 149 142
0.140373 -0.14464 -0.448 194 142 131
0.140911 -0.144317 -0.447 193 143 132
0.146214 -0.143671 -0.445 190 137 129
0.151122 -0.142703 -0.442 188 136 125
0.151964 -0.142703 -0.442 187 135 124
0.157143 -0.142057 -0.44 183 131 120
0.157981 -0.142057 -0.44 176 126 115
0.161333 -0.142057 -0.44 169 119 110
0.174743 -0.142057 -0.44 150 101 94
0.18648 -0.143349 -0.444 132 87 81
0.19584 -0.14464 -0.448 120 76 73
0.206654 -0.146254 -0.453 107 67 65
0.210167 -0.1469 -0.455 109 68 64
0.251436 -0.157554 -0.488 85 54 49
0.27918 -0.166917 -0.517 71 44 53
0.280606 -0.166594 -0.516 74 48 57
0.286929 -0.166271 -0.515 86 59 64
0.29754 -0.165626 -0.513 101 75 78
0.304167 -0.16498 -0.511 106 80 83
0.310732 -0.164334 -0.509 137 116 121
0.319503 -0.163366 -0.506 115 83 88
0.323681 -0.163043 -0.505 115 86 90
0.32784 -0.16272 -0.504 117 88 92
0.377353 -0.170791 -0.529 54 46 61
0.407987 -0.16724 -0.518 165 111 99
0.40996 -0.16724 -0.518 166 112 100
0.417296 -0.168209 -0.521 134 89 84
0.453273 -0.17402 -0.539 132 95 87
-0.147725 -0.21077 -0.649 190 190 182
0.131295 -0.146792 -0.452 194 146 136
0.141763 -0.145169 -0.447 198 145 139
0.160495 -0.142895 -0.44 167 117 106
0.168038 -0.142895 -0.44 153 104 97
0.180589 -0.143545 -0.442 144 97 89
0.19584 -0.145493 -0.448 120 76 73
0.203615 -0.146792 -0.452 113 72 70
0.204476 -0.146792 -0.452 112 71 69
0.225813 -0.15069 -0.464 121 78 71
0.251951 -0.158809 -0.489 79 50 55
0.268073 -0.165304 -0.509 61 34 39
0.275157 -0.167252 -0.515 64 41 47
0.276674 -0.167577 -0.516 65 42 48
0.283986 -0.167252 -0.515 83 56 61
0.284967 -0.167252 -0.515 84 58 61
0.286929 -0.167252 -0.515 87 61 64
0.28791 -0.167252 -0.515 88 62 65
0.295183 -0.166928 -0.514 98 72 75
0.306854 -0.165304 -0.509 111 82 84
0.320795 -0.164005 -0.505 116 87 92
0.33264 -0.16368 -0.504 116 87 92
0.340603 -0.163355 -0.503 165 145 154
0.3556 -0.164979 -0.508 72 53 59
0.429129 -0.17115 -0.527 127 82 79
0.44232 -0.172773 -0.532 143 102 98
0.446017 -0.173423 -0.534 147 104 97
0.451408 -0.174722 -0.538 134 93 87
0.455143 -0.175371 -0.54 132 91 85
-0.15836 -0.20972 -0.642 185 185 177
-0.157137 -0.20972 -0.642 186 186 178
-0.146714 -0.212333 -0.65 190 190 182
0.129549 -0.149613 -0.458 197 148 141
0.135253 -0.146347 -0.448 194 146 136
0.156305 -0.143733 -0.44 168 115 107
0.201447 -0.147327 -0.451 112 72 70
0.204929 -0.14798 -0.453 112 71 69
0.207975 -0.148307 -0.454 106 67 62
0.210629 -0.14896 -0.456 109 68 64
0.215042 -0.149613 -0.458 109 70 65
0.220841 -0.150593 -0.461 118 77 73
0.225813 -0.151573 -0.464 118 77 71
0.239813 -0.155493 -0.476 101 63 60
0.2686 -0.1666 -0.51 60 35 39
0.283986 -0.168233 -0.515 82 57 61
0.29891 -0.167253 -0.512 103 77 80
0.32688 -0.16464 -0.504 117 88 93
0.338687 -0.164313 -0.503 110 90 99
0.351309 -0.165293 -0.506 111 84 91
0.352969 -0.16562 -0.507 82 65 73
0.403794 -0.17248 -0.528 153 123 123
0.401638 -0.169867 -0.52 186 139 131
0.403831 -0.16954 -0.519 180 132 120
0.406013 -0.169213 -0.518 175 118 107
0.409763 -0.16954 -0.519 164 105 97
0.429129 -0.172153 -0.527 128 83 80
0.437629 -0.173133 -0.53 144 100 97
0.440477 -0.17346 -0.531 143 99 96
0.479038 -0.183587 -0.562 138 93 90
-0.157137 -0.210943 -0.642 186 186 178
-0.153947 -0.2116 -0.644 187 187 179
0.129549 -0.150486 -0.458 198 149 142
0.136107 -0.1472 -0.448 194 144 135
0.15078 -0.1449 -0.441 181 131 120
0.15246 -0.1449 -0.441 185 135 124
0.162171 -0.144571 -0.44 170 117 111
0.163475 -0.144243 -0.439 167 114 108
0.164311 -0.144243 -0.439 166 113 107
0.165148 -0.144243 -0.439 166 113 107
0.204929 -0.148843 -0.453 111 70 68
0.2222 -0.1518 -0.462 118 77 73
0.247531 -0.159029 -0.484 96 58 57
0.271604 -0.168229 -0.512 61 36 40
0.27864 -0.169543 -0.516 69 46 52
0.307824 -0.167243 -0.509 107 78 80
0.315306 -0.166586 -0.507 113 87 90
0.317575 -0.166257 -0.506 112 86 89
0.319503 -0.166257 -0.506 114 85 89
0.338687 -0.165271 -0.503 110 90 99
0.351309 -0.166257 -0.506 111 84 91
0.40404 -0.1702 -0.518 176 127 113
0.410751 -0.170529 -0.519 161 102 94
0.422693 -0.172171 -0.524 125 80 75
0.438638 -0.174143 -0.53 144 100 97
0.444167 -0.175129 -0.533 148 97 96
0.451408 -0.176771 -0.538 134 93 89
0.467563 -0.181043 -0.551 133 89 88
-0.160305 -0.211505 -0.64 183 183 175
-0.148961 -0.214479 -0.649 189 189 179
0.130434 -0.149375 -0.452 197 148 141
0.133286 -0.148714 -0.45 198 148 139
0.148089 -0.146401 -0.443 186 134 123
0.159657 -0.14541 -0.44 175 122 114
0.17682 -0.14574 -0.441 148 99 94
0.189869 -0.147392 -0.446 126 81 76
0.199286 -0.148714 -0.45 111 72 67
0.264043 -0.16689 -0.505 60 34 43
0.276674 -0.170526 -0.516 68 45 51
0.2993 -0.168873 -0.511 104 78 81
0.308793 -0.168212 -0.509 112 83 85
0.321757 -0.16689 -0.505 113 87 90
0.322719 -0.16689 -0.505 114 88 91
0.32592 -0.16656 -0.504 115 86 90
0.33264 -0.16656 -0.504 116 87 91
0.3336 -0.16656 -0.504 117 90 95
0.335812 -0.16623 -0.503 115 88 93
0.357 -0.168543 -0.51 52 37 44
0.401638 -0.171848 -0.52 177 133 122
0.402629 -0.171848 -0.52 177 133 122
0.422693 -0.17317 -0.524 124 79 74
0.444167 -0.176144 -0.533 145 95 94
0.137506 -0.148574 -0.447 190 140 129
0.139209 -0.148574 -0.447 190 140 129
0.14006 -0.148574 -0.447 193 143 132
0.141446 -0.148242 -0.446 191 141 130
0.15078 -0.14658 -0.441 182 132 121
0.157622 -0.145915 -0.439 176 126 115
0.16013 -0.145915 -0.439 175 125 114
0.161803 -0.145915 -0.439 166 116 107
0.187748 -0.14791 -0.445 134 86 82
0.237 -0.157549 -0.474 99 61 58
0.264566 -0.168185 -0.506 59 34 40
0.272665 -0.170844 -0.514 64 39 43
0.2907 -0.170511 -0.513 96 70 73
0.295586 -0.170511 -0.513 99 73 74
0.321757 -0.167852 -0.505 113 87 90
0.324 -0.16752 -0.504 115 86 90
0.32784 -0.16752 -0.504 116 87 91
0.3288 -0.16752 -0.504 117 88 92
0.352003 -0.168517 -0.507 83 62 69
0.355057 -0.169514 -0.51 54 41 50
0.410751 -0.172506 -0.519 159 100 92
0.43296 -0.175497 -0.528 125 81 78
0.436803 -0.17583 -0.529 142 98 95
0.446017 -0.177491 -0.534 136 94 95
0.448709 -0.178156 -0.536 134 92 93
0.454955 -0.179818 -0.541 132 87 84
-0.14919 -0.217286 -0.65 192 189 180
0.140911 -0.149426 -0.447 194 142 129
0.156305 -0.147086 -0.44 178 130 116
0.161803 -0.146751 -0.439 166 118 106
0.165984 -0.146751 -0.439 156 107 100
0.17598 -0.14742 -0.441 149 100 93
0.229052 -0.156111 -0.467 110 71 64
0.260562 -0.167811 -0.502 58 33 39
0.283005 -0.172157 -0.515 83 58 62
0.28833 -0.171823 -0.514 89 63 66
0.292654 -0.171489 -0.513 97 71 72
0.294609 -0.171489 -0.513 99 73 74
0.306854 -0.170151 -0.509 108 79 81
0.341561 -0.168146 -0.503 137 116 121
0.41174 -0.173494 -0.519 150 95 90
0.43296 -0.176503 -0.528 125 81 78
0.448709 -0.179177 -0.536 132 90 91
0.459551 -0.181851 -0.544 130 86 83
0.148089 -0.148932 -0.443 179 129 118
0.15078 -0.14826 -0.441 183 133 122
0.152952 -0.147924 -0.44 179 130 116
0.15379 -0.147924 -0.44 178 129 115
0.162639 -0.147588 -0.439 168 120 108
0.163475 -0.147588 -0.439 165 117 105
0.169329 -0.147588 -0.439 151 103 93
0.17139 -0.147924 -0.44 144 95 88
0.178063 -0.148596 -0.442 143 96 90
0.18732 -0.149941 -0.446 134 87 81
0.213297 -0.153975 -0.458 111 74 66
0.223162 -0.155992 -0.464 114 75 70
0.232809 -0.158346 -0.471 97 60 54
0.23991 -0.160699 -0.478 92 57 53
0.258571 -0.168095 -0.5 55 30 34
0.264123 -0.170449 -0.507 61 36 40
0.266657 -0.171457 -0.51 60 35 39
0.286371 -0.172802 -0.514 89 63 66
0.297353 -0.171793 -0.511 103 77 78
0.3026 -0.171457 -0.51 107 78 80
0.31109 -0.170785 -0.508 113 84 86
0.315648 -0.170112 -0.506 115 86 88
0.32208 -0.16944 -0.504 117 88 92
0.357425 -0.17213 -0.512 50 40 51
0.443333 -0.178853 -0.532 138 97 91
0.451408 -0.18087 -0.538 135 87 85
0.458514 -0.182888 -0.544 130 86 83
0.467563 -0.185241 -0.551 127 93 92
-0.161271 -0.216043 -0.639 182 183 175
-0.15836 -0.217057 -0.642 184 185 177
0.128676 -0.154848 -0.458 199 151 139
0.133547 -0.151467 -0.448 192 144 130
0.13696 -0.151467 -0.448 191 143 129
0.139209 -0.151129 -0.447 195 145 134
0.144519 -0.150452 -0.445 189 139 128
0.148932 -0.149776 -0.443 183 133 122
0.156305 -0.148762 -0.44 179 131 117
0.164311 -0.148424 -0.439 157 110 102
0.168492 -0.148424 -0.439 152 105 95
0.190294 -0.151129 -0.447 122 79 73
0.198429 -0.152143 -0.45 116 75 71
0.215511 -0.155186 -0.459 114 75 70
0.262119 -0.170738 -0.505 60 35 39
0.283434 -0.173781 -0.514 84 62 64
0.32016 -0.1704 -0.504 113 87 88
0.418097 -0.176486 -0.522 130 85 80
0.4255 -0.1775 -0.525 126 83 77
-0.168574 -0.21726 -0.639 181 181 171
0.1287 -0.1547 -0.455 193 150 141
0.143671 -0.1513 -0.445 189 139 128
0.144519 -0.1513 -0.445 189 139 128
0.15078 -0.14994 -0.441 180 130 119
0.181406 -0.15096 -0.444 139 90 86
0.193711 -0.15266 -0.449 121 78 72
0.194567 -0.15266 -0.449 123 79 76
0.207567 -0.1547 -0.455 110 71 66
0.208433 -0.1547 -0.455 111 72 67
0.222278 -0.15776 -0.464 111 74 66
0.240914 -0.1632 -0.48 92 58 56
0.261157 -0.1717 -0.505 59 32 37
0.285392 -0.17476 -0.514 88 66 68
0.288746 -0.17442 -0.513 94 69 72
0.307219 -0.17272 -0.508 111 82 84
0.31372 -0.17204 -0.506 115 89 88
0.315648 -0.17204 -0.506 114 86 85
0.316611 -0.17204 -0.506 115 87 86
0.326539 -0.17068 -0.502 117 91 92
0.331022 -0.17102 -0.503 115 90 94
0.355474 -0.17408 -0.512 53 43 52
0.410417 -0.18292 -0.538 158 123 129
0.414514 -0.1768 -0.52 139 89 82
0.423691 -0.17816 -0.524 129 86 80
0.434971 -0.17952 -0.528 139 98 92
-0.170057 -0.218819 -0.64 179 179 171
-0.162489 -0.218477 -0.639 182 182 172
0.128997 -0.154883 -0.453 191 152 137
0.142295 -0.15249 -0.446 181 132 118
0.142824 -0.152148 -0.445 183 134 120
0.145886 -0.151806 -0.444 187 138 124
0.15078 -0.15078 -0.441 186 137 123
0.168038 -0.150438 -0.44 153 104 97
0.177622 -0.151464 -0.443 145 98 92
0.178466 -0.151464 -0.443 144 96 92
0.17931 -0.151464 -0.443 138 90 86
0.184357 -0.152148 -0.445 133 88 85
0.19072 -0.153173 -0.448 121 77 74
0.201032 -0.154541 -0.452 113 74 67
0.208891 -0.155909 -0.456 112 73 66
0.225011 -0.159328 -0.466 105 70 64
0.281043 -0.176081 -0.515 79 57 60
0.288746 -0.175397 -0.513 94 67 72
0.300068 -0.17403 -0.509 106 80 83
0.322399 -0.171978 -0.503 114 86 85
0.330064 -0.171978 -0.503 117 91 94
0.340882 -0.171636 -0.502 114 89 95
0.34416 -0.17232 -0.504 119 88 96
0.402189 -0.178474 -0.522 184 135 131
0.401638 -0.17779 -0.52 184 134 127
0.407 -0.177107 -0.518 154 102 91
0.417296 -0.178132 -0.521 133 88 82
0.4255 -0.1795 -0.525 120 81 74
0.443333 -0.181893 -0.532 136 96 96
0.461433 -0.186338 -0.545 132 90 91
0.475629 -0.190783 -0.558 132 94 93
-0.171544 -0.220382 -0.641 181 181 173
-0.16831 -0.21935 -0.638 183 180 171
-0.164665 -0.21935 -0.638 185 182 173
0.131005 -0.155058 -0.451 195 154 136
0.138667 -0.154027 -0.448 190 142 128
0.142295 -0.153339 -0.446 176 128 114
0.14504 -0.152651 -0.444 195 146 132
0.146731 -0.152651 -0.444 183 134 120
0.15028 -0.151964 -0.442 182 133 119
0.15246 -0.15162 -0.441 179 131 117
0.161333 -0.151276 -0.44 163 115 103
0.161803 -0.150932 -0.439 166 118 106
0.169714 -0.151276 -0.44 145 98 92
0.174695 -0.151964 -0.442 144 95 90
0.181814 -0.152995 -0.445 137 89 87
0.188591 -0.153683 -0.447 129 84 79
0.208891 -0.156777 -0.456 111 70 64
0.278195 -0.17775 -0.517 79 54 57
0.27918 -0.17775 -0.517 80 55 58
0.300068 -0.174999 -0.509 106 80 83
0.315648 -0.173968 -0.506 117 88 90
0.316611 -0.173968 -0.506 116 87 89
0.326231 -0.172936 -0.503 117 88 90
0.339926 -0.172592 -0.502 117 90 95
0.354499 -0.17603 -0.512 50 47 54
0.456829 -0.186345 -0.542 130 88 89
-0.174529 -0.222294 -0.643 177 177 169
-0.157627 -0.22264 -0.644 187 187 177
0.1344 -0.15488 -0.448 188 142 127
0.138667 -0.15488 -0.448 192 144 130
0.1533 -0.15246 -0.441 179 131 117
0.15379 -0.152114 -0.44 174 126 112
0.161803 -0.151769 -0.439 166 118 108
0.164311 -0.151769 -0.439 160 113 105
0.189867 -0.15488 -0.448 127 82 77
0.225086 -0.161794 -0.468 108 67 63
0.26426 -0.17666 -0.511 61 38 44
0.291109 -0.177006 -0.512 100 75 78
0.301037 -0.175969 -0.509 107 81 82
0.34416 -0.17424 -0.504 119 88 94
0.402629 -0.179771 -0.52 176 127 120
-0.16562 -0.221433 -0.637 184 181 172
-0.162489 -0.222129 -0.639 183 183 173
-0.152905 -0.225952 -0.65 190 188 176
0.1344 -0.155733 -0.448 191 143 131
0.142295 -0.155038 -0.446 186 139 123
0.143671 -0.15469 -0.445 188 139 125
0.161803 -0.152605 -0.439 165 117 105
0.178023 -0.154343 -0.444 122 73 68
0.195857 -0.156429 -0.45 118 75 69
0.219627 -0.161295 -0.464 108 69 64
0.229707 -0.164076 -0.472 101 64 58
0.26679 -0.178676 -0.514 62 39 45
0.274787 -0.180067 -0.518 73 48 52
0.278195 -0.179719 -0.517 80 55 58
0.283434 -0.178676 -0.514 90 65 69
0.296771 -0.177286 -0.51 104 78 79
0.303717 -0.176243 -0.507 111 82 84
0.30758 -0.176243 -0.507 111 82 84
0.315986 -0.175548 -0.505 114 85 87
0.342519 -0.174852 -0.503 111 84 89
0.406013 -0.180067 -0.518 162 112 101
0.41174 -0.180414 -0.519 143 96 88
0.418289 -0.18111 -0.521 132 87 81
0.436983 -0.183543 -0.528 133 89 86
0.438818 -0.18389 -0.529 133 89 86
0.443333 -0.184933 -0.532 136 91 88
-0.171009 -0.223346 -0.639 180 180 172
0.128417 -0.158684 -0.454 196 146 137
0.129573 -0.157985 -0.452 194 144 135
0.135253 -0.156587 -0.448 193 143 132
0.136107 -0.156587 -0.448 192 142 131
0.15078 -0.15414 -0.441 186 138 124
0.168876 -0.15379 -0.44 150 103 95
0.1701 -0.15414 -0.441 148 101 93
0.186889 -0.156237 -0.447 136 88 84
0.191146 -0.156936 -0.449 124 79 74
0.20935 -0.159732 -0.457 111 72 67
0.218271 -0.16183 -0.463 109 72 66
0.230193 -0.165325 -0.473 98 63 59
0.282455 -0.179655 -0.514 90 64 67
0.297159 -0.177908 -0.509 105 79 80
0.308546 -0.177209 -0.507 111 83 82
0.327495 -0.175461 -0.502 120 94 97
0.4025 -0.1835 -0.525 175 128 118
0.403831 -0.181403 -0.519 165 115 104
-0.316594 -0.227726 -0.648 253 254 248
-0.294831 -0.228077 -0.649 255 255 250
-0.158853 -0.22632 -0.644 188 186 174
0.12771 -0.163063 -0.464 194 151 135
0.182223 -0.156737 -0.446 137 88 84
0.18816 -0.15744 -0.448 129 84 79
0.195433 -0.158494 -0.451 117 76 72
0.208479 -0.160603 -0.457 110 73 67
0.274787 -0.18204 -0.518 75 50 56
0.282455 -0.180634 -0.514 91 65 68
0.324315 -0.176769 -0.503 115 86 90
0.345526 -0.177823 -0.506 80 57 63
0.401733 -0.184149 -0.524 175 127 117
0.40996 -0.18204 -0.518 142 95 87
0.4285 -0.1845 -0.525 121 84 78
0.4305 -0.1845 -0.525 142 103 98
-0.315617 -0.228253 -0.646 255 255 248
-0.310695 -0.228253 -0.646 247 248 242
-0.294377 -0.22896 -0.648 254 255 249
-0.293595 -0.229313 -0.649 255 255 250
-0.29281 -0.229667 -0.65 254 255 250
-0.168047 -0.225073 -0.637 182 182 174
-0.16562 -0.225073 -0.637 183 184 176
-0.158116 -0.228253 -0.646 187 184 175
0.143671 -0.157233 -0.445 190 140 129
0.147754 -0.156173 -0.442 185 136 122
0.15078 -0.15582 -0.441 186 138 124
0.161333 -0.155467 -0.44 165 117 107
0.162171 -0.155467 -0.44 159 111 101
0.186889 -0.15794 -0.447 130 87 81
0.191146 -0.158647 -0.449 120 79 73
0.209808 -0.161827 -0.458 105 70 64
0.231653 -0.168187 -0.476 94 66 65
0.27918 -0.182673 -0.517 84 59 63
0.282024 -0.181967 -0.515 89 64 67
0.2958 -0.1802 -0.51 106 77 79
0.299854 -0.17914 -0.507 107 78 80
0.30082 -0.17914 -0.507 110 82 81
0.321441 -0.177727 -0.503 115 86 88
0.333523 -0.17702 -0.501 207 186 195
0.359738 -0.184087 -0.521 62 56 68
0.364192 -0.185853 -0.526 67 59 72
0.401638 -0.183733 -0.52 175 128 120
0.40523 -0.182673 -0.517 154 105 91
0.422883 -0.184793 -0.523 120 81 74
0.439826 -0.186913 -0.529 132 90 91
0.441667 -0.187267 -0.53 132 90 91
-0.322028 -0.23055 -0.649 251 254 247
-0.306053 -0.228773 -0.644 160 161 155
-0.29716 -0.229484 -0.646 225 226 221
-0.295155 -0.229839 -0.647 254 255 250
-0.293143 -0.230194 -0.648 254 255 250
-0.168994 -0.225931 -0.636 183 183 175
0.127525 -0.162344 -0.457 195 147 137
0.14504 -0.157726 -0.444 187 139 125
0.16926 -0.15666 -0.441 150 101 94
0.172559 -0.15737 -0.443 147 98 83
0.178424 -0.158081 -0.445 136 86 75
0.201922 -0.161278 -0.454 113 79 70
0.2041 -0.161633 -0.455 108 74 65
0.210266 -0.163054 -0.459 101 68 63
0.230262 -0.168738 -0.475 92 63 65
0.240223 -0.172646 -0.486 82 62 64
0.245063 -0.174777 -0.492 79 58 63
0.260367 -0.181527 -0.511 61 40 49
0.298889 -0.180106 -0.507 107 79 78
0.309865 -0.17975 -0.506 110 82 81
0.329408 -0.17833 -0.502 147 122 126
0.334477 -0.177974 -0.501 146 125 134
0.33897 -0.17833 -0.502 113 87 88
0.403551 -0.187921 -0.529 176 125 121
0.407199 -0.183658 -0.517 146 100 87
0.422074 -0.185434 -0.522 120 82 73
0.4305 -0.1865 -0.525 143 104 99
-0.16008 -0.23 -0.644 188 186 174
0.127209 -0.163929 -0.459 193 145 133
0.128134 -0.161786 -0.453 193 147 134
0.136654 -0.159643 -0.447 191 141 130
0.139747 -0.159286 -0.446 190 141 127
0.14504 -0.158571 -0.444 185 136 121
0.154629 -0.157143 -0.44 179 129 118
0.159657 -0.157143 -0.44 171 125 112
0.18816 -0.16 -0.448 125 85 77
0.205868 -0.163214 -0.457 107 72 68
0.220157 -0.166786 -0.467 100 66 67
0.238805 -0.173214 -0.485 89 63 64
0.249 -0.177857 -0.498 42 28 41
0.282455 -0.183571 -0.514 91 64 69
0.286647 -0.1825 -0.511 98 72 75
0.295608 -0.181429 -0.508 106 78 77
0.305046 -0.180714 -0.506 110 82 81
0.320483 -0.179643 -0.503 113 84 86
0.324627 -0.179286 -0.502 109 82 87
0.334477 -0.178929 -0.501 116 91 95
0.338013 -0.179286 -0.502 117 87 89
0.404066 -0.189643 -0.531 174 125 118
0.401854 -0.185357 -0.519 173 126 120
0.407987 -0.185 -0.518 148 103 84
0.448051 -0.190714 -0.534 132 86 88
-0.308028 -0.230868 -0.643 144 145 139
-0.164923 -0.229431 -0.639 185 185 175
-0.0522952 -0.231945 -0.646 71 70 78
0.13184 -0.160853 -0.448 198 148 137
0.1341 -0.160494 -0.447 196 146 135
0.146401 -0.159058 -0.443 191 142 128
0.1491 -0.15834 -0.441 184 135 121
0.1659 -0.15834 -0.441 151 103 93
0.171715 -0.159058 -0.443 146 96 85
0.183483 -0.160494 -0.447 127 83 74
0.19029 -0.161212 -0.449 118 78 70
0.192429 -0.161571 -0.45 115 77 68
0.202367 -0.163367 -0.455 110 75 69
0.27721 -0.185628 -0.517 85 58 65
0.29522 -0.182755 -0.509 107 78 80
0.302154 -0.181678 -0.506 109 81 80
0.308901 -0.181678 -0.506 111 83 82
0.312138 -0.181319 -0.505 111 83 82
0.31632 -0.18096 -0.504 112 83 85
0.343598 -0.181678 -0.506 81 58 64
0.410947 -0.185987 -0.518 139 97 81
0.414706 -0.186346 -0.519 134 95 80
0.460774 -0.194963 -0.543 133 94 97
0.46436 -0.19604 -0.546 131 92 95
-0.31244 -0.231731 -0.642 146 147 141
-0.28865 -0.234258 -0.649 251 252 247
-0.164923 -0.230649 -0.639 186 186 176
-0.162997 -0.23137 -0.641 187 184 175
-0.0574829 -0.234258 -0.649 69 68 74
-0.0547562 -0.233175 -0.646 69 68 76
-0.0510648 -0.233175 -0.646 72 71 79
0.126688 -0.163872 -0.454 186 136 125
0.130424 -0.162068 -0.449 195 145 134
0.138048 -0.160985 -0.446 188 139 125
0.145557 -0.159902 -0.443 191 142 128
0.14994 -0.15918 -0.441 183 134 120
0.16338 -0.15918 -0.441 155 105 94
0.180524 -0.160985 -0.446 133 89 80
0.18858 -0.162068 -0.449 125 85 75
0.204997 -0.164955 -0.457 107 72 66
0.215208 -0.167482 -0.464 97 67 65
0.229895 -0.172535 -0.478 81 55 58
0.238862 -0.175784 -0.487 72 55 71
0.272979 -0.189139 -0.524 67 47 59
0.27492 -0.188417 -0.522 71 50 59
0.27721 -0.186612 -0.517 86 59 64
0.27918 -0.186612 -0.517 88 61 68
0.302154 -0.182642 -0.506 109 80 82
0.30601 -0.182642 -0.506 110 81 83
0.310214 -0.182281 -0.505 111 82 84
0.312138 -0.182281 -0.505 110 81 83
0.320802 -0.181198 -0.502 113 84 88
0.326539 -0.181198 -0.502 115 88 93
0.346605 -0.183725 -0.509 60 50 61
0.40404 -0.186973 -0.518 165 115 106
0.4325 -0.1895 -0.525 141 97 94
0.438994 -0.190583 -0.528 131 91 89
0.45075 -0.19347 -0.536 137 93 92
-0.324957 -0.234043 -0.645 247 250 243
-0.321 -0.232954 -0.642 245 250 243
-0.319279 -0.232591 -0.641 234 239 232
-0.285381 -0.235857 -0.65 254 255 250
-0.168729 -0.230414 -0.635 184 184 174
-0.0586286 -0.235131 -0.648 68 67 75
-0.0572171 -0.234406 -0.646 69 68 76
-0.0545867 -0.23368 -0.644 69 68 76
-0.0521333 -0.23368 -0.644 71 70 78
0.126334 -0.166551 -0.459 196 148 136
0.126377 -0.165463 -0.456 194 144 133
0.126688 -0.164737 -0.454 190 140 129
0.129 -0.163286 -0.45 194 144 133
0.148596 -0.160383 -0.442 184 135 121
0.161333 -0.159657 -0.44 160 112 100
0.178825 -0.161834 -0.446 138 91 83
0.184747 -0.16256 -0.448 124 84 76
0.192856 -0.163649 -0.451 118 80 71
0.21252 -0.16764 -0.462 96 66 66
0.277294 -0.188323 -0.519 85 58 63
0.31152 -0.18288 -0.504 109 80 82
0.31536 -0.18288 -0.504 110 81 85
0.334477 -0.181791 -0.501 109 84 90
0.401854 -0.188323 -0.519 173 126 118
0.417486 -0.188686 -0.52 134 92 80
0.448051 -0.193766 -0.534 130 89 87
0.456353 -0.19558 -0.539 145 101 100
-0.326186 -0.235271 -0.645 248 251 244
-0.324453 -0.234907 -0.644 245 248 241
-0.315124 -0.233448 -0.64 154 159 152
-0.290557 -0.235271 -0.645 122 123 118
-0.16614 -0.233083 -0.639 185 185 175
-0.157371 -0.236366 -0.648 187 187 175
-0.0510648 -0.235636 -0.646 74 72 83
-0.0488295 -0.23673 -0.649 75 72 83
0.141976 -0.162319 -0.445 194 145 131
0.144194 -0.161954 -0.444 194 144 133
0.156305 -0.160495 -0.44 173 125 113
0.16506 -0.16086 -0.441 149 101 91
0.170028 -0.16159 -0.443 146 96 89
0.177975 -0.162684 -0.446 137 90 82
0.189 -0.164143 -0.45 119 81 72
0.210304 -0.168155 -0.461 95 65 65
0.234625 -0.176545 -0.484 90 65 71
0.275637 -0.194418 -0.533 69 53 66
0.276909 -0.190406 -0.522 75 54 63
0.280165 -0.188582 -0.517 93 64 69
0.282883 -0.187123 -0.513 95 70 74
0.300227 -0.18457 -0.506 108 79 81
0.30829 -0.184205 -0.505 110 82 81
0.405829 -0.195512 -0.536 171 124 116
0.400426 -0.190041 -0.521 178 131 125
0.407987 -0.188947 -0.518 150 102 90
0.422258 -0.190041 -0.521 120 77 68
-0.3195 -0.2343 -0.639 192 197 190
-0.289777 -0.236867 -0.646 147 146 142
-0.284143 -0.238333 -0.65 254 255 249
-0.0609086 -0.236867 -0.646 64 61 70
-0.0520524 -0.235767 -0.643 73 71 82
0.141657 -0.1628 -0.444 197 148 133
0.179226 -0.1639 -0.447 136 89 83
0.184747 -0.164267 -0.448 121 80 74
0.201074 -0.1672 -0.456 109 74 70
0.209426 -0.169033 -0.461 95 65 65
0.21344 -0.170133 -0.464 96 66 66
0.21842 -0.171967 -0.469 96 67 69
0.279271 -0.1903 -0.519 87 62 68
0.292705 -0.186267 -0.508 105 76 80
0.305405 -0.185167 -0.505 110 81 83
0.3096 -0.1848 -0.504 109 80 82
0.317933 -0.184067 -0.502 112 83 87
0.328095 -0.183333 -0.5 206 186 195
0.344666 -0.186633 -0.509 59 52 60
0.40404 -0.189933 -0.518 161 109 95
0.418476 -0.190667 -0.52 141 98 89
0.419467 -0.190667 -0.52 133 90 81
0.438163 -0.193233 -0.527 132 92 92
-0.321934 -0.235517 -0.639 246 249 242
-0.167095 -0.235149 -0.638 184 184 172
0.14994 -0.16254 -0.441 178 128 117
0.152952 -0.162171 -0.44 167 117 106
0.154629 -0.162171 -0.44 173 123 112
0.160495 -0.162171 -0.44 161 113 101
0.16338 -0.16254 -0.441 152 102 95
0.183893 -0.16512 -0.448 122 81 75
0.191997 -0.166226 -0.451 116 79 73
0.194574 -0.166963 -0.453 117 79 76
0.196733 -0.167331 -0.454 114 76 73
0.296957 -0.186866 -0.507 107 78 83
0.315065 -0.185023 -0.502 111 82 86
0.316977 -0.185023 -0.502 112 83 87
0.32398 -0.184654 -0.501 144 119 122
0.400648 -0.191657 -0.52 177 128 121
0.414706 -0.191289 -0.519 141 97 94
0.426051 -0.192394 -0.522 134 89 86
-0.323657 -0.237105 -0.64 250 251 245
-0.171687 -0.235993 -0.637 184 184 172
-0.170206 -0.235623 -0.636 185 185 173
-0.0566857 -0.237105 -0.64 69 67 78
-0.0555533 -0.237475 -0.641 71 70 78
-0.0488295 -0.240439 -0.649 72 70 81
0.125823 -0.168196 -0.454 191 148 132
0.130987 -0.165973 -0.448 194 145 131
0.133249 -0.165603 -0.447 195 146 132
0.16375 -0.16375 -0.442 147 97 90
0.164592 -0.16375 -0.442 150 100 93
0.169566 -0.164491 -0.444 148 98 91
0.174577 -0.165232 -0.446 141 94 88
0.191138 -0.167085 -0.451 116 77 72
0.21482 -0.173012 -0.467 95 65 65
0.22859 -0.178199 -0.481 90 61 65
0.230937 -0.17931 -0.484 89 62 67
0.255042 -0.190425 -0.514 133 157 205
0.281569 -0.195241 -0.527 79 57 69
0.29406 -0.187831 -0.507 107 78 83
0.30096 -0.18672 -0.504 109 80 85
0.335145 -0.185979 -0.502 107 80 85
0.406013 -0.191907 -0.518 156 103 97
0.420457 -0.192648 -0.52 141 96 90
0.4345 -0.1945 -0.525 135 91 90
-0.328849 -0.239441 -0.643 250 253 244
-0.286086 -0.240558 -0.646 234 226 223
0.125823 -0.169061 -0.454 192 146 133
0.16872 -0.165337 -0.444 148 100 90
0.169566 -0.165337 -0.444 145 97 87
0.17249 -0.16571 -0.445 145 94 90
0.187286 -0.167571 -0.45 118 77 73
0.210789 -0.172785 -0.464 98 67 65
0.2815 -0.1955 -0.525 79 57 69
0.281693 -0.192893 -0.518 87 66 73
0.296371 -0.188425 -0.506 108 79 84
0.298671 -0.188052 -0.505 108 79 84
0.3 -0.18768 -0.504 109 80 85
0.30192 -0.18768 -0.504 109 80 85
0.34138 -0.188797 -0.507 60 49 57
0.3995 -0.1955 -0.525 176 128 124
0.42325 -0.19401 -0.521 126 83 77
0.424243 -0.19401 -0.521 125 82 76
0.43633 -0.195872 -0.526 141 97 96
0.437331 -0.195872 -0.526 131 90 88
-0.322646 -0.238794 -0.638 233 236 229
-0.3185 -0.23842 -0.637 148 150 145
-0.284064 -0.242163 -0.647 252 251 246
-0.168994 -0.238046 -0.636 185 185 173
-0.064 -0.239543 -0.64 70 66 80
-0.0578143 -0.239169 -0.639 69 65 79
-0.0510648 -0.241789 -0.646 73 71 84
0.142503 -0.166183 -0.444 194 145 131
0.149438 -0.165434 -0.442 174 124 113
0.14994 -0.16506 -0.441 172 122 111
0.15162 -0.16506 -0.441 177 125 114
0.192849 -0.169551 -0.453 111 73 70
0.194139 -0.169926 -0.454 112 74 71
0.199774 -0.171049 -0.457 107 72 70
0.205913 -0.172546 -0.461 99 68 66
0.286647 -0.19126 -0.511 102 71 77
0.439167 -0.197249 -0.527 130 88 89
-0.281233 -0.244148 -0.649 250 255 248
-0.159095 -0.244524 -0.65 190 188 176
0.132397 -0.168157 -0.447 196 148 134
0.137738 -0.167405 -0.445 191 142 128
0.142182 -0.166652 -0.443 195 146 132
0.147754 -0.166276 -0.442 177 128 114
0.162909 -0.166276 -0.442 155 105 96
0.16375 -0.166276 -0.442 155 105 98
0.167874 -0.167029 -0.444 146 97 90
0.170795 -0.167405 -0.445 145 96 89
0.195433 -0.171167 -0.455 112 77 75
0.205035 -0.173424 -0.461 99 69 69
0.283667 -0.194867 -0.518 91 68 74
0.284104 -0.19449 -0.517 95 72 78
0.292705 -0.191105 -0.508 104 78 77
0.295408 -0.190352 -0.506 109 80 85
0.296371 -0.190352 -0.506 109 80 85
0.29808 -0.1896 -0.504 110 81 85
0.30288 -0.1896 -0.504 110 81 86
0.305153 -0.189224 -0.503 112 83 87
0.308028 -0.189224 -0.503 112 83 87
0.309944 -0.189224 -0.503 111 82 86
0.322071 -0.188471 -0.501 136 111 115
0.33 -0.188095 -0.5 113 88 92
0.400276 -0.199381 -0.53 178 129 124
0.40482 -0.195243 -0.519 159 110 103
0.430852 -0.196748 -0.523 135 92 86
0.433672 -0.197124 -0.524 135 92 86
0.460108 -0.203519 -0.541 141 97 94
-0.280429 -0.245762 -0.65 251 252 247
-0.160333 -0.245762 -0.65 191 189 177
-0.0735533 -0.245384 -0.649 62 62 74
0.12928 -0.169387 -0.448 194 148 135
0.13465 -0.16863 -0.446 196 148 134
0.138586 -0.168252 -0.445 191 142 128
0.1533 -0.16674 -0.441 169 114 107
0.15918 -0.16674 -0.441 159 106 98
0.182593 -0.169765 -0.449 119 80 75
0.183449 -0.169765 -0.449 117 78 73
0.188561 -0.170521 -0.451 117 78 71
0.193274 -0.171655 -0.454 110 75 69
0.22031 -0.179595 -0.475 92 66 67
0.2277 -0.18262 -0.483 91 62 64
0.242381 -0.189048 -0.5 227 227 255
0.292705 -0.192072 -0.508 103 77 80
0.317933 -0.189804 -0.502 103 76 81
0.318254 -0.189426 -0.501 114 87 92
0.320163 -0.189426 -0.501 111 84 89
0.321117 -0.189426 -0.501 101 78 84
0.334189 -0.189804 -0.502 109 84 88
0.341086 -0.192072 -0.508 63 42 49
0.451771 -0.202659 -0.536 122 77 71
-0.160333 -0.247 -0.65 191 189 177
0.124991 -0.17138 -0.451 192 146 133
0.137429 -0.16872 -0.444 193 145 131
0.1533 -0.16758 -0.441 166 111 104
0.165809 -0.16834 -0.443 146 95 92
0.181738 -0.17062 -0.449 121 82 77
0.185984 -0.17138 -0.451 113 78 74
0.191986 -0.17214 -0.453 113 76 68
0.216221 -0.17936 -0.472 93 67 70
0.290943 -0.1938 -0.51 102 77 80
0.291342 -0.19342 -0.509 102 77 80
0.292311 -0.19342 -0.509 104 79 83
0.295786 -0.1919 -0.505 110 81 86
0.30096 -0.19152 -0.504 109 80 84
0.308028 -0.19114 -0.503 108 82 85
0.315065 -0.19076 -0.502 109 82 87
0.316021 -0.19076 -0.502 110 83 88
0.324286 -0.19 -0.5 186 169 177
0.398667 -0.1976 -0.52 176 129 123
0.408774 -0.19722 -0.519 151 102 95
0.41174 -0.19722 -0.519 154 106 96
0.418476 -0.1976 -0.52 136 89 83
0.445534 -0.20178 -0.531 126 81 75
-0.336862 -0.247856 -0.649 253 254 246
-0.324057 -0.242891 -0.636 251 252 246
-0.319211 -0.242891 -0.636 140 142 137
-0.1664 -0.244419 -0.64 188 188 176
-0.0773809 -0.248238 -0.65 70 69 77
-0.0619962 -0.241364 -0.632 67 66 80
0.123557 -0.177586 -0.465 192 148 135
0.125571 -0.171857 -0.45 193 145 133
0.132397 -0.170711 -0.447 194 148 133
0.14607 -0.168802 -0.442 189 139 128
0.160383 -0.168802 -0.442 153 102 98
0.165809 -0.169184 -0.443 147 96 93
0.17033 -0.17033 -0.446 142 93 89
0.181738 -0.171475 -0.449 121 82 77
0.191123 -0.173003 -0.453 115 78 70
0.289774 -0.202791 -0.531 87 68 74
0.30096 -0.19248 -0.504 108 82 83
0.3173 -0.191334 -0.501 113 84 88
0.318254 -0.191334 -0.501 110 81 85
0.321117 -0.191334 -0.501 110 89 94
0.398667 -0.19859 -0.52 176 129 121
0.403053 -0.197827 -0.518 160 110 103
0.40404 -0.197827 -0.518 157 108 101
0.409763 -0.198209 -0.519 148 100 90
0.410751 -0.198209 -0.519 151 103 93
0.439167 -0.201264 -0.527 133 92 88
-0.336862 -0.249092 -0.649 253 254 246
-0.32802 -0.245254 -0.639 251 252 246
-0.0597771 -0.243335 -0.634 67 67 79
-0.0544171 -0.246406 -0.642 69 69 81
-0.0532771 -0.24679 -0.643 70 70 82
0.145229 -0.169644 -0.442 186 136 125
0.15834 -0.16926 -0.441 157 104 100
0.162067 -0.169644 -0.442 148 97 93
0.174969 -0.171563 -0.447 134 89 83
0.180028 -0.17233 -0.449 120 79 73
0.194994 -0.175017 -0.456 109 74 70
0.195863 -0.175017 -0.456 106 72 70
0.196731 -0.175017 -0.456 106 72 70
0.199339 -0.175785 -0.458 103 72 70
0.240961 -0.193056 -0.503 255 253 255
0.3 -0.19344 -0.504 108 82 83
0.308371 -0.192672 -0.502 111 82 84
0.400866 -0.199197 -0.519 169 119 112
0.406797 -0.199197 -0.519 147 98 91
0.408774 -0.199197 -0.519 149 99 90
0.424419 -0.199581 -0.52 131 86 80
0.442849 -0.203035 -0.529 126 81 76
0.455507 -0.20649 -0.538 131 87 78
0.470049 -0.210711 -0.549 133 95 92
-0.336343 -0.249943 -0.648 252 255 246
-0.330783 -0.247629 -0.642 252 253 245
-0.319211 -0.245314 -0.636 145 147 142
-0.179986 -0.248786 -0.645 186 188 177
-0.17466 -0.246471 -0.639 185 185 175
-0.0776514 -0.247629 -0.642 70 67 84
0.129843 -0.172414 -0.447 198 148 137
0.1335 -0.171643 -0.445 195 147 133
0.136583 -0.171257 -0.444 195 147 133
0.137963 -0.170871 -0.443 195 147 133
0.13965 -0.170871 -0.443 196 148 134
0.141019 -0.170486 -0.442 195 147 133
0.15246 -0.1701 -0.441 174 121 113
0.163277 -0.170871 -0.443 146 95 91
0.17582 -0.172414 -0.447 132 87 81
0.192833 -0.1755 -0.455 108 73 69
0.1937 -0.1755 -0.455 108 73 69
0.20284 -0.1782 -0.462 98 68 66
0.217603 -0.183986 -0.477 92 63 67
0.21897 -0.184371 -0.478 89 64 68
0.293281 -0.196329 -0.509 103 78 82
0.318254 -0.193243 -0.501 104 78 81
0.412729 -0.200186 -0.519 138 88 79
-0.315577 -0.246526 -0.636 121 126 122
-0.161571 -0.251952 -0.65 193 191 179
-0.0727152 -0.244588 -0.631 67 66 82
-0.0522143 -0.250014 -0.645 67 69 81
0.138807 -0.171715 -0.443 197 150 134
0.165337 -0.172103 -0.444 147 96 92
0.176213 -0.173653 -0.448 128 85 78
0.20021 -0.178305 -0.46 101 72 68
0.225875 -0.18877 -0.487 93 69 69
0.294831 -0.205826 -0.531 81 71 80
0.29904 -0.19536 -0.504 112 83 87
0.301321 -0.194972 -0.503 109 80 82
0.307415 -0.194585 -0.502 110 84 87
0.315391 -0.194197 -0.501 108 82 85
0.422438 -0.201562 -0.52 130 83 75
0.423429 -0.201562 -0.52 131 84 76
0.447387 -0.206213 -0.532 123 78 72
0.450086 -0.206989 -0.534 125 78 70
0.452792 -0.207764 -0.536 123 76 68
0.469192 -0.212415 -0.548 131 93 90
-0.336343 -0.252411 -0.648 253 254 246
-0.330783 -0.250074 -0.642 251 252 244
-0.181381 -0.25319 -0.65 189 191 180
-0.171009 -0.248906 -0.639 188 188 178
-0.169791 -0.248906 -0.639 189 189 179
-0.0676924 -0.24501 -0.629 67 67 77
0.15246 -0.17178 -0.441 172 119 113
0.164491 -0.172949 -0.444 145 96 91
0.176213 -0.174507 -0.448 128 85 76
0.199333 -0.179181 -0.46 105 72 67
0.203718 -0.180739 -0.464 98 68 66
0.21038 -0.183466 -0.471 95 65 63
0.215786 -0.185803 -0.477 83 57 60
0.293811 -0.203331 -0.522 92 70 72
0.29425 -0.198268 -0.509 106 77 82
0.307415 -0.195541 -0.502 106 84 86
0.308711 -0.195151 -0.501 109 83 86
0.312529 -0.195151 -0.501 113 84 89
0.319524 -0.194762 -0.5 207 186 191
0.322381 -0.194762 -0.5 121 103 103
0.323333 -0.194762 -0.5 103 85 85
0.411711 -0.230988 -0.593 82 84 105
0.398211 -0.203331 -0.522 177 128 123
0.406797 -0.202163 -0.519 146 98 88
0.414514 -0.202552 -0.52 138 90 80
0.430029 -0.203331 -0.522 140 95 90
0.450086 -0.208006 -0.534 120 77 71
0.458407 -0.209953 -0.539 128 87 81
-0.333557 -0.252471 -0.645 251 252 244
-0.32802 -0.250123 -0.639 254 255 247
-0.321634 -0.248949 -0.636 249 252 245
-0.282034 -0.253646 -0.648 253 254 248
-0.171009 -0.250123 -0.639 188 188 178
-0.167357 -0.250123 -0.639 192 189 180
-0.16473 -0.251689 -0.643 193 191 179
-0.163543 -0.253646 -0.648 194 192 180
-0.0872857 -0.254429 -0.65 70 71 75
-0.0587543 -0.248949 -0.636 67 67 79
-0.0499114 -0.253254 -0.647 68 70 82
0.123582 -0.175751 -0.449 194 148 132
0.124437 -0.175751 -0.449 195 148 132
0.126437 -0.174969 -0.447 193 146 130
0.136275 -0.173403 -0.443 193 146 130
0.145229 -0.173011 -0.442 189 140 126
0.159541 -0.173011 -0.442 156 103 97
0.178317 -0.175751 -0.449 122 82 74
0.179172 -0.175751 -0.449 120 81 74
0.2077 -0.18358 -0.469 96 68 67
0.209483 -0.184363 -0.471 95 67 66
0.220796 -0.189451 -0.484 86 58 54
0.243797 -0.200803 -0.513 254 252 253
0.300363 -0.196889 -0.503 107 81 84
0.305503 -0.196497 -0.502 108 83 87
0.306459 -0.196497 -0.502 108 83 87
0.413794 -0.233291 -0.596 80 82 105
0.422438 -0.203543 -0.52 127 80 72
0.431023 -0.204326 -0.522 139 94 89
0.444695 -0.207457 -0.53 123 78 73
-0.320423 -0.25016 -0.636 249 251 246
-0.169791 -0.25134 -0.639 189 189 179
-0.0588467 -0.250553 -0.637 68 68 80
0.128703 -0.175427 -0.446 194 147 131
0.135431 -0.174247 -0.443 193 145 131
0.138493 -0.173853 -0.442 195 146 131
0.142703 -0.173853 -0.442 194 145 130
0.147754 -0.173853 -0.442 172 122 111
0.15498 -0.17346 -0.441 165 112 108
0.180429 -0.177 -0.45 119 80 75
0.181689 -0.177393 -0.451 115 78 72
0.20195 -0.182507 -0.464 96 66 64
0.221709 -0.19116 -0.486 88 62 63
0.295757 -0.202567 -0.515 102 77 81
0.2958 -0.2006 -0.51 108 77 83
0.297335 -0.199027 -0.506 110 81 86
0.324286 -0.196667 -0.5 109 80 85
0.405809 -0.20414 -0.519 147 97 88
0.431023 -0.20532 -0.522 139 94 88
0.438333 -0.206893 -0.526 128 83 78
0.456531 -0.211613 -0.538 130 89 85
-0.336862 -0.25651 -0.649 251 254 245
-0.286871 -0.254929 -0.645 227 228 223
-0.281233 -0.25651 -0.649 252 253 247
-0.162786 -0.254929 -0.645 195 193 181
-0.0890714 -0.254929 -0.645 65 64 70
-0.0825914 -0.250186 -0.633 70 68 81
-0.0475933 -0.25651 -0.649 71 71 83
0.11986 -0.182205 -0.461 196 153 136
0.137651 -0.174695 -0.442 196 147 132
0.141861 -0.174695 -0.442 192 143 128
0.15078 -0.1743 -0.441 172 119 111
0.1533 -0.1743 -0.441 169 116 110
0.177857 -0.177857 -0.45 122 81 77
0.18083 -0.178252 -0.451 119 80 75
0.202821 -0.184181 -0.466 96 66 64
0.214866 -0.189319 -0.479 92 66 67
0.3 -0.1992 -0.504 112 83 88
0.397997 -0.209871 -0.531 179 130 123
0.415505 -0.205524 -0.52 134 85 80
0.417486 -0.205524 -0.52 137 90 82
0.428212 -0.205919 -0.521 143 96 90
-0.32214 -0.25298 -0.637 251 254 247
-0.312433 -0.25298 -0.637 145 150 143
-0.31122 -0.25298 -0.637 133 138 134
-0.167357 -0.253774 -0.639 192 190 178
-0.165181 -0.254171 -0.64 193 191 179
-0.161323 -0.257746 -0.649 195 193 181
-0.0915286 -0.256157 -0.645 71 68 77
-0.0675848 -0.249406 -0.628 68 68 80
-0.0555533 -0.254569 -0.641 65 67 80
0.123883 -0.177523 -0.447 196 148 134
0.132056 -0.175934 -0.443 193 145 131
0.1449 -0.17514 -0.441 183 131 117
0.15582 -0.17514 -0.441 162 107 102
0.190199 -0.181494 -0.457 106 73 66
0.216211 -0.191423 -0.482 91 65 68
0.3 -0.20016 -0.504 111 82 87
0.303237 -0.199763 -0.503 112 81 87
0.309666 -0.198969 -0.501 113 82 88
0.310952 -0.198571 -0.5 114 83 91
0.314762 -0.198571 -0.5 109 84 90
0.315714 -0.198571 -0.5 130 105 111
0.423284 -0.241463 -0.608 77 77 101
0.398211 -0.212074 -0.534 166 117 113
0.396754 -0.209691 -0.528 178 129 124
0.396982 -0.207706 -0.523 174 126 122
0.398667 -0.206514 -0.52 165 117 113
0.413524 -0.206514 -0.52 133 84 79
0.414514 -0.206514 -0.52 133 84 79
0.420457 -0.206514 -0.52 134 85 78
-0.313647 -0.254193 -0.637 222 227 221
-0.175753 -0.256588 -0.643 189 189 179
-0.160087 -0.258982 -0.649 195 193 181
-0.0959524 -0.259381 -0.65 80 79 85
-0.0923257 -0.256189 -0.642 68 66 79
-0.0588467 -0.254193 -0.637 67 66 80
-0.0509857 -0.257386 -0.645 69 68 82
-0.0475933 -0.258982 -0.649 68 70 82
0.135968 -0.176379 -0.442 195 146 131
0.167781 -0.177975 -0.446 135 87 83
0.204127 -0.187153 -0.469 97 69 68
0.219382 -0.194336 -0.487 83 69 82
0.3 -0.20112 -0.504 111 81 89
0.309666 -0.199923 -0.501 112 82 90
0.31381 -0.199524 -0.5 115 85 93
0.325889 -0.199923 -0.501 114 84 92
0.33072 -0.20112 -0.504 87 64 72
0.403831 -0.207106 -0.519 147 99 89
0.417486 -0.207505 -0.52 138 89 82
0.418476 -0.207505 -0.52 144 96 86
0.4264 -0.207505 -0.52 147 100 92
0.433841 -0.208702 -0.523 136 89 83
-0.335626 -0.260218 -0.649 250 253 246
-0.327314 -0.25661 -0.64 251 254 247
-0.289329 -0.258614 -0.645 84 85 80
-0.285737 -0.259817 -0.648 228 228 226
-0.15984 -0.259817 -0.648 196 193 184
-0.0645057 -0.253803 -0.633 68 69 74
-0.0578143 -0.256209 -0.639 66 66 74
0.16159 -0.177622 -0.443 143 94 90
0.18037 -0.18123 -0.452 116 79 73
0.183762 -0.182032 -0.454 111 76 70
0.189329 -0.183235 -0.457 105 72 67
0.218903 -0.195665 -0.488 89 67 70
0.303237 -0.201679 -0.503 115 84 90
0.304547 -0.201278 -0.502 114 83 89
0.416813 -0.241373 -0.602 78 78 104
0.395974 -0.212906 -0.531 169 118 117
0.399657 -0.208495 -0.52 162 112 103
0.402843 -0.208094 -0.519 152 102 93
0.433841 -0.209698 -0.523 135 88 82
-0.319 -0.257023 -0.638 253 255 250
-0.316073 -0.25662 -0.637 250 252 247
-0.309278 -0.257023 -0.638 246 249 242
-0.308546 -0.257426 -0.639 242 245 238
-0.163706 -0.257426 -0.639 194 192 180
-0.157857 -0.261857 -0.65 196 194 182
-0.0776019 -0.250577 -0.622 68 68 78
-0.0753533 -0.25098 -0.623 66 69 78
-0.0611771 -0.256217 -0.636 68 68 76
-0.0510648 -0.260246 -0.646 71 71 81
-0.0476667 -0.261857 -0.65 71 71 81
0.116567 -0.1833 -0.455 197 154 137
0.1329 -0.178466 -0.443 196 148 128
0.134284 -0.178063 -0.442 195 147 127
0.150438 -0.177257 -0.44 167 115 104
0.175286 -0.181286 -0.45 127 86 80
0.178648 -0.182091 -0.452 120 81 76
0.307415 -0.202234 -0.502 108 83 89
0.315714 -0.201429 -0.5 113 87 96
0.406797 -0.209083 -0.519 146 96 89
0.418476 -0.209486 -0.52 140 92 82
0.432017 -0.210291 -0.522 136 91 85
0.4375 -0.2115 -0.525 124 80 77
0.4484 -0.21432 -0.532 122 82 80
0.450258 -0.214723 -0.533 121 81 79
-0.334905 -0.263095 -0.65 251 254 247
-0.325891 -0.259857 -0.642 250 253 246
-0.322438 -0.259048 -0.64 250 253 246
-0.3195 -0.258643 -0.639 251 253 248
-0.305371 -0.259048 -0.64 248 251 244
-0.286529 -0.261881 -0.647 114 116 113
-0.164665 -0.258238 -0.638 194 192 180
-0.157371 -0.262286 -0.648 199 196 187
-0.07106 -0.253786 -0.627 67 70 79
-0.0611771 -0.257429 -0.636 69 69 77
-0.0488295 -0.26269 -0.649 71 71 81
-0.0476667 -0.263095 -0.65 71 71 81
0.128971 -0.179714 -0.444 199 152 136
0.1496 -0.178095 -0.44 169 117 104
0.159902 -0.17931 -0.443 148 97 94
0.166082 -0.180524 -0.446 138 90 86
0.17024 -0.181333 -0.448 129 84 81
0.173186 -0.181738 -0.449 129 84 81
0.1833 -0.184167 -0.455 112 77 73
0.302519 -0.204405 -0.505 109 83 94
0.309666 -0.202786 -0.501 110 82 94
0.319835 -0.201976 -0.499 119 87 98
0.333345 -0.205619 -0.508 51 43 54
0.400648 -0.210476 -0.52 157 108 101
0.415505 -0.210476 -0.52 131 83 73
0.417486 -0.210476 -0.52 134 84 75
0.422438 -0.210476 -0.52 137 89 79
0.439335 -0.212905 -0.526 115 78 72
0.456531 -0.217762 -0.538 130 93 87
-0.325891 -0.26108 -0.642 251 252 246
-0.324163 -0.260673 -0.641 251 252 246
-0.31098 -0.25986 -0.639 254 255 251
-0.297766 -0.26108 -0.642 255 255 251
-0.294555 -0.261487 -0.643 254 255 251
-0.291008 -0.262707 -0.646 248 250 245
-0.08708 -0.252947 -0.622 71 72 77
-0.0787867 -0.252947 -0.622 69 69 77
-0.0612733 -0.259047 -0.637 68 68 76
-0.0579952 -0.260673 -0.641 69 69 77
-0.0522143 -0.2623 -0.645 70 70 78
0.14541 -0.178933 -0.44 178 127 108
0.158699 -0.179747 -0.442 145 96 92
0.167306 -0.18178 -0.447 130 85 82
0.201836 -0.191947 -0.472 91 65 68
0.204497 -0.19276 -0.474 87 65 68
0.303193 -0.207807 -0.511 118 92 101
0.302976 -0.206993 -0.509 110 84 93
0.308711 -0.20374 -0.501 107 80 89
0.310952 -0.203333 -0.5 110 83 90
0.32719 -0.204553 -0.503 73 55 67
0.336945 -0.208213 -0.512 45 45 53
0.401638 -0.211467 -0.52 155 105 98
0.403831 -0.21106 -0.519 152 102 95
0.410552 -0.211467 -0.52 143 93 84
0.415505 -0.211467 -0.52 131 83 73
0.418476 -0.211467 -0.52 141 89 78
0.452967 -0.217567 -0.535 118 81 75
-0.301714 -0.261486 -0.64 254 255 251
-0.300495 -0.261486 -0.64 254 255 251
-0.291786 -0.263529 -0.645 254 255 253
-0.162937 -0.259851 -0.636 194 194 186
-0.111875 -0.265163 -0.649 227 226 221
-0.0978 -0.2574 -0.63 71 71 79
-0.0487543 -0.264754 -0.648 71 71 81
0.1365 -0.18018 -0.441 192 144 124
0.139543 -0.179771 -0.44 190 142 120
0.15582 -0.18018 -0.441 147 99 89
0.165232 -0.182223 -0.446 135 90 85
0.177787 -0.184674 -0.452 122 79 73
0.182433 -0.1859 -0.455 114 76 73
0.304543 -0.208371 -0.51 110 87 97
0.315083 -0.203877 -0.499 177 154 162
0.34188 -0.21164 -0.518 53 53 63
0.393737 -0.215726 -0.528 161 113 109
0.394743 -0.215726 -0.528 161 113 109
0.399657 -0.212457 -0.52 159 109 102
0.417486 -0.212457 -0.52 138 85 77
0.450258 -0.217769 -0.533 118 81 75
0.463877 -0.221854 -0.543 123 88 84
-0.314631 -0.262294 -0.639 253 255 252
-0.311467 -0.262705 -0.64 255 255 250
-0.29578 -0.263936 -0.643 254 255 253
-0.159553 -0.261473 -0.637 198 196 184
-0.158589 -0.261884 -0.638 202 200 188
-0.117 -0.26681 -0.65 241 240 235
-0.0916714 -0.254906 -0.621 76 75 81
-0.07654 -0.255727 -0.623 70 70 78
0.114581 -0.186356 -0.454 202 156 143
0.11674 -0.184304 -0.449 200 150 127
0.120477 -0.183483 -0.447 203 156 140
0.144571 -0.18061 -0.44 181 131 108
0.14541 -0.18061 -0.44 180 130 107
0.171475 -0.184304 -0.449 127 82 76
0.174429 -0.184714 -0.45 128 85 78
0.180303 -0.186356 -0.454 118 79 74
0.214694 -0.200723 -0.489 99 99 123
0.305284 -0.208522 -0.508 110 85 91
0.309328 -0.206059 -0.502 107 80 89
0.311905 -0.205238 -0.5 108 81 90
0.313182 -0.204828 -0.499 138 112 121
0.335649 -0.210574 -0.513 49 44 51
0.393995 -0.216321 -0.527 160 112 108
0.39499 -0.214679 -0.523 164 116 112
0.397217 -0.214269 -0.522 160 112 108
0.4264 -0.213448 -0.52 140 93 85
0.450258 -0.218784 -0.533 119 82 76
0.456531 -0.220836 -0.538 119 84 78
0.471952 -0.225762 -0.55 122 89 84
-0.327703 -0.267223 -0.648 252 253 248
-0.320275 -0.265161 -0.643 251 252 247
-0.313174 -0.264336 -0.641 251 252 247
-0.305849 -0.264336 -0.641 251 252 247
-0.162425 -0.26145 -0.634 223 223 221
-0.11751 -0.266398 -0.646 230 229 224
-0.102274 -0.258975 -0.628 72 75 80
-0.0927048 -0.255676 -0.62 74 74 82
0.138705 -0.181448 -0.44 191 143 121
0.160263 -0.183097 -0.444 139 93 78
0.162319 -0.18351 -0.445 137 91 78
0.165603 -0.184334 -0.447 131 87 76
0.173571 -0.185571 -0.45 128 85 76
0.181567 -0.187633 -0.455 110 75 73
0.19698 -0.193407 -0.469 88 63 69
0.306367 -0.208252 -0.505 109 82 87
0.310952 -0.20619 -0.5 110 82 94
0.399877 -0.214026 -0.519 153 102 98
0.407786 -0.214026 -0.519 143 94 87
0.463877 -0.223923 -0.543 119 84 78
-0.323 -0.267629 -0.646 251 252 247
-0.305103 -0.265971 -0.642 251 252 247
-0.298693 -0.2668 -0.644 253 253 251
-0.158551 -0.262243 -0.633 232 233 227
-0.153728 -0.264314 -0.638 208 207 202
-0.137835 -0.268871 -0.649 223 221 208
-0.130619 -0.269286 -0.65 234 232 220
-0.1196 -0.2668 -0.644 225 224 219
-0.100273 -0.2581 -0.623 67 70 75
-0.0924057 -0.256029 -0.618 73 75 87
-0.0603429 -0.265143 -0.64 70 70 78
-0.0534429 -0.267214 -0.645 71 71 81
0.113824 -0.186843 -0.451 199 153 138
0.115369 -0.185186 -0.447 200 155 136
0.127549 -0.183114 -0.442 199 153 130
0.145079 -0.181871 -0.439 174 126 103
0.1496 -0.182286 -0.44 156 108 94
0.178573 -0.188086 -0.454 119 80 75
0.185786 -0.190157 -0.459 106 74 75
0.30758 -0.210043 -0.507 104 81 87
0.319194 -0.206314 -0.498 112 82 90
0.333367 -0.2117 -0.511 42 39 50
0.398717 -0.224957 -0.543 150 108 110
0.403831 -0.215014 -0.519 152 101 97
0.413717 -0.215014 -0.519 142 92 85
0.429205 -0.215843 -0.521 122 82 74
0.432017 -0.216257 -0.522 123 83 75
-0.325 -0.270524 -0.65 252 253 248
-0.131249 -0.269275 -0.647 249 246 239
-0.117087 -0.265113 -0.637 112 110 111
-0.10502 -0.259287 -0.623 76 75 80
-0.0959371 -0.257206 -0.618 74 73 78
-0.0910809 -0.25679 -0.617 74 73 78
-0.0803571 -0.260119 -0.625 73 74 79
-0.0682305 -0.263865 -0.634 69 70 75
-0.0534429 -0.268443 -0.645 69 69 77
0.112233 -0.189367 -0.455 208 161 145
0.118509 -0.185621 -0.446 200 155 134
0.126707 -0.183956 -0.442 201 154 134
0.142895 -0.183124 -0.44 181 135 112
0.164751 -0.186037 -0.447 131 87 76
0.165603 -0.186037 -0.447 130 87 78
0.176454 -0.188534 -0.453 121 81 79
