ply
format ascii 1.0
comment Created by Open3D
element vertex 1317
property double x
property double y
property double z
property uchar red
property uchar green
property uchar blue
end_header
0.440814 -0.194755 -0.523 130 91 86
-0.162489 -0.239169 -0.639 187 187 177
-0.155381 -0.243286 -0.65 189 189 177
-0.0672686 -0.242537 -0.648 68 66 79
-0.0588467 -0.23842 -0.637 69 67 78
-0.0540781 -0.238794 -0.638 69 67 78
-0.0518095 -0.239543 -0.64 70 68 79
-0.0474467 -0.242163 -0.647 71 69 80
0.125868 -0.174791 -0.467 202 158 145
0.1417 -0.1703 -0.455 198 152 136
0.143433 -0.1703 -0.455 196 150 134
0.145167 -0.1703 -0.455 195 149 133
0.1495 -0.1703 -0.455 192 146 131
0.150367 -0.1703 -0.455 193 147 132
0.157819 -0.169926 -0.454 193 147 132
0.170038 -0.169177 -0.452 169 114 109
0.1914 -0.17292 -0.462 123 78 75
0.245263 -0.187891 -0.502 83 62 61
0.292116 -0.187891 -0.502 111 84 89
0.295941 -0.187891 -0.502 115 86 88
0.296306 -0.187517 -0.501 117 88 90
0.301429 -0.187143 -0.5 117 88 90
0.323581 -0.185646 -0.496 156 131 137
0.414452 -0.192757 -0.515 157 107 98
0.439818 -0.195751 -0.523 131 90 84
0.458223 -0.199869 -0.534 134 93 89
-0.158361 -0.243395 -0.647 189 189 179
-0.0682914 -0.243019 -0.646 69 67 80
-0.0638 -0.24001 -0.638 67 65 78
-0.0599657 -0.239257 -0.636 68 66 79
-0.0507486 -0.241514 -0.642 70 68 79
-0.0463571 -0.244148 -0.649 72 70 81
0.1313 -0.171167 -0.455 200 154 139
0.1365 -0.171167 -0.455 195 149 134
0.138233 -0.171167 -0.455 197 151 136
0.140833 -0.171167 -0.455 199 153 138
0.1443 -0.171167 -0.455 194 148 132
0.150036 -0.17079 -0.454 193 150 134
0.155746 -0.170414 -0.453 195 149 134
0.173003 -0.170414 -0.453 157 106 102
0.176844 -0.17079 -0.454 143 99 90
0.190108 -0.173424 -0.461 124 79 74
0.192696 -0.174176 -0.463 117 73 70
0.19488 -0.174552 -0.464 114 76 75
0.218059 -0.179819 -0.478 98 66 67
0.262496 -0.196748 -0.523 126 138 196
0.28735 -0.193362 -0.514 87 67 78
0.296306 -0.188471 -0.501 117 88 90
0.306863 -0.187343 -0.498 116 87 89
0.319802 -0.18659 -0.496 114 85 89
0.4015 -0.1975 -0.525 177 129 119
0.400648 -0.195619 -0.52 180 131 126
0.400866 -0.195243 -0.519 185 136 131
0.402275 -0.19449 -0.517 181 132 125
0.404643 -0.193738 -0.515 170 120 111
0.407773 -0.193362 -0.514 154 104 95
0.4325 -0.195243 -0.519 134 91 85
0.46096 -0.201638 -0.536 139 98 92
-0.277952 -0.245762 -0.65 252 253 248
-0.167619 -0.241981 -0.64 190 187 178
-0.16614 -0.241603 -0.639 190 187 178
-0.0649133 -0.240847 -0.637 68 68 80
-0.04968 -0.243493 -0.644 69 69 79
0.125129 -0.174302 -0.461 201 157 144
0.126059 -0.173168 -0.458 197 154 138
0.1417 -0.172033 -0.455 198 152 136
0.168316 -0.170899 -0.452 159 104 97
0.175979 -0.171655 -0.454 140 95 89
0.181494 -0.17279 -0.457 138 89 84
0.196608 -0.176192 -0.466 110 74 74
0.204562 -0.177705 -0.47 98 64 65
0.215333 -0.179973 -0.476 99 67 68
0.264504 -0.199256 -0.527 139 156 212
0.289028 -0.195475 -0.517 86 73 83
0.292698 -0.190182 -0.503 110 84 87
0.305914 -0.188291 -0.498 116 87 89
0.311927 -0.187913 -0.497 118 89 91
0.312873 -0.187913 -0.497 118 89 91
0.31666 -0.187913 -0.497 117 88 90
0.328586 -0.187157 -0.495 123 102 107
0.405588 -0.201525 -0.533 157 115 116
0.4002 -0.197366 -0.522 175 127 117
0.405815 -0.194341 -0.514 163 113 104
0.418206 -0.195097 -0.516 148 100 90
0.421154 -0.195097 -0.516 131 86 80
0.453626 -0.200769 -0.531 117 74 68
-0.33119 -0.247 -0.65 251 253 248
-0.31122 -0.24206 -0.637 125 130 126
-0.279997 -0.24662 -0.649 252 253 248
-0.170323 -0.24358 -0.641 188 185 178
-0.161776 -0.24358 -0.641 189 189 179
-0.0620943 -0.24054 -0.633 67 67 79
-0.0540781 -0.24244 -0.638 67 67 77
0.12452 -0.17556 -0.462 200 158 142
0.126377 -0.17328 -0.456 199 156 140
0.1287 -0.1729 -0.455 196 153 136
0.1339 -0.1729 -0.455 196 153 136
0.168316 -0.17176 -0.452 162 108 98
0.175114 -0.17252 -0.454 144 95 90
0.175979 -0.17252 -0.454 141 94 88
0.181891 -0.17404 -0.458 138 89 85
0.1953 -0.1767 -0.465 111 75 75
0.215786 -0.18126 -0.477 100 68 69
0.236663 -0.18848 -0.496 91 62 67
0.24335 -0.19076 -0.502 86 57 62
0.29726 -0.19038 -0.501 115 89 92
0.315713 -0.18886 -0.497 118 89 91
0.324814 -0.1881 -0.495 131 110 117
0.327643 -0.1881 -0.495 183 160 166
0.337619 -0.19 -0.5 99 72 77
0.399877 -0.19722 -0.519 182 131 127
0.404643 -0.1957 -0.515 170 120 111
0.415433 -0.1957 -0.515 144 95 88
0.428707 -0.19684 -0.518 129 88 82
0.439818 -0.19874 -0.523 136 93 87
0.449051 -0.20064 -0.528 125 82 76
-0.322942 -0.244801 -0.641 248 253 246
-0.279997 -0.247856 -0.649 252 253 248
-0.16008 -0.245947 -0.644 191 191 181
-0.0530286 -0.244419 -0.64 68 68 80
-0.0463571 -0.247856 -0.649 70 69 77
0.127833 -0.173767 -0.455 196 155 137
0.1287 -0.173767 -0.455 195 154 136
0.131876 -0.173385 -0.454 196 153 136
0.133606 -0.173385 -0.454 197 154 137
0.135335 -0.173385 -0.454 193 150 133
0.137065 -0.173385 -0.454 192 149 132
0.139659 -0.173385 -0.454 195 152 135
0.148307 -0.173385 -0.454 191 145 130
0.16006 -0.173003 -0.453 181 134 118
0.166594 -0.172621 -0.452 166 113 99
0.167455 -0.172621 -0.452 164 110 98
0.173003 -0.173003 -0.453 145 97 87
0.17425 -0.173385 -0.454 144 97 87
0.190932 -0.176822 -0.463 120 79 75
0.196608 -0.177968 -0.466 108 72 74
0.20234 -0.179113 -0.469 102 68 69
0.210817 -0.181023 -0.474 99 69 71
0.216238 -0.18255 -0.478 99 69 71
0.239524 -0.190952 -0.5 92 63 68
0.260004 -0.200118 -0.524 184 198 237
0.296306 -0.191334 -0.501 115 86 90
0.29726 -0.191334 -0.501 116 87 91
0.297619 -0.190952 -0.5 116 87 91
0.302727 -0.19057 -0.499 116 90 93
0.321691 -0.189425 -0.496 184 163 168
0.349329 -0.195917 -0.513 72 72 82
0.436151 -0.198972 -0.521 135 92 86
0.441657 -0.200118 -0.524 133 90 84
0.453626 -0.202791 -0.531 122 79 73
-0.32568 -0.247173 -0.644 251 253 248
-0.31122 -0.244487 -0.637 140 145 141
-0.281233 -0.249092 -0.649 255 255 253
-0.165439 -0.246022 -0.641 190 188 176
-0.160329 -0.247557 -0.645 192 192 182
-0.0771429 -0.248709 -0.648 68 71 78
-0.0667057 -0.242184 -0.631 66 64 77
-0.0642 -0.2418 -0.63 69 67 80
-0.0451905 -0.249476 -0.65 70 69 77
0.13447 -0.17425 -0.454 195 152 135
0.13793 -0.17425 -0.454 194 151 134
0.148843 -0.173866 -0.453 188 145 129
0.169551 -0.173866 -0.453 159 109 98
0.171277 -0.173866 -0.453 146 99 89
0.200126 -0.179623 -0.468 103 69 70
0.294034 -0.19651 -0.512 97 77 89
0.32547 -0.19037 -0.496 202 181 188
0.339645 -0.193056 -0.503 66 49 57
0.410529 -0.197662 -0.515 156 104 93
0.422955 -0.19843 -0.517 131 84 78
0.42591 -0.19843 -0.517 127 84 78
0.437144 -0.199965 -0.521 139 96 89
0.4435 -0.2015 -0.525 122 77 71
0.453626 -0.203803 -0.531 122 79 73
0.455493 -0.204187 -0.532 123 80 74
-0.281233 -0.250329 -0.649 255 255 253
-0.27919 -0.250714 -0.65 254 255 250
-0.162743 -0.246857 -0.64 189 189 179
-0.0541629 -0.246471 -0.639 70 68 81
0.123442 -0.176657 -0.458 202 160 144
0.129282 -0.175114 -0.454 199 153 137
0.170414 -0.174729 -0.453 154 104 93
0.201876 -0.181286 -0.47 100 68 69
0.202771 -0.181286 -0.47 100 68 69
0.20767 -0.182443 -0.473 98 68 68
0.218511 -0.185529 -0.481 96 67 69
0.219884 -0.185914 -0.482 95 66 68
0.2231 -0.187071 -0.485 95 66 68
0.297619 -0.192857 -0.5 112 86 89
0.299875 -0.192471 -0.499 117 88 90
0.338687 -0.194014 -0.503 70 54 65
0.401497 -0.199029 -0.516 182 129 123
0.409548 -0.198643 -0.515 158 106 95
0.424925 -0.199414 -0.517 124 79 73
0.428707 -0.1998 -0.518 129 84 78
-0.309278 -0.247301 -0.638 144 146 141
-0.0700886 -0.243812 -0.629 66 66 78
-0.0606 -0.2442 -0.63 69 67 80
-0.0552933 -0.247301 -0.638 69 67 80
-0.048679 -0.25079 -0.647 68 68 80
-0.04752 -0.251177 -0.648 68 68 80
0.121 -0.17908 -0.462 201 163 144
0.125823 -0.175979 -0.454 199 158 138
0.140214 -0.175591 -0.453 196 153 137
0.146792 -0.175204 -0.452 193 147 132
0.160568 -0.175204 -0.452 170 123 105
0.167455 -0.175204 -0.452 164 112 99
0.243843 -0.196523 -0.507 82 56 59
0.29616 -0.19536 -0.504 111 84 89
0.29653 -0.194972 -0.503 112 87 91
0.299875 -0.193422 -0.499 117 88 92
0.314133 -0.192259 -0.496 117 88 92
0.32925 -0.192259 -0.496 115 88 95
0.399206 -0.202337 -0.522 183 127 130
0.407586 -0.199624 -0.515 161 109 98
0.418206 -0.200011 -0.516 130 81 74
0.420986 -0.200399 -0.517 130 81 74
-0.31122 -0.248127 -0.637 249 252 245
-0.283706 -0.252801 -0.649 207 206 204
-0.160329 -0.251243 -0.645 195 192 183
0.122034 -0.177623 -0.456 198 161 142
0.122903 -0.177623 -0.456 200 162 143
0.131586 -0.176454 -0.453 194 153 133
0.145391 -0.176454 -0.453 192 146 131
0.149375 -0.176065 -0.452 193 150 134
0.157635 -0.175675 -0.451 180 134 118
0.160212 -0.175675 -0.451 174 123 104
0.167455 -0.176065 -0.452 162 112 101
0.178883 -0.178012 -0.457 136 87 80
0.183562 -0.179181 -0.46 128 85 78
0.187 -0.17996 -0.462 119 80 75
0.19614 -0.181908 -0.467 102 70 71
0.19966 -0.182687 -0.469 101 69 72
0.30563 -0.193204 -0.496 117 88 90
0.318214 -0.192814 -0.495 121 97 95
0.321335 -0.192425 -0.494 106 85 90
0.334762 -0.194762 -0.5 97 74 80
0.408377 -0.200994 -0.516 152 100 89
0.411326 -0.200994 -0.516 138 88 77
0.414274 -0.200994 -0.516 134 87 79
0.415257 -0.200994 -0.516 130 81 74
0.425747 -0.201773 -0.518 125 76 69
0.429693 -0.201773 -0.518 140 93 87
0.434324 -0.202552 -0.52 142 95 89
0.438977 -0.203331 -0.522 136 89 83
0.474588 -0.21307 -0.547 129 89 87
-0.286529 -0.253254 -0.647 83 83 81
-0.285737 -0.253646 -0.648 78 78 76
-0.0838962 -0.251689 -0.643 70 71 76
-0.0649848 -0.245034 -0.626 64 66 78
0.120825 -0.179274 -0.458 201 162 145
0.123229 -0.177709 -0.454 200 161 144
0.125546 -0.177317 -0.453 203 162 144
0.141077 -0.177317 -0.453 191 148 131
0.155058 -0.176534 -0.451 190 145 126
0.159353 -0.176534 -0.451 172 125 105
0.16193 -0.176534 -0.451 168 117 100
0.16279 -0.176534 -0.451 167 116 99
0.164872 -0.176926 -0.452 164 115 100
0.166594 -0.176926 -0.452 159 110 96
0.180147 -0.179274 -0.458 134 85 78
0.18612 -0.18084 -0.462 119 80 75
0.192643 -0.182014 -0.465 106 72 70
0.19525 -0.182797 -0.467 103 69 68
0.298214 -0.196106 -0.501 116 87 89
0.299524 -0.195714 -0.5 116 87 89
0.318214 -0.193757 -0.495 180 156 154
0.3201 -0.193757 -0.495 213 193 195
0.413291 -0.201977 -0.516 136 89 81
0.418031 -0.202369 -0.517 128 79 72
0.463705 -0.210589 -0.538 125 84 80
0.466457 -0.211371 -0.54 127 94 85
-0.308546 -0.25134 -0.639 252 254 249
-0.0896238 -0.255273 -0.649 99 98 96
-0.0786 -0.2478 -0.63 65 64 78
-0.0733314 -0.246227 -0.626 69 69 81
0.121767 -0.178967 -0.455 199 161 142
0.122957 -0.17818 -0.453 198 160 141
0.12699 -0.177787 -0.452 198 157 139
0.139351 -0.17818 -0.453 192 149 132
0.163649 -0.177393 -0.451 166 117 103
0.188287 -0.182113 -0.463 115 77 76
0.193945 -0.183293 -0.466 105 71 70
0.197873 -0.184473 -0.469 103 69 68
0.251569 -0.204927 -0.521 255 255 253
0.30941 -0.195093 -0.496 115 89 90
0.310671 -0.1947 -0.495 114 88 89
0.321335 -0.194307 -0.494 210 193 201
0.323217 -0.194307 -0.494 116 97 101
0.334477 -0.19706 -0.501 95 74 79
0.408307 -0.213187 -0.542 146 106 107
0.404446 -0.20296 -0.516 150 97 89
0.413291 -0.20296 -0.516 137 88 81
0.41624 -0.20296 -0.516 133 84 77
0.42197 -0.203353 -0.517 145 98 92
0.458223 -0.21004 -0.534 123 82 78
-0.3215 -0.254138 -0.643 253 255 249
-0.287761 -0.255719 -0.647 245 244 240
-0.164218 -0.253348 -0.641 191 191 183
-0.160806 -0.253743 -0.642 194 194 184
-0.0920962 -0.25651 -0.649 107 105 106
-0.09058 -0.255719 -0.647 78 76 81
-0.0661771 -0.247419 -0.626 65 68 77
-0.0475933 -0.25651 -0.649 67 67 77
0.118104 -0.182205 -0.461 199 167 152
0.121499 -0.179438 -0.454 202 161 143
0.128712 -0.178648 -0.452 201 158 139
0.1356 -0.178648 -0.452 202 159 140
0.149045 -0.178252 -0.451 191 148 131
0.157635 -0.178252 -0.451 175 126 109
0.174633 -0.179833 -0.455 137 92 86
0.177142 -0.180624 -0.457 138 89 84
0.179274 -0.181019 -0.458 135 88 82
0.183961 -0.182205 -0.461 121 80 76
0.195669 -0.184971 -0.468 107 72 70
0.19919 -0.185762 -0.47 103 69 67
0.200511 -0.186157 -0.471 102 68 67
0.203634 -0.186552 -0.472 102 71 69
0.300227 -0.19999 -0.506 110 88 91
0.322276 -0.195248 -0.494 126 105 110
0.396982 -0.20671 -0.523 166 117 121
0.413291 -0.203943 -0.516 137 89 79
0.42591 -0.204338 -0.517 138 91 85
0.438977 -0.206314 -0.522 134 86 82
0.449902 -0.209081 -0.529 116 75 71
-0.324732 -0.256951 -0.647 252 253 248
-0.307329 -0.253774 -0.639 251 252 247
-0.154903 -0.257349 -0.648 198 196 184
-0.0719086 -0.247817 -0.624 68 68 78
-0.0673695 -0.248611 -0.626 66 68 81
0.11856 -0.181097 -0.456 201 165 149
0.119167 -0.1807 -0.455 206 165 147
0.132156 -0.179509 -0.452 201 158 139
0.14475 -0.179111 -0.451 195 149 133
0.169551 -0.179906 -0.453 144 97 89
0.17079 -0.180303 -0.454 141 94 86
0.226757 -0.196586 -0.495 94 68 67
0.30941 -0.196983 -0.496 116 90 93
0.309729 -0.196586 -0.495 117 91 94
0.324158 -0.196189 -0.494 112 90 93
0.396982 -0.207706 -0.523 165 115 118
0.3979 -0.206117 -0.519 183 133 126
0.399321 -0.205323 -0.517 178 128 121
0.400306 -0.205323 -0.517 177 127 120
0.42394 -0.205323 -0.517 136 89 83
0.43068 -0.20572 -0.518 151 102 97
0.435314 -0.206514 -0.52 137 90 84
0.440814 -0.207706 -0.523 129 84 79
-0.32177 -0.257785 -0.646 252 253 248
-0.305849 -0.25579 -0.641 252 253 247
-0.16718 -0.256588 -0.643 210 211 206
-0.155414 -0.257386 -0.645 196 196 186
-0.0920381 -0.25539 -0.64 65 65 73
-0.0789133 -0.248607 -0.623 62 62 72
-0.0475933 -0.258982 -0.649 68 71 78
0.116717 -0.183163 -0.459 203 172 151
0.1183 -0.181567 -0.455 202 166 150
0.120964 -0.18037 -0.452 197 156 138
0.132156 -0.18037 -0.452 199 157 135
0.139905 -0.18037 -0.452 198 153 134
0.142172 -0.17997 -0.451 198 153 134
0.146468 -0.17997 -0.451 196 151 130
0.158494 -0.17997 -0.451 168 120 97
0.163649 -0.17997 -0.451 157 109 95
0.179666 -0.183163 -0.459 124 84 82
0.223963 -0.19673 -0.493 92 66 67
0.324158 -0.19713 -0.494 111 86 90
0.32736 -0.197928 -0.496 115 89 90
0.396686 -0.207505 -0.52 182 133 119
0.415257 -0.205909 -0.516 139 89 80
0.427879 -0.206308 -0.517 145 96 91
0.437144 -0.207904 -0.521 132 87 81
-0.30829 -0.25701 -0.641 252 253 248
-0.165955 -0.257812 -0.643 214 215 210
-0.162234 -0.255808 -0.638 198 198 190
-0.157867 -0.25661 -0.64 197 194 185
-0.0978229 -0.259015 -0.646 99 99 99
-0.0898257 -0.253803 -0.633 73 73 85
-0.0811562 -0.249392 -0.622 69 69 79
-0.0686714 -0.251397 -0.627 69 69 81
-0.06006 -0.255407 -0.637 67 70 79
0.12585 -0.18083 -0.451 200 157 140
0.128712 -0.18123 -0.452 203 158 139
0.133878 -0.18123 -0.452 199 157 135
0.156429 -0.180429 -0.45 178 131 105
0.159 -0.180429 -0.45 169 121 98
0.16279 -0.18083 -0.451 159 112 96
0.178791 -0.184037 -0.459 122 84 83
0.18781 -0.186042 -0.464 113 76 70
0.195193 -0.188047 -0.469 108 73 67
0.198717 -0.188849 -0.471 104 71 66
0.210743 -0.192457 -0.48 99 69 67
0.212539 -0.193259 -0.482 98 68 66
0.229048 -0.200476 -0.5 86 65 72
0.306334 -0.205689 -0.513 100 81 85
0.304915 -0.204085 -0.509 110 91 95
0.30394 -0.200877 -0.501 118 87 95
0.314749 -0.19807 -0.494 179 152 157
0.328967 -0.199273 -0.497 104 84 85
0.4017 -0.20649 -0.515 162 112 103
0.427879 -0.207292 -0.517 145 96 89
0.4445 -0.2105 -0.525 117 76 70
0.455493 -0.213307 -0.532 120 83 77
-0.146489 -0.261454 -0.649 197 195 182
-0.0906 -0.2538 -0.63 74 74 84
-0.0891162 -0.252994 -0.628 73 73 83
-0.0728629 -0.250577 -0.622 70 70 80
-0.0709467 -0.252189 -0.626 68 68 80
-0.0644038 -0.254606 -0.632 69 72 79
-0.0566857 -0.257829 -0.64 66 69 78
-0.0475933 -0.261454 -0.649 70 69 75
0.114591 -0.185717 -0.461 204 170 161
0.115954 -0.183703 -0.456 206 169 151
0.124132 -0.181689 -0.451 201 160 142
0.133017 -0.182091 -0.452 201 158 139
0.142172 -0.181689 -0.451 200 155 134
0.144429 -0.181286 -0.45 196 151 130
0.146143 -0.181286 -0.45 194 149 130
0.150429 -0.181286 -0.45 191 144 124
0.151286 -0.181286 -0.45 189 142 122
0.172033 -0.1833 -0.455 136 91 85
0.180057 -0.185314 -0.46 115 80 76
0.310985 -0.199011 -0.494 116 89 94
0.320394 -0.199011 -0.494 119 94 100
0.332569 -0.201831 -0.501 63 44 46
0.402494 -0.216334 -0.537 145 104 112
0.39812 -0.20868 -0.518 177 124 118
0.398336 -0.208277 -0.517 179 126 120
0.4017 -0.207471 -0.515 164 111 103
0.410343 -0.207874 -0.516 148 98 87
0.420001 -0.208277 -0.517 131 82 75
-0.312187 -0.260667 -0.644 252 253 248
-0.309733 -0.260667 -0.644 252 253 248
-0.300851 -0.261476 -0.646 252 253 248
-0.290333 -0.263095 -0.65 251 253 250
-0.15323 -0.259452 -0.641 200 200 190
-0.109403 -0.26269 -0.649 228 227 222
-0.0958543 -0.256214 -0.633 73 73 83
-0.08722 -0.252167 -0.623 72 72 80
-0.0699771 -0.25419 -0.628 69 69 79
-0.0611771 -0.257429 -0.636 67 70 79
-0.06006 -0.257833 -0.637 66 69 78
-0.0566857 -0.259048 -0.64 66 69 78
-0.05336 -0.260667 -0.644 70 70 78
0.119242 -0.182952 -0.452 202 160 144
0.120696 -0.182548 -0.451 202 159 142
0.123857 -0.182143 -0.45 200 159 141
0.124714 -0.182143 -0.45 201 158 139
0.12585 -0.182548 -0.451 201 158 139
0.136714 -0.182143 -0.45 195 152 133
0.147857 -0.182143 -0.45 197 151 128
0.149571 -0.182143 -0.45 194 147 127
0.163649 -0.182548 -0.451 148 102 89
0.185158 -0.18781 -0.464 112 74 71
0.225286 -0.201571 -0.498 91 62 66
0.306803 -0.202786 -0.501 109 88 93
0.339818 -0.206024 -0.509 59 53 65
0.395695 -0.210476 -0.52 173 123 112
0.400514 -0.208857 -0.516 168 117 113
0.4017 -0.208452 -0.515 161 110 106
0.404643 -0.208452 -0.515 156 105 101
0.42312 -0.208857 -0.516 138 93 87
-0.317571 -0.264333 -0.65 251 252 247
-0.295611 -0.26352 -0.648 253 253 251
-0.16376 -0.261893 -0.644 241 241 239
-0.150552 -0.260267 -0.64 202 202 192
-0.101313 -0.259047 -0.637 75 78 85
-0.0895933 -0.253353 -0.623 73 73 83
-0.0764171 -0.252947 -0.622 71 71 81
-0.0635 -0.258233 -0.635 68 71 80
0.116917 -0.18422 -0.453 204 165 148
0.11752 -0.183813 -0.452 203 164 147
0.128428 -0.183407 -0.451 203 158 137
0.143571 -0.183 -0.45 198 151 131
0.149571 -0.183 -0.45 192 146 123
0.159 -0.183 -0.45 166 119 101
0.164872 -0.183813 -0.452 143 99 86
0.169433 -0.185033 -0.455 135 90 85
0.183877 -0.188287 -0.463 113 73 71
0.205312 -0.194387 -0.478 101 69 72
0.211577 -0.196827 -0.484 93 63 63
0.217 -0.199267 -0.49 91 64 69
0.397997 -0.21594 -0.531 162 114 112
0.408377 -0.20984 -0.516 148 99 92
0.41624 -0.20984 -0.516 136 87 80
0.424103 -0.20984 -0.516 137 90 84
0.433489 -0.21106 -0.519 133 86 80
0.442655 -0.213093 -0.524 119 79 71
0.452771 -0.215533 -0.53 117 83 74
-0.160054 -0.261077 -0.639 245 247 246
-0.153005 -0.259443 -0.635 225 226 220
-0.148577 -0.262303 -0.642 197 197 185
-0.144357 -0.263529 -0.645 198 196 184
-0.133095 -0.265571 -0.65 224 222 207
-0.131857 -0.265571 -0.65 224 223 205
-0.110841 -0.262711 -0.643 190 190 188
-0.104459 -0.259034 -0.634 71 74 83
-0.0797143 -0.253314 -0.62 68 71 80
-0.0612733 -0.26026 -0.637 67 70 79
-0.0590314 -0.261077 -0.639 69 69 79
-0.05564 -0.262303 -0.642 70 70 78
0.11322 -0.187534 -0.459 209 170 155
0.143571 -0.183857 -0.45 198 151 131
0.144429 -0.183857 -0.45 196 151 130
0.159 -0.183857 -0.45 165 120 101
0.16193 -0.184266 -0.451 149 106 89
0.184274 -0.189577 -0.464 114 74 72
0.212451 -0.198566 -0.486 94 65 67
0.230323 -0.207146 -0.507 75 74 105
0.324814 -0.202243 -0.495 109 83 84
0.395923 -0.212049 -0.519 171 121 114
0.406605 -0.210414 -0.515 151 101 94
0.413291 -0.210823 -0.516 141 92 85
0.420171 -0.210823 -0.516 136 89 81
0.42312 -0.210823 -0.516 139 92 86
0.425086 -0.210823 -0.516 136 89 83
0.426069 -0.210823 -0.516 138 91 85
0.467321 -0.221037 -0.541 120 85 81
-0.305957 -0.266399 -0.649 252 253 248
-0.304721 -0.266399 -0.649 252 253 248
-0.145676 -0.262705 -0.64 198 198 190
-0.134737 -0.265168 -0.646 227 223 212
-0.108252 -0.260652 -0.635 67 67 69
-0.0965581 -0.255316 -0.622 73 74 79
-0.0831229 -0.254085 -0.619 70 73 82
-0.07654 -0.255727 -0.623 71 71 79
-0.0714 -0.2586 -0.63 71 71 79
-0.0670229 -0.260242 -0.634 69 72 81
-0.0648114 -0.261063 -0.636 68 71 80
0.138121 -0.184304 -0.449 198 153 132
0.140687 -0.184304 -0.449 198 153 132
0.155571 -0.184714 -0.45 171 125 109
0.170674 -0.187177 -0.456 129 89 81
0.186844 -0.191282 -0.466 113 79 70
0.215133 -0.201133 -0.49 94 66 65
0.317868 -0.202365 -0.493 116 91 95
0.403596 -0.223299 -0.544 139 109 121
0.396986 -0.217963 -0.531 148 107 111
0.40248 -0.211806 -0.516 158 108 101
0.404643 -0.211395 -0.515 153 103 96
0.419189 -0.211806 -0.516 136 89 83
0.42312 -0.211806 -0.516 140 93 85
0.428864 -0.212216 -0.517 137 90 82
0.429849 -0.212216 -0.517 134 91 84
0.464567 -0.221247 -0.539 124 87 81
0.467321 -0.222068 -0.541 117 82 78
-0.134111 -0.265161 -0.643 238 235 230
-0.100112 -0.256501 -0.622 73 72 80
-0.0924057 -0.254851 -0.618 73 72 80
-0.0746429 -0.258563 -0.627 73 73 81
-0.0724848 -0.259388 -0.629 71 71 79
0.112346 -0.189283 -0.459 207 165 151
0.120429 -0.185571 -0.45 201 163 144
0.140687 -0.185159 -0.449 197 152 131
0.142397 -0.185159 -0.449 196 151 130
0.149239 -0.185159 -0.449 193 147 124
0.151805 -0.185159 -0.449 183 136 116
0.182113 -0.190932 -0.463 118 82 70
0.20654 -0.19918 -0.483 97 66 71
0.322929 -0.204129 -0.495 103 81 84
0.33132 -0.207015 -0.502 58 41 47
0.400719 -0.212376 -0.515 161 111 104
0.409548 -0.212376 -0.515 151 100 96
0.429849 -0.213201 -0.517 129 88 82
0.439971 -0.215263 -0.522 121 80 76
-0.159347 -0.267629 -0.646 130 130 130
-0.137713 -0.2639 -0.637 240 240 238
-0.129626 -0.264729 -0.639 236 235 233
-0.0982914 -0.256029 -0.618 70 69 77
0.121016 -0.186014 -0.449 201 163 144
0.124437 -0.186014 -0.449 203 162 142
0.131571 -0.186429 -0.45 204 162 140
0.191133 -0.194714 -0.47 107 76 73
0.20562 -0.2001 -0.483 99 68 74
0.333224 -0.228271 -0.551 80 53 60
0.331847 -0.226614 -0.547 87 60 67
0.4017 -0.213357 -0.515 159 109 102
0.406794 -0.212943 -0.514 163 110 104
0.415433 -0.213357 -0.515 148 101 93
0.421319 -0.213357 -0.515 145 100 94
0.427051 -0.213771 -0.516 136 91 85
0.428864 -0.214186 -0.517 132 87 81
0.434477 -0.215014 -0.519 120 83 77
-0.154943 -0.26553 -0.638 112 112 114
-0.1506 -0.2622 -0.63 212 213 215
-0.107883 -0.257622 -0.619 70 69 77
-0.0989857 -0.255957 -0.615 76 77 82
-0.0941467 -0.255541 -0.614 76 75 81
-0.085481 -0.257622 -0.619 76 73 82
-0.0747619 -0.261368 -0.628 72 73 78
0.121016 -0.18687 -0.449 200 162 143
0.125292 -0.18687 -0.449 203 162 140
0.131571 -0.187286 -0.45 203 161 139
0.143252 -0.18687 -0.449 194 152 130
0.148384 -0.18687 -0.449 191 146 125
0.186754 -0.194777 -0.468 113 78 72
0.311926 -0.205598 -0.494 110 87 93
0.400514 -0.214754 -0.516 166 113 107
0.429849 -0.21517 -0.517 125 88 82
0.446349 -0.218916 -0.526 118 81 75
-0.126198 -0.262564 -0.628 88 87 92
-0.116511 -0.259637 -0.621 71 70 78
-0.108533 -0.257547 -0.616 68 67 75
-0.104672 -0.25671 -0.614 72 71 79
-0.0941467 -0.25671 -0.614 76 77 82
-0.0769086 -0.261728 -0.626 72 72 80
-0.0747619 -0.262564 -0.628 72 72 80
0.110509 -0.194832 -0.466 201 165 149
0.137813 -0.187307 -0.448 199 154 131
0.14464 -0.187307 -0.448 194 149 126
0.15232 -0.187307 -0.448 175 130 111
0.161071 -0.188561 -0.451 141 100 78
0.164374 -0.189397 -0.453 132 90 78
0.193254 -0.197759 -0.473 99 69 69
0.342655 -0.23915 -0.572 147 97 106
0.313172 -0.206121 -0.493 114 89 95
0.392731 -0.220754 -0.528 162 112 103
0.428864 -0.216155 -0.517 128 85 78
0.480847 -0.231207 -0.553 120 84 84
-0.12638 -0.26166 -0.623 78 77 85
-0.113043 -0.2583 -0.615 66 65 73
-0.10399 -0.2562 -0.61 70 69 77
-0.0993429 -0.2562 -0.61 75 75 83
-0.0649133 -0.26754 -0.637 70 70 78
0.114683 -0.18942 -0.451 202 161 143
0.119306 -0.18858 -0.449 200 159 141
0.121016 -0.18858 -0.449 203 162 144
0.121871 -0.18858 -0.449 202 161 143
0.142933 -0.18816 -0.448 199 153 130
0.150613 -0.18816 -0.448 180 135 114
0.154027 -0.18816 -0.448 166 123 106
0.155226 -0.18858 -0.449 162 119 102
0.176936 -0.19362 -0.461 122 81 75
0.180739 -0.19488 -0.464 119 79 71
0.1829 -0.1953 -0.465 115 78 72
0.31505 -0.20706 -0.493 110 83 88
0.393993 -0.21966 -0.523 163 114 110
0.394234 -0.21924 -0.522 161 112 108
0.399531 -0.21672 -0.516 159 108 104
0.408567 -0.2163 -0.515 154 104 97
0.413471 -0.2163 -0.515 150 97 91
0.426069 -0.21672 -0.516 128 85 78
-0.098181 -0.257362 -0.61 76 76 84
-0.0451905 -0.274238 -0.65 71 71 81
0.10956 -0.19492 -0.462 204 162 146
0.11174 -0.191123 -0.453 201 159 143
0.11845 -0.189435 -0.449 200 159 141
0.12672 -0.189013 -0.448 201 158 139
0.17442 -0.193654 -0.459 126 87 80
0.224353 -0.215593 -0.511 191 194 227
0.317237 -0.213906 -0.507 71 58 67
0.391752 -0.221078 -0.524 163 114 110
0.431667 -0.218547 -0.518 124 85 78
-0.106771 -0.256829 -0.606 64 62 73
-0.0849829 -0.264457 -0.624 75 75 83
-0.0792933 -0.265305 -0.626 74 74 82
-0.0694381 -0.268695 -0.634 73 73 81
-0.0511438 -0.274205 -0.647 102 101 115
-0.0475933 -0.275052 -0.649 70 70 82
0.114429 -0.190714 -0.45 201 160 142
0.127573 -0.189867 -0.448 203 160 141
0.139209 -0.189443 -0.447 202 157 136
0.146347 -0.189867 -0.448 190 143 123
0.153173 -0.189867 -0.448 163 117 101
0.156081 -0.19029 -0.449 150 107 91
0.173546 -0.194529 -0.459 125 86 81
0.1748 -0.194952 -0.46 124 85 80
0.20102 -0.2047 -0.483 95 69 72
0.203194 -0.205971 -0.486 89 63 64
0.226549 -0.218686 -0.516 173 181 217
0.33542 -0.229281 -0.541 96 71 77
0.328451 -0.212752 -0.502 53 42 50
0.3922 -0.224619 -0.53 160 109 106
0.394934 -0.219957 -0.519 160 109 105
0.399321 -0.21911 -0.517 161 108 104
0.418376 -0.218262 -0.515 142 98 87
0.436305 -0.220381 -0.52 121 84 75
0.439971 -0.221229 -0.522 120 83 75
0.479977 -0.233943 -0.552 125 90 86
-0.139657 -0.265646 -0.624 105 104 110
-0.126067 -0.259686 -0.61 68 66 77
-0.102154 -0.257983 -0.606 69 68 76
-0.0771543 -0.267349 -0.628 73 73 81
-0.0683381 -0.270329 -0.635 73 73 81
0.110877 -0.192849 -0.453 198 156 140
0.114429 -0.191571 -0.45 202 160 144
0.132397 -0.190294 -0.447 196 153 134
0.142614 -0.190294 -0.447 192 147 128
0.154027 -0.19072 -0.448 155 112 96
0.182406 -0.198383 -0.466 113 80 75
0.2001 -0.20562 -0.483 92 66 67
0.215621 -0.213709 -0.502 241 231 242
0.340646 -0.237549 -0.558 119 83 87
0.339952 -0.234143 -0.55 88 61 66
0.315386 -0.210729 -0.495 111 86 90
0.39275 -0.223074 -0.524 156 107 103
0.396911 -0.220946 -0.519 159 110 105
0.39812 -0.22052 -0.518 158 107 103
0.398336 -0.220094 -0.517 158 107 103
0.401497 -0.219669 -0.516 156 106 99
0.410529 -0.219243 -0.515 149 101 91
-0.126603 -0.259565 -0.607 72 71 79
-0.102968 -0.258282 -0.604 66 65 73
-0.098181 -0.260848 -0.61 70 70 78
-0.0828705 -0.26769 -0.626 76 75 83
-0.07942 -0.268117 -0.627 74 73 81
-0.0771543 -0.268545 -0.628 73 72 80
-0.0546714 -0.275814 -0.645 118 117 131
-0.0488295 -0.277525 -0.649 71 71 83
0.111493 -0.193284 -0.452 201 159 143
0.113571 -0.192429 -0.45 203 161 145
0.118187 -0.191573 -0.448 197 159 140
0.122453 -0.191573 -0.448 201 160 140
0.128991 -0.191146 -0.447 200 158 136
0.147723 -0.191146 -0.447 178 133 112
0.158143 -0.192429 -0.45 139 97 83
0.1672 -0.194994 -0.456 129 87 75
0.342423 -0.242888 -0.568 149 103 114
0.342157 -0.238184 -0.557 117 82 86
0.421154 -0.220651 -0.516 131 91 81
0.439971 -0.223217 -0.522 123 85 74
0.44181 -0.223645 -0.523 121 83 72
0.46182 -0.229631 -0.537 115 78 69
-0.131357 -0.263298 -0.613 69 68 74
-0.110102 -0.257285 -0.599 52 51 57
-0.104118 -0.259432 -0.604 62 61 67
-0.0993429 -0.26201 -0.61 65 68 75
-0.0728305 -0.271459 -0.632 73 71 82
-0.0684457 -0.273177 -0.636 73 71 82
0.127853 -0.191568 -0.446 200 159 137
0.14602 -0.191997 -0.447 181 136 115
0.160568 -0.194145 -0.452 134 90 77
0.17556 -0.19844 -0.462 121 83 74
0.343629 -0.244829 -0.57 147 104 114
0.341426 -0.235809 -0.549 101 70 75
0.339976 -0.23409 -0.545 94 63 68
0.403463 -0.221634 -0.516 153 105 95
0.42394 -0.222064 -0.517 129 89 77
0.424925 -0.222064 -0.517 129 89 77
0.426894 -0.222064 -0.517 126 88 77
0.47719 -0.236238 -0.55 120 85 79
1.13843 -0.27919 -0.65 204 206 192
1.13511 -0.277472 -0.646 203 205 191
-0.107035 -0.259289 -0.601 49 48 54
-0.0535257 -0.278703 -0.646 71 71 83
0.109151 -0.195437 -0.453 199 158 140
0.111247 -0.194574 -0.451 200 159 141
0.120477 -0.192849 -0.447 202 164 143
0.142614 -0.192849 -0.447 185 140 119
0.145169 -0.192849 -0.447 181 136 115
0.153173 -0.19328 -0.448 151 108 92
0.20083 -0.210106 -0.487 86 65 70
0.3211 -0.218734 -0.507 112 91 96
0.319525 -0.217009 -0.503 125 104 109
0.318885 -0.215283 -0.499 108 85 93
0.394705 -0.224343 -0.52 156 107 100
0.418376 -0.222186 -0.515 134 90 79
0.420171 -0.222617 -0.516 135 91 80
0.431667 -0.22348 -0.518 131 88 79
0.433489 -0.223911 -0.519 129 89 79
-0.130614 -0.2665 -0.615 76 76 84
-0.125033 -0.262167 -0.605 64 65 70
-0.110871 -0.2587 -0.597 94 95 99
-0.106067 -0.260867 -0.602 52 51 57
-0.0978143 -0.2665 -0.615 63 64 69
-0.0940371 -0.2691 -0.621 71 71 79
-0.0740343 -0.273867 -0.632 72 72 82
-0.0500657 -0.281233 -0.649 68 71 80
0.113571 -0.195 -0.45 201 160 138
0.117333 -0.194133 -0.448 200 162 141
0.140596 -0.193267 -0.446 190 145 124
0.145169 -0.1937 -0.447 183 138 119
0.148574 -0.1937 -0.447 167 121 105
0.15232 -0.194133 -0.448 152 109 93
0.163008 -0.196733 -0.454 132 89 80
0.168806 -0.198467 -0.458 126 86 78
0.192566 -0.207133 -0.478 92 71 76
0.39072 -0.2288 -0.528 154 107 101
0.437144 -0.225767 -0.521 121 81 73
0.455334 -0.230967 -0.533 120 83 74
0.468185 -0.234867 -0.542 117 88 80
0.471814 -0.236167 -0.545 117 88 80
1.13634 -0.279933 -0.646 203 205 191
-0.117694 -0.259837 -0.597 105 108 115
-0.109734 -0.259837 -0.597 104 105 110
-0.0921143 -0.271589 -0.624 70 70 78
-0.0651171 -0.278117 -0.639 73 71 82
0.109529 -0.196292 -0.451 199 161 140
0.114773 -0.194987 -0.448 200 162 143
0.136349 -0.194116 -0.446 197 156 134
0.142295 -0.194116 -0.446 177 135 113
0.143145 -0.194116 -0.446 177 132 111
0.150277 -0.194551 -0.447 158 112 97
0.153173 -0.194987 -0.448 150 104 91
0.172171 -0.20021 -0.46 122 85 77
0.342771 -0.242863 -0.558 150 103 111
0.32304 -0.21936 -0.504 149 132 142
0.328177 -0.22023 -0.506 51 41 50
0.389906 -0.231111 -0.531 155 102 98
0.390452 -0.230241 -0.529 153 104 99
0.395464 -0.226759 -0.521 158 107 103
0.39812 -0.225453 -0.518 150 100 91
0.399321 -0.225018 -0.517 150 102 92
0.406605 -0.224148 -0.515 154 106 94
0.410529 -0.224148 -0.515 146 98 88
0.415433 -0.224148 -0.515 139 91 81
0.428707 -0.225453 -0.518 125 84 78
-0.118831 -0.260974 -0.597 122 125 130
0.111857 -0.196714 -0.45 198 160 139
0.139433 -0.194529 -0.445 193 151 129
0.142824 -0.194529 -0.445 176 131 110
0.149426 -0.195403 -0.447 160 117 100
0.150277 -0.195403 -0.447 156 110 95
0.18526 -0.205894 -0.471 101 71 71
0.342425 -0.242177 -0.554 145 100 103
0.343719 -0.240866 -0.551 135 91 90
0.393749 -0.229063 -0.524 154 103 100
0.399107 -0.22644 -0.518 153 104 97
0.400093 -0.22644 -0.518 149 99 92
0.403463 -0.225566 -0.516 151 101 94
0.412669 -0.224691 -0.514 146 97 90
0.416414 -0.225129 -0.515 137 93 84
0.428707 -0.22644 -0.518 125 84 78
0.439971 -0.228189 -0.522 124 86 77
-0.0972714 -0.27177 -0.619 61 61 69
-0.0922619 -0.274405 -0.625 68 66 77
-0.0719667 -0.278795 -0.635 73 73 81
-0.0674457 -0.280112 -0.638 71 71 81
-0.0559867 -0.283625 -0.646 70 70 78
0.10867 -0.19801 -0.451 198 160 141
0.128414 -0.195376 -0.445 200 159 141
0.143994 -0.195815 -0.446 173 131 109
0.157635 -0.19801 -0.451 138 94 83
0.342425 -0.243232 -0.554 146 101 104
0.331951 -0.228744 -0.521 96 75 80
0.439309 -0.280112 -0.638 81 71 98
0.443976 -0.282308 -0.643 77 67 94
0.388613 -0.233573 -0.532 155 102 98
0.395229 -0.229183 -0.522 153 102 98
0.439971 -0.229183 -0.522 122 85 76
0.451762 -0.232695 -0.53 118 84 74
0.458062 -0.23489 -0.535 115 81 72
-0.128271 -0.271186 -0.615 121 122 126
-0.108415 -0.262808 -0.596 67 68 72
-0.10764 -0.26369 -0.598 58 59 64
-0.0800533 -0.278682 -0.632 75 75 85
0.106798 -0.200192 -0.454 196 158 139
0.107426 -0.199751 -0.453 198 160 141
0.111 -0.198429 -0.45 200 162 141
0.13011 -0.196224 -0.445 197 159 138
0.143994 -0.196665 -0.446 170 128 106
0.163367 -0.200633 -0.455 134 89 83
0.165826 -0.201515 -0.457 128 88 80
0.175058 -0.204161 -0.463 115 82 77
0.184754 -0.20813 -0.472 100 71 73
0.333936 -0.229736 -0.521 147 126 135
0.391244 -0.231941 -0.526 148 97 94
0.39275 -0.231059 -0.524 152 101 98
0.395229 -0.230177 -0.522 154 103 99
0.403463 -0.227531 -0.516 152 103 98
0.420171 -0.227531 -0.516 142 95 87
0.424925 -0.227972 -0.517 128 85 76
-0.103479 -0.268814 -0.607 65 66 71
-0.101833 -0.270586 -0.611 60 59 65
-0.0675514 -0.282986 -0.639 72 71 79
0.123051 -0.196629 -0.444 201 163 142
0.13689 -0.197071 -0.445 193 152 132
0.171295 -0.203714 -0.46 119 81 78
0.1738 -0.2046 -0.462 116 81 77
0.17632 -0.205486 -0.464 109 78 75
0.199673 -0.217443 -0.491 163 159 194
0.34224 -0.244457 -0.552 138 93 98
0.437071 -0.280329 -0.633 83 75 98
0.389409 -0.240471 -0.543 144 100 101
0.387023 -0.236486 -0.534 148 98 97
0.420171 -0.228514 -0.516 143 94 87
0.42312 -0.228514 -0.516 132 88 79
0.438136 -0.230729 -0.521 121 84 75
0.439971 -0.231171 -0.522 116 82 72
-0.112943 -0.26241 -0.59 110 111 116
-0.10589 -0.267302 -0.601 69 70 75
-0.079099 -0.281979 -0.634 73 73 81
-0.0710914 -0.283758 -0.638 74 74 82
-0.0675514 -0.284203 -0.639 72 71 79
0.113067 -0.199253 -0.448 199 161 140
0.125871 -0.197919 -0.445 199 161 140
0.127567 -0.197919 -0.445 199 161 140
0.130957 -0.197919 -0.445 197 159 140
0.139433 -0.197919 -0.445 186 143 124
0.164955 -0.203256 -0.457 130 87 80
0.167061 -0.203701 -0.458 124 85 78
0.198738 -0.218378 -0.491 171 162 189
0.342425 -0.246398 -0.554 136 93 100
0.340871 -0.237948 -0.535 109 73 77
0.398667 -0.231276 -0.52 147 98 93
0.406411 -0.229497 -0.516 149 100 95
0.407394 -0.229497 -0.516 149 100 95
0.409548 -0.229052 -0.515 150 99 95
0.41249 -0.229052 -0.515 151 98 92
0.443653 -0.233055 -0.524 113 78 72
0.480847 -0.245953 -0.553 119 88 83
-0.110883 -0.26398 -0.591 103 107 110
-0.0959867 -0.279613 -0.626 60 61 66
-0.0804333 -0.283633 -0.635 74 72 83
-0.0595857 -0.2881 -0.645 71 72 77
0.105467 -0.201893 -0.452 198 161 142
0.11511 -0.199213 -0.446 203 166 147
0.123897 -0.19832 -0.444 199 161 140
0.166189 -0.204573 -0.458 124 87 79
0.398441 -0.232713 -0.521 141 92 87
0.417395 -0.230033 -0.515 150 100 93
0.422137 -0.23048 -0.516 145 98 90
0.429693 -0.231373 -0.518 129 86 79
0.446349 -0.234947 -0.526 114 79 73
-0.119165 -0.266003 -0.593 113 114 119
-0.109183 -0.266451 -0.594 69 70 75
-0.106857 -0.269143 -0.6 71 72 77
-0.103166 -0.274526 -0.612 66 65 73
-0.0804333 -0.284843 -0.635 73 72 80
-0.0630752 -0.288431 -0.643 72 73 78
-0.0608143 -0.289329 -0.645 71 72 77
0.107571 -0.201857 -0.45 201 165 143
0.12136 -0.199166 -0.444 198 162 140
0.136043 -0.199614 -0.445 195 154 134
0.150613 -0.20096 -0.448 153 106 96
0.159197 -0.203203 -0.453 142 95 89
0.1625 -0.2041 -0.455 129 88 82
0.17746 -0.209483 -0.467 100 71 73
0.348582 -0.256134 -0.571 134 89 94
0.343308 -0.245369 -0.547 129 84 91
0.346337 -0.239537 -0.534 80 60 61
0.386422 -0.237294 -0.529 146 98 94
0.408377 -0.231463 -0.516 149 100 93
0.410343 -0.231463 -0.516 149 101 91
0.41151 -0.231014 -0.515 148 99 92
0.416414 -0.231014 -0.515 146 97 90
0.42312 -0.231463 -0.516 138 94 85
0.4325 -0.232809 -0.519 125 86 79
0.433489 -0.232809 -0.519 125 86 81
0.44181 -0.234603 -0.523 121 84 78
0.457206 -0.239537 -0.534 119 84 80
0.46354 -0.24178 -0.539 120 85 79
0.471814 -0.244471 -0.545 125 90 86
-0.123267 -0.271187 -0.602 110 111 116
-0.1025 -0.277043 -0.615 67 66 74
-0.101658 -0.277944 -0.617 66 66 74
-0.0964467 -0.28335 -0.629 58 58 66
-0.0919457 -0.28425 -0.631 60 60 68
-0.0677629 -0.288755 -0.641 73 74 79
-0.0666457 -0.289206 -0.642 73 74 79
0.125589 -0.200011 -0.444 198 160 139
0.13011 -0.200462 -0.445 197 160 134
0.134348 -0.200462 -0.445 194 153 131
0.147723 -0.201363 -0.447 159 111 99
0.150613 -0.201813 -0.448 152 105 95
0.158334 -0.204066 -0.453 141 93 89
0.167426 -0.206769 -0.459 120 80 78
0.168667 -0.207219 -0.46 117 79 78
0.169543 -0.207219 -0.46 117 79 78
0.17079 -0.20767 -0.461 116 78 77
0.1909 -0.21758 -0.483 71 65 77
0.197269 -0.221634 -0.492 155 161 193
0.344694 -0.243708 -0.541 131 84 90
0.349306 -0.241906 -0.537 89 63 64
0.387703 -0.237851 -0.528 142 99 93
0.388976 -0.237401 -0.527 141 93 89
0.403053 -0.233347 -0.518 148 101 91
0.418376 -0.231995 -0.515 141 97 86
0.422137 -0.232446 -0.516 135 92 83
0.433489 -0.233797 -0.519 126 87 82
0.449051 -0.237851 -0.528 120 83 77
-0.139071 -0.293595 -0.649 111 112 116
-0.123062 -0.271881 -0.601 108 109 114
-0.103334 -0.27731 -0.613 70 69 77
-0.0994048 -0.282738 -0.625 63 64 69
-0.0944991 -0.285905 -0.632 58 58 66
-0.0896838 -0.285905 -0.632 60 60 68
-0.0748543 -0.289071 -0.639 73 72 80
-0.0608143 -0.291786 -0.645 71 72 77
-0.0573943 -0.293143 -0.648 71 72 77
0.110507 -0.202667 -0.448 190 152 133
0.1335 -0.20131 -0.445 191 150 130
0.155058 -0.204024 -0.451 147 100 94
0.155917 -0.204024 -0.451 144 97 91
0.179495 -0.212619 -0.47 97 71 74
0.354713 -0.243833 -0.539 68 47 54
0.359785 -0.24519 -0.542 52 35 43
0.36489 -0.246548 -0.545 65 55 66
0.376619 -0.24881 -0.55 83 63 72
0.396982 -0.236595 -0.523 140 91 86
0.400866 -0.234786 -0.519 143 94 87
0.412309 -0.233429 -0.516 146 99 89
0.419189 -0.233429 -0.516 141 97 88
0.431667 -0.234333 -0.518 123 86 78
-0.0995638 -0.284383 -0.626 63 64 69
0.118823 -0.201703 -0.444 203 162 144
0.1335 -0.202157 -0.445 191 150 130
0.137738 -0.202157 -0.445 185 144 124
0.14602 -0.203066 -0.447 164 118 103
0.146871 -0.203066 -0.447 162 116 101
0.153 -0.204429 -0.45 149 102 94
0.153857 -0.204429 -0.45 149 102 94
0.161989 -0.207154 -0.456 129 88 84
0.164085 -0.207609 -0.457 124 86 83
0.172785 -0.210789 -0.464 102 70 71
0.175681 -0.212151 -0.467 103 74 76
0.343935 -0.248949 -0.548 128 79 85
0.348816 -0.245769 -0.541 136 96 97
0.362517 -0.246677 -0.543 89 68 75
0.372157 -0.247586 -0.545 103 80 86
0.37767 -0.245769 -0.541 129 90 91
0.379284 -0.243497 -0.536 130 88 90
0.388976 -0.239409 -0.527 138 93 88
0.407394 -0.234411 -0.516 145 98 88
0.410343 -0.234411 -0.516 150 103 93
0.414274 -0.234411 -0.516 146 99 89
0.420171 -0.234411 -0.516 144 100 91
0.435314 -0.236229 -0.52 125 88 82
0.478238 -0.249857 -0.55 125 90 84
0.482771 -0.251674 -0.554 121 89 78
1.13676 -0.290743 -0.64 204 205 191
-0.105443 -0.275995 -0.605 84 83 91
-0.0986857 -0.286488 -0.628 62 63 68
-0.0772886 -0.291506 -0.639 72 71 79
0.134348 -0.203005 -0.445 191 150 132
0.138586 -0.203005 -0.445 180 139 121
0.141129 -0.203005 -0.445 169 125 112
0.143145 -0.203461 -0.446 167 124 108
0.158684 -0.20711 -0.454 135 90 87
0.165677 -0.209391 -0.459 121 83 82
0.169033 -0.210304 -0.461 117 81 81
0.175681 -0.213041 -0.467 102 76 79
0.198327 -0.226727 -0.497 187 194 240
0.343913 -0.252273 -0.553 129 82 88
0.353314 -0.246343 -0.54 136 100 104
0.358457 -0.246343 -0.54 118 87 92
0.373886 -0.246343 -0.54 130 90 90
0.378176 -0.24315 -0.533 134 92 93
0.382391 -0.241325 -0.529 137 91 91
0.399433 -0.237675 -0.521 142 95 87
0.410343 -0.235394 -0.516 150 102 92
0.412309 -0.235394 -0.516 146 98 88
0.41624 -0.235394 -0.516 146 99 89
0.419189 -0.235394 -0.516 146 102 93
0.421154 -0.235394 -0.516 144 100 91
0.433489 -0.236763 -0.519 120 83 77
0.443653 -0.239044 -0.524 120 83 75
0.448201 -0.240412 -0.527 122 85 77
-0.113487 -0.268902 -0.587 94 97 102
-0.103503 -0.28127 -0.614 79 78 86
-0.0960057 -0.290432 -0.634 59 60 65
-0.0772886 -0.292723 -0.639 71 70 76
0.104374 -0.206601 -0.451 198 161 142
0.11026 -0.204769 -0.447 202 164 143
0.114005 -0.203852 -0.445 204 163 141
0.122206 -0.203394 -0.444 199 161 138
0.130957 -0.203852 -0.445 191 150 130
0.166914 -0.210724 -0.46 117 82 80
0.177705 -0.215305 -0.47 97 72 75
0.39621 -0.296388 -0.647 133 92 98
0.355371 -0.247371 -0.54 139 103 105
0.371476 -0.246455 -0.538 123 87 89
0.380086 -0.24279 -0.53 136 92 93
0.400426 -0.238668 -0.521 141 92 87
0.401854 -0.237751 -0.519 144 95 90
0.459081 -0.245081 -0.535 121 84 75
-0.138643 -0.29762 -0.647 100 101 105
-0.10764 -0.27508 -0.598 93 94 99
-0.106243 -0.27738 -0.603 88 87 95
-0.103671 -0.2829 -0.615 81 80 88
-0.09706 -0.29118 -0.633 62 63 68
-0.0949476 -0.2921 -0.635 56 56 64
-0.091319 -0.2921 -0.635 53 53 61
-0.0901095 -0.2921 -0.635 53 53 61
-0.08904 -0.29256 -0.636 57 57 65
-0.0878286 -0.29256 -0.636 58 58 66
-0.0750886 -0.29486 -0.641 71 70 76
-0.0646 -0.29716 -0.646 72 72 80
-0.0574829 -0.29854 -0.649 71 71 79
-0.0563333 -0.299 -0.65 70 70 78
0.107947 -0.20608 -0.448 204 166 147
0.137738 -0.2047 -0.445 173 130 114
0.17936 -0.21712 -0.472 92 68 68
0.355371 -0.2484 -0.54 144 105 108
0.360873 -0.24794 -0.539 134 98 98
0.370424 -0.2461 -0.535 129 90 93
0.375746 -0.24426 -0.531 127 85 87
0.384961 -0.24242 -0.527 136 90 90
0.394747 -0.24104 -0.524 138 90 86
0.396982 -0.24058 -0.523 136 89 83
0.418206 -0.23736 -0.516 148 100 90
0.425086 -0.23736 -0.516 134 91 82
0.431667 -0.23828 -0.518 121 84 76
0.436305 -0.2392 -0.52 120 83 75
0.465429 -0.2484 -0.54 118 85 78
-0.11256 -0.2716 -0.588 89 90 95
-0.110695 -0.272524 -0.59 76 77 82
-0.100041 -0.290538 -0.629 71 72 77
-0.0785057 -0.295157 -0.639 69 68 76
-0.0739829 -0.296543 -0.642 71 70 78
-0.0669571 -0.297929 -0.645 70 70 78
0.0980819 -0.215248 -0.466 199 164 144
0.0985829 -0.210629 -0.456 204 167 149
0.100938 -0.208319 -0.451 205 162 146
0.111712 -0.20601 -0.446 203 162 140
0.361229 -0.248505 -0.538 135 99 99
0.362253 -0.248505 -0.538 134 98 98
0.363626 -0.248043 -0.537 132 96 98
0.369039 -0.246195 -0.533 129 90 93
0.380663 -0.243886 -0.528 140 96 95
0.388238 -0.242962 -0.526 139 94 91
0.395986 -0.241576 -0.523 137 89 85
0.403831 -0.239729 -0.519 146 99 91
0.43068 -0.239267 -0.518 122 85 77
0.435314 -0.24019 -0.52 118 81 72
0.453626 -0.245271 -0.531 118 84 74
-0.0973667 -0.294519 -0.635 65 64 72
-0.0914629 -0.294983 -0.636 55 56 61
-0.08904 -0.294983 -0.636 54 55 60
-0.08094 -0.296374 -0.639 64 63 71
-0.0750886 -0.297302 -0.641 70 69 77
-0.058719 -0.301012 -0.649 73 72 80
0.106854 -0.207323 -0.447 208 168 143
0.387236 -0.243964 -0.526 138 93 90
0.396223 -0.242109 -0.522 138 93 88
0.400426 -0.241645 -0.521 144 95 90
-0.140308 -0.302249 -0.649 97 101 104
-0.101786 -0.291071 -0.625 81 80 86
-0.0879667 -0.29666 -0.637 53 52 58
-0.0775305 -0.298523 -0.641 67 66 74
-0.0669571 -0.300386 -0.645 71 70 78
0.117711 -0.206311 -0.443 201 160 140
0.12728 -0.206777 -0.444 193 152 130
0.155746 -0.210969 -0.453 128 91 85
0.160603 -0.212831 -0.457 118 85 80
0.163054 -0.213763 -0.459 115 80 76
0.351395 -0.253814 -0.545 139 97 101
0.354243 -0.252883 -0.543 141 101 102
0.362949 -0.249623 -0.536 135 101 99
0.39499 -0.243569 -0.523 141 96 93
0.398441 -0.242637 -0.521 147 99 95
0.414092 -0.240774 -0.517 148 100 90
0.416062 -0.240774 -0.517 148 100 90
0.435314 -0.242171 -0.52 116 79 70
0.476499 -0.255211 -0.548 131 94 88
-0.122038 -0.278701 -0.596 94 97 102
-0.109183 -0.277766 -0.594 75 76 81
-0.0752057 -0.300211 -0.642 69 68 76
-0.0681857 -0.301614 -0.645 71 70 78
-0.0588095 -0.303952 -0.65 72 71 77
0.0977181 -0.211364 -0.452 204 167 148
0.103056 -0.209961 -0.449 205 167 146
0.109767 -0.20809 -0.445 202 164 143
0.114336 -0.207155 -0.443 202 161 141
0.120813 -0.206688 -0.442 195 157 134
0.144317 -0.209026 -0.447 158 110 98
0.160603 -0.213702 -0.457 116 82 80
0.161827 -0.21417 -0.458 116 82 80
0.165521 -0.215572 -0.461 102 76 75
0.168885 -0.216508 -0.463 99 73 72
0.351242 -0.256255 -0.548 132 96 96
0.367971 -0.247838 -0.53 135 97 94
0.425086 -0.241291 -0.516 138 94 85
0.46096 -0.250644 -0.536 119 82 74
-0.11816 -0.27608 -0.588 92 95 100
-0.100518 -0.296739 -0.632 78 79 84
-0.0931114 -0.300026 -0.639 58 59 64
-0.0706429 -0.302843 -0.645 70 69 77
0.107465 -0.209408 -0.446 202 164 143
0.108919 -0.208938 -0.445 200 162 141
0.117446 -0.20753 -0.442 201 160 138
0.127837 -0.207999 -0.443 191 153 130
0.366643 -0.249317 -0.531 135 95 93
0.367971 -0.248848 -0.53 136 96 94
0.382227 -0.24697 -0.526 143 99 96
0.3845 -0.2465 -0.525 142 99 93
0.400426 -0.244622 -0.521 146 99 91
0.418031 -0.242744 -0.517 145 96 89
0.44735 -0.24697 -0.526 120 83 75
-0.116443 -0.275786 -0.585 93 96 101
-0.108415 -0.280971 -0.596 105 105 113
-0.0996286 -0.298886 -0.634 78 79 84
-0.0978267 -0.300771 -0.638 72 73 78
-0.0955457 -0.301243 -0.639 66 67 72
-0.0695219 -0.304543 -0.646 70 69 77
0.0941905 -0.216857 -0.46 203 166 150
0.125306 -0.208843 -0.443 195 154 132
0.167482 -0.218743 -0.464 100 74 73
0.360514 -0.254571 -0.54 139 95 92
0.388758 -0.247029 -0.524 148 101 91
0.392997 -0.246557 -0.523 147 101 88
0.393993 -0.246557 -0.523 148 102 89
0.403619 -0.245143 -0.52 145 98 90
0.407786 -0.244671 -0.519 139 92 82
0.43068 -0.2442 -0.518 126 87 80
-0.0988867 -0.301513 -0.637 76 76 84
-0.0906771 -0.30246 -0.639 51 51 59
-0.08946 -0.30246 -0.639 49 49 57
-0.0740981 -0.304353 -0.643 67 66 74
-0.07176 -0.304827 -0.644 69 68 76
-0.0682914 -0.305773 -0.646 71 70 78
0.1329 -0.209687 -0.443 176 131 112
0.143787 -0.212053 -0.448 159 109 100
0.15436 -0.214893 -0.454 128 90 87
0.160082 -0.216787 -0.458 111 80 78
0.166598 -0.219627 -0.464 102 76 75
0.176136 -0.223887 -0.473 90 69 76
0.353974 -0.25986 -0.549 135 93 94
0.354769 -0.258913 -0.547 136 95 93
0.359121 -0.256073 -0.541 138 97 93
0.375634 -0.24992 -0.528 142 97 92
0.417047 -0.244713 -0.517 145 98 88
0.421154 -0.24424 -0.516 138 94 85
0.431667 -0.245187 -0.518 126 85 79
0.4465 -0.2485 -0.525 124 83 77
0.451063 -0.24992 -0.528 119 78 72
-0.141544 -0.30843 -0.649 96 100 103
-0.090819 -0.304152 -0.64 52 52 60
-0.0858086 -0.303677 -0.639 50 49 57
-0.0845914 -0.303677 -0.639 49 48 56
-0.0811933 -0.304628 -0.641 55 54 62
-0.0753229 -0.305578 -0.643 64 63 71
0.107829 -0.211006 -0.444 202 161 139
0.120243 -0.21053 -0.443 198 157 137
0.142933 -0.212907 -0.448 161 111 102
0.156777 -0.216709 -0.456 119 85 84
0.169091 -0.221461 -0.466 104 76 75
0.174865 -0.224312 -0.472 98 73 76
0.356163 -0.265658 -0.559 132 88 89
0.35531 -0.264232 -0.556 130 86 87
0.356968 -0.25853 -0.544 137 93 92
0.380223 -0.249975 -0.526 145 98 92
0.389756 -0.249025 -0.524 150 103 97
0.39499 -0.24855 -0.523 151 104 96
0.401638 -0.247124 -0.52 150 104 91
0.41292 -0.246173 -0.518 141 97 84
0.417047 -0.245698 -0.517 145 98 88
0.43068 -0.246173 -0.518 125 84 78
0.495783 -0.268034 -0.564 126 90 90
1.13277 -0.300826 -0.633 201 205 191
-0.121014 -0.281991 -0.591 96 99 104
-0.0999429 -0.303463 -0.636 83 84 88
-0.0920381 -0.305371 -0.64 56 57 62
-0.0859429 -0.305371 -0.64 49 48 56
-0.0799724 -0.305849 -0.641 55 54 62
-0.0753229 -0.306803 -0.643 63 62 70
-0.0695219 -0.308234 -0.646 70 69 77
0.115762 -0.210897 -0.442 200 157 138
0.131212 -0.211374 -0.443 178 133 114
0.1332 -0.211851 -0.444 171 125 109
0.134891 -0.211851 -0.444 172 126 111
0.140911 -0.213283 -0.447 161 113 103
0.147 -0.214714 -0.45 150 102 88
0.153495 -0.216623 -0.454 125 85 77
0.15921 -0.218531 -0.458 110 78 81
0.160431 -0.219009 -0.459 109 77 80
0.173966 -0.225211 -0.472 93 72 77
0.175606 -0.226166 -0.474 87 66 71
0.179283 -0.228551 -0.479 214 202 214
0.357867 -0.2672 -0.56 126 84 86
0.357651 -0.266246 -0.558 126 84 86
0.357894 -0.260997 -0.547 135 91 92
0.359785 -0.258611 -0.542 137 93 92
0.372315 -0.252409 -0.529 145 100 95
0.3825 -0.2505 -0.525 148 101 95
0.383768 -0.250023 -0.524 152 105 99
0.392997 -0.249546 -0.523 152 105 97
0.41884 -0.24716 -0.518 145 98 88
0.4465 -0.2505 -0.525 123 82 76
0.5622 -0.3006 -0.63 149 167 213
1.13397 -0.302031 -0.633 203 205 194
-0.0921819 -0.30707 -0.641 55 56 61
-0.088519 -0.30707 -0.641 47 47 55
-0.0822857 -0.30659 -0.64 49 48 56
-0.0811933 -0.30707 -0.641 51 50 58
-0.0764286 -0.307549 -0.642 60 59 67
-0.0695219 -0.309465 -0.646 70 69 77
0.096 -0.214613 -0.448 206 168 149
0.100894 -0.214134 -0.447 206 165 143
0.11492 -0.211739 -0.442 201 159 137
0.11913 -0.211739 -0.442 197 154 135
0.121655 -0.211739 -0.442 195 152 133
0.140911 -0.214134 -0.447 160 110 101
0.14208 -0.214613 -0.448 160 110 101
0.145286 -0.215571 -0.45 152 102 93
0.150569 -0.217009 -0.453 139 96 87
0.162009 -0.220841 -0.461 106 75 80
0.163593 -0.221799 -0.463 103 72 77
0.35881 -0.263476 -0.55 131 89 90
0.367654 -0.254374 -0.531 140 92 90
0.379221 -0.251979 -0.526 149 102 96
0.397217 -0.250063 -0.522 154 106 96
0.40482 -0.248626 -0.519 142 95 85
0.412729 -0.248626 -0.519 144 98 85
0.452925 -0.253416 -0.529 124 83 77
0.484007 -0.264913 -0.553 135 87 85
-0.112177 -0.281838 -0.586 88 88 98
-0.104672 -0.295305 -0.614 100 99 107
-0.0822857 -0.30781 -0.64 47 46 54
-0.0707524 -0.310695 -0.646 68 67 75
0.0918943 -0.217871 -0.453 202 163 146
0.109027 -0.212581 -0.442 205 162 143
0.119971 -0.212581 -0.442 194 152 130
0.120813 -0.212581 -0.442 195 150 129
0.125023 -0.212581 -0.442 189 146 127
0.126993 -0.213062 -0.443 186 143 124
0.129525 -0.213062 -0.443 178 133 114
0.130369 -0.213062 -0.443 178 131 115
0.15504 -0.219314 -0.456 119 84 80
0.360364 -0.266448 -0.554 128 88 89
0.368981 -0.254905 -0.53 143 95 91
0.402629 -0.250095 -0.52 144 100 89
0.419827 -0.249133 -0.518 141 99 87
-0.11125 -0.283437 -0.587 74 74 82
-0.106419 -0.291646 -0.604 112 112 122
-0.103833 -0.30082 -0.623 96 96 104
-0.0923257 -0.309994 -0.642 53 54 59
