ply
format ascii 1.0
comment Created by Open3D
element vertex 1297
property double x
property double y
property double z
property uchar red
property uchar green
property uchar blue
end_header
0.295586 -0.184191 -0.513 94 76 88
0.345929 -0.179883 -0.501 127 95 96
0.346883 -0.179883 -0.501 124 97 102
0.366714 -0.183114 -0.51 67 47 49
0.423305 -0.188859 -0.526 186 137 130
0.42886 -0.187782 -0.523 173 117 104
0.447197 -0.189218 -0.527 118 75 68
0.450057 -0.189577 -0.528 146 105 99
-0.319981 -0.226678 -0.628 162 165 158
-0.15267 -0.234258 -0.649 185 183 168
-0.0515667 -0.229927 -0.637 70 68 79
0.0403952 -0.180115 -0.499 205 162 155
0.0432467 -0.180115 -0.499 198 153 147
0.0481914 -0.180837 -0.501 190 143 135
0.0562714 -0.182281 -0.505 160 121 116
0.07406 -0.190944 -0.529 117 83 84
0.0797143 -0.194914 -0.54 115 87 84
0.294936 -0.186612 -0.517 98 80 92
0.304443 -0.182281 -0.505 134 100 101
0.352609 -0.180837 -0.501 143 122 131
0.368871 -0.185169 -0.513 64 45 49
0.425688 -0.189139 -0.524 176 126 115
0.443343 -0.189861 -0.526 138 93 87
0.468829 -0.194192 -0.538 131 94 86
-0.324766 -0.227874 -0.628 251 252 246
-0.318785 -0.227874 -0.628 144 143 138
-0.180746 -0.231866 -0.639 183 181 168
-0.1722 -0.2286 -0.63 187 185 172
-0.166464 -0.228963 -0.631 187 185 172
-0.162489 -0.231866 -0.639 184 185 169
-0.160806 -0.232954 -0.642 186 187 171
-0.0688762 -0.232229 -0.64 58 56 69
0.0281514 -0.181791 -0.501 207 167 157
0.0481914 -0.181791 -0.501 187 140 132
0.0573467 -0.183606 -0.506 147 112 108
0.0640029 -0.186146 -0.513 135 95 96
0.0677171 -0.188323 -0.519 131 92 95
0.296906 -0.187597 -0.517 96 78 90
0.297935 -0.185783 -0.512 97 76 83
0.298714 -0.185057 -0.51 131 101 103
0.333523 -0.181791 -0.501 127 93 94
0.342111 -0.181791 -0.501 123 88 92
0.360233 -0.183243 -0.505 114 89 92
0.42408 -0.19304 -0.532 181 138 131
0.422303 -0.190863 -0.526 189 141 131
0.429856 -0.189774 -0.523 161 108 94
0.43683 -0.189774 -0.523 145 101 92
0.47892 -0.19812 -0.546 134 96 87
-0.158853 -0.234907 -0.644 189 187 174
-0.0516476 -0.232718 -0.638 70 68 79
-0.0483781 -0.234542 -0.643 71 68 79
0.0263476 -0.183475 -0.503 206 168 157
0.0289314 -0.181651 -0.498 207 169 158
0.0413457 -0.182016 -0.499 202 159 152
0.0471429 -0.182381 -0.5 188 141 135
0.0531743 -0.183475 -0.503 168 124 121
0.058541 -0.185299 -0.508 140 105 103
0.298054 -0.189311 -0.519 105 84 93
0.307329 -0.184205 -0.505 133 99 98
0.321441 -0.183475 -0.503 130 98 99
0.329408 -0.18311 -0.502 128 94 95
0.335431 -0.182746 -0.501 128 93 97
0.336386 -0.182746 -0.501 127 92 96
0.341157 -0.182746 -0.501 127 88 93
0.457671 -0.193689 -0.531 141 100 96
-0.160806 -0.2354 -0.642 187 188 174
-0.0742133 -0.236133 -0.644 65 62 69
-0.05486 -0.2321 -0.633 67 65 76
0.028039 -0.182967 -0.499 208 170 159
0.0317133 -0.182233 -0.497 208 168 156
0.0461905 -0.183333 -0.5 187 142 136
0.0511562 -0.184067 -0.502 176 129 121
0.0679781 -0.191033 -0.521 122 91 97
0.299777 -0.1914 -0.522 107 86 93
0.301413 -0.186267 -0.508 136 100 102
0.326539 -0.184067 -0.502 129 94 98
0.331614 -0.1837 -0.501 128 93 97
0.426343 -0.198 -0.54 165 122 129
0.425227 -0.196533 -0.536 183 130 122
0.42804 -0.1914 -0.522 169 115 103
0.459547 -0.195067 -0.532 137 98 93
-0.280367 -0.238466 -0.647 251 252 246
-0.161776 -0.236254 -0.641 186 187 171
-0.0581076 -0.231831 -0.629 64 64 72
0.02982 -0.18318 -0.497 207 167 157
0.0575733 -0.187234 -0.508 137 106 104
0.07476 -0.196817 -0.534 106 78 92
0.315692 -0.185391 -0.503 132 98 99
0.354269 -0.185023 -0.502 126 89 97
0.422693 -0.193131 -0.524 185 140 134
0.423879 -0.192763 -0.523 179 132 126
0.429034 -0.192394 -0.522 161 108 94
0.433841 -0.192763 -0.523 146 99 93
-0.343218 -0.239698 -0.647 252 253 245
-0.0796114 -0.240069 -0.648 73 71 76
-0.0626 -0.231918 -0.626 63 63 73
-0.0603114 -0.232289 -0.627 63 63 73
-0.0483781 -0.238216 -0.643 72 71 79
0.0245286 -0.18709 -0.505 207 169 158
0.0471429 -0.185238 -0.5 180 135 130
0.0511562 -0.185979 -0.502 164 123 119
0.0531743 -0.18635 -0.503 160 119 115
0.0681086 -0.193389 -0.522 120 91 96
0.0693676 -0.19413 -0.524 116 87 92
0.364836 -0.239328 -0.646 147 145 166
0.312818 -0.18635 -0.503 132 98 99
0.318567 -0.18635 -0.503 128 96 97
0.327797 -0.185609 -0.501 129 94 98
0.329706 -0.185609 -0.501 129 94 98
0.339524 -0.185238 -0.5 126 90 92
0.341429 -0.185238 -0.5 132 92 101
0.365227 -0.189684 -0.512 60 50 58
-0.31777 -0.23311 -0.626 138 145 138
-0.314694 -0.233483 -0.627 118 125 118
-0.171271 -0.234972 -0.631 187 185 172
-0.161056 -0.239441 -0.643 190 188 175
-0.1591 -0.240186 -0.645 190 188 175
0.033539 -0.184701 -0.496 207 167 157
0.0432467 -0.185818 -0.499 192 143 138
0.0441971 -0.185818 -0.499 190 141 136
0.0491457 -0.186563 -0.501 173 129 126
0.05328 -0.18768 -0.504 156 115 113
0.0564943 -0.188797 -0.507 143 107 107
0.0695 -0.1955 -0.525 108 84 97
0.302976 -0.189542 -0.509 116 88 100
0.32398 -0.186563 -0.501 129 94 98
0.325889 -0.186563 -0.501 130 95 99
0.419673 -0.19699 -0.529 182 134 124
0.435833 -0.194755 -0.523 157 108 101
0.437665 -0.195128 -0.524 149 100 95
0.44735 -0.195872 -0.526 123 80 73
-0.317083 -0.234677 -0.627 129 136 129
-0.2852 -0.24104 -0.644 251 252 246
-0.175431 -0.236923 -0.633 186 184 172
-0.16631 -0.237671 -0.635 187 188 174
-0.163962 -0.239543 -0.64 190 188 175
-0.0783829 -0.238794 -0.638 62 61 69
-0.0624 -0.233554 -0.624 63 63 73
-0.0570905 -0.236174 -0.631 64 64 72
0.0451476 -0.186769 -0.499 185 137 133
0.0461905 -0.187143 -0.5 183 135 131
0.0563829 -0.189389 -0.506 147 111 111
0.0645019 -0.193506 -0.517 119 94 98
0.310214 -0.189014 -0.505 131 99 100
0.31248 -0.18864 -0.504 130 98 99
0.317609 -0.188266 -0.503 129 97 100
0.325889 -0.187517 -0.501 130 96 97
0.424875 -0.195751 -0.523 174 125 111
0.4425 -0.1965 -0.525 131 86 80
0.474534 -0.202489 -0.541 127 83 80
-0.3282 -0.237 -0.63 252 253 248
-0.320154 -0.235495 -0.626 233 238 232
-0.162029 -0.241514 -0.642 190 188 173
-0.158116 -0.243019 -0.646 190 188 173
-0.157129 -0.243395 -0.647 189 187 172
-0.0681238 -0.23399 -0.622 65 63 74
-0.0634867 -0.234367 -0.623 61 64 73
-0.0517286 -0.240386 -0.639 69 68 76
-0.0438848 -0.244148 -0.649 73 71 82
0.0251371 -0.187343 -0.498 211 171 161
0.0325286 -0.186214 -0.495 206 166 156
0.0633943 -0.194114 -0.516 121 96 100
0.0837333 -0.210667 -0.56 179 178 209
0.314734 -0.189224 -0.503 132 98 99
0.426051 -0.196371 -0.522 171 119 108
-0.284414 -0.243871 -0.645 252 253 248
-0.283186 -0.243871 -0.645 253 254 249
-0.0717933 -0.235553 -0.623 63 61 72
0.0315857 -0.187157 -0.495 204 164 156
0.0334714 -0.187157 -0.495 203 163 155
0.0471429 -0.189048 -0.5 178 133 130
0.0659933 -0.196988 -0.521 111 89 101
0.374524 -0.245762 -0.65 141 142 162
0.340476 -0.189048 -0.5 132 102 112
0.421887 -0.197744 -0.523 188 137 133
0.4435 -0.1985 -0.525 129 82 76
0.46898 -0.203037 -0.537 127 82 76
0.471753 -0.203793 -0.539 123 78 75
-0.318277 -0.23826 -0.627 222 232 224
-0.288755 -0.24358 -0.641 241 240 238
-0.18481 -0.24662 -0.649 200 202 189
-0.178405 -0.2413 -0.635 187 187 175
-0.175431 -0.24054 -0.633 187 187 175
-0.0860771 -0.24358 -0.641 71 70 75
-0.081 -0.2394 -0.63 64 63 71
-0.0438848 -0.24662 -0.649 73 72 80
-0.0427143 -0.247 -0.65 75 74 82
0.02964 -0.18772 -0.494 206 166 156
0.0354286 -0.18848 -0.496 198 155 146
0.0624114 -0.19608 -0.516 116 91 97
0.0732705 -0.20444 -0.538 106 83 101
0.328095 -0.19 -0.5 128 93 97
0.343333 -0.19 -0.5 213 194 200
0.349488 -0.19076 -0.502 121 91 93
0.419237 -0.20178 -0.531 183 136 128
0.426051 -0.19836 -0.522 172 120 106
0.432845 -0.19874 -0.523 143 90 84
0.466214 -0.2033 -0.535 127 79 75
0.481 -0.20748 -0.546 125 81 80
-0.325283 -0.240218 -0.629 250 253 246
-0.314694 -0.239454 -0.627 191 193 188
-0.0777267 -0.237927 -0.623 54 55 60
-0.0761714 -0.236781 -0.62 55 56 61
-0.0736905 -0.236399 -0.619 63 63 71
-0.0644657 -0.237163 -0.621 62 62 72
-0.0614076 -0.239072 -0.626 64 64 72
-0.0539086 -0.242891 -0.636 66 66 74
-0.0427143 -0.248238 -0.65 75 74 82
0.0268171 -0.188661 -0.494 207 167 159
0.030581 -0.188661 -0.494 200 160 150
0.0325286 -0.189043 -0.495 203 160 153
0.0651257 -0.199354 -0.522 109 87 99
0.420697 -0.200118 -0.524 190 139 135
0.427046 -0.199354 -0.522 169 117 103
0.440659 -0.200118 -0.524 133 84 77
0.468107 -0.204701 -0.536 126 77 73
-0.34481 -0.249476 -0.65 252 253 247
-0.281233 -0.249092 -0.649 255 255 251
-0.171814 -0.242951 -0.633 183 183 171
-0.159347 -0.247941 -0.646 193 191 178
-0.0582924 -0.242184 -0.631 63 63 71
-0.057181 -0.242568 -0.632 65 65 73
-0.0560657 -0.242951 -0.633 65 65 73
0.0363733 -0.19037 -0.496 195 152 143
0.03834 -0.190753 -0.497 189 146 140
0.0638857 -0.199581 -0.52 110 90 102
0.07686 -0.210711 -0.549 114 95 114
0.0802457 -0.214166 -0.558 183 173 198
0.312756 -0.194208 -0.506 126 95 100
0.359914 -0.195743 -0.51 68 55 64
0.429034 -0.200349 -0.522 157 106 89
0.476444 -0.208025 -0.542 119 74 71
-0.324085 -0.242614 -0.629 252 255 248
-0.281667 -0.250714 -0.65 255 255 251
-0.174501 -0.244543 -0.634 187 187 177
-0.167255 -0.244543 -0.634 190 188 175
-0.16008 -0.2484 -0.644 191 192 178
-0.0677952 -0.238757 -0.619 65 63 74
-0.0593057 -0.242614 -0.629 64 65 70
0.0258238 -0.190157 -0.493 207 169 158
0.0344143 -0.190929 -0.495 198 155 146
0.0354286 -0.191314 -0.496 195 152 143
0.0451476 -0.192471 -0.499 173 125 125
0.0590019 -0.197486 -0.512 125 96 101
0.0756762 -0.211371 -0.548 108 92 105
0.0841429 -0.219857 -0.57 252 254 255
0.383246 -0.249943 -0.648 127 123 148
0.327143 -0.192857 -0.5 124 92 93
0.328095 -0.192857 -0.5 124 92 93
0.332857 -0.192857 -0.5 124 92 95
0.33381 -0.192857 -0.5 123 91 94
0.352538 -0.194786 -0.505 116 87 91
0.431023 -0.201343 -0.522 144 91 83
0.435833 -0.201729 -0.523 134 81 75
0.439661 -0.202114 -0.524 140 90 83
0.443653 -0.202114 -0.524 128 79 74
-0.314 -0.243425 -0.628 251 253 248
-0.288755 -0.248464 -0.641 115 116 111
-0.282831 -0.25079 -0.647 253 254 249
-0.281667 -0.251952 -0.65 255 255 251
-0.164149 -0.246526 -0.636 192 190 175
-0.162489 -0.247689 -0.639 193 193 181
-0.0805038 -0.239161 -0.617 65 64 72
-0.0767286 -0.238386 -0.615 66 65 73
-0.0732143 -0.238386 -0.615 63 62 70
0.0533857 -0.195748 -0.505 149 111 110
0.0656248 -0.203888 -0.526 106 85 100
0.320802 -0.194585 -0.502 124 96 92
0.336667 -0.19381 -0.5 127 96 94
0.341429 -0.19381 -0.5 207 187 189
-0.284855 -0.251632 -0.646 240 240 238
-0.170339 -0.246179 -0.632 189 189 177
-0.164149 -0.247737 -0.636 194 192 177
-0.160806 -0.250074 -0.642 193 193 181
0.0373181 -0.193204 -0.496 190 145 142
0.387013 -0.250853 -0.644 85 84 100
0.321117 -0.195151 -0.501 125 93 94
0.335043 -0.194372 -0.499 131 95 97
0.4185 -0.2045 -0.525 186 133 129
0.4485 -0.2045 -0.525 143 96 88
0.475565 -0.210732 -0.541 122 79 73
-0.290743 -0.250514 -0.64 246 248 243
-0.284064 -0.253254 -0.647 231 231 229
-0.17007 -0.246991 -0.631 192 192 182
-0.16484 -0.248166 -0.634 193 191 178
-0.160305 -0.250514 -0.64 195 195 183
-0.0680143 -0.243077 -0.621 66 65 71
0.0344143 -0.193757 -0.495 194 151 142
0.04316 -0.194931 -0.498 176 127 130
0.0471429 -0.195714 -0.5 171 125 127
0.0480952 -0.195714 -0.5 164 122 124
0.0524238 -0.197671 -0.505 143 109 110
0.347575 -0.196497 -0.502 124 89 93
0.4175 -0.2055 -0.525 192 139 135
0.424243 -0.203934 -0.521 161 109 98
0.429205 -0.203934 -0.521 151 101 92
-0.305166 -0.248587 -0.632 255 255 251
-0.155173 -0.253307 -0.644 195 193 180
-0.10488 -0.253307 -0.644 208 205 200
-0.0967533 -0.248193 -0.631 68 66 71
-0.0753114 -0.241113 -0.613 66 65 73
-0.0436819 -0.254093 -0.646 71 70 78
0.0212143 -0.1947 -0.495 207 167 155
0.0343448 -0.194307 -0.494 194 150 141
0.0546705 -0.199813 -0.508 130 105 111
0.0607971 -0.20414 -0.519 113 89 102
0.31939 -0.201387 -0.512 90 75 78
0.321758 -0.197453 -0.502 128 93 97
0.32839 -0.196273 -0.499 127 92 96
0.344974 -0.19706 -0.501 123 93 95
0.419883 -0.21122 -0.537 163 117 117
0.42108 -0.20532 -0.522 180 125 120
0.436989 -0.20532 -0.522 139 90 83
0.446648 -0.206107 -0.524 138 89 82
0.470003 -0.21122 -0.537 123 82 76
-0.314298 -0.249395 -0.631 254 255 250
-0.154691 -0.253743 -0.642 196 194 181
-0.14727 -0.255719 -0.647 219 216 201
-0.145029 -0.256114 -0.648 224 218 202
-0.107167 -0.254138 -0.643 205 206 201
-0.08596 -0.242676 -0.614 66 65 73
-0.0833486 -0.241886 -0.612 68 67 75
-0.07752 -0.241886 -0.612 67 66 74
-0.0691971 -0.245443 -0.621 66 65 71
0.325538 -0.197224 -0.499 125 93 96
0.34896 -0.1992 -0.504 117 91 94
0.429205 -0.205919 -0.521 149 99 90
0.4505 -0.2075 -0.525 151 102 95
-0.308777 -0.250994 -0.632 252 253 247
-0.294695 -0.253377 -0.638 253 254 249
-0.0983714 -0.248611 -0.626 64 65 69
-0.0907857 -0.244243 -0.615 70 69 77
-0.0832124 -0.242654 -0.611 68 67 73
0.01776 -0.20016 -0.504 207 169 158
0.0211286 -0.195791 -0.493 206 166 158
0.0314581 -0.195791 -0.493 199 155 146
0.0392076 -0.196983 -0.496 179 136 129
0.0441086 -0.197777 -0.498 172 126 126
0.0450571 -0.197777 -0.498 170 124 124
0.0525276 -0.200954 -0.506 133 100 107
0.334092 -0.198174 -0.499 117 86 91
0.346619 -0.199366 -0.502 121 90 95
0.4165 -0.2085 -0.525 189 136 130
0.43119 -0.206911 -0.521 148 98 89
0.433174 -0.206911 -0.521 139 92 82
0.481157 -0.216443 -0.545 132 93 86
-0.337381 -0.259381 -0.65 251 252 246
-0.32956 -0.256189 -0.642 251 252 246
-0.302986 -0.253395 -0.635 251 252 247
-0.158551 -0.252597 -0.633 205 203 190
-0.127749 -0.258583 -0.648 231 226 207
-0.0786857 -0.244217 -0.612 68 67 72
-0.0735714 -0.246611 -0.618 68 67 73
-0.0693086 -0.248208 -0.622 67 66 72
-0.0561543 -0.252996 -0.634 67 67 75
0.025719 -0.195932 -0.491 200 157 148
0.0481914 -0.199923 -0.501 155 115 123
0.336944 -0.199125 -0.499 144 124 126
0.34402 -0.199923 -0.501 119 86 93
0.420086 -0.208303 -0.522 183 128 121
0.424419 -0.207505 -0.52 164 112 98
0.4515 -0.2095 -0.525 142 95 85
0.456231 -0.210298 -0.527 136 89 81
-0.328849 -0.257812 -0.643 252 253 247
-0.306614 -0.254605 -0.635 252 253 247
-0.148867 -0.255808 -0.638 206 204 191
-0.134737 -0.259015 -0.646 232 229 212
-0.1074 -0.2526 -0.63 76 76 78
-0.0925229 -0.244982 -0.611 72 71 77
-0.0842381 -0.244581 -0.61 69 68 74
-0.0517286 -0.256209 -0.639 70 69 77
-0.0425171 -0.259416 -0.647 71 70 78
0.0175486 -0.199674 -0.498 205 167 156
0.0410143 -0.198471 -0.495 172 134 125
0.0471429 -0.200476 -0.5 158 116 120
0.0671219 -0.215712 -0.538 110 86 108
0.332191 -0.200075 -0.499 122 90 93
0.432182 -0.208896 -0.521 141 93 83
0.437144 -0.208896 -0.521 137 90 80
0.471903 -0.215712 -0.538 118 86 75
-0.330383 -0.260246 -0.646 252 253 247
-0.299744 -0.258231 -0.641 253 254 249
-0.291909 -0.261051 -0.648 253 254 249
-0.291571 -0.261857 -0.65 253 254 249
-0.154445 -0.254203 -0.631 200 197 188
-0.142241 -0.258231 -0.641 226 223 206
-0.132887 -0.259037 -0.643 235 233 220
-0.126566 -0.258634 -0.642 239 237 224
-0.1098 -0.2538 -0.63 70 70 70
-0.0562429 -0.255814 -0.635 69 68 76
0.0183486 -0.199011 -0.494 208 165 156
0.0210429 -0.197803 -0.491 203 163 151
0.0228667 -0.1974 -0.49 204 162 148
0.0266 -0.1974 -0.49 198 159 144
0.0313943 -0.198206 -0.492 195 153 141
0.0361533 -0.198609 -0.493 188 144 133
0.324643 -0.203443 -0.505 139 110 115
0.334092 -0.201026 -0.499 125 94 99
0.416906 -0.210694 -0.523 184 126 115
0.420086 -0.210291 -0.522 176 123 117
-0.309278 -0.258238 -0.638 253 254 248
-0.29992 -0.260667 -0.644 252 253 248
-0.165524 -0.25581 -0.632 236 238 237
-0.159183 -0.253381 -0.626 247 248 243
-0.107049 -0.251357 -0.621 76 75 80
-0.102333 -0.248524 -0.614 74 73 78
-0.09338 -0.2465 -0.609 72 71 76
-0.0897524 -0.246095 -0.608 72 71 76
-0.0739286 -0.251357 -0.621 68 69 74
-0.0483029 -0.259857 -0.642 69 68 76
-0.0448429 -0.261071 -0.645 70 69 77
0.0275333 -0.198333 -0.49 199 157 145
0.33 -0.202381 -0.5 127 91 95
0.332191 -0.201976 -0.499 118 92 95
0.338845 -0.201976 -0.499 128 96 101
0.416814 -0.217357 -0.537 171 120 119
0.422438 -0.210476 -0.52 163 111 100
0.456231 -0.21331 -0.527 129 89 79
0.480274 -0.22019 -0.544 121 87 78
-0.323729 -0.2623 -0.645 252 253 248
-0.304353 -0.261487 -0.643 252 253 248
-0.302373 -0.261893 -0.644 252 253 248
-0.157738 -0.254167 -0.625 237 237 237
-0.146767 -0.255793 -0.629 244 244 236
-0.131647 -0.259047 -0.637 246 243 236
-0.123586 -0.25742 -0.633 222 222 222
-0.118012 -0.255793 -0.629 102 102 102
-0.113509 -0.25376 -0.624 73 73 75
-0.08874 -0.24766 -0.609 72 71 77
-0.08554 -0.248473 -0.611 69 68 74
-0.07828 -0.25132 -0.618 69 70 74
0.0441086 -0.20252 -0.498 159 119 120
0.333142 -0.202927 -0.499 120 91 93
0.335043 -0.202927 -0.499 119 93 96
0.343066 -0.20374 -0.501 120 88 93
0.415707 -0.213093 -0.524 184 126 122
0.41591 -0.212687 -0.523 183 123 122
0.43119 -0.211873 -0.521 144 94 83
0.448784 -0.212687 -0.523 138 94 83
-0.325234 -0.264754 -0.648 252 253 248
-0.318814 -0.263529 -0.645 252 253 248
-0.317586 -0.263529 -0.645 251 252 247
-0.167881 -0.261894 -0.641 119 119 117
-0.134225 -0.258217 -0.632 234 233 229
-0.118073 -0.25454 -0.623 67 66 71
-0.081679 -0.252089 -0.617 71 72 77
-0.0806343 -0.252497 -0.618 71 72 77
-0.0740476 -0.254131 -0.622 69 69 77
-0.0719086 -0.254949 -0.624 68 67 75
-0.0574524 -0.259443 -0.635 73 72 80
-0.0413486 -0.264754 -0.648 70 69 77
0.0285248 -0.200609 -0.491 194 152 140
0.333142 -0.203877 -0.499 119 89 91
0.340476 -0.204286 -0.5 120 88 93
0.423429 -0.212457 -0.52 164 109 102
0.42541 -0.212457 -0.52 160 107 99
0.449642 -0.214091 -0.524 138 94 83
-0.302714 -0.26681 -0.65 252 253 248
-0.143682 -0.256958 -0.626 235 236 231
-0.131969 -0.257369 -0.627 197 199 198
-0.1073 -0.24998 -0.609 76 77 82
-0.0909105 -0.24957 -0.608 72 71 77
-0.0899 -0.24998 -0.609 73 72 78
-0.0608886 -0.259831 -0.633 69 68 74
0.0303952 -0.201544 -0.491 195 153 141
0.0461905 -0.205238 -0.5 148 108 116
0.388069 -0.256137 -0.624 95 74 91
0.364966 -0.237255 -0.578 87 71 84
0.334973 -0.212627 -0.518 68 56 70
0.336944 -0.204828 -0.499 121 89 92
0.342111 -0.205649 -0.501 120 88 93
0.414913 -0.214679 -0.523 177 122 117
0.424419 -0.213448 -0.52 165 113 102
0.445937 -0.214269 -0.522 140 98 84
-0.321286 -0.268048 -0.65 252 253 247
-0.318319 -0.267635 -0.649 252 253 247
-0.125163 -0.254439 -0.617 66 67 71
-0.0985286 -0.24949 -0.605 74 73 79
-0.0807648 -0.255264 -0.619 71 71 79
-0.0774771 -0.256089 -0.621 70 70 78
-0.0666 -0.2598 -0.63 73 72 78
-0.0471533 -0.265161 -0.643 71 70 78
0.0582771 -0.215675 -0.523 109 86 104
0.384337 -0.254851 -0.618 65 41 57
0.371674 -0.244954 -0.594 99 77 90
0.418476 -0.214438 -0.52 168 113 106
0.480274 -0.224335 -0.544 118 88 80
-0.158301 -0.261829 -0.632 113 114 116
-0.142075 -0.256443 -0.619 113 113 115
-0.128271 -0.254786 -0.615 66 65 70
-0.110837 -0.249814 -0.603 58 57 65
-0.0850667 -0.2552 -0.616 72 71 76
-0.0609848 -0.262657 -0.634 71 70 78
-0.0597771 -0.262657 -0.634 92 91 99
-0.0495257 -0.265971 -0.642 74 73 81
0.0227733 -0.202171 -0.488 201 159 147
0.0265457 -0.202586 -0.489 196 154 142
0.0274771 -0.202586 -0.489 196 154 142
0.334477 -0.207557 -0.501 120 90 92
0.341157 -0.207557 -0.501 115 86 88
0.413224 -0.221643 -0.535 167 118 114
-0.139986 -0.255957 -0.615 88 89 93
-0.137643 -0.255957 -0.615 84 85 90
-0.122931 -0.252211 -0.606 64 63 71
-0.116387 -0.250547 -0.602 63 62 68
-0.0598714 -0.264281 -0.635 124 123 131
0.0332686 -0.204766 -0.492 188 144 135
0.0381086 -0.205598 -0.494 170 133 127
0.0452381 -0.208095 -0.5 143 104 109
0.366043 -0.243471 -0.585 89 53 63
0.363356 -0.238061 -0.572 105 79 88
0.471095 -0.270524 -0.65 72 73 94
0.424591 -0.216003 -0.519 162 112 101
0.449642 -0.218084 -0.524 124 90 80
0.462729 -0.220997 -0.531 121 88 81
0.467377 -0.222246 -0.534 118 85 78
-0.13398 -0.25462 -0.609 73 72 78
-0.120571 -0.250857 -0.6 62 61 69
-0.11542 -0.249603 -0.597 63 62 68
-0.113146 -0.249603 -0.597 62 61 67
-0.0975371 -0.253366 -0.606 74 73 79
-0.0894686 -0.25671 -0.614 74 73 79
-0.0777267 -0.260473 -0.623 70 71 76
-0.0438171 -0.270926 -0.648 68 67 75
0.0246324 -0.20403 -0.488 198 156 142
0.0322657 -0.205285 -0.491 188 145 136
0.0381086 -0.206539 -0.494 175 133 134
0.0410971 -0.207375 -0.496 164 122 123
0.337215 -0.212392 -0.508 96 83 93
0.416109 -0.218246 -0.522 167 115 102
0.422438 -0.21741 -0.52 163 111 100
0.439129 -0.217828 -0.521 146 100 87
-0.13862 -0.25578 -0.609 95 94 100
-0.126075 -0.25158 -0.599 61 61 69
-0.0906381 -0.25788 -0.614 74 73 79
-0.0811562 -0.26124 -0.622 72 73 78
-0.0634 -0.26628 -0.634 75 74 80
-0.0622905 -0.2667 -0.635 71 70 76
-0.0611771 -0.26712 -0.636 89 88 94
0.0208714 -0.20454 -0.487 204 162 150
0.0284086 -0.20538 -0.489 193 151 135
0.0442857 -0.21 -0.5 142 109 116
0.34056 -0.21672 -0.516 55 47 58
-0.106145 -0.251455 -0.596 67 66 74
-0.0907857 -0.259471 -0.615 75 74 80
-0.08652 -0.260737 -0.618 73 72 78
-0.0853429 -0.260737 -0.618 72 71 77
-0.0622905 -0.26791 -0.635 73 72 78
0.0163 -0.206311 -0.489 201 162 147
0.0264914 -0.20589 -0.488 195 153 139
0.410664 -0.224875 -0.533 169 116 108
0.410605 -0.223188 -0.529 166 113 107
0.428546 -0.218969 -0.519 157 105 92
0.4525 -0.2215 -0.525 125 88 80
-0.157137 -0.272086 -0.642 116 120 119
-0.13955 -0.257676 -0.608 99 98 103
-0.108999 -0.251319 -0.593 58 57 63
-0.105186 -0.253014 -0.597 66 65 71
-0.099681 -0.256405 -0.605 72 71 77
-0.0802286 -0.264457 -0.624 73 72 78
-0.0612733 -0.269967 -0.637 71 70 76
0.0180886 -0.206395 -0.487 200 161 146
0.027421 -0.206819 -0.488 192 148 135
0.0284086 -0.207243 -0.489 189 147 133
0.0312667 -0.207667 -0.49 183 141 129
0.0808971 -0.251743 -0.594 249 252 255
0.362779 -0.239876 -0.566 72 49 57
0.422614 -0.219957 -0.519 161 108 100
0.423603 -0.219957 -0.519 164 111 103
0.446791 -0.221652 -0.523 130 87 78
0.464613 -0.225467 -0.532 124 84 74
-0.132921 -0.255003 -0.599 74 73 79
-0.128201 -0.252449 -0.593 75 74 80
-0.0899057 -0.262666 -0.617 75 74 79
-0.085619 -0.263943 -0.62 74 73 78
-0.0758371 -0.266923 -0.627 72 71 77
-0.0669171 -0.269477 -0.633 71 70 76
-0.058939 -0.271606 -0.638 70 69 75
-0.0508276 -0.273734 -0.643 74 73 79
0.0488648 -0.216263 -0.508 120 96 109
0.0622286 -0.229886 -0.54 106 88 104
0.0704905 -0.240529 -0.565 108 85 105
0.0774429 -0.249043 -0.585 221 215 229
0.363427 -0.239251 -0.562 93 66 75
0.34484 -0.22052 -0.518 70 54 67
0.343598 -0.215411 -0.506 111 88 94
0.411612 -0.225203 -0.529 165 112 106
0.413068 -0.224351 -0.527 165 112 104
0.433333 -0.221371 -0.52 146 100 85
0.464613 -0.22648 -0.532 129 87 75
-0.142075 -0.264696 -0.619 93 94 96
-0.12355 -0.251012 -0.587 60 59 67
-0.118671 -0.250157 -0.585 62 61 69
-0.0921067 -0.263413 -0.616 74 73 78
-0.0681229 -0.270683 -0.633 70 69 75
0.033201 -0.209961 -0.491 176 133 126
0.364029 -0.238611 -0.558 89 68 73
0.409893 -0.227493 -0.532 166 113 107
0.413286 -0.224928 -0.526 166 113 105
0.430523 -0.221934 -0.519 155 102 94
0.447788 -0.223645 -0.523 133 91 79
0.448784 -0.223645 -0.523 133 91 79
-0.113293 -0.251701 -0.586 92 91 97
-0.103773 -0.258573 -0.602 62 61 67
-0.09328 -0.264587 -0.616 74 73 79
-0.0648114 -0.273177 -0.636 68 67 73
0.0116905 -0.210896 -0.491 204 167 151
0.0236543 -0.209178 -0.487 195 151 142
0.0370924 -0.211755 -0.493 165 121 122
0.0381086 -0.212185 -0.494 158 119 120
0.0581571 -0.228077 -0.531 107 89 105
0.0797657 -0.255137 -0.594 251 255 255
0.35891 -0.242681 -0.565 135 88 94
0.359784 -0.241822 -0.563 127 78 82
0.360643 -0.240963 -0.561 107 66 70
0.361067 -0.240533 -0.56 95 60 64
0.350989 -0.220775 -0.514 53 43 52
0.411404 -0.232802 -0.542 158 111 105
0.419281 -0.223782 -0.521 159 106 98
0.422614 -0.222923 -0.519 161 109 98
0.437295 -0.223352 -0.52 142 95 87
0.443949 -0.224211 -0.522 134 92 80
0.45064 -0.22507 -0.524 133 91 79
0.472928 -0.231084 -0.538 126 88 79
-0.116244 -0.251954 -0.584 118 122 125
-0.108051 -0.256269 -0.594 58 57 63
-0.09328 -0.26576 -0.616 72 71 77
-0.0848467 -0.26878 -0.623 75 74 80
-0.0770314 -0.270506 -0.627 73 72 78
-0.0759581 -0.270937 -0.628 72 71 77
-0.0532771 -0.277409 -0.643 69 68 74
-0.0497571 -0.278271 -0.645 68 67 73
0.0116667 -0.2114 -0.49 202 166 150
0.0125486 -0.210537 -0.488 200 164 148
0.0198619 -0.209243 -0.485 196 159 143
0.0503229 -0.221323 -0.513 114 91 107
0.0613133 -0.233403 -0.541 102 85 101
0.413068 -0.227363 -0.527 164 111 103
0.4145 -0.2265 -0.525 168 115 107
0.414709 -0.226069 -0.524 165 112 104
0.438286 -0.224343 -0.52 145 97 87
0.440121 -0.224774 -0.521 142 94 84
0.442106 -0.224774 -0.521 137 90 80
0.45064 -0.226069 -0.524 133 91 77
-0.105714 -0.26 -0.6 60 59 65
-0.0964857 -0.266067 -0.614 67 66 72
-0.0934314 -0.267367 -0.617 71 70 76
-0.0903429 -0.268667 -0.62 74 73 78
-0.0727152 -0.273433 -0.631 70 69 75
-0.0660229 -0.2756 -0.636 71 70 76
-0.0474467 -0.280367 -0.647 68 67 73
-0.0439524 -0.281667 -0.65 68 67 72
0.02928 -0.211467 -0.488 180 138 126
0.033201 -0.212767 -0.491 177 134 128
0.04342 -0.2171 -0.501 135 103 114
0.0445514 -0.217967 -0.503 128 100 114
0.0569305 -0.229233 -0.529 104 88 99
0.0819867 -0.260867 -0.602 251 255 255
0.358651 -0.246133 -0.568 144 98 109
0.358274 -0.2444 -0.564 146 99 107
0.361254 -0.241367 -0.557 106 74 77
0.363783 -0.240933 -0.556 70 43 48
0.412073 -0.237033 -0.547 152 107 102
0.408129 -0.231833 -0.535 162 112 105
0.421266 -0.225767 -0.521 162 109 103
0.445937 -0.2262 -0.522 132 90 78
0.459978 -0.229233 -0.529 133 90 81
0.461857 -0.229667 -0.53 131 91 81
-0.149966 -0.282034 -0.648 116 117 121
-0.145449 -0.278117 -0.639 111 112 117
-0.1015 -0.26506 -0.609 60 59 65
-0.0978143 -0.267671 -0.615 63 62 68
-0.0816781 -0.272459 -0.626 75 74 80
-0.0545019 -0.279858 -0.643 70 69 75
0.0302714 -0.212831 -0.489 175 135 127
0.0312029 -0.212831 -0.489 176 136 128
0.04342 -0.218054 -0.501 133 103 113
0.06478 -0.240687 -0.553 111 87 103
0.0749571 -0.253744 -0.583 126 114 134
0.07672 -0.25592 -0.588 229 225 239
0.0838238 -0.26419 -0.607 248 253 255
0.364585 -0.241122 -0.554 76 47 51
0.362149 -0.23677 -0.544 89 64 68
0.407343 -0.234158 -0.538 160 110 101
0.410134 -0.231111 -0.531 160 107 99
0.410371 -0.230676 -0.53 160 107 99
0.447788 -0.22763 -0.523 134 94 84
0.48308 -0.23764 -0.546 120 83 74
-0.115846 -0.254417 -0.582 110 111 115
-0.112369 -0.256603 -0.587 66 65 71
-0.110695 -0.257914 -0.59 61 60 66
-0.108233 -0.2601 -0.595 65 64 70
-0.101667 -0.266657 -0.61 60 59 65
-0.0998314 -0.267969 -0.613 60 59 67
-0.0795467 -0.274526 -0.628 74 73 79
-0.0728305 -0.276274 -0.632 71 70 76
-0.0545867 -0.28152 -0.644 70 69 75
-0.048679 -0.282831 -0.647 69 68 74
0.0133952 -0.212014 -0.485 202 162 150
0.018899 -0.211577 -0.484 195 153 141
0.0435067 -0.219446 -0.502 130 100 112
0.0480857 -0.222943 -0.51 116 93 109
0.0617667 -0.238243 -0.545 110 89 106
0.0682171 -0.246549 -0.564 111 88 106
0.358274 -0.246549 -0.564 150 102 114
0.361419 -0.242177 -0.554 118 78 76
0.357201 -0.231249 -0.529 180 165 168
0.356854 -0.230374 -0.527 118 107 111
0.413286 -0.229937 -0.526 162 109 101
0.414709 -0.229063 -0.524 159 106 98
0.420273 -0.227751 -0.521 155 105 98
0.424591 -0.226877 -0.519 158 108 99
0.431511 -0.226877 -0.519 153 103 94
-0.118967 -0.255087 -0.581 114 115 119
-0.114019 -0.256404 -0.584 92 91 97
-0.109943 -0.259916 -0.592 67 66 72
-0.105269 -0.265185 -0.604 61 60 68
-0.10365 -0.266941 -0.608 60 59 67
-0.062781 -0.28099 -0.64 70 69 75
-0.0462857 -0.284503 -0.648 69 68 74
0.0152114 -0.212499 -0.484 201 161 149
0.0371676 -0.21689 -0.494 157 116 120
0.357651 -0.244989 -0.558 152 106 116
0.36182 -0.242793 -0.553 116 76 74
0.405071 -0.23489 -0.535 159 108 104
0.414288 -0.230939 -0.526 161 108 100
0.419281 -0.228744 -0.521 154 101 95
0.429534 -0.227866 -0.519 152 102 93
0.4325 -0.227866 -0.519 152 102 93
0.504195 -0.248062 -0.565 132 95 86
1.13036 -0.277917 -0.633 212 215 198
-0.109183 -0.261926 -0.594 69 68 74
-0.0707571 -0.280005 -0.635 72 71 77
0.0264371 -0.214744 -0.487 184 141 134
0.0341362 -0.216508 -0.491 161 121 122
0.0361533 -0.21739 -0.493 154 113 117
0.0619933 -0.241201 -0.547 107 89 103
0.0701514 -0.251784 -0.571 110 91 111
0.357651 -0.246051 -0.558 152 107 114
0.361166 -0.243406 -0.552 122 81 79
0.363 -0.242524 -0.55 112 74 73
0.36348 -0.24076 -0.546 64 37 42
0.3619 -0.237673 -0.539 76 50 61
0.362271 -0.23591 -0.535 89 74 81
0.408352 -0.233705 -0.53 159 109 102
0.431511 -0.228854 -0.519 155 103 92
0.437295 -0.229295 -0.52 150 100 89
0.445937 -0.230177 -0.522 141 93 83
0.470149 -0.23635 -0.536 122 84 75
-0.106243 -0.267043 -0.603 67 66 74
-0.105617 -0.268371 -0.606 65 64 72
-0.0994686 -0.273686 -0.618 59 58 66
-0.0940371 -0.275014 -0.621 63 62 68
-0.0786 -0.279 -0.63 74 73 79
-0.0752381 -0.279886 -0.632 74 73 79
-0.0616581 -0.283871 -0.641 70 69 75
0.01242 -0.2139 -0.483 200 162 149
0.01334 -0.2139 -0.483 199 162 146
0.01886 -0.2139 -0.483 192 149 140
0.0207429 -0.214343 -0.484 191 149 137
0.033201 -0.217443 -0.491 166 125 121
0.0532962 -0.231614 -0.523 109 88 103
0.08084 -0.2666 -0.602 250 255 254
0.36234 -0.243129 -0.549 121 79 80
0.36348 -0.2418 -0.546 84 52 57
0.36806 -0.2387 -0.539 58 46 56
0.403787 -0.237371 -0.536 159 104 101
0.4071 -0.235157 -0.531 154 104 95
0.414709 -0.232057 -0.524 153 100 92
0.416906 -0.231614 -0.523 150 96 86
0.424419 -0.230286 -0.52 156 106 97
0.457235 -0.233386 -0.527 126 88 77
-0.0931533 -0.277087 -0.623 64 63 69
-0.08764 -0.278421 -0.626 70 69 75
0.00790095 -0.217044 -0.488 204 168 152
0.0216648 -0.215265 -0.484 189 145 134
0.0235571 -0.21571 -0.485 188 144 135
0.0273648 -0.216599 -0.487 177 134 125
0.0342057 -0.218823 -0.492 159 119 120
0.0382629 -0.220602 -0.496 142 107 113
0.0447286 -0.224605 -0.505 115 92 108
0.0521 -0.231721 -0.521 107 89 105
0.4071 -0.236169 -0.531 155 102 96
0.410605 -0.235279 -0.529 151 101 94
0.413286 -0.233945 -0.526 152 99 91
0.424419 -0.231276 -0.52 157 107 96
0.45064 -0.233055 -0.524 130 86 75
-0.116552 -0.259067 -0.58 108 107 112
-0.108961 -0.267553 -0.599 76 75 81
-0.105966 -0.271573 -0.608 67 66 72
-0.0987686 -0.27738 -0.621 57 57 65
-0.0977429 -0.277827 -0.622 57 57 65
-0.08764 -0.279613 -0.626 70 71 76
-0.0719667 -0.283633 -0.635 73 72 77
-0.0617543 -0.28676 -0.642 71 70 76
0.0282924 -0.217527 -0.487 175 133 121
0.0382629 -0.221547 -0.496 140 105 112
0.0425505 -0.224227 -0.502 126 98 110
0.0623333 -0.245667 -0.55 109 91 105
0.0741 -0.2613 -0.585 138 129 148
0.0757286 -0.263087 -0.589 244 235 254
0.0775029 -0.26532 -0.594 254 254 255
0.36562 -0.24254 -0.543 71 46 50
0.371474 -0.242987 -0.544 68 51 61
0.401471 -0.23986 -0.537 163 110 104
0.40584 -0.237627 -0.532 157 106 102
-0.0776457 -0.283497 -0.632 73 72 77
-0.0606257 -0.288431 -0.643 70 69 74
0.0322 -0.2198 -0.49 163 124 119
0.0382629 -0.222491 -0.496 138 107 115
0.0460524 -0.228323 -0.509 115 94 109
0.067381 -0.253891 -0.566 118 92 117
0.359063 -0.247611 -0.552 139 86 92
0.362724 -0.245817 -0.548 136 90 92
0.433333 -0.233257 -0.52 156 106 95
0.434324 -0.233257 -0.52 157 107 96
-0.117251 -0.260375 -0.578 97 96 102
-0.10836 -0.271187 -0.602 79 78 86
-0.0732914 -0.286503 -0.636 74 73 79
-0.0606257 -0.289656 -0.643 70 69 74
-0.0594933 -0.290107 -0.644 70 69 74
0.02928 -0.219832 -0.488 170 127 118
0.067619 -0.25587 -0.568 115 96 115
0.370979 -0.263078 -0.584 143 101 105
0.365083 -0.258123 -0.573 142 103 104
0.358488 -0.250465 -0.556 146 94 98
0.414071 -0.237401 -0.527 151 98 90
0.41529 -0.23695 -0.526 151 98 90
0.428381 -0.234248 -0.52 156 106 95
0.440267 -0.234248 -0.52 143 99 88
0.443098 -0.234698 -0.521 137 95 83
0.445937 -0.235149 -0.522 133 93 81
0.448784 -0.235599 -0.523 134 92 80
0.475714 -0.243257 -0.54 126 88 79
0.495995 -0.250915 -0.557 130 93 84
-0.0958333 -0.282738 -0.625 55 56 61
-0.0934524 -0.282738 -0.625 56 57 62
-0.081 -0.285 -0.63 71 70 76
-0.0754762 -0.28681 -0.634 71 70 76
0.0142305 -0.218048 -0.482 194 152 136
0.01978 -0.2185 -0.483 193 149 136
0.0235571 -0.219405 -0.485 183 136 130
0.0264371 -0.22031 -0.487 177 133 124
0.0763714 -0.268714 -0.594 221 212 239
0.083621 -0.277762 -0.614 236 242 254
0.36168 -0.247905 -0.548 142 92 95
0.36348 -0.247 -0.546 144 94 97
0.37596 -0.247 -0.546 54 37 45
0.408387 -0.254238 -0.562 131 92 95
0.433333 -0.235238 -0.52 155 103 92
0.462867 -0.239762 -0.53 126 88 79
-0.141895 -0.288017 -0.634 104 103 108
-0.114934 -0.264849 -0.583 71 70 76
-0.113293 -0.266211 -0.586 67 66 72
-0.105842 -0.278931 -0.614 75 74 80
-0.0743857 -0.288471 -0.635 72 71 77
-0.0710914 -0.289834 -0.638 72 71 77
-0.0676571 -0.290743 -0.64 73 72 78
-0.0642 -0.291651 -0.642 73 72 77
-0.0629771 -0.291651 -0.642 73 72 77
0.00419143 -0.222146 -0.489 206 170 156
0.0132848 -0.218511 -0.481 194 152 136
0.0207 -0.21942 -0.483 188 144 131
0.0216648 -0.219874 -0.484 185 141 128
0.02928 -0.221691 -0.488 169 126 117
0.0322657 -0.223054 -0.491 161 121 121
0.0404762 -0.227143 -0.5 130 100 110
0.0582219 -0.245769 -0.541 110 89 104
0.0679762 -0.259397 -0.571 115 98 117
0.359063 -0.250766 -0.552 138 87 92
0.360249 -0.249403 -0.549 135 86 89
0.36168 -0.248949 -0.548 140 91 94
0.365257 -0.247131 -0.544 145 96 99
0.385349 -0.250766 -0.552 77 60 70
0.399986 -0.249403 -0.549 138 93 90
0.397683 -0.246677 -0.543 140 95 92
0.40859 -0.240317 -0.529 153 102 98
0.409829 -0.239863 -0.528 152 102 95
0.418898 -0.237591 -0.523 152 102 93
0.44409 -0.236683 -0.521 137 93 82
-0.097179 -0.285575 -0.626 55 56 61
0.0715029 -0.265503 -0.582 104 91 117
0.364702 -0.259572 -0.569 146 95 100
0.360193 -0.254098 -0.557 142 89 95
0.369757 -0.247711 -0.543 139 103 103
0.39516 -0.243606 -0.534 142 94 92
0.409597 -0.241325 -0.529 152 101 97
0.413068 -0.240412 -0.527 148 95 89
0.414288 -0.239956 -0.526 146 93 87
0.419894 -0.238588 -0.523 157 105 94
0.429371 -0.237219 -0.52 154 102 91
-0.117251 -0.264779 -0.578 90 89 95
-0.0732914 -0.291349 -0.636 71 70 76
-0.0721933 -0.291807 -0.637 71 70 76
-0.0595857 -0.295471 -0.645 72 71 77
0.0105362 -0.220344 -0.481 197 158 143
0.0151171 -0.220344 -0.481 192 150 138
0.0283505 -0.22355 -0.488 170 127 118
0.0474838 -0.235461 -0.514 110 91 111
0.0918943 -0.292723 -0.639 248 252 255
0.363104 -0.250578 -0.547 139 90 93
0.368723 -0.248746 -0.543 147 103 104
0.373894 -0.248746 -0.543 136 102 103
0.383576 -0.249662 -0.545 124 92 95
0.393319 -0.250578 -0.547 129 90 91
0.497949 -0.255617 -0.558 134 94 86
-0.0998819 -0.28888 -0.628 62 63 68
-0.0937514 -0.28842 -0.627 53 53 61
-0.0927048 -0.28888 -0.628 52 52 60
-0.0643 -0.29578 -0.643 72 71 77
0.00140857 -0.22678 -0.493 204 172 157
0.00598 -0.22218 -0.483 206 169 150
0.0273648 -0.22402 -0.487 170 127 120
0.0529 -0.24334 -0.529 107 88 108
0.07524 -0.27324 -0.594 165 158 191
0.362356 -0.25852 -0.562 145 93 97
0.360606 -0.25576 -0.556 141 89 93
0.38909 -0.25024 -0.544 128 92 92
0.420086 -0.24012 -0.522 155 105 94
0.424243 -0.23966 -0.521 157 105 94
0.44978 -0.24058 -0.523 127 87 77
0.464751 -0.24426 -0.531 127 89 80
0.479541 -0.24932 -0.542 126 88 79
-0.146131 -0.296543 -0.642 93 93 101
-0.136693 -0.284533 -0.616 100 99 107
-0.117251 -0.266981 -0.578 86 86 94
-0.106359 -0.284995 -0.617 82 82 90
-0.0974895 -0.290076 -0.628 56 57 62
-0.0892581 -0.290538 -0.629 53 52 60
0.0151171 -0.222176 -0.481 193 149 136
0.0303333 -0.226333 -0.49 164 125 120
0.0342752 -0.227719 -0.493 148 109 112
0.0373933 -0.229567 -0.497 137 100 107
0.362133 -0.258667 -0.56 142 89 95
0.394693 -0.245733 -0.532 146 98 98
0.401286 -0.24481 -0.53 152 103 99
0.41106 -0.243424 -0.527 152 102 95
0.424243 -0.240652 -0.521 156 103 95
0.429371 -0.24019 -0.52 156 106 97
0.431352 -0.24019 -0.52 157 104 96
0.441257 -0.24019 -0.52 149 99 90
0.4555 -0.2425 -0.525 125 87 78
-0.111258 -0.275039 -0.593 97 98 103
-0.109689 -0.279677 -0.603 94 95 100
-0.103306 -0.290809 -0.627 73 74 79
0.0123686 -0.223092 -0.481 194 152 138
0.0235086 -0.224484 -0.484 185 137 125
0.0283505 -0.226339 -0.488 166 123 117
0.0788076 -0.280141 -0.604 178 182 211
0.0901095 -0.294519 -0.635 242 250 252
0.362315 -0.258342 -0.557 142 92 95
0.379029 -0.250457 -0.54 142 104 103
0.383143 -0.250457 -0.54 143 99 100
0.38654 -0.249993 -0.539 141 95 95
0.386848 -0.24953 -0.538 141 95 95
0.387872 -0.24953 -0.538 139 95 94
0.389493 -0.248602 -0.536 140 99 97
0.391091 -0.247674 -0.534 149 104 101
0.402295 -0.245819 -0.53 155 106 101
0.404559 -0.245355 -0.529 152 101 97
0.406574 -0.245355 -0.529 152 101 97
-0.116351 -0.269649 -0.579 83 84 89
-0.110686 -0.277566 -0.596 102 101 107
-0.0954 -0.2934 -0.63 54 55 60
0.000465714 -0.227734 -0.489 206 170 154
0.0323314 -0.229131 -0.492 148 112 114
0.0353571 -0.230529 -0.495 141 106 110
0.0396029 -0.233323 -0.501 121 98 114
0.0441133 -0.237049 -0.509 113 92 107
0.3666 -0.25428 -0.546 150 102 102
0.36764 -0.25428 -0.546 149 104 101
0.373206 -0.252417 -0.542 157 109 109
0.387748 -0.249157 -0.535 143 102 100
0.392667 -0.24776 -0.532 149 103 103
0.434167 -0.242637 -0.521 152 102 93
0.47131 -0.249157 -0.535 123 85 74
-0.145904 -0.299744 -0.641 94 94 102
-0.1105 -0.278233 -0.595 105 104 110
-0.0907438 -0.295068 -0.631 50 49 57
0.0105143 -0.224457 -0.48 197 154 138
0.0263829 -0.227263 -0.486 169 126 119
0.0323314 -0.230069 -0.492 148 112 114
0.0442 -0.238486 -0.51 114 93 108
0.0864476 -0.29273 -0.626 237 241 250
0.370791 -0.253917 -0.543 148 104 103
0.375943 -0.252514 -0.54 148 105 99
0.402544 -0.24737 -0.529 155 106 101
0.407817 -0.246903 -0.528 158 106 95
0.48516 -0.25532 -0.546 127 89 80
-0.11615 -0.271385 -0.578 85 86 90
-0.115249 -0.271854 -0.579 75 76 80
-0.11163 -0.27655 -0.589 110 109 114
-0.1105 -0.279367 -0.595 108 107 112
-0.0969067 -0.296739 -0.632 56 57 62
-0.0957029 -0.296739 -0.632 53 54 59
-0.0944991 -0.296739 -0.632 51 52 57
-0.0908876 -0.296739 -0.632 50 50 58
0.00594286 -0.225371 -0.48 199 163 147
0.0254571 -0.228189 -0.486 172 129 120
0.0273648 -0.228658 -0.487 167 124 117
0.0333362 -0.231475 -0.493 147 111 113
0.0493114 -0.245561 -0.523 110 89 108
0.0659162 -0.268568 -0.572 116 93 119
0.365498 -0.261525 -0.557 138 89 95
0.366695 -0.260116 -0.554 134 87 93
0.36972 -0.25636 -0.546 148 104 101
0.370081 -0.25589 -0.545 147 103 100
0.374578 -0.254012 -0.541 146 103 97
0.380699 -0.252604 -0.538 145 101 98
0.386006 -0.250726 -0.534 146 101 98
0.3922 -0.248848 -0.53 146 98 94
0.393475 -0.248378 -0.529 151 103 99
0.400777 -0.247909 -0.528 156 107 102
0.403794 -0.247909 -0.528 159 109 102
0.413286 -0.24697 -0.526 158 106 95
0.419894 -0.245561 -0.523 156 106 95
0.426228 -0.244622 -0.521 148 98 87
0.467653 -0.249787 -0.532 127 87 77
-0.115249 -0.272957 -0.579 75 76 80
-0.108005 -0.288986 -0.613 93 94 98
-0.105526 -0.295114 -0.626 85 86 90
0.0235086 -0.228171 -0.484 173 130 121
0.0343448 -0.232886 -0.494 141 106 112
0.08848 -0.297943 -0.632 242 245 255
0.367467 -0.264 -0.56 136 87 93
0.374578 -0.255043 -0.541 146 101 96
0.379674 -0.253629 -0.538 148 103 100
0.384389 -0.252686 -0.536 142 97 94
0.385283 -0.251271 -0.533 148 103 100
0.390917 -0.250329 -0.531 155 106 101
0.417703 -0.247029 -0.524 163 111 100
0.440267 -0.245143 -0.52 144 97 87
0.458371 -0.247971 -0.526 132 89 80
0.019739 -0.228147 -0.482 181 137 126
0.0283505 -0.230987 -0.488 157 117 115
0.0323314 -0.23288 -0.492 146 112 113
0.0375438 -0.236193 -0.499 127 94 101
0.0661467 -0.271693 -0.574 119 97 118
0.08272 -0.291573 -0.616 200 202 223
0.0847105 -0.294413 -0.622 186 188 209
0.3699 -0.26838 -0.567 136 84 88
0.367467 -0.265067 -0.56 136 87 93
0.376971 -0.2556 -0.54 146 101 98
0.388894 -0.25134 -0.531 153 105 101
0.398766 -0.24992 -0.528 156 106 99
0.429034 -0.24708 -0.522 151 101 90
0.446075 -0.246607 -0.521 130 87 78
0.451772 -0.247553 -0.523 128 85 76
0.464886 -0.250867 -0.53 132 89 80
0.479687 -0.256073 -0.541 125 85 75
0.483383 -0.257493 -0.544 129 89 79
-0.121024 -0.273262 -0.575 100 101 106
-0.113433 -0.276113 -0.581 71 72 76
-0.108005 -0.291321 -0.613 99 100 102
-0.105167 -0.299875 -0.631 86 87 91
-0.0949476 -0.301776 -0.635 48 49 54
-0.0937381 -0.301776 -0.635 47 48 53
-0.0875524 -0.301301 -0.634 44 44 52
-0.00138857 -0.230966 -0.486 205 170 151
0.0178657 -0.22859 -0.481 186 139 129
0.0225867 -0.230015 -0.484 175 132 123
0.0323314 -0.233817 -0.492 144 109 113
0.0334038 -0.234768 -0.494 142 107 111
0.0523829 -0.253777 -0.534 112 91 110
0.0646 -0.270886 -0.57 113 96 112
0.0848467 -0.296073 -0.623 228 230 243
0.37003 -0.26043 -0.548 144 99 96
0.370397 -0.259955 -0.547 145 101 98
0.37865 -0.255678 -0.538 146 99 93
0.396754 -0.250926 -0.528 157 106 102
0.39776 -0.250926 -0.528 156 105 101
0.4115 -0.2495 -0.525 167 114 108
0.417703 -0.249025 -0.524 166 113 107
0.431023 -0.248074 -0.522 158 106 95
0.49454 -0.262807 -0.553 133 96 88
-0.115749 -0.274834 -0.576 86 87 92
-0.000459048 -0.229983 -0.482 203 168 149
0.00773905 -0.228074 -0.478 198 154 141
0.0235086 -0.230937 -0.484 169 129 121
0.0273648 -0.232369 -0.487 159 120 113
0.02934 -0.233323 -0.489 152 114 113
0.0387257 -0.239526 -0.502 118 97 112
0.0420914 -0.242389 -0.508 112 91 108
0.0742333 -0.2839 -0.595 252 244 255
0.37356 -0.270063 -0.566 126 80 82
0.382037 -0.256226 -0.537 148 101 95
0.384989 -0.254794 -0.534 149 100 93
0.3922 -0.252886 -0.53 154 103 99
0.396498 -0.252409 -0.529 160 109 105
0.401022 -0.251454 -0.527 157 104 98
-0.10987 -0.289345 -0.604 109 110 112
-0.107393 -0.298447 -0.623 95 96 101
-0.0827219 -0.303716 -0.634 49 48 56
0.00136857 -0.229464 -0.479 203 168 149
0.00228095 -0.229464 -0.479 203 166 147
0.00318667 -0.228985 -0.478 202 165 146
0.00500762 -0.228985 -0.478 197 160 141
0.019739 -0.230901 -0.482 180 133 125
0.0225867 -0.231859 -0.484 169 129 121
0.0303952 -0.235212 -0.491 149 115 116
0.0365933 -0.239045 -0.499 126 96 104
0.0849829 -0.298926 -0.624 245 246 250
0.087 -0.3018 -0.63 215 224 253
0.375619 -0.260602 -0.544 143 98 92
0.384989 -0.255811 -0.534 149 100 93
0.386587 -0.254853 -0.532 154 104 97
0.418898 -0.250542 -0.523 160 108 97
0.441113 -0.249584 -0.521 140 96 83
0.468667 -0.254853 -0.532 131 91 81
0.481606 -0.259644 -0.542 128 85 76
-0.144766 -0.305886 -0.636 95 96 101
-0.13376 -0.292419 -0.608 104 103 108
-0.126039 -0.280395 -0.583 108 107 112
-0.107059 -0.302038 -0.628 95 95 103
-0.09646 -0.306367 -0.637 57 57 65
0.00499714 -0.229414 -0.477 197 160 141
0.00682857 -0.229895 -0.478 194 157 138
0.0225867 -0.232781 -0.484 171 124 118
0.407951 -0.302519 -0.629 123 91 92
0.37631 -0.262119 -0.545 139 94 88
0.416906 -0.251538 -0.523 162 110 97
0.429034 -0.251057 -0.522 159 107 96
0.433174 -0.250576 -0.521 154 102 91
0.438136 -0.250576 -0.521 149 99 88
-0.117533 -0.27716 -0.574 111 112 117
-0.0938857 -0.307097 -0.636 60 61 66
-0.0901095 -0.306614 -0.635 54 53 59
-0.0828524 -0.306614 -0.635 48 47 55
0.0141419 -0.231289 -0.479 186 143 126
0.016 -0.231771 -0.48 184 141 124
0.0235086 -0.233703 -0.484 169 122 116
0.0284086 -0.236117 -0.489 152 115 109
0.039919 -0.243843 -0.505 113 95 109
0.0557419 -0.264123 -0.547 109 92 111
0.378014 -0.271849 -0.563 129 90 85
0.376192 -0.267503 -0.554 139 91 87
0.379029 -0.260743 -0.54 144 96 92
0.39549 -0.255431 -0.529 158 105 99
0.415114 -0.252051 -0.522 161 109 98
0.417103 -0.252051 -0.522 160 110 101
0.437144 -0.251569 -0.521 150 100 89
0.451772 -0.252534 -0.523 133 89 78
-0.139881 -0.302976 -0.625 96 95 100
-0.123857 -0.280192 -0.578 108 107 113
-0.117533 -0.278253 -0.574 111 112 117
-0.110653 -0.291827 -0.602 192 194 193
-0.08876 -0.307339 -0.634 40 39 45
0.016 -0.232686 -0.48 184 141 124
0.0187819 -0.23317 -0.481 178 131 121
0.02162 -0.23414 -0.483 170 123 115
0.061881 -0.27389 -0.565 109 91 107
0.0664924 -0.279708 -0.577 114 99 122
0.0696429 -0.283586 -0.585 139 129 153
0.280429 -0.315095 -0.65 241 240 255
0.290333 -0.315095 -0.65 228 225 252
0.382037 -0.260317 -0.537 150 101 96
0.383368 -0.259832 -0.536 146 97 92
0.384989 -0.258863 -0.534 154 101 95
0.39119 -0.256924 -0.53 155 105 98
0.416109 -0.253046 -0.522 162 110 97
0.42108 -0.253046 -0.522 155 105 96
0.427864 -0.25353 -0.523 158 106 95
0.433011 -0.253046 -0.522 158 106 93
0.438286 -0.252076 -0.52 145 97 83
-0.118627 -0.279347 -0.574 110 111 116
-0.0899676 -0.308547 -0.634 35 35 43
-0.08876 -0.308547 -0.634 40 39 45
-0.0850029 -0.30806 -0.633 38 37 45
0.00136 -0.231653 -0.476 201 164 145
0.00954 -0.23214 -0.477 190 152 131
0.0187819 -0.234087 -0.481 176 129 119
0.0264371 -0.237007 -0.487 157 116 114
0.06494 -0.27886 -0.573 112 96 109
0.0742333 -0.289567 -0.595 249 246 255
0.273 -0.316333 -0.65 182 192 228
0.285381 -0.316333 -0.65 233 235 250
0.30519 -0.316333 -0.65 244 244 254
0.379403 -0.268153 -0.551 137 93 84
0.380761 -0.263287 -0.541 148 99 92
0.387313 -0.259393 -0.533 154 104 97
0.388329 -0.259393 -0.533 155 105 98
0.388613 -0.258907 -0.532 156 106 99
0.414913 -0.254527 -0.523 166 114 101
0.478051 -0.261827 -0.538 131 89 77
0.493801 -0.268153 -0.551 137 94 85
-0.128417 -0.290211 -0.594 104 103 108
-0.110063 -0.301937 -0.618 184 186 183
-0.091319 -0.310243 -0.635 35 35 43
-0.0850029 -0.309266 -0.633 36 35 43
0.0104486 -0.233049 -0.477 187 149 128
0.0132019 -0.233537 -0.478 184 143 121
0.02162 -0.23598 -0.483 170 122 118
0.07112 -0.28728 -0.588 254 242 255
0.180143 -0.317571 -0.65 170 181 211
0.27258 -0.317083 -0.649 176 184 221
0.276714 -0.317571 -0.65 226 231 253
0.289887 -0.317083 -0.649 211 211 235
0.291123 -0.317083 -0.649 210 210 234
0.300238 -0.317571 -0.65 237 236 252
0.381143 -0.269691 -0.552 142 94 90
0.38469 -0.261386 -0.535 147 97 90
0.397007 -0.257477 -0.527 156 104 93
0.410929 -0.255523 -0.523 165 113 100
0.5013 -0.272134 -0.557 136 99 91
-0.121445 -0.283005 -0.577 100 100 108
0.0235086 -0.23739 -0.484 161 124 118
0.0356429 -0.244748 -0.499 118 98 107
0.0463229 -0.256519 -0.523 109 91 107
0.0696429 -0.286929 -0.585 216 207 228
0.0726086 -0.289871 -0.591 249 246 255
0.147952 -0.31881 -0.65 134 143 174
0.159095 -0.31881 -0.65 204 208 220
0.172714 -0.31881 -0.65 210 212 227
0.21077 -0.318319 -0.649 191 197 229
0.2808 -0.317829 -0.648 237 235 249
0.283269 -0.317829 -0.648 211 212 232
0.288206 -0.317829 -0.648 217 220 239
0.293143 -0.317829 -0.648 213 219 241
0.301012 -0.318319 -0.649 247 246 255
0.419687 -0.318319 -0.649 153 151 175
0.389773 -0.281533 -0.574 129 89 87
0.382209 -0.269271 -0.549 142 94 92
0.426868 -0.256519 -0.523 160 108 97
0.427864 -0.256519 -0.523 159 107 96
0.430029 -0.256029 -0.522 160 108 97
0.432017 -0.256029 -0.522 159 107 96
0.446075 -0.255538 -0.521 135 91 78
-0.117049 -0.284104 -0.577 97 97 105
-0.111144 -0.300845 -0.611 229 228 234
-0.105667 -0.31217 -0.634 159 159 161
0.00589333 -0.234373 -0.476 193 155 134
0.0206571 -0.237328 -0.482 167 124 118
0.0491467 -0.261947 -0.532 109 92 110
0.125667 -0.320048 -0.65 205 215 242
0.126905 -0.320048 -0.65 201 211 238
0.146714 -0.320048 -0.65 127 133 159
0.163795 -0.319555 -0.649 196 198 211
0.171476 -0.320048 -0.65 215 211 234
0.257349 -0.319063 -0.648 131 149 199
0.328714 -0.320048 -0.65 152 169 212
0.419687 -0.319555 -0.649 134 134 160
0.394483 -0.26047 -0.529 152 99 91
0.427864 -0.257515 -0.523 160 108 97
0.42886 -0.257515 -0.523 161 109 96
0.430029 -0.257023 -0.522 161 109 96
0.443098 -0.25653 -0.521 141 95 82
0.447068 -0.25653 -0.521 134 90 77
-0.13508 -0.303491 -0.614 91 92 96
-0.119247 -0.285203 -0.577 92 93 98
-0.113134 -0.292123 -0.591 187 186 194
-0.08862 -0.312883 -0.633 34 35 40
0.000452381 -0.234786 -0.475 198 162 138
0.00316667 -0.234786 -0.475 195 159 135
0.00407143 -0.234786 -0.475 196 158 135
0.0414476 -0.253074 -0.512 109 91 103
0.0439067 -0.25604 -0.518 108 90 104
0.0667229 -0.286191 -0.579 119 110 137
0.07112 -0.29064 -0.588 250 244 255
0.12671 -0.320791 -0.649 199 210 240
0.182057 -0.320297 -0.648 192 205 237
0.204274 -0.320297 -0.648 87 117 187
0.219086 -0.320297 -0.648 209 211 226
0.257349 -0.320297 -0.648 131 149 199
0.261051 -0.320297 -0.648 131 151 201
0.268043 -0.319803 -0.647 160 177 221
0.300085 -0.319803 -0.647 245 242 253
0.312891 -0.320297 -0.648 203 209 241
0.315847 -0.320791 -0.649 213 218 248
0.326972 -0.320791 -0.649 157 174 217
0.328209 -0.320791 -0.649 164 178 217
0.336143 -0.321286 -0.65 193 202 231
0.352238 -0.321286 -0.65 177 176 190
0.417857 -0.321286 -0.65 141 143 168
0.385271 -0.268397 -0.543 155 105 98
0.388613 -0.26296 -0.532 155 102 94
0.395749 -0.260983 -0.528 159 106 98
0.405726 -0.259006 -0.524 160 108 97
0.41412 -0.258017 -0.522 164 112 101
0.420086 -0.258017 -0.522 159 107 94
0.4575 -0.2595 -0.525 135 91 80
0.4585 -0.2595 -0.525 135 91 80
0.47348 -0.263949 -0.534 129 89 79
0.493054 -0.271363 -0.549 133 95 86
-0.122287 -0.288287 -0.581 88 89 94
-0.112171 -0.299699 -0.604 230 229 237
-0.109943 -0.309623 -0.624 221 221 221
-0.08848 -0.313592 -0.632 33 34 39
-0.00892095 -0.244622 -0.493 201 166 144
0.0439914 -0.257523 -0.519 109 91 107
0.04524 -0.259011 -0.522 110 92 108
0.0507257 -0.26695 -0.538 110 92 108
0.08366 -0.309127 -0.623 242 238 255
0.10075 -0.322028 -0.649 230 233 252
0.120529 -0.322028 -0.649 207 207 243
0.121765 -0.322028 -0.649 207 207 243
0.13289 -0.322028 -0.649 135 149 194
0.211353 -0.321035 -0.647 213 215 240
