ply
format ascii 1.0
comment Created by Open3D
element vertex 1316
property double x
property double y
property double z
property uchar red
property uchar green
property uchar blue
end_header
0.135195 -0.149605 -0.445 193 146 130
0.172673 -0.147588 -0.439 160 108 95
0.17682 -0.14826 -0.441 157 105 92
0.19029 -0.149605 -0.445 139 91 79
0.192417 -0.149941 -0.446 140 92 82
0.196254 -0.150277 -0.447 139 93 80
0.21057 -0.15263 -0.454 115 75 73
0.21861 -0.154648 -0.46 106 71 67
0.236187 -0.160027 -0.476 98 64 63
0.296744 -0.177845 -0.529 94 61 70
0.303652 -0.177172 -0.527 103 70 77
0.318058 -0.175155 -0.521 112 82 82
0.333342 -0.17381 -0.517 123 91 92
0.345786 -0.173138 -0.515 126 94 97
0.370371 -0.175491 -0.522 49 36 43
0.415419 -0.178181 -0.53 182 133 129
0.416869 -0.177509 -0.528 179 126 120
0.431374 -0.178517 -0.531 130 79 75
0.443604 -0.180198 -0.536 118 75 68
0.469662 -0.185241 -0.551 131 92 85
-0.158589 -0.215705 -0.638 183 183 171
-0.154691 -0.217057 -0.642 185 185 175
0.131546 -0.151129 -0.447 192 145 129
0.1338 -0.15079 -0.446 192 145 129
0.139433 -0.150452 -0.445 192 145 127
0.140811 -0.150114 -0.444 192 145 127
0.173067 -0.148762 -0.44 160 106 94
0.18143 -0.149438 -0.442 149 99 90
0.19029 -0.150452 -0.445 138 90 78
0.194116 -0.15079 -0.446 137 90 80
0.209243 -0.153157 -0.453 114 76 73
0.214572 -0.15451 -0.457 108 73 71
0.219085 -0.155862 -0.461 105 72 67
0.22776 -0.158229 -0.468 100 67 62
0.231014 -0.159243 -0.471 100 66 64
0.237179 -0.16161 -0.478 95 64 62
0.246867 -0.165667 -0.49 85 56 60
0.287751 -0.179529 -0.531 82 51 59
0.301211 -0.178514 -0.528 102 67 74
0.303076 -0.177838 -0.526 105 69 79
0.324381 -0.17581 -0.52 121 89 90
0.331372 -0.174795 -0.517 122 90 91
0.41665 -0.178852 -0.529 179 126 118
0.426727 -0.178852 -0.529 144 92 81
0.454955 -0.18291 -0.541 138 97 91
-0.29716 -0.21964 -0.646 255 255 251
-0.291909 -0.22032 -0.648 253 254 249
0.14658 -0.14994 -0.441 194 145 131
0.170165 -0.14926 -0.439 163 109 97
0.196254 -0.15198 -0.447 133 89 78
0.197106 -0.15198 -0.447 131 87 76
0.207517 -0.15402 -0.453 118 79 74
0.216386 -0.15606 -0.459 106 72 70
0.238171 -0.1632 -0.48 92 61 58
0.245431 -0.16626 -0.489 81 55 58
0.276591 -0.17986 -0.529 68 41 48
0.27966 -0.18054 -0.531 72 42 52
0.286267 -0.18088 -0.532 80 50 58
0.290238 -0.1802 -0.53 87 55 66
0.290698 -0.17986 -0.529 88 55 64
0.31131 -0.17782 -0.523 112 80 85
0.318058 -0.17714 -0.521 113 81 84
0.323757 -0.17646 -0.519 119 87 88
0.330388 -0.17578 -0.517 124 90 91
0.336957 -0.1751 -0.515 123 91 94
0.36867 -0.17714 -0.521 48 38 37
0.419886 -0.17952 -0.528 169 113 100
0.460587 -0.18496 -0.544 137 96 90
-0.16198 -0.217793 -0.637 181 182 174
-0.15272 -0.220187 -0.644 185 185 175
0.131546 -0.152831 -0.447 189 142 126
0.1338 -0.15249 -0.446 192 145 129
0.14607 -0.151122 -0.442 198 149 134
0.14742 -0.15078 -0.441 195 146 131
0.148424 -0.150096 -0.439 191 144 128
0.14926 -0.150096 -0.439 188 141 125
0.156545 -0.14907 -0.436 181 132 118
0.158206 -0.14907 -0.436 177 125 112
0.159867 -0.14907 -0.436 178 126 113
0.165228 -0.149412 -0.437 166 114 101
0.171837 -0.150096 -0.439 163 109 97
0.183114 -0.151122 -0.442 145 97 87
0.19029 -0.152148 -0.445 139 91 79
0.191568 -0.15249 -0.446 137 90 80
0.1937 -0.152831 -0.447 134 90 79
0.21417 -0.156592 -0.458 110 72 69
0.285253 -0.181893 -0.532 80 51 56
0.289229 -0.18121 -0.53 87 54 65
0.320419 -0.17779 -0.52 116 86 88
0.330388 -0.176765 -0.517 121 93 92
0.35001 -0.175739 -0.514 221 202 206
0.358821 -0.175739 -0.514 118 87 92
0.415262 -0.182919 -0.535 191 136 129
0.419886 -0.180526 -0.528 166 110 95
0.426727 -0.180868 -0.529 140 90 81
-0.301614 -0.221757 -0.645 173 173 171
-0.290674 -0.222789 -0.648 235 236 231
-0.28865 -0.223132 -0.649 249 250 245
-0.285381 -0.223476 -0.65 250 251 246
-0.159553 -0.219007 -0.637 182 183 175
-0.154932 -0.22107 -0.643 185 185 175
-0.152957 -0.221757 -0.645 187 187 175
-0.149966 -0.222789 -0.648 189 187 175
-0.147952 -0.223476 -0.65 190 188 176
0.13689 -0.152995 -0.445 191 144 126
0.194551 -0.153683 -0.447 135 88 78
0.28579 -0.18325 -0.533 78 51 56
0.28674 -0.182563 -0.531 83 54 58
0.292713 -0.181875 -0.529 91 60 68
0.307325 -0.179812 -0.523 110 79 84
0.310714 -0.179469 -0.522 111 80 85
0.323757 -0.178437 -0.519 119 89 91
0.326093 -0.178093 -0.518 117 88 90
0.347072 -0.176718 -0.514 123 93 95
0.348051 -0.176718 -0.514 119 94 97
0.353926 -0.176718 -0.514 123 94 99
0.354905 -0.176718 -0.514 121 92 97
0.358538 -0.177062 -0.515 118 89 94
0.37848 -0.182907 -0.532 54 49 56
0.448523 -0.184626 -0.537 139 98 94
0.466061 -0.188408 -0.548 132 91 87
-0.3036 -0.22264 -0.644 146 147 142
-0.297467 -0.22264 -0.644 138 138 136
-0.158589 -0.220566 -0.638 183 183 173
0.128997 -0.156609 -0.453 193 144 130
0.129573 -0.156263 -0.452 192 143 129
0.14658 -0.15246 -0.441 197 150 134
0.147588 -0.151769 -0.439 193 146 130
0.185216 -0.153151 -0.443 142 92 83
0.206654 -0.156609 -0.453 115 76 69
0.215105 -0.159029 -0.46 106 71 67
0.229292 -0.163523 -0.473 96 65 63
0.279206 -0.184611 -0.534 71 46 50
0.287751 -0.183574 -0.531 81 56 59
0.319429 -0.179771 -0.52 115 85 87
0.329749 -0.178389 -0.516 123 93 93
0.363587 -0.17908 -0.518 72 55 63
0.417858 -0.187031 -0.541 167 123 122
0.416566 -0.185994 -0.538 176 132 131
0.428543 -0.183229 -0.53 137 88 81
0.4332 -0.18392 -0.532 131 83 79
0.438897 -0.184611 -0.534 123 80 74
0.448523 -0.185649 -0.537 141 100 96
-0.303129 -0.223519 -0.643 139 140 135
-0.297005 -0.223519 -0.643 136 136 134
-0.29578 -0.223519 -0.643 137 138 133
-0.284143 -0.225952 -0.65 251 250 246
-0.161726 -0.221086 -0.636 185 185 175
-0.160514 -0.221086 -0.636 185 185 175
0.129857 -0.156429 -0.45 191 145 129
0.146248 -0.152952 -0.44 197 150 132
0.165606 -0.152257 -0.438 164 110 100
0.174743 -0.152952 -0.44 154 102 91
0.194987 -0.155733 -0.448 131 87 78
0.267989 -0.182152 -0.524 65 43 46
0.27871 -0.185976 -0.535 69 44 48
0.279729 -0.185976 -0.535 71 46 50
0.290238 -0.184238 -0.53 85 59 62
0.319429 -0.180762 -0.52 114 85 87
0.334995 -0.179024 -0.515 121 91 93
0.34542 -0.178329 -0.513 117 88 93
0.417858 -0.188062 -0.541 169 124 119
0.416566 -0.187019 -0.538 177 132 127
0.415643 -0.18389 -0.529 172 124 114
0.450383 -0.187019 -0.538 141 100 96
0.45974 -0.188757 -0.543 130 89 85
-0.290557 -0.225443 -0.645 118 117 113
-0.287761 -0.226142 -0.647 148 147 143
-0.286971 -0.226491 -0.648 174 173 169
0.128676 -0.160082 -0.458 189 147 125
0.128712 -0.157985 -0.452 189 146 127
0.130133 -0.156587 -0.448 191 148 129
0.131546 -0.156237 -0.447 193 146 130
0.142182 -0.154839 -0.443 193 146 130
0.14406 -0.15414 -0.441 195 148 130
0.146751 -0.153441 -0.439 195 148 130
0.147251 -0.153091 -0.438 195 146 131
0.161528 -0.152392 -0.436 170 116 106
0.163563 -0.152742 -0.437 165 111 101
0.16644 -0.153091 -0.438 163 109 99
0.167656 -0.153441 -0.439 163 109 99
0.204929 -0.158334 -0.453 112 77 71
0.241706 -0.170917 -0.489 82 63 69
0.284291 -0.186646 -0.534 76 51 55
0.296626 -0.184199 -0.527 97 68 70
0.298633 -0.184199 -0.527 99 70 72
0.304918 -0.18315 -0.524 106 75 80
0.315081 -0.182102 -0.521 112 83 85
0.337938 -0.180005 -0.515 122 92 94
0.340219 -0.179655 -0.514 123 92 97
0.346397 -0.179306 -0.513 131 102 107
0.419886 -0.184549 -0.528 160 106 94
0.420891 -0.184549 -0.528 156 104 93
0.431374 -0.185597 -0.531 133 88 83
0.439914 -0.186646 -0.534 116 76 68
0.449546 -0.187694 -0.537 140 99 95
0.458706 -0.189791 -0.543 130 89 85
-0.156157 -0.225969 -0.643 185 185 173
-0.150197 -0.228077 -0.649 186 186 176
0.154884 -0.153223 -0.436 182 128 118
0.168492 -0.154277 -0.439 163 106 97
0.188595 -0.156386 -0.445 133 89 78
0.197132 -0.157791 -0.449 123 83 73
0.201447 -0.158494 -0.451 117 77 69
0.212014 -0.161306 -0.459 102 71 68
0.2336 -0.168686 -0.48 101 76 79
0.289229 -0.186257 -0.53 86 60 61
0.302074 -0.184851 -0.526 101 72 74
0.313486 -0.182743 -0.52 113 84 86
0.319429 -0.182743 -0.52 113 84 86
0.32412 -0.18204 -0.518 117 88 90
0.332697 -0.181337 -0.516 117 88 90
0.338919 -0.180986 -0.515 123 93 95
0.3695 -0.1845 -0.525 55 43 53
0.419139 -0.191177 -0.544 168 122 122
0.415262 -0.188014 -0.535 185 135 124
0.438897 -0.187663 -0.534 117 76 70
0.446667 -0.188366 -0.536 143 99 96
0.455986 -0.190123 -0.541 137 93 90
-0.323264 -0.229313 -0.649 251 254 245
-0.302657 -0.22684 -0.642 146 148 143
-0.28247 -0.229313 -0.649 222 221 219
-0.159086 -0.226133 -0.64 185 185 175
-0.157137 -0.22684 -0.642 186 186 174
0.135195 -0.157233 -0.445 197 150 134
0.141019 -0.156173 -0.442 195 148 130
0.165606 -0.15476 -0.438 164 107 100
0.16682 -0.155113 -0.439 162 105 98
0.189869 -0.157587 -0.446 131 87 78
0.19584 -0.158293 -0.448 125 82 75
0.205381 -0.160413 -0.454 111 76 72
0.21114 -0.16218 -0.459 104 70 68
0.215626 -0.163593 -0.463 100 69 67
0.29763 -0.186207 -0.527 98 69 71
0.30007 -0.185853 -0.526 99 70 72
0.313096 -0.184087 -0.521 112 83 85
0.314476 -0.183733 -0.52 111 83 82
0.322147 -0.183027 -0.518 115 85 87
0.325107 -0.183027 -0.518 116 87 89
0.329403 -0.182673 -0.517 116 88 87
0.34542 -0.18126 -0.513 205 184 191
0.348351 -0.18126 -0.513 174 148 159
0.353926 -0.181613 -0.514 114 89 85
0.444814 -0.189033 -0.535 141 97 94
-0.161726 -0.225931 -0.636 185 185 175
-0.157137 -0.228063 -0.642 186 186 174
0.128713 -0.159502 -0.449 193 146 128
0.13965 -0.15737 -0.443 195 148 130
0.157736 -0.155239 -0.437 179 124 117
0.172229 -0.156305 -0.44 155 103 92
0.198429 -0.159857 -0.45 118 77 71
0.201893 -0.160568 -0.452 113 74 67
0.210266 -0.163054 -0.459 104 69 67
0.226643 -0.168738 -0.475 97 67 65
0.23317 -0.17087 -0.481 114 94 106
0.282877 -0.192894 -0.543 70 50 59
0.285843 -0.190052 -0.535 78 55 61
0.296063 -0.186855 -0.526 95 66 70
0.297065 -0.186855 -0.526 98 69 73
0.3025 -0.1865 -0.525 101 72 74
0.306737 -0.185434 -0.522 107 78 80
0.329749 -0.183303 -0.516 117 89 88
0.357961 -0.183658 -0.517 98 82 82
0.476071 -0.229129 -0.645 83 87 114
0.415419 -0.188276 -0.53 180 129 125
0.422903 -0.187566 -0.528 151 103 93
0.43624 -0.188987 -0.532 119 78 74
-0.304628 -0.228929 -0.641 149 151 146
-0.16831 -0.227857 -0.638 185 183 171
-0.0460714 -0.230357 -0.645 73 72 78
0.12928 -0.16 -0.448 199 141 130
0.136583 -0.158571 -0.444 194 147 131
0.139335 -0.157857 -0.442 195 148 130
0.150589 -0.156429 -0.438 189 140 125
0.158569 -0.156071 -0.437 172 123 109
0.180997 -0.158214 -0.443 139 92 84
0.190294 -0.159643 -0.447 129 84 78
0.196277 -0.160357 -0.449 122 81 75
0.213862 -0.165357 -0.463 101 69 70
0.222043 -0.168214 -0.471 94 62 63
0.286805 -0.190357 -0.533 79 54 60
0.290698 -0.188929 -0.529 83 60 66
0.314476 -0.185714 -0.52 111 82 84
0.319803 -0.185357 -0.519 113 83 85
0.333033 -0.183929 -0.515 117 87 87
0.337282 -0.183571 -0.514 120 88 91
0.339557 -0.183214 -0.513 119 90 94
0.422903 -0.188571 -0.528 150 101 96
0.457861 -0.193571 -0.542 133 90 84
-0.311467 -0.22979 -0.64 152 154 149
-0.170057 -0.22979 -0.64 186 184 172
-0.0483029 -0.230509 -0.642 71 70 78
-0.0460714 -0.231586 -0.645 73 72 80
-0.0449819 -0.232304 -0.647 74 73 81
0.147588 -0.157622 -0.439 191 146 127
0.152742 -0.156904 -0.437 184 135 121
0.153574 -0.156904 -0.437 183 134 120
0.155239 -0.156904 -0.437 179 130 115
0.175537 -0.158699 -0.442 147 97 88
0.182251 -0.159417 -0.444 138 91 85
0.20234 -0.162649 -0.453 109 74 70
0.286524 -0.197476 -0.55 59 43 56
0.304336 -0.187782 -0.523 104 75 77
0.306737 -0.187423 -0.522 105 76 78
0.308134 -0.187064 -0.521 107 78 80
0.328766 -0.185269 -0.516 117 88 90
0.333366 -0.18455 -0.514 119 87 88
0.336303 -0.18455 -0.514 120 88 91
0.364804 -0.188141 -0.524 56 46 54
0.413169 -0.190654 -0.531 176 127 120
0.420891 -0.189577 -0.528 157 104 96
0.443983 -0.191731 -0.534 147 102 97
0.470711 -0.197835 -0.551 139 98 94
-0.176157 -0.234258 -0.649 180 182 169
-0.170057 -0.23101 -0.64 186 184 172
-0.155655 -0.233175 -0.646 187 187 175
-0.154664 -0.233536 -0.647 187 187 175
0.128991 -0.161346 -0.447 195 138 127
0.159036 -0.157375 -0.436 167 118 104
0.201922 -0.163872 -0.454 108 74 72
0.216599 -0.168565 -0.467 96 67 69
0.318814 -0.187334 -0.519 111 82 84
0.319187 -0.186973 -0.518 112 83 85
0.33858 -0.185169 -0.513 122 91 96
0.33987 -0.184808 -0.512 113 84 88
0.350989 -0.18553 -0.514 121 90 95
0.477788 -0.234258 -0.649 92 94 117
0.426727 -0.190944 -0.529 138 91 83
0.446017 -0.192749 -0.534 144 100 97
0.452432 -0.194192 -0.538 135 91 88
0.46436 -0.19708 -0.546 134 90 87
-0.313414 -0.231866 -0.639 152 157 150
-0.27919 -0.235857 -0.65 252 251 249
-0.156643 -0.234043 -0.645 189 187 175
-0.155655 -0.234406 -0.646 191 189 177
0.142057 -0.159657 -0.44 195 148 128
0.14892 -0.158931 -0.438 190 143 127
0.154053 -0.158206 -0.436 177 128 113
0.157375 -0.158206 -0.436 171 122 108
0.160233 -0.158569 -0.437 166 114 101
0.161066 -0.158569 -0.437 164 112 99
0.163103 -0.158931 -0.438 162 110 99
0.16682 -0.159294 -0.439 157 105 94
0.189019 -0.161834 -0.446 125 81 78
0.206318 -0.166189 -0.458 103 72 67
0.232338 -0.175986 -0.485 155 139 149
0.238018 -0.178163 -0.491 131 122 149
0.289495 -0.195217 -0.538 75 54 61
0.290786 -0.192677 -0.531 91 62 67
0.32911 -0.186871 -0.515 115 85 85
0.422433 -0.199934 -0.551 156 123 130
0.412933 -0.19304 -0.532 183 133 126
0.440293 -0.19304 -0.532 146 102 99
0.447871 -0.194129 -0.535 143 98 95
-0.16536 -0.231989 -0.636 188 185 176
-0.159334 -0.233812 -0.641 187 187 175
-0.158607 -0.234542 -0.643 188 188 176
-0.0608143 -0.235271 -0.645 56 54 67
-0.0494486 -0.233812 -0.641 70 69 75
0.127858 -0.163778 -0.449 190 143 127
0.144243 -0.16013 -0.439 195 148 130
0.156545 -0.159036 -0.436 173 121 108
0.159401 -0.159401 -0.437 167 115 102
0.18732 -0.162684 -0.446 128 84 81
0.211672 -0.16925 -0.464 100 69 67
0.227673 -0.17545 -0.481 97 74 82
0.22954 -0.17618 -0.483 124 101 109
0.303754 -0.190406 -0.522 103 74 76
0.307142 -0.190041 -0.521 108 79 81
0.316227 -0.188947 -0.518 110 81 83
0.324834 -0.188217 -0.516 114 84 84
0.333033 -0.187852 -0.515 117 88 90
0.360429 -0.190406 -0.522 57 44 51
0.430562 -0.193324 -0.53 139 94 89
0.444167 -0.194418 -0.533 144 96 94
0.460774 -0.198066 -0.543 134 89 86
-0.176429 -0.238333 -0.65 181 183 170
-0.171811 -0.2354 -0.642 184 184 172
-0.0605314 -0.2354 -0.642 57 55 68
-0.0592162 -0.235033 -0.641 57 55 68
-0.0450514 -0.2376 -0.648 73 72 80
0.127573 -0.164267 -0.448 195 142 126
0.131805 -0.163167 -0.445 192 145 129
0.13818 -0.1617 -0.441 194 149 130
0.148086 -0.1606 -0.438 188 139 122
0.150245 -0.160233 -0.437 185 136 121
0.168038 -0.161333 -0.44 157 103 93
0.18647 -0.163533 -0.446 128 87 81
0.224902 -0.175633 -0.479 92 63 65
0.226757 -0.176367 -0.481 100 71 73
0.309917 -0.1903 -0.519 108 80 79
0.31524 -0.189933 -0.518 111 83 82
0.326167 -0.188833 -0.515 114 84 84
0.335649 -0.1881 -0.513 117 86 91
0.348351 -0.1881 -0.513 118 87 92
0.432867 -0.220733 -0.602 73 68 90
0.416566 -0.198733 -0.542 187 137 130
0.4134 -0.194333 -0.53 185 135 126
0.43359 -0.194333 -0.53 124 79 73
0.460774 -0.1991 -0.543 133 88 85
0.466252 -0.200567 -0.547 141 96 93
-0.321721 -0.236254 -0.641 254 255 250
-0.160305 -0.235886 -0.64 187 187 177
-0.0647 -0.238466 -0.647 63 62 70
-0.05278 -0.23478 -0.637 69 69 79
0.127573 -0.16512 -0.448 188 146 124
0.128703 -0.164383 -0.446 184 148 122
0.130957 -0.164014 -0.445 191 144 126
0.140898 -0.161803 -0.439 193 148 127
0.147748 -0.161066 -0.437 187 138 121
0.153223 -0.160697 -0.436 178 126 112
0.161434 -0.161434 -0.438 160 111 97
0.17931 -0.163277 -0.443 141 94 84
0.189443 -0.164751 -0.447 118 79 72
0.294618 -0.194237 -0.527 90 65 69
0.300926 -0.193131 -0.524 98 72 73
0.310906 -0.191289 -0.519 108 79 81
0.322869 -0.190183 -0.516 110 81 83
0.326167 -0.189814 -0.515 113 85 84
0.415863 -0.194606 -0.528 172 120 109
0.42975 -0.194974 -0.529 138 93 87
-0.326691 -0.239328 -0.646 251 254 247
-0.32395 -0.238216 -0.643 252 255 248
-0.321219 -0.237105 -0.64 252 255 248
-0.0562429 -0.235252 -0.635 66 66 76
0.13734 -0.16338 -0.441 194 149 130
0.156071 -0.161898 -0.437 170 123 107
0.1701 -0.16338 -0.441 150 97 89
0.178466 -0.164121 -0.443 140 93 83
0.19072 -0.165973 -0.448 114 79 75
0.199767 -0.168567 -0.455 102 73 69
0.219405 -0.175976 -0.475 100 66 64
0.221237 -0.176717 -0.477 98 64 62
0.304165 -0.193018 -0.521 102 76 77
0.31228 -0.191907 -0.518 107 78 80
0.31857 -0.191536 -0.517 112 82 80
0.416869 -0.195611 -0.528 163 111 100
0.43359 -0.196352 -0.53 122 77 72
0.446017 -0.197834 -0.534 139 94 91
-0.309278 -0.237579 -0.638 127 129 124
-0.164407 -0.237207 -0.637 191 187 175
-0.0624867 -0.237207 -0.637 66 66 78
-0.0598714 -0.236462 -0.635 65 65 77
0.127853 -0.166082 -0.446 188 145 126
0.132354 -0.165337 -0.444 195 148 130
0.142246 -0.163103 -0.438 196 148 128
0.18056 -0.165337 -0.444 142 92 81
0.296063 -0.195872 -0.526 94 69 73
0.297065 -0.195872 -0.526 95 69 72
0.326512 -0.191404 -0.514 113 84 86
0.417083 -0.196245 -0.527 160 108 95
0.43359 -0.197362 -0.53 128 83 78
0.436619 -0.197362 -0.53 140 96 93
0.440477 -0.197734 -0.531 146 103 97
0.447034 -0.198851 -0.534 140 94 94
0.44889 -0.199224 -0.535 139 93 93
0.468149 -0.204065 -0.548 135 91 90
-0.320215 -0.238794 -0.638 253 255 247
-0.316073 -0.23842 -0.637 242 248 238
-0.313647 -0.23842 -0.637 173 179 169
-0.310493 -0.238794 -0.638 126 128 123
-0.167095 -0.238794 -0.638 188 186 174
-0.0649133 -0.23842 -0.637 68 66 79
-0.0515667 -0.23842 -0.637 68 68 78
-0.0505114 -0.239169 -0.639 68 68 78
0.124958 -0.169926 -0.454 190 148 132
0.1365 -0.16506 -0.441 195 148 128
0.141734 -0.164311 -0.439 194 147 127
0.18056 -0.166183 -0.444 141 93 83
0.209034 -0.174417 -0.466 96 66 64
0.210823 -0.175166 -0.468 90 58 59
0.21988 -0.178909 -0.478 98 68 66
0.233827 -0.184897 -0.494 214 206 227
0.295777 -0.202863 -0.542 72 56 67
0.294927 -0.199494 -0.533 78 55 63
0.296183 -0.197623 -0.528 98 66 67
0.296626 -0.197249 -0.527 96 64 65
0.310307 -0.19388 -0.518 108 79 81
0.319555 -0.193506 -0.517 112 82 82
0.333694 -0.192009 -0.513 115 84 89
0.336945 -0.191634 -0.512 123 94 99
0.344747 -0.191634 -0.512 120 94 93
0.417874 -0.197623 -0.528 157 107 98
0.420094 -0.197249 -0.527 149 99 90
0.427931 -0.197623 -0.528 146 101 95
0.437629 -0.198371 -0.53 133 89 86
0.440477 -0.198746 -0.531 143 100 94
0.44232 -0.19912 -0.532 144 99 96
-0.317287 -0.239633 -0.637 250 253 244
-0.174382 -0.243395 -0.647 188 188 180
-0.158853 -0.242267 -0.644 190 190 178
-0.0675514 -0.240386 -0.639 67 65 78
-0.0634 -0.238505 -0.634 68 66 79
-0.0595886 -0.237752 -0.632 68 68 80
-0.0461429 -0.243019 -0.646 70 70 80
0.125292 -0.16891 -0.449 194 147 129
0.127567 -0.167405 -0.445 191 146 127
0.131509 -0.167029 -0.444 194 147 129
0.1329 -0.166652 -0.443 197 150 130
0.142246 -0.164771 -0.438 196 148 128
0.184771 -0.167781 -0.446 127 87 77
0.196733 -0.17079 -0.454 107 76 73
0.304571 -0.195619 -0.52 105 76 78
0.30932 -0.194867 -0.518 108 79 81
0.326854 -0.192986 -0.513 115 85 87
0.342796 -0.19261 -0.512 172 145 150
0.34971 -0.193738 -0.515 119 88 93
0.35372 -0.194867 -0.518 83 55 67
0.363566 -0.198629 -0.528 55 53 64
0.434589 -0.227971 -0.606 68 66 87
0.41756 -0.2054 -0.546 184 131 125
0.4134 -0.199381 -0.53 176 127 120
0.413628 -0.199005 -0.529 174 125 118
0.414635 -0.199005 -0.529 172 123 116
-0.328937 -0.245006 -0.648 251 254 245
-0.16562 -0.240847 -0.637 189 187 175
-0.164407 -0.240847 -0.637 190 188 176
-0.158853 -0.243493 -0.644 190 190 178
-0.074559 -0.244628 -0.647 73 73 81
0.125586 -0.169009 -0.447 194 147 131
0.135352 -0.166362 -0.44 196 149 129
0.17094 -0.16674 -0.441 149 101 89
0.17217 -0.167118 -0.442 149 101 89
0.183922 -0.16863 -0.446 130 90 82
0.2046 -0.17468 -0.462 101 71 69
0.29949 -0.206062 -0.545 79 61 73
0.298163 -0.203037 -0.537 75 58 68
0.319555 -0.195475 -0.517 113 83 85
0.323575 -0.194341 -0.514 114 84 86
0.342796 -0.193585 -0.512 133 103 111
0.350389 -0.195097 -0.516 114 85 90
0.431289 -0.227991 -0.603 68 69 89
0.436619 -0.20039 -0.53 129 84 79
-0.154143 -0.247 -0.65 194 192 180
-0.0539086 -0.24168 -0.636 68 68 78
-0.0517286 -0.24282 -0.639 68 68 78
-0.0427143 -0.247 -0.65 71 71 81
0.130369 -0.16834 -0.443 195 148 130
0.1326 -0.16796 -0.442 196 151 132
0.151562 -0.16568 -0.436 178 131 113
0.180967 -0.1691 -0.445 134 91 85
0.18816 -0.17024 -0.448 116 82 80
0.210829 -0.1786 -0.47 97 67 67
0.22218 -0.18354 -0.483 122 101 110
0.299186 -0.20406 -0.537 82 66 77
0.323923 -0.19494 -0.513 115 85 87
0.433434 -0.23028 -0.606 66 67 87
0.458774 -0.24054 -0.633 72 73 94
0.411434 -0.20292 -0.534 182 132 125
0.412157 -0.20178 -0.531 183 130 122
0.413628 -0.20102 -0.529 172 122 113
0.42592 -0.20064 -0.528 149 100 93
0.436619 -0.2014 -0.53 129 81 77
-0.159583 -0.245183 -0.642 192 192 182
-0.0796114 -0.247474 -0.648 70 68 73
-0.0749714 -0.244419 -0.64 67 65 78
-0.0679076 -0.240982 -0.631 56 58 70
-0.0605038 -0.240218 -0.629 67 67 79
0.126154 -0.17033 -0.446 195 148 130
0.13398 -0.16842 -0.441 198 151 131
0.135881 -0.167656 -0.439 198 151 131
0.165524 -0.168038 -0.44 153 103 92
0.173853 -0.168802 -0.442 148 98 87
0.176778 -0.169184 -0.443 144 94 87
0.3009 -0.202791 -0.531 97 72 78
0.301645 -0.201264 -0.527 99 73 76
0.303754 -0.199354 -0.522 101 75 78
0.305562 -0.19859 -0.52 105 76 80
0.420748 -0.22647 -0.593 103 102 120
0.43014 -0.230289 -0.603 71 70 88
0.412467 -0.205465 -0.538 185 132 126
0.420891 -0.201646 -0.528 151 101 90
0.423909 -0.201646 -0.528 151 102 95
0.426926 -0.201646 -0.528 149 100 93
-0.310493 -0.24487 -0.638 209 211 206
-0.308063 -0.24487 -0.638 143 148 142
-0.168838 -0.245638 -0.64 187 187 177
-0.0663886 -0.241032 -0.628 67 67 79
-0.0628 -0.241032 -0.628 67 67 79
-0.0449819 -0.248325 -0.647 69 69 81
0.122957 -0.173866 -0.453 192 151 133
0.138591 -0.167725 -0.437 196 150 127
0.143586 -0.167725 -0.437 195 149 126
0.165524 -0.168876 -0.44 152 102 91
0.16842 -0.16926 -0.441 149 99 88
0.181814 -0.170795 -0.445 129 85 82
0.185186 -0.171563 -0.447 118 85 80
0.199774 -0.176169 -0.459 98 68 70
0.210827 -0.181158 -0.472 98 69 73
0.302817 -0.20649 -0.538 84 62 74
0.302148 -0.205338 -0.535 88 65 73
0.302923 -0.203803 -0.531 96 70 73
0.316357 -0.197662 -0.515 112 82 84
0.33792 -0.19651 -0.512 206 187 191
0.355457 -0.200349 -0.522 53 48 54
0.359183 -0.201884 -0.526 57 52 58
0.436295 -0.234124 -0.61 68 67 85
0.423909 -0.202651 -0.528 155 105 98
0.43378 -0.203035 -0.529 127 78 73
0.436619 -0.203419 -0.53 128 81 75
0.439648 -0.203419 -0.53 138 90 86
0.46199 -0.208025 -0.542 124 81 75
0.473 -0.211095 -0.55 142 101 95
-0.32395 -0.248014 -0.643 252 253 245
-0.170589 -0.247629 -0.642 191 191 183
-0.16588 -0.246086 -0.638 187 187 177
-0.164665 -0.246086 -0.638 186 186 176
-0.160305 -0.246857 -0.64 193 190 181
-0.158607 -0.248014 -0.643 195 192 183
-0.0616038 -0.242229 -0.628 67 67 79
0.130916 -0.170486 -0.442 198 153 132
0.1323 -0.1701 -0.441 200 155 134
0.13724 -0.168943 -0.438 198 152 129
0.153223 -0.168171 -0.436 170 123 105
0.165524 -0.169714 -0.44 152 102 91
0.16842 -0.1701 -0.441 149 99 88
0.171328 -0.170486 -0.442 149 100 86
0.17217 -0.170486 -0.442 148 99 85
0.183072 -0.172029 -0.446 119 84 82
0.212167 -0.183214 -0.475 95 68 73
0.321617 -0.198257 -0.514 114 83 88
0.341821 -0.197486 -0.512 115 88 95
0.343466 -0.197871 -0.513 115 82 93
0.434788 -0.204043 -0.529 127 78 73
-0.155142 -0.251565 -0.649 195 193 181
-0.0840267 -0.249627 -0.644 75 74 80
-0.0762 -0.2442 -0.63 69 68 76
-0.0582924 -0.244588 -0.631 67 67 79
-0.0539933 -0.246913 -0.637 67 67 79
0.16301 -0.170552 -0.44 159 109 98
0.171328 -0.171328 -0.442 144 96 82
0.179271 -0.17249 -0.445 133 88 83
0.215314 -0.186057 -0.48 113 88 92
0.21713 -0.186832 -0.482 133 121 143
0.305234 -0.204663 -0.528 101 75 78
0.313414 -0.199624 -0.515 111 80 85
0.315376 -0.199624 -0.515 111 80 85
0.320991 -0.198849 -0.513 115 84 89
0.324267 -0.198461 -0.512 114 83 88
0.327527 -0.198073 -0.511 116 83 90
0.33434 -0.198073 -0.511 145 126 130
0.439156 -0.237998 -0.614 63 66 83
0.410167 -0.207376 -0.535 188 133 128
0.423909 -0.204663 -0.528 155 105 98
0.46199 -0.21009 -0.542 112 72 64
-0.325461 -0.251632 -0.646 253 254 248
-0.162234 -0.248516 -0.638 192 190 178
-0.160305 -0.249295 -0.64 193 191 179
-0.0562429 -0.247348 -0.635 66 68 80
0.136927 -0.170222 -0.437 195 149 126
0.145749 -0.169832 -0.436 188 142 119
0.148729 -0.169443 -0.435 182 135 117
0.200633 -0.18035 -0.463 103 71 76
0.305562 -0.202552 -0.52 104 75 77
0.307738 -0.201384 -0.517 109 78 76
0.311452 -0.200605 -0.515 109 82 87
0.317338 -0.200605 -0.515 112 81 86
0.336287 -0.199047 -0.511 120 98 101
0.34744 -0.200994 -0.516 93 73 84
0.351124 -0.202552 -0.52 68 48 59
0.3565 -0.2045 -0.525 58 46 58
0.418489 -0.230988 -0.593 92 95 114
0.445346 -0.241894 -0.621 75 78 97
0.412436 -0.211122 -0.542 178 131 125
0.4094 -0.208006 -0.534 185 137 123
0.409893 -0.207227 -0.532 182 133 129
0.410134 -0.206837 -0.531 183 133 126
0.42592 -0.205669 -0.528 135 82 78
0.433966 -0.205669 -0.528 132 83 78
0.450929 -0.208395 -0.535 136 87 82
-0.325965 -0.253254 -0.647 253 254 248
-0.315124 -0.250514 -0.64 252 253 248
-0.289656 -0.251689 -0.643 254 255 251
-0.283269 -0.253646 -0.648 151 151 149
-0.153669 -0.253646 -0.648 199 197 185
-0.0529457 -0.250123 -0.639 68 68 80
0.121633 -0.174186 -0.445 195 151 126
0.12894 -0.17262 -0.441 198 153 132
0.145749 -0.170663 -0.436 188 142 119
0.163848 -0.172229 -0.44 160 107 99
0.179271 -0.174186 -0.445 127 88 83
0.211243 -0.186711 -0.477 95 82 99
0.224417 -0.193366 -0.494 154 161 203
0.307246 -0.206674 -0.528 105 80 83
0.308723 -0.202369 -0.517 108 76 79
0.323633 -0.20002 -0.511 112 83 87
0.348787 -0.20276 -0.518 78 58 69
0.409148 -0.209414 -0.535 185 137 127
0.428742 -0.207066 -0.529 142 92 85
0.443511 -0.207849 -0.531 140 91 86
-0.32423 -0.254093 -0.646 252 253 247
-0.289656 -0.252913 -0.643 254 255 251
-0.153431 -0.254487 -0.647 199 197 185
-0.0930448 -0.254487 -0.647 110 110 112
-0.08988 -0.25252 -0.642 69 69 77
-0.0563314 -0.25016 -0.636 69 69 79
-0.0552067 -0.250553 -0.637 68 68 78
-0.0518095 -0.251733 -0.64 68 68 80
0.120103 -0.177787 -0.452 199 154 135
0.130864 -0.172673 -0.439 198 151 131
0.133069 -0.17228 -0.438 196 151 128
0.150386 -0.1711 -0.435 179 132 114
0.164686 -0.173067 -0.44 158 105 97
0.19756 -0.18172 -0.462 96 69 78
0.201933 -0.183293 -0.466 99 68 76
0.308251 -0.20768 -0.528 103 80 86
0.33987 -0.201387 -0.512 114 88 91
0.422017 -0.235213 -0.598 82 83 103
0.435394 -0.24072 -0.612 63 64 84
0.443511 -0.20886 -0.531 143 94 87
-0.310732 -0.253348 -0.641 254 255 250
-0.309029 -0.252952 -0.64 254 255 250
-0.297302 -0.253348 -0.641 255 255 250
-0.161019 -0.252162 -0.638 195 192 183
-0.14919 -0.256905 -0.65 197 195 183
-0.0764171 -0.245838 -0.622 65 68 77
-0.0574524 -0.250976 -0.635 68 68 78
0.12642 -0.1743 -0.441 200 154 131
0.1281 -0.1743 -0.441 200 153 133
0.145414 -0.171929 -0.435 188 142 119
0.146243 -0.171929 -0.435 186 139 119
0.178825 -0.176276 -0.446 127 86 80
0.187257 -0.178648 -0.452 105 75 75
0.19152 -0.180229 -0.456 99 73 72
0.193232 -0.181019 -0.458 99 73 76
0.312433 -0.203548 -0.515 113 82 88
0.317701 -0.203152 -0.514 111 82 86
0.320014 -0.202757 -0.513 113 84 88
0.329473 -0.201967 -0.511 104 81 89
0.418767 -0.235167 -0.595 94 97 114
0.413068 -0.20829 -0.527 166 116 107
0.477687 -0.218567 -0.553 130 93 87
-0.320043 -0.256157 -0.645 252 253 247
-0.309511 -0.254569 -0.641 251 252 246
-0.28247 -0.257746 -0.649 229 228 226
-0.16796 -0.256554 -0.646 240 241 236
-0.165439 -0.254569 -0.641 226 225 220
-0.153708 -0.255363 -0.643 201 198 189
-0.0812867 -0.24742 -0.623 68 68 76
-0.0618981 -0.250597 -0.631 67 69 81
-0.0518905 -0.254569 -0.641 66 69 78
-0.0496029 -0.255363 -0.643 65 68 77
-0.0473 -0.256157 -0.645 67 70 79
0.128648 -0.174743 -0.44 201 155 132
0.129486 -0.174743 -0.44 200 154 131
0.139614 -0.172757 -0.435 196 152 127
0.150386 -0.172757 -0.435 171 124 108
0.154407 -0.173551 -0.437 164 116 102
0.16301 -0.174743 -0.44 157 108 94
0.182187 -0.17792 -0.448 115 81 79
0.190651 -0.181097 -0.456 103 73 73
0.210304 -0.190231 -0.479 166 155 172
0.222043 -0.196586 -0.495 134 149 192
0.42811 -0.240271 -0.605 61 62 82
0.42975 -0.210089 -0.529 136 87 80
-0.290557 -0.257386 -0.645 253 254 249
-0.162489 -0.254991 -0.639 228 227 222
-0.159303 -0.253794 -0.636 203 203 195
-0.155429 -0.25539 -0.64 206 206 198
-0.0760486 -0.24701 -0.619 68 68 78
-0.0496029 -0.256588 -0.643 65 70 76
-0.0461429 -0.257785 -0.646 68 71 80
-0.0438848 -0.258982 -0.649 68 71 78
0.121655 -0.176379 -0.442 198 156 134
0.128648 -0.175581 -0.44 199 154 131
0.132765 -0.174384 -0.437 198 154 129
0.13443 -0.174384 -0.437 196 152 127
0.1426 -0.173187 -0.434 194 148 125
0.175486 -0.177177 -0.444 133 88 82
0.198383 -0.185956 -0.466 94 69 72
0.33987 -0.204312 -0.512 109 80 85
0.344491 -0.205909 -0.516 100 77 83
0.408352 -0.211495 -0.53 178 128 121
0.41888 -0.210697 -0.528 149 96 88
0.424711 -0.211096 -0.529 131 83 73
0.43296 -0.210697 -0.528 130 81 74
0.435977 -0.210697 -0.528 141 92 85
-0.300211 -0.257411 -0.642 252 253 247
-0.298989 -0.257411 -0.642 252 253 247
-0.297766 -0.257411 -0.642 252 253 247
-0.145811 -0.259015 -0.646 198 196 183
-0.143 -0.260619 -0.65 204 202 190
-0.100886 -0.257411 -0.642 76 78 77
-0.08722 -0.249793 -0.623 73 73 81
-0.0496029 -0.257812 -0.643 71 71 81
0.118187 -0.179627 -0.448 204 155 140
0.131932 -0.175216 -0.437 200 155 132
0.135783 -0.174815 -0.436 198 154 129
0.1426 -0.174013 -0.434 193 147 124
0.145907 -0.174013 -0.434 182 135 115
0.154407 -0.175216 -0.437 158 111 95
0.172559 -0.177622 -0.443 140 93 85
0.184266 -0.18083 -0.451 109 78 76
0.19362 -0.184839 -0.461 105 71 72
0.33726 -0.204887 -0.511 114 84 92
0.342843 -0.20649 -0.515 104 83 90
0.351157 -0.209698 -0.523 54 37 45
0.410371 -0.217316 -0.542 170 119 116
0.420891 -0.211703 -0.528 142 90 79
0.430949 -0.211703 -0.528 143 95 85
0.463023 -0.217316 -0.542 121 80 74
0.47128 -0.219722 -0.548 125 88 82
-0.316106 -0.260649 -0.647 251 252 246
-0.30388 -0.258634 -0.642 253 254 248
-0.293787 -0.25944 -0.644 253 254 248
-0.104391 -0.258231 -0.641 89 90 95
-0.101313 -0.25662 -0.637 78 78 86
-0.0925571 -0.252591 -0.627 73 76 83
-0.0895933 -0.25098 -0.623 71 74 83
-0.085619 -0.249771 -0.62 70 73 80
-0.0609848 -0.255411 -0.634 68 71 78
-0.0519714 -0.258634 -0.642 70 70 80
0.11726 -0.181689 -0.451 207 161 138
0.139293 -0.17484 -0.434 196 151 128
0.15476 -0.176451 -0.438 158 111 95
0.160495 -0.177257 -0.44 156 107 92
0.16422 -0.17766 -0.441 154 105 91
0.173794 -0.178869 -0.444 132 89 80
0.19404 -0.18612 -0.462 106 70 70
0.20935 -0.193774 -0.481 186 183 202
0.312903 -0.211097 -0.524 109 84 87
0.316722 -0.207069 -0.514 114 84 92
0.333367 -0.20586 -0.511 115 89 100
0.340534 -0.206666 -0.513 109 84 90
0.41584 -0.222377 -0.552 155 105 108
0.409597 -0.213111 -0.529 170 120 113
0.414071 -0.212306 -0.527 155 105 96
0.423909 -0.212709 -0.528 143 90 82
0.427734 -0.213111 -0.529 136 86 77
0.428937 -0.212709 -0.528 145 95 84
0.435151 -0.212306 -0.527 144 96 84
0.45466 -0.216334 -0.537 125 84 78
-0.306053 -0.260667 -0.644 253 254 249
-0.29593 -0.261476 -0.646 253 254 249
-0.138643 -0.261881 -0.647 220 218 205
-0.119476 -0.263095 -0.65 243 240 233
-0.114171 -0.262286 -0.648 238 237 233
-0.112763 -0.261881 -0.647 230 229 225
-0.11153 -0.261881 -0.647 218 217 215
-0.101883 -0.256214 -0.633 77 79 91
-0.100359 -0.255405 -0.631 75 77 89
-0.0565086 -0.258238 -0.638 68 68 76
0.12222 -0.1785 -0.441 201 156 135
0.122781 -0.178095 -0.44 202 157 136
0.149557 -0.176071 -0.435 165 116 99
0.173794 -0.179714 -0.444 134 91 84
0.314253 -0.209667 -0.518 113 83 91
0.317701 -0.208048 -0.514 112 85 90
0.439905 -0.250952 -0.62 62 58 81
0.427734 -0.214119 -0.529 135 85 74
0.43296 -0.213714 -0.528 135 87 75
0.451948 -0.216548 -0.535 125 85 77
0.47491 -0.223024 -0.551 135 92 86
-0.305014 -0.263113 -0.647 253 254 249
-0.156633 -0.258233 -0.635 234 234 236
-0.107211 -0.25864 -0.636 73 72 77
-0.0730971 -0.25376 -0.624 68 71 80
-0.0438171 -0.26352 -0.648 71 71 81
0.128063 -0.17812 -0.438 199 157 133
0.152742 -0.177713 -0.437 159 110 95
0.165434 -0.179747 -0.442 147 101 88
0.181286 -0.183 -0.45 111 77 78
0.319037 -0.20862 -0.513 110 83 90
0.320014 -0.20862 -0.513 110 83 90
0.323291 -0.208213 -0.512 114 84 92
0.33792 -0.208213 -0.512 112 83 88
0.436601 -0.250913 -0.617 66 64 86
0.431954 -0.21472 -0.528 140 90 79
-0.147189 -0.259851 -0.636 235 234 230
-0.126763 -0.262711 -0.643 246 241 235
-0.120451 -0.262303 -0.642 223 222 220
-0.11484 -0.260669 -0.638 141 141 143
-0.0850667 -0.25168 -0.616 73 73 81
-0.0414762 -0.265571 -0.65 68 68 76
0.117977 -0.181406 -0.444 202 157 138
0.12777 -0.178546 -0.437 198 156 132
0.13764 -0.17732 -0.434 195 150 129
0.138467 -0.17732 -0.434 193 148 127
0.140622 -0.176911 -0.433 192 147 126
0.146733 -0.17732 -0.434 172 127 108
0.150731 -0.178137 -0.436 164 115 101
0.171257 -0.181406 -0.444 138 92 79
0.18422 -0.185083 -0.453 106 78 77
0.190571 -0.187943 -0.46 98 71 78
0.200038 -0.192846 -0.472 139 127 141
0.3175 -0.2145 -0.525 118 86 97
0.325914 -0.208371 -0.51 215 185 195
0.327857 -0.208371 -0.51 94 73 78
0.4242 -0.247594 -0.606 57 56 72
0.40711 -0.218586 -0.535 176 126 117
0.407867 -0.21736 -0.532 180 127 119
0.433144 -0.215317 -0.527 138 90 78
1.14214 -0.265571 -0.65 205 207 194
-0.150361 -0.25819 -0.629 210 210 212
-0.12739 -0.262705 -0.64 232 231 227
-0.08976 -0.252853 -0.616 74 74 84
-0.0829886 -0.253674 -0.618 74 75 80
-0.0808952 -0.254495 -0.62 73 74 79
-0.069 -0.2586 -0.63 68 71 78
-0.0646076 -0.260242 -0.634 67 70 77
0.126106 -0.179378 -0.437 199 154 131
0.139797 -0.177736 -0.433 190 145 124
0.140622 -0.177736 -0.433 189 144 123
0.144253 -0.178147 -0.434 177 130 112
0.167118 -0.18143 -0.442 146 100 87
0.184627 -0.186356 -0.454 101 75 74
0.194832 -0.191282 -0.466 90 74 84
0.19698 -0.192513 -0.469 111 95 105
0.31905 -0.213858 -0.521 110 83 92
0.321341 -0.210164 -0.512 112 82 92
0.346171 -0.213448 -0.52 48 38 47
0.420094 -0.216321 -0.527 146 94 83
0.423106 -0.216321 -0.527 139 89 78
0.430132 -0.216321 -0.527 145 95 86
0.431136 -0.216321 -0.527 143 93 84
0.450086 -0.219194 -0.534 113 75 66
0.460108 -0.222068 -0.541 119 82 74
0.5002 -0.235613 -0.574 119 89 78
-0.156892 -0.264336 -0.641 113 114 116
-0.152282 -0.260625 -0.632 121 122 124
-0.141224 -0.260212 -0.631 228 229 231
-0.135857 -0.26145 -0.634 228 230 229
-0.129017 -0.262274 -0.636 207 207 205
-0.0658152 -0.26145 -0.634 68 71 78
-0.0520524 -0.265161 -0.643 65 65 75
0.144253 -0.178973 -0.434 172 125 105
0.156786 -0.181035 -0.439 157 108 94
0.157622 -0.181035 -0.439 156 107 93
0.166276 -0.182272 -0.442 146 99 89
0.170028 -0.182685 -0.443 135 91 80
0.173338 -0.18351 -0.445 124 89 83
0.321326 -0.217737 -0.528 118 92 101
0.321341 -0.211139 -0.512 107 80 89
0.342205 -0.213201 -0.517 64 47 53
0.40609 -0.220624 -0.535 169 121 111
0.408111 -0.218974 -0.531 172 122 115
0.408352 -0.218562 -0.53 169 119 112
0.41909 -0.217325 -0.527 148 95 87
0.428125 -0.217325 -0.527 140 92 80
0.441841 -0.21815 -0.529 136 89 81
-0.156157 -0.266386 -0.643 110 110 112
-0.144141 -0.260171 -0.628 176 176 176
-0.140552 -0.260171 -0.628 180 184 187
-0.13239 -0.260586 -0.629 153 154 156
-0.104672 -0.254371 -0.614 56 59 66
-0.103334 -0.253957 -0.613 59 62 69
-0.0953162 -0.254371 -0.614 69 72 77
-0.08976 -0.2552 -0.616 73 76 81
-0.07904 -0.258514 -0.624 71 74 81
-0.0601543 -0.264314 -0.638 71 71 81
-0.0578143 -0.264729 -0.639 73 73 83
0.136813 -0.1798 -0.434 195 150 127
0.1659 -0.1827 -0.441 144 97 87
0.184167 -0.1885 -0.455 101 75 74
0.19824 -0.195543 -0.472 136 129 147
0.326886 -0.211286 -0.51 131 101 109
0.409452 -0.245671 -0.593 75 74 92
0.414044 -0.247743 -0.598 73 72 90
0.43425 -0.255614 -0.617 55 53 74
0.413068 -0.218329 -0.527 158 105 97
0.421098 -0.218329 -0.527 148 95 87
0.431136 -0.218329 -0.527 140 92 82
-0.1375 -0.260119 -0.625 99 99 101
-0.125193 -0.259287 -0.623 73 72 78
-0.1144 -0.256373 -0.616 66 67 72
-0.0961714 -0.254709 -0.612 75 75 83
-0.0919571 -0.255957 -0.615 75 76 81
-0.0812867 -0.259287 -0.623 76 77 82
-0.0703114 -0.262616 -0.631 71 74 79
-0.0555533 -0.266778 -0.641 68 66 77
-0.04968 -0.268027 -0.644 75 73 84
-0.0473733 -0.268859 -0.646 133 131 142
0.114581 -0.18895 -0.454 199 158 140
0.114852 -0.185205 -0.445 200 154 139
0.139797 -0.18021 -0.433 182 137 116
0.146243 -0.181043 -0.435 166 117 102
0.147071 -0.181043 -0.435 163 114 99
0.16506 -0.18354 -0.441 143 99 88
0.174577 -0.185621 -0.446 120 86 85
0.181631 -0.188534 -0.453 105 76 78
0.187534 -0.191031 -0.459 96 74 76
0.386985 -0.268859 -0.646 96 72 88
0.322316 -0.21309 -0.512 108 85 93
0.325914 -0.212257 -0.51 115 89 100
0.330771 -0.212257 -0.51 109 85 98
0.338261 -0.213922 -0.514 89 66 72
0.445092 -0.261784 -0.629 64 66 91
0.409829 -0.219749 -0.528 158 105 97
0.43132 -0.218916 -0.526 143 93 84
0.482203 -0.231818 -0.557 121 86 80
1.13843 -0.270524 -0.65 204 206 192
-0.13684 -0.260055 -0.622 97 96 101
-0.122812 -0.257965 -0.617 67 68 73
-0.114635 -0.255456 -0.611 65 66 71
-0.0961714 -0.255874 -0.612 74 74 82
-0.0899057 -0.257965 -0.617 76 77 82
-0.0681229 -0.264654 -0.633 72 73 78
-0.0473733 -0.27009 -0.646 115 113 124
0.113967 -0.190233 -0.455 198 155 136
0.115762 -0.184798 -0.442 197 156 134
0.12772 -0.181453 -0.434 202 157 136
0.137323 -0.181035 -0.433 188 143 122
0.147071 -0.181871 -0.435 160 111 96
0.155594 -0.183126 -0.438 155 106 91
0.177462 -0.187725 -0.449 109 80 85
0.323633 -0.213647 -0.511 109 86 96
0.326886 -0.213229 -0.51 109 83 92
0.328829 -0.213229 -0.51 109 85 98
0.406991 -0.227026 -0.543 172 117 112
0.408111 -0.222009 -0.531 165 115 108
0.408352 -0.22159 -0.53 161 111 104
0.423106 -0.220336 -0.527 146 96 87
0.431136 -0.220336 -0.527 145 97 87
0.441841 -0.221172 -0.529 129 85 76
0.45466 -0.224517 -0.537 119 85 75
1.13843 -0.271762 -0.65 203 205 191
-0.149611 -0.26712 -0.636 117 118 122
-0.129864 -0.25914 -0.617 77 78 83
-0.11774 -0.25578 -0.609 61 61 69
-0.105269 -0.25368 -0.604 61 62 67
-0.0961714 -0.25704 -0.612 76 75 83
-0.0868 -0.2604 -0.62 77 76 82
-0.0735657 -0.26376 -0.628 74 75 80
-0.0724848 -0.26418 -0.629 73 74 79
0.123326 -0.18312 -0.436 200 155 134
0.124987 -0.18312 -0.436 204 157 137
0.127186 -0.1827 -0.435 202 157 134
0.137323 -0.18186 -0.433 188 143 122
0.1479 -0.1827 -0.435 159 110 95
0.170411 -0.18648 -0.444 124 87 78
0.1943 -0.19698 -0.469 127 124 155
0.199013 -0.19992 -0.476 160 161 192
0.322596 -0.21588 -0.514 107 84 94
0.3298 -0.2142 -0.51 108 84 97
0.460108 -0.22722 -0.541 114 79 75
0.475771 -0.23184 -0.552 121 86 80
0.483069 -0.23436 -0.558 128 89 84
-0.0988543 -0.256096 -0.607 69 70 75
-0.0953162 -0.25905 -0.614 75 76 81
-0.087981 -0.261581 -0.62 76 75 81
-0.0803571 -0.26369 -0.625 74 75 80
-0.0791667 -0.26369 -0.625 74 75 80
-0.0770314 -0.264534 -0.627 72 73 78
-0.065919 -0.26791 -0.635 73 74 79
-0.0545019 -0.271285 -0.643 109 109 119
-0.0474467 -0.272972 -0.647 69 67 78
0.123326 -0.18395 -0.436 200 155 134
0.126357 -0.183529 -0.435 202 157 136
0.133199 -0.182685 -0.433 200 155 134
0.134849 -0.182685 -0.433 195 150 129
0.167496 -0.186904 -0.443 135 92 85
0.172878 -0.18817 -0.446 115 83 86
0.174117 -0.188591 -0.447 112 80 83
0.181168 -0.191545 -0.454 98 73 76
0.197274 -0.199983 -0.474 150 150 184
0.38339 -0.270019 -0.64 131 96 103
0.323575 -0.216859 -0.514 108 85 93
0.346176 -0.220656 -0.523 42 32 43
0.406507 -0.249768 -0.592 81 83 104
0.431423 -0.260737 -0.618 53 53 77
0.40609 -0.225719 -0.535 173 116 109
0.41529 -0.221922 -0.526 162 107 100
0.427312 -0.221922 -0.526 147 99 89
0.433144 -0.222344 -0.527 148 98 89
0.480278 -0.234579 -0.556 124 86 83
-0.139881 -0.264881 -0.625 109 108 113
-0.117533 -0.255133 -0.602 75 78 85
-0.0990171 -0.257676 -0.608 69 70 75
-0.0913762 -0.262338 -0.619 73 74 79
-0.0848467 -0.264033 -0.623 75 75 83
-0.0462857 -0.274629 -0.648 76 74 85
0.126357 -0.184357 -0.435 202 157 136
0.15476 -0.185629 -0.438 157 108 94
0.353687 -0.247081 -0.583 109 76 83
0.340753 -0.234367 -0.553 97 67 75
0.337938 -0.218262 -0.515 66 43 49
0.40859 -0.224195 -0.529 163 108 101
0.423305 -0.222924 -0.526 156 104 91
0.439826 -0.224195 -0.529 124 87 78
0.470236 -0.232248 -0.548 122 87 81
1.13986 -0.274629 -0.648 204 206 192
-0.138912 -0.266497 -0.626 107 108 112
-0.13684 -0.264794 -0.622 106 107 111
-0.130929 -0.260111 -0.611 79 80 85
-0.124827 -0.257131 -0.604 73 76 81
-0.115227 -0.253726 -0.596 70 73 78
-0.108597 -0.254151 -0.597 51 54 59
-0.0983419 -0.260111 -0.611 68 69 74
-0.0894495 -0.264794 -0.622 74 75 80
-0.0704229 -0.269051 -0.632 73 73 81
-0.0557267 -0.273734 -0.643 66 66 74
-0.0509857 -0.274586 -0.645 72 72 82
-0.0462857 -0.275863 -0.648 74 73 81
-0.0439524 -0.276714 -0.65 73 72 80
0.113467 -0.195829 -0.46 192 153 138
0.112354 -0.192423 -0.452 193 154 139
0.118614 -0.186037 -0.437 204 159 140
0.130725 -0.184334 -0.433 201 156 135
0.145907 -0.18476 -0.434 164 115 100
0.147071 -0.185186 -0.435 163 114 99
0.149901 -0.185611 -0.436 161 112 98
0.177 -0.191571 -0.45 103 76 81
0.33142 -0.21754 -0.511 108 85 93
0.34452 -0.222223 -0.522 43 28 35
0.40508 -0.23244 -0.546 158 113 110
0.405376 -0.232014 -0.545 165 114 113
-0.108415 -0.254861 -0.596 69 72 77
-0.101986 -0.25871 -0.605 60 63 68
-0.100175 -0.259992 -0.608 63 64 69
-0.0978143 -0.262986 -0.615 67 68 73
-0.0957819 -0.263841 -0.617 68 69 74
-0.0938857 -0.265124 -0.62 71 72 77
-0.0462857 -0.277097 -0.648 69 68 76
0.115549 -0.187297 -0.438 204 159 140
0.121386 -0.186014 -0.435 202 160 136
0.126067 -0.185587 -0.434 202 160 136
0.130725 -0.185159 -0.433 200 158 136
0.135673 -0.185159 -0.433 192 150 128
0.187405 -0.197988 -0.463 109 88 97
0.408118 -0.254861 -0.596 67 65 86
0.403993 -0.230487 -0.539 170 114 113
-0.121511 -0.257285 -0.599 61 64 71
-0.0949133 -0.265875 -0.619 68 67 73
-0.0806143 -0.269311 -0.627 76 75 81
-0.0569514 -0.276184 -0.643 69 69 77
0.111712 -0.191568 -0.446 198 155 139
0.11695 -0.187702 -0.437 203 161 139
0.119173 -0.187272 -0.436 203 161 137
0.161333 -0.18899 -0.44 142 93 86
0.16254 -0.18942 -0.441 141 92 85
0.169566 -0.190709 -0.444 121 84 78
0.179438 -0.195004 -0.454 104 73 78
0.18781 -0.199299 -0.464 116 100 113
0.365331 -0.260291 -0.606 146 101 108
0.353829 -0.247406 -0.576 120 83 91
0.401762 -0.253419 -0.59 80 79 97
0.453774 -0.276184 -0.643 55 55 79
0.417083 -0.226359 -0.527 158 103 96
0.424307 -0.22593 -0.526 152 99 91
0.436983 -0.226789 -0.528 122 85 76
0.438818 -0.227218 -0.529 124 87 78
0.481142 -0.239245 -0.557 119 88 86
1.13842 -0.276184 -0.643 201 204 193
-0.123676 -0.260583 -0.604 99 102 107
-0.113517 -0.255837 -0.593 112 115 120
-0.108415 -0.257131 -0.596 99 100 105
-0.0840629 -0.270074 -0.626 76 75 83
-0.0783505 -0.270937 -0.628 74 74 82
-0.0729457 -0.273094 -0.633 73 73 81
-0.0650152 -0.275251 -0.638 70 73 80
0.1189 -0.187671 -0.435 203 161 137
0.119729 -0.187671 -0.435 204 162 138
0.124127 -0.186809 -0.433 205 160 137
0.127426 -0.186809 -0.433 201 159 137
0.128777 -0.186377 -0.432 201 159 137
0.132069 -0.186377 -0.432 197 155 133
0.133714 -0.186377 -0.432 195 153 131
0.1426 -0.18724 -0.434 170 121 107
0.14907 -0.188103 -0.436 161 112 98
0.347462 -0.240306 -0.557 102 71 77
0.39928 -0.25368 -0.588 84 85 105
0.423305 -0.226931 -0.526 151 96 89
0.45466 -0.231677 -0.537 115 77 68
-0.128897 -0.2678 -0.618 124 127 132
-0.124086 -0.2626 -0.606 125 128 133
-0.0941886 -0.269533 -0.622 66 67 72
-0.0740343 -0.273867 -0.632 72 72 80
-0.0729457 -0.2743 -0.633 73 73 81
-0.0499114 -0.280367 -0.647 70 70 78
-0.0487543 -0.2808 -0.648 69 70 75
0.110388 -0.195433 -0.451 193 155 136
0.115851 -0.188933 -0.436 203 162 140
0.151077 -0.189367 -0.437 158 109 95
0.1728 -0.194133 -0.448 117 82 76
0.35784 -0.2548 -0.588 157 107 118
0.332717 -0.2223 -0.513 77 57 68
0.417493 -0.263467 -0.608 56 54 75
0.443989 -0.2756 -0.636 54 51 72
0.407936 -0.241367 -0.557 151 107 108
0.41106 -0.228367 -0.527 158 103 96
0.45738 -0.233567 -0.539 119 82 73
1.13459 -0.2795 -0.645 204 207 190
-0.13465 -0.275941 -0.634 121 124 129
-0.0718533 -0.275941 -0.634 70 73 80
-0.0662305 -0.277682 -0.638 69 72 79
-0.0605314 -0.279423 -0.642 69 72 79
0.11026 -0.194551 -0.447 197 154 138
0.115021 -0.189764 -0.436 207 162 141
0.150245 -0.190199 -0.437 157 108 94
0.403517 -0.233723 -0.537 158 108 101
0.414071 -0.22937 -0.527 157 102 95
0.425309 -0.228935 -0.526 149 96 90
0.435977 -0.229806 -0.528 131 89 77
0.47386 -0.239816 -0.551 120 82 73
-0.135499 -0.278897 -0.638 117 121 124
-0.103138 -0.264471 -0.605 64 64 72
-0.0865857 -0.274089 -0.627 72 72 80
-0.0798 -0.2754 -0.63 75 75 83
-0.0741514 -0.276711 -0.633 73 76 83
-0.0475933 -0.283706 -0.649 70 71 76
0.144253 -0.18972 -0.434 167 118 103
0.174429 -0.196714 -0.45 111 74 81
0.178967 -0.1989 -0.455 103 72 78
0.196208 -0.208954 -0.478 166 173 217
0.358129 -0.254854 -0.583 142 102 111
0.414071 -0.230374 -0.527 157 104 96
0.433966 -0.230811 -0.528 133 89 78
0.446373 -0.23256 -0.532 125 82 73
0.448228 -0.232997 -0.533 124 81 72
0.460108 -0.236494 -0.541 124 84 76
0.473 -0.240429 -0.55 118 80 71
1.13283 -0.28152 -0.644 205 208 191
-0.111819 -0.259038 -0.59 109 113 116
-0.109943 -0.259916 -0.592 104 108 111
-0.103138 -0.265624 -0.605 65 65 73
-0.0900248 -0.274844 -0.626 67 68 73
-0.0663343 -0.280551 -0.639 71 74 81
-0.064 -0.28099 -0.64 69 72 79
0.123017 -0.189669 -0.432 206 161 138
0.144253 -0.190547 -0.434 166 117 100
0.15476 -0.192303 -0.438 151 102 85
0.158819 -0.193181 -0.44 146 98 84
0.164592 -0.194059 -0.442 134 94 86
0.166652 -0.194498 -0.443 126 89 83
0.35573 -0.251135 -0.572 137 96 100
0.401224 -0.239281 -0.545 155 104 100
0.406603 -0.234012 -0.533 161 106 101
0.412846 -0.231817 -0.528 159 106 100
0.418295 -0.230939 -0.526 155 102 94
0.430132 -0.231378 -0.527 137 90 82
0.43296 -0.231817 -0.528 135 91 82
0.480278 -0.24411 -0.556 124 84 76
0.48847 -0.247184 -0.563 123 86 77
-0.116709 -0.261044 -0.592 113 116 121
-0.0999943 -0.270745 -0.614 63 62 70
-0.0913629 -0.276477 -0.627 63 64 69
-0.0787248 -0.278241 -0.631 74 74 82
-0.0697667 -0.280887 -0.637 74 74 82
0.116973 -0.191373 -0.434 206 164 142
0.153091 -0.193137 -0.438 154 105 88
0.156786 -0.193578 -0.439 148 100 86
0.159657 -0.194019 -0.44 143 97 84
0.165809 -0.195342 -0.443 129 92 83
0.421301 -0.231941 -0.526 145 95 86
0.427312 -0.231941 -0.526 141 93 83
0.46199 -0.238996 -0.542 122 82 74
1.13386 -0.280887 -0.637 202 204 191
-0.114995 -0.260843 -0.589 111 115 118
-0.11163 -0.260843 -0.589 108 112 115
-0.106323 -0.264386 -0.597 68 69 74
-0.103946 -0.267043 -0.603 70 71 76
-0.0975857 -0.275014 -0.621 60 60 68
0.118353 -0.191757 -0.433 204 162 138
0.140622 -0.191757 -0.433 173 122 105
0.143427 -0.1922 -0.434 168 117 100
0.151077 -0.193529 -0.437 156 107 90
0.175204 -0.200171 -0.452 105 74 80
0.187646 -0.207257 -0.468 127 126 158
0.429669 -0.276343 -0.624 70 65 85
0.437585 -0.279886 -0.632 57 52 74
0.457303 -0.286971 -0.648 63 57 71
0.407618 -0.236043 -0.533 152 97 92
0.422303 -0.232943 -0.526 144 96 86
0.424307 -0.232943 -0.526 143 95 85
0.42631 -0.232943 -0.526 142 95 85
0.487602 -0.248886 -0.562 125 88 80
1.13499 -0.282986 -0.639 202 204 190
-0.101833 -0.27175 -0.611 69 70 75
-0.0968686 -0.277531 -0.624 61 61 69
-0.0777686 -0.281534 -0.633 72 72 80
-0.0687686 -0.284203 -0.639 72 75 82
0.108071 -0.197919 -0.445 198 157 135
0.10878 -0.19614 -0.441 197 158 141
0.137323 -0.192582 -0.433 179 130 113
0.138972 -0.192582 -0.433 173 124 109
0.146243 -0.193471 -0.435 161 112 97
0.361088 -0.26063 -0.586 150 108 118
0.355371 -0.240171 -0.54 39 31 46
0.407618 -0.237058 -0.533 154 99 94
0.407867 -0.236613 -0.532 153 98 93
0.410605 -0.235279 -0.529 150 97 91
0.42631 -0.233945 -0.526 143 96 86
-0.135757 -0.2881 -0.645 114 115 120
-0.108815 -0.264427 -0.592 80 81 86
-0.106501 -0.267107 -0.598 72 73 78
-0.0997905 -0.276933 -0.62 65 66 71
-0.0768048 -0.283633 -0.635 71 71 79
-0.0723067 -0.284973 -0.638 74 74 82
-0.0699857 -0.28542 -0.639 73 73 81
-0.06072 -0.287653 -0.644 69 72 79
0.11284 -0.193853 -0.434 202 161 139
0.123553 -0.192513 -0.431 201 159 137
0.14508 -0.193853 -0.434 164 112 98
0.166183 -0.19832 -0.444 120 87 78
0.357346 -0.24254 -0.543 36 28 43
0.406349 -0.23852 -0.534 152 97 94
0.409123 -0.23718 -0.531 150 97 93
0.410605 -0.236287 -0.529 151 98 94
0.438818 -0.236287 -0.529 129 86 77
0.471952 -0.245667 -0.55 121 84 76
-0.10429 -0.271386 -0.605 78 78 86
-0.06072 -0.28888 -0.644 70 73 80
0.113667 -0.19468 -0.434 204 163 143
0.125724 -0.192886 -0.43 200 155 132
0.138972 -0.194231 -0.433 174 125 110
0.356031 -0.255237 -0.569 142 100 101
0.355681 -0.253443 -0.565 135 93 94
0.34996 -0.24492 -0.546 143 118 122
0.35828 -0.24492 -0.546 34 26 41
0.36234 -0.246266 -0.549 33 25 40
0.379875 -0.255237 -0.569 40 34 48
0.41529 -0.235949 -0.526 154 101 95
0.417293 -0.235949 -0.526 154 101 95
0.435977 -0.236846 -0.528 138 94 85
0.450086 -0.239537 -0.534 121 82 75
-0.102829 -0.27479 -0.61 79 78 86
