ply
format ascii 1.0
comment Created by Open3D
element vertex 1286
property double x
property double y
property double z
property uchar red
property uchar green
property uchar blue
end_header
0.152751 -0.340191 -0.639 57 85 150
0.156403 -0.340191 -0.639 50 78 143
0.164923 -0.340191 -0.639 196 204 227
0.194434 -0.338594 -0.636 137 156 199
0.19928 -0.338594 -0.636 221 222 252
0.219529 -0.338062 -0.635 127 144 198
0.225576 -0.338062 -0.635 146 163 209
0.239257 -0.338594 -0.636 176 184 205
0.257429 -0.338594 -0.636 154 179 219
0.278795 -0.338062 -0.635 140 157 209
0.289681 -0.338062 -0.635 210 224 255
0.296938 -0.338062 -0.635 238 244 255
0.318 -0.338594 -0.636 131 160 216
0.320423 -0.338594 -0.636 132 165 218
0.330633 -0.339127 -0.637 222 229 255
0.3367 -0.339127 -0.637 210 215 244
0.339127 -0.339127 -0.637 162 176 215
0.406552 -0.340724 -0.64 101 132 189
0.398257 -0.282162 -0.53 133 92 86
0.402189 -0.277903 -0.522 155 106 92
0.408567 -0.274176 -0.515 163 111 97
0.448893 -0.273644 -0.514 140 94 81
0.458307 -0.275773 -0.518 131 89 77
0.485225 -0.286421 -0.538 127 87 77
0.0941314 -0.308817 -0.578 119 98 115
0.0975 -0.312557 -0.585 116 98 114
0.106419 -0.322709 -0.604 114 103 120
0.134705 -0.341943 -0.64 194 202 225
0.151534 -0.341409 -0.639 58 88 152
0.152751 -0.341409 -0.639 49 79 151
0.175327 -0.34034 -0.637 194 199 219
0.227636 -0.338737 -0.634 148 155 201
0.255814 -0.339271 -0.635 161 183 224
0.298148 -0.339271 -0.635 244 249 255
0.31871 -0.339271 -0.635 151 183 232
0.341017 -0.339806 -0.636 97 120 174
0.34762 -0.34034 -0.637 124 155 219
0.362749 -0.340874 -0.638 205 207 228
0.380977 -0.340874 -0.638 93 125 182
0.390094 -0.341409 -0.639 189 195 209
0.393746 -0.341409 -0.639 189 192 209
0.400457 -0.341943 -0.64 111 126 167
0.413867 -0.341943 -0.64 141 164 218
0.425391 -0.341409 -0.639 179 186 212
0.412669 -0.274623 -0.514 163 114 99
0.44032 -0.273554 -0.512 150 98 84
0.447043 -0.274089 -0.513 144 95 80
0.464829 -0.278897 -0.522 132 90 78
0.03792 -0.27024 -0.504 206 164 148
0.07602 -0.291151 -0.543 128 104 117
0.104571 -0.321714 -0.6 111 102 121
0.134494 -0.342626 -0.639 198 205 234
0.145449 -0.342626 -0.639 167 180 215
0.152512 -0.34209 -0.638 50 82 157
0.154943 -0.34209 -0.638 47 79 156
0.205899 -0.339945 -0.634 134 148 197
0.208314 -0.339945 -0.634 130 144 193
0.221249 -0.339409 -0.633 148 162 209
0.232467 -0.339945 -0.634 202 212 237
0.235252 -0.340481 -0.635 239 244 255
0.252186 -0.340481 -0.635 154 181 234
0.260652 -0.340481 -0.635 231 242 255
0.264281 -0.340481 -0.635 249 249 255
0.270329 -0.340481 -0.635 245 246 250
0.285602 -0.339945 -0.634 138 154 214
0.29647 -0.339945 -0.634 245 250 254
0.298886 -0.339945 -0.634 243 246 255
0.300093 -0.339945 -0.634 243 246 255
0.3175 -0.340481 -0.635 148 174 225
0.327691 -0.341017 -0.636 220 230 255
0.357888 -0.34209 -0.638 116 133 179
0.362749 -0.34209 -0.638 203 208 230
0.377331 -0.34209 -0.638 116 147 201
0.389484 -0.34209 -0.638 192 199 215
0.427826 -0.342626 -0.639 179 185 201
0.438093 -0.34209 -0.638 85 106 151
0.44417 -0.34209 -0.638 92 115 165
0.4466 -0.34209 -0.638 78 108 160
0.451046 -0.339945 -0.634 171 176 195
0.408184 -0.27721 -0.517 162 110 97
0.410343 -0.276674 -0.516 164 112 98
0.41151 -0.276138 -0.515 162 113 98
0.414797 -0.275066 -0.513 153 104 89
0.458307 -0.277747 -0.518 134 91 75
0.0437667 -0.271738 -0.505 195 153 139
0.0694133 -0.286267 -0.532 138 108 120
0.0747095 -0.29111 -0.541 128 104 118
0.07748 -0.2938 -0.546 126 104 117
0.0789514 -0.295414 -0.549 125 103 116
0.12558 -0.342767 -0.637 140 163 213
0.148633 -0.342767 -0.637 69 96 151
0.153728 -0.343305 -0.638 48 80 155
0.157127 -0.342767 -0.637 45 74 142
0.16198 -0.342767 -0.637 88 102 149
0.16536 -0.342229 -0.636 82 98 134
0.179614 -0.34169 -0.635 106 132 189
0.209191 -0.340614 -0.633 153 166 211
0.218837 -0.340614 -0.633 130 147 199
0.26628 -0.341152 -0.634 250 250 252
0.304443 -0.340614 -0.633 202 205 220
0.426609 -0.343843 -0.639 169 180 212
0.429043 -0.343843 -0.639 179 183 208
0.452253 -0.341152 -0.634 170 171 191
0.411015 -0.298105 -0.554 118 87 85
0.403551 -0.284652 -0.529 129 94 90
0.40638 -0.280348 -0.521 153 103 92
0.416585 -0.276581 -0.514 153 104 89
0.417564 -0.276581 -0.514 155 106 91
0.423591 -0.276043 -0.513 154 105 90
0.428477 -0.276043 -0.513 156 104 90
0.431543 -0.275505 -0.512 154 102 88
0.433493 -0.275505 -0.512 155 103 89
0.435444 -0.275505 -0.512 152 100 86
0.448997 -0.276043 -0.513 142 93 76
0.458407 -0.278195 -0.517 135 92 76
0.465823 -0.280886 -0.522 132 89 73
0.485346 -0.288957 -0.537 131 91 79
0.0243829 -0.27108 -0.502 208 166 152
0.0262952 -0.27108 -0.502 210 168 154
0.05402 -0.27594 -0.511 166 129 120
0.0607971 -0.28026 -0.519 150 115 122
0.0632581 -0.28242 -0.523 147 111 121
0.1365 -0.34398 -0.637 188 193 215
0.14014 -0.34398 -0.637 97 109 149
0.146207 -0.34398 -0.637 76 96 157
0.188694 -0.34182 -0.633 89 123 187
0.223307 -0.34128 -0.632 167 177 230
0.234882 -0.34236 -0.634 244 251 255
0.23609 -0.34236 -0.634 244 247 255
0.250581 -0.34236 -0.634 152 176 224
0.268695 -0.34236 -0.634 248 253 255
0.275506 -0.34182 -0.633 160 178 218
0.303237 -0.34182 -0.633 242 246 255
0.311677 -0.34182 -0.633 180 200 237
0.323548 -0.3429 -0.635 225 231 255
0.338062 -0.3429 -0.635 103 121 161
0.3429 -0.3429 -0.635 169 195 244
0.350709 -0.34344 -0.636 156 180 228
0.412573 -0.34452 -0.638 165 179 208
0.422295 -0.34452 -0.638 126 142 176
0.452746 -0.34182 -0.633 143 145 166
0.408948 -0.29538 -0.547 118 87 85
0.422614 -0.27702 -0.513 152 103 88
0.429592 -0.27648 -0.512 155 103 89
0.43837 -0.27648 -0.512 152 100 86
0.441407 -0.27594 -0.511 149 98 81
0.449974 -0.27702 -0.513 143 97 82
0.0252886 -0.271494 -0.501 206 167 152
0.0271971 -0.271494 -0.501 207 168 153
0.0291057 -0.271494 -0.501 206 167 152
0.0319686 -0.271494 -0.501 207 168 153
0.0486724 -0.274204 -0.506 184 146 135
0.0507 -0.274746 -0.507 178 140 129
0.160262 -0.34411 -0.635 115 130 187
0.167519 -0.34411 -0.635 125 134 165
0.171148 -0.34411 -0.635 201 206 228
0.173567 -0.34411 -0.635 181 184 201
0.193211 -0.342484 -0.632 162 180 226
0.208861 -0.342484 -0.632 187 203 239
0.238129 -0.343026 -0.633 244 247 255
0.269477 -0.343026 -0.633 231 238 248
0.285905 -0.342484 -0.632 157 174 217
0.289516 -0.342484 -0.632 159 171 211
0.297943 -0.342484 -0.632 243 248 254
0.330284 -0.343568 -0.634 220 225 247
0.36709 -0.34411 -0.635 204 206 229
0.380994 -0.344651 -0.636 102 129 174
0.382206 -0.344651 -0.636 106 134 182
0.388263 -0.344651 -0.636 191 192 213
0.406497 -0.345735 -0.638 181 192 220
0.44226 -0.345193 -0.637 96 119 171
0.443473 -0.345193 -0.637 83 106 158
0.407274 -0.285042 -0.526 144 96 86
0.41174 -0.281249 -0.519 149 100 86
0.420338 -0.279081 -0.515 154 105 90
0.429454 -0.277997 -0.513 153 101 87
0.456537 -0.279623 -0.516 134 92 80
0.458407 -0.280165 -0.517 131 89 77
0.478911 -0.287751 -0.531 129 89 77
0.0224257 -0.272449 -0.501 208 169 152
0.03674 -0.272449 -0.501 205 166 151
0.0396819 -0.272992 -0.502 201 162 145
0.0620238 -0.283325 -0.521 147 112 118
0.0734067 -0.293113 -0.539 131 103 115
0.12922 -0.346407 -0.637 105 125 176
0.135074 -0.345863 -0.636 191 196 216
0.142343 -0.345863 -0.636 141 154 199
0.16389 -0.345319 -0.635 152 171 204
0.170878 -0.344775 -0.634 200 205 227
0.184785 -0.343688 -0.632 84 119 183
0.200434 -0.343688 -0.632 217 227 252
0.215742 -0.343144 -0.631 144 160 219
0.227761 -0.343144 -0.631 223 229 255
0.234511 -0.344231 -0.633 244 250 255
0.239334 -0.344231 -0.633 223 226 235
0.252597 -0.344231 -0.633 172 192 225
0.296739 -0.343688 -0.632 242 246 255
0.308777 -0.343688 -0.632 183 199 235
0.321323 -0.344231 -0.633 209 222 255
0.327351 -0.344231 -0.633 220 226 250
0.339945 -0.344775 -0.634 173 189 223
0.382814 -0.345319 -0.635 131 159 206
0.413703 -0.345863 -0.636 179 187 210
0.41678 -0.346407 -0.637 177 185 206
0.42042 -0.346407 -0.637 174 181 210
0.453719 -0.343144 -0.631 76 91 122
0.430431 -0.278974 -0.513 148 99 84
0.431543 -0.27843 -0.512 149 100 85
0.437394 -0.27843 -0.512 150 101 86
0.440433 -0.277887 -0.511 147 96 77
0.441407 -0.277887 -0.511 147 96 77
0.45281 -0.279518 -0.514 134 92 78
0.0186829 -0.274494 -0.503 203 164 147
0.0196019 -0.273949 -0.502 204 165 148
0.0406381 -0.273949 -0.502 198 159 144
0.0507 -0.276677 -0.507 173 136 127
0.0607971 -0.283226 -0.519 147 114 121
0.0645 -0.2865 -0.525 141 110 118
0.0721114 -0.293049 -0.537 131 103 115
0.0996257 -0.322517 -0.591 119 102 120
0.130229 -0.347074 -0.636 162 177 208
0.16001 -0.345983 -0.634 140 160 211
0.162425 -0.345983 -0.634 182 194 232
0.177843 -0.345437 -0.633 109 132 174
0.181173 -0.344891 -0.632 103 128 182
0.194108 -0.344346 -0.631 199 219 254
0.231367 -0.344346 -0.631 238 245 255
0.24016 -0.344891 -0.632 206 213 239
0.273433 -0.344346 -0.631 180 189 218
0.289058 -0.344346 -0.631 153 167 206
0.308289 -0.344346 -0.631 173 187 222
0.318408 -0.344891 -0.632 170 192 229
0.320815 -0.344891 -0.632 214 227 255
0.336997 -0.345437 -0.633 184 198 227
0.350813 -0.345983 -0.634 196 205 234
0.378589 -0.345983 -0.634 97 125 172
0.418549 -0.347074 -0.636 178 184 208
0.423394 -0.347074 -0.636 143 148 186
0.424606 -0.347074 -0.636 113 118 156
0.432405 -0.346529 -0.635 156 162 194
0.448129 -0.346529 -0.635 144 162 198
0.414514 -0.283771 -0.52 148 100 90
0.49764 -0.29796 -0.546 130 98 85
0.0178619 -0.33131 -0.605 200 165 146
0.0251371 -0.272714 -0.498 211 169 153
0.0405571 -0.274357 -0.501 196 157 142
0.0425505 -0.274905 -0.502 191 151 139
0.0435067 -0.274905 -0.502 187 147 135
0.0445514 -0.275452 -0.503 185 148 132
0.052839 -0.278738 -0.509 167 129 128
0.0657495 -0.288595 -0.527 137 107 117
0.0878648 -0.309952 -0.566 121 100 115
0.0895714 -0.312143 -0.57 121 100 115
0.125186 -0.347738 -0.635 119 140 193
0.131233 -0.347738 -0.635 189 200 222
0.133652 -0.347738 -0.635 195 197 220
0.13849 -0.347738 -0.635 191 195 222
0.150349 -0.34719 -0.634 56 85 145
0.155179 -0.34719 -0.634 60 89 159
0.168197 -0.346643 -0.633 198 200 225
0.17302 -0.346643 -0.633 201 204 223
0.177562 -0.346095 -0.632 112 135 177
0.204925 -0.345548 -0.631 183 194 224
0.2082 -0.345 -0.63 140 153 188
0.24579 -0.345548 -0.631 183 200 230
0.261829 -0.346095 -0.632 241 249 251
0.268626 -0.345548 -0.631 212 215 230
0.3102 -0.345 -0.63 193 207 242
0.316702 -0.345548 -0.631 161 177 213
0.359906 -0.346643 -0.633 82 98 134
0.36714 -0.346643 -0.633 202 207 239
0.391872 -0.34719 -0.634 89 103 138
0.396119 -0.347738 -0.635 153 168 199
0.418549 -0.348286 -0.636 181 189 212
0.438452 -0.347738 -0.635 69 96 151
0.439662 -0.347738 -0.635 83 114 179
0.413068 -0.288595 -0.527 139 95 86
0.424262 -0.282024 -0.515 152 99 85
0.43946 -0.279833 -0.511 150 99 82
0.449097 -0.280381 -0.512 145 98 82
0.0168333 -0.27751 -0.505 203 165 144
0.0365933 -0.274212 -0.499 204 165 148
0.128814 -0.348948 -0.635 137 159 208
0.163116 -0.347299 -0.632 195 201 223
0.166728 -0.347299 -0.632 196 200 225
0.171543 -0.347299 -0.632 200 206 222
0.195 -0.3462 -0.63 217 223 247
0.2118 -0.3462 -0.63 174 188 227
0.225841 -0.34565 -0.629 172 184 226
0.238578 -0.34675 -0.631 238 245 255
0.23978 -0.34675 -0.631 215 222 251
0.2694 -0.3462 -0.63 185 191 213
0.3006 -0.3462 -0.63 241 243 255
0.384627 -0.348398 -0.634 185 197 223
0.403949 -0.348398 -0.634 186 189 208
0.423938 -0.348948 -0.635 172 177 199
0.428776 -0.348948 -0.635 93 104 136
0.441385 -0.348398 -0.634 64 95 160
0.417002 -0.301139 -0.548 123 86 80
0.414516 -0.295644 -0.538 128 87 81
0.414635 -0.290698 -0.529 138 95 88
0.418289 -0.286302 -0.521 143 96 86
0.437394 -0.281356 -0.512 151 100 83
0.437513 -0.280807 -0.511 151 100 83
0.43946 -0.280807 -0.511 149 98 79
0.444327 -0.280807 -0.511 149 98 81
0.446273 -0.280807 -0.511 147 98 81
0.48184 -0.292347 -0.532 135 96 81
0.02988 -0.274611 -0.498 208 166 150
0.0435067 -0.276817 -0.502 190 150 138
0.070559 -0.293911 -0.533 136 106 114
0.1194 -0.3474 -0.63 115 137 184
0.13082 -0.349054 -0.633 194 199 218
0.141671 -0.349054 -0.633 145 164 197
0.159505 -0.348503 -0.632 112 133 190
0.176079 -0.347951 -0.631 127 146 186
0.177281 -0.347951 -0.631 117 136 176
0.223445 -0.346849 -0.629 153 166 208
0.249 -0.3474 -0.63 201 214 246
0.2742 -0.3474 -0.63 231 236 255
0.300123 -0.346849 -0.629 238 242 254
0.312104 -0.346849 -0.629 170 188 228
0.34675 -0.347951 -0.631 208 216 239
0.360541 -0.348503 -0.632 118 132 169
0.405156 -0.349606 -0.634 191 194 211
0.411194 -0.349606 -0.634 186 189 206
0.416681 -0.350157 -0.635 182 187 206
0.428101 -0.349606 -0.634 101 111 138
0.444808 -0.348503 -0.632 87 116 176
0.415791 -0.296117 -0.537 124 84 76
0.41496 -0.29336 -0.532 131 88 81
0.416291 -0.290051 -0.526 132 88 79
0.42394 -0.285089 -0.517 144 95 80
0.43127 -0.283434 -0.514 154 102 88
0.447247 -0.28178 -0.511 150 101 86
0.452906 -0.282883 -0.513 140 94 79
0.0194067 -0.275007 -0.497 208 167 145
0.0327257 -0.27556 -0.498 205 164 146
0.0346229 -0.27556 -0.498 204 163 145
0.0414286 -0.276667 -0.5 196 154 140
0.04848 -0.27888 -0.504 174 137 121
0.0527352 -0.281093 -0.508 161 121 121
0.0620238 -0.288287 -0.521 142 110 115
0.0632581 -0.289393 -0.523 142 110 115
0.120791 -0.349153 -0.631 120 143 185
0.122187 -0.349707 -0.632 126 149 193
0.143855 -0.349707 -0.632 75 98 150
0.15469 -0.349707 -0.632 63 90 143
0.162858 -0.349153 -0.631 192 199 217
0.183908 -0.348047 -0.629 151 171 206
0.20787 -0.348047 -0.629 171 182 214
0.221049 -0.348047 -0.629 197 205 241
0.237822 -0.348047 -0.629 235 244 249
0.2646 -0.3486 -0.63 203 208 230
0.286944 -0.348047 -0.629 231 238 248
0.3294 -0.3486 -0.63 144 151 177
0.349153 -0.349153 -0.631 207 215 236
0.377394 -0.349707 -0.632 74 109 175
0.384617 -0.349707 -0.632 174 182 218
0.414817 -0.350813 -0.634 188 191 210
0.435177 -0.349707 -0.632 39 70 137
0.418046 -0.303227 -0.548 122 85 76
0.417059 -0.296587 -0.536 126 86 78
0.42476 -0.286627 -0.518 144 95 80
0.425747 -0.286627 -0.518 145 96 81
0.426894 -0.286073 -0.517 146 97 82
0.427879 -0.286073 -0.517 149 98 81
0.433363 -0.28386 -0.513 154 102 88
0.447247 -0.282753 -0.511 149 100 85
0.449193 -0.282753 -0.511 146 99 83
0.01314 -0.283727 -0.511 202 164 141
0.0607971 -0.288169 -0.519 148 109 112
0.0747095 -0.300384 -0.541 130 100 108
0.0848 -0.310933 -0.56 122 102 113
0.0912933 -0.318707 -0.574 118 100 114
0.134225 -0.35091 -0.632 193 202 219
0.147467 -0.35091 -0.632 89 111 169
0.1638 -0.3498 -0.63 167 175 194
0.1674 -0.3498 -0.63 199 205 221
0.177917 -0.349245 -0.629 130 149 192
0.181223 -0.34869 -0.628 171 187 223
0.184811 -0.34869 -0.628 153 172 204
0.20395 -0.34869 -0.628 144 153 186
0.206343 -0.34869 -0.628 178 187 216
0.227039 -0.349245 -0.629 183 189 225
0.230633 -0.349245 -0.629 229 231 255
0.242614 -0.349245 -0.629 174 185 217
0.247407 -0.349245 -0.629 200 212 252
0.248605 -0.349245 -0.629 187 201 228
0.261784 -0.349245 -0.629 235 232 249
0.278114 -0.34869 -0.628 211 212 230
0.290076 -0.34869 -0.628 241 245 255
0.294861 -0.34869 -0.628 164 171 200
0.29845 -0.34869 -0.628 226 235 252
0.302038 -0.34869 -0.628 229 236 252
0.3378 -0.3498 -0.63 212 219 237
0.3474 -0.3498 -0.63 205 212 230
0.370788 -0.350355 -0.631 159 172 206
0.377999 -0.350355 -0.631 60 95 163
0.384009 -0.350355 -0.631 122 137 178
0.421935 -0.35091 -0.632 175 177 190
0.442902 -0.350355 -0.631 28 61 128
0.4542 -0.3498 -0.63 164 161 178
0.457073 -0.349245 -0.629 106 104 115
0.41759 -0.298718 -0.538 125 85 77
0.417059 -0.297608 -0.536 126 86 78
0.420697 -0.290945 -0.524 126 84 72
0.43211 -0.285948 -0.515 153 101 87
0.437394 -0.284282 -0.512 151 100 83
0.44822 -0.283727 -0.511 150 101 84
0.4745 -0.2915 -0.525 136 93 77
0.0345533 -0.2769 -0.497 205 163 147
0.0364467 -0.2769 -0.497 206 164 148
0.0463752 -0.279686 -0.502 181 144 126
0.0515638 -0.281914 -0.506 164 125 118
0.101433 -0.3315 -0.595 114 105 122
0.106771 -0.337629 -0.606 160 164 199
0.1686 -0.351 -0.63 196 205 222
0.184811 -0.349886 -0.628 148 165 195
0.191683 -0.349329 -0.627 209 221 247
0.195266 -0.349329 -0.627 219 226 245
0.215912 -0.349886 -0.628 193 199 223
0.220697 -0.349886 -0.628 228 232 255
0.232659 -0.349886 -0.628 244 242 255
0.243425 -0.349886 -0.628 175 186 218
0.291272 -0.349886 -0.628 232 235 254
0.294861 -0.349886 -0.628 161 168 194
0.302038 -0.349886 -0.628 225 232 251
0.303234 -0.349886 -0.628 219 226 255
0.32049 -0.350443 -0.629 221 228 255
0.325283 -0.350443 -0.629 152 158 192
0.364778 -0.351557 -0.631 121 129 166
0.36598 -0.351557 -0.631 123 131 168
0.374393 -0.351557 -0.631 60 99 168
0.400835 -0.351557 -0.631 163 166 183
0.425674 -0.310886 -0.558 123 83 73
0.422221 -0.305314 -0.548 123 83 75
0.433229 -0.286371 -0.514 154 103 86
0.442486 -0.284143 -0.51 149 97 76
0.4454 -0.284143 -0.51 154 103 86
0.459663 -0.286371 -0.514 136 90 74
0.0138095 -0.279524 -0.5 204 166 147
0.0680143 -0.295736 -0.529 136 107 109
0.124594 -0.353318 -0.632 137 148 178
0.1314 -0.3522 -0.63 197 204 220
0.146031 -0.352759 -0.631 134 146 184
0.149637 -0.352759 -0.631 122 138 174
0.159 -0.3522 -0.63 81 99 149
0.174323 -0.351641 -0.629 191 195 222
0.223929 -0.350523 -0.627 225 234 251
0.233855 -0.351082 -0.628 246 244 255
0.237444 -0.351082 -0.628 236 240 251
0.242229 -0.351082 -0.628 168 179 207
0.243425 -0.351082 -0.628 175 185 220
0.260586 -0.351641 -0.629 195 198 213
0.261368 -0.351082 -0.628 176 173 200
0.282449 -0.350523 -0.627 242 250 253
0.327158 -0.351082 -0.628 204 211 239
0.328354 -0.351082 -0.628 211 218 237
0.334335 -0.351082 -0.628 203 211 222
0.338462 -0.351641 -0.629 212 218 234
0.3702 -0.3522 -0.63 91 120 180
0.3726 -0.3522 -0.63 38 73 141
0.3882 -0.3522 -0.63 178 193 226
0.408047 -0.352759 -0.631 130 142 168
0.411652 -0.352759 -0.631 137 142 162
0.4302 -0.3522 -0.63 41 66 130
0.43569 -0.352759 -0.631 64 100 160
0.4212 -0.301886 -0.54 124 84 76
0.422271 -0.296854 -0.531 117 74 65
0.42411 -0.294618 -0.527 120 78 66
0.428546 -0.290146 -0.519 137 89 79
0.436294 -0.286791 -0.513 152 101 82
0.0373933 -0.278793 -0.497 203 162 144
0.0630162 -0.292256 -0.521 137 105 110
0.0747095 -0.303475 -0.541 134 103 111
0.0789514 -0.307963 -0.549 125 102 112
0.08802 -0.31806 -0.567 121 101 112
0.1446 -0.3534 -0.63 137 158 201
0.1458 -0.3534 -0.63 133 142 171
0.15755 -0.352839 -0.629 139 154 187
0.165936 -0.352839 -0.629 189 200 220
0.197339 -0.351156 -0.626 188 193 222
0.203301 -0.351156 -0.626 218 223 243
0.217957 -0.351717 -0.627 235 237 255
0.219151 -0.351717 -0.627 237 239 255
0.225123 -0.351717 -0.627 241 239 255
0.228706 -0.351717 -0.627 162 168 200
0.24662 -0.351717 -0.627 184 196 234
0.275283 -0.351717 -0.627 244 248 251
0.315889 -0.351717 -0.627 182 203 250
0.34565 -0.352839 -0.629 195 202 218
0.361226 -0.352839 -0.629 196 198 219
0.373207 -0.352839 -0.629 32 70 143
0.431937 -0.315255 -0.562 121 84 78
0.423185 -0.30067 -0.536 117 77 69
0.426051 -0.292817 -0.522 129 82 72
0.426228 -0.292256 -0.521 130 83 73
0.435187 -0.28833 -0.514 156 103 87
0.440433 -0.286647 -0.511 154 101 85
0.443353 -0.286647 -0.511 154 103 84
0.448314 -0.286086 -0.51 156 105 88
0.0119048 -0.281429 -0.5 204 166 145
0.0192114 -0.276926 -0.492 207 166 146
0.09462 -0.32702 -0.581 123 105 117
0.105094 -0.339403 -0.603 175 180 209
0.129993 -0.354037 -0.629 197 204 223
0.13239 -0.354037 -0.629 194 199 219
0.1398 -0.3546 -0.63 99 108 139
0.174963 -0.352911 -0.627 162 175 207
0.180646 -0.352349 -0.626 155 172 218
0.231918 -0.352349 -0.626 163 171 208
0.234303 -0.352349 -0.626 224 229 255
0.23788 -0.352349 -0.626 223 230 249
0.260171 -0.353474 -0.628 187 187 213
0.277229 -0.352349 -0.626 246 249 254
0.305846 -0.352349 -0.626 129 142 184
0.307038 -0.352349 -0.626 115 137 186
0.33858 -0.352911 -0.627 192 192 202
0.339774 -0.352911 -0.627 188 191 206
0.370221 -0.353474 -0.628 52 89 160
0.377398 -0.353474 -0.628 65 102 172
0.378594 -0.353474 -0.628 55 92 162
0.37979 -0.353474 -0.628 41 81 142
0.384575 -0.353474 -0.628 160 177 220
0.392376 -0.354037 -0.629 193 189 212
0.39597 -0.354037 -0.629 156 153 160
0.438404 -0.353474 -0.628 43 85 145
0.450366 -0.353474 -0.628 46 60 105
0.45562 -0.352911 -0.627 168 173 195
0.462048 -0.352349 -0.626 176 176 184
0.432653 -0.29156 -0.518 143 90 74
0.451229 -0.287057 -0.51 157 106 85
0.0118333 -0.280687 -0.497 204 166 145
0.0182743 -0.277863 -0.492 206 165 143
0.0277019 -0.278428 -0.493 205 167 148
0.0363 -0.279557 -0.495 201 160 140
0.0593476 -0.290852 -0.515 144 108 110
0.0655 -0.2965 -0.525 136 104 105
0.0694133 -0.300453 -0.532 135 105 103
0.08802 -0.32022 -0.567 122 101 110
0.096221 -0.329821 -0.584 121 104 114
0.0996257 -0.333774 -0.591 122 105 115
0.1266 -0.3558 -0.63 196 203 231
0.13239 -0.355235 -0.629 194 198 225
0.13838 -0.355235 -0.629 127 134 163
0.143172 -0.355235 -0.629 171 185 211
0.17138 -0.354106 -0.627 202 208 224
0.174963 -0.354106 -0.627 163 176 208
0.225956 -0.353541 -0.626 231 237 251
0.231548 -0.352976 -0.625 184 190 226
0.243842 -0.353541 -0.626 168 184 220
0.247419 -0.353541 -0.626 155 174 217
0.252591 -0.354106 -0.627 214 232 255
0.257369 -0.354106 -0.627 226 229 244
0.262146 -0.354106 -0.627 228 231 255
0.303461 -0.353541 -0.626 168 177 218
0.31131 -0.352976 -0.625 98 127 185
0.327831 -0.354106 -0.627 223 222 238
0.33022 -0.354106 -0.627 218 224 238
0.33858 -0.354106 -0.627 187 187 197
0.345746 -0.354106 -0.627 177 185 208
0.355867 -0.35467 -0.628 203 212 227
0.363044 -0.35467 -0.628 155 169 204
0.410348 -0.355235 -0.629 183 187 199
0.449649 -0.354106 -0.627 95 109 148
0.4625 -0.352976 -0.625 175 174 192
0.435897 -0.291417 -0.516 148 95 79
0.437014 -0.290852 -0.515 153 100 82
0.439226 -0.289723 -0.513 156 101 80
0.440203 -0.289723 -0.513 157 102 81
0.4635 -0.290852 -0.515 136 93 77
0.0210429 -0.278233 -0.491 209 168 146
0.0557476 -0.288433 -0.509 149 114 112
0.122805 -0.356433 -0.629 134 149 180
0.128795 -0.356433 -0.629 196 202 224
0.16302 -0.3553 -0.627 108 121 153
0.167797 -0.3553 -0.627 170 179 210
0.206548 -0.354167 -0.625 217 220 235
0.222024 -0.354167 -0.625 235 240 255
0.227976 -0.354167 -0.625 230 235 255
0.245833 -0.354167 -0.625 162 183 228
0.26292 -0.354733 -0.626 248 248 255
0.28704 -0.3536 -0.624 240 245 251
0.3125 -0.354167 -0.625 96 125 183
0.319643 -0.354167 -0.625 135 158 212
0.327309 -0.354733 -0.626 217 216 232
0.341617 -0.354733 -0.626 136 146 173
0.352911 -0.3553 -0.627 206 214 225
0.358883 -0.3553 -0.627 183 186 201
0.386351 -0.3553 -0.627 87 110 152
0.418069 -0.355867 -0.628 186 184 197
0.446066 -0.3553 -0.627 163 170 199
0.460855 -0.354733 -0.626 172 174 189
0.462949 -0.3536 -0.624 169 170 191
0.433447 -0.313367 -0.553 121 83 80
0.433489 -0.2941 -0.519 137 88 73
0.434772 -0.292967 -0.517 143 91 77
0.447343 -0.289 -0.51 160 109 88
0.468173 -0.293533 -0.518 138 95 79
0.479411 -0.298067 -0.526 140 98 84
0.021 -0.2786 -0.49 210 169 147
0.025719 -0.279169 -0.491 209 171 150
0.0804343 -0.313851 -0.552 127 100 109
0.0849514 -0.318969 -0.561 125 102 112
0.103256 -0.340574 -0.599 174 170 193
0.120026 -0.356494 -0.627 128 147 180
0.147494 -0.356494 -0.627 182 185 200
0.16302 -0.356494 -0.627 138 152 181
0.168722 -0.355926 -0.626 162 173 205
0.181257 -0.354789 -0.624 129 150 195
0.183634 -0.354789 -0.624 128 151 192
0.189577 -0.354789 -0.624 214 219 248
0.210971 -0.354789 -0.624 232 235 254
0.2288 -0.354789 -0.624 237 239 254
0.244643 -0.355357 -0.625 173 194 239
0.26369 -0.355357 -0.625 242 242 250
0.273214 -0.355357 -0.625 228 230 243
0.285851 -0.354789 -0.624 237 241 252
0.298214 -0.355357 -0.625 176 183 211
0.312 -0.354789 -0.624 122 148 205
0.33327 -0.355926 -0.626 214 220 236
0.335655 -0.355926 -0.626 202 206 218
0.364854 -0.356494 -0.627 145 166 211
0.386351 -0.356494 -0.627 52 75 116
0.387546 -0.356494 -0.627 114 128 165
0.38874 -0.356494 -0.627 155 169 206
0.412088 -0.357063 -0.628 184 190 206
0.42218 -0.356494 -0.627 66 85 127
0.440585 -0.355926 -0.626 121 144 185
0.462949 -0.354789 -0.624 170 170 194
0.430457 -0.307029 -0.54 114 76 65
0.43688 -0.293383 -0.516 144 93 76
0.44118 -0.291677 -0.513 156 103 85
0.441295 -0.291109 -0.512 158 106 84
0.0163333 -0.279533 -0.49 208 167 145
0.05694 -0.291513 -0.511 143 112 110
0.0617857 -0.296077 -0.519 136 103 110
0.0804343 -0.314903 -0.552 127 100 109
0.096221 -0.333158 -0.584 122 102 114
0.118642 -0.357118 -0.626 131 147 183
0.142945 -0.358259 -0.628 149 152 161
0.26131 -0.356548 -0.625 244 247 255
0.292983 -0.355977 -0.624 231 232 252
0.313189 -0.355977 -0.624 148 173 227
0.385735 -0.357118 -0.626 66 86 121
0.390505 -0.357118 -0.626 177 186 217
0.391697 -0.357118 -0.626 189 190 208
0.426276 -0.357118 -0.626 177 183 197
0.434623 -0.357118 -0.626 101 122 177
0.435815 -0.357118 -0.626 111 138 183
0.464137 -0.355977 -0.624 157 159 180
0.437995 -0.293795 -0.515 145 93 79
0.0266 -0.280467 -0.49 208 167 145
0.0285248 -0.281039 -0.491 204 166 145
0.0502 -0.287335 -0.502 161 124 118
0.118452 -0.357738 -0.625 137 153 189
0.134357 -0.358883 -0.627 129 138 171
0.135551 -0.358883 -0.627 159 167 186
0.175314 -0.357166 -0.624 153 169 203
0.177691 -0.357166 -0.624 100 122 171
0.202327 -0.356593 -0.623 224 225 243
0.220127 -0.356593 -0.623 239 238 254
0.227247 -0.356593 -0.623 241 240 255
0.22962 -0.356593 -0.623 234 236 255
0.231993 -0.356593 -0.623 209 218 247
0.240686 -0.357166 -0.624 135 143 192
0.258514 -0.357166 -0.624 220 230 255
0.266834 -0.357166 -0.624 237 239 252
0.27946 -0.356593 -0.623 212 214 237
0.321509 -0.357166 -0.624 112 127 168
0.325074 -0.357166 -0.624 208 215 243
0.402429 -0.35831 -0.626 187 185 206
0.411968 -0.35831 -0.626 181 187 201
0.4375 -0.357738 -0.625 113 142 186
0.439881 -0.357738 -0.625 101 123 173
0.441071 -0.357738 -0.625 100 122 172
0.449405 -0.357738 -0.625 175 176 196
0.46782 -0.355449 -0.621 149 157 193
0.433315 -0.309658 -0.541 116 80 68
0.4295 -0.3005 -0.525 122 80 66
0.432182 -0.29821 -0.521 130 88 74
0.443134 -0.293631 -0.513 158 106 85
0.443246 -0.293059 -0.512 158 106 85
0.448314 -0.291914 -0.51 162 110 89
0.00801429 -0.284271 -0.495 203 162 140
0.0171962 -0.280251 -0.488 208 167 145
0.0284667 -0.2814 -0.49 204 166 145
0.081781 -0.318154 -0.554 124 100 113
0.0832848 -0.319877 -0.557 124 100 113
0.136746 -0.360077 -0.627 185 197 213
0.146067 -0.359503 -0.626 190 191 196
0.149644 -0.359503 -0.626 191 196 215
0.154413 -0.359503 -0.626 200 203 212
0.155606 -0.359503 -0.626 200 203 212
0.180967 -0.35778 -0.623 95 121 170
0.216567 -0.35778 -0.623 205 206 226
0.246233 -0.35778 -0.623 133 148 203
0.24742 -0.35778 -0.623 141 156 211
0.271589 -0.358354 -0.624 223 225 240
0.290859 -0.357206 -0.622 241 245 255
0.29726 -0.35778 -0.623 167 174 200
0.335233 -0.35778 -0.623 212 215 232
0.342903 -0.358354 -0.624 212 211 229
0.360731 -0.358354 -0.624 147 152 182
0.383929 -0.358929 -0.625 180 190 215
0.393452 -0.358929 -0.625 149 151 163
0.41131 -0.358929 -0.625 184 187 202
0.417262 -0.358929 -0.625 139 140 158
0.443473 -0.321026 -0.559 115 81 72
0.441357 -0.318729 -0.555 112 82 71
0.44204 -0.295183 -0.514 155 104 85
0.454143 -0.292886 -0.51 157 105 84
0.45698 -0.29346 -0.511 149 103 87
0.4608 -0.294034 -0.512 144 98 83
0.466443 -0.295757 -0.515 143 97 81
0.491973 -0.30552 -0.532 140 97 81
0.495767 -0.307243 -0.535 143 100 84
0.00631714 -0.347443 -0.603 198 162 140
0.0144076 -0.281181 -0.488 205 164 142
0.0680143 -0.304805 -0.529 133 102 108
0.0895714 -0.328429 -0.57 122 99 109
0.150595 -0.360119 -0.625 194 196 211
0.156548 -0.360119 -0.625 192 193 211
0.205556 -0.35839 -0.622 194 196 217
0.220958 -0.35839 -0.622 232 235 254
0.242284 -0.35839 -0.622 135 154 210
0.253353 -0.358967 -0.623 132 149 193
0.25454 -0.358967 -0.623 124 142 190
0.2759 -0.358967 -0.623 180 181 201
0.324553 -0.358967 -0.623 168 177 208
0.32574 -0.358967 -0.623 203 205 230
0.330487 -0.358967 -0.623 216 222 236
0.334047 -0.358967 -0.623 215 219 231
0.348846 -0.359543 -0.624 204 209 228
0.372617 -0.359543 -0.624 133 154 201
0.391071 -0.360119 -0.625 136 147 179
0.399405 -0.360119 -0.625 184 184 210
0.404709 -0.359543 -0.624 150 164 191
0.422537 -0.359543 -0.624 187 187 199
0.429669 -0.359543 -0.624 102 122 173
0.446309 -0.359543 -0.624 169 181 197
0.46782 -0.357814 -0.621 119 146 199
0.432182 -0.300195 -0.521 137 88 74
0.4366 -0.298467 -0.518 145 93 79
0.454143 -0.293857 -0.51 154 103 84
0.474933 -0.299619 -0.52 141 95 80
0.00619048 -0.289048 -0.5 201 163 140
0.0134505 -0.281532 -0.487 205 164 142
0.0153057 -0.281532 -0.487 204 163 141
0.0734067 -0.311593 -0.539 128 101 110
0.0747095 -0.31275 -0.541 127 100 109
0.0848 -0.323733 -0.56 127 101 110
0.0895714 -0.329514 -0.57 123 100 110
0.1375 -0.36131 -0.625 196 199 218
0.163429 -0.360731 -0.624 194 201 217
0.255316 -0.359575 -0.622 158 171 216
0.295598 -0.359575 -0.622 151 153 176
0.296783 -0.359575 -0.622 197 199 222
0.303891 -0.359575 -0.622 187 202 241
0.314554 -0.359575 -0.622 193 204 236
0.344727 -0.360153 -0.623 207 213 229
0.3471 -0.360153 -0.623 210 213 230
0.348287 -0.360153 -0.623 208 211 228
0.36192 -0.360731 -0.624 201 198 215
0.406433 -0.360153 -0.623 180 182 197
0.41184 -0.360731 -0.624 161 167 191
0.44678 -0.360153 -0.623 180 178 191
0.4539 -0.360153 -0.623 174 181 191
0.465483 -0.341654 -0.591 110 81 75
0.488274 -0.305234 -0.528 140 101 86
0.0106457 -0.28188 -0.486 205 164 142
0.0115714 -0.28188 -0.486 206 165 143
0.0227267 -0.28246 -0.487 208 167 147
0.0479029 -0.28884 -0.498 164 128 116
0.0863267 -0.32654 -0.563 126 103 113
0.119643 -0.3625 -0.625 114 136 183
0.124405 -0.3625 -0.625 165 177 219
0.149166 -0.36192 -0.624 174 175 193
0.160793 -0.36134 -0.623 193 196 211
0.178307 -0.36076 -0.622 79 104 160
0.180386 -0.36018 -0.621 78 103 159
0.189849 -0.36018 -0.621 137 154 198
0.241894 -0.36018 -0.621 143 155 205
0.282111 -0.36018 -0.621 240 244 255
0.2852 -0.3596 -0.62 234 237 254
0.287562 -0.3596 -0.62 237 239 255
0.290391 -0.36018 -0.621 218 220 243
0.29394 -0.36018 -0.621 148 150 175
0.321663 -0.36076 -0.622 183 193 220
0.331141 -0.36076 -0.622 209 214 233
0.35066 -0.36134 -0.623 199 198 214
0.351847 -0.36134 -0.623 204 203 219
0.41474 -0.36134 -0.623 73 88 127
0.4354 -0.36076 -0.622 100 132 183
0.449153 -0.36134 -0.623 168 166 177
0.459095 -0.36076 -0.622 76 97 144
0.463726 -0.29696 -0.512 141 95 79
0.00881238 -0.283388 -0.487 199 158 136
0.0199029 -0.282806 -0.486 198 157 137
0.0255619 -0.28397 -0.488 207 166 144
0.0545629 -0.295026 -0.507 147 112 110
0.0911343 -0.333431 -0.573 119 101 113
0.101433 -0.346233 -0.595 142 147 176
0.140846 -0.363109 -0.624 170 176 192
0.201352 -0.360781 -0.62 225 227 248
0.213162 -0.360781 -0.62 197 198 218
0.215524 -0.360781 -0.62 215 216 234
0.253314 -0.360781 -0.62 230 241 255
0.254495 -0.360781 -0.62 192 203 225
0.295829 -0.360781 -0.62 200 204 229
0.321146 -0.361363 -0.621 206 213 239
0.33588 -0.361945 -0.622 201 204 221
0.364314 -0.361945 -0.622 194 197 216
0.373207 -0.362527 -0.623 134 165 211
0.37558 -0.362527 -0.623 106 129 170
0.38626 -0.362527 -0.623 196 196 220
0.397488 -0.361945 -0.622 176 184 221
0.418813 -0.361945 -0.622 178 187 204
0.434215 -0.361945 -0.622 102 133 188
0.447248 -0.361945 -0.622 137 137 149
0.461906 -0.361363 -0.621 152 162 189
0.47179 -0.360781 -0.62 120 135 174
0.4325 -0.3055 -0.525 141 95 82
0.438846 -0.300263 -0.516 154 101 83
0.448314 -0.296771 -0.51 154 101 83
0.450257 -0.296771 -0.51 153 102 83
0.458029 -0.296771 -0.51 148 101 83
0.460873 -0.297353 -0.511 146 99 81
0.031139 -0.284899 -0.488 203 162 142
0.0320686 -0.284899 -0.488 200 159 139
0.0349286 -0.285483 -0.489 188 150 131
0.0568286 -0.297743 -0.51 144 110 108
0.0832848 -0.325182 -0.557 126 101 107
0.116511 -0.362546 -0.621 98 112 159
0.117884 -0.36313 -0.622 90 111 158
0.140846 -0.364297 -0.624 140 145 164
0.175371 -0.361962 -0.62 100 125 181
0.219067 -0.361962 -0.62 238 237 255
0.232862 -0.361378 -0.619 234 232 255
0.237962 -0.361962 -0.62 196 214 252
0.266305 -0.361962 -0.62 240 244 255
0.280024 -0.361378 -0.619 240 246 255
0.287098 -0.361378 -0.619 230 232 253
0.29701 -0.361962 -0.62 207 212 231
0.29819 -0.361962 -0.62 229 234 253
0.308819 -0.361962 -0.62 171 187 221
0.311181 -0.361962 -0.62 168 178 213
0.314724 -0.361962 -0.62 217 224 252
0.32181 -0.361962 -0.62 209 216 242
0.340071 -0.362546 -0.621 112 131 171
0.367869 -0.36313 -0.622 102 127 167
0.370238 -0.36313 -0.622 135 164 208
0.38801 -0.36313 -0.622 163 160 171
0.389194 -0.36313 -0.622 178 180 201
0.444878 -0.36313 -0.622 133 133 143
0.455991 -0.362546 -0.621 69 79 114
0.436457 -0.312922 -0.536 135 91 80
0.436742 -0.30183 -0.517 159 108 91
0.447247 -0.298327 -0.511 160 105 85
0.464701 -0.29891 -0.512 144 95 78
0.492222 -0.308835 -0.529 145 99 84
0.0417029 -0.288171 -0.492 177 140 122
0.0721114 -0.314529 -0.537 128 101 106
0.175371 -0.363143 -0.62 101 126 180
0.181276 -0.363143 -0.62 98 120 180
0.183638 -0.363143 -0.62 153 176 226
0.209281 -0.362557 -0.619 227 228 248
0.212818 -0.362557 -0.619 231 232 252
0.225788 -0.362557 -0.619 218 220 245
0.23522 -0.362557 -0.619 206 211 240
0.243473 -0.362557 -0.619 162 183 228
0.27177 -0.362557 -0.619 196 198 213
0.304784 -0.362557 -0.619 182 194 232
0.305963 -0.362557 -0.619 184 200 236
0.313037 -0.362557 -0.619 194 201 230
0.328895 -0.363143 -0.62 200 202 225
0.333619 -0.363143 -0.62 205 207 230
0.357814 -0.363729 -0.621 205 204 222
0.387386 -0.363729 -0.621 195 190 197
0.388569 -0.363729 -0.621 190 191 211
0.39739 -0.363143 -0.62 160 180 207
0.406838 -0.363143 -0.62 113 125 167
0.446529 -0.363729 -0.621 164 167 176
0.457619 -0.363143 -0.62 128 141 176
0.464705 -0.363143 -0.62 66 82 116
0.472237 -0.346157 -0.591 123 88 86
0.438086 -0.315114 -0.538 136 92 81
0.435466 -0.303986 -0.519 157 106 87
0.443134 -0.300471 -0.513 163 106 87
0.447247 -0.2993 -0.511 162 105 86
0.448314 -0.298714 -0.51 157 102 82
0.455191 -0.298129 -0.509 151 100 81
0.456161 -0.298129 -0.509 154 103 84
0.0832848 -0.327304 -0.557 123 100 106
0.0996257 -0.347283 -0.591 125 112 122
0.12282 -0.366087 -0.623 84 104 155
0.126177 -0.365499 -0.622 166 176 227
0.151057 -0.365499 -0.622 161 166 185
0.167374 -0.364911 -0.621 125 140 173
0.25132 -0.363149 -0.618 238 242 255
0.28428 -0.363149 -0.618 235 236 255
0.305469 -0.363149 -0.618 178 196 232
0.316063 -0.363149 -0.618 220 225 244
0.318417 -0.363149 -0.618 218 223 245
0.33426 -0.363736 -0.619 203 208 237
0.34779 -0.364324 -0.62 87 110 154
0.363143 -0.364324 -0.62 183 189 205
0.374952 -0.364324 -0.62 118 146 196
0.376133 -0.364324 -0.62 150 178 228
0.386762 -0.364324 -0.62 193 188 195
0.419829 -0.364324 -0.62 180 183 200
0.425733 -0.364324 -0.62 138 138 150
0.429276 -0.364324 -0.62 83 111 161
0.438724 -0.364324 -0.62 78 106 154
0.448171 -0.364324 -0.62 182 181 199
0.450533 -0.364324 -0.62 163 168 190
0.449286 -0.299686 -0.51 157 102 82
0.500943 -0.313789 -0.534 145 107 86
0.50957 -0.317902 -0.541 142 105 87
0.00600476 -0.285919 -0.485 201 163 140
0.0161 -0.28474 -0.483 203 162 140
0.0416181 -0.289456 -0.491 180 141 124
0.0446048 -0.290635 -0.493 168 130 117
0.0848 -0.330133 -0.56 123 102 109
0.0861733 -0.331312 -0.562 123 102 109
0.119069 -0.366684 -0.622 119 139 190
0.13684 -0.366684 -0.622 196 194 216
0.141579 -0.366684 -0.622 180 189 206
0.146318 -0.366684 -0.622 145 152 171
0.176268 -0.364915 -0.619 105 135 185
0.212474 -0.364326 -0.618 224 225 245
0.232486 -0.364326 -0.618 194 199 218
0.289696 -0.363736 -0.617 226 228 253
0.306646 -0.364326 -0.618 172 190 226
0.309 -0.364326 -0.618 144 166 205
0.31724 -0.364326 -0.618 217 223 239
0.34723 -0.364915 -0.619 71 94 144
0.363143 -0.365505 -0.62 189 196 215
0.364324 -0.365505 -0.62 151 158 177
0.406182 -0.364915 -0.619 162 175 207
0.407361 -0.364915 -0.619 150 163 195
0.42151 -0.364915 -0.619 186 188 203
0.426914 -0.365505 -0.62 122 144 181
0.430942 -0.364915 -0.619 111 141 191
0.44627 -0.364915 -0.619 176 177 195
0.449807 -0.364915 -0.619 131 137 161
0.453344 -0.364915 -0.619 161 167 191
0.467492 -0.364915 -0.619 164 166 191
0.481653 -0.363147 -0.616 134 130 153
0.474489 -0.348409 -0.591 114 89 92
0.441061 -0.303015 -0.514 170 109 90
0.443246 -0.301836 -0.512 165 108 89
0.470432 -0.303015 -0.514 138 91 73
0.4885 -0.3095 -0.525 151 98 84
0.0087219 -0.285069 -0.482 204 164 138
0.0123943 -0.285069 -0.482 204 164 138
0.019821 -0.286251 -0.484 203 162 140
0.0225867 -0.286251 -0.484 206 165 143
0.0395857 -0.289209 -0.489 184 143 125
0.0788076 -0.324103 -0.548 124 103 108
0.12459 -0.366686 -0.62 100 123 165
0.147266 -0.367277 -0.621 178 181 200
0.157657 -0.366686 -0.62 195 199 210
0.162381 -0.366686 -0.62 147 146 177
0.167105 -0.366686 -0.62 184 194 229
0.226233 -0.364911 -0.617 191 197 229
0.319077 -0.364911 -0.617 215 222 248
0.33372 -0.365503 -0.618 188 198 233
0.336074 -0.365503 -0.618 133 144 172
0.392033 -0.366094 -0.619 127 146 179
0.412077 -0.366094 -0.619 166 183 203
0.42033 -0.366094 -0.619 183 185 210
0.429763 -0.366094 -0.619 104 128 174
0.435658 -0.366094 -0.619 109 131 180
0.453344 -0.366094 -0.619 165 172 191
0.462029 -0.365503 -0.618 171 173 194
0.464383 -0.365503 -0.618 99 105 127
0.475384 -0.364911 -0.617 165 167 188
0.439103 -0.303994 -0.514 167 110 91
0.444327 -0.30222 -0.511 166 110 93
0.467627 -0.302811 -0.512 139 92 72
0.481867 -0.307543 -0.52 144 101 84
0.495245 -0.312866 -0.529 145 103 87
0.0580267 -0.303787 -0.512 135 105 105
0.0628952 -0.308533 -0.52 130 101 103
0.0667533 -0.312687 -0.527 127 101 104
0.0747095 -0.320993 -0.541 126 101 105
0.118686 -0.367867 -0.62 144 162 210
0.12341 -0.367867 -0.62 164 178 217
0.141351 -0.36846 -0.621 192 193 211
0.152687 -0.367273 -0.619 192 196 205
0.162119 -0.367273 -0.619 101 105 134
0.171551 -0.367273 -0.619 156 162 178
0.193327 -0.366087 -0.617 119 133 162
0.228584 -0.366087 -0.617 238 237 253
0.302133 -0.365493 -0.616 164 182 222
0.310347 -0.365493 -0.616 148 171 215
0.336074 -0.36668 -0.618 140 158 182
0.378451 -0.36668 -0.618 191 197 209
0.38316 -0.36668 -0.618 192 194 209
0.414943 -0.36668 -0.618 73 80 109
0.439663 -0.36668 -0.618 157 164 192
0.451434 -0.36668 -0.618 135 141 177
0.456143 -0.36668 -0.618 174 179 198
0.474209 -0.366087 -0.617 172 171 187
0.476559 -0.366087 -0.617 169 167 191
0.435314 -0.308533 -0.52 170 114 99
0.435897 -0.30616 -0.516 167 108 92
0.441295 -0.303787 -0.512 166 107 89
0.448405 -0.302007 -0.509 157 102 81
0.466713 -0.303193 -0.511 140 93 75
0.470494 -0.30438 -0.513 140 94 78
0.47429 -0.305567 -0.515 140 94 78
0.0114286 -0.285714 -0.48 202 162 136
0.0169848 -0.286905 -0.482 207 167 142
0.0271962 -0.288095 -0.484 203 162 140
0.0337886 -0.289286 -0.486 187 149 130
0.0446048 -0.293452 -0.493 165 127 116
0.0556381 -0.302381 -0.508 138 108 108
0.0895714 -0.339286 -0.57 118 101 111
0.0996257 -0.351786 -0.591 184 179 199
0.115949 -0.367857 -0.618 122 144 194
0.118686 -0.369048 -0.62 154 173 216
0.119867 -0.369048 -0.62 160 173 208
0.171274 -0.367857 -0.618 135 141 157
0.204747 -0.366667 -0.616 231 230 248
0.20592 -0.366667 -0.616 226 225 243
0.214133 -0.366667 -0.616 235 233 254
0.221173 -0.366667 -0.616 200 209 226
0.228213 -0.366667 -0.616 239 238 254
0.239947 -0.366667 -0.616 194 207 241
0.24464 -0.366667 -0.616 177 191 230
0.25872 -0.366667 -0.616 235 236 255
0.261067 -0.366667 -0.616 183 189 215
0.309173 -0.366667 -0.616 142 165 207
0.31856 -0.366667 -0.616 222 225 240
0.319733 -0.366667 -0.616 221 224 239
0.350809 -0.367262 -0.617 154 171 201
0.354334 -0.367262 -0.617 197 201 226
0.383715 -0.367262 -0.617 173 174 194
0.431423 -0.367857 -0.618 97 125 175
0.433777 -0.367857 -0.618 101 132 187
0.453789 -0.367857 -0.618 175 177 198
0.460106 -0.367262 -0.617 170 173 190
0.469508 -0.367262 -0.617 170 171 191
0.435314 -0.309524 -0.52 172 114 100
0.435897 -0.307143 -0.516 166 107 89
0.451313 -0.302976 -0.509 162 107 87
0.45907 -0.302976 -0.509 161 105 88
0.0215752 -0.287823 -0.482 201 160 138
0.02346 -0.28842 -0.483 198 157 135
0.0911343 -0.342163 -0.573 120 99 106
0.118494 -0.369631 -0.619 162 177 216
0.127927 -0.369631 -0.619 85 100 143
0.130285 -0.369631 -0.619 162 174 214
0.14915 -0.369631 -0.619 154 157 172
0.18128 -0.36784 -0.616 145 161 195
0.183627 -0.36784 -0.616 188 197 226
0.1848 -0.36784 -0.616 204 213 242
0.26224 -0.36784 -0.616 155 163 186
0.298129 -0.367243 -0.615 173 183 208
0.312186 -0.367243 -0.615 205 220 249
0.3157 -0.367243 -0.615 222 225 240
0.330293 -0.36784 -0.616 190 196 230
0.372566 -0.369034 -0.618 127 146 188
0.381365 -0.368437 -0.617 174 173 191
0.393653 -0.36784 -0.616 191 196 215
0.40722 -0.368437 -0.617 183 190 206
0.420148 -0.368437 -0.617 132 137 157
0.443652 -0.368437 -0.617 168 165 184
0.448353 -0.368437 -0.617 101 108 136
0.451434 -0.369034 -0.618 165 172 198
0.464807 -0.368437 -0.617 168 169 189
0.479307 -0.36784 -0.616 118 121 126
0.463857 -0.304543 -0.51 146 97 80
0.494376 -0.314694 -0.527 145 99 84
0.0104924 -0.286944 -0.479 201 160 138
0.02714 -0.28934 -0.483 201 160 140
0.0308838 -0.289939 -0.484 187 149 130
0.0424667 -0.293533 -0.49 168 130 117
0.0521124 -0.300722 -0.502 143 112 109
0.0567171 -0.304915 -0.509 134 106 103
0.0616667 -0.310307 -0.518 128 100 99
0.0802886 -0.330075 -0.551 122 103 109
0.081781 -0.331872 -0.554 122 101 106
0.0911343 -0.343254 -0.573 122 101 108
0.0944571 -0.347448 -0.58 122 105 113
0.118303 -0.370211 -0.618 160 174 211
0.12772 -0.370211 -0.618 91 103 143
0.2009 -0.368414 -0.615 210 215 237
0.206757 -0.368414 -0.615 191 192 213
0.224329 -0.368414 -0.615 234 232 253
0.231357 -0.368414 -0.615 234 236 255
0.237214 -0.368414 -0.615 175 186 214
0.253614 -0.368414 -0.615 240 242 255
0.260643 -0.368414 -0.615 205 213 234
0.329757 -0.368414 -0.615 202 206 235
0.3321 -0.368414 -0.615 203 209 231
0.346157 -0.368414 -0.615 198 200 221
0.358453 -0.369013 -0.616 199 203 228
0.375489 -0.369612 -0.617 189 195 217
0.3784 -0.369013 -0.616 195 196 216
0.383093 -0.369013 -0.616 107 113 139
0.390133 -0.369013 -0.616 189 195 211
0.446003 -0.369612 -0.617 65 67 90
0.4664 -0.369013 -0.616 170 175 195
0.468747 -0.369013 -0.616 166 169 188
0.44238 -0.306113 -0.511 173 116 97
0.452283 -0.304915 -0.509 165 108 91
0.484838 -0.311505 -0.52 149 103 87
0.00682857 -0.287255 -0.478 208 165 146
0.0243295 -0.289659 -0.482 199 158 136
0.0346429 -0.291462 -0.485 182 143 126
0.0555286 -0.304683 -0.507 134 106 105
0.0694133 -0.319707 -0.532 127 102 105
0.0996257 -0.355163 -0.591 188 185 204
0.121834 -0.371389 -0.618 192 198 214
0.123988 -0.370788 -0.617 186 188 213
0.139491 -0.371389 -0.618 186 191 210
0.153369 -0.370788 -0.617 187 192 212
0.15664 -0.370187 -0.616 159 165 187
0.166027 -0.370187 -0.616 202 205 222
0.1845 -0.369586 -0.615 208 219 249
0.254371 -0.368985 -0.614 240 239 253
0.285949 -0.368985 -0.614 225 234 255
0.33156 -0.368985 -0.614 208 213 233
0.358453 -0.370187 -0.616 197 203 227
0.418293 -0.370187 -0.616 73 78 108
0.44176 -0.370187 -0.616 138 147 180
0.468747 -0.370187 -0.616 157 162 184
0.46992 -0.370187 -0.616 166 167 185
0.473843 -0.369586 -0.615 144 141 148
0.478529 -0.369586 -0.615 151 149 150
0.487107 -0.368985 -0.614 48 69 124
0.437331 -0.316101 -0.526 168 111 92
0.436151 -0.313096 -0.521 172 115 96
0.456232 -0.305284 -0.508 171 115 92
0.466771 -0.306486 -0.51 148 101 81
0.4925 -0.3155 -0.525 149 106 90
0.00590571 -0.287563 -0.477 203 162 142
0.011381 -0.288166 -0.478 201 163 140
0.0187429 -0.289371 -0.48 203 162 142
0.0346429 -0.292386 -0.485 185 144 126
0.0365657 -0.292989 -0.486 183 141 125
0.0374914 -0.292989 -0.486 182 140 124
0.0832848 -0.335791 -0.557 122 101 106
0.0895714 -0.343629 -0.57 119 102 112
0.116936 -0.371963 -0.617 153 164 194
0.120462 -0.371963 -0.617 192 200 223
0.175129 -0.370757 -0.615 150 169 201
0.1845 -0.370757 -0.615 203 217 246
0.18537 -0.370154 -0.614 214 219 241
0.191217 -0.370154 -0.614 222 218 235
0.230981 -0.370154 -0.614 237 239 255
0.276592 -0.370154 -0.614 223 229 255
0.304661 -0.370154 -0.614 191 204 238
0.30817 -0.370154 -0.614 152 171 204
0.37488 -0.37136 -0.616 176 182 204
0.4059 -0.370757 -0.615 189 192 209
0.437529 -0.370757 -0.615 87 110 160
0.460957 -0.370757 -0.615 142 150 171
0.441949 -0.321926 -0.534 152 104 94
0.447435 -0.306854 -0.509 172 114 92
0.455265 -0.306251 -0.508 174 118 95
0.456232 -0.306251 -0.508 171 115 92
-0.00139143 -0.294519 -0.487 201 163 142
0.00590571 -0.288471 -0.477 203 162 142
0.016879 -0.289681 -0.479 204 166 145
0.0224 -0.290286 -0.48 200 159 139
0.02892 -0.291495 -0.482 193 152 134
0.03174 -0.2921 -0.483 188 147 129
0.0520086 -0.302986 -0.501 141 110 108
0.0603286 -0.311452 -0.515 128 102 105
0.0895714 -0.344714 -0.57 121 102 106
0.0911343 -0.346529 -0.573 122 103 109
0.101433 -0.359833 -0.595 176 177 208
0.118111 -0.373138 -0.617 161 168 197
0.179522 -0.371324 -0.614 136 154 190
0.181861 -0.371324 -0.614 150 170 203
0.18303 -0.371324 -0.614 191 205 232
0.274974 -0.370719 -0.613 221 227 255
0.315841 -0.370719 -0.613 216 220 245
0.322847 -0.370719 -0.613 176 180 192
0.33102 -0.370719 -0.613 210 216 232
0.347933 -0.371324 -0.614 198 207 224
0.360214 -0.371929 -0.615 161 160 176
0.434014 -0.371929 -0.615 44 82 145
0.437529 -0.371929 -0.615 59 91 150
0.439871 -0.371929 -0.615 46 76 136
0.443386 -0.371929 -0.615 89 110 157
0.447627 -0.372533 -0.616 168 174 196
0.448071 -0.371929 -0.615 155 153 164
0.453929 -0.371929 -0.615 185 178 186
0.4551 -0.371929 -0.615 181 179 192
0.470733 -0.371324 -0.614 153 148 155
0.481259 -0.371324 -0.614 146 151 173
0.451448 -0.33141 -0.548 134 100 101
0.437983 -0.315686 -0.522 170 113 93
0.437271 -0.310243 -0.513 178 120 98
0.442588 -0.307824 -0.509 177 119 97
0.477286 -0.310848 -0.514 146 103 86
0.0393429 -0.29484 -0.486 174 132 118
0.0543476 -0.306367 -0.505 135 104 102
0.0628952 -0.315467 -0.52 127 101 104
0.070559 -0.323353 -0.533 124 101 107
0.0747095 -0.328207 -0.541 124 101 107
0.081781 -0.336093 -0.554 119 103 106
0.0944571 -0.351867 -0.58 122 105 123
0.132 -0.373707 -0.616 96 114 136
0.134347 -0.373707 -0.616 134 151 179
0.1517 -0.3731 -0.615 126 142 176
0.306 -0.37128 -0.612 161 177 210
0.308331 -0.37128 -0.612 180 196 229
0.317657 -0.37128 -0.612 164 169 201
0.344425 -0.372493 -0.614 206 211 230
0.363137 -0.372493 -0.614 168 169 197
0.3649 -0.3731 -0.615 145 163 213
0.377171 -0.372493 -0.614 168 181 226
0.397574 -0.371887 -0.613 133 140 159
0.40524 -0.372493 -0.614 190 189 207
0.419274 -0.372493 -0.614 97 105 141
0.432139 -0.372493 -0.614 34 68 129
0.439156 -0.372493 -0.614 30 65 131
0.466055 -0.372493 -0.614 126 136 161
0.467225 -0.372493 -0.614 127 137 162
0.471903 -0.372493 -0.614 111 105 105
0.483978 -0.371887 -0.613 70 85 124
0.486313 -0.371887 -0.613 39 65 124
0.437727 -0.313647 -0.517 176 119 99
0.437145 -0.311827 -0.514 177 119 95
0.440649 -0.308793 -0.509 181 120 99
0.4572 -0.308187 -0.508 171 117 93
0.460103 -0.308187 -0.508 164 109 88
-0.00045619 -0.291506 -0.479 198 161 135
0.0150229 -0.290897 -0.478 200 163 136
0.0205286 -0.291506 -0.479 197 157 132
0.0383381 -0.295157 -0.485 174 132 118
0.0475181 -0.300634 -0.494 150 115 109
0.07748 -0.33228 -0.546 124 102 104
0.0802886 -0.335323 -0.551 122 102 101
0.0895714 -0.346886 -0.57 122 103 107
0.0911343 -0.348711 -0.573 123 103 105
0.116747 -0.37488 -0.616 126 135 168
0.131786 -0.374271 -0.615 72 89 115
0.155214 -0.374271 -0.615 157 165 201
0.157557 -0.374271 -0.615 199 202 217
0.161979 -0.373663 -0.614 198 203 222
0.167553 -0.373054 -0.613 168 174 196
0.234891 -0.372446 -0.612 174 193 226
0.364307 -0.373663 -0.614 133 162 220
0.365476 -0.373663 -0.614 87 116 174
0.371887 -0.373054 -0.613 107 134 187
0.382395 -0.373054 -0.613 191 201 213
0.39991 -0.373054 -0.613 148 160 186
0.405748 -0.373054 -0.613 187 192 214
0.425122 -0.373663 -0.614 47 82 148
0.446173 -0.373663 -0.614 156 166 193
0.460626 -0.373054 -0.613 136 150 176
0.492067 -0.371229 -0.61 46 66 119
0.446284 -0.327411 -0.538 155 107 87
0.438431 -0.315849 -0.519 170 114 97
0.437145 -0.312806 -0.514 181 121 95
0.463973 -0.309154 -0.508 164 112 91
0.470704 -0.309763 -0.509 150 103 87
0.504133 -0.32376 -0.532 147 105 89
-0.00137143 -0.293029 -0.48 196 159 132
0.000454286 -0.291197 -0.477 199 162 135
0.0186257 -0.291197 -0.477 198 158 132
0.0260029 -0.292418 -0.479 193 156 130
0.0433114 -0.298523 -0.489 163 123 113
0.0530686 -0.306459 -0.502 136 106 104
0.0578 -0.311343 -0.51 133 104 100
0.0641314 -0.318669 -0.522 130 102 101
0.0719771 -0.327215 -0.536 125 103 105
0.112675 -0.374222 -0.613 126 140 167
0.117729 -0.375443 -0.615 145 154 185
0.137419 -0.374832 -0.614 118 125 167
0.190594 -0.373611 -0.612 219 220 240
0.276857 -0.373611 -0.612 232 234 255
0.298517 -0.373001 -0.611 160 167 195
0.3055 -0.373001 -0.611 155 173 219
0.321793 -0.373001 -0.611 214 218 230
0.349131 -0.373611 -0.612 199 206 222
0.382937 -0.373611 -0.612 200 200 210
0.40458 -0.374222 -0.613 156 161 183
