ply
format ascii 1.0
comment Created by Open3D
element vertex 1295
property double x
property double y
property double z
property uchar red
property uchar green
property uchar blue
end_header
-0.00824 -0.344903 -0.412 152 106 83
-0.00276667 -0.347414 -0.415 142 101 83
0.00683238 -0.353274 -0.422 127 91 77
0.0186429 -0.364157 -0.435 104 79 72
0.0203933 -0.365831 -0.437 102 79 71
0.0249486 -0.371691 -0.444 99 76 70
0.444783 -0.463777 -0.554 185 189 188
0.445838 -0.463777 -0.554 184 186 185
0.45217 -0.463777 -0.554 180 181 186
0.463777 -0.463777 -0.554 173 173 175
0.466943 -0.463777 -0.554 171 177 173
0.492812 -0.466289 -0.557 148 146 151
0.4843 -0.419409 -0.501 150 108 84
0.48574 -0.409363 -0.489 162 121 93
0.48731 -0.406014 -0.485 169 124 95
0.508187 -0.39848 -0.476 174 125 93
0.536271 -0.406014 -0.485 144 107 81
-0.327176 -0.453925 -0.541 223 224 216
-0.325115 -0.453925 -0.541 224 225 217
-0.307029 -0.453086 -0.54 224 225 217
-0.286988 -0.453925 -0.541 226 227 221
-0.2844 -0.453086 -0.54 225 226 220
-0.281314 -0.453086 -0.54 226 227 221
-0.258134 -0.453925 -0.541 227 228 220
-0.24783 -0.453925 -0.541 226 227 219
-0.211763 -0.453925 -0.541 226 227 219
-0.203519 -0.453925 -0.541 228 229 221
-0.194245 -0.453925 -0.541 227 228 220
-0.0653057 -0.336458 -0.401 182 140 102
-0.0623857 -0.333102 -0.397 181 141 105
-0.0598143 -0.331424 -0.395 186 144 106
-0.0574114 -0.330585 -0.394 186 144 106
-0.0471429 -0.332263 -0.396 185 141 104
-0.0463886 -0.332263 -0.396 186 142 105
-0.0442371 -0.333102 -0.397 185 141 104
-0.0317771 -0.337297 -0.402 177 133 98
-0.0250095 -0.338975 -0.404 173 130 95
-0.00512571 -0.347366 -0.414 147 102 81
0.00359143 -0.351561 -0.419 133 96 80
0.0186429 -0.364986 -0.435 104 79 72
0.0249486 -0.372537 -0.444 99 76 68
0.0324286 -0.380928 -0.454 94 75 71
0.0460752 -0.401904 -0.479 87 70 62
0.0485 -0.406938 -0.485 83 71 73
0.390948 -0.462315 -0.551 170 173 178
0.40112 -0.463154 -0.552 181 182 186
0.40848 -0.463154 -0.552 191 191 193
0.444529 -0.465671 -0.555 189 191 190
0.45217 -0.464832 -0.554 186 186 186
0.482006 -0.468189 -0.558 158 156 159
0.493827 -0.434627 -0.518 122 96 83
0.483246 -0.416168 -0.496 156 111 88
0.486463 -0.407777 -0.486 169 124 93
0.501986 -0.400226 -0.477 178 129 97
0.50184 -0.399387 -0.476 177 128 96
0.519973 -0.399387 -0.476 165 115 88
-0.308057 -0.454114 -0.54 225 226 218
-0.2916 -0.454114 -0.54 225 226 218
-0.274114 -0.454114 -0.54 226 227 219
-0.264857 -0.454114 -0.54 226 227 221
-0.221657 -0.454114 -0.54 228 230 219
-0.217543 -0.454114 -0.54 228 230 219
-0.03838 -0.33554 -0.399 180 136 101
-0.0219857 -0.340586 -0.405 170 125 94
-0.0181733 -0.341427 -0.406 164 117 89
-0.0113238 -0.34479 -0.41 155 110 87
-0.00824 -0.346472 -0.412 152 107 86
-0.00747333 -0.347313 -0.413 150 105 84
-0.00512571 -0.348154 -0.414 144 102 80
0.037481 -0.389361 -0.463 92 74 70
0.0395838 -0.392725 -0.467 94 69 72
0.0461714 -0.403657 -0.48 85 71 60
0.348967 -0.463365 -0.551 93 120 150
0.38465 -0.463365 -0.551 185 186 191
0.399017 -0.464206 -0.552 192 193 197
0.405007 -0.465047 -0.553 192 191 196
0.436341 -0.465888 -0.554 193 193 193
0.4477 -0.466729 -0.555 184 184 184
0.456157 -0.466729 -0.555 173 173 173
0.460386 -0.466729 -0.555 170 169 167
0.465671 -0.466729 -0.555 165 164 162
0.48287 -0.470092 -0.559 151 149 150
0.488871 -0.471774 -0.561 147 145 146
0.48994 -0.471774 -0.561 145 143 144
0.526347 -0.477661 -0.568 72 63 66
0.500343 -0.444023 -0.528 111 87 77
0.488164 -0.427204 -0.508 131 97 85
0.48314 -0.41459 -0.493 156 117 86
0.484034 -0.413749 -0.492 161 120 90
0.492558 -0.405339 -0.482 174 127 97
0.498486 -0.401975 -0.478 177 128 98
0.509663 -0.398611 -0.474 173 127 94
0.514177 -0.398611 -0.474 167 118 86
-0.32186 -0.4543 -0.539 224 225 217
-0.317314 -0.455143 -0.54 223 224 216
-0.313647 -0.4543 -0.539 224 225 217
-0.308513 -0.4543 -0.539 225 226 218
-0.2849 -0.4543 -0.539 225 226 218
-0.2695 -0.4543 -0.539 225 226 218
-0.267447 -0.4543 -0.539 226 227 219
-0.257657 -0.455143 -0.54 226 227 219
-0.253543 -0.455143 -0.54 225 226 218
-0.217543 -0.455143 -0.54 228 230 219
-0.210343 -0.455143 -0.54 228 229 221
-0.049281 -0.332929 -0.395 183 139 102
-0.0405581 -0.335457 -0.398 179 135 98
-0.0302457 -0.338829 -0.402 177 133 98
-0.0264829 -0.339671 -0.403 172 127 96
-0.0182181 -0.343043 -0.407 163 116 90
-0.0105686 -0.346414 -0.411 153 107 84
-0.00668667 -0.3481 -0.413 148 103 82
0.00199524 -0.353157 -0.419 134 95 78
0.0126362 -0.360743 -0.428 114 84 73
0.0178143 -0.366643 -0.435 105 81 71
0.360511 -0.464414 -0.551 183 183 185
0.394473 -0.4661 -0.553 188 188 190
0.431065 -0.466943 -0.554 180 180 180
0.473503 -0.470314 -0.558 147 142 146
0.485238 -0.421429 -0.5 150 108 84
0.486463 -0.409629 -0.486 166 121 88
0.499396 -0.402886 -0.478 177 128 96
0.516886 -0.399514 -0.474 166 117 87
0.532765 -0.405414 -0.481 146 107 78
0.5359 -0.4071 -0.483 142 106 80
-0.316727 -0.455327 -0.539 223 225 214
-0.30954 -0.455327 -0.539 225 226 218
-0.301792 -0.454482 -0.538 224 226 215
-0.300768 -0.454482 -0.538 225 227 216
-0.299743 -0.454482 -0.538 225 227 216
-0.285927 -0.455327 -0.539 225 226 218
-0.277713 -0.455327 -0.539 226 227 219
-0.274633 -0.455327 -0.539 225 226 218
-0.265393 -0.455327 -0.539 226 227 219
-0.254571 -0.456171 -0.54 226 227 219
-0.249993 -0.455327 -0.539 227 228 220
-0.246913 -0.455327 -0.539 225 226 218
-0.229886 -0.456171 -0.54 226 228 217
-0.216113 -0.455327 -0.539 227 229 218
-0.0629829 -0.334526 -0.396 179 139 103
-0.0500333 -0.333681 -0.395 184 140 101
-0.0463886 -0.334526 -0.396 183 139 102
-0.0361 -0.33706 -0.399 177 134 99
-0.0279486 -0.339594 -0.402 177 132 99
-0.0272505 -0.340439 -0.403 172 127 96
-0.0136333 -0.345508 -0.409 159 111 88
0.011821 -0.361558 -0.428 114 84 73
0.0143667 -0.364092 -0.431 109 82 73
0.348967 -0.465464 -0.551 188 186 189
0.351066 -0.465464 -0.551 188 183 189
0.357363 -0.465464 -0.551 184 185 189
0.383246 -0.466309 -0.552 184 185 189
0.404684 -0.467998 -0.554 182 182 184
0.40785 -0.467998 -0.554 178 179 183
0.40922 -0.467153 -0.553 177 178 180
0.427899 -0.467998 -0.554 170 170 170
0.46735 -0.470532 -0.557 123 121 122
0.53239 -0.482359 -0.571 47 41 45
0.527871 -0.47729 -0.565 69 63 67
0.484079 -0.416468 -0.493 162 118 89
0.506954 -0.400417 -0.474 175 126 94
0.50876 -0.400417 -0.474 176 127 95
0.538853 -0.408865 -0.484 141 107 79
0.547214 -0.413089 -0.489 139 105 78
-0.305891 -0.455507 -0.538 224 226 215
-0.279767 -0.456353 -0.539 225 226 220
-0.2695 -0.456353 -0.539 226 227 219
-0.230487 -0.456353 -0.539 227 229 218
-0.221247 -0.456353 -0.539 226 228 217
-0.0666667 -0.338667 -0.4 183 140 105
-0.05516 -0.333587 -0.394 189 147 107
-0.0382838 -0.336973 -0.398 175 132 97
-0.0324619 -0.339513 -0.401 176 132 97
0.00279333 -0.354753 -0.419 131 93 80
0.02682 -0.37846 -0.447 97 77 70
0.0325714 -0.38608 -0.456 95 76 70
0.04082 -0.39878 -0.471 84 73 71
0.348967 -0.466513 -0.551 184 182 185
0.359063 -0.46736 -0.552 185 186 191
0.381833 -0.468207 -0.553 181 180 175
0.4033 -0.4699 -0.555 172 172 172
0.406471 -0.4699 -0.555 168 168 168
0.416291 -0.469053 -0.554 165 163 164
0.425789 -0.469053 -0.554 157 155 156
0.47989 -0.476673 -0.563 82 80 81
0.483986 -0.415713 -0.491 161 117 88
0.485537 -0.41148 -0.486 166 121 90
0.486386 -0.410633 -0.485 169 124 93
0.493476 -0.408093 -0.482 168 121 91
0.494967 -0.405553 -0.479 177 128 98
0.500933 -0.403013 -0.476 171 122 90
0.505149 -0.40132 -0.474 173 124 92
0.507857 -0.40132 -0.474 177 128 96
0.551323 -0.415713 -0.491 140 107 76
-0.319213 -0.456531 -0.538 224 225 217
-0.306346 -0.455683 -0.537 225 226 218
-0.259777 -0.456531 -0.538 226 227 219
-0.258752 -0.456531 -0.538 226 227 219
-0.253629 -0.456531 -0.538 225 226 218
-0.245887 -0.45738 -0.539 227 229 218
-0.242807 -0.45738 -0.539 227 229 218
-0.239727 -0.45738 -0.539 226 228 217
-0.23562 -0.45738 -0.539 226 228 217
-0.225353 -0.45738 -0.539 226 228 217
-0.0654105 -0.336883 -0.397 183 140 105
-0.0574114 -0.334337 -0.394 189 147 107
-0.053659 -0.334337 -0.394 188 146 106
-0.0412124 -0.336883 -0.397 180 138 100
-0.03686 -0.33858 -0.399 177 134 99
-0.0331429 -0.339429 -0.4 177 133 98
-0.0309343 -0.340277 -0.401 175 130 97
-0.0302457 -0.341126 -0.402 176 131 98
-0.0257152 -0.341974 -0.403 169 124 95
-0.0182181 -0.345369 -0.407 163 116 90
-0.0128857 -0.347914 -0.41 153 109 84
-0.00978571 -0.348763 -0.411 147 105 80
0.00279333 -0.355551 -0.419 131 94 75
0.0036 -0.3564 -0.42 132 95 76
0.0126657 -0.364037 -0.429 112 84 73
0.0196057 -0.371674 -0.438 102 78 68
0.339521 -0.467563 -0.551 188 189 193
0.34224 -0.468411 -0.552 185 186 190
0.3496 -0.468411 -0.552 184 185 189
0.370629 -0.468411 -0.552 178 179 181
0.373783 -0.468411 -0.552 173 175 174
0.38991 -0.470109 -0.554 170 170 170
0.424443 -0.470957 -0.555 127 125 126
0.428954 -0.470109 -0.554 120 118 119
0.455679 -0.472654 -0.557 79 77 78
0.462045 -0.472654 -0.557 69 69 71
0.502298 -0.448894 -0.529 106 83 75
0.484157 -0.420043 -0.495 152 112 87
0.488149 -0.410709 -0.484 170 123 93
0.494171 -0.407314 -0.48 174 125 95
0.504246 -0.402223 -0.474 173 124 92
0.506786 -0.401374 -0.473 177 128 96
-0.316574 -0.456706 -0.537 225 226 218
-0.218787 -0.457556 -0.538 226 227 219
-0.167549 -0.457556 -0.538 230 231 223
-0.0580143 -0.334237 -0.393 187 145 105
-0.043481 -0.337639 -0.397 182 138 101
-0.0301705 -0.341041 -0.401 175 130 97
-0.0174429 -0.346144 -0.407 163 116 90
-0.0113514 -0.349546 -0.411 147 105 80
-0.00902476 -0.350396 -0.412 147 105 81
0.00279333 -0.35635 -0.419 130 95 75
0.00441048 -0.35805 -0.421 130 95 76
0.0101429 -0.362303 -0.426 115 87 75
0.011821 -0.364004 -0.428 113 85 73
0.0126657 -0.364854 -0.429 111 85 72
0.03564 -0.39292 -0.462 92 73 69
0.329476 -0.467762 -0.55 184 182 185
0.341189 -0.469463 -0.552 178 182 185
0.36353 -0.471164 -0.554 165 170 166
0.37446 -0.470313 -0.553 166 165 163
0.410794 -0.474566 -0.558 123 121 122
0.419912 -0.472865 -0.556 103 101 102
0.436582 -0.473715 -0.557 79 77 80
0.440554 -0.474566 -0.558 71 69 72
0.480291 -0.48137 -0.566 54 52 57
0.532543 -0.484771 -0.57 29 29 37
0.484971 -0.418434 -0.492 159 118 90
0.484747 -0.415032 -0.488 159 115 88
0.492452 -0.409079 -0.481 173 124 94
0.50931 -0.401425 -0.472 173 122 93
0.515604 -0.401425 -0.472 166 121 88
-0.319643 -0.457729 -0.537 224 225 217
-0.285889 -0.457729 -0.537 225 226 218
-0.269523 -0.457729 -0.537 224 225 217
-0.258271 -0.457729 -0.537 226 227 221
-0.256226 -0.457729 -0.537 226 227 221
-0.242356 -0.458581 -0.538 226 227 219
-0.230059 -0.458581 -0.538 226 228 217
-0.212638 -0.458581 -0.538 226 227 219
-0.0635762 -0.33669 -0.395 182 142 106
-0.0628238 -0.33669 -0.395 183 143 107
-0.0580143 -0.334986 -0.393 186 144 104
-0.0565171 -0.334986 -0.393 187 145 105
-0.0456343 -0.337543 -0.396 183 139 102
-0.0419686 -0.338395 -0.397 180 138 100
-0.0287143 -0.342657 -0.402 174 129 96
-0.01972 -0.346067 -0.406 163 116 88
-0.0174429 -0.346919 -0.407 161 114 88
0.00199524 -0.357148 -0.419 132 95 76
0.01098 -0.363967 -0.427 112 86 73
0.0241029 -0.378457 -0.444 98 75 67
0.323778 -0.469662 -0.551 183 184 188
0.331125 -0.469662 -0.551 175 173 178
0.344535 -0.472219 -0.554 169 167 170
0.351922 -0.472219 -0.554 171 169 170
0.354032 -0.472219 -0.554 168 167 163
0.37755 -0.473924 -0.556 150 144 146
0.382473 -0.474776 -0.557 142 133 134
0.400533 -0.477333 -0.56 112 110 113
0.409067 -0.477333 -0.56 96 92 93
0.412595 -0.476481 -0.559 87 85 86
0.419297 -0.475629 -0.558 72 70 71
0.427033 -0.474776 -0.557 61 60 66
0.431277 -0.474776 -0.557 61 60 66
0.432338 -0.474776 -0.557 59 58 64
0.447467 -0.477333 -0.56 56 55 61
0.469637 -0.478186 -0.561 53 51 54
0.528011 -0.480743 -0.564 35 32 41
0.485061 -0.421076 -0.494 159 115 88
0.485462 -0.413405 -0.485 170 123 95
0.492343 -0.409143 -0.48 172 123 91
0.500786 -0.404881 -0.475 173 124 92
0.513614 -0.401471 -0.471 169 122 92
0.528133 -0.405733 -0.476 150 111 82
0.538262 -0.409995 -0.481 147 110 84
0.546433 -0.413405 -0.485 141 104 77
0.552602 -0.415962 -0.488 137 100 74
-0.321689 -0.458751 -0.537 223 225 214
-0.315985 -0.457897 -0.536 223 225 214
-0.304754 -0.457897 -0.536 222 224 213
-0.290461 -0.457897 -0.536 224 226 215
-0.27923 -0.457897 -0.536 226 228 217
-0.272084 -0.457897 -0.536 225 226 218
-0.258271 -0.458751 -0.537 225 226 220
-0.251111 -0.458751 -0.537 226 227 219
-0.234746 -0.458751 -0.537 227 229 218
-0.221449 -0.458751 -0.537 226 227 219
-0.209174 -0.458751 -0.537 228 230 219
-0.179511 -0.458751 -0.537 227 229 218
-0.17542 -0.458751 -0.537 229 231 220
-0.097501 -0.457897 -0.536 178 142 108
-0.0521581 -0.336589 -0.394 184 140 101
-0.0249476 -0.344277 -0.403 167 122 89
-0.00591429 -0.353674 -0.414 143 102 80
-0.00276667 -0.354529 -0.415 140 99 79
0.000398095 -0.357091 -0.418 134 97 78
0.00199524 -0.357946 -0.419 130 95 76
0.0036 -0.3588 -0.42 127 94 75
0.0101667 -0.36478 -0.427 113 87 74
0.0144 -0.369051 -0.432 105 82 68
0.0196057 -0.374177 -0.438 101 79 65
0.04462 -0.41262 -0.483 80 71 74
0.0470371 -0.417746 -0.489 82 85 104
0.314332 -0.470711 -0.551 177 176 181
0.322729 -0.470711 -0.551 173 173 175
0.344535 -0.473274 -0.554 162 160 163
0.348329 -0.474129 -0.555 162 160 163
0.361665 -0.474983 -0.556 142 140 143
0.384533 -0.4784 -0.56 114 109 113
0.40232 -0.481817 -0.564 81 79 84
0.428567 -0.477546 -0.559 64 62 67
0.469167 -0.480963 -0.563 57 57 59
0.506443 -0.499757 -0.585 53 54 59
0.492983 -0.437394 -0.512 127 96 78
0.486386 -0.414329 -0.485 170 120 93
0.488886 -0.411766 -0.482 167 120 90
0.491536 -0.410911 -0.481 175 126 96
0.508411 -0.403223 -0.472 170 121 89
0.509129 -0.402369 -0.471 175 126 96
0.520099 -0.403223 -0.472 163 116 86
0.535111 -0.409203 -0.479 147 107 81
0.556529 -0.417746 -0.489 128 97 77
-0.32211 -0.458918 -0.536 223 225 214
-0.312922 -0.458918 -0.536 222 224 211
-0.308838 -0.458918 -0.536 221 223 212
-0.292503 -0.458918 -0.536 223 224 216
-0.291482 -0.458918 -0.536 224 225 217
-0.286377 -0.458918 -0.536 225 227 216
-0.257249 -0.459774 -0.537 225 226 220
-0.253157 -0.459774 -0.537 226 227 219
-0.252134 -0.459774 -0.537 226 227 219
-0.0652457 -0.339051 -0.396 188 140 102
-0.053659 -0.337339 -0.394 185 141 102
-0.0514076 -0.337339 -0.394 184 140 101
-0.03382 -0.34162 -0.399 176 132 97
-0.0257152 -0.345045 -0.403 169 124 91
-0.0174429 -0.34847 -0.407 159 112 86
-0.0151543 -0.349326 -0.408 155 111 84
-0.0128857 -0.351038 -0.41 151 107 82
-0.00747333 -0.353607 -0.413 145 105 80
-0.00119143 -0.357031 -0.417 133 96 77
0.254168 -0.469192 -0.548 178 179 181
0.259387 -0.469192 -0.548 180 181 183
0.280263 -0.469192 -0.548 182 182 184
0.315473 -0.473473 -0.553 167 167 169
0.34534 -0.476898 -0.557 140 138 143
0.350211 -0.477754 -0.558 134 132 137
0.355098 -0.47861 -0.559 129 124 128
0.361487 -0.47861 -0.559 115 113 116
0.363616 -0.47861 -0.559 110 108 111
0.386977 -0.481179 -0.562 74 72 77
0.423806 -0.482891 -0.564 60 59 65
0.45737 -0.482035 -0.563 58 59 64
0.458443 -0.482035 -0.563 58 59 64
0.489874 -0.493166 -0.576 45 46 51
0.500545 -0.448644 -0.524 107 83 71
0.48815 -0.430664 -0.503 140 102 79
0.486305 -0.414396 -0.484 170 120 93
0.491536 -0.411828 -0.481 174 127 97
0.494171 -0.410971 -0.48 170 121 89
0.502281 -0.404978 -0.473 173 124 92
0.525914 -0.405834 -0.474 150 109 81
0.530853 -0.407547 -0.476 147 107 81
0.550129 -0.415252 -0.485 139 99 74
-0.319048 -0.459939 -0.536 225 226 218
-0.289919 -0.459081 -0.535 225 227 216
-0.287881 -0.459081 -0.535 225 227 216
-0.280748 -0.459081 -0.535 225 227 216
-0.272595 -0.459081 -0.535 226 227 219
-0.25779 -0.459939 -0.536 225 226 220
-0.211848 -0.459939 -0.536 226 228 217
-0.204701 -0.459939 -0.536 226 228 217
-0.162842 -0.459939 -0.536 230 231 223
-0.0947467 -0.456507 -0.532 180 138 100
-0.0405581 -0.341522 -0.398 177 135 97
-0.0301705 -0.344096 -0.401 173 129 94
-0.0105943 -0.353535 -0.412 147 105 81
-0.00902476 -0.353535 -0.412 145 104 82
-0.00198095 -0.356968 -0.416 131 96 76
0.0110057 -0.367265 -0.428 112 85 74
0.0318419 -0.393008 -0.458 92 73 67
0.0462 -0.420467 -0.49 70 85 118
0.266134 -0.471094 -0.549 182 182 184
0.304887 -0.47281 -0.551 163 161 162
0.314989 -0.475385 -0.554 155 155 157
0.322957 -0.476243 -0.555 144 143 148
0.327775 -0.477101 -0.556 137 136 141
0.33473 -0.477959 -0.557 127 126 131
0.341256 -0.479675 -0.559 119 116 123
0.353792 -0.48225 -0.562 100 98 103
0.37895 -0.485682 -0.566 67 66 71
0.3861 -0.48654 -0.567 63 62 68
0.438846 -0.483966 -0.564 58 59 64
0.478257 -0.489114 -0.57 30 30 38
0.489626 -0.495121 -0.577 23 22 30
0.515222 -0.469378 -0.547 84 76 73
0.485018 -0.423041 -0.493 152 111 83
0.486386 -0.416176 -0.485 162 117 88
0.494171 -0.411886 -0.48 172 123 91
0.502281 -0.405879 -0.473 173 124 91
0.522796 -0.405021 -0.472 154 113 85
0.533786 -0.409311 -0.477 150 108 83
0.537636 -0.41017 -0.478 147 107 82
-0.297052 -0.4601 -0.535 224 226 215
-0.275652 -0.4601 -0.535 225 226 218
-0.274633 -0.4601 -0.535 225 226 218
-0.254728 -0.46096 -0.536 225 226 218
-0.23635 -0.46096 -0.536 226 227 219
-0.227162 -0.46096 -0.536 226 228 217
-0.215931 -0.46096 -0.536 226 228 217
-0.177824 -0.4601 -0.535 228 230 219
-0.0969552 -0.45838 -0.533 180 141 102
-0.0580143 -0.33798 -0.393 185 143 101
-0.0557686 -0.33798 -0.393 186 144 102
-0.0542714 -0.33798 -0.393 186 143 101
-0.0375257 -0.34228 -0.398 178 134 95
-0.022701 -0.34744 -0.404 165 120 87
-0.0113514 -0.35346 -0.411 146 105 83
-0.00198571 -0.35862 -0.417 132 97 77
0.00119714 -0.36034 -0.419 128 95 76
0.002 -0.3612 -0.42 127 94 75
0.00769048 -0.3655 -0.425 116 88 74
0.022361 -0.38098 -0.443 97 77 66
0.0299 -0.3913 -0.455 92 73 67
0.0309019 -0.39302 -0.457 92 73 67
0.0462943 -0.42226 -0.491 77 96 138
0.229116 -0.47128 -0.548 175 181 181
0.242686 -0.47128 -0.548 177 177 177
0.260906 -0.47214 -0.549 172 172 172
0.315557 -0.4773 -0.555 127 126 131
0.324121 -0.47902 -0.557 116 115 120
0.327304 -0.47902 -0.557 109 108 113
0.341409 -0.48246 -0.561 87 84 91
0.372289 -0.48934 -0.569 64 63 68
0.377948 -0.49106 -0.571 63 62 67
0.491066 -0.43602 -0.507 132 99 80
0.493257 -0.4128 -0.48 172 126 93
0.494717 -0.41022 -0.477 169 120 88
0.498829 -0.40764 -0.474 173 127 93
0.512524 -0.4042 -0.47 168 122 89
0.514314 -0.4042 -0.47 167 122 89
0.542629 -0.4128 -0.48 146 106 81
-0.304634 -0.460257 -0.534 224 226 215
-0.289377 -0.460257 -0.534 225 227 216
-0.272086 -0.460257 -0.534 225 226 220
-0.251195 -0.461119 -0.535 226 227 219
-0.2033 -0.461119 -0.535 227 229 218
-0.178843 -0.461119 -0.535 228 229 221
-0.175786 -0.461119 -0.535 228 229 221
-0.163557 -0.461119 -0.535 229 231 220
-0.0542714 -0.338729 -0.393 185 142 100
-0.0441257 -0.341314 -0.396 181 138 96
-0.0404562 -0.342176 -0.397 178 134 95
-0.0361 -0.3439 -0.399 178 132 96
-0.03382 -0.3439 -0.399 177 131 95
-0.0279486 -0.346486 -0.402 172 126 92
-0.00119429 -0.360276 -0.418 130 97 78
0.215153 -0.471462 -0.547 179 177 180
0.217237 -0.471462 -0.547 179 177 180
0.220363 -0.471462 -0.547 177 177 177
0.239991 -0.473186 -0.549 175 175 173
0.270252 -0.47491 -0.551 160 160 162
0.273401 -0.47491 -0.551 157 157 159
0.27445 -0.47491 -0.551 155 155 157
0.27655 -0.47491 -0.551 155 155 157
0.277599 -0.47491 -0.551 154 152 155
0.315137 -0.480943 -0.558 101 100 106
0.3162 -0.480943 -0.558 98 97 103
0.338937 -0.486114 -0.564 70 69 74
0.386743 -0.496457 -0.576 61 60 65
0.390288 -0.498181 -0.578 61 60 65
0.434504 -0.492148 -0.571 30 30 38
0.489108 -0.433538 -0.503 135 98 79
0.485462 -0.418024 -0.485 160 116 87
0.520581 -0.405095 -0.47 159 114 85
-0.324567 -0.462138 -0.535 224 225 217
-0.32049 -0.462138 -0.535 224 225 217
-0.318452 -0.462138 -0.535 222 223 215
-0.30972 -0.461274 -0.534 224 225 217
-0.292429 -0.461274 -0.534 225 226 218
-0.25988 -0.461274 -0.534 226 227 219
-0.257846 -0.461274 -0.534 226 227 219
-0.25276 -0.461274 -0.534 225 226 218
-0.239986 -0.462138 -0.535 226 228 217
-0.229795 -0.462138 -0.535 226 228 217
-0.212471 -0.462138 -0.535 227 229 218
-0.185976 -0.462138 -0.535 229 230 222
-0.177491 -0.461274 -0.534 228 229 221
-0.175457 -0.461274 -0.534 228 229 221
-0.0658333 -0.341205 -0.395 185 141 102
-0.0578667 -0.338613 -0.392 189 145 106
-0.031619 -0.345524 -0.4 175 130 97
-0.027879 -0.346388 -0.401 169 124 91
-0.0151543 -0.352434 -0.408 153 109 84
-0.0113514 -0.355026 -0.411 146 106 81
-0.00356571 -0.359345 -0.416 134 99 77
0.0135771 -0.373166 -0.432 104 82 71
0.0581571 -0.458683 -0.531 69 103 167
0.236238 -0.475095 -0.55 169 169 169
0.243571 -0.475095 -0.55 164 164 164
0.315763 -0.484597 -0.561 68 67 73
0.325548 -0.488052 -0.565 65 64 70
0.348711 -0.494963 -0.573 61 62 67
0.499664 -0.450045 -0.521 113 89 77
0.488117 -0.432769 -0.501 136 100 78
0.486002 -0.426722 -0.494 150 109 81
0.485957 -0.425858 -0.493 154 113 85
0.498976 -0.41031 -0.475 173 127 93
0.498829 -0.409446 -0.474 170 124 90
0.5159 -0.405127 -0.469 164 120 85
0.516793 -0.405127 -0.469 164 118 85
0.535167 -0.41031 -0.475 148 108 82
-0.297514 -0.462291 -0.534 224 225 217
-0.271576 -0.461426 -0.533 224 225 219
-0.269546 -0.461426 -0.533 225 226 220
-0.261914 -0.462291 -0.534 225 226 220
-0.251743 -0.462291 -0.534 226 227 219
-0.24721 -0.461426 -0.533 226 227 219
-0.240554 -0.462291 -0.534 226 228 217
-0.231833 -0.463157 -0.535 226 228 217
-0.230814 -0.463157 -0.535 226 228 217
-0.204954 -0.462291 -0.534 226 228 217
-0.203937 -0.462291 -0.534 226 228 217
-0.20292 -0.462291 -0.534 227 229 218
-0.169354 -0.462291 -0.534 229 230 222
-0.165286 -0.462291 -0.534 229 230 222
-0.0418629 -0.342823 -0.396 178 134 97
-0.0286429 -0.347151 -0.401 167 122 89
-0.0256514 -0.348017 -0.402 163 118 87
-0.0204429 -0.350614 -0.405 161 116 85
-0.0181733 -0.35148 -0.406 159 115 86
-0.000398095 -0.361869 -0.418 131 96 76
0.00854 -0.36966 -0.427 115 88 71
0.0351362 -0.404289 -0.467 85 70 67
0.04278 -0.41814 -0.483 86 77 68
0.199525 -0.473546 -0.547 177 177 175
0.23247 -0.477009 -0.551 163 163 163
0.234569 -0.477009 -0.551 163 163 163
0.257074 -0.477874 -0.552 136 134 137
0.266929 -0.480471 -0.555 124 122 127
0.273271 -0.480471 -0.555 111 109 114
0.275386 -0.480471 -0.555 108 106 111
0.2775 -0.480471 -0.555 103 100 107
0.280118 -0.481337 -0.556 98 95 102
0.288049 -0.482203 -0.557 85 82 89
0.305092 -0.487397 -0.563 65 62 69
0.316938 -0.489129 -0.565 62 61 67
0.326769 -0.492591 -0.569 58 57 65
0.340071 -0.497786 -0.575 57 56 62
0.5025 -0.4545 -0.525 108 88 79
0.485383 -0.419006 -0.484 159 118 88
0.495626 -0.412946 -0.477 176 127 95
0.496534 -0.412946 -0.477 175 126 94
0.520367 -0.40602 -0.469 157 113 84
0.536976 -0.411214 -0.475 148 108 82
-0.322943 -0.463309 -0.534 223 224 216
-0.317262 -0.462441 -0.533 220 221 213
-0.315231 -0.462441 -0.533 221 222 214
-0.30914 -0.462441 -0.533 224 226 215
-0.28985 -0.462441 -0.533 224 225 217
-0.258863 -0.463309 -0.534 226 227 219
-0.193766 -0.463309 -0.534 228 229 221
-0.176144 -0.462441 -0.533 228 229 221
-0.172083 -0.462441 -0.533 229 230 222
-0.0584638 -0.339239 -0.391 185 143 101
-0.05488 -0.340107 -0.392 186 143 101
-0.0477762 -0.34271 -0.395 182 137 98
-0.0447667 -0.34271 -0.395 180 136 97
-0.0426171 -0.343577 -0.396 179 135 96
-0.0248857 -0.348783 -0.402 161 116 87
-0.00356571 -0.36093 -0.416 133 98 78
0.00524952 -0.36787 -0.424 120 91 75
0.02432 -0.388693 -0.448 94 73 68
0.0252857 -0.390429 -0.45 93 74 68
0.03944 -0.412987 -0.476 77 58 62
0.18044 -0.47372 -0.546 180 180 180
0.192231 -0.474588 -0.547 178 176 179
0.210711 -0.476323 -0.549 168 169 171
0.213849 -0.476323 -0.549 165 167 164
0.227222 -0.478058 -0.551 159 159 159
0.228271 -0.478058 -0.551 157 158 160
0.237097 -0.478926 -0.552 143 143 145
0.238149 -0.478926 -0.552 142 142 144
0.2392 -0.478926 -0.552 140 140 142
0.241303 -0.478926 -0.552 135 135 137
0.284824 -0.484999 -0.559 65 62 69
0.303484 -0.491072 -0.566 64 61 68
0.493003 -0.441618 -0.509 126 94 79
0.48608 -0.430339 -0.496 148 105 86
0.485909 -0.426869 -0.492 153 111 86
0.4858 -0.425133 -0.49 154 112 87
0.485609 -0.42253 -0.487 159 118 90
0.486386 -0.420795 -0.485 163 120 88
0.494717 -0.413854 -0.477 173 127 94
0.504643 -0.408649 -0.471 170 124 90
0.504467 -0.407781 -0.47 171 125 91
-0.31117 -0.463456 -0.533 224 226 215
-0.288835 -0.463456 -0.533 224 225 217
-0.271576 -0.463456 -0.533 226 227 219
-0.24776 -0.462587 -0.532 226 227 219
-0.232417 -0.464326 -0.534 227 229 218
-0.180205 -0.463456 -0.533 228 229 221
-0.168022 -0.463456 -0.533 229 231 220
-0.0535229 -0.341723 -0.393 184 141 99
-0.03534 -0.34694 -0.399 177 131 95
-0.0308571 -0.34781 -0.4 172 128 93
-0.0234124 -0.350418 -0.403 160 114 88
-0.0189467 -0.353027 -0.406 158 112 86
0.0102143 -0.373026 -0.429 109 85 73
0.0110571 -0.373895 -0.43 107 83 71
0.0243743 -0.390416 -0.449 94 73 68
0.02718 -0.393894 -0.453 92 73 67
0.16692 -0.47476 -0.546 180 178 181
0.17524 -0.47476 -0.546 172 170 173
0.17836 -0.47476 -0.546 170 168 171
0.203391 -0.477369 -0.549 168 167 172
0.214238 -0.478238 -0.55 155 155 157
0.216333 -0.478238 -0.55 155 155 157
0.220925 -0.479108 -0.551 148 148 150
0.226583 -0.479977 -0.552 137 137 139
0.228686 -0.479977 -0.552 135 135 137
0.242177 -0.481716 -0.554 111 110 115
0.281 -0.488672 -0.562 70 69 77
0.283645 -0.489542 -0.563 70 69 75
0.290594 -0.490411 -0.564 69 68 74
0.39846 -0.52954 -0.609 14 14 22
0.421813 -0.535627 -0.616 9 10 15
0.488788 -0.418241 -0.481 170 125 96
0.495493 -0.413893 -0.476 172 126 93
0.500479 -0.411285 -0.473 168 122 89
0.502118 -0.410415 -0.472 170 124 90
0.515691 -0.406937 -0.468 163 118 85
0.523047 -0.407807 -0.469 154 113 83
0.527743 -0.408676 -0.47 155 114 82
-0.300453 -0.4636 -0.532 223 224 216
-0.289307 -0.4636 -0.532 225 226 218
-0.254853 -0.4636 -0.532 225 226 218
-0.251813 -0.4636 -0.532 226 227 219
-0.216753 -0.464471 -0.533 226 228 217
-0.214723 -0.464471 -0.533 226 228 217
-0.172083 -0.464471 -0.533 230 231 223
-0.0733076 -0.351186 -0.403 179 140 101
-0.0647514 -0.342471 -0.393 183 139 100
-0.0614429 -0.340729 -0.391 183 139 100
-0.0512771 -0.342471 -0.393 181 136 95
-0.031619 -0.348571 -0.4 172 127 94
-0.0249476 -0.351186 -0.403 160 114 88
-0.0182181 -0.354671 -0.407 158 112 88
-0.0113514 -0.358157 -0.411 147 105 81
-0.000398095 -0.364257 -0.418 127 94 75
0.0162314 -0.380814 -0.437 100 77 71
0.166184 -0.476671 -0.547 170 168 173
0.195714 -0.477543 -0.548 160 161 165
0.206905 -0.479286 -0.55 143 142 147
0.24561 -0.485386 -0.557 78 77 82
0.274967 -0.492357 -0.565 66 65 73
0.318714 -0.507171 -0.582 64 63 71
0.412589 -0.538543 -0.618 12 12 20
0.48806 -0.4209 -0.483 169 124 95
0.494587 -0.4148 -0.476 171 126 93
0.498677 -0.412186 -0.473 170 124 91
0.501219 -0.411314 -0.472 172 126 93
0.506967 -0.4087 -0.469 171 125 92
0.511234 -0.407829 -0.468 166 121 88
0.535616 -0.412186 -0.473 150 107 73
0.547414 -0.415671 -0.477 133 101 78
-0.32376 -0.464613 -0.532 223 224 216
-0.31464 -0.464613 -0.532 225 226 218
-0.309573 -0.464613 -0.532 224 226 215
-0.301911 -0.46374 -0.531 224 225 217
-0.292347 -0.464613 -0.532 223 224 216
-0.28728 -0.464613 -0.532 225 226 218
-0.275614 -0.46374 -0.531 224 225 219
-0.27258 -0.46374 -0.531 224 225 217
-0.268027 -0.464613 -0.532 226 227 219
-0.260933 -0.464613 -0.532 226 227 219
-0.25992 -0.464613 -0.532 226 227 219
-0.258907 -0.464613 -0.532 225 226 218
-0.215333 -0.464613 -0.532 227 229 218
-0.1748 -0.464613 -0.532 229 230 222
-0.105893 -0.464613 -0.532 194 180 153
-0.07106 -0.34846 -0.399 182 140 100
-0.0699476 -0.346713 -0.397 182 140 100
-0.0671676 -0.344093 -0.394 184 142 102
-0.0554848 -0.341473 -0.391 187 142 101
-0.05488 -0.342347 -0.392 188 143 102
-0.0541333 -0.342347 -0.392 189 144 103
-0.0527743 -0.34322 -0.393 186 141 100
-0.0512771 -0.34322 -0.393 184 136 96
-0.0469048 -0.344093 -0.394 179 134 95
0.000399048 -0.365927 -0.419 125 92 73
0.0321895 -0.404353 -0.463 91 72 66
0.123014 -0.475967 -0.545 187 187 187
0.168268 -0.477713 -0.547 156 153 160
0.212247 -0.482953 -0.553 109 107 112
0.229696 -0.486447 -0.557 81 80 88
0.240737 -0.48732 -0.558 71 70 76
0.252267 -0.489067 -0.56 68 67 75
0.255923 -0.48994 -0.561 68 67 75
0.25852 -0.490813 -0.562 67 65 76
0.325343 -0.515267 -0.59 49 47 58
0.422024 -0.545833 -0.625 10 10 18
0.48806 -0.42182 -0.483 164 120 91
0.498677 -0.413087 -0.473 171 125 92
0.50786 -0.409593 -0.469 169 123 89
0.512126 -0.40872 -0.468 165 120 87
0.529533 -0.410467 -0.47 158 115 81
0.54331 -0.414833 -0.475 138 102 76
-0.318693 -0.465627 -0.532 222 223 215
-0.31464 -0.465627 -0.532 225 226 218
-0.297413 -0.465627 -0.532 224 225 217
-0.224453 -0.465627 -0.532 226 228 217
-0.21432 -0.465627 -0.532 227 229 218
-0.20824 -0.465627 -0.532 226 228 217
-0.200133 -0.465627 -0.532 227 228 220
-0.188987 -0.465627 -0.532 227 228 220
-0.176827 -0.465627 -0.532 229 230 222
-0.173787 -0.465627 -0.532 228 229 221
-0.172773 -0.465627 -0.532 228 229 221
-0.166693 -0.465627 -0.532 228 229 221
-0.163653 -0.465627 -0.532 228 229 221
-0.15656 -0.465627 -0.532 229 230 222
-0.057719 -0.342218 -0.391 185 142 100
-0.0167086 -0.357097 -0.408 153 108 85
0.00607143 -0.371976 -0.425 114 85 69
0.0102381 -0.376352 -0.43 105 81 71
0.02724 -0.397358 -0.454 93 73 66
0.0353619 -0.411362 -0.47 85 66 60
0.130281 -0.477005 -0.545 171 171 173
0.131319 -0.477005 -0.545 170 170 170
0.159181 -0.47963 -0.548 143 142 147
0.175476 -0.481381 -0.55 115 112 119
0.209843 -0.485757 -0.555 82 79 86
0.218693 -0.486632 -0.556 74 73 81
0.258824 -0.49451 -0.565 64 64 76
0.2885 -0.505012 -0.577 64 64 72
0.380901 -0.544398 -0.622 10 10 18
0.39289 -0.547899 -0.626 10 10 18
0.455107 -0.558402 -0.638 8 11 18
0.487129 -0.564529 -0.645 10 13 20
0.496852 -0.450748 -0.515 117 89 78
0.489381 -0.418364 -0.478 169 124 95
0.504287 -0.410487 -0.469 174 128 94
0.509451 -0.409611 -0.468 170 124 91
0.536282 -0.413112 -0.472 150 106 77
-0.311014 -0.465763 -0.531 223 225 214
-0.306969 -0.465763 -0.531 224 226 215
-0.303934 -0.465763 -0.531 223 224 216
-0.276626 -0.465763 -0.531 224 225 217
-0.274603 -0.465763 -0.531 224 225 217
-0.266511 -0.465763 -0.531 225 227 216
-0.264489 -0.465763 -0.531 224 226 215
-0.249317 -0.465763 -0.531 226 228 217
-0.242237 -0.465763 -0.531 224 226 215
-0.224453 -0.46664 -0.532 227 228 220
-0.21594 -0.465763 -0.531 226 228 217
-0.205826 -0.465763 -0.531 227 229 218
-0.204814 -0.465763 -0.531 227 229 218
-0.16638 -0.465763 -0.531 229 231 220
-0.0688429 -0.346471 -0.395 182 140 100
-0.05474 -0.342963 -0.391 184 141 99
-0.031619 -0.350857 -0.4 170 123 93
-0.01972 -0.35612 -0.406 159 113 89
-0.0144124 -0.358751 -0.409 154 108 84
-0.00670286 -0.363137 -0.414 140 102 81
0.00120286 -0.369277 -0.421 123 90 71
0.00856 -0.375417 -0.428 109 81 67
0.1222 -0.47892 -0.546 168 166 169
0.159762 -0.482429 -0.55 110 109 115
0.168143 -0.482429 -0.55 98 95 102
0.175063 -0.484183 -0.552 83 80 87
0.212721 -0.488569 -0.557 71 68 77
0.23688 -0.494709 -0.564 66 66 78
0.267478 -0.501726 -0.572 63 63 75
0.304681 -0.514883 -0.587 16 16 28
0.327429 -0.526286 -0.6 16 16 28
0.365486 -0.547337 -0.624 9 9 17
0.379186 -0.549969 -0.627 8 11 18
0.382183 -0.550846 -0.628 8 11 18
0.39723 -0.553477 -0.631 10 10 18
0.414163 -0.555231 -0.633 10 10 20
0.419648 -0.556109 -0.634 11 11 19
0.440354 -0.557863 -0.636 8 11 18
0.475579 -0.566634 -0.646 12 12 20
0.48902 -0.437694 -0.499 136 99 81
0.486791 -0.430677 -0.491 148 110 87
0.48731 -0.425414 -0.485 158 117 89
0.488686 -0.421029 -0.48 167 123 94
0.519037 -0.409626 -0.467 159 113 80
0.518813 -0.408749 -0.466 157 112 79
0.528171 -0.410503 -0.468 152 111 81
-0.317083 -0.466774 -0.531 223 224 216
-0.30841 -0.465895 -0.53 223 225 214
-0.298314 -0.465895 -0.53 224 225 217
-0.287751 -0.466774 -0.531 225 226 218
-0.255914 -0.465895 -0.53 226 228 217
-0.240214 -0.466774 -0.531 225 227 216
-0.234146 -0.466774 -0.531 226 228 217
-0.178517 -0.466774 -0.531 229 230 222
-0.175483 -0.466774 -0.531 228 230 219
-0.164357 -0.466774 -0.531 229 231 220
-0.155254 -0.466774 -0.531 229 230 222
-0.144129 -0.466774 -0.531 229 230 222
-0.07146 -0.348982 -0.397 183 141 103
-0.0695952 -0.347224 -0.395 182 140 100
-0.06384 -0.344587 -0.392 185 141 102
-0.0606981 -0.343708 -0.391 180 138 96
-0.0417571 -0.347224 -0.395 180 134 98
-0.027879 -0.352498 -0.401 163 116 88
-0.0136333 -0.35953 -0.409 148 106 82
-0.0113514 -0.361289 -0.411 145 103 81
-0.0051381 -0.364805 -0.415 137 100 81
0.0102619 -0.37887 -0.431 107 81 68
0.0111086 -0.379749 -0.432 106 79 68
0.023519 -0.394692 -0.449 96 73 65
0.0253981 -0.39733 -0.452 96 71 64
0.0364886 -0.41579 -0.473 81 65 65
0.12532 -0.47996 -0.546 148 146 151
0.12844 -0.47996 -0.546 145 143 148
0.138305 -0.481718 -0.548 120 119 127
0.1656 -0.485234 -0.552 75 73 84
0.166651 -0.485234 -0.552 73 71 82
0.178863 -0.486992 -0.554 66 64 75
0.221447 -0.494904 -0.563 64 64 72
0.22869 -0.496662 -0.565 65 65 75
0.239642 -0.499299 -0.568 65 63 74
0.240724 -0.499299 -0.568 67 65 76
0.251343 -0.501057 -0.57 63 63 75
0.255493 -0.502815 -0.572 61 61 73
0.269816 -0.50721 -0.577 41 41 51
0.29736 -0.51688 -0.588 9 9 21
0.316694 -0.524791 -0.597 12 12 22
0.32562 -0.530066 -0.603 8 11 20
0.368384 -0.554679 -0.631 7 7 15
0.442431 -0.561711 -0.639 8 11 18
0.448 -0.56259 -0.64 7 10 17
0.455514 -0.564349 -0.642 9 9 17
0.477051 -0.569623 -0.648 12 12 20
0.497817 -0.453589 -0.516 110 86 76
0.49494 -0.449193 -0.511 115 92 78
0.486536 -0.428096 -0.487 154 114 88
0.486386 -0.426338 -0.485 154 114 88
0.48714 -0.42458 -0.483 159 118 90
0.491991 -0.419306 -0.477 170 125 94
0.515263 -0.409636 -0.466 167 121 88
0.521476 -0.409636 -0.466 159 116 82
0.522364 -0.409636 -0.466 159 116 82
0.524139 -0.409636 -0.466 157 114 80
0.529954 -0.411394 -0.468 152 112 77
-0.309419 -0.466905 -0.53 223 224 216
-0.30841 -0.466905 -0.53 223 224 216
-0.269038 -0.466905 -0.53 224 226 215
-0.255431 -0.466024 -0.529 226 228 217
-0.220997 -0.467786 -0.531 225 226 218
-0.218974 -0.467786 -0.531 226 227 219
-0.0653333 -0.345333 -0.392 184 140 101
-0.0584638 -0.344452 -0.391 181 137 98
-0.05474 -0.344452 -0.391 185 141 102
-0.0539952 -0.344452 -0.391 184 140 101
-0.0532505 -0.344452 -0.391 183 139 100
-0.0417571 -0.347976 -0.395 179 133 99
-0.0396 -0.348857 -0.396 178 129 96
-0.0286429 -0.353262 -0.401 163 116 90
-0.0249476 -0.355024 -0.403 162 115 89
-0.0167086 -0.359429 -0.408 154 110 85
-0.0151914 -0.36031 -0.409 150 108 83
-0.00980952 -0.362952 -0.412 143 102 80
-0.00904667 -0.363833 -0.413 140 102 81
-0.00356571 -0.366476 -0.416 133 96 78
-0.00199048 -0.368238 -0.418 130 95 76
0.00691333 -0.376167 -0.427 112 84 72
0.0136714 -0.383214 -0.435 103 76 65
0.0145333 -0.384095 -0.436 101 77 65
0.0163057 -0.386738 -0.439 101 77 65
0.0226133 -0.394667 -0.448 97 75 64
0.023519 -0.395548 -0.449 96 74 63
0.13413 -0.482762 -0.548 99 96 103
0.136217 -0.482762 -0.548 95 94 102
0.146409 -0.485405 -0.551 80 79 87
0.147458 -0.485405 -0.551 78 75 86
0.15088 -0.486286 -0.552 74 71 82
0.16409 -0.488048 -0.554 64 62 73
0.165145 -0.488048 -0.554 62 62 74
0.221549 -0.498619 -0.566 63 63 73
0.240908 -0.503024 -0.571 55 53 64
0.253107 -0.505667 -0.574 33 33 45
0.263678 -0.50919 -0.578 20 23 32
0.28889 -0.518881 -0.589 12 12 22
0.303277 -0.522405 -0.593 8 8 18
0.30492 -0.523286 -0.594 8 8 18
0.338026 -0.540024 -0.613 11 11 21
0.342027 -0.542667 -0.616 11 11 21
0.3536 -0.549714 -0.624 8 11 20
0.377331 -0.562048 -0.638 6 9 18
0.383408 -0.562048 -0.638 6 9 16
0.419962 -0.56381 -0.64 9 12 21
0.42306 -0.56469 -0.641 9 12 21
0.431607 -0.56469 -0.641 9 10 15
0.434049 -0.56469 -0.641 8 9 14
0.43527 -0.56469 -0.641 7 10 15
0.47088 -0.570857 -0.648 8 11 20
0.474583 -0.570857 -0.648 9 12 21
0.479762 -0.572619 -0.65 11 11 21
0.48902 -0.439595 -0.499 134 99 80
0.486606 -0.429905 -0.488 154 112 87
0.498363 -0.414929 -0.471 169 124 91
0.511031 -0.411405 -0.467 166 120 87
0.511712 -0.410524 -0.466 164 118 85
0.543725 -0.41669 -0.473 143 104 75
-0.28969 -0.467031 -0.529 224 225 217
-0.251401 -0.467031 -0.529 225 227 216
-0.246363 -0.467031 -0.529 225 227 216
-0.237743 -0.467914 -0.53 226 227 219
-0.234714 -0.467914 -0.53 227 228 220
-0.177171 -0.467914 -0.53 229 230 222
-0.0645867 -0.34608 -0.392 183 139 100
-0.0460371 -0.346963 -0.393 180 134 98
-0.02424 -0.356674 -0.404 161 114 88
-0.0051381 -0.366386 -0.415 133 96 77
0.01806 -0.38934 -0.441 100 78 67
0.0355124 -0.416709 -0.472 83 68 63
0.160734 -0.491751 -0.557 67 67 77
0.1776 -0.4944 -0.56 65 65 75
0.181123 -0.495283 -0.561 66 64 75
0.19176 -0.497931 -0.564 63 65 77
0.212924 -0.499697 -0.566 59 59 67
0.21546 -0.50058 -0.567 60 60 68
0.220555 -0.502346 -0.569 57 57 65
0.221639 -0.502346 -0.569 57 57 65
0.26772 -0.513823 -0.582 11 11 19
0.284403 -0.520003 -0.589 11 14 23
0.3009 -0.5253 -0.595 8 11 20
0.332268 -0.539426 -0.611 7 10 19
0.337957 -0.542957 -0.615 7 10 19
0.3582 -0.5562 -0.63 7 10 17
0.367033 -0.56238 -0.637 3 6 13
0.387652 -0.565911 -0.641 5 8 17
0.421839 -0.565911 -0.641 8 11 20
0.435949 -0.566794 -0.642 7 10 17
0.440302 -0.567677 -0.643 7 10 17
0.446426 -0.567677 -0.643 6 9 18
0.512743 -0.476743 -0.54 72 73 78
0.499747 -0.45732 -0.518 114 88 75
0.487884 -0.436131 -0.494 137 100 81
0.501781 -0.414943 -0.47 166 120 87
0.503393 -0.41406 -0.469 173 128 95
0.5177 -0.410529 -0.465 163 116 86
0.524786 -0.410529 -0.465 156 113 79
-0.30682 -0.468039 -0.529 224 225 217
-0.284181 -0.468924 -0.53 224 225 217
-0.279133 -0.468924 -0.53 224 225 217
-0.266515 -0.468039 -0.529 224 225 217
-0.258454 -0.468039 -0.529 226 227 219
-0.245355 -0.468039 -0.529 225 227 216
-0.234714 -0.468924 -0.53 226 227 219
-0.233705 -0.468924 -0.53 226 227 219
-0.219571 -0.468924 -0.53 225 227 216
-0.209476 -0.468924 -0.53 227 228 220
-0.207457 -0.468924 -0.53 227 228 220
-0.205438 -0.468924 -0.53 226 227 219
-0.203419 -0.468924 -0.53 226 227 219
-0.197362 -0.468924 -0.53 226 228 217
-0.187267 -0.468924 -0.53 227 228 220
-0.15467 -0.468039 -0.529 228 229 221
-0.1005 -0.4645 -0.525 178 136 98
-0.0475343 -0.347711 -0.393 180 136 99
-0.035919 -0.35125 -0.397 167 122 91
-0.011379 -0.364522 -0.412 142 102 76
0.00200952 -0.37337 -0.422 120 88 73
0.0217114 -0.395489 -0.447 94 74 65
0.131237 -0.485734 -0.549 69 67 78
0.156267 -0.495467 -0.56 66 66 76
0.258851 -0.514931 -0.582 14 14 24
0.26419 -0.516701 -0.584 14 14 24
0.333899 -0.543244 -0.614 10 11 16
0.341334 -0.547668 -0.619 12 12 20
0.392536 -0.568902 -0.643 8 9 14
0.394986 -0.568902 -0.643 8 9 14
0.412773 -0.569787 -0.644 7 10 17
0.415807 -0.568902 -0.643 7 10 15
0.422497 -0.568017 -0.642 10 10 18
0.4508 -0.569787 -0.644 7 10 17
0.462759 -0.572441 -0.647 7 10 17
0.469134 -0.57421 -0.649 9 10 15
0.472843 -0.57421 -0.649 11 12 17
0.488482 -0.560939 -0.634 13 13 21
0.487783 -0.435303 -0.492 139 104 84
0.489492 -0.423801 -0.479 166 122 93
0.492643 -0.420262 -0.475 168 123 92
0.493411 -0.419377 -0.474 171 124 94
0.495825 -0.417608 -0.472 170 125 92
0.510825 -0.412299 -0.466 168 122 89
0.525671 -0.411414 -0.465 155 112 78
0.534411 -0.414069 -0.468 144 108 72
0.538486 -0.415838 -0.47 141 107 72
0.544373 -0.417608 -0.472 140 101 70
-0.321934 -0.469047 -0.529 223 224 216
-0.316896 -0.469047 -0.529 223 224 216
-0.314881 -0.469047 -0.529 224 225 217
-0.31085 -0.469047 -0.529 223 224 216
-0.294729 -0.469047 -0.529 224 226 215
-0.28163 -0.469047 -0.529 224 225 217
-0.267523 -0.469047 -0.529 224 225 217
-0.259977 -0.46816 -0.528 225 226 218
-0.251931 -0.46816 -0.528 226 227 219
-0.24334 -0.469047 -0.529 225 226 218
-0.242332 -0.469047 -0.529 225 226 218
-0.241325 -0.469047 -0.529 224 225 217
-0.215127 -0.469047 -0.529 226 228 217
-0.209081 -0.469047 -0.529 227 228 220
-0.204043 -0.469047 -0.529 227 228 220
-0.202028 -0.469047 -0.529 226 227 219
-0.172807 -0.469047 -0.529 229 231 220
-0.130487 -0.469047 -0.529 228 230 219
-0.0560857 -0.3458 -0.39 184 142 104
-0.0546 -0.3458 -0.39 183 139 102
-0.0380914 -0.35112 -0.396 169 123 90
-0.0329771 -0.352893 -0.398 168 123 94
-0.03154 -0.35378 -0.399 165 119 93
-0.00983333 -0.366193 -0.413 141 100 78
0.00445238 -0.376833 -0.425 116 88 74
0.01722 -0.39102 -0.441 98 78 69
0.0255105 -0.402547 -0.454 91 71 64
0.10764 -0.48412 -0.546 61 60 74
0.12399 -0.491213 -0.554 76 74 85
0.129851 -0.48944 -0.552 64 62 73
0.130903 -0.48944 -0.552 65 63 74
0.188371 -0.5054 -0.57 42 42 54
0.200277 -0.50806 -0.573 23 23 35
0.207191 -0.506287 -0.571 33 33 45
0.219595 -0.509833 -0.575 20 20 32
0.232851 -0.512493 -0.578 16 16 26
0.242495 -0.514267 -0.58 13 16 25
0.33102 -0.543527 -0.613 10 10 18
0.346469 -0.55328 -0.624 11 14 21
0.372871 -0.5719 -0.645 8 8 16
0.396829 -0.572787 -0.646 8 9 14
0.39929 -0.572787 -0.646 9 10 15
0.3999 -0.5719 -0.645 8 9 14
0.455891 -0.572787 -0.646 7 10 17
0.467177 -0.57456 -0.648 8 11 16
0.512743 -0.4788 -0.54 57 60 69
0.489381 -0.423827 -0.478 166 122 93
0.494314 -0.42028 -0.474 169 126 94
0.495671 -0.41762 -0.471 170 125 92
0.508162 -0.413187 -0.466 168 122 89
0.509729 -0.4123 -0.465 168 123 90
0.512386 -0.4123 -0.465 169 124 91
0.526557 -0.4123 -0.465 152 109 75
-0.300206 -0.469166 -0.528 224 226 215
-0.27104 -0.469166 -0.528 223 224 216
-0.257966 -0.469166 -0.528 225 226 220
-0.238302 -0.470054 -0.529 225 226 218
-0.237294 -0.470054 -0.529 226 227 219
-0.221172 -0.470054 -0.529 227 229 218
-0.212104 -0.470054 -0.529 226 227 219
-0.180868 -0.470054 -0.529 227 228 220
-0.07092 -0.350097 -0.394 179 137 99
-0.0675733 -0.34832 -0.392 184 140 103
-0.0644219 -0.347431 -0.391 182 140 100
-0.0128857 -0.364314 -0.41 146 104 82
-0.0004 -0.3732 -0.42 122 90 75
0.00282 -0.375866 -0.423 118 89 75
0.0111086 -0.383863 -0.432 102 80 69
0.011959 -0.384751 -0.433 102 80 67
0.0226638 -0.398969 -0.449 92 74 64
0.0367971 -0.423849 -0.477 84 70 67
0.0863629 -0.482494 -0.543 62 62 74
0.101214 -0.484271 -0.545 59 58 72
0.127845 -0.494934 -0.557 74 72 83
0.168532 -0.505597 -0.569 49 51 64
0.1707 -0.505597 -0.569 44 46 58
0.178913 -0.507374 -0.571 28 30 42
0.200229 -0.511817 -0.576 18 20 32
0.229633 -0.51626 -0.581 16 16 28
0.23406 -0.51626 -0.581 15 15 27
0.246392 -0.518926 -0.584 15 15 25
0.273648 -0.524257 -0.59 11 14 23
0.294936 -0.532254 -0.599 10 14 23
0.3 -0.533143 -0.6 12 15 24
0.38631 -0.576683 -0.649 7 7 15
0.445201 -0.571351 -0.643 7 10 17
0.453957 -0.573129 -0.645 6 9 16
0.463991 -0.574906 -0.647 7 10 17
0.465224 -0.574906 -0.647 8 11 16
0.468411 -0.575794 -0.648 8 11 16
0.486606 -0.433623 -0.488 147 111 89
0.486463 -0.431846 -0.486 149 108 86
0.488149 -0.430069 -0.484 154 109 86
0.487968 -0.428291 -0.482 154 115 86
0.48847 -0.424737 -0.478 162 121 91
0.490174 -0.423849 -0.477 165 124 94
0.490053 -0.42296 -0.476 163 122 92
0.494172 -0.420294 -0.473 170 125 94
0.496569 -0.418517 -0.471 169 124 91
0.497305 -0.417629 -0.47 169 124 91
0.519001 -0.411409 -0.463 159 114 81
0.540276 -0.417629 -0.47 149 108 80
0.544117 -0.418517 -0.471 144 105 74
-0.316297 -0.470171 -0.528 224 225 217
-0.311269 -0.470171 -0.528 224 226 215
-0.309257 -0.470171 -0.528 224 226 215
-0.303223 -0.470171 -0.528 223 225 214
-0.273051 -0.470171 -0.528 223 224 216
-0.227218 -0.471062 -0.529 225 226 218
-0.212709 -0.470171 -0.528 227 228 220
-0.209691 -0.470171 -0.528 226 227 219
-0.203657 -0.470171 -0.528 226 227 219
-0.138286 -0.470171 -0.528 229 231 220
-0.115154 -0.470171 -0.528 226 228 217
-0.0726048 -0.351738 -0.395 179 137 99
-0.0460371 -0.349957 -0.393 178 132 98
-0.0234705 -0.359752 -0.404 157 110 90
-0.0174857 -0.363314 -0.408 150 105 82
0.00527429 -0.379343 -0.426 112 85 74
0.0128429 -0.387357 -0.435 101 79 66
0.0190286 -0.395371 -0.444 97 77 68
0.109277 -0.488871 -0.549 58 60 73
0.112824 -0.490652 -0.551 58 60 73
0.125333 -0.498667 -0.56 73 73 85
0.151457 -0.507571 -0.57 57 56 70
0.162077 -0.510243 -0.573 38 40 53
0.179071 -0.512024 -0.575 20 22 34
0.184869 -0.512914 -0.576 19 21 33
0.186289 -0.513805 -0.577 19 21 33
0.188487 -0.513805 -0.577 20 22 34
0.19686 -0.515586 -0.579 18 20 32
0.203829 -0.516476 -0.58 16 18 30
0.2457 -0.520929 -0.585 14 14 24
0.249043 -0.520929 -0.585 15 15 25
0.269152 -0.525381 -0.59 10 13 22
0.30444 -0.536067 -0.602 12 15 24
0.328685 -0.545862 -0.613 7 10 17
0.338343 -0.552095 -0.62 8 11 18
0.345833 -0.556548 -0.625 12 13 18
0.3522 -0.561 -0.63 9 12 19
0.354522 -0.562781 -0.632 8 11 18
0.417747 -0.575248 -0.646 7 10 15
0.420133 -0.573467 -0.644 7 10 17
0.469646 -0.577029 -0.648 8 11 16
0.472843 -0.577919 -0.649 7 10 15
0.513692 -0.481748 -0.541 29 33 42
0.494942 -0.453252 -0.509 117 91 74
0.491004 -0.447019 -0.502 123 97 80
0.487727 -0.437224 -0.491 142 107 87
0.487668 -0.426538 -0.479 159 120 91
0.507473 -0.415852 -0.467 171 126 93
0.5115 -0.414071 -0.465 169 123 90
0.515473 -0.41229 -0.463 164 119 86
-0.320717 -0.470285 -0.527 223 225 214
-0.311683 -0.470285 -0.527 224 225 217
-0.30566 -0.470285 -0.527 223 225 214
-0.283109 -0.471177 -0.528 224 225 217
-0.282103 -0.471177 -0.528 223 224 216
-0.184549 -0.471177 -0.528 228 230 219
-0.166446 -0.471177 -0.528 228 229 221
-0.07074 -0.350706 -0.393 180 138 100
-0.0568286 -0.348029 -0.39 184 141 99
-0.0546 -0.348029 -0.39 183 140 98
-0.0439029 -0.351598 -0.394 178 132 99
-0.0249476 -0.35963 -0.403 158 112 88
0.00364286 -0.379262 -0.425 114 86 74
0.00446286 -0.380154 -0.426 115 87 75
0.00527429 -0.380154 -0.426 113 86 75
0.01722 -0.39354 -0.441 95 75 68
0.019919 -0.39711 -0.445 95 76 69
0.0227143 -0.401571 -0.45 92 73 67
0.0336429 -0.420311 -0.471 76 68 66
0.0633743 -0.482778 -0.541 60 58 69
0.0844495 -0.485455 -0.544 58 58 70
0.109476 -0.49081 -0.55 58 60 75
0.16129 -0.515796 -0.578 28 30 43
0.164592 -0.515796 -0.578 26 28 41
0.185831 -0.516689 -0.579 18 20 32
0.188362 -0.517581 -0.58 15 17 29
0.190571 -0.517581 -0.58 15 19 30
0.193886 -0.517581 -0.58 14 18 29
0.211183 -0.519366 -0.582 13 17 28
0.234866 -0.520258 -0.583 12 15 24
0.244586 -0.522043 -0.585 12 15 22
0.251701 -0.522935 -0.586 12 15 24
0.268483 -0.527397 -0.591 10 13 20
0.274575 -0.52829 -0.592 10 13 20
0.284377 -0.531859 -0.596 9 12 19
0.306602 -0.538998 -0.604 13 13 23
0.33318 -0.550599 -0.617 8 11 18
0.40114 -0.57737 -0.647 5 8 13
0.403605 -0.57737 -0.647 5 8 15
0.433627 -0.574693 -0.644 8 8 16
0.445201 -0.573801 -0.643 6 9 16
0.472114 -0.578263 -0.648 9 9 17
0.473349 -0.578263 -0.648 10 10 18
0.476551 -0.579155 -0.649 9 9 17
0.499767 -0.461361 -0.517 111 88 72
0.500537 -0.417634 -0.468 169 124 91
0.508162 -0.41585 -0.466 168 122 89
-0.319107 -0.470394 -0.526 223 225 214
-0.31369 -0.471289 -0.527 224 225 217
-0.302649 -0.471289 -0.527 223 225 214
-0.290603 -0.471289 -0.527 223 225 214
-0.288137 -0.472183 -0.528 224 226 215
-0.287131 -0.472183 -0.528 224 226 215
-0.27808 -0.472183 -0.528 224 225 217
-0.253462 -0.471289 -0.527 226 227 219
-0.251454 -0.471289 -0.527 226 227 219
-0.248973 -0.470394 -0.526 226 227 219
-0.247439 -0.471289 -0.527 225 226 218
-0.204275 -0.471289 -0.527 226 227 219
-0.136016 -0.471289 -0.527 229 230 222
-0.0731714 -0.352349 -0.394 181 137 102
-0.0698133 -0.35056 -0.392 182 138 101
-0.0666562 -0.349666 -0.391 182 138 101
-0.0568286 -0.348771 -0.39 184 140 101
-0.0538571 -0.348771 -0.39 183 139 100
-0.0504 -0.35056 -0.392 180 136 97
-0.0467857 -0.351454 -0.393 181 135 101
-0.022701 -0.361291 -0.404 156 110 84
-0.0219857 -0.362186 -0.405 157 111 87
-0.0113514 -0.367551 -0.411 143 102 84
-0.00749143 -0.370234 -0.414 131 95 81
0.0128724 -0.389909 -0.436 102 79 71
0.01722 -0.39438 -0.441 97 77 70
0.0295438 -0.414054 -0.463 82 68 67
0.0315781 -0.417631 -0.467 82 70 70
0.0780886 -0.485597 -0.543 59 59 71
0.169873 -0.51958 -0.581 20 23 38
0.18426 -0.51958 -0.581 17 19 32
0.21414 -0.51958 -0.581 14 18 29
0.237493 -0.522263 -0.584 11 16 22
0.268483 -0.528523 -0.591 9 12 19
0.418329 -0.576814 -0.645 7 10 17
0.429947 -0.57592 -0.644 9 9 17
0.487835 -0.440883 -0.493 131 100 79
0.4898 -0.423891 -0.474 164 121 89
0.5115 -0.415843 -0.465 167 121 88
0.512168 -0.414949 -0.464 166 121 90
0.525174 -0.414054 -0.463 150 109 81
0.531871 -0.415843 -0.465 143 102 74
0.540651 -0.418526 -0.468 142 103 74
0.543593 -0.41942 -0.469 141 102 73
0.544487 -0.41942 -0.469 139 100 71
-0.290603 -0.472292 -0.527 224 226 215
-0.280565 -0.472292 -0.527 225 226 218
-0.27655 -0.472292 -0.527 223 224 216
-0.264002 -0.471396 -0.526 224 225 219
-0.260996 -0.471396 -0.526 225 226 220
-0.219332 -0.472292 -0.527 227 228 220
-0.207895 -0.471396 -0.526 226 227 219
-0.206893 -0.471396 -0.526 226 227 219
-0.204275 -0.472292 -0.527 226 227 219
-0.20026 -0.472292 -0.527 226 228 217
-0.106297 -0.469604 -0.524 171 136 106
-0.0698133 -0.351307 -0.392 183 137 101
-0.0681457 -0.35041 -0.391 184 139 100
-0.0612857 -0.349514 -0.39 186 142 105
-0.0553429 -0.349514 -0.39 185 141 104
-0.0294067 -0.359372 -0.401 159 113 89
-0.0286429 -0.359372 -0.401 158 112 88
-0.00515048 -0.372815 -0.416 123 91 78
0.00611429 -0.38357 -0.428 111 84 73
0.00862 -0.386258 -0.431 108 81 70
