ply
format ascii 1.0
comment Created by Open3D
element vertex 1291
property double x
property double y
property double z
property uchar red
property uchar green
property uchar blue
end_header
0.452509 -0.253 -0.506 166 118 98
0.461129 -0.2535 -0.507 156 111 92
0.47239 -0.257 -0.514 150 107 90
-0.140105 -0.314192 -0.626 99 99 107
-0.13376 -0.305158 -0.608 104 104 112
-0.130857 -0.301143 -0.6 106 106 114
-0.112543 -0.304154 -0.606 117 118 120
0.0704105 -0.259485 -0.517 210 174 158
0.0985857 -0.258481 -0.515 165 121 108
0.13878 -0.28458 -0.567 94 74 73
0.436986 -0.254466 -0.507 154 105 91
0.44278 -0.254466 -0.507 159 110 93
0.452509 -0.253964 -0.506 168 120 98
-0.114283 -0.300774 -0.597 215 214 220
0.09198 -0.257447 -0.511 180 135 116
0.129033 -0.278607 -0.553 101 77 75
0.139025 -0.286164 -0.568 96 76 75
0.146886 -0.293217 -0.582 212 199 206
0.393187 -0.260973 -0.518 116 75 69
0.41574 -0.255431 -0.507 138 94 81
0.416848 -0.254928 -0.506 138 92 79
0.418775 -0.254928 -0.506 140 94 81
0.46306 -0.255431 -0.507 157 112 89
-0.140329 -0.317083 -0.627 99 99 107
-0.112053 -0.31152 -0.616 161 162 156
0.0704286 -0.257914 -0.51 203 171 158
0.0755095 -0.255386 -0.505 202 169 154
0.07824 -0.25488 -0.504 197 161 147
0.081281 -0.255386 -0.505 195 159 145
0.0843333 -0.255891 -0.506 190 154 140
0.0866019 -0.256903 -0.508 189 150 135
0.0941105 -0.258926 -0.512 173 128 109
0.399163 -0.259431 -0.513 122 84 73
0.40014 -0.259431 -0.513 122 82 72
0.402286 -0.258926 -0.512 123 83 73
0.41656 -0.256903 -0.508 135 91 80
0.429377 -0.255891 -0.506 135 89 76
0.433123 -0.256397 -0.507 141 95 80
0.437951 -0.256397 -0.507 143 95 81
0.453538 -0.255386 -0.505 164 118 94
0.07728 -0.25584 -0.504 200 164 150
0.120272 -0.27513 -0.542 101 77 75
0.136138 -0.286805 -0.565 100 74 73
0.3985 -0.2665 -0.525 114 75 70
0.397978 -0.265485 -0.523 110 76 66
0.414471 -0.258378 -0.509 131 89 77
0.418495 -0.25787 -0.508 135 91 80
0.0700143 -0.258329 -0.507 202 168 158
0.181381 -0.33119 -0.65 169 181 205
0.401787 -0.271067 -0.532 116 75 71
0.400967 -0.266481 -0.523 110 78 67
0.406794 -0.261895 -0.514 120 84 72
0.412207 -0.260367 -0.511 126 86 76
0.428171 -0.258838 -0.508 126 84 72
0.443834 -0.257819 -0.506 158 110 90
-0.113043 -0.314529 -0.615 223 223 223
0.0377619 -0.332429 -0.65 249 250 252
0.0952714 -0.262363 -0.513 163 120 103
0.102317 -0.265431 -0.519 138 104 94
0.103505 -0.265943 -0.52 136 102 92
0.123691 -0.280263 -0.548 98 77 82
0.165145 -0.320154 -0.626 253 254 255
0.430238 -0.332429 -0.65 171 176 198
0.431476 -0.332429 -0.65 171 176 198
0.457543 -0.321177 -0.628 82 100 150
0.406318 -0.275149 -0.538 115 75 75
0.447767 -0.258271 -0.505 168 122 99
-0.127286 -0.30492 -0.594 86 89 94
-0.114283 -0.30954 -0.603 228 226 239
-0.013 -0.333667 -0.65 211 209 212
0.0154762 -0.333667 -0.65 230 229 235
0.039 -0.333667 -0.65 250 251 253
0.0674762 -0.333667 -0.65 199 210 242
0.0732943 -0.258207 -0.503 202 168 159
0.114643 -0.274633 -0.535 112 82 82
0.421114 -0.2618 -0.51 120 80 70
0.425971 -0.2618 -0.51 115 75 65
0.441907 -0.259747 -0.506 156 108 88
0.443834 -0.259747 -0.506 159 111 89
0.448729 -0.259233 -0.505 166 118 95
0.451614 -0.259233 -0.505 171 121 98
0.45168 -0.25872 -0.504 171 121 98
0.462195 -0.259233 -0.505 156 111 90
0.470704 -0.261287 -0.509 150 104 81
-0.140776 -0.324085 -0.629 83 87 90
-0.0599552 -0.33439 -0.649 160 160 160
-0.00557143 -0.334905 -0.65 215 213 216
-0.000619048 -0.334905 -0.65 218 216 219
0.0105076 -0.33439 -0.649 226 225 231
0.0142162 -0.33439 -0.649 228 227 233
0.0241057 -0.33439 -0.649 240 239 245
0.0438848 -0.33439 -0.649 251 253 252
0.0697381 -0.260195 -0.505 202 168 159
0.0761686 -0.259165 -0.503 199 162 153
0.08016 -0.25968 -0.504 195 157 144
0.0843333 -0.26071 -0.506 187 148 133
0.110543 -0.273076 -0.53 121 90 88
0.130433 -0.288018 -0.559 96 75 80
0.13554 -0.29214 -0.567 96 76 78
0.452524 -0.334905 -0.65 81 98 152
0.409597 -0.272561 -0.529 107 78 72
0.413717 -0.267409 -0.519 119 81 70
0.440943 -0.26071 -0.506 158 110 88
0.447767 -0.260195 -0.505 168 120 97
0.448729 -0.260195 -0.505 166 118 95
0.467889 -0.261226 -0.507 150 105 84
0.4726 -0.262771 -0.51 152 106 83
-0.00803524 -0.335626 -0.649 214 212 213
0.0154524 -0.335626 -0.649 231 230 236
0.03024 -0.335109 -0.648 244 243 248
0.0463571 -0.335626 -0.649 250 251 255
0.0741048 -0.259606 -0.502 197 163 154
0.0790429 -0.260123 -0.503 199 159 149
0.08016 -0.26064 -0.504 195 155 145
0.130667 -0.2896 -0.56 97 76 83
0.198103 -0.335109 -0.648 209 226 255
0.21481 -0.336143 -0.65 253 252 255
0.462953 -0.335626 -0.649 179 184 213
0.432771 -0.263743 -0.51 119 81 72
0.446805 -0.261157 -0.505 167 119 96
-0.128357 -0.31091 -0.599 78 82 85
-0.12264 -0.3052 -0.588 81 82 87
-0.114472 -0.313505 -0.604 229 226 237
-0.00308571 -0.336343 -0.648 218 216 217
0.0216 -0.336343 -0.648 240 237 244
0.0487543 -0.336343 -0.648 234 232 243
0.124369 -0.285995 -0.551 100 79 86
0.134223 -0.293781 -0.566 95 72 78
0.200881 -0.336862 -0.649 225 231 255
0.218524 -0.337381 -0.65 252 252 254
0.467898 -0.336862 -0.649 146 159 193
0.470153 -0.335824 -0.647 105 118 160
0.470657 -0.335305 -0.646 86 102 153
0.41574 -0.276652 -0.533 105 75 67
0.420273 -0.270424 -0.521 113 79 70
0.439979 -0.262638 -0.506 153 105 83
0.441907 -0.262638 -0.506 161 113 91
0.44784 -0.2616 -0.504 170 120 95
0.45456 -0.2616 -0.504 168 120 98
0.46416 -0.2616 -0.504 149 102 82
-0.129 -0.313613 -0.602 76 80 83
-0.117103 -0.309446 -0.594 66 67 71
-0.112599 -0.32247 -0.619 230 229 237
-0.0166629 -0.337577 -0.648 210 208 209
0.00432 -0.337577 -0.648 221 221 223
0.0141724 -0.337056 -0.647 232 231 236
0.0363552 -0.337056 -0.647 250 249 255
0.0585381 -0.337056 -0.647 208 217 255
0.0634676 -0.337056 -0.647 157 178 231
0.08112 -0.26256 -0.504 190 148 136
0.0952714 -0.267249 -0.513 156 118 109
0.131133 -0.292775 -0.562 99 76 84
0.139886 -0.300069 -0.576 155 144 152
0.146409 -0.306841 -0.589 249 249 255
0.188878 -0.336535 -0.646 180 194 233
0.198103 -0.337577 -0.648 219 234 255
0.419571 -0.278189 -0.534 111 78 71
0.424243 -0.271416 -0.521 109 72 63
0.4264 -0.270895 -0.52 117 80 71
0.45264 -0.26256 -0.504 170 122 99
-0.138912 -0.327309 -0.626 79 82 87
-0.13662 -0.324694 -0.621 76 81 85
-0.120605 -0.307963 -0.589 75 75 83
-0.114662 -0.316329 -0.605 193 192 200
-0.00801048 -0.338289 -0.647 214 212 213
0.0499114 -0.338289 -0.647 238 245 253
0.0547562 -0.337766 -0.646 166 190 224
0.080001 -0.262997 -0.503 191 151 141
0.0918 -0.266657 -0.51 164 122 110
0.142696 -0.304826 -0.583 252 242 250
0.219424 -0.339334 -0.649 255 251 250
0.468619 -0.339857 -0.65 82 96 131
0.475579 -0.337766 -0.646 70 84 149
0.42666 -0.286003 -0.547 110 77 72
0.437848 -0.265611 -0.508 144 97 77
0.441995 -0.264043 -0.505 165 117 95
0.456532 -0.262997 -0.503 166 118 96
-0.129857 -0.318006 -0.606 75 78 85
-0.121014 -0.310134 -0.591 77 77 85
-0.110295 -0.328501 -0.626 228 225 232
-0.0141724 -0.339521 -0.647 213 211 212
-0.0116895 -0.338996 -0.646 213 211 212
0.03876 -0.338996 -0.646 239 237 242
0.0646 -0.338996 -0.646 153 165 217
0.06576 -0.26448 -0.504 206 171 167
0.0710943 -0.262906 -0.501 201 164 156
0.0749114 -0.262906 -0.501 198 160 151
0.08304 -0.26448 -0.504 184 142 128
0.184241 -0.339521 -0.647 227 231 242
0.19503 -0.338996 -0.646 181 195 230
0.200262 -0.339521 -0.647 251 248 255
0.212914 -0.340046 -0.648 251 251 255
0.222789 -0.340046 -0.648 219 215 229
0.22896 -0.340046 -0.648 244 244 252
0.472843 -0.34057 -0.649 74 91 143
0.428465 -0.28547 -0.544 113 80 73
0.428938 -0.279698 -0.533 111 77 68
0.435052 -0.270252 -0.515 118 84 74
0.43654 -0.268153 -0.511 137 94 78
0.436657 -0.267629 -0.51 139 96 80
0.437629 -0.267629 -0.51 142 97 76
0.444 -0.26448 -0.504 167 119 97
0.450784 -0.263955 -0.503 170 120 97
0.46512 -0.26448 -0.504 151 104 84
-0.1375 -0.329167 -0.625 75 78 87
-0.121629 -0.31284 -0.594 74 77 84
0.0608143 -0.3397 -0.645 142 161 217
0.0649286 -0.265967 -0.505 207 172 168
0.07682 -0.26386 -0.501 199 159 147
0.0851286 -0.265967 -0.505 180 138 124
0.117391 -0.28598 -0.543 107 82 86
0.11908 -0.28756 -0.546 105 80 84
0.12056 -0.288613 -0.548 104 79 85
0.182726 -0.340227 -0.646 236 239 254
0.183956 -0.340227 -0.646 210 213 228
0.21505 -0.340753 -0.647 243 244 249
0.224023 -0.34128 -0.648 211 210 224
0.225257 -0.34128 -0.648 217 216 232
0.226491 -0.34128 -0.648 217 216 232
0.46119 -0.342333 -0.65 162 169 198
0.464905 -0.342333 -0.65 158 164 188
0.479757 -0.3397 -0.645 72 87 146
0.455574 -0.264913 -0.503 169 118 97
0.462281 -0.264913 -0.503 155 107 87
-0.13339 -0.326129 -0.617 77 80 89
-0.0141286 -0.340929 -0.645 213 211 212
-0.000614286 -0.340929 -0.645 219 219 219
0.0639667 -0.266929 -0.505 207 172 166
0.0788857 -0.265343 -0.502 187 145 133
0.089681 -0.269043 -0.509 170 128 116
0.105902 -0.278557 -0.527 117 88 92
0.110153 -0.281729 -0.533 116 87 92
0.191043 -0.340929 -0.645 211 219 255
0.1935 -0.340929 -0.645 200 204 242
0.226142 -0.341986 -0.647 236 234 255
0.239203 -0.343043 -0.649 239 239 249
0.469857 -0.343571 -0.65 169 175 197
0.438075 -0.281729 -0.533 110 76 67
0.443919 -0.266929 -0.505 171 120 99
0.455625 -0.265343 -0.502 170 119 98
0.462281 -0.265871 -0.503 155 108 88
0.46512 -0.2664 -0.504 153 106 86
-0.127549 -0.321469 -0.606 76 79 88
-0.0227286 -0.342157 -0.645 208 206 207
-0.0202714 -0.342157 -0.645 210 208 209
0.01656 -0.341627 -0.644 240 238 243
0.02392 -0.341627 -0.644 245 242 249
0.0637133 -0.26683 -0.503 208 173 167
0.067959 -0.264708 -0.499 205 168 162
0.06986 -0.264708 -0.499 202 165 157
0.07682 -0.265769 -0.501 191 151 141
0.0885371 -0.269482 -0.508 171 128 119
0.106103 -0.280091 -0.528 120 91 95
0.203329 -0.342157 -0.645 255 250 254
0.218748 -0.343218 -0.647 225 228 255
0.441757 -0.283805 -0.535 105 72 63
0.438977 -0.276909 -0.522 109 76 67
0.439345 -0.271604 -0.512 146 100 85
0.44592 -0.26736 -0.504 163 113 90
0.445993 -0.26683 -0.503 164 114 89
0.453658 -0.26683 -0.503 167 119 97
-0.123062 -0.319961 -0.601 85 85 93
0.071761 -0.265658 -0.499 199 162 154
0.0981733 -0.275773 -0.518 141 105 105
0.100727 -0.27737 -0.521 128 98 100
0.181495 -0.343918 -0.646 217 218 222
0.191973 -0.342853 -0.644 212 226 255
0.213488 -0.343918 -0.646 173 182 215
0.21964 -0.343918 -0.646 232 239 255
0.22491 -0.34445 -0.647 210 213 248
0.234769 -0.34445 -0.647 202 208 244
0.48392 -0.342853 -0.644 91 105 152
0.48655 -0.341256 -0.641 185 188 205
0.442957 -0.268852 -0.505 169 118 97
0.452756 -0.267255 -0.502 171 120 99
0.463239 -0.267788 -0.503 160 109 88
0.485081 -0.274176 -0.515 156 109 91
0.489837 -0.276306 -0.519 154 109 90
-0.123881 -0.323243 -0.605 87 88 93
-0.109414 -0.331791 -0.621 117 118 123
-0.0214333 -0.343546 -0.643 211 209 210
-0.0141067 -0.34408 -0.644 214 212 213
-0.00796095 -0.343546 -0.643 217 215 216
0.127922 -0.300269 -0.562 102 79 85
0.19045 -0.343546 -0.643 223 229 253
0.215614 -0.344614 -0.645 176 188 228
0.229484 -0.345149 -0.646 166 180 219
0.240439 -0.346751 -0.649 237 238 255
0.470153 -0.345683 -0.647 55 76 123
0.47385 -0.345683 -0.647 61 86 143
0.475579 -0.345149 -0.646 71 97 156
0.47804 -0.345149 -0.646 88 113 169
0.48777 -0.342477 -0.641 175 180 200
0.4475 -0.286911 -0.537 105 75 67
0.446852 -0.285843 -0.535 106 76 68
0.44287 -0.270349 -0.506 170 119 100
0.44791 -0.268746 -0.503 171 119 97
0.470821 -0.270349 -0.506 158 113 92
0.478429 -0.272486 -0.51 158 111 93
-0.126067 -0.327076 -0.61 87 90 95
0.0616743 -0.269168 -0.502 206 171 165
0.0668743 -0.267023 -0.498 205 168 162
0.0706686 -0.267023 -0.498 197 162 156
0.189226 -0.34477 -0.643 221 225 250
0.195653 -0.345307 -0.644 185 199 238
0.199333 -0.345307 -0.644 234 240 255
0.20424 -0.345307 -0.644 251 250 255
0.258143 -0.348524 -0.65 130 155 211
0.260619 -0.348524 -0.65 146 172 223
0.474349 -0.346379 -0.646 121 142 195
0.490212 -0.343698 -0.641 175 178 187
0.441514 -0.273457 -0.51 152 105 85
0.462318 -0.269168 -0.502 159 111 89
0.48034 -0.273993 -0.511 158 110 90
-0.11088 -0.331467 -0.616 91 91 99
-0.109885 -0.332005 -0.617 88 88 96
-0.108057 -0.333619 -0.62 70 70 78
-0.105189 -0.335771 -0.624 55 54 60
0.0668743 -0.267971 -0.498 203 166 158
0.0716171 -0.267971 -0.498 198 161 155
0.0755629 -0.26851 -0.499 194 155 148
0.177529 -0.347071 -0.645 243 244 246
0.268048 -0.349762 -0.65 199 210 238
0.269286 -0.349762 -0.65 206 217 245
0.449355 -0.349224 -0.649 95 126 181
0.462759 -0.348148 -0.647 177 173 188
0.489754 -0.345457 -0.642 194 196 209
0.44991 -0.287881 -0.535 107 82 78
0.44496 -0.2712 -0.504 175 123 102
0.445035 -0.270662 -0.503 175 123 101
0.4518 -0.270124 -0.502 169 117 95
-0.130916 -0.33588 -0.622 87 91 94
0.0580267 -0.27648 -0.512 200 166 164
0.0911848 -0.27648 -0.512 149 107 108
0.0948457 -0.27864 -0.516 141 99 101
0.173843 -0.3483 -0.645 248 247 255
0.216507 -0.34776 -0.644 140 157 203
0.243771 -0.34992 -0.648 231 229 253
0.27919 -0.351 -0.65 129 148 191
0.311381 -0.351 -0.65 100 117 161
0.451828 -0.35046 -0.649 77 108 163
0.4536 -0.34992 -0.648 81 108 163
0.494324 -0.3456 -0.64 197 198 216
0.491014 -0.32562 -0.603 109 103 115
0.452614 -0.28998 -0.537 108 80 76
0.447197 -0.28458 -0.527 108 79 73
0.445083 -0.28134 -0.521 125 87 76
0.450844 -0.27108 -0.502 170 118 97
0.0603552 -0.27041 -0.499 209 174 168
0.1116 -0.292629 -0.54 112 86 97
0.113046 -0.293712 -0.542 110 84 95
0.127077 -0.305092 -0.563 99 77 90
0.229129 -0.349529 -0.645 176 189 242
0.235636 -0.35007 -0.646 228 228 255
0.238466 -0.350612 -0.647 233 232 255
0.261454 -0.351696 -0.649 124 153 211
0.266399 -0.351696 -0.649 157 177 228
0.287414 -0.351696 -0.649 55 84 160
0.289887 -0.351696 -0.649 61 87 162
0.299 -0.352238 -0.65 106 132 191
0.310902 -0.351696 -0.649 151 167 201
0.454834 -0.351154 -0.648 116 139 191
0.45783 -0.350612 -0.647 143 146 165
0.459062 -0.350612 -0.647 150 153 172
0.469929 -0.349529 -0.645 116 130 165
0.479013 -0.348987 -0.644 158 170 196
0.486843 -0.348445 -0.643 143 152 185
0.490977 -0.347903 -0.642 159 163 192
0.4922 -0.347903 -0.642 177 181 210
0.49764 -0.345735 -0.638 157 167 192
0.496907 -0.333813 -0.616 210 208 222
0.497529 -0.331104 -0.611 149 152 171
0.444798 -0.274204 -0.506 163 115 93
0.448931 -0.272036 -0.502 170 118 96
0.451854 -0.271494 -0.501 175 123 102
0.452809 -0.271494 -0.501 174 122 101
0.06106 -0.270273 -0.497 211 176 172
0.0725657 -0.270817 -0.498 191 152 145
0.0809591 -0.273536 -0.503 169 131 122
0.08304 -0.27408 -0.504 169 131 120
0.0900333 -0.277887 -0.511 152 112 112
0.09252 -0.279518 -0.514 143 104 105
0.117857 -0.299095 -0.55 105 82 92
0.121043 -0.301814 -0.555 107 84 94
0.12254 -0.302902 -0.557 98 78 90
0.12906 -0.30834 -0.567 97 79 93
0.136438 -0.31541 -0.58 150 158 195
0.212166 -0.349126 -0.642 230 237 255
0.232814 -0.350757 -0.645 206 209 240
0.265989 -0.352389 -0.648 117 138 191
0.276289 -0.352932 -0.649 105 123 171
0.301012 -0.352932 -0.649 162 178 211
0.414143 -0.353476 -0.65 93 119 178
0.420333 -0.353476 -0.65 91 117 174
0.421571 -0.353476 -0.65 70 96 157
0.42281 -0.353476 -0.65 60 86 147
0.427762 -0.353476 -0.65 129 143 188
0.433952 -0.353476 -0.65 174 176 191
0.471653 -0.350213 -0.644 159 169 196
0.481944 -0.34967 -0.643 176 189 208
0.444798 -0.275168 -0.506 161 113 93
0.44496 -0.27408 -0.504 168 117 96
0.44592 -0.27408 -0.504 169 119 96
0.4509 -0.272449 -0.501 176 124 103
0.453763 -0.272449 -0.501 171 119 97
-0.122229 -0.338343 -0.62 108 109 114
0.0637714 -0.270674 -0.496 204 167 159
0.0787286 -0.273403 -0.501 181 140 134
0.121261 -0.303417 -0.556 107 86 93
0.206951 -0.349803 -0.641 233 238 244
0.260649 -0.353077 -0.647 84 119 183
0.264754 -0.353623 -0.648 117 139 188
0.284503 -0.353623 -0.648 46 77 142
0.327476 -0.354714 -0.65 65 101 177
0.411667 -0.354714 -0.65 101 124 176
0.415978 -0.354169 -0.649 64 89 143
0.44797 -0.353077 -0.647 117 143 194
0.470427 -0.35144 -0.644 149 158 189
0.471653 -0.35144 -0.644 159 169 196
0.497981 -0.349257 -0.64 182 189 205
0.44688 -0.27504 -0.504 167 116 95
0.44791 -0.274494 -0.503 165 117 95
0.459489 -0.273403 -0.501 176 121 100
0.055419 -0.277095 -0.506 198 164 155
0.0609371 -0.271619 -0.496 212 175 166
0.0714733 -0.272167 -0.497 189 150 143
0.103281 -0.28969 -0.529 119 92 99
0.11513 -0.299548 -0.547 108 85 91
0.118286 -0.302286 -0.552 108 85 91
0.165181 -0.350476 -0.64 242 248 255
0.18009 -0.351024 -0.641 208 210 223
0.214277 -0.351024 -0.641 149 162 206
0.21794 -0.351024 -0.641 136 150 197
0.223171 -0.351571 -0.642 135 146 191
0.235271 -0.353214 -0.645 148 152 187
0.268457 -0.354857 -0.648 199 208 237
0.284064 -0.35431 -0.647 51 82 147
0.290226 -0.35431 -0.647 39 71 146
0.31536 -0.354857 -0.648 65 103 174
0.326972 -0.355405 -0.649 63 100 180
0.379476 -0.355952 -0.65 92 108 142
0.438789 -0.354857 -0.648 165 170 200
0.444273 -0.35431 -0.647 98 118 169
0.457643 -0.353214 -0.645 162 171 188
0.487309 -0.351571 -0.642 174 178 205
0.455171 -0.292429 -0.534 115 86 82
0.448868 -0.275452 -0.503 168 117 96
0.0636429 -0.272014 -0.495 200 164 150
0.0866019 -0.279158 -0.508 149 113 113
0.173986 -0.352245 -0.641 250 252 251
0.17981 -0.351695 -0.64 199 201 224
0.190483 -0.351146 -0.639 152 174 221
0.206629 -0.351695 -0.64 168 169 197
0.21794 -0.352245 -0.641 137 151 196
0.231227 -0.353893 -0.644 161 176 215
0.252471 -0.354443 -0.645 86 125 194
0.2537 -0.354443 -0.645 76 115 184
0.261881 -0.355542 -0.647 95 130 194
0.273394 -0.356091 -0.648 197 202 222
0.281599 -0.355542 -0.647 66 91 155
0.284064 -0.355542 -0.647 55 86 151
0.29762 -0.355542 -0.647 188 197 238
0.298852 -0.355542 -0.647 188 197 238
0.34481 -0.35719 -0.65 59 80 125
0.348524 -0.35719 -0.65 54 84 144
0.352238 -0.35719 -0.65 81 102 165
0.397435 -0.356641 -0.649 138 139 159
0.404852 -0.356641 -0.649 101 109 146
0.415337 -0.356091 -0.648 113 128 161
0.416571 -0.356091 -0.648 136 151 184
0.426446 -0.356091 -0.648 95 109 148
0.4515 -0.354443 -0.645 95 115 165
0.466022 -0.353344 -0.643 163 170 199
0.472634 -0.352794 -0.642 166 173 199
0.473857 -0.352794 -0.642 168 175 201
0.4747 -0.27751 -0.505 163 115 92
0.0616324 -0.272406 -0.494 204 168 156
0.0822429 -0.278471 -0.505 166 122 121
0.0953971 -0.286191 -0.519 126 94 99
0.107911 -0.296117 -0.537 110 86 99
0.130198 -0.315417 -0.572 108 87 96
0.137614 -0.322586 -0.585 169 180 226
0.169102 -0.353466 -0.641 215 221 237
0.196569 -0.352363 -0.639 162 179 223
0.215162 -0.352914 -0.64 136 149 201
0.221603 -0.353466 -0.641 135 149 196
0.246329 -0.355671 -0.645 134 148 183
0.256157 -0.355671 -0.645 89 128 195
0.260246 -0.356223 -0.646 93 131 193
0.261476 -0.356223 -0.646 93 131 193
0.295155 -0.356774 -0.647 124 153 219
0.308711 -0.356774 -0.647 174 177 196
0.314873 -0.356774 -0.647 83 117 178
0.335626 -0.357877 -0.649 177 185 208
0.339334 -0.357877 -0.649 176 181 201
0.39249 -0.357877 -0.649 175 175 199
0.4104 -0.357326 -0.648 152 158 190
0.411634 -0.357326 -0.648 158 164 196
0.438665 -0.356223 -0.646 135 138 169
0.501286 -0.351811 -0.638 113 132 175
0.507395 -0.350157 -0.635 106 123 177
0.458751 -0.296117 -0.537 110 84 83
0.447914 -0.283434 -0.514 148 102 89
0.449888 -0.276817 -0.502 170 120 97
0.0539171 -0.27722 -0.501 199 165 155
0.0653962 -0.273347 -0.494 198 162 150
0.0703848 -0.274453 -0.496 188 148 138
0.0766667 -0.276667 -0.5 173 132 126
0.0942267 -0.286627 -0.518 129 96 103
0.12364 -0.310973 -0.562 101 81 92
0.140151 -0.32702 -0.591 151 165 212
0.170057 -0.354133 -0.64 175 181 207
0.192615 -0.353027 -0.638 143 165 212
0.201122 -0.353027 -0.638 243 246 255
0.202654 -0.35358 -0.639 243 245 255
0.228418 -0.355793 -0.643 181 191 244
0.239813 -0.356347 -0.644 224 226 249
0.247173 -0.356347 -0.644 112 136 180
0.273781 -0.357453 -0.646 193 203 228
0.275011 -0.357453 -0.646 179 189 214
0.283625 -0.357453 -0.646 50 81 145
0.327197 -0.358007 -0.647 120 142 191
0.339334 -0.359113 -0.649 168 173 193
0.343749 -0.35856 -0.648 65 82 136
0.344983 -0.35856 -0.648 73 90 144
0.34992 -0.35856 -0.648 152 176 224
0.382011 -0.35856 -0.648 111 132 185
0.385714 -0.35856 -0.648 96 123 178
0.390651 -0.35856 -0.648 145 160 203
0.40607 -0.358007 -0.647 163 172 205
0.415929 -0.358007 -0.647 141 146 175
0.418393 -0.358007 -0.647 166 171 201
0.430051 -0.357453 -0.646 66 73 115
0.434973 -0.357453 -0.646 169 175 201
0.451325 -0.355793 -0.643 127 145 195
0.45796 -0.35524 -0.642 87 98 128
0.502501 -0.353027 -0.638 84 104 167
0.50414 -0.352473 -0.637 85 105 166
0.459524 -0.276667 -0.5 177 122 101
0.0552686 -0.275398 -0.496 205 171 161
0.0588095 -0.274288 -0.494 207 171 159
0.0788857 -0.27873 -0.502 164 123 121
0.10669 -0.297608 -0.536 108 84 97
0.117447 -0.307047 -0.553 102 85 95
0.173443 -0.354797 -0.639 239 243 254
0.185324 -0.354242 -0.638 136 159 211
0.192615 -0.354242 -0.638 160 181 226
0.210844 -0.354242 -0.638 206 217 247
0.232092 -0.357018 -0.643 220 225 255
0.24472 -0.357573 -0.644 160 171 203
0.2668 -0.357573 -0.644 201 203 228
0.2709 -0.358129 -0.645 196 203 229
0.327197 -0.359239 -0.647 128 145 188
0.334591 -0.359239 -0.647 175 186 204
0.361704 -0.359239 -0.647 99 112 156
0.399291 -0.359794 -0.648 138 143 175
0.402372 -0.359239 -0.647 74 84 119
0.440987 -0.357573 -0.644 89 107 155
0.446426 -0.357018 -0.643 81 111 175
0.4494 -0.356463 -0.642 123 141 187
0.463351 -0.355908 -0.641 163 170 198
0.471162 -0.355352 -0.64 169 172 191
0.473119 -0.355908 -0.641 170 173 192
0.478476 -0.355352 -0.64 178 179 199
0.49842 -0.354797 -0.639 138 153 194
0.501286 -0.354242 -0.638 84 104 163
0.505771 -0.353131 -0.636 79 99 152
0.513443 -0.352576 -0.635 96 114 160
0.449657 -0.286503 -0.516 139 101 90
0.44969 -0.280395 -0.505 169 117 95
0.450652 -0.280395 -0.505 169 117 95
0.452809 -0.278174 -0.501 179 127 106
0.453763 -0.278174 -0.501 177 125 104
0.459524 -0.277619 -0.5 179 124 103
0.0624467 -0.274671 -0.493 202 164 155
0.0983124 -0.291943 -0.524 119 92 101
0.116183 -0.307543 -0.552 104 84 93
0.119357 -0.310329 -0.557 100 84 95
0.192313 -0.3549 -0.637 161 183 224
0.260262 -0.358243 -0.643 100 131 186
0.312671 -0.359357 -0.645 92 108 142
0.330383 -0.359914 -0.646 181 189 210
0.334591 -0.360471 -0.647 175 187 203
0.335824 -0.360471 -0.647 179 187 208
0.360471 -0.360471 -0.647 165 173 209
0.364169 -0.360471 -0.647 86 99 134
0.458468 -0.357129 -0.641 95 105 140
0.477257 -0.356571 -0.64 173 175 196
0.494324 -0.356571 -0.64 181 186 208
0.501286 -0.355457 -0.638 84 104 163
0.506186 -0.353786 -0.635 78 97 156
0.510219 -0.353229 -0.634 95 118 170
0.460476 -0.278571 -0.5 180 125 104
0.461429 -0.278571 -0.5 179 124 103
0.467123 -0.279129 -0.501 172 120 98
0.0703848 -0.277288 -0.496 181 141 131
0.104257 -0.298531 -0.534 111 88 96
0.114714 -0.307476 -0.55 106 86 88
0.117871 -0.310271 -0.555 107 86 93
0.169526 -0.356672 -0.638 231 236 255
0.170741 -0.356672 -0.638 241 246 252
0.19474 -0.356113 -0.637 172 186 221
0.219694 -0.357231 -0.639 165 182 228
0.225266 -0.35835 -0.641 123 143 194
0.229286 -0.358909 -0.642 149 163 210
0.237846 -0.358909 -0.642 221 223 244
0.252913 -0.359468 -0.643 128 153 194
0.266386 -0.359468 -0.643 206 203 224
0.29256 -0.360027 -0.644 73 108 166
0.306053 -0.360027 -0.644 185 190 212
0.31464 -0.360027 -0.644 101 123 172
0.326186 -0.360586 -0.645 150 163 198
0.334074 -0.361145 -0.646 178 186 207
0.372795 -0.361704 -0.647 174 177 212
0.404211 -0.361145 -0.646 168 179 201
0.413414 -0.360586 -0.645 166 174 197
0.42136 -0.360027 -0.644 171 176 198
0.423813 -0.360027 -0.644 167 171 196
0.42504 -0.360027 -0.644 167 174 200
0.46019 -0.35779 -0.64 142 146 171
0.466286 -0.35779 -0.64 166 172 194
0.0595086 -0.275989 -0.492 203 166 157
0.08016 -0.28272 -0.504 161 119 120
0.108715 -0.303475 -0.541 108 88 99
0.114923 -0.309085 -0.551 107 86 93
0.116604 -0.310768 -0.554 107 86 93
0.167095 -0.357888 -0.638 245 242 251
0.18746 -0.357327 -0.637 165 181 232
0.195953 -0.357327 -0.637 203 216 248
0.20566 -0.357327 -0.637 235 237 252
0.256189 -0.360131 -0.642 125 151 200
0.26108 -0.360131 -0.642 149 168 211
0.398059 -0.362375 -0.646 85 94 127
0.409093 -0.361253 -0.644 169 177 200
0.42438 -0.360692 -0.643 161 169 190
0.448 -0.35901 -0.64 71 98 151
0.451657 -0.35901 -0.64 71 97 146
0.463123 -0.358449 -0.639 166 171 191
0.5005 -0.357327 -0.637 83 107 167
0.521471 -0.355083 -0.633 177 175 188
0.523883 -0.355083 -0.633 189 189 201
0.0524343 -0.279177 -0.496 205 168 159
0.0532714 -0.278614 -0.495 202 168 156
0.0947724 -0.293249 -0.521 126 95 103
0.104452 -0.301129 -0.535 114 89 95
0.126486 -0.320829 -0.57 103 84 88
0.16198 -0.35854 -0.637 215 220 249
0.16562 -0.35854 -0.637 252 252 255
0.242359 -0.360791 -0.641 210 214 239
0.287983 -0.361354 -0.642 172 177 215
0.311702 -0.361917 -0.643 118 131 165
0.376557 -0.363043 -0.645 137 144 172
0.381471 -0.363043 -0.645 97 114 168
0.386386 -0.363043 -0.645 112 134 192
0.453386 -0.359666 -0.639 82 110 160
0.457037 -0.359666 -0.639 153 167 202
0.462398 -0.359103 -0.638 156 158 171
0.484272 -0.359103 -0.638 134 134 142
0.498503 -0.357977 -0.636 84 109 165
0.505389 -0.356851 -0.634 81 108 161
0.507804 -0.356851 -0.634 128 150 210
0.51062 -0.356289 -0.633 111 132 177
0.525463 -0.355726 -0.632 205 204 218
0.453712 -0.282554 -0.502 173 122 101
0.454717 -0.281991 -0.501 178 126 105
0.456667 -0.281429 -0.5 175 123 101
0.110557 -0.307795 -0.545 110 87 97
0.128467 -0.324173 -0.574 96 88 109
0.168994 -0.359189 -0.636 242 247 253
0.172629 -0.359189 -0.636 246 250 253
0.198069 -0.359189 -0.636 233 238 255
0.214153 -0.359753 -0.637 166 175 216
0.307549 -0.362577 -0.642 184 194 219
0.353344 -0.363142 -0.643 174 180 204
0.383333 -0.363707 -0.644 67 92 158
0.3913 -0.364271 -0.645 153 167 212
0.398053 -0.363707 -0.644 151 156 185
0.417606 -0.362577 -0.642 162 169 195
0.431057 -0.362577 -0.642 156 152 179
0.432828 -0.362012 -0.641 109 120 152
0.438248 -0.361448 -0.64 43 67 129
0.442431 -0.360883 -0.639 24 55 122
0.473807 -0.359753 -0.637 86 97 127
0.486703 -0.360318 -0.638 188 189 194
0.497291 -0.359189 -0.636 103 124 169
0.504181 -0.358059 -0.634 83 110 165
0.452906 -0.289723 -0.513 157 111 96
0.463357 -0.281816 -0.499 179 127 106
0.467159 -0.281816 -0.499 173 121 100
0.472849 -0.282946 -0.501 170 119 98
0.0555524 -0.347933 -0.614 196 160 146
0.04818 -0.289567 -0.511 201 164 155
0.130689 -0.3281 -0.579 152 148 171
0.162937 -0.3604 -0.636 182 190 227
0.202595 -0.359833 -0.635 231 233 248
0.22578 -0.3621 -0.639 177 190 225
0.228214 -0.3621 -0.639 147 163 199
0.251733 -0.362667 -0.64 160 179 222
0.278988 -0.363233 -0.641 179 188 217
0.331298 -0.364367 -0.643 118 131 165
0.382738 -0.364367 -0.643 53 80 147
0.389467 -0.364933 -0.644 110 131 184
0.393147 -0.364933 -0.644 98 111 155
0.414513 -0.363233 -0.641 144 151 177
0.43581 -0.362667 -0.64 47 71 135
0.450753 -0.360967 -0.637 31 56 113
0.459247 -0.360967 -0.637 170 168 181
0.4823 -0.360967 -0.637 149 147 161
0.483513 -0.360967 -0.637 152 150 161
0.487153 -0.360967 -0.637 185 183 194
0.515832 -0.358133 -0.632 99 107 143
0.453658 -0.285033 -0.503 178 128 105
0.464308 -0.282767 -0.499 174 124 101
0.476661 -0.284467 -0.502 170 119 98
0.477617 -0.284467 -0.502 168 117 96
0.0593876 -0.279169 -0.491 199 162 153
0.121931 -0.320674 -0.564 100 80 91
0.135419 -0.335457 -0.59 179 183 230
0.160262 -0.361043 -0.635 155 169 214
0.171148 -0.361043 -0.635 246 246 255
0.175986 -0.361043 -0.635 239 246 252
0.201386 -0.361043 -0.635 233 234 252
0.211394 -0.361611 -0.636 192 200 236
0.215367 -0.36218 -0.637 213 222 255
0.247689 -0.363317 -0.639 120 141 188
0.260267 -0.363886 -0.64 164 179 218
0.266362 -0.363886 -0.64 190 197 225
0.270441 -0.364454 -0.641 93 100 128
0.28143 -0.364454 -0.641 183 191 214
0.284648 -0.363886 -0.64 160 168 191
0.289524 -0.363886 -0.64 177 191 217
0.305103 -0.365023 -0.642 158 171 206
0.308771 -0.365023 -0.642 171 183 205
0.322223 -0.365023 -0.642 114 136 185
0.337422 -0.365591 -0.643 152 158 184
0.341096 -0.365591 -0.643 177 182 201
0.345995 -0.365591 -0.643 173 178 197
0.368041 -0.365591 -0.643 155 161 187
0.37539 -0.365591 -0.643 104 119 162
0.4224 -0.363886 -0.64 165 168 175
0.477157 -0.361043 -0.635 173 171 192
0.512221 -0.359337 -0.632 191 200 229
0.513425 -0.359337 -0.632 186 195 224
0.461857 -0.301343 -0.53 127 98 94
0.452509 -0.287697 -0.506 172 120 99
0.458571 -0.284286 -0.5 180 128 106
0.08016 -0.28752 -0.504 158 116 118
0.162681 -0.362252 -0.635 156 168 210
0.188081 -0.362252 -0.635 184 193 226
0.192919 -0.362252 -0.635 201 215 244
0.213817 -0.362823 -0.636 205 211 245
0.217451 -0.362823 -0.636 187 192 221
0.225427 -0.363964 -0.638 213 218 250
0.244037 -0.364534 -0.639 164 171 200
0.2688 -0.365105 -0.64 98 107 140
0.276114 -0.365105 -0.64 187 195 218
0.287854 -0.364534 -0.639 179 190 210
0.298057 -0.365105 -0.64 150 159 190
0.309511 -0.365675 -0.641 153 166 210
0.319279 -0.365675 -0.641 67 96 154
0.3205 -0.365675 -0.641 75 104 162
0.325891 -0.366246 -0.642 164 182 220
0.351571 -0.366246 -0.642 172 174 197
0.352794 -0.366246 -0.642 173 178 200
0.39621 -0.366816 -0.643 150 162 200
0.456103 -0.362823 -0.636 123 136 171
0.466271 -0.362252 -0.635 175 174 180
0.467481 -0.362252 -0.635 174 173 191
0.46869 -0.362252 -0.635 171 170 188
0.496935 -0.361682 -0.634 165 173 196
0.504998 -0.360541 -0.632 107 129 179
0.524631 -0.35997 -0.631 202 203 224
0.5262 -0.3594 -0.63 196 197 217
0.471985 -0.310339 -0.544 122 96 95
0.462429 -0.284097 -0.498 174 124 101
0.0481914 -0.286763 -0.501 204 167 158
0.0521171 -0.282184 -0.493 205 168 149
0.0713295 -0.283901 -0.496 174 134 126
0.0825686 -0.290197 -0.507 140 104 106
0.09378 -0.29821 -0.521 122 93 98
0.0951362 -0.299355 -0.523 120 93 98
0.115966 -0.318244 -0.556 105 85 96
0.12628 -0.328547 -0.574 91 83 98
0.178405 -0.363462 -0.635 200 211 233
0.181747 -0.36289 -0.634 191 205 242
0.182954 -0.36289 -0.634 203 217 254
0.1905 -0.363462 -0.635 178 187 220
0.19171 -0.363462 -0.635 192 203 233
0.215029 -0.364034 -0.636 216 221 251
0.252557 -0.365751 -0.639 112 136 182
0.258643 -0.365751 -0.639 149 167 203
0.263511 -0.365751 -0.639 187 192 221
0.274466 -0.365751 -0.639 187 194 213
0.291962 -0.366324 -0.64 184 191 209
0.301714 -0.366324 -0.64 104 116 158
0.366896 -0.366896 -0.641 171 173 194
0.425941 -0.365179 -0.638 169 171 184
0.447623 -0.364034 -0.636 99 118 158
0.448129 -0.363462 -0.635 129 148 188
0.455386 -0.363462 -0.635 76 90 129
0.500974 -0.362317 -0.633 116 134 182
0.512612 -0.361172 -0.631 196 199 216
0.522228 -0.361172 -0.631 203 206 221
0.52343 -0.361172 -0.631 203 206 221
0.5274 -0.3606 -0.63 199 202 221
0.463001 -0.30279 -0.529 134 101 94
0.45333 -0.29077 -0.508 167 116 95
0.463377 -0.285046 -0.498 175 125 102
0.0603229 -0.281974 -0.491 192 155 146
0.119358 -0.322749 -0.562 101 81 92
0.121071 -0.324471 -0.565 104 84 95
0.132269 -0.336531 -0.586 173 177 206
0.182954 -0.364097 -0.634 191 205 242
0.202276 -0.364097 -0.634 166 167 195
0.300026 -0.366969 -0.639 159 165 191
0.337593 -0.368117 -0.641 179 180 201
0.340035 -0.368117 -0.641 161 161 173
0.362667 -0.367543 -0.64 174 177 196
0.376664 -0.368117 -0.641 49 78 144
0.387034 -0.368691 -0.642 45 75 139
0.394978 -0.368117 -0.641 155 169 208
0.402895 -0.367543 -0.64 119 118 132
0.440354 -0.365246 -0.636 58 94 156
0.460224 -0.364671 -0.635 167 172 191
0.462643 -0.364671 -0.635 167 168 173
0.477613 -0.364097 -0.634 168 167 183
0.495728 -0.364097 -0.634 176 184 203
0.504998 -0.362949 -0.632 133 150 196
0.512612 -0.362374 -0.631 200 201 221
0.464751 -0.304946 -0.531 132 103 97
0.453538 -0.290014 -0.505 176 128 106
0.480486 -0.288291 -0.502 165 118 100
0.0470486 -0.287519 -0.499 206 170 158
0.0621933 -0.28291 -0.491 191 153 142
0.0735143 -0.286943 -0.498 165 121 120
0.0827314 -0.292705 -0.508 141 109 114
0.0901057 -0.29789 -0.517 125 98 105
0.158551 -0.364729 -0.633 208 219 249
0.16484 -0.365305 -0.634 181 190 221
0.202276 -0.365305 -0.634 150 152 177
0.209522 -0.365305 -0.634 223 228 248
0.213481 -0.365881 -0.635 219 224 244
0.223509 -0.366457 -0.636 212 217 239
0.232353 -0.367033 -0.637 170 180 207
0.243655 -0.36761 -0.638 175 184 213
0.261884 -0.36761 -0.638 178 188 223
0.26796 -0.36761 -0.638 164 171 200
0.278897 -0.36761 -0.638 188 189 207
0.303677 -0.368186 -0.639 115 124 163
0.313414 -0.368186 -0.639 36 64 129
0.350476 -0.368762 -0.64 127 135 171
0.401049 -0.368186 -0.639 180 176 193
0.403483 -0.368186 -0.639 132 130 143
0.42042 -0.367033 -0.637 127 127 139
0.44329 -0.365881 -0.635 66 91 145
0.453461 -0.365305 -0.634 114 125 155
0.460707 -0.365305 -0.634 129 136 154
0.490897 -0.365305 -0.634 160 161 189
0.500183 -0.364152 -0.632 134 147 192
0.52059 -0.348019 -0.604 110 92 90
0.455191 -0.293281 -0.509 167 123 98
0.470017 -0.286943 -0.498 172 120 99
0.474763 -0.287519 -0.499 169 117 96
0.0714733 -0.287313 -0.497 169 125 122
0.0998133 -0.307547 -0.532 110 87 95
0.1215 -0.32778 -0.567 105 84 93
0.135433 -0.343967 -0.595 209 215 247
0.155647 -0.364778 -0.631 233 239 255
0.165786 -0.365934 -0.633 162 168 194
0.197134 -0.365934 -0.633 212 219 238
0.213145 -0.366512 -0.634 213 218 237
0.233567 -0.368247 -0.637 137 147 174
0.24934 -0.368247 -0.637 117 148 205
0.2639 -0.368247 -0.637 107 119 157
0.277682 -0.368825 -0.638 183 186 203
0.301987 -0.368825 -0.638 172 183 203
0.348711 -0.369403 -0.639 94 107 139
0.351146 -0.369403 -0.639 134 141 167
0.387048 -0.369981 -0.64 118 136 186
0.412573 -0.368825 -0.638 169 174 196
0.417993 -0.368247 -0.637 162 172 184
0.424606 -0.367669 -0.636 154 155 173
0.427029 -0.367669 -0.636 71 76 114
0.434824 -0.36709 -0.635 121 139 177
0.440177 -0.366512 -0.634 90 115 171
0.449129 -0.365934 -0.633 157 169 195
0.45998 -0.365934 -0.633 94 102 115
0.462391 -0.365934 -0.633 163 161 172
0.5178 -0.3642 -0.63 197 199 214
0.5238 -0.3642 -0.63 130 136 168
0.528959 -0.363622 -0.629 193 193 217
0.455334 -0.293094 -0.507 172 126 103
0.0536667 -0.2842 -0.49 200 167 152
0.0804781 -0.29348 -0.506 144 108 110
0.091619 -0.3016 -0.52 120 93 98
0.121929 -0.33002 -0.569 104 85 91
0.161912 -0.36656 -0.632 238 241 255
0.218319 -0.3683 -0.635 212 219 237
0.219529 -0.3683 -0.635 215 220 239
0.229566 -0.36888 -0.636 209 215 237
0.2639 -0.36946 -0.637 121 135 172
0.273607 -0.36946 -0.637 192 194 217
0.280887 -0.36946 -0.637 164 169 191
0.322646 -0.37004 -0.638 42 73 138
0.34452 -0.37004 -0.638 125 126 146
0.386443 -0.37062 -0.639 143 158 201
0.408287 -0.36946 -0.637 170 171 192
0.410713 -0.36946 -0.637 171 176 198
0.423394 -0.36888 -0.636 132 133 151
0.45805 -0.36656 -0.632 78 85 101
0.460457 -0.36656 -0.632 161 160 176
0.466476 -0.36656 -0.632 174 173 191
0.473699 -0.36656 -0.632 139 148 181
0.476107 -0.36656 -0.632 168 169 190
0.491756 -0.36656 -0.632 175 182 201
0.5058 -0.3654 -0.63 124 144 179
0.455334 -0.29406 -0.507 171 124 104
0.457654 -0.28942 -0.499 181 130 111
0.464326 -0.28884 -0.498 173 123 100
0.467171 -0.28884 -0.498 169 119 96
0.46812 -0.28884 -0.498 170 120 97
0.0519057 -0.285715 -0.491 201 165 149
0.0583333 -0.285133 -0.49 191 155 139
0.0611333 -0.285133 -0.49 187 148 133
0.068219 -0.287461 -0.494 176 134 118
0.0780848 -0.292698 -0.503 145 110 108
0.0817638 -0.295608 -0.508 140 106 105
0.0866457 -0.299099 -0.514 131 99 104
0.111977 -0.321211 -0.552 102 85 95
0.12042 -0.32994 -0.567 102 85 91
0.141171 -0.354962 -0.61 243 245 255
0.187192 -0.367764 -0.632 165 174 207
0.221598 -0.368928 -0.634 209 216 234
0.229205 -0.36951 -0.635 207 212 231
0.263486 -0.370091 -0.636 174 188 227
0.290137 -0.370091 -0.636 179 181 202
0.329937 -0.371255 -0.638 153 164 210
0.362749 -0.371255 -0.638 135 136 157
0.421519 -0.36951 -0.635 136 141 161
0.432249 -0.368346 -0.633 154 158 183
0.435866 -0.368346 -0.633 98 119 162
0.440689 -0.368346 -0.633 108 130 179
0.462132 -0.367182 -0.631 149 150 171
0.475353 -0.367182 -0.631 166 168 191
0.490978 -0.367182 -0.631 176 181 200
0.513384 -0.366018 -0.629 192 190 201
0.4819 -0.321793 -0.553 126 102 100
0.475967 -0.317138 -0.545 125 100 96
0.460506 -0.29037 -0.499 181 126 106
0.470966 -0.289789 -0.498 171 121 98
0.0602 -0.286067 -0.49 185 148 132
0.0631286 -0.28665 -0.491 188 149 134
0.0672781 -0.288402 -0.494 179 137 123
0.0917952 -0.304165 -0.521 118 93 97
0.107443 -0.318176 -0.545 104 85 91
0.167666 -0.368384 -0.631 172 181 212
0.21522 -0.369551 -0.633 210 217 235
0.250976 -0.370719 -0.635 47 84 152
0.252186 -0.370719 -0.635 47 84 152
0.278023 -0.371303 -0.636 121 127 143
0.294983 -0.371303 -0.636 175 181 203
0.298617 -0.371303 -0.636 173 180 199
0.308793 -0.371887 -0.637 63 93 157
0.340874 -0.37247 -0.638 175 181 197
0.348833 -0.371887 -0.637 166 171 191
0.361533 -0.37247 -0.638 173 175 198
0.366394 -0.37247 -0.638 59 68 99
0.374901 -0.37247 -0.638 137 152 191
0.380977 -0.37247 -0.638 86 113 166
0.382192 -0.37247 -0.638 109 136 189
0.393727 -0.371887 -0.637 61 78 121
0.405223 -0.371303 -0.636 166 173 191
0.407646 -0.371303 -0.636 173 171 192
0.433973 -0.368968 -0.632 102 115 149
0.451315 -0.368384 -0.631 166 172 198
0.46093 -0.368384 -0.631 145 152 181
0.483 -0.3678 -0.63 161 162 183
0.501 -0.3678 -0.63 126 145 187
0.47946 -0.320511 -0.549 126 100 99
0.469411 -0.311754 -0.534 134 106 103
0.45758 -0.292489 -0.501 173 127 103
0.458571 -0.291905 -0.5 177 126 105
0.475709 -0.290737 -0.498 169 123 100
0.0439314 -0.290514 -0.496 202 166 152
0.0672781 -0.289343 -0.494 176 134 122
0.0714733 -0.2911 -0.497 166 121 115
0.09468 -0.308086 -0.526 115 90 94
0.117426 -0.329757 -0.563 102 83 89
0.132943 -0.347914 -0.594 249 249 255
0.160454 -0.369586 -0.631 240 243 255
0.168868 -0.369586 -0.631 174 180 212
0.225221 -0.371343 -0.634 206 213 231
0.276376 -0.371929 -0.635 151 157 173
0.288471 -0.371929 -0.635 172 173 194
0.295729 -0.371929 -0.635 176 181 203
0.339127 -0.3731 -0.637 177 180 199
0.34344 -0.372514 -0.636 175 178 193
0.382807 -0.3731 -0.637 125 142 185
0.38766 -0.3731 -0.637 167 172 194
0.408214 -0.371929 -0.635 116 117 138
0.433973 -0.370171 -0.632 93 105 143
0.4638 -0.369 -0.63 136 141 179
0.495412 -0.368414 -0.629 135 145 181
0.501403 -0.368414 -0.629 133 151 197
0.506195 -0.368414 -0.629 104 126 167
0.510988 -0.368414 -0.629 170 179 196
0.518549 -0.367829 -0.628 199 198 212
0.523694 -0.367243 -0.627 98 112 149
0.459555 -0.292271 -0.499 179 127 105
0.46148 -0.291686 -0.498 175 127 105
0.469073 -0.2911 -0.497 169 118 97
0.0481648 -0.288521 -0.491 201 165 149
0.0591457 -0.287346 -0.489 186 147 132
0.0620667 -0.287933 -0.49 184 145 130
0.104593 -0.317902 -0.541 104 85 89
0.1554 -0.3702 -0.63 240 243 250
0.1626 -0.3702 -0.63 236 240 251
0.1734 -0.3702 -0.63 223 228 255
0.212136 -0.370788 -0.631 192 194 215
0.230894 -0.371963 -0.633 204 209 229
0.233674 -0.37255 -0.634 195 200 222
0.244543 -0.37255 -0.634 56 82 143
0.251789 -0.37255 -0.634 42 79 149
0.255411 -0.37255 -0.634 55 90 158
0.279564 -0.37255 -0.634 111 116 135
0.290432 -0.37255 -0.634 179 181 204
0.295263 -0.37255 -0.634 180 181 202
0.298886 -0.37255 -0.634 137 143 167
0.328903 -0.373726 -0.636 38 52 97
0.34169 -0.373138 -0.635 168 171 186
0.384629 -0.373726 -0.636 142 156 191
0.407571 -0.37255 -0.634 97 103 129
0.415369 -0.371963 -0.633 156 160 185
0.438094 -0.370788 -0.631 101 122 179
0.4638 -0.3702 -0.63 105 117 159
0.508979 -0.369025 -0.628 121 129 150
0.47963 -0.322015 -0.548 127 106 103
0.4581 -0.299098 -0.509 166 119 103
0.458168 -0.29851 -0.508 168 121 105
0.458348 -0.296748 -0.505 172 125 105
0.466223 -0.292634 -0.498 173 125 103
0.483333 -0.29381 -0.5 169 121 101
0.0406381 -0.295941 -0.502 200 164 150
0.0662029 -0.290635 -0.493 173 133 125
0.10318 -0.317753 -0.539 105 86 90
0.162342 -0.37081 -0.629 237 241 252
0.177 -0.3714 -0.63 185 189 237
0.179115 -0.37081 -0.629 132 143 189
0.181511 -0.37081 -0.629 141 159 199
0.1974 -0.3714 -0.63 216 222 246
0.218491 -0.372579 -0.632 183 188 208
0.220899 -0.372579 -0.632 177 182 204
0.241746 -0.373169 -0.633 71 96 153
0.274733 -0.373758 -0.634 178 183 203
0.297209 -0.373169 -0.633 162 162 186
0.315792 -0.373758 -0.634 67 97 159
0.325967 -0.374348 -0.635 164 173 204
0.328386 -0.374348 -0.635 66 81 122
0.356205 -0.374348 -0.635 175 177 198
0.364671 -0.374348 -0.635 106 115 144
0.370135 -0.373758 -0.634 169 171 196
0.405723 -0.373169 -0.633 137 146 177
0.414163 -0.373169 -0.633 153 157 184
0.424343 -0.372579 -0.632 159 162 177
0.476682 -0.370221 -0.628 85 103 143
0.50539 -0.370221 -0.628 113 136 170
0.520474 -0.369042 -0.626 141 153 175
0.522859 -0.369042 -0.626 187 189 214
0.459 -0.300657 -0.51 164 116 102
0.458168 -0.299478 -0.508 166 118 104
0.46148 -0.293583 -0.498 173 125 102
0.486209 -0.295351 -0.501 156 115 93
0.0418724 -0.292166 -0.494 205 169 155
0.0435771 -0.290983 -0.492 205 169 155
0.0641943 -0.290983 -0.492 179 139 127
0.108034 -0.324103 -0.548 105 84 89
0.118051 -0.334749 -0.566 98 86 88
0.16953 -0.372009 -0.629 215 220 239
0.193492 -0.372009 -0.629 159 169 220
0.218146 -0.373191 -0.631 179 181 202
0.221751 -0.373191 -0.631 164 166 187
0.222953 -0.373191 -0.631 191 192 212
0.241364 -0.373783 -0.632 83 108 165
0.246179 -0.373783 -0.632 58 88 152
0.258217 -0.373783 -0.632 92 122 184
0.34236 -0.374966 -0.634 149 151 163
0.344775 -0.374966 -0.634 143 140 167
0.366512 -0.374966 -0.634 123 124 144
0.374966 -0.374966 -0.634 112 130 176
0.381004 -0.374966 -0.634 90 108 148
0.382211 -0.374966 -0.634 100 118 158
0.383419 -0.374966 -0.634 143 157 194
0.409897 -0.373783 -0.632 122 144 185
0.42247 -0.373191 -0.631 163 169 181
0.461131 -0.371417 -0.628 64 82 132
0.488644 -0.371417 -0.628 168 170 183
0.514512 -0.370234 -0.626 195 198 215
0.476444 -0.320554 -0.542 133 104 96
0.475688 -0.293349 -0.496 173 122 101
0.4998 -0.301629 -0.51 147 112 90
0.0443333 -0.290733 -0.49 204 171 154
0.06944 -0.294293 -0.496 166 123 116
0.0908029 -0.309127 -0.521 116 94 97
0.100564 -0.318027 -0.536 108 88 90
0.105173 -0.322773 -0.544 107 86 91
0.11656 -0.33464 -0.564 102 83 87
0.11826 -0.33642 -0.567 99 87 91
0.201879 -0.373207 -0.629 217 225 244
0.232937 -0.374987 -0.632 198 202 231
0.24016 -0.374987 -0.632 97 118 161
0.312883 -0.37558 -0.633 108 134 195
0.323038 -0.376173 -0.634 163 177 204
0.330969 -0.37558 -0.633 56 66 102
0.387042 -0.376173 -0.634 175 172 193
0.403239 -0.374393 -0.631 158 169 197
0.45515 -0.372613 -0.628 162 163 184
0.475923 -0.37202 -0.627 140 150 175
0.477117 -0.37202 -0.627 124 134 159
0.498614 -0.37202 -0.627 121 145 181
0.523566 -0.37024 -0.624 195 196 216
0.0443333 -0.291667 -0.49 204 168 152
0.0461057 -0.291071 -0.489 203 167 151
0.0683571 -0.294643 -0.495 167 125 113
0.0705267 -0.295833 -0.497 161 118 109
0.0785505 -0.30119 -0.506 141 106 104
0.189596 -0.37381 -0.628 120 136 185
0.24579 -0.375595 -0.631 70 106 166
0.262616 -0.375595 -0.631 82 101 141
0.277478 -0.37619 -0.632 177 183 199
0.294331 -0.37619 -0.632 148 154 178
0.298673 -0.375595 -0.631 128 139 169
0.323734 -0.376786 -0.633 179 180 210
0.33338 -0.376786 -0.633 146 151 183
0.346643 -0.376786 -0.633 95 110 151
0.347849 -0.376786 -0.633 140 149 182
0.356289 -0.376786 -0.633 150 161 191
0.362317 -0.376786 -0.633 171 176 205
0.380403 -0.376786 -0.633 81 102 149
0.42113 -0.374405 -0.629 167 165 186
0.443189 -0.37381 -0.628 65 96 143
0.461591 -0.373214 -0.627 130 144 171
0.466369 -0.373214 -0.627 136 147 177
0.485477 -0.373214 -0.627 127 137 164
0.487088 -0.372619 -0.626 164 169 191
0.476595 -0.322024 -0.541 137 107 99
0.469074 -0.295238 -0.496 173 125 103
0.0389705 -0.294391 -0.493 202 166 150
0.0514829 -0.290809 -0.487 196 157 142
0.0551933 -0.290809 -0.487 191 154 138
0.056121 -0.290809 -0.487 187 150 134
0.0611333 -0.2926 -0.49 184 146 127
0.0631286 -0.293197 -0.491 177 135 119
0.0641943 -0.293794 -0.492 173 131 115
0.0739571 -0.299169 -0.501 145 110 106
0.156103 -0.375006 -0.628 198 199 219
0.158243 -0.374409 -0.627 230 229 247
0.177351 -0.374409 -0.627 161 176 219
0.184517 -0.374409 -0.627 129 145 197
0.19797 -0.375006 -0.628 213 219 243
0.199166 -0.375006 -0.628 213 218 238
0.212324 -0.375006 -0.628 198 203 223
0.316 -0.377394 -0.632 93 120 163
0.324427 -0.377394 -0.632 179 180 208
0.351466 -0.377991 -0.633 149 154 184
0.373783 -0.377394 -0.632 86 103 149
0.3978 -0.3762 -0.63 49 62 114
0.428151 -0.374409 -0.627 110 109 123
0.487088 -0.373811 -0.626 152 158 184
0.489472 -0.373811 -0.626 137 138 158
0.490665 -0.373811 -0.626 150 147 164
0.496627 -0.373811 -0.626 123 138 169
0.516434 -0.372617 -0.624 123 138 169
0.488569 -0.332609 -0.557 132 103 97
0.469281 -0.314694 -0.527 155 116 101
0.45945 -0.299766 -0.502 176 128 106
0.465295 -0.296183 -0.496 179 128 107
0.0542657 -0.291736 -0.487 192 154 141
0.0631286 -0.294132 -0.491 175 134 116
0.0739571 -0.300123 -0.501 146 111 107
0.100939 -0.322288 -0.538 107 86 91
0.11718 -0.33966 -0.567 104 85 89
0.128894 -0.354037 -0.591 243 241 252
0.167797 -0.375603 -0.627 217 221 246
0.177069 -0.375004 -0.626 163 178 217
0.1878 -0.375004 -0.626 162 180 220
0.207539 -0.376202 -0.628 211 216 238
0.2934 -0.3774 -0.63 91 98 124
0.3042 -0.3774 -0.63 144 151 169
0.328721 -0.377999 -0.631 173 175 198
0.369 -0.3774 -0.63 140 146 178
0.3702 -0.3774 -0.63 102 108 140
0.373191 -0.377999 -0.631 85 102 148
0.400763 -0.376801 -0.629 135 150 183
0.403159 -0.376801 -0.629 136 152 185
0.416872 -0.376202 -0.628 65 75 111
0.418597 -0.375603 -0.627 139 149 185
0.422853 -0.376202 -0.628 163 168 187
0.435317 -0.375603 -0.627 100 130 180
0.464881 -0.374405 -0.625 157 164 183
0.48869 -0.374405 -0.625 105 107 128
0.501786 -0.374405 -0.625 84 110 161
0.521114 -0.35823 -0.598 110 94 94
0.461775 -0.306712 -0.512 161 119 105
0.460443 -0.300123 -0.501 178 128 105
0.460476 -0.299524 -0.5 179 129 106
0.467185 -0.297128 -0.496 181 131 108
0.474729 -0.296529 -0.495 173 123 100
0.0504514 -0.292063 -0.486 199 162 144
0.07632 -0.30288 -0.504 140 105 101
0.0846876 -0.30889 -0.514 121 95 98
0.0965914 -0.319106 -0.531 107 87 89
0.12933 -0.356365 -0.593 243 241 252
0.156798 -0.376196 -0.626 231 232 250
0.166337 -0.376196 -0.626 217 224 243
0.172574 -0.376797 -0.627 175 181 217
0.177069 -0.376196 -0.626 162 178 214
0.180646 -0.376196 -0.626 133 152 195
0.195266 -0.376797 -0.627 112 120 156
0.200043 -0.376797 -0.627 214 219 241
0.229435 -0.377999 -0.629 158 166 203
0.2406 -0.3786 -0.63 162 172 199
0.246209 -0.377999 -0.629 129 160 207
0.251798 -0.377398 -0.628 134 157 198
0.2694 -0.3786 -0.63 187 188 208
0.2766 -0.3786 -0.63 143 144 164
0.28335 -0.377999 -0.629 175 179 204
0.3126 -0.3786 -0.63 105 133 181
0.327 -0.3786 -0.63 174 176 197
0.331125 -0.379201 -0.631 172 176 201
0.3426 -0.3786 -0.63 86 101 132
0.347951 -0.379201 -0.631 143 162 202
0.4382 -0.376196 -0.626 103 126 176
0.467262 -0.375595 -0.625 127 131 156
0.48351 -0.376196 -0.626 104 109 131
0.485119 -0.375595 -0.625 74 81 107
0.51168 -0.374994 -0.624 146 146 170
0.51798 -0.374393 -0.623 196 195 209
0.524257 -0.373792 -0.622 193 195 208
0.529329 -0.373191 -0.621 186 185 199
0.460271 -0.303481 -0.505 172 127 106
0.470957 -0.297471 -0.495 164 116 93
0.4719 -0.297471 -0.495 167 119 96
0.0386543 -0.294797 -0.489 206 169 151
0.0404343 -0.294194 -0.488 203 168 149
0.0458229 -0.292989 -0.486 200 163 145
0.0652638 -0.297209 -0.493 165 122 106
0.0684952 -0.299017 -0.496 157 115 103
0.0997286 -0.323734 -0.537 108 88 90
0.121234 -0.347246 -0.576 160 147 157
0.150836 -0.377389 -0.626 211 213 234
0.173491 -0.377389 -0.626 181 185 220
0.214374 -0.377991 -0.627 193 192 206
0.225482 -0.378594 -0.628 200 204 215
0.22907 -0.378594 -0.628 110 123 158
0.282151 -0.379197 -0.629 163 174 204
0.29845 -0.378594 -0.628 179 180 198
0.299646 -0.378594 -0.628 178 179 197
0.309215 -0.378594 -0.628 104 130 181
0.3534 -0.3798 -0.63 45 64 106
0.426276 -0.377389 -0.626 168 166 180
0.467703 -0.376183 -0.624 144 146 167
0.479167 -0.376786 -0.625 166 168 183
0.49504 -0.376183 -0.624 139 157 197
0.524597 -0.374374 -0.621 196 198 211
0.462429 -0.300223 -0.498 179 133 110
0.470964 -0.299017 -0.496 163 115 92
0.48902 -0.300826 -0.499 156 110 87
0.0395048 -0.295124 -0.488 205 169 153
0.0811143 -0.308429 -0.51 120 94 95
0.0942124 -0.319919 -0.529 109 87 90
0.10452 -0.3302 -0.546 107 88 90
0.1178 -0.344714 -0.57 109 89 101
0.121655 -0.349552 -0.578 200 186 199
0.129985 -0.360438 -0.596 242 242 254
0.1625 -0.377976 -0.625 230 231 251
0.176786 -0.377976 -0.625 169 184 217
0.177691 -0.377371 -0.624 154 169 202
0.204493 -0.378581 -0.626 214 217 232
0.242229 -0.37979 -0.628 131 147 183
0.252591 -0.379186 -0.627 130 153 195
0.256174 -0.379186 -0.627 196 198 219
0.280953 -0.380395 -0.629 143 159 193
0.299646 -0.37979 -0.628 181 184 203
0.303234 -0.37979 -0.628 135 142 170
0.305627 -0.37979 -0.628 89 107 155
0.306823 -0.37979 -0.628 83 101 149
0.309215 -0.37979 -0.628 111 138 183
0.322887 -0.380395 -0.629 182 184 205
0.37081 -0.380395 -0.629 95 109 146
0.376801 -0.380395 -0.629 111 135 183
0.377999 -0.380395 -0.629 93 113 163
