ply
format ascii 1.0
comment Created by Open3D
element vertex 1288
property double x
property double y
property double z
property uchar red
property uchar green
property uchar blue
end_header
0.256157 -0.344614 -0.645 180 197 251
0.257785 -0.345149 -0.646 190 203 247
0.261476 -0.345149 -0.646 189 203 238
0.265168 -0.345149 -0.646 247 255 255
0.282394 -0.345149 -0.646 147 163 212
0.284855 -0.345149 -0.646 140 158 208
0.310214 -0.344614 -0.645 152 172 209
0.312671 -0.344614 -0.645 127 152 206
0.317586 -0.344614 -0.645 105 140 198
0.336535 -0.345149 -0.646 191 197 229
0.367767 -0.346751 -0.649 142 144 169
0.373948 -0.346751 -0.649 189 200 218
0.388782 -0.346751 -0.649 68 107 176
0.401144 -0.346751 -0.649 187 192 214
0.443174 -0.346751 -0.649 106 128 185
0.467014 -0.342477 -0.641 119 129 164
0.422623 -0.295994 -0.554 115 80 74
0.41759 -0.287446 -0.538 116 79 73
0.42739 -0.277829 -0.52 136 89 79
0.435187 -0.274623 -0.514 152 102 77
0.446273 -0.27302 -0.511 158 107 86
-0.122581 -0.327076 -0.61 94 93 101
-0.11124 -0.331366 -0.618 149 149 157
-0.0608143 -0.345843 -0.645 183 183 185
-0.0595857 -0.345843 -0.645 186 184 185
0.0372857 -0.241286 -0.45 193 151 135
0.0496143 -0.242894 -0.453 169 124 119
0.148043 -0.345843 -0.645 174 184 211
0.176703 -0.344234 -0.642 247 248 252
0.225969 -0.34477 -0.643 149 166 210
0.232453 -0.345307 -0.644 246 252 250
0.235271 -0.345843 -0.645 252 252 250
0.238957 -0.345843 -0.645 255 252 255
0.24104 -0.345307 -0.644 252 252 250
0.243493 -0.345307 -0.644 241 247 243
0.25208 -0.345307 -0.644 158 183 240
0.277043 -0.345843 -0.645 169 187 225
0.2795 -0.345843 -0.645 155 173 213
0.284414 -0.345843 -0.645 141 161 211
0.3311 -0.345843 -0.645 224 231 255
0.332329 -0.345843 -0.645 224 231 255
0.37584 -0.347451 -0.648 103 123 156
0.386949 -0.347451 -0.648 89 124 192
0.391886 -0.347451 -0.648 191 197 223
0.398057 -0.347451 -0.648 189 194 214
0.409166 -0.347451 -0.648 49 86 156
0.420923 -0.347988 -0.649 52 84 145
0.425868 -0.347988 -0.649 147 156 187
0.443041 -0.346915 -0.647 124 144 203
0.44797 -0.346915 -0.647 111 142 189
0.461329 -0.345843 -0.645 174 175 196
0.462557 -0.345843 -0.645 165 168 201
0.466022 -0.34477 -0.643 130 142 180
0.419013 -0.285253 -0.532 112 75 67
0.419673 -0.283645 -0.529 116 77 70
0.426228 -0.279355 -0.521 129 85 72
0.441295 -0.27453 -0.512 156 108 86
-0.129523 -0.334157 -0.621 91 94 99
0.0372857 -0.242143 -0.45 193 151 137
0.0728333 -0.255595 -0.475 104 84 95
0.0804038 -0.26259 -0.488 99 81 93
0.0831057 -0.265281 -0.493 99 81 93
0.0979371 -0.280886 -0.522 156 152 179
0.0996895 -0.283038 -0.526 183 184 215
0.156157 -0.345995 -0.643 171 182 227
0.161307 -0.346533 -0.644 165 177 219
0.16473 -0.345995 -0.643 167 180 212
0.236133 -0.346533 -0.644 252 253 255
0.268027 -0.346533 -0.644 242 246 255
0.272129 -0.347071 -0.645 173 182 199
0.297467 -0.346533 -0.644 214 222 241
0.301147 -0.346533 -0.644 224 224 236
0.323227 -0.346533 -0.644 133 165 216
0.343918 -0.34761 -0.646 128 144 193
0.353077 -0.348148 -0.647 56 91 172
0.35431 -0.348148 -0.647 58 93 174
0.356774 -0.348148 -0.647 97 131 205
0.37526 -0.348148 -0.647 108 124 150
0.407302 -0.348148 -0.647 64 97 164
0.412869 -0.348686 -0.648 76 105 163
0.43632 -0.348686 -0.648 174 177 194
0.448509 -0.34761 -0.646 87 118 165
0.452729 -0.347071 -0.645 163 173 208
0.467247 -0.345995 -0.643 146 155 186
0.421897 -0.284114 -0.528 111 74 68
0.427046 -0.280886 -0.522 125 81 70
0.429371 -0.27981 -0.52 132 86 73
0.43068 -0.278733 -0.518 144 91 75
0.44032 -0.275505 -0.512 160 109 88
-0.110419 -0.3348 -0.62 69 70 75
-0.00551143 -0.34722 -0.643 221 219 222
-0.00428667 -0.34722 -0.643 222 220 223
0.0590143 -0.24786 -0.459 131 98 105
0.093499 -0.27756 -0.514 99 91 114
0.232092 -0.34722 -0.643 214 225 247
0.251689 -0.34722 -0.643 154 180 237
0.260262 -0.34722 -0.643 160 178 226
0.265161 -0.34722 -0.643 215 218 237
0.282747 -0.34776 -0.644 145 163 209
0.337243 -0.3483 -0.645 215 224 255
0.34884 -0.34884 -0.646 75 107 182
0.355542 -0.34938 -0.647 57 87 159
0.367297 -0.34884 -0.646 207 208 228
0.377725 -0.34938 -0.647 95 123 188
0.421509 -0.34992 -0.648 74 97 149
0.430717 -0.34938 -0.647 184 181 198
0.442356 -0.34884 -0.646 110 131 188
0.460613 -0.34776 -0.644 114 117 150
0.464797 -0.34722 -0.643 165 173 209
0.46652 -0.34668 -0.642 162 168 194
0.424041 -0.29214 -0.541 114 79 75
0.4255 -0.2835 -0.525 117 78 71
0.451929 -0.27702 -0.513 152 105 89
0.454768 -0.27756 -0.514 145 101 88
-0.105357 -0.33869 -0.625 61 62 67
0.0476771 -0.244399 -0.451 170 125 119
0.0601495 -0.249818 -0.461 129 98 106
0.0719286 -0.257405 -0.475 105 85 96
0.0793114 -0.263908 -0.487 100 82 96
0.100258 -0.286668 -0.529 183 188 226
0.103627 -0.290461 -0.536 212 222 255
0.15836 -0.347903 -0.642 158 164 216
0.163251 -0.347903 -0.642 185 195 230
0.172765 -0.347361 -0.641 255 254 255
0.219694 -0.346277 -0.639 145 159 208
0.246406 -0.347903 -0.642 155 172 226
0.257812 -0.348445 -0.643 162 180 230
0.273734 -0.348445 -0.643 225 231 253
0.282308 -0.348445 -0.643 149 170 217
0.338471 -0.349529 -0.645 207 214 243
0.358684 -0.35007 -0.646 83 111 174
0.359914 -0.35007 -0.646 110 134 180
0.366067 -0.35007 -0.646 202 204 225
0.37468 -0.35007 -0.646 152 159 177
0.423323 -0.350612 -0.647 63 84 127
0.437434 -0.35007 -0.646 154 160 192
0.462348 -0.348445 -0.643 76 84 123
0.424294 -0.287751 -0.531 111 76 72
0.430362 -0.28179 -0.52 136 87 80
0.435897 -0.279623 -0.516 147 95 81
0.44238 -0.276913 -0.511 162 111 90
0.475304 -0.285584 -0.527 143 99 86
0.490233 -0.292087 -0.539 134 95 80
-0.10959 -0.33825 -0.622 81 80 86
-0.0177314 -0.349126 -0.642 214 212 213
0.102414 -0.290938 -0.535 195 207 245
0.146131 -0.349126 -0.642 241 251 250
0.165439 -0.348582 -0.641 243 253 254
0.226133 -0.348038 -0.64 156 170 219
0.227708 -0.348582 -0.641 155 169 218
0.270863 -0.349126 -0.642 250 251 255
0.298523 -0.348582 -0.641 245 250 254
0.325174 -0.34967 -0.643 176 194 232
0.337947 -0.350213 -0.644 201 208 234
0.353214 -0.350757 -0.645 98 130 187
0.396829 -0.351301 -0.646 167 169 190
0.410364 -0.351301 -0.646 172 182 218
0.422669 -0.351301 -0.646 135 150 183
0.461123 -0.34967 -0.643 71 79 118
0.427864 -0.284412 -0.523 133 85 75
0.42804 -0.283869 -0.522 136 88 78
0.45486 -0.278974 -0.513 144 101 84
0.0347143 -0.245571 -0.45 195 153 141
0.0415714 -0.245571 -0.45 183 139 126
0.045959 -0.246117 -0.451 171 126 120
0.0504771 -0.247209 -0.453 161 117 116
0.0708743 -0.258669 -0.474 108 86 98
0.0927 -0.281043 -0.515 101 86 105
0.0959486 -0.284863 -0.522 128 122 150
0.149567 -0.349803 -0.641 185 205 242
0.156892 -0.349803 -0.641 142 159 211
0.168838 -0.349257 -0.64 245 249 252
0.220566 -0.348166 -0.638 146 159 212
0.240291 -0.350349 -0.642 224 224 222
0.253348 -0.349803 -0.641 158 179 234
0.286313 -0.349803 -0.641 144 161 215
0.296081 -0.349803 -0.641 243 247 255
0.30388 -0.350349 -0.642 247 245 255
0.360586 -0.351986 -0.645 151 173 231
0.3772 -0.35144 -0.644 120 144 190
0.409729 -0.351986 -0.645 177 182 214
0.412186 -0.351986 -0.645 123 134 166
0.4257 -0.351986 -0.645 78 87 126
0.448347 -0.35144 -0.644 75 101 152
0.467743 -0.350349 -0.642 178 176 197
0.470426 -0.348711 -0.639 172 173 191
0.434914 -0.281589 -0.516 150 98 84
0.4453 -0.27886 -0.511 161 113 93
-0.0238086 -0.351024 -0.641 212 210 211
0.0321429 -0.246429 -0.45 201 162 145
0.0389133 -0.245881 -0.449 188 146 132
0.0397686 -0.245881 -0.449 185 143 129
0.0415714 -0.246429 -0.45 181 139 127
0.0424286 -0.246429 -0.45 179 137 125
0.044241 -0.246976 -0.451 175 132 125
0.156892 -0.351024 -0.641 142 159 211
0.167357 -0.349929 -0.639 226 229 244
0.173171 -0.349381 -0.638 254 253 255
0.223346 -0.349929 -0.639 159 173 222
0.25579 -0.351024 -0.641 164 191 238
0.274104 -0.351024 -0.641 223 232 247
0.291962 -0.350476 -0.64 162 179 222
0.314886 -0.351571 -0.642 160 184 230
0.330783 -0.351571 -0.642 223 231 252
0.333229 -0.351571 -0.642 222 228 250
0.335674 -0.351571 -0.642 182 188 220
0.353344 -0.352119 -0.643 156 180 224
0.356347 -0.352667 -0.644 109 130 183
0.3588 -0.352667 -0.644 89 105 156
0.416453 -0.352667 -0.644 182 187 219
0.4501 -0.352119 -0.643 140 155 194
0.454291 -0.351571 -0.642 100 111 143
0.43078 -0.297357 -0.543 113 80 71
0.430523 -0.284214 -0.519 145 91 81
0.431667 -0.283667 -0.518 147 94 78
0.438124 -0.281476 -0.514 157 105 84
0.441295 -0.280381 -0.512 164 112 91
0.443246 -0.280381 -0.512 162 111 92
0.449193 -0.279833 -0.511 154 105 88
0.0263171 -0.248934 -0.453 206 167 150
0.0295714 -0.247286 -0.45 201 162 145
0.0321429 -0.247286 -0.45 200 161 144
0.0841171 -0.274212 -0.499 98 80 94
0.0965 -0.2885 -0.525 146 141 173
0.145676 -0.351695 -0.64 206 222 248
0.147883 -0.351146 -0.639 180 194 239
0.16614 -0.351146 -0.639 185 196 218
0.22578 -0.351146 -0.639 183 201 247
0.228214 -0.351146 -0.639 229 241 255
0.244419 -0.351695 -0.64 179 196 226
0.245638 -0.351695 -0.64 173 195 234
0.325384 -0.352245 -0.641 220 234 255
0.34668 -0.352794 -0.642 181 199 237
0.366816 -0.353344 -0.643 206 208 233
0.37539 -0.353344 -0.643 129 139 175
0.394986 -0.353344 -0.643 158 167 198
0.409093 -0.353893 -0.644 186 190 215
0.42193 -0.353344 -0.643 183 193 218
0.443976 -0.353344 -0.643 105 134 194
0.46091 -0.352245 -0.641 173 178 207
0.467505 -0.351695 -0.64 171 170 188
0.474274 -0.349497 -0.636 174 171 190
0.474738 -0.348948 -0.635 169 170 190
0.431667 -0.284653 -0.518 150 97 79
0.432653 -0.284653 -0.518 154 102 81
0.438124 -0.282455 -0.514 159 104 84
0.441295 -0.281356 -0.512 164 108 91
0.4453 -0.280807 -0.511 157 106 87
0.46899 -0.285752 -0.52 138 95 79
0.0278571 -0.248143 -0.45 203 164 149
0.0505886 -0.250349 -0.454 152 110 114
0.0623086 -0.255863 -0.464 120 92 106
0.0788667 -0.2702 -0.49 99 81 95
0.0857495 -0.277369 -0.503 99 82 92
0.141797 -0.352363 -0.639 175 183 204
0.152751 -0.352363 -0.639 140 157 211
0.156403 -0.352363 -0.639 140 157 213
0.161271 -0.352363 -0.639 156 169 214
0.171687 -0.35126 -0.637 236 240 252
0.221781 -0.351811 -0.638 150 162 214
0.239543 -0.352914 -0.64 254 255 255
0.284203 -0.352363 -0.639 201 220 253
0.324163 -0.353466 -0.641 217 227 254
0.360692 -0.354569 -0.643 130 140 175
0.409683 -0.354569 -0.643 187 189 212
0.429279 -0.354569 -0.643 89 99 134
0.431729 -0.354569 -0.643 99 109 144
0.468724 -0.352914 -0.64 176 173 190
0.427864 -0.288397 -0.523 142 93 79
0.439103 -0.283434 -0.514 160 104 87
0.440203 -0.282883 -0.513 162 106 89
0.442157 -0.282883 -0.513 161 105 88
0.44822 -0.28178 -0.511 155 104 85
0.463417 -0.284537 -0.516 139 96 79
-0.0139971 -0.35358 -0.639 220 219 217
0.0278571 -0.249 -0.45 203 164 149
0.0329267 -0.248447 -0.449 193 154 139
0.0363476 -0.248447 -0.449 191 149 133
0.0397686 -0.248447 -0.449 182 141 123
0.045959 -0.249553 -0.451 166 123 116
0.0591429 -0.254533 -0.46 122 94 106
0.0763714 -0.26892 -0.486 102 82 94
0.0888857 -0.2822 -0.51 99 83 96
0.0936 -0.287733 -0.52 111 98 118
0.21658 -0.352473 -0.637 148 166 214
0.224211 -0.353027 -0.638 147 160 213
0.279334 -0.35358 -0.639 221 233 255
0.32 -0.354133 -0.64 153 172 214
0.353466 -0.354687 -0.641 204 211 240
0.354687 -0.354687 -0.641 197 202 232
0.376029 -0.35524 -0.642 109 126 169
0.413357 -0.355793 -0.643 184 186 209
0.415807 -0.355793 -0.643 185 189 214
0.421274 -0.35524 -0.642 182 188 210
0.42372 -0.35524 -0.642 175 182 210
0.434049 -0.354687 -0.641 171 183 221
0.442157 -0.28386 -0.513 163 106 87
0.443246 -0.283307 -0.512 161 104 85
0.44822 -0.282753 -0.511 155 102 84
0.0346371 -0.249302 -0.449 195 153 139
0.0372029 -0.249302 -0.449 189 147 131
0.144006 -0.354242 -0.638 204 213 242
0.159804 -0.354242 -0.638 165 177 219
0.16562 -0.353687 -0.637 224 234 246
0.176263 -0.353131 -0.636 236 240 251
0.222996 -0.354242 -0.638 157 170 225
0.226642 -0.354242 -0.638 167 183 235
0.238794 -0.354242 -0.638 250 252 251
0.2688 -0.355352 -0.64 253 255 249
0.269597 -0.354797 -0.639 250 253 246
0.279334 -0.354797 -0.639 221 233 255
0.283758 -0.354242 -0.638 219 234 255
0.31098 -0.354797 -0.639 179 191 233
0.33219 -0.355352 -0.64 194 203 234
0.343162 -0.355352 -0.64 211 218 246
0.379697 -0.356463 -0.642 112 140 190
0.427944 -0.355908 -0.641 152 157 186
0.449219 -0.355352 -0.64 76 104 167
0.457037 -0.354797 -0.639 154 159 188
0.46019 -0.355352 -0.64 149 148 164
0.473807 -0.353687 -0.637 122 134 160
0.47502 -0.353687 -0.637 128 140 166
0.477909 -0.353131 -0.636 134 136 157
0.430983 -0.286503 -0.516 159 107 86
0.439103 -0.285392 -0.514 165 110 89
0.0424286 -0.250714 -0.45 173 131 115
0.0468181 -0.251271 -0.451 161 118 112
0.0592714 -0.256843 -0.461 120 92 106
0.07406 -0.2691 -0.483 102 82 94
0.10452 -0.3042 -0.546 137 157 210
0.159553 -0.3549 -0.637 182 194 232
0.160767 -0.3549 -0.637 205 217 255
0.183243 -0.353786 -0.635 155 175 225
0.232353 -0.3549 -0.637 252 255 255
0.261884 -0.355457 -0.638 252 254 251
0.287404 -0.355457 -0.638 205 216 246
0.30246 -0.356014 -0.639 239 246 254
0.32802 -0.356014 -0.639 227 231 255
0.330454 -0.356014 -0.639 199 205 237
0.348038 -0.356571 -0.64 201 209 232
0.354133 -0.356571 -0.64 201 212 232
0.35901 -0.356571 -0.64 191 202 232
0.387652 -0.357129 -0.641 197 200 235
0.40963 -0.357129 -0.641 180 185 205
0.414513 -0.357129 -0.641 187 192 212
0.432152 -0.356571 -0.64 62 81 124
0.480477 -0.352671 -0.633 137 134 143
0.433767 -0.3003 -0.539 128 93 87
0.436033 -0.286929 -0.515 167 113 89
0.030361 -0.251012 -0.449 194 155 140
0.0451 -0.25213 -0.451 163 125 116
0.0780924 -0.274492 -0.491 100 84 97
0.0976029 -0.296854 -0.531 147 153 187
0.13992 -0.355554 -0.636 251 251 251
0.161726 -0.355554 -0.636 226 234 247
0.16536 -0.355554 -0.636 244 253 252
0.169938 -0.354995 -0.635 250 251 255
0.211062 -0.354995 -0.635 168 185 229
0.226287 -0.356113 -0.637 165 176 221
0.248127 -0.356113 -0.637 205 214 255
0.26553 -0.356672 -0.638 247 255 253
0.269597 -0.357231 -0.639 254 255 253
0.277682 -0.356672 -0.638 226 232 254
0.303202 -0.356672 -0.638 236 243 249
0.309278 -0.356672 -0.638 168 176 212
0.311709 -0.356672 -0.638 169 181 223
0.329237 -0.357231 -0.639 202 206 241
0.354133 -0.35779 -0.64 207 215 236
0.35779 -0.35779 -0.64 202 210 231
0.365105 -0.35779 -0.64 124 137 172
0.368762 -0.35779 -0.64 169 182 216
0.374857 -0.35779 -0.64 140 158 204
0.40899 -0.35779 -0.64 169 174 196
0.438093 -0.356672 -0.638 20 51 118
0.440524 -0.356672 -0.638 26 58 131
0.441739 -0.356672 -0.638 20 53 120
0.445385 -0.356672 -0.638 27 61 124
0.447815 -0.356672 -0.638 38 71 140
0.45582 -0.357231 -0.639 153 157 186
0.470167 -0.356113 -0.637 133 137 164
0.43836 -0.30524 -0.546 122 87 81
0.429943 -0.295177 -0.528 150 97 83
0.431966 -0.288469 -0.516 170 113 94
0.432949 -0.288469 -0.516 170 113 94
0.434208 -0.28735 -0.514 164 107 87
0.439103 -0.28735 -0.514 167 110 90
0.465462 -0.28791 -0.515 137 92 71
0.492806 -0.298531 -0.534 146 103 84
0.0260848 -0.251868 -0.449 201 162 145
0.0302933 -0.251307 -0.448 196 154 140
0.0346371 -0.251868 -0.449 190 147 128
0.0432857 -0.252429 -0.45 168 128 118
0.150823 -0.356766 -0.636 141 161 214
0.159052 -0.356205 -0.635 172 188 222
0.181747 -0.355644 -0.634 177 194 238
0.205899 -0.355644 -0.634 190 199 230
0.209522 -0.355644 -0.634 168 177 218
0.21073 -0.355644 -0.634 180 192 234
0.219874 -0.356766 -0.636 221 234 251
0.225931 -0.356766 -0.636 166 177 222
0.229566 -0.356766 -0.636 237 242 255
0.235623 -0.356766 -0.636 247 251 252
0.239257 -0.356766 -0.636 247 251 250
0.246526 -0.356766 -0.636 205 219 254
0.280887 -0.357327 -0.637 206 215 232
0.286953 -0.357327 -0.637 240 244 255
0.322646 -0.357888 -0.638 222 229 255
0.327507 -0.357888 -0.638 200 204 229
0.349929 -0.358449 -0.639 215 210 240
0.367543 -0.35901 -0.64 104 119 152
0.373054 -0.358449 -0.639 164 178 217
0.394963 -0.358449 -0.639 162 164 177
0.44903 -0.357888 -0.638 27 62 130
0.4641 -0.357327 -0.637 176 179 194
0.468217 -0.356766 -0.636 153 153 181
0.474738 -0.356205 -0.635 158 166 185
0.475948 -0.356205 -0.635 158 166 185
0.42886 -0.293378 -0.523 157 109 89
0.437145 -0.28833 -0.514 163 108 88
0.4617 -0.287769 -0.513 147 96 77
0.0380581 -0.252723 -0.449 184 142 126
0.0407143 -0.253286 -0.45 175 133 119
0.0604105 -0.260603 -0.463 116 90 101
0.07314 -0.27186 -0.483 105 83 96
0.0782514 -0.276926 -0.492 100 82 96
0.082381 -0.281429 -0.5 101 83 97
0.0852971 -0.284806 -0.506 101 83 97
0.0867724 -0.286494 -0.509 95 81 94
0.0997286 -0.302254 -0.537 159 174 217
0.13992 -0.357977 -0.636 253 254 255
0.146957 -0.357414 -0.635 146 164 210
0.157843 -0.357414 -0.635 147 167 218
0.160262 -0.357414 -0.635 172 189 232
0.179331 -0.356851 -0.634 179 195 231
0.180539 -0.356851 -0.634 181 197 233
0.238046 -0.357977 -0.636 255 255 255
0.239257 -0.357977 -0.636 250 254 255
0.246526 -0.357977 -0.636 195 208 242
0.251371 -0.357977 -0.636 196 207 237
0.257833 -0.35854 -0.637 223 229 253
0.297873 -0.35854 -0.637 163 172 203
0.30758 -0.35854 -0.637 196 208 248
0.3185 -0.35854 -0.637 174 196 237
0.326993 -0.35854 -0.637 159 165 199
0.356672 -0.359103 -0.638 208 213 235
0.369403 -0.359666 -0.639 121 134 178
0.380357 -0.359666 -0.639 30 68 141
0.386443 -0.359666 -0.639 64 89 146
0.391914 -0.359103 -0.638 190 196 220
0.408351 -0.359666 -0.639 145 151 175
0.42108 -0.359103 -0.638 164 165 170
0.43498 -0.35854 -0.637 59 96 167
0.463371 -0.357977 -0.636 143 142 160
0.468217 -0.357977 -0.636 170 175 195
0.479576 -0.357414 -0.635 134 137 154
0.48198 -0.34278 -0.609 105 91 104
0.429205 -0.293249 -0.521 165 113 92
0.43068 -0.29156 -0.518 171 116 96
0.44227 -0.288183 -0.512 164 112 90
0.463654 -0.288746 -0.513 141 93 71
0.0203219 -0.256402 -0.454 201 160 142
0.0362667 -0.253013 -0.448 183 141 125
0.0389133 -0.253578 -0.449 179 137 123
0.0487514 -0.255837 -0.453 152 112 104
0.084 -0.28464 -0.504 100 84 97
0.1397 -0.358624 -0.635 248 253 255
0.143329 -0.358624 -0.635 208 217 234
0.168463 -0.358059 -0.634 247 252 255
0.220738 -0.358624 -0.635 238 248 255
0.24009 -0.358624 -0.635 246 250 249
0.2639 -0.359753 -0.637 250 253 255
0.265113 -0.359753 -0.637 229 236 246
0.271966 -0.359189 -0.636 245 250 254
0.279234 -0.359189 -0.636 246 251 255
0.314366 -0.359189 -0.636 167 188 233
0.365179 -0.360318 -0.638 196 202 228
0.402851 -0.360318 -0.638 142 140 153
0.407712 -0.360318 -0.638 133 141 162
0.439143 -0.359189 -0.636 48 79 144
0.467481 -0.358624 -0.635 172 175 194
0.429371 -0.293676 -0.52 174 117 98
0.44822 -0.288593 -0.511 158 104 80
0.449286 -0.288029 -0.51 160 106 82
0.4608 -0.289158 -0.512 148 100 77
0.0354133 -0.253867 -0.448 183 141 125
0.0505886 -0.257267 -0.454 143 107 109
0.0746733 -0.275967 -0.487 102 85 95
0.138272 -0.359267 -0.634 245 255 252
0.141895 -0.359267 -0.634 192 202 227
0.146494 -0.3587 -0.633 154 171 215
0.155179 -0.359267 -0.634 192 208 244
0.162425 -0.359267 -0.634 162 171 214
0.175431 -0.3587 -0.633 240 251 247
0.179049 -0.3587 -0.633 182 198 232
0.206453 -0.358133 -0.632 219 226 252
0.227995 -0.359833 -0.635 238 243 249
0.29089 -0.359833 -0.635 242 249 255
0.294519 -0.359833 -0.635 230 237 255
0.321634 -0.3604 -0.636 208 221 255
0.347074 -0.3604 -0.636 197 205 224
0.368247 -0.360967 -0.637 76 100 160
0.36946 -0.360967 -0.637 68 92 152
0.37674 -0.360967 -0.637 37 72 153
0.42042 -0.360967 -0.637 143 145 157
0.43672 -0.3604 -0.636 68 97 155
0.44329 -0.359833 -0.635 96 130 193
0.475198 -0.359267 -0.634 172 173 191
0.478821 -0.359267 -0.634 176 174 188
0.430362 -0.294667 -0.52 171 115 98
0.431352 -0.294667 -0.52 171 115 98
0.434208 -0.291267 -0.514 175 120 99
0.44032 -0.290133 -0.512 172 118 94
0.451229 -0.289 -0.51 166 110 85
0.4599 -0.289567 -0.511 146 100 77
0.471209 -0.292967 -0.517 141 96 75
0.478749 -0.2958 -0.522 142 101 83
0.0164914 -0.266091 -0.468 202 161 141
0.0202324 -0.256994 -0.452 197 160 142
0.0311467 -0.25472 -0.448 188 149 132
0.0497238 -0.258131 -0.454 143 107 109
0.0555171 -0.260974 -0.459 126 97 102
0.0969552 -0.303049 -0.533 164 173 214
0.141895 -0.360474 -0.634 181 192 220
0.148906 -0.359906 -0.633 193 205 245
0.150111 -0.359906 -0.633 193 205 245
0.21556 -0.360474 -0.634 236 240 239
0.231259 -0.360474 -0.634 164 176 202
0.253395 -0.361043 -0.635 184 194 230
0.273957 -0.361043 -0.635 244 249 252
0.278795 -0.361043 -0.635 246 249 254
0.299357 -0.361043 -0.635 178 187 220
0.304674 -0.361611 -0.636 219 226 255
0.35192 -0.361611 -0.636 194 191 218
0.364607 -0.36218 -0.637 162 163 183
0.396153 -0.36218 -0.637 195 193 214
0.427029 -0.361611 -0.636 86 90 125
0.43897 -0.360474 -0.634 60 95 159
0.44571 -0.361043 -0.635 124 148 196
0.467952 -0.360474 -0.634 172 175 194
0.4926 -0.3582 -0.63 160 161 179
0.441407 -0.29054 -0.511 171 117 93
0.443353 -0.29054 -0.511 165 111 87
0.4599 -0.29054 -0.511 149 104 83
0.475009 -0.295089 -0.519 141 100 82
0.496786 -0.304186 -0.535 142 105 86
0.500596 -0.305891 -0.538 143 106 87
0.0285229 -0.255003 -0.447 195 157 138
0.032 -0.255573 -0.448 188 147 129
0.0328533 -0.255573 -0.448 187 146 128
0.0389133 -0.256144 -0.449 171 129 115
0.046061 -0.257855 -0.452 153 112 108
0.05168 -0.260137 -0.456 137 101 101
0.0697971 -0.273258 -0.479 105 84 91
0.150111 -0.361111 -0.633 205 216 246
0.165786 -0.361111 -0.633 247 255 255
0.17395 -0.360541 -0.632 248 254 252
0.183581 -0.360541 -0.632 219 231 255
0.22039 -0.361682 -0.634 250 251 255
0.26145 -0.361682 -0.634 192 196 221
0.265072 -0.361682 -0.634 202 209 238
0.290432 -0.361682 -0.634 245 244 255
0.310962 -0.361682 -0.634 124 145 200
0.313377 -0.361682 -0.634 115 140 197
0.339271 -0.362252 -0.635 167 170 187
0.36888 -0.362823 -0.636 44 72 135
0.414262 -0.362252 -0.635 188 190 205
0.415471 -0.362252 -0.635 189 191 206
0.4191 -0.362252 -0.635 180 184 193
0.454176 -0.362252 -0.635 94 106 144
0.47686 -0.361111 -0.633 173 174 194
0.44238 -0.291513 -0.511 169 115 91
0.451229 -0.290943 -0.51 169 115 91
0.464701 -0.292084 -0.512 144 101 82
0.488274 -0.301211 -0.528 148 107 87
0.49206 -0.302923 -0.531 148 107 87
0.499666 -0.306346 -0.537 143 108 88
0.021 -0.257571 -0.45 199 158 136
0.0234667 -0.256427 -0.448 198 158 133
0.0302257 -0.255854 -0.447 192 151 131
0.0389133 -0.256999 -0.449 176 134 120
0.044241 -0.258144 -0.451 154 113 107
0.0498333 -0.260433 -0.455 140 103 97
0.0507 -0.260433 -0.455 140 103 97
0.0817543 -0.287335 -0.502 97 80 90
0.0990733 -0.308513 -0.539 205 219 255
0.141671 -0.362317 -0.633 166 175 204
0.143855 -0.361745 -0.632 178 192 219
0.176358 -0.361745 -0.632 214 224 249
0.192008 -0.361745 -0.632 233 240 255
0.194415 -0.361745 -0.632 252 255 253
0.21488 -0.361745 -0.632 247 250 255
0.218837 -0.362317 -0.633 252 252 255
0.220043 -0.362317 -0.633 251 251 255
0.271889 -0.362317 -0.633 239 243 246
0.313377 -0.36289 -0.634 94 119 183
0.341152 -0.36289 -0.634 175 181 197
0.404011 -0.364034 -0.636 189 193 202
0.406434 -0.364034 -0.636 190 188 212
0.424478 -0.36289 -0.634 76 84 123
0.432249 -0.362317 -0.633 149 155 189
0.439483 -0.362317 -0.633 94 125 180
0.471291 -0.361745 -0.632 131 138 164
0.478514 -0.361745 -0.632 169 165 182
0.490978 -0.361172 -0.631 170 171 192
0.441935 -0.311375 -0.544 128 98 88
0.438086 -0.307941 -0.538 136 97 82
0.43211 -0.294776 -0.515 175 120 99
0.435444 -0.293059 -0.512 174 120 96
0.449286 -0.291914 -0.51 168 116 92
0.461847 -0.292487 -0.511 149 101 79
0.486425 -0.301072 -0.526 149 108 86
0.021 -0.258429 -0.45 198 157 135
0.0425229 -0.259003 -0.451 164 120 111
0.0536514 -0.263023 -0.458 129 97 100
0.0992571 -0.310114 -0.54 203 215 253
0.135214 -0.362374 -0.631 249 255 255
0.186896 -0.362374 -0.631 184 189 229
0.209732 -0.362374 -0.631 251 252 254
0.213338 -0.362374 -0.631 251 255 255
0.222103 -0.362949 -0.632 254 255 255
0.226918 -0.362949 -0.632 247 253 251
0.2743 -0.363523 -0.633 234 237 242
0.279123 -0.363523 -0.633 228 230 243
0.309266 -0.363523 -0.633 100 121 184
0.320117 -0.363523 -0.633 103 123 182
0.391872 -0.364097 -0.634 158 169 201
0.39491 -0.364671 -0.635 190 191 212
0.409424 -0.364671 -0.635 187 190 205
0.42327 -0.364097 -0.634 81 87 111
0.437071 -0.363523 -0.633 97 124 177
0.452746 -0.363523 -0.633 171 172 193
0.457084 -0.364097 -0.634 76 80 109
0.473699 -0.362949 -0.632 152 161 190
0.489776 -0.362374 -0.631 171 169 190
0.495031 -0.360077 -0.627 88 102 149
0.443457 -0.292886 -0.51 170 116 90
0.444429 -0.292886 -0.51 170 116 90
0.0193286 -0.259862 -0.451 198 158 133
0.0337067 -0.258133 -0.448 181 143 124
0.03456 -0.258133 -0.448 178 140 121
0.0479943 -0.26159 -0.454 143 105 102
0.0537686 -0.264471 -0.459 128 96 97
0.1734 -0.363 -0.63 248 252 255
0.210934 -0.363576 -0.631 255 255 255
0.218146 -0.363576 -0.631 252 252 252
0.263032 -0.364152 -0.632 236 245 250
0.283497 -0.364152 -0.632 221 223 238
0.285905 -0.364152 -0.632 229 235 251
0.334586 -0.364729 -0.633 215 217 238
0.3587 -0.364729 -0.633 175 177 189
0.396703 -0.365305 -0.634 194 189 209
0.428631 -0.364729 -0.633 181 185 210
0.430362 -0.364152 -0.632 166 172 204
0.444808 -0.364152 -0.632 137 153 179
0.468884 -0.364152 -0.632 104 119 158
0.480161 -0.363576 -0.631 82 91 122
0.439571 -0.293857 -0.51 173 122 95
0.442486 -0.293857 -0.51 171 120 93
0.454222 -0.293281 -0.509 167 115 93
0.45907 -0.293281 -0.509 161 110 91
0.462886 -0.293857 -0.51 149 102 84
0.495013 -0.306533 -0.532 150 109 89
0.0139057 -0.272283 -0.471 198 160 137
0.0389133 -0.259565 -0.449 169 125 112
0.0471295 -0.262455 -0.454 148 108 106
0.0587733 -0.268236 -0.464 118 88 88
0.0726686 -0.280954 -0.486 103 82 89
0.0792057 -0.287891 -0.498 99 82 90
0.1434 -0.3642 -0.63 249 249 255
0.1662 -0.3642 -0.63 163 176 193
0.1722 -0.3642 -0.63 246 248 255
0.178483 -0.364778 -0.631 189 199 235
0.189 -0.3642 -0.63 224 233 255
0.221751 -0.364778 -0.631 255 255 255
0.225357 -0.364778 -0.631 252 253 255
0.2286 -0.3642 -0.63 251 251 251
0.232937 -0.365356 -0.632 219 223 248
0.234141 -0.365356 -0.632 189 193 218
0.247383 -0.365356 -0.632 170 186 245
0.257809 -0.364778 -0.631 164 168 205
0.27103 -0.364778 -0.631 245 248 255
0.280645 -0.364778 -0.631 211 213 234
0.32563 -0.365356 -0.632 173 183 219
0.349707 -0.365356 -0.632 202 209 225
0.355726 -0.365356 -0.632 202 207 226
0.364729 -0.365934 -0.633 127 136 175
0.374374 -0.365934 -0.633 105 128 172
0.379197 -0.365934 -0.633 152 176 220
0.381609 -0.365934 -0.633 158 178 213
0.400326 -0.366512 -0.634 181 180 196
0.410546 -0.365934 -0.633 190 188 210
0.411751 -0.365934 -0.633 188 186 208
0.4842 -0.3642 -0.63 149 150 168
0.493016 -0.363622 -0.629 159 162 181
0.494625 -0.363044 -0.628 82 107 161
0.448405 -0.29425 -0.509 173 119 95
0.0169 -0.2639 -0.455 201 160 138
0.052779 -0.26564 -0.458 126 94 95
0.0676886 -0.27666 -0.477 107 84 92
0.147 -0.3654 -0.63 250 252 255
0.1482 -0.3654 -0.63 244 247 255
0.1986 -0.3654 -0.63 236 241 255
0.2634 -0.3654 -0.63 242 246 255
0.275837 -0.36598 -0.631 188 189 207
0.298673 -0.36598 -0.631 185 190 209
0.312389 -0.36656 -0.632 100 131 188
0.316 -0.36656 -0.632 161 185 245
0.317204 -0.36656 -0.632 148 168 221
0.320815 -0.36656 -0.632 183 200 243
0.33165 -0.36656 -0.632 217 218 246
0.353318 -0.36656 -0.632 201 207 223
0.354522 -0.36656 -0.632 194 199 218
0.38402 -0.36714 -0.633 193 192 223
0.403311 -0.36714 -0.633 186 189 206
0.413509 -0.36656 -0.632 178 183 202
0.423671 -0.36598 -0.631 167 171 196
0.448911 -0.36598 -0.631 174 177 192
0.458527 -0.36598 -0.631 101 106 128
0.46694 -0.36598 -0.631 143 157 186
0.475045 -0.36482 -0.629 100 114 153
0.4806 -0.3654 -0.63 108 123 164
0.4902 -0.3654 -0.63 179 171 182
0.497024 -0.3625 -0.625 108 127 170
0.434071 -0.2987 -0.515 174 120 96
0.445496 -0.29522 -0.509 171 117 93
0.448405 -0.29522 -0.509 174 120 96
0.4572 -0.29464 -0.508 165 113 91
0.0137876 -0.27175 -0.467 203 162 140
0.0168629 -0.264185 -0.454 201 160 138
0.0200981 -0.261275 -0.449 198 158 133
0.0362667 -0.260693 -0.448 174 136 117
0.0407143 -0.261857 -0.45 166 119 109
0.0519067 -0.266512 -0.458 129 97 98
0.0528943 -0.267094 -0.459 126 94 95
0.0600429 -0.27175 -0.467 113 88 92
0.0690286 -0.279314 -0.48 106 83 91
0.0781 -0.289207 -0.497 100 80 89
0.0932048 -0.307828 -0.529 176 176 200
0.1374 -0.3666 -0.63 202 208 234
0.155153 -0.366018 -0.629 247 251 252
0.16953 -0.366018 -0.629 183 189 221
0.1794 -0.3666 -0.63 162 175 210
0.2154 -0.3666 -0.63 220 220 232
0.2886 -0.3666 -0.63 234 237 254
0.2982 -0.3666 -0.63 146 150 175
0.307087 -0.367182 -0.631 158 181 235
0.314298 -0.367182 -0.631 135 156 213
0.33473 -0.367182 -0.631 209 215 229
0.36656 -0.367764 -0.632 203 206 225
0.369586 -0.367182 -0.631 148 162 199
0.37619 -0.367764 -0.632 124 142 192
0.379802 -0.367764 -0.632 142 158 194
0.389432 -0.367764 -0.632 162 169 195
0.39184 -0.367764 -0.632 69 78 111
0.4386 -0.3666 -0.63 104 130 181
0.4494 -0.3666 -0.63 174 176 189
0.44668 -0.31772 -0.546 125 95 87
0.435317 -0.298517 -0.513 176 125 98
0.437629 -0.296771 -0.51 172 121 94
0.4572 -0.295608 -0.508 168 116 92
0.0184286 -0.262714 -0.45 201 159 134
0.0234143 -0.260963 -0.447 196 155 133
0.0259686 -0.260963 -0.447 194 153 131
0.0354133 -0.261547 -0.448 181 140 122
0.0398571 -0.262714 -0.45 167 124 108
0.07038 -0.28198 -0.483 104 81 89
0.0933809 -0.309419 -0.53 181 181 207
0.100176 -0.318176 -0.545 193 207 242
0.104316 -0.324598 -0.556 196 210 245
0.146767 -0.367216 -0.629 229 233 236
0.151559 -0.367216 -0.629 249 253 255
0.162084 -0.366632 -0.628 244 249 253
0.166869 -0.366632 -0.628 217 223 239
0.176719 -0.367216 -0.629 202 217 240
0.205147 -0.366632 -0.628 249 250 255
0.217454 -0.367216 -0.629 222 221 237
0.21985 -0.367216 -0.629 214 213 227
0.223445 -0.367216 -0.629 250 250 255
0.2382 -0.3678 -0.63 161 175 212
0.253397 -0.367216 -0.629 141 164 216
0.25819 -0.367216 -0.629 195 209 254
0.2862 -0.3678 -0.63 238 239 255
0.28934 -0.367216 -0.629 238 239 255
0.291736 -0.367216 -0.629 233 236 253
0.3174 -0.3678 -0.63 182 195 230
0.323913 -0.368384 -0.631 160 169 200
0.345 -0.3678 -0.63 207 209 224
0.3462 -0.3678 -0.63 201 206 226
0.351 -0.3678 -0.63 203 203 215
0.379201 -0.368384 -0.631 123 140 183
0.4182 -0.3678 -0.63 123 136 171
0.430715 -0.367216 -0.629 86 107 160
0.48984 -0.366632 -0.628 130 128 141
0.434772 -0.30183 -0.517 169 117 93
0.435444 -0.29891 -0.512 172 121 94
0.440649 -0.297159 -0.509 173 121 97
0.442686 -0.296575 -0.508 175 121 95
0.448491 -0.296575 -0.508 176 120 93
0.470552 -0.29891 -0.512 148 102 86
0.0192429 -0.262986 -0.449 199 158 130
0.0372029 -0.262986 -0.449 174 133 115
0.0398571 -0.263571 -0.45 167 123 110
0.0768429 -0.289929 -0.495 102 81 88
0.0796829 -0.293443 -0.501 99 79 88
0.0918486 -0.308671 -0.527 175 176 204
0.0935571 -0.311014 -0.531 190 191 219
0.136964 -0.367829 -0.628 248 252 255
0.142945 -0.367829 -0.628 249 255 255
0.146533 -0.367829 -0.628 237 241 242
0.174046 -0.367829 -0.628 197 214 240
0.179115 -0.368414 -0.629 142 157 200
0.196773 -0.367829 -0.628 245 246 251
0.224643 -0.368414 -0.629 248 246 255
0.242614 -0.368414 -0.629 157 172 227
0.260586 -0.368414 -0.629 228 237 255
0.268972 -0.368414 -0.629 239 241 253
0.278557 -0.368414 -0.629 181 182 202
0.344452 -0.368414 -0.629 196 201 221
0.3654 -0.369 -0.63 204 202 216
0.384009 -0.369586 -0.631 188 190 213
0.38521 -0.369586 -0.631 189 191 214
0.413942 -0.368414 -0.629 63 76 120
0.424725 -0.368414 -0.629 171 173 186
0.4494 -0.369 -0.63 144 144 152
0.460668 -0.368414 -0.629 70 92 139
0.48984 -0.367829 -0.628 145 147 159
0.492643 -0.367243 -0.627 157 160 175
0.435466 -0.303986 -0.519 165 115 92
0.436419 -0.299886 -0.512 174 122 98
0.437629 -0.298714 -0.51 175 124 97
0.441718 -0.297543 -0.508 175 121 95
0.445677 -0.296957 -0.507 177 121 94
0.469633 -0.2993 -0.511 149 104 85
0.0167143 -0.264429 -0.45 202 160 135
0.0693162 -0.283232 -0.482 104 83 88
0.0784143 -0.293222 -0.499 101 80 87
0.13794 -0.368437 -0.627 247 251 252
0.156103 -0.369025 -0.628 252 253 255
0.176438 -0.369025 -0.628 157 175 215
0.235051 -0.369025 -0.628 162 166 193
0.255387 -0.369025 -0.628 193 213 250
0.260171 -0.369025 -0.628 204 214 250
0.269741 -0.369025 -0.628 239 241 253
0.291272 -0.369025 -0.628 229 233 255
0.316896 -0.369612 -0.629 191 200 231
0.328877 -0.369612 -0.629 142 148 182
0.3318 -0.3702 -0.63 211 216 238
0.336066 -0.369612 -0.629 163 165 178
0.3678 -0.3702 -0.63 182 185 204
0.3858 -0.3702 -0.63 188 190 215
0.4014 -0.3702 -0.63 165 180 221
0.4396 -0.369025 -0.628 77 102 156
0.462328 -0.369025 -0.628 143 151 187
0.475923 -0.368437 -0.627 135 141 167
0.436667 -0.307912 -0.524 157 110 92
0.436294 -0.301449 -0.513 175 121 97
0.475328 -0.302036 -0.514 152 107 88
0.0158924 -0.265875 -0.451 203 161 136
0.0242114 -0.262928 -0.446 196 156 131
0.0380581 -0.264696 -0.449 171 124 104
0.0398571 -0.265286 -0.45 167 121 105
0.0490743 -0.268823 -0.456 136 98 95
0.0561219 -0.273539 -0.464 119 89 91
0.135551 -0.369631 -0.627 248 246 247
0.180934 -0.369631 -0.627 133 151 201
0.192877 -0.369631 -0.627 203 215 255
0.207209 -0.369631 -0.627 234 236 248
0.231463 -0.370221 -0.628 228 230 251
0.245426 -0.369631 -0.627 151 177 228
0.267349 -0.370221 -0.628 241 243 255
0.268545 -0.370221 -0.628 238 240 255
0.280507 -0.370221 -0.628 234 237 252
0.28842 -0.369631 -0.627 230 232 253
0.299646 -0.370221 -0.628 214 219 241
0.303234 -0.370221 -0.628 194 201 227
0.316392 -0.370221 -0.628 184 193 226
0.319981 -0.370221 -0.628 212 217 239
0.327158 -0.370221 -0.628 112 121 154
0.356433 -0.37081 -0.629 184 191 219
0.403159 -0.37081 -0.629 79 100 145
0.404357 -0.37081 -0.629 46 67 112
0.410891 -0.370221 -0.628 100 119 152
0.415676 -0.370221 -0.628 141 161 211
0.416872 -0.370221 -0.628 175 178 195
0.419265 -0.370221 -0.628 178 181 198
0.432929 -0.369631 -0.627 82 109 162
0.434123 -0.369631 -0.627 102 128 177
0.461131 -0.370221 -0.628 143 154 182
0.491857 -0.369042 -0.626 159 160 180
0.498214 -0.368452 -0.625 90 110 163
0.438333 -0.31009 -0.526 153 107 91
0.437983 -0.307731 -0.522 160 113 95
0.4386 -0.300657 -0.51 179 123 98
0.439679 -0.300068 -0.509 176 122 96
0.441718 -0.299478 -0.508 179 123 98
0.570277 -0.351946 -0.597 176 172 169
0.025061 -0.263777 -0.446 193 153 128
0.0660095 -0.282703 -0.478 109 84 88
0.0906724 -0.311091 -0.526 164 161 188
0.191377 -0.370234 -0.626 153 161 207
0.194954 -0.370234 -0.626 238 242 255
0.197339 -0.370234 -0.626 244 249 255
0.211986 -0.370826 -0.627 214 212 233
0.2299 -0.370826 -0.627 236 236 246
0.241457 -0.370234 -0.626 152 173 216
0.243842 -0.370234 -0.626 150 177 220
0.248611 -0.370234 -0.626 165 184 240
0.26334 -0.370826 -0.627 230 233 250
0.318785 -0.371417 -0.628 212 218 240
0.366632 -0.371417 -0.628 153 157 169
0.450366 -0.371417 -0.628 176 178 191
0.458009 -0.370826 -0.627 162 175 209
0.473971 -0.370234 -0.626 170 171 191
0.43688 -0.305177 -0.516 167 116 95
0.43871 -0.301037 -0.509 177 121 96
0.44278 -0.299854 -0.507 179 123 98
0.451471 -0.299854 -0.507 177 121 96
0.0389133 -0.266407 -0.449 162 118 105
0.0426171 -0.268187 -0.452 150 110 102
0.0454 -0.269373 -0.454 144 105 100
0.0572514 -0.276493 -0.466 117 87 87
0.0626162 -0.280647 -0.473 108 83 87
0.144874 -0.371427 -0.626 215 217 240
0.166071 -0.370833 -0.625 240 244 255
0.18303 -0.371427 -0.626 138 156 204
0.280806 -0.371427 -0.626 233 229 252
0.281998 -0.371427 -0.626 231 231 255
0.322373 -0.372613 -0.628 211 212 233
0.33858 -0.37202 -0.627 179 184 214
0.35467 -0.372613 -0.628 149 170 223
0.366632 -0.372613 -0.628 174 172 196
0.383379 -0.372613 -0.628 189 197 210
0.385771 -0.372613 -0.628 179 181 193
0.403071 -0.37202 -0.627 64 82 118
0.419122 -0.371427 -0.626 176 178 201
0.422699 -0.371427 -0.626 174 180 196
0.4382 -0.371427 -0.626 108 131 181
0.456814 -0.37202 -0.627 167 171 198
0.482738 -0.370833 -0.625 70 74 103
0.493452 -0.370833 -0.625 129 140 170
0.493851 -0.37024 -0.624 127 150 192
0.49504 -0.37024 -0.624 96 119 161
0.451666 -0.324553 -0.547 129 101 87
0.447742 -0.320993 -0.541 134 106 92
0.43688 -0.30616 -0.516 169 115 91
0.437145 -0.304973 -0.514 173 119 95
0.447609 -0.30082 -0.507 178 124 98
0.4554 -0.300227 -0.506 179 123 98
0.0117257 -0.271429 -0.456 204 162 138
0.0133743 -0.269643 -0.453 205 163 138
0.02086 -0.266071 -0.447 197 156 128
0.0217114 -0.266071 -0.447 194 152 127
0.0344829 -0.266071 -0.447 170 132 111
0.0389133 -0.267262 -0.449 161 119 103
0.0398571 -0.267857 -0.45 158 116 100
0.0594067 -0.279167 -0.469 111 85 84
0.0830571 -0.303571 -0.51 95 81 96
0.0874886 -0.308929 -0.519 111 99 119
0.139881 -0.372024 -0.625 239 241 253
0.149405 -0.372024 -0.625 193 198 220
0.173214 -0.372024 -0.625 164 178 217
0.206548 -0.372024 -0.625 247 247 255
0.226786 -0.372024 -0.625 237 239 251
0.258929 -0.372024 -0.625 192 198 222
0.271267 -0.372619 -0.626 236 242 255
0.279613 -0.372619 -0.626 231 227 250
0.28869 -0.372024 -0.625 216 218 243
0.291071 -0.372024 -0.625 181 188 214
0.297024 -0.372024 -0.625 224 221 242
0.318962 -0.372619 -0.626 216 214 236
0.320154 -0.372619 -0.626 212 214 237
0.326637 -0.373214 -0.627 204 206 227
0.351717 -0.373214 -0.627 92 113 168
0.352911 -0.373214 -0.627 92 113 168
0.377991 -0.373214 -0.627 99 126 179
0.391129 -0.373214 -0.627 167 172 192
0.3971 -0.373214 -0.627 151 164 199
0.441777 -0.372619 -0.626 128 146 192
0.4784 -0.371429 -0.624 166 166 192
0.49504 -0.371429 -0.624 102 123 170
0.497417 -0.371429 -0.624 57 86 142
0.498993 -0.370833 -0.623 48 76 141
0.489221 -0.355952 -0.598 122 101 106
0.441006 -0.314286 -0.528 141 106 100
0.439783 -0.302381 -0.508 178 124 98
0.443746 -0.301786 -0.507 180 124 99
0.0158219 -0.268117 -0.449 204 162 137
0.0483114 -0.272894 -0.457 134 96 93
0.0573743 -0.278866 -0.467 115 87 86
0.077619 -0.298571 -0.5 102 81 88
0.09792 -0.324846 -0.544 134 152 198
0.166994 -0.372617 -0.624 170 177 203
0.169371 -0.372617 -0.624 192 203 235
0.20384 -0.372617 -0.624 248 247 253
0.21216 -0.372617 -0.624 243 243 251
0.229167 -0.373214 -0.625 151 158 186
0.2375 -0.373214 -0.625 204 213 244
0.266071 -0.373214 -0.625 237 238 255
0.282738 -0.373214 -0.625 218 222 247
0.288229 -0.372617 -0.624 176 179 210
0.291071 -0.373214 -0.625 217 223 249
0.29536 -0.372617 -0.624 220 221 242
0.311808 -0.373811 -0.626 120 142 191
0.322539 -0.373811 -0.626 209 217 238
0.33022 -0.374409 -0.627 140 149 190
0.348771 -0.373811 -0.626 78 99 156
0.349964 -0.373811 -0.626 59 80 137
0.399405 -0.373214 -0.625 166 174 197
0.401786 -0.373214 -0.625 86 100 127
0.416071 -0.373214 -0.625 133 147 176
0.420833 -0.373214 -0.625 164 171 189
0.424405 -0.373214 -0.625 183 186 201
0.447739 -0.373811 -0.626 130 135 155
0.454167 -0.373214 -0.625 150 157 185
0.471269 -0.372617 -0.624 172 175 192
0.4784 -0.372617 -0.624 170 170 198
0.492663 -0.372617 -0.624 119 129 165
0.437995 -0.307529 -0.515 167 116 97
0.443834 -0.302154 -0.506 180 124 99
0.465038 -0.302154 -0.506 164 116 96
0.466923 -0.302751 -0.507 160 114 98
0.49444 -0.314097 -0.526 148 110 91
0.0275476 -0.266576 -0.445 190 148 126
0.0502714 -0.274963 -0.459 126 94 95
0.0652352 -0.286944 -0.479 103 82 89
0.0846876 -0.30791 -0.514 101 87 102
0.0910171 -0.316297 -0.528 136 131 163
0.09272 -0.318693 -0.532 135 144 185
0.143223 -0.373806 -0.624 234 233 249
0.169371 -0.373806 -0.624 219 226 254
0.208594 -0.373806 -0.624 244 242 253
0.238309 -0.373806 -0.624 196 205 236
0.265646 -0.373806 -0.624 230 232 255
0.272777 -0.373806 -0.624 208 213 235
0.294887 -0.373207 -0.623 220 221 242
0.3125 -0.374405 -0.625 114 138 186
0.31369 -0.374405 -0.625 128 154 203
0.319643 -0.374405 -0.625 205 211 235
0.323214 -0.374405 -0.625 205 212 231
0.329693 -0.375004 -0.626 142 151 192
0.391071 -0.374405 -0.625 165 169 196
0.399954 -0.373806 -0.624 159 167 190
0.419643 -0.374405 -0.625 87 93 125
0.444643 -0.374405 -0.625 169 168 186
0.454167 -0.374405 -0.625 161 168 197
0.462949 -0.373806 -0.624 169 174 194
0.48594 -0.373207 -0.623 54 59 88
0.490687 -0.373207 -0.623 128 139 184
0.45375 -0.327679 -0.547 133 103 101
0.4386 -0.305514 -0.51 173 121 100
0.448653 -0.303118 -0.506 179 123 98
0.457386 -0.302519 -0.505 182 126 101
0.0372029 -0.269828 -0.449 166 124 108
0.0492895 -0.275236 -0.458 129 94 92
0.0630133 -0.286053 -0.476 107 82 85
0.0712543 -0.293866 -0.489 102 81 86
0.0848524 -0.30949 -0.515 103 89 104
0.17266 -0.374393 -0.623 205 213 234
0.180967 -0.374393 -0.623 163 180 224
0.233554 -0.374994 -0.624 242 240 254
0.23712 -0.374994 -0.624 183 194 222
0.253353 -0.374393 -0.623 235 237 255
0.259287 -0.374393 -0.623 225 231 255
0.271589 -0.374994 -0.624 216 222 248
0.272777 -0.374994 -0.624 205 211 237
0.28658 -0.374393 -0.623 120 127 171
0.288953 -0.374393 -0.623 215 220 250
0.316071 -0.375595 -0.625 206 210 235
0.325595 -0.375595 -0.625 205 207 222
0.338149 -0.374994 -0.624 133 152 192
0.346469 -0.374994 -0.624 169 180 208
0.347657 -0.374994 -0.624 144 157 192
0.3625 -0.375595 -0.625 192 192 216
0.367262 -0.375595 -0.625 110 118 141
0.396389 -0.374994 -0.624 178 183 203
0.401143 -0.374994 -0.624 139 141 162
0.410651 -0.374994 -0.624 178 184 208
0.459833 -0.374393 -0.623 170 175 195
0.465767 -0.374393 -0.623 146 151 170
0.466953 -0.374393 -0.623 156 161 180
0.468891 -0.374994 -0.624 162 167 186
0.47526 -0.374393 -0.623 167 173 189
0.48753 -0.373792 -0.622 84 97 142
0.489899 -0.373792 -0.622 84 100 152
0.439679 -0.305885 -0.509 172 120 96
0.44278 -0.304683 -0.507 178 124 100
0.444881 -0.303481 -0.505 179 125 101
0.485933 -0.311293 -0.518 151 109 93
0.4888 -0.312495 -0.52 149 107 91
0.0141114 -0.270683 -0.449 203 162 134
0.01664 -0.27008 -0.448 201 160 132
0.0191571 -0.269477 -0.447 198 157 129
0.0224619 -0.268271 -0.445 195 153 128
0.0250048 -0.268271 -0.445 192 150 125
0.0275476 -0.268271 -0.445 188 146 122
0.0408048 -0.271889 -0.451 151 111 99
0.047441 -0.275506 -0.457 129 95 93
0.0533552 -0.279123 -0.463 120 89 86
0.0653714 -0.289371 -0.48 104 83 82
0.06776 -0.291783 -0.484 100 84 87
0.100411 -0.332777 -0.552 147 166 209
0.1335 -0.37558 -0.623 247 252 255
0.142993 -0.37558 -0.623 246 246 254
0.175033 -0.37558 -0.623 198 210 236
0.178593 -0.37558 -0.623 168 186 222
0.18897 -0.374977 -0.622 243 246 255
0.207926 -0.374977 -0.622 243 243 255
0.209447 -0.37558 -0.623 234 234 246
0.217753 -0.37558 -0.623 244 243 255
0.249793 -0.37558 -0.623 173 183 218
0.254131 -0.374977 -0.622 235 236 254
0.264033 -0.37558 -0.623 140 145 177
0.273527 -0.37558 -0.623 149 167 203
0.30438 -0.37558 -0.623 133 152 192
0.333394 -0.376183 -0.624 172 183 213
0.345913 -0.37558 -0.623 186 194 217
0.355977 -0.376183 -0.624 163 169 203
0.359543 -0.376183 -0.624 193 193 217
0.365486 -0.376183 -0.624 156 163 182
0.383314 -0.376183 -0.624 129 134 154
0.388069 -0.376183 -0.624 67 70 101
0.398127 -0.37558 -0.623 179 183 210
0.4005 -0.37558 -0.623 171 173 196
0.40762 -0.37558 -0.623 185 185 209
0.41474 -0.37558 -0.623 182 186 213
0.420673 -0.37558 -0.623 73 75 113
0.42542 -0.37558 -0.623 169 174 194
0.430167 -0.37558 -0.623 111 133 174
0.440847 -0.37558 -0.623 130 145 184
0.483197 -0.374374 -0.621 167 166 184
0.442655 -0.315897 -0.524 144 107 98
0.444798 -0.305046 -0.506 181 127 103
0.46128 -0.30384 -0.504 172 120 99
0.466002 -0.305046 -0.506 165 119 103
0.484057 -0.311074 -0.516 151 110 92
0.0091 -0.275167 -0.455 201 159 134
0.0124286 -0.272143 -0.45 204 162 138
0.0224619 -0.269119 -0.445 193 154 125
0.0399457 -0.272748 -0.451 151 111 99
0.07526 -0.300567 -0.497 99 79 88
0.0766667 -0.302381 -0.5 100 80 89
0.222143 -0.376162 -0.622 233 238 255
0.230807 -0.376767 -0.623 240 239 255
0.255316 -0.376162 -0.622 232 233 251
0.305076 -0.376162 -0.622 123 144 187
0.306753 -0.376767 -0.623 136 157 200
0.319131 -0.377371 -0.624 202 207 229
0.32032 -0.377371 -0.624 205 210 232
0.33286 -0.376767 -0.623 192 198 224
0.341804 -0.376162 -0.622 181 186 218
0.357166 -0.377371 -0.624 146 156 192
0.382126 -0.377371 -0.624 147 153 177
0.38982 -0.376767 -0.623 182 182 206
0.399857 -0.376162 -0.622 182 186 213
0.419998 -0.376162 -0.622 71 70 102
0.421183 -0.376162 -0.622 75 78 109
0.443693 -0.376162 -0.622 109 126 170
0.469758 -0.376162 -0.622 148 156 179
0.477283 -0.375557 -0.621 122 118 117
0.480831 -0.375557 -0.621 168 167 183
0.494229 -0.374952 -0.62 28 52 114
0.496209 -0.375557 -0.621 26 52 113
0.441397 -0.313871 -0.519 160 113 97
0.439571 -0.308429 -0.51 172 120 98
0.441814 -0.306614 -0.507 180 125 104
0.444881 -0.305405 -0.505 180 126 102
0.445843 -0.305405 -0.505 180 126 102
0.472682 -0.307219 -0.508 157 114 95
0.0534705 -0.281493 -0.464 119 90 86
0.0655076 -0.291807 -0.481 102 81 86
0.0741638 -0.300907 -0.496 102 80 83
0.0822467 -0.310007 -0.511 104 83 88
0.0853467 -0.314253 -0.518 105 91 104
0.133286 -0.377347 -0.622 236 245 255
0.147503 -0.377347 -0.622 234 236 248
0.192214 -0.37674 -0.621 227 232 252
0.193397 -0.37674 -0.621 210 215 235
0.204043 -0.37674 -0.621 236 238 255
0.254906 -0.37674 -0.621 232 233 253
0.282111 -0.37674 -0.621 161 181 208
0.290391 -0.37674 -0.621 221 220 234
0.291574 -0.37674 -0.621 215 214 228
0.320993 -0.377953 -0.623 209 209 233
0.3293 -0.377953 -0.623 187 193 217
0.346543 -0.377347 -0.622 186 192 218
0.35422 -0.377953 -0.623 103 106 139
0.358967 -0.377953 -0.623 169 180 210
0.3649 -0.377953 -0.623 133 140 158
0.369647 -0.377953 -0.623 108 130 177
0.40815 -0.377347 -0.622 184 186 201
0.425922 -0.377347 -0.622 125 144 187
0.43777 -0.377347 -0.622 91 126 180
0.446063 -0.377347 -0.622 110 124 173
0.471369 -0.37674 -0.621 129 128 144
0.493048 -0.376133 -0.62 29 50 115
0.449069 -0.32396 -0.534 145 108 102
0.440649 -0.308793 -0.509 178 123 102
0.450652 -0.306367 -0.505 181 129 107
0.45456 -0.30576 -0.504 184 128 105
0.45936 -0.30576 -0.504 177 122 101
0.48316 -0.311827 -0.514 150 109 91
0.0157867 -0.27264 -0.448 197 157 131
0.0362667 -0.27264 -0.448 164 118 103
0.0475448 -0.278726 -0.458 125 94 89
0.0485229 -0.279334 -0.459 124 93 88
0.0668381 -0.294549 -0.484 102 81 88
0.0692495 -0.296983 -0.488 103 81 84
0.192214 -0.377923 -0.621 241 238 255
0.211981 -0.377314 -0.62 187 198 230
0.245838 -0.378531 -0.622 172 191 231
0.2691 -0.377923 -0.621 203 209 235
0.284477 -0.377923 -0.621 160 171 201
0.29394 -0.377923 -0.621 211 216 236
0.334157 -0.377923 -0.621 193 201 222
0.345358 -0.378531 -0.622 194 196 219
0.364314 -0.378531 -0.622 105 117 129
0.365499 -0.378531 -0.622 127 139 151
0.390934 -0.377923 -0.621 183 186 201
0.415774 -0.377923 -0.621 180 179 197
0.41814 -0.377923 -0.621 114 117 132
0.463089 -0.377923 -0.621 126 136 163
0.47061 -0.377314 -0.62 114 115 133
0.49579 -0.376706 -0.619 31 57 118
0.481124 -0.352971 -0.58 134 104 102
0.453731 -0.329846 -0.542 142 105 97
0.443098 -0.317066 -0.521 165 113 99
0.440543 -0.310371 -0.51 173 122 101
0.441814 -0.308546 -0.507 177 126 105
0.45552 -0.30672 -0.504 185 131 107
0.484139 -0.312806 -0.514 151 108 91
0.00736667 -0.277767 -0.455 202 160 135
0.0183057 -0.272883 -0.447 197 156 128
0.0199638 -0.272272 -0.446 197 156 128
0.0250048 -0.271662 -0.445 190 150 124
0.0644571 -0.293029 -0.48 104 82 84
0.0811143 -0.311343 -0.51 98 79 85
0.188362 -0.378495 -0.62 238 240 255
0.193086 -0.378495 -0.62 244 241 255
0.200171 -0.378495 -0.62 174 180 204
0.213162 -0.378495 -0.62 205 219 254
0.234797 -0.379106 -0.621 206 208 233
0.240711 -0.379106 -0.621 170 188 224
0.27339 -0.378495 -0.62 116 138 177
0.301733 -0.378495 -0.62 143 156 188
0.309317 -0.379106 -0.621 143 161 201
0.34362 -0.379106 -0.621 192 194 217
0.350717 -0.379106 -0.621 193 195 216
0.374374 -0.379106 -0.621 136 160 208
0.386203 -0.379106 -0.621 127 134 150
0.395029 -0.378495 -0.62 181 182 202
0.400933 -0.378495 -0.62 132 139 168
0.461162 -0.378495 -0.62 129 137 160
0.464705 -0.378495 -0.62 106 116 143
0.474152 -0.378495 -0.62 110 107 116
0.486357 -0.377885 -0.619 58 71 113
0.488715 -0.377885 -0.619 79 99 150
0.496166 -0.377274 -0.618 42 73 137
0.500874 -0.377274 -0.618 71 98 151
0.441794 -0.315006 -0.516 166 115 98
0.441718 -0.310122 -0.508 174 126 104
0.00569524 -0.281695 -0.46 202 161 133
0.00735048 -0.278021 -0.454 201 160 132
0.0157514 -0.273734 -0.447 197 156 126
0.0905229 -0.325174 -0.531 209 209 235
0.139943 -0.379676 -0.62 242 244 255
0.155295 -0.379676 -0.62 234 237 255
0.156476 -0.379676 -0.62 233 236 255
0.195448 -0.379676 -0.62 236 234 255
0.196629 -0.379676 -0.62 236 234 255
0.206076 -0.379676 -0.62 218 224 250
0.213997 -0.379064 -0.619 217 226 255
0.2356 -0.379676 -0.62 166 180 215
0.24741 -0.379676 -0.62 152 170 208
0.250548 -0.379064 -0.619 224 228 255
0.303605 -0.379064 -0.619 127 144 188
0.313543 -0.379676 -0.62 186 190 215
0.32299 -0.379676 -0.62 93 102 135
0.350717 -0.380289 -0.621 191 194 213
0.355449 -0.380289 -0.621 131 142 172
0.37674 -0.380289 -0.621 150 169 211
0.387943 -0.379676 -0.62 113 111 116
0.389124 -0.379676 -0.62 153 151 156
0.416286 -0.379676 -0.62 123 118 125
0.42101 -0.379676 -0.62 134 141 170
0.428095 -0.379676 -0.62 44 80 142
0.434 -0.379676 -0.62 16 51 119
0.473388 -0.379064 -0.619 136 133 140
0.476925 -0.379064 -0.619 175 172 179
