ply
format ascii 1.0
comment Created by Open3D
element vertex 1288
property double x
property double y
property double z
property uchar red
property uchar green
property uchar blue
end_header
0.478741 -0.380966 -0.626 172 178 192
0.481126 -0.380966 -0.626 167 172 191
0.499011 -0.380966 -0.626 92 118 167
0.502589 -0.380966 -0.626 83 109 168
0.527473 -0.37914 -0.623 196 202 218
0.531033 -0.37914 -0.623 160 167 185
0.532877 -0.377923 -0.621 193 199 215
0.456581 -0.305503 -0.502 167 126 106
0.457537 -0.305503 -0.502 166 125 103
0.45866 -0.30246 -0.497 170 128 104
0.46248 -0.299417 -0.492 174 129 110
0.492822 -0.303677 -0.499 145 108 90
0.0566971 -0.300354 -0.492 186 145 125
0.0969552 -0.325384 -0.533 113 88 91
0.0997286 -0.327826 -0.537 112 87 90
0.150354 -0.380937 -0.624 242 242 252
0.153221 -0.382158 -0.626 224 226 239
0.157738 -0.381548 -0.625 233 234 252
0.168452 -0.381548 -0.625 213 218 240
0.184223 -0.382158 -0.626 171 189 227
0.185415 -0.382158 -0.626 172 190 228
0.210455 -0.382158 -0.626 213 214 242
0.216763 -0.382769 -0.627 197 199 220
0.256583 -0.383379 -0.628 193 201 220
0.2898 -0.3846 -0.63 59 79 129
0.294132 -0.38399 -0.629 176 182 208
0.296529 -0.38399 -0.629 183 185 210
0.320815 -0.385821 -0.632 114 133 175
0.326834 -0.385821 -0.632 174 182 205
0.3918 -0.3846 -0.63 104 112 135
0.401961 -0.38399 -0.629 172 174 197
0.404357 -0.38399 -0.629 162 169 195
0.408499 -0.383379 -0.628 162 169 195
0.428834 -0.383379 -0.628 116 118 130
0.429346 -0.382769 -0.627 158 163 183
0.432929 -0.382769 -0.627 133 148 187
0.441289 -0.382769 -0.627 107 128 173
0.475164 -0.382158 -0.626 173 176 191
0.479167 -0.381548 -0.625 167 173 187
0.522727 -0.380327 -0.623 201 207 223
0.50962 -0.354687 -0.581 133 106 99
0.458682 -0.302796 -0.496 170 127 108
0.46904 -0.300354 -0.492 170 125 104
0.474663 -0.300354 -0.492 163 118 99
0.50362 -0.309511 -0.507 152 110 88
0.0479686 -0.299454 -0.489 196 158 139
0.0606914 -0.302516 -0.494 176 133 117
0.0639 -0.304353 -0.497 171 127 116
0.0758086 -0.310477 -0.507 149 109 107
0.0876571 -0.318438 -0.52 122 93 97
0.0901552 -0.320275 -0.523 120 93 98
0.0928524 -0.322725 -0.527 117 90 95
0.12539 -0.355181 -0.58 236 232 247
0.130702 -0.360692 -0.589 243 241 254
0.166071 -0.382738 -0.625 205 210 239
0.176786 -0.382738 -0.625 169 178 211
0.198531 -0.38335 -0.626 163 170 199
0.202109 -0.38335 -0.626 214 218 245
0.233483 -0.383963 -0.627 210 208 232
0.251397 -0.383963 -0.627 99 123 171
0.266152 -0.384575 -0.628 179 188 219
0.297727 -0.385188 -0.629 182 184 207
0.322711 -0.386412 -0.631 180 184 211
0.3366 -0.3858 -0.63 135 146 174
0.357 -0.3858 -0.63 145 152 178
0.3594 -0.3858 -0.63 114 121 149
0.3618 -0.3858 -0.63 155 161 195
0.3798 -0.3858 -0.63 111 130 173
0.426957 -0.383963 -0.627 112 113 131
0.428151 -0.383963 -0.627 156 157 175
0.446066 -0.383963 -0.627 161 169 192
0.450843 -0.383963 -0.627 62 69 98
0.470394 -0.38335 -0.626 157 162 182
0.51168 -0.382126 -0.624 117 131 176
0.517623 -0.382126 -0.624 201 203 215
0.521888 -0.380901 -0.622 201 204 219
0.470394 -0.322112 -0.526 154 118 104
0.0566971 -0.302229 -0.492 184 141 122
0.0576343 -0.302229 -0.492 184 141 124
0.0723362 -0.308986 -0.503 153 112 108
0.0889886 -0.320657 -0.522 120 93 98
0.0903276 -0.321886 -0.524 119 92 97
0.108823 -0.339086 -0.552 105 86 90
0.1136 -0.344 -0.56 104 81 91
0.120182 -0.350757 -0.571 97 84 94
0.123857 -0.355057 -0.578 203 196 214
0.130924 -0.362429 -0.59 241 240 254
0.147029 -0.380857 -0.62 201 200 214
0.168183 -0.383314 -0.624 229 232 251
0.23864 -0.385771 -0.628 147 158 186
0.25498 -0.385157 -0.627 185 199 228
0.259757 -0.385157 -0.627 191 200 217
0.312104 -0.386386 -0.629 109 131 180
0.3145 -0.386386 -0.629 91 114 164
0.342056 -0.386386 -0.629 139 146 174
0.350443 -0.386386 -0.629 170 177 203
0.351641 -0.386386 -0.629 163 170 196
0.3714 -0.387 -0.63 113 124 152
0.391178 -0.386386 -0.629 63 70 96
0.411431 -0.385157 -0.627 172 177 197
0.426276 -0.384543 -0.626 138 138 162
0.45847 -0.384543 -0.626 175 173 194
0.481966 -0.383314 -0.624 135 135 137
0.51798 -0.3827 -0.623 202 201 207
0.46701 -0.319429 -0.52 152 119 104
0.4653 -0.317586 -0.517 153 117 101
0.461847 -0.3139 -0.511 156 119 103
0.457619 -0.307143 -0.5 166 125 107
0.485061 -0.303457 -0.494 154 111 92
0.03674 -0.308711 -0.501 207 169 150
0.0478705 -0.300701 -0.488 197 156 134
0.0639 -0.306247 -0.497 170 126 115
0.17888 -0.384503 -0.624 175 186 216
0.189881 -0.385119 -0.625 220 224 251
0.202976 -0.385119 -0.625 157 166 197
0.21369 -0.385119 -0.625 104 118 167
0.217262 -0.385119 -0.625 194 205 233
0.255766 -0.385735 -0.626 189 198 215
0.274089 -0.386351 -0.627 177 190 225
0.28006 -0.386351 -0.627 137 159 198
0.308019 -0.386968 -0.628 117 136 179
0.324085 -0.387584 -0.629 176 178 199
0.380395 -0.387584 -0.629 126 139 174
0.38936 -0.386968 -0.628 90 94 119
0.410237 -0.386351 -0.627 172 174 197
0.416071 -0.385119 -0.625 165 170 190
0.469643 -0.385119 -0.625 110 117 146
0.473646 -0.384503 -0.624 152 157 176
0.483154 -0.384503 -0.624 177 177 187
0.491873 -0.383887 -0.623 64 83 141
0.522571 -0.382038 -0.62 201 201 211
0.53328 -0.379573 -0.616 160 154 158
0.458534 -0.308711 -0.501 164 122 106
0.488871 -0.305014 -0.495 153 110 91
0.0372429 -0.305957 -0.495 206 168 149
0.046941 -0.30163 -0.488 198 157 137
0.0546 -0.302867 -0.49 187 144 125
0.07248 -0.31152 -0.504 150 110 108
0.0758086 -0.313374 -0.507 147 109 106
0.100286 -0.333771 -0.54 105 85 87
0.11087 -0.344279 -0.557 101 85 88
0.147266 -0.383837 -0.621 158 160 185
0.153673 -0.385073 -0.623 229 232 251
0.15486 -0.385073 -0.623 229 232 251
0.171473 -0.385073 -0.623 225 231 255
0.191954 -0.385691 -0.624 219 221 244
0.199086 -0.385691 -0.624 211 217 243
0.206217 -0.385691 -0.624 178 182 220
0.21216 -0.385691 -0.624 89 107 145
0.228341 -0.386928 -0.626 201 201 225
0.26769 -0.386928 -0.626 120 131 153
0.277229 -0.386928 -0.626 71 100 156
0.284383 -0.386928 -0.626 171 179 200
0.289614 -0.387546 -0.627 151 162 194
0.291537 -0.386928 -0.626 142 156 185
0.317589 -0.388164 -0.628 137 150 184
0.334335 -0.388164 -0.628 172 172 196
0.340316 -0.388164 -0.628 164 169 198
0.368414 -0.388782 -0.629 150 152 175
0.388164 -0.388164 -0.628 81 87 113
0.457738 -0.38631 -0.625 174 173 179
0.458929 -0.38631 -0.625 178 177 183
0.466514 -0.385691 -0.624 120 129 160
0.472887 -0.385073 -0.623 125 130 149
0.481193 -0.385073 -0.623 170 165 169
0.488313 -0.385073 -0.623 113 126 168
0.497008 -0.384455 -0.622 55 76 139
0.505301 -0.384455 -0.622 75 97 157
0.515964 -0.384455 -0.622 159 154 160
0.526114 -0.383219 -0.62 196 194 207
0.529982 -0.382601 -0.619 175 174 188
0.458571 -0.309048 -0.5 162 123 106
0.463417 -0.304103 -0.492 179 134 113
0.0449895 -0.30194 -0.487 200 159 141
0.0526257 -0.30318 -0.489 189 148 130
0.0597505 -0.30628 -0.494 174 132 118
0.0855114 -0.32178 -0.519 119 93 96
0.0976829 -0.33294 -0.537 106 86 87
0.1442 -0.38316 -0.618 209 212 243
0.214537 -0.38688 -0.624 126 146 199
0.227976 -0.3875 -0.625 198 199 220
0.235495 -0.38812 -0.626 203 201 225
0.246227 -0.38812 -0.626 115 137 178
0.25376 -0.38688 -0.624 189 200 232
0.256137 -0.38688 -0.624 195 202 220
0.257326 -0.38688 -0.624 192 199 218
0.285119 -0.3875 -0.625 178 182 209
0.2875 -0.3875 -0.625 174 179 208
0.292262 -0.3875 -0.625 101 112 144
0.302269 -0.38812 -0.626 164 171 200
0.303461 -0.38812 -0.626 136 143 172
0.308723 -0.38874 -0.627 95 110 151
0.336728 -0.38936 -0.628 173 173 199
0.343905 -0.38936 -0.628 117 122 151
0.365436 -0.38936 -0.628 161 165 192
0.382183 -0.38936 -0.628 159 171 193
0.41131 -0.3875 -0.625 169 175 191
0.446309 -0.38688 -0.624 40 64 126
0.45344 -0.38688 -0.624 163 161 174
0.48753 -0.38564 -0.622 142 156 191
0.489899 -0.38564 -0.622 61 80 138
0.503306 -0.38502 -0.621 70 92 149
0.519029 -0.3844 -0.62 201 198 205
0.52021 -0.3844 -0.62 203 200 207
0.527949 -0.38316 -0.618 197 195 206
0.464558 -0.31868 -0.514 153 119 107
0.459583 -0.30876 -0.498 164 127 109
0.46341 -0.30442 -0.491 175 130 107
0.473698 -0.30442 -0.491 168 123 102
0.0392314 -0.371277 -0.597 202 167 148
0.0355 -0.309087 -0.497 209 168 148
0.0363 -0.307843 -0.495 209 168 148
0.0468448 -0.302868 -0.487 194 153 135
0.0497295 -0.30349 -0.488 193 150 133
0.0546 -0.304733 -0.49 187 144 125
0.0597505 -0.307221 -0.494 173 131 117
0.0806143 -0.319037 -0.513 131 100 98
0.0921971 -0.328988 -0.529 109 88 87
0.153427 -0.386825 -0.622 203 215 241
0.156729 -0.386203 -0.621 148 153 185
0.173568 -0.386825 -0.622 168 179 211
0.219291 -0.388069 -0.624 164 172 209
0.232366 -0.388069 -0.624 204 201 220
0.239881 -0.38869 -0.625 96 128 177
0.249006 -0.388069 -0.624 109 131 178
0.264457 -0.388069 -0.624 163 168 190
0.291071 -0.38869 -0.625 120 126 158
0.307038 -0.389312 -0.626 87 102 141
0.422537 -0.388069 -0.624 137 142 164
0.440847 -0.387447 -0.623 42 70 135
0.466204 -0.386825 -0.622 123 135 157
0.50922 -0.386203 -0.621 118 138 171
0.515134 -0.386203 -0.621 202 200 211
0.461183 -0.314684 -0.506 160 122 109
0.459489 -0.311574 -0.501 164 125 110
0.461516 -0.308465 -0.496 174 131 112
0.473667 -0.304733 -0.49 163 121 97
0.0332514 -0.315648 -0.506 203 166 147
0.0345533 -0.310033 -0.497 206 168 147
0.0369419 -0.30629 -0.491 204 163 143
0.0395857 -0.305043 -0.489 201 163 142
0.0431343 -0.303795 -0.487 200 162 141
0.0468448 -0.303795 -0.487 192 151 133
0.0576343 -0.306914 -0.492 178 134 121
0.0748429 -0.316271 -0.507 146 108 105
0.0794819 -0.31939 -0.512 130 99 97
0.120137 -0.359314 -0.576 172 164 179
0.165009 -0.387386 -0.621 231 229 253
0.196393 -0.388633 -0.623 215 217 242
0.2047 -0.388633 -0.623 154 164 200
0.221669 -0.389257 -0.624 151 167 200
0.22962 -0.388633 -0.623 203 200 229
0.239497 -0.389257 -0.624 107 135 172
0.276343 -0.389257 -0.624 106 111 140
0.289417 -0.389257 -0.624 182 182 206
0.291794 -0.389257 -0.624 91 104 148
0.33022 -0.391129 -0.627 102 109 127
0.357118 -0.390505 -0.626 170 176 198
0.404709 -0.389257 -0.624 115 121 155
0.407086 -0.389257 -0.624 153 157 186
0.429669 -0.389257 -0.624 48 82 145
0.434913 -0.388633 -0.623 35 64 122
0.470186 -0.387386 -0.621 164 169 188
0.459524 -0.311905 -0.5 169 127 111
0.459583 -0.310657 -0.498 170 128 106
0.467151 -0.30629 -0.491 174 130 103
0.469933 -0.305667 -0.49 173 131 106
0.476467 -0.305667 -0.49 159 117 93
0.481133 -0.305667 -0.49 160 118 94
0.494633 -0.310033 -0.497 147 111 85
0.0395857 -0.305974 -0.489 199 163 139
0.0796371 -0.320991 -0.513 129 99 97
0.0832124 -0.323494 -0.517 123 95 94
0.12933 -0.371049 -0.593 191 198 227
0.155295 -0.387943 -0.62 142 151 184
0.169467 -0.387943 -0.62 224 226 251
0.182751 -0.388569 -0.621 147 163 199
0.1866 -0.389194 -0.622 186 195 224
0.203187 -0.389194 -0.622 150 159 190
0.210633 -0.38982 -0.623 149 164 207
0.227247 -0.38982 -0.623 184 191 217
0.260055 -0.389194 -0.622 97 101 130
0.267593 -0.38982 -0.623 189 193 204
0.281833 -0.38982 -0.623 179 190 208
0.292983 -0.390446 -0.624 95 107 145
0.321347 -0.391697 -0.626 169 179 214
0.327309 -0.391697 -0.626 134 146 168
0.434913 -0.38982 -0.623 32 57 121
0.446063 -0.389194 -0.622 75 101 152
0.455541 -0.389194 -0.622 171 173 186
0.49541 -0.387943 -0.62 78 105 160
0.498952 -0.387943 -0.62 91 120 180
0.503676 -0.387943 -0.62 129 157 204
0.532414 -0.384814 -0.615 173 174 178
0.4734 -0.329126 -0.526 151 117 105
0.463006 -0.317863 -0.508 162 123 106
0.461537 -0.309103 -0.494 175 130 109
0.462481 -0.308477 -0.493 177 132 109
0.46342 -0.308477 -0.493 177 132 109
0.475533 -0.3066 -0.49 166 121 98
0.493638 -0.310354 -0.496 148 112 86
0.502478 -0.314109 -0.502 147 105 89
0.0327257 -0.312554 -0.498 204 166 147
0.0576343 -0.308789 -0.492 177 134 118
0.0807714 -0.322596 -0.514 126 96 94
0.102815 -0.343935 -0.548 104 84 86
0.170648 -0.389124 -0.62 196 203 232
0.200817 -0.390379 -0.622 170 176 202
0.204371 -0.390379 -0.622 194 200 224
0.221313 -0.391007 -0.623 197 205 226
0.227247 -0.391007 -0.623 131 144 178
0.242284 -0.390379 -0.622 128 150 191
0.250577 -0.390379 -0.622 154 169 210
0.262425 -0.390379 -0.622 169 175 209
0.29014 -0.391007 -0.623 178 180 201
0.331548 -0.392262 -0.625 123 122 130
0.33869 -0.392262 -0.625 167 172 191
0.341071 -0.392262 -0.625 143 147 172
0.346387 -0.39289 -0.626 173 175 198
0.372024 -0.392262 -0.625 49 75 134
0.375595 -0.392262 -0.625 68 96 159
0.383314 -0.391634 -0.624 57 77 127
0.384503 -0.391634 -0.624 121 141 191
0.405247 -0.391007 -0.623 122 131 160
0.409993 -0.391007 -0.623 131 136 158
0.415259 -0.390379 -0.622 117 115 120
0.416444 -0.390379 -0.622 109 104 101
0.422368 -0.390379 -0.622 166 167 185
0.43303 -0.390379 -0.622 39 64 128
0.438954 -0.390379 -0.622 29 57 120
0.441324 -0.390379 -0.622 72 101 159
0.465454 -0.389751 -0.621 169 170 188
0.5084 -0.389124 -0.62 181 197 223
0.52976 -0.386613 -0.616 202 199 210
0.531243 -0.385986 -0.615 200 201 206
0.465281 -0.308161 -0.491 181 135 112
0.0403514 -0.306578 -0.487 201 163 140
0.050659 -0.307208 -0.488 188 145 126
0.0629533 -0.312873 -0.497 158 116 104
0.0915343 -0.334277 -0.531 108 86 88
0.0985924 -0.341202 -0.542 105 85 87
0.110794 -0.353792 -0.562 104 85 89
0.126 -0.37016 -0.588 241 243 255
0.145377 -0.389046 -0.618 142 155 189
0.187483 -0.390934 -0.621 218 219 240
0.192214 -0.390934 -0.621 216 217 237
0.242284 -0.391564 -0.622 118 141 183
0.259637 -0.390934 -0.621 105 120 163
0.316754 -0.392823 -0.624 118 139 184
0.331017 -0.392823 -0.624 160 162 174
0.376786 -0.393452 -0.625 65 95 159
0.37856 -0.392823 -0.624 44 73 139
0.384503 -0.392823 -0.624 100 122 172
0.418813 -0.391564 -0.622 182 179 188
0.45126 -0.390934 -0.621 158 164 196
0.468248 -0.390305 -0.62 174 176 191
0.475333 -0.390305 -0.62 164 168 177
0.476514 -0.390305 -0.62 162 166 175
0.478876 -0.390305 -0.62 169 168 182
0.508759 -0.389675 -0.619 188 194 210
0.498667 -0.352533 -0.56 140 111 105
0.463419 -0.310985 -0.494 176 134 110
0.464346 -0.309096 -0.491 180 135 114
0.477357 -0.307837 -0.489 164 122 100
0.04212 -0.306874 -0.486 200 162 139
0.0835343 -0.327711 -0.519 118 92 91
0.0890057 -0.333394 -0.528 110 88 90
0.153617 -0.390223 -0.618 207 209 230
0.168014 -0.390854 -0.619 222 222 246
0.175371 -0.391486 -0.62 171 187 223
0.176552 -0.391486 -0.62 180 196 232
0.190724 -0.391486 -0.62 217 219 240
0.196629 -0.391486 -0.62 125 133 156
0.220603 -0.392117 -0.621 198 204 220
0.254906 -0.392117 -0.621 167 173 207
0.265124 -0.391486 -0.62 186 189 198
0.344091 -0.394011 -0.624 133 142 173
0.352411 -0.394011 -0.624 171 176 198
0.355977 -0.394011 -0.624 173 175 190
0.35778 -0.39338 -0.623 152 154 166
0.380327 -0.39338 -0.623 42 71 139
0.401042 -0.392749 -0.622 143 149 175
0.403946 -0.392117 -0.621 148 154 180
0.459981 -0.391486 -0.62 174 172 186
0.480462 -0.390854 -0.619 97 100 133
0.488715 -0.390854 -0.619 174 175 195
0.49028 -0.390223 -0.618 149 156 175
0.510291 -0.390223 -0.618 190 188 201
0.4788 -0.33592 -0.532 150 116 104
0.473596 -0.330869 -0.524 154 118 104
0.464359 -0.311294 -0.493 176 131 110
0.505395 -0.317609 -0.503 143 108 88
0.0411943 -0.3078 -0.486 200 162 139
0.0546 -0.310333 -0.49 181 140 122
0.0671429 -0.316667 -0.5 152 111 105
0.09756 -0.343267 -0.542 104 84 85
0.154794 -0.3914 -0.618 222 223 244
0.168014 -0.392033 -0.619 222 222 246
0.171551 -0.392033 -0.619 175 182 210
0.200171 -0.392667 -0.62 202 203 223
0.213162 -0.392667 -0.62 198 204 226
0.262762 -0.392667 -0.62 189 194 213
0.299152 -0.393933 -0.622 119 122 153
0.302707 -0.393933 -0.622 105 124 167
0.33642 -0.394567 -0.623 130 127 134
0.35422 -0.394567 -0.623 169 171 184
0.355407 -0.394567 -0.623 174 174 186
0.395666 -0.3933 -0.621 123 120 131
0.411562 -0.392667 -0.62 123 120 129
0.438016 -0.392033 -0.619 99 125 174
0.465134 -0.392033 -0.619 167 170 187
0.480462 -0.392033 -0.619 74 80 114
0.481641 -0.392033 -0.619 65 77 115
0.487926 -0.3914 -0.618 176 177 197
0.512991 -0.390767 -0.617 146 154 167
0.533314 -0.3876 -0.612 182 182 194
0.492751 -0.348967 -0.551 146 116 105
0.470804 -0.309067 -0.488 172 127 106
0.50736 -0.3192 -0.504 142 107 85
0.0339276 -0.309996 -0.488 203 165 144
0.0402686 -0.308726 -0.486 199 161 140
0.0671429 -0.317619 -0.5 155 111 108
0.0878333 -0.33477 -0.527 107 87 88
0.217886 -0.393848 -0.62 199 203 215
0.226152 -0.393848 -0.62 149 164 197
0.230876 -0.393848 -0.62 149 164 207
0.239143 -0.393848 -0.62 136 153 199
0.285919 -0.393212 -0.619 178 183 203
0.292286 -0.393848 -0.62 173 181 202
0.301037 -0.394483 -0.621 75 90 129
0.30222 -0.394483 -0.621 87 110 160
0.321663 -0.395118 -0.622 146 174 221
0.347728 -0.395118 -0.622 161 166 188
0.372608 -0.395118 -0.622 43 73 135
0.412743 -0.393848 -0.62 163 160 171
0.423371 -0.393848 -0.62 129 143 180
0.437309 -0.392577 -0.618 96 122 171
0.44509 -0.393212 -0.619 121 135 164
0.51568 -0.391307 -0.616 139 144 166
0.532443 -0.38813 -0.611 156 161 183
0.481958 -0.309996 -0.488 154 108 85
0.0320686 -0.310926 -0.488 205 167 148
0.0476743 -0.309651 -0.486 189 149 124
0.0486 -0.309651 -0.486 187 147 122
0.0764067 -0.32558 -0.511 128 97 92
0.0825457 -0.330677 -0.519 114 90 90
0.111583 -0.360623 -0.566 96 85 93
0.164211 -0.393754 -0.618 219 221 246
0.169193 -0.394391 -0.619 215 216 244
0.19749 -0.394391 -0.619 201 205 230
0.204565 -0.394391 -0.619 158 162 161
0.231683 -0.394391 -0.619 170 188 234
0.236399 -0.394391 -0.619 136 144 181
0.250143 -0.393754 -0.618 114 137 187
0.25132 -0.393754 -0.618 112 135 185
0.263091 -0.393754 -0.618 191 196 218
0.274129 -0.394391 -0.619 114 118 143
0.299371 -0.395029 -0.62 52 74 124
0.305769 -0.395666 -0.621 32 69 137
0.328243 -0.395666 -0.621 175 177 192
0.331791 -0.395666 -0.621 170 172 187
0.332438 -0.395029 -0.62 162 164 179
0.375557 -0.395666 -0.621 99 127 177
0.377923 -0.395666 -0.621 106 129 171
0.379106 -0.395666 -0.621 121 144 186
0.383837 -0.395666 -0.621 73 89 123
0.410898 -0.394391 -0.619 179 177 191
0.423868 -0.394391 -0.619 169 181 203
0.427405 -0.394391 -0.619 148 160 186
0.4326 -0.393754 -0.618 99 130 184
0.459239 -0.394391 -0.619 174 173 191
0.517186 -0.391843 -0.615 109 116 145
0.518357 -0.391843 -0.615 138 145 174
0.512914 -0.366994 -0.576 135 108 99
0.467627 -0.326217 -0.512 157 120 104
0.462407 -0.317934 -0.499 170 127 108
0.46434 -0.31666 -0.497 170 127 108
0.46436 -0.314749 -0.494 171 128 109
0.479115 -0.310289 -0.487 165 119 96
0.0278143 -0.316329 -0.495 203 165 144
0.031139 -0.311855 -0.488 205 164 144
0.0420333 -0.309938 -0.485 195 158 132
0.043881 -0.309938 -0.485 192 153 124
0.0448048 -0.309938 -0.485 191 152 123
0.0608143 -0.316329 -0.495 162 119 110
0.0740229 -0.324636 -0.508 135 100 96
0.0995019 -0.349559 -0.547 103 80 88
0.107009 -0.357228 -0.559 100 80 82
0.157813 -0.393653 -0.616 212 213 241
0.187754 -0.394931 -0.618 211 214 245
0.194817 -0.394931 -0.618 189 194 214
0.206923 -0.39557 -0.619 205 208 223
0.212818 -0.39557 -0.619 197 202 222
0.228146 -0.39557 -0.619 125 137 177
0.250143 -0.394931 -0.618 73 94 159
0.2678 -0.394931 -0.618 151 153 166
0.289456 -0.39557 -0.619 168 181 198
0.291814 -0.39557 -0.619 162 170 181
0.401466 -0.39557 -0.619 176 180 191
0.414943 -0.394931 -0.618 132 130 151
0.423868 -0.39557 -0.619 169 177 196
0.42955 -0.394292 -0.617 85 110 164
0.521023 -0.392375 -0.614 150 160 196
0.532443 -0.390458 -0.611 111 126 169
0.516476 -0.370648 -0.58 130 102 98
0.495593 -0.353393 -0.553 146 113 104
0.0328629 -0.311503 -0.486 204 163 143
0.0576343 -0.315349 -0.492 169 125 114
0.0608143 -0.317271 -0.495 163 120 111
0.0672771 -0.321117 -0.501 154 110 107
0.0694619 -0.322399 -0.503 145 104 102
0.104316 -0.35637 -0.556 102 78 91
0.1435 -0.394186 -0.615 218 219 239
0.16277 -0.395468 -0.617 157 163 197
0.184223 -0.396109 -0.618 187 194 222
0.216006 -0.396109 -0.618 198 202 214
0.237194 -0.396109 -0.618 109 132 182
0.295351 -0.39675 -0.619 93 95 116
0.304784 -0.39675 -0.619 31 62 126
0.327714 -0.39739 -0.62 174 175 195
0.353695 -0.39739 -0.62 157 158 178
0.35902 -0.39675 -0.619 84 88 125
0.363143 -0.39739 -0.62 158 172 207
0.373771 -0.39739 -0.62 79 109 159
0.38378 -0.39675 -0.619 73 89 122
0.39557 -0.39675 -0.619 177 174 181
0.458497 -0.396109 -0.618 165 164 180
0.503947 -0.394827 -0.616 122 140 164
0.520174 -0.392904 -0.613 122 135 177
0.484323 -0.344191 -0.537 147 117 106
0.474685 -0.335218 -0.523 151 118 103
0.470297 -0.330731 -0.516 156 119 101
0.465038 -0.324322 -0.506 162 124 105
0.464359 -0.31599 -0.493 171 129 107
0.476224 -0.310862 -0.485 161 119 97
0.479057 -0.311503 -0.486 164 122 98
0.0373371 -0.311143 -0.484 202 161 141
0.150284 -0.394714 -0.614 225 226 247
0.170997 -0.396643 -0.617 191 197 229
0.173348 -0.396643 -0.617 146 154 191
0.180107 -0.396 -0.616 160 179 222
0.190667 -0.396 -0.616 132 140 177
0.205411 -0.397286 -0.618 173 175 190
0.217183 -0.397286 -0.618 199 202 221
0.218007 -0.396643 -0.617 199 204 224
0.219182 -0.396643 -0.617 197 202 222
0.236017 -0.397286 -0.618 72 101 157
0.242687 -0.396643 -0.617 41 74 151
0.26224 -0.396 -0.616 189 192 211
0.280749 -0.397286 -0.618 152 154 175
0.281926 -0.397286 -0.618 172 175 192
0.317753 -0.397929 -0.619 73 104 151
0.335439 -0.397929 -0.619 174 173 187
0.363736 -0.397929 -0.619 153 164 194
0.366094 -0.397929 -0.619 123 138 179
0.39964 -0.397286 -0.618 172 174 187
0.418972 -0.396643 -0.617 166 171 193
0.425333 -0.396 -0.616 136 147 167
0.442933 -0.396 -0.616 174 176 201
0.455405 -0.396643 -0.617 155 159 186
0.45936 -0.396 -0.616 158 160 181
0.46288 -0.396 -0.616 148 154 180
0.471093 -0.396 -0.616 126 137 169
0.501957 -0.395357 -0.615 93 119 156
0.503129 -0.395357 -0.615 109 129 156
0.505471 -0.395357 -0.615 153 160 176
0.512836 -0.394714 -0.614 184 192 205
0.514006 -0.394714 -0.614 177 189 205
0.519007 -0.394071 -0.613 93 111 151
0.470767 -0.313071 -0.487 168 126 102
0.476224 -0.311786 -0.485 163 121 99
0.0266 -0.315933 -0.49 204 166 145
0.027421 -0.314644 -0.488 204 166 145
0.0336495 -0.312065 -0.484 203 162 144
0.0683676 -0.32367 -0.502 143 103 95
0.0804133 -0.333987 -0.518 112 91 88
0.087159 -0.341079 -0.529 109 85 85
0.1072 -0.361067 -0.56 103 83 85
0.150284 -0.395884 -0.614 225 223 244
0.162243 -0.396529 -0.615 128 137 170
0.164853 -0.397173 -0.616 176 185 216
0.168373 -0.397173 -0.616 187 196 229
0.182453 -0.397173 -0.616 140 157 201
0.187147 -0.397173 -0.616 148 159 204
0.205079 -0.397818 -0.617 185 186 204
0.221532 -0.397818 -0.617 194 195 216
0.237986 -0.397818 -0.617 48 77 143
0.240336 -0.397818 -0.617 36 71 139
0.2552 -0.397173 -0.616 187 198 230
0.296051 -0.398463 -0.618 74 89 120
0.319594 -0.398463 -0.618 82 97 140
0.37492 -0.398463 -0.618 109 132 176
0.381983 -0.398463 -0.618 157 169 195
0.41008 -0.397173 -0.616 176 181 200
0.436357 -0.396529 -0.615 84 106 153
0.464053 -0.397173 -0.616 114 125 157
0.465227 -0.397173 -0.616 119 128 161
0.490615 -0.395884 -0.614 87 108 153
0.500786 -0.396529 -0.615 108 133 173
0.517839 -0.395239 -0.613 104 122 160
0.53041 -0.393305 -0.61 79 101 158
0.518473 -0.374607 -0.581 136 107 103
0.504555 -0.363001 -0.563 139 108 103
0.469839 -0.313999 -0.487 171 126 103
0.472529 -0.31271 -0.485 170 128 106
0.0447124 -0.312987 -0.484 189 147 123
0.0929133 -0.348553 -0.539 103 83 84
0.10023 -0.356313 -0.551 100 82 82
0.123474 -0.382827 -0.592 216 220 247
0.140928 -0.397053 -0.614 225 224 240
0.161071 -0.3977 -0.615 194 196 219
0.198557 -0.3977 -0.615 200 205 227
0.199729 -0.3977 -0.615 200 205 227
0.22352 -0.398347 -0.616 195 201 217
0.2376 -0.398347 -0.616 46 77 144
0.242293 -0.398347 -0.616 53 88 156
0.28336 -0.398347 -0.616 180 182 203
0.288053 -0.398347 -0.616 179 180 198
0.295572 -0.398993 -0.617 130 145 176
0.297923 -0.398993 -0.617 135 152 196
0.317902 -0.398993 -0.617 114 130 166
0.347283 -0.398993 -0.617 176 177 195
0.353159 -0.398993 -0.617 98 105 133
0.393653 -0.398347 -0.616 168 170 182
0.415947 -0.398347 -0.616 153 159 181
0.423471 -0.3977 -0.615 165 174 191
0.462129 -0.3977 -0.615 154 169 208
0.478529 -0.3977 -0.615 175 179 188
0.523132 -0.395113 -0.611 78 101 155
0.472193 -0.334327 -0.517 155 119 105
0.472529 -0.313633 -0.485 173 128 107
0.47432 -0.312987 -0.484 167 125 103
0.61096 -0.38024 -0.588 200 202 199
0.0327276 -0.313909 -0.484 202 161 141
0.03358 -0.31326 -0.483 202 161 141
0.07084 -0.328177 -0.506 137 102 98
0.121727 -0.382009 -0.589 212 214 239
0.175129 -0.398871 -0.615 90 106 155
0.180986 -0.398871 -0.615 120 142 200
0.20592 -0.39952 -0.616 164 167 182
0.243071 -0.398871 -0.615 51 89 151
0.288053 -0.39952 -0.616 176 179 196
0.37136 -0.39952 -0.616 85 112 159
0.38544 -0.39952 -0.616 118 123 155
0.386613 -0.39952 -0.616 91 96 128
0.410586 -0.398871 -0.615 106 117 147
0.4551 -0.398871 -0.615 77 94 137
0.457443 -0.398871 -0.615 74 97 147
0.469157 -0.398871 -0.615 101 123 172
0.47892 -0.398223 -0.614 175 182 190
0.485937 -0.398223 -0.614 149 149 161
0.495293 -0.398223 -0.614 102 126 172
0.50733 -0.397574 -0.613 189 194 216
0.523132 -0.396277 -0.611 73 96 150
0.525762 -0.395629 -0.61 87 109 167
0.4977 -0.35866 -0.553 140 111 103
0.473107 -0.33596 -0.518 151 118 103
0.468945 -0.316503 -0.488 168 123 100
0.470726 -0.315206 -0.486 174 132 110
0.478008 -0.313909 -0.484 153 108 87
0.497226 -0.319746 -0.493 146 109 90
0.0231 -0.321986 -0.495 207 166 144
0.0586905 -0.320685 -0.493 165 123 111
0.0597505 -0.321335 -0.494 161 118 109
0.0674114 -0.326539 -0.502 141 103 92
0.0768552 -0.334345 -0.514 122 92 90
0.145369 -0.398742 -0.613 177 176 190
0.146536 -0.398742 -0.613 197 196 210
0.147704 -0.398742 -0.613 209 208 222
0.16081 -0.399392 -0.614 222 223 243
0.167827 -0.399392 -0.614 113 122 165
0.180691 -0.399392 -0.614 93 117 179
0.188014 -0.400043 -0.615 136 149 201
0.193871 -0.400043 -0.615 197 204 223
0.195895 -0.399392 -0.614 198 206 229
0.212614 -0.400043 -0.615 171 174 191
0.255541 -0.399392 -0.614 165 177 203
0.25788 -0.399392 -0.614 189 194 213
0.262558 -0.399392 -0.614 190 193 208
0.264897 -0.399392 -0.614 188 191 206
0.270014 -0.400043 -0.615 189 193 205
0.303307 -0.400693 -0.616 84 121 176
0.331467 -0.400693 -0.616 130 130 142
0.342027 -0.400693 -0.616 173 175 188
0.370187 -0.400693 -0.616 99 121 168
0.377786 -0.400043 -0.615 170 175 197
0.418105 -0.399392 -0.614 160 160 172
0.423262 -0.398742 -0.613 133 140 156
0.436817 -0.399392 -0.614 90 115 156
0.439156 -0.399392 -0.614 124 139 180
0.45319 -0.399392 -0.614 118 125 154
0.484768 -0.399392 -0.614 154 154 166
0.49799 -0.398742 -0.613 70 100 150
0.506503 -0.398091 -0.612 186 190 217
0.507669 -0.398091 -0.612 189 190 211
0.508834 -0.398091 -0.612 188 189 210
0.520474 -0.378577 -0.582 130 105 98
0.465287 -0.323287 -0.497 170 129 109
0.466216 -0.319384 -0.491 170 128 106
0.0281181 -0.315752 -0.484 207 166 144
0.0353467 -0.314448 -0.482 200 159 137
0.04094 -0.3151 -0.483 191 149 127
0.04278 -0.3151 -0.483 188 146 122
0.0565819 -0.320319 -0.491 168 122 109
0.0720876 -0.33141 -0.508 128 98 98
0.103443 -0.363376 -0.557 103 83 92
0.166386 -0.39991 -0.613 127 136 179
0.218116 -0.400562 -0.614 196 198 221
0.23332 -0.400562 -0.614 157 166 197
0.240337 -0.400562 -0.614 106 145 204
0.258628 -0.39991 -0.613 186 191 213
0.273084 -0.400562 -0.614 193 195 208
0.292966 -0.400562 -0.614 110 116 142
0.3157 -0.401214 -0.615 173 177 204
0.3649 -0.401214 -0.615 86 104 152
0.377171 -0.400562 -0.614 167 173 197
0.405748 -0.39991 -0.613 98 115 158
0.417424 -0.39991 -0.613 180 180 192
0.436106 -0.39991 -0.613 90 117 162
0.440776 -0.39991 -0.613 154 162 173
0.464886 -0.400562 -0.614 56 79 133
0.473072 -0.400562 -0.614 92 113 160
0.533582 -0.395995 -0.607 156 174 196
0.49226 -0.319014 -0.489 156 115 97
0.0437 -0.31602 -0.483 186 144 120
0.06864 -0.32976 -0.504 133 103 95
0.0797333 -0.340229 -0.52 113 87 88
0.0810343 -0.341537 -0.522 109 84 87
0.139303 -0.400423 -0.612 195 196 216
0.140469 -0.400423 -0.612 198 197 215
0.15938 -0.401077 -0.613 210 213 230
0.160548 -0.401077 -0.613 208 211 228
0.177771 -0.400423 -0.612 84 105 162
0.20993 -0.401731 -0.614 172 172 180
0.239946 -0.401077 -0.613 111 145 206
0.28244 -0.401731 -0.614 181 186 208
0.293656 -0.401077 -0.613 133 127 139
0.318695 -0.401731 -0.614 157 169 195
0.33156 -0.401731 -0.614 167 168 189
0.359043 -0.402386 -0.615 142 142 152
0.368985 -0.401731 -0.614 125 143 189
0.381228 -0.401077 -0.613 171 175 186
0.397053 -0.401731 -0.614 142 160 208
0.427234 -0.400423 -0.612 103 127 173
0.440057 -0.400423 -0.612 121 128 144
0.442389 -0.400423 -0.612 181 177 191
0.469967 -0.401077 -0.613 66 91 148
0.515305 -0.399114 -0.61 155 170 201
0.532703 -0.396497 -0.606 113 136 178
0.49348 -0.35724 -0.546 142 114 103
0.485576 -0.350043 -0.535 150 118 103
0.468067 -0.3206 -0.49 167 124 107
0.484538 -0.317329 -0.485 165 120 101
0.02714 -0.31694 -0.483 208 168 142
0.0526257 -0.320877 -0.489 167 125 113
0.0810343 -0.342531 -0.522 109 85 85
0.13442 -0.400932 -0.611 218 219 239
0.190594 -0.401589 -0.612 196 200 227
0.198754 -0.401589 -0.612 203 211 232
0.202582 -0.402245 -0.613 201 204 221
0.209588 -0.402245 -0.613 198 201 208
0.246549 -0.401589 -0.612 157 175 215
0.252377 -0.401589 -0.612 147 156 185
0.260963 -0.402245 -0.613 189 196 214
0.266801 -0.402245 -0.613 191 196 215
0.280812 -0.402245 -0.613 186 185 201
0.288986 -0.402245 -0.613 136 142 176
0.303491 -0.402901 -0.614 114 138 186
0.358459 -0.402901 -0.614 175 171 194
0.370719 -0.402245 -0.613 87 115 155
0.388233 -0.402245 -0.613 90 107 151
0.414411 -0.401589 -0.612 183 187 199
0.421881 -0.400932 -0.611 116 124 137
0.423045 -0.400932 -0.611 96 120 168
0.429566 -0.401589 -0.612 94 110 162
0.466464 -0.402245 -0.613 37 60 127
0.473863 -0.401589 -0.612 169 173 198
0.487851 -0.401589 -0.612 76 90 127
0.492514 -0.401589 -0.612 70 109 168
0.508333 -0.400276 -0.61 182 189 207
0.5133 -0.39962 -0.609 94 109 140
0.527801 -0.398308 -0.607 59 88 148
0.530113 -0.398308 -0.607 71 101 155
0.531824 -0.396995 -0.605 75 98 142
0.533246 -0.396339 -0.604 100 111 139
0.496191 -0.360249 -0.549 143 113 102
0.467176 -0.323502 -0.493 166 125 107
0.468945 -0.320221 -0.488 172 129 110
0.470726 -0.318909 -0.486 175 130 111
0.472529 -0.318252 -0.485 174 129 108
0.4761 -0.31694 -0.483 165 123 101
0.47702 -0.31694 -0.483 167 125 103
0.02268 -0.319834 -0.486 206 164 139
0.0253 -0.31786 -0.483 208 166 141
0.0316743 -0.317202 -0.482 202 160 136
0.038101 -0.317202 -0.482 194 151 132
0.0496276 -0.320492 -0.487 174 132 118
0.09936 -0.363269 -0.552 98 79 85
0.117758 -0.385644 -0.586 219 225 251
0.140239 -0.402096 -0.611 206 207 227
0.169334 -0.402096 -0.611 112 126 163
0.178645 -0.402096 -0.611 137 160 212
0.180972 -0.402096 -0.611 167 189 226
0.194091 -0.402754 -0.612 201 206 226
0.237223 -0.402754 -0.612 89 119 171
0.253129 -0.402096 -0.611 153 159 183
0.258206 -0.402754 -0.612 136 155 185
0.300171 -0.402754 -0.612 91 113 170
0.310003 -0.403412 -0.613 85 109 155
0.317009 -0.403412 -0.613 172 178 202
0.33864 -0.402754 -0.612 157 170 204
0.339806 -0.402754 -0.612 133 146 180
0.361378 -0.403412 -0.613 97 112 141
0.363713 -0.403412 -0.613 92 111 151
0.396407 -0.403412 -0.613 86 113 168
0.445157 -0.402096 -0.611 182 181 199
0.449812 -0.402096 -0.611 179 178 194
0.483189 -0.402754 -0.612 177 176 190
0.488218 -0.402096 -0.611 73 104 158
0.504848 -0.401438 -0.61 113 132 172
0.5133 -0.40078 -0.609 79 96 140
0.484461 -0.318518 -0.484 165 120 101
0.494042 -0.32115 -0.488 143 108 88
0.0456343 -0.31944 -0.484 179 139 114
0.0598714 -0.3267 -0.495 155 111 102
0.0698762 -0.33396 -0.506 128 97 92
0.0936029 -0.35838 -0.543 101 81 83
0.137686 -0.4026 -0.61 224 225 243
0.199593 -0.40326 -0.611 199 204 224
0.209246 -0.40392 -0.612 187 193 205
0.214723 -0.40326 -0.611 193 199 215
0.240327 -0.40326 -0.611 110 140 192
0.242654 -0.40326 -0.611 92 121 163
0.24731 -0.40326 -0.611 183 188 208
0.257784 -0.40326 -0.611 108 124 158
0.301337 -0.40392 -0.612 116 137 190
0.331646 -0.40392 -0.612 135 150 193
0.352629 -0.40392 -0.612 176 175 193
0.36312 -0.40392 -0.612 79 101 138
0.381148 -0.40326 -0.611 169 172 181
0.416062 -0.40326 -0.611 180 178 189
0.426536 -0.40326 -0.611 88 113 167
0.438174 -0.40326 -0.611 97 119 168
0.445157 -0.40326 -0.611 182 179 198
0.478908 -0.40326 -0.611 152 156 183
0.480071 -0.40326 -0.611 139 138 154
0.532363 -0.39798 -0.603 153 165 191
0.472449 -0.33858 -0.513 160 123 107
0.470704 -0.33594 -0.509 161 122 107
0.467159 -0.32934 -0.499 165 126 109
0.466243 -0.3267 -0.495 166 127 110
0.47794 -0.31878 -0.483 169 124 103
0.47886 -0.31878 -0.483 169 124 103
0.4807 -0.31878 -0.483 170 123 103
0.48731 -0.3201 -0.485 162 121 101
0.499885 -0.32406 -0.491 148 111 92
0.51792 -0.33264 -0.504 143 110 91
0.0343571 -0.318376 -0.481 200 156 129
0.0447124 -0.320362 -0.484 179 138 110
0.0687762 -0.334262 -0.505 127 96 91
0.13862 -0.4031 -0.609 226 225 243
0.162086 -0.403762 -0.61 196 202 224
0.16762 -0.4031 -0.609 167 183 216
0.173705 -0.403762 -0.61 109 142 195
0.203085 -0.404424 -0.611 201 204 221
0.208904 -0.404424 -0.611 191 194 209
0.243419 -0.403762 -0.61 94 121 164
0.276857 -0.405086 -0.612 166 172 196
0.278023 -0.405086 -0.612 155 161 185
0.389931 -0.405086 -0.612 102 123 166
0.424676 -0.403762 -0.61 97 124 179
0.43281 -0.403762 -0.61 86 118 179
0.454886 -0.403762 -0.61 122 140 180
0.50054 -0.4031 -0.609 54 87 140
0.508983 -0.402438 -0.608 177 183 205
0.523757 -0.400452 -0.605 64 88 150
0.526062 -0.400452 -0.605 63 87 149
0.527214 -0.400452 -0.605 63 87 149
0.466242 -0.326981 -0.494 167 126 108
0.486305 -0.320362 -0.484 163 122 102
0.06106 -0.329913 -0.497 150 107 100
0.0841362 -0.351155 -0.529 104 84 85
0.104557 -0.373725 -0.563 102 83 89
0.136524 -0.404924 -0.61 225 224 242
0.13862 -0.40426 -0.609 225 224 242
0.1711 -0.40426 -0.609 138 162 206
0.198105 -0.404924 -0.61 197 200 217
0.214371 -0.404924 -0.61 191 193 214
0.221343 -0.404924 -0.61 131 146 177
0.23722 -0.40426 -0.609 141 164 205
0.2407 -0.40426 -0.609 114 141 186
0.270586 -0.405588 -0.611 138 144 170
0.295705 -0.404924 -0.61 98 112 139
0.318943 -0.404924 -0.61 176 179 196
0.321267 -0.404924 -0.61 131 138 156
0.32994 -0.405588 -0.611 70 95 151
0.353216 -0.405588 -0.611 169 172 189
0.373552 -0.404924 -0.61 99 115 151
0.403762 -0.404924 -0.61 93 123 183
0.404924 -0.404924 -0.61 126 147 190
0.40841 -0.404924 -0.61 167 178 198
0.41934 -0.40426 -0.609 170 176 200
0.42398 -0.40426 -0.609 99 129 183
0.42514 -0.40426 -0.609 95 125 179
0.430486 -0.404924 -0.61 52 87 155
0.44602 -0.40426 -0.609 159 164 183
0.44718 -0.40426 -0.609 125 130 149
0.45878 -0.40426 -0.609 30 61 126
0.478124 -0.404924 -0.61 100 105 135
0.520006 -0.402269 -0.606 59 88 144
0.529519 -0.401605 -0.605 98 118 171
0.468115 -0.327258 -0.493 167 126 108
0.489157 -0.321948 -0.485 160 122 101
0.02162 -0.32154 -0.483 207 165 143
0.0234114 -0.320874 -0.482 209 165 140
0.0288 -0.319543 -0.48 202 158 133
0.04186 -0.32154 -0.483 184 142 117
0.0526257 -0.325534 -0.489 164 121 105
0.0750429 -0.342843 -0.515 115 87 83
0.11136 -0.383451 -0.576 216 210 224
0.149973 -0.404754 -0.608 220 220 232
0.16646 -0.40542 -0.609 148 154 176
0.1885 -0.40542 -0.609 147 156 185
0.18966 -0.40542 -0.609 100 115 154
0.200429 -0.406086 -0.61 200 202 223
0.208562 -0.406086 -0.61 185 190 210
0.209724 -0.406086 -0.61 185 190 210
0.22562 -0.40542 -0.609 188 194 210
0.23026 -0.40542 -0.609 172 177 206
0.281762 -0.406086 -0.61 127 143 192
0.28826 -0.40542 -0.609 170 176 188
0.2987 -0.40542 -0.609 101 122 167
0.303838 -0.406086 -0.61 98 119 166
0.37062 -0.40542 -0.609 78 100 149
0.38106 -0.40542 -0.609 172 177 196
0.395629 -0.406086 -0.61 35 64 132
0.39846 -0.40542 -0.609 36 63 132
0.41238 -0.40542 -0.609 157 167 192
0.4205 -0.40542 -0.609 133 141 164
0.436023 -0.404754 -0.608 72 108 168
0.441813 -0.404754 -0.608 143 149 165
0.45878 -0.40542 -0.609 28 59 123
0.4611 -0.40542 -0.609 27 63 125
0.46999 -0.406086 -0.61 34 66 125
0.48161 -0.406086 -0.61 146 157 177
0.509302 -0.404089 -0.607 185 187 199
0.511926 -0.403423 -0.606 181 188 204
0.515389 -0.403423 -0.606 155 170 193
0.48233 -0.350831 -0.527 154 121 106
0.469022 -0.326866 -0.491 171 130 112
0.47886 -0.32154 -0.483 170 125 104
0.480623 -0.320874 -0.482 168 123 104
0.0164667 -0.329804 -0.494 203 162 140
0.0288 -0.320457 -0.48 202 158 133
0.0361143 -0.320457 -0.48 193 152 124
0.0370286 -0.320457 -0.48 192 151 123
0.04186 -0.32246 -0.483 183 141 116
0.0447124 -0.323128 -0.484 179 137 115
0.0568124 -0.329136 -0.493 155 113 101
0.113433 -0.387887 -0.581 225 226 246
0.162712 -0.405912 -0.608 209 212 227
0.167345 -0.405912 -0.608 131 146 179
0.21054 -0.40658 -0.609 177 181 206
0.23683 -0.405912 -0.608 147 167 200
0.3161 -0.40658 -0.609 171 173 186
0.31842 -0.40658 -0.609 149 151 163
0.323688 -0.405912 -0.608 133 141 162
0.373486 -0.405912 -0.608 88 110 157
0.4147 -0.40658 -0.609 175 176 204
0.417493 -0.405912 -0.608 108 115 133
0.491611 -0.405912 -0.608 46 85 150
0.493115 -0.405245 -0.607 36 81 140
0.513386 -0.40391 -0.605 170 185 204
0.527493 -0.403242 -0.604 78 98 149
0.532627 -0.401907 -0.602 175 177 200
0.4726 -0.340486 -0.51 159 121 108
0.469933 -0.327133 -0.49 170 129 111
0.4761 -0.32246 -0.483 170 127 110
0.48714 -0.32246 -0.483 160 119 97
0.499711 -0.326466 -0.489 149 111 90
0.0296524 -0.320702 -0.479 201 157 132
0.0370286 -0.321371 -0.48 192 151 123
0.0398543 -0.322041 -0.481 189 148 120
0.0678143 -0.33811 -0.505 123 95 92
0.0702905 -0.340788 -0.509 117 91 90
0.0842952 -0.354848 -0.53 106 85 84
0.0927391 -0.364221 -0.544 100 80 81
0.150883 -0.406401 -0.607 210 217 235
0.156664 -0.406401 -0.607 160 167 193
0.160396 -0.40707 -0.608 217 217 229
0.193981 -0.40707 -0.608 145 151 187
0.197455 -0.40707 -0.608 163 172 201
0.198613 -0.40707 -0.608 182 187 219
0.202088 -0.40707 -0.608 165 165 189
0.25694 -0.40774 -0.609 173 171 193
0.27434 -0.40774 -0.609 108 138 190
0.288945 -0.40707 -0.608 171 178 197
0.294735 -0.40707 -0.608 88 105 151
0.302842 -0.40707 -0.608 83 103 156
0.350314 -0.40841 -0.61 173 174 204
0.411703 -0.40707 -0.608 80 98 138
0.41981 -0.40707 -0.608 87 102 123
0.424442 -0.40707 -0.608 36 71 135
0.43139 -0.40707 -0.608 38 71 140
0.433707 -0.40707 -0.608 38 73 139
0.439497 -0.40707 -0.608 107 121 148
0.48314 -0.40774 -0.609 163 168 188
0.49692 -0.405731 -0.606 60 99 158
0.474403 -0.343466 -0.513 158 122 108
0.469031 -0.335431 -0.501 158 122 106
0.480623 -0.32271 -0.482 165 122 103
0.503626 -0.328736 -0.491 144 108 86
0.0398543 -0.322957 -0.481 187 145 120
0.180944 -0.407557 -0.607 179 191 217
0.190507 -0.408229 -0.608 195 202 228
0.212161 -0.407557 -0.607 101 118 172
0.227191 -0.407557 -0.607 194 197 216
0.250728 -0.408229 -0.608 187 188 209
0.263467 -0.408229 -0.608 75 97 157
0.265783 -0.408229 -0.608 106 132 193
0.266941 -0.408229 -0.608 106 132 193
0.278522 -0.408229 -0.608 67 95 143
0.329478 -0.408229 -0.608 38 73 137
0.381592 -0.408229 -0.608 114 121 131
0.387383 -0.408229 -0.608 58 90 149
0.427212 -0.407557 -0.607 33 71 136
0.442243 -0.407557 -0.607 168 180 194
0.453805 -0.407557 -0.607 110 132 190
0.461898 -0.407557 -0.607 31 62 129
0.469608 -0.408229 -0.608 121 146 203
0.481189 -0.408229 -0.608 171 174 193
0.485821 -0.408229 -0.608 91 117 168
0.487334 -0.407557 -0.607 54 86 143
0.493115 -0.407557 -0.607 50 88 151
0.519729 -0.404871 -0.603 75 98 148
0.469048 -0.335714 -0.5 161 124 106
0.0161333 -0.325893 -0.484 203 163 138
0.050659 -0.328587 -0.488 163 121 105
0.05576 -0.33128 -0.492 154 112 100
0.0704286 -0.3434 -0.51 114 90 88
0.12462 -0.40602 -0.603 135 146 174
0.143709 -0.40804 -0.606 224 221 238
0.1821 -0.408713 -0.607 196 202 226
0.198287 -0.408713 -0.607 152 166 205
0.212161 -0.408713 -0.607 79 100 163
0.219891 -0.40804 -0.606 188 194 210
0.227971 -0.40804 -0.606 170 173 192
0.241066 -0.408713 -0.607 115 136 181
0.265346 -0.408713 -0.607 57 85 148
0.275048 -0.409387 -0.608 46 78 135
0.283845 -0.408713 -0.607 178 181 200
0.285001 -0.408713 -0.607 176 179 198
0.315062 -0.408713 -0.607 169 171 192
0.341059 -0.409387 -0.608 77 112 170
0.345691 -0.409387 -0.608 116 136 173
0.34685 -0.409387 -0.608 122 133 165
0.371715 -0.408713 -0.607 59 88 144
0.374028 -0.408713 -0.607 75 104 160
0.408713 -0.408713 -0.607 108 123 164
0.41565 -0.408713 -0.607 172 180 199
0.43228 -0.40804 -0.606 63 101 166
0.434589 -0.40804 -0.606 61 99 161
0.44844 -0.40804 -0.606 170 174 185
0.479241 -0.408713 -0.607 170 171 189
0.48271 -0.408713 -0.607 166 175 192
0.494611 -0.40804 -0.606 54 89 147
0.509391 -0.40602 -0.603 139 140 145
0.512634 -0.381107 -0.566 127 108 101
0.496729 -0.366967 -0.545 139 112 105
0.488737 -0.35956 -0.534 148 115 106
0.47001 -0.335993 -0.499 162 125 107
0.469074 -0.333973 -0.496 167 128 111
0.472529 -0.326567 -0.485 168 127 105
0.0178657 -0.32479 -0.481 207 167 142
0.0259486 -0.322764 -0.478 199 157 132
0.0426914 -0.325465 -0.482 178 138 113
0.0527333 -0.330867 -0.49 160 118 104
0.0568124 -0.332892 -0.493 151 108 99
0.062381 -0.337619 -0.5 139 101 98
0.0779019 -0.351799 -0.521 106 82 82
0.0831286 -0.357201 -0.529 103 81 83
0.154995 -0.408519 -0.605 209 211 234
0.156148 -0.408519 -0.605 210 212 235
0.187571 -0.409194 -0.606 198 205 224
0.250315 -0.40987 -0.607 190 189 205
0.251471 -0.40987 -0.607 192 191 207
0.279914 -0.409194 -0.606 170 184 213
0.320843 -0.40987 -0.607 151 156 178
0.324311 -0.40987 -0.607 138 153 192
0.374566 -0.409194 -0.606 82 98 131
0.389058 -0.40987 -0.607 61 85 147
0.393683 -0.40987 -0.607 32 60 125
0.395995 -0.40987 -0.607 33 64 131
0.408713 -0.40987 -0.607 150 160 187
0.44309 -0.408519 -0.605 175 183 196
0.451903 -0.409194 -0.606 143 149 175
0.475357 -0.408519 -0.605 172 175 192
0.478451 -0.409194 -0.606 169 171 186
0.479606 -0.409194 -0.606 172 174 189
0.497581 -0.407844 -0.604 71 103 152
0.532254 -0.404468 -0.599 173 180 198
0.509174 -0.378809 -0.561 127 108 101
0.506431 -0.331542 -0.491 151 113 92
0.0142895 -0.327737 -0.484 205 165 140
0.0196162 -0.324351 -0.479 205 163 139
0.0314771 -0.324351 -0.479 194 155 126
0.0397714 -0.325029 -0.48 180 140 115
0.062381 -0.338571 -0.5 135 100 96
0.0669848 -0.342634 -0.506 120 94 93
0.0874543 -0.363626 -0.537 102 82 84
0.148081 -0.409671 -0.605 164 171 199
0.16564 -0.410349 -0.606 128 145 175
0.189567 -0.409671 -0.605 192 198 214
0.20604 -0.410349 -0.606 113 149 201
0.210657 -0.410349 -0.606 63 95 154
0.222986 -0.409671 -0.605 192 193 211
0.251057 -0.410349 -0.606 191 193 208
0.269526 -0.410349 -0.606 63 92 158
0.281069 -0.410349 -0.606 173 173 199
0.37572 -0.410349 -0.606 133 148 179
0.390726 -0.410349 -0.606 44 75 142
0.393034 -0.410349 -0.606 36 63 130
0.409194 -0.410349 -0.606 166 172 186
0.411503 -0.410349 -0.606 129 131 143
0.41612 -0.410349 -0.606 182 186 198
0.425354 -0.410349 -0.606 55 93 156
0.453462 -0.409671 -0.605 59 82 132
0.458829 -0.410349 -0.606 38 69 133
0.462681 -0.409671 -0.605 31 66 124
0.494948 -0.409671 -0.605 82 112 162
0.4961 -0.409671 -0.605 74 104 154
0.515427 -0.40764 -0.602 107 124 167
0.520013 -0.40764 -0.602 155 172 198
0.49594 -0.367689 -0.543 137 112 107
0.474543 -0.345343 -0.51 154 121 106
0.472749 -0.342634 -0.506 157 121 107
0.470019 -0.335863 -0.496 168 129 112
0.471605 -0.328414 -0.485 168 125 106
0.473398 -0.327737 -0.484 169 126 107
0.494602 -0.327737 -0.484 155 113 91
0.5084 -0.333154 -0.492 153 112 90
0.0142305 -0.327301 -0.482 206 166 140
0.0268029 -0.323906 -0.477 198 159 130
0.0436095 -0.327301 -0.482 173 132 110
0.0476743 -0.330017 -0.486 163 121 105
0.0537762 -0.333412 -0.491 151 113 100
0.0613057 -0.338845 -0.499 140 101 96
0.09638 -0.375513 -0.553 105 80 83
0.123062 -0.408108 -0.601 216 217 238
0.154739 -0.410145 -0.604 214 211 232
0.184957 -0.410824 -0.605 199 202 219
0.189567 -0.410824 -0.605 199 205 221
0.195329 -0.410824 -0.605 82 105 147
0.204886 -0.411503 -0.606 58 94 154
0.256405 -0.410824 -0.605 182 185 204
0.259862 -0.410824 -0.605 143 154 184
0.28291 -0.410824 -0.605 165 170 189
0.285214 -0.410824 -0.605 171 176 198
0.337629 -0.411503 -0.606 18 57 126
0.339937 -0.411503 -0.606 30 65 131
0.371643 -0.410824 -0.605 68 96 144
0.406214 -0.410824 -0.605 169 183 209
0.415433 -0.410824 -0.605 181 185 197
0.421195 -0.410824 -0.605 66 105 162
0.443509 -0.410145 -0.604 169 175 187
0.444659 -0.410145 -0.604 173 179 195
0.451562 -0.410145 -0.604 74 97 141
0.473421 -0.410145 -0.604 168 171 190
0.502813 -0.408787 -0.602 177 177 187
0.50396 -0.408787 -0.602 175 177 189
0.512281 -0.408108 -0.601 88 103 136
0.51686 -0.408108 -0.601 145 160 189
0.532505 -0.40607 -0.598 170 179 208
0.4728 -0.34224 -0.504 155 117 104
0.470892 -0.333412 -0.491 170 127 110
0.470867 -0.332733 -0.49 170 127 110
0.471733 -0.331375 -0.488 168 125 108
0.47426 -0.32798 -0.483 172 127 108
0.480542 -0.326622 -0.481 167 125 103
0.509337 -0.334091 -0.492 147 109 88
0.517446 -0.338166 -0.498 146 108 87
0.0116429 -0.332986 -0.489 199 162 136
0.0231686 -0.324814 -0.477 200 158 134
0.0436095 -0.328219 -0.482 171 130 108
0.0507629 -0.332986 -0.489 160 118 104
0.0862705 -0.36499 -0.536 97 81 84
0.136331 -0.411295 -0.604 189 195 221
0.257131 -0.411295 -0.604 185 190 212
0.266776 -0.411976 -0.605 45 74 140
0.285893 -0.411295 -0.604 169 175 197
0.293947 -0.411295 -0.604 71 102 159
0.329005 -0.411976 -0.605 20 55 123
0.33131 -0.411976 -0.605 26 56 120
0.334767 -0.411976 -0.605 15 52 120
0.37333 -0.411295 -0.604 149 163 189
0.407367 -0.411976 -0.605 147 152 156
0.413596 -0.411295 -0.604 180 183 198
0.415897 -0.411295 -0.604 183 186 205
0.417048 -0.411295 -0.604 169 172 191
0.430853 -0.411295 -0.604 76 113 168
0.44811 -0.411295 -0.604 139 141 153
0.479173 -0.411295 -0.604 168 171 190
0.499054 -0.410614 -0.603 114 138 176
0.522857 -0.408571 -0.6 147 158 176
0.480876 -0.354095 -0.52 149 115 105
0.475514 -0.347286 -0.51 155 119 105
0.473683 -0.345243 -0.507 155 119 105
0.471894 -0.341157 -0.501 155 118 102
0.470804 -0.332305 -0.488 168 125 108
0.47518 -0.3289 -0.483 169 126 107
0.47695 -0.328219 -0.482 169 124 103
0.476877 -0.327538 -0.481 170 125 104
0.481371 -0.326857 -0.48 164 122 98
0.0340714 -0.325723 -0.477 191 152 119
0.0497295 -0.333234 -0.488 161 119 103
0.0570429 -0.338014 -0.495 146 106 98
0.0591667 -0.33938 -0.497 141 102 95
0.0796514 -0.359183 -0.526 100 81 85
0.0981381 -0.380351 -0.557 93 77 80
0.10134 -0.384449 -0.563 96 79 85
0.130579 -0.412446 -0.604 126 140 179
0.136331 -0.412446 -0.604 193 200 228
0.177749 -0.412446 -0.604 118 142 180
0.20651 -0.412446 -0.604 44 82 145
0.214209 -0.411763 -0.603 189 189 215
0.216506 -0.411763 -0.603 189 194 214
0.232586 -0.411763 -0.603 92 122 176
0.268636 -0.412446 -0.604 38 67 135
0.3015 -0.411763 -0.603 25 65 134
0.304946 -0.411763 -0.603 20 61 127
0.318107 -0.412446 -0.604 94 104 131
0.322709 -0.412446 -0.604 104 118 153
0.341681 -0.413129 -0.605 109 138 194
0.342833 -0.413129 -0.605 133 152 192
0.34629 -0.413129 -0.605 149 160 188
0.371029 -0.412446 -0.604 68 94 155
0.385985 -0.412446 -0.604 127 128 149
0.39979 -0.412446 -0.604 45 74 142
0.404392 -0.412446 -0.604 121 133 171
0.453111 -0.411763 -0.603 74 100 137
0.471489 -0.411763 -0.603 154 156 171
0.476083 -0.411763 -0.603 166 173 189
0.481474 -0.412446 -0.604 168 171 190
0.505412 -0.410397 -0.601 166 172 198
0.477793 -0.328454 -0.481 172 130 106
0.480542 -0.328454 -0.481 169 127 103
0.0168438 -0.327316 -0.478 204 165 136
0.04462 -0.33074 -0.483 166 125 107
0.0658905 -0.345805 -0.505 118 92 91
0.0707048 -0.350598 -0.512 108 86 88
0.0744933 -0.354707 -0.518 101 82 84
0.0770571 -0.357446 -0.522 100 81 85
0.104771 -0.390314 -0.57 126 119 137
0.125769 -0.412911 -0.603 188 195 213
0.129214 -0.412911 -0.603 123 137 176
0.131511 -0.412911 -0.603 133 148 191
0.134957 -0.412911 -0.603 179 191 229
0.155373 -0.412227 -0.602 211 213 234
0.161374 -0.412911 -0.603 148 165 195
0.162523 -0.412911 -0.603 136 153 183
0.165969 -0.412911 -0.603 134 157 201
0.186643 -0.412911 -0.603 199 200 221
0.298707 -0.412227 -0.602 16 55 124
0.302147 -0.412227 -0.602 26 66 135
0.342267 -0.413596 -0.604 147 162 195
0.34917 -0.413596 -0.604 163 170 186
0.370414 -0.412911 -0.603 63 88 152
0.403242 -0.413596 -0.604 81 96 129
0.406693 -0.413596 -0.604 119 126 134
0.43516 -0.412227 -0.602 170 171 189
0.439747 -0.412227 -0.602 175 181 197
0.444333 -0.412227 -0.602 165 167 182
0.461533 -0.412227 -0.602 102 123 150
0.471853 -0.412227 -0.602 171 170 186
0.474147 -0.412227 -0.602 172 169 190
0.479529 -0.412911 -0.603 168 171 188
0.499373 -0.412227 -0.602 157 164 180
0.506557 -0.411542 -0.601 143 148 168
0.512571 -0.410857 -0.6 166 173 192
0.487269 -0.361554 -0.528 144 115 107
0.484575 -0.358815 -0.524 143 114 106
0.480071 -0.354022 -0.517 148 116 105
0.471733 -0.334164 -0.488 171 129 107
0.472529 -0.33211 -0.485 173 131 107
0.47426 -0.33074 -0.483 172 127 104
0.47871 -0.32937 -0.481 171 129 107
0.507163 -0.334849 -0.489 149 111 90
0.00972 -0.33372 -0.486 198 161 134
