ply
format ascii 1.0
comment Created by Open3D
element vertex 1291
property double x
property double y
property double z
property uchar red
property uchar green
property uchar blue
end_header
0.48963 -0.335791 -0.557 136 107 103
0.475253 -0.323131 -0.536 151 115 103
0.459135 -0.306251 -0.508 161 123 104
0.459627 -0.299017 -0.496 175 132 113
0.467176 -0.297209 -0.493 171 126 107
0.0445143 -0.297543 -0.492 199 164 142
0.0731486 -0.30359 -0.502 157 114 105
0.07536 -0.3048 -0.504 154 114 104
0.110926 -0.333829 -0.552 108 89 95
0.17883 -0.37979 -0.628 166 179 213
0.181223 -0.37979 -0.628 141 158 202
0.21386 -0.380395 -0.629 216 218 239
0.236174 -0.381605 -0.631 191 201 228
0.248193 -0.381605 -0.631 130 154 198
0.2526 -0.381 -0.63 137 160 202
0.261 -0.381 -0.63 196 201 221
0.279886 -0.38221 -0.632 82 94 144
0.295068 -0.381605 -0.631 173 179 205
0.299875 -0.381605 -0.631 179 184 203
0.318408 -0.38221 -0.632 91 114 168
0.321323 -0.382814 -0.633 152 176 214
0.335791 -0.382814 -0.633 70 82 120
0.340614 -0.382814 -0.633 104 118 157
0.348503 -0.38221 -0.632 135 152 196
0.41514 -0.380395 -0.629 138 152 178
0.427638 -0.37979 -0.628 168 171 190
0.469951 -0.379186 -0.627 95 108 127
0.491857 -0.378581 -0.626 179 184 204
0.495434 -0.378581 -0.626 147 162 195
0.50855 -0.378581 -0.626 167 182 203
0.527131 -0.377371 -0.624 203 205 220
0.526343 -0.365276 -0.604 114 98 99
0.494025 -0.339876 -0.562 133 105 102
0.487167 -0.334433 -0.553 143 110 103
0.470932 -0.298148 -0.493 165 120 99
0.482271 -0.299357 -0.495 150 112 93
0.0408 -0.30576 -0.504 204 169 149
0.0565819 -0.297873 -0.491 187 148 131
0.0657933 -0.301513 -0.497 170 127 118
0.0884771 -0.31486 -0.519 127 98 102
0.122571 -0.347013 -0.572 109 83 92
0.126059 -0.350653 -0.578 160 144 154
0.1421 -0.36946 -0.609 243 245 255
0.172574 -0.38038 -0.627 217 219 242
0.209931 -0.380987 -0.628 218 219 239
0.259388 -0.381593 -0.629 193 198 218
0.2622 -0.3822 -0.63 189 197 220
0.29026 -0.382807 -0.631 122 128 164
0.2946 -0.3822 -0.63 179 184 213
0.305885 -0.382807 -0.631 116 115 131
0.352114 -0.383413 -0.632 107 130 171
0.359337 -0.383413 -0.632 160 168 207
0.362949 -0.383413 -0.632 165 176 194
0.371375 -0.383413 -0.632 107 114 143
0.379197 -0.38402 -0.633 101 125 173
0.386412 -0.382807 -0.631 151 153 168
0.392422 -0.382807 -0.631 162 176 189
0.406753 -0.381593 -0.629 55 69 116
0.418069 -0.380987 -0.628 170 174 201
0.46398 -0.38038 -0.627 171 169 193
0.482195 -0.330633 -0.545 146 112 102
0.458605 -0.302727 -0.499 170 129 107
0.466242 -0.299693 -0.494 172 127 106
0.480356 -0.299693 -0.494 147 106 86
0.0452667 -0.2982 -0.49 199 162 143
0.07 -0.304286 -0.5 162 119 112
0.078861 -0.309154 -0.508 145 109 109
0.178546 -0.381574 -0.627 172 181 212
0.183323 -0.381574 -0.627 162 184 225
0.197654 -0.381574 -0.627 126 129 170
0.200043 -0.381574 -0.627 148 152 189
0.20482 -0.381574 -0.627 222 223 241
0.223445 -0.382791 -0.629 213 206 224
0.2346 -0.3834 -0.63 208 204 221
0.247407 -0.382791 -0.629 138 166 205
0.253397 -0.382791 -0.629 109 131 178
0.261784 -0.382791 -0.629 194 199 221
0.2886 -0.3834 -0.63 112 125 169
0.3018 -0.3834 -0.63 180 185 204
0.316702 -0.384009 -0.631 75 104 162
0.324427 -0.384617 -0.632 181 183 208
0.394772 -0.382791 -0.629 151 158 184
0.397169 -0.382791 -0.629 169 173 198
0.41382 -0.381574 -0.627 166 171 191
0.423374 -0.381574 -0.627 127 138 166
0.460397 -0.381574 -0.627 166 173 192
0.464432 -0.380966 -0.626 171 175 187
0.477976 -0.380357 -0.625 169 175 191
0.491071 -0.380357 -0.625 167 181 208
0.507738 -0.380357 -0.625 150 160 196
0.4644 -0.314023 -0.516 156 119 101
0.47281 -0.300026 -0.493 160 118 96
0.481297 -0.300634 -0.494 154 113 91
0.5066 -0.310371 -0.51 149 112 86
0.0394448 -0.304628 -0.499 205 168 149
0.0409314 -0.301575 -0.494 204 167 149
0.0470371 -0.298523 -0.489 200 163 144
0.0596295 -0.300965 -0.493 182 141 123
0.0744 -0.30768 -0.504 153 114 109
0.0755095 -0.30829 -0.505 151 112 107
0.0799857 -0.310732 -0.509 142 106 106
0.0954 -0.323552 -0.53 113 88 91
0.138403 -0.368117 -0.603 242 240 254
0.191989 -0.383379 -0.628 225 228 245
0.217109 -0.383379 -0.628 198 198 232
0.252199 -0.38399 -0.629 110 131 178
0.261368 -0.383379 -0.628 192 194 215
0.26376 -0.383379 -0.628 190 196 222
0.282151 -0.38399 -0.629 149 166 212
0.286944 -0.38399 -0.629 108 125 169
0.306113 -0.38399 -0.629 101 125 171
0.30851 -0.38399 -0.629 83 105 154
0.3198 -0.3846 -0.63 84 110 159
0.329923 -0.38521 -0.631 151 149 170
0.331125 -0.38521 -0.631 116 114 135
0.345 -0.3846 -0.63 67 89 136
0.350355 -0.38521 -0.631 155 163 199
0.356365 -0.38521 -0.631 152 160 196
0.394145 -0.383379 -0.628 158 165 193
0.411431 -0.382769 -0.627 164 171 190
0.4389 -0.382769 -0.627 72 107 163
0.452509 -0.382158 -0.626 66 73 99
0.504549 -0.380937 -0.624 119 143 203
0.519167 -0.380327 -0.623 199 202 217
0.460163 -0.309511 -0.507 164 126 105
0.461516 -0.302796 -0.496 176 133 114
0.48608 -0.302796 -0.496 148 108 83
0.0451743 -0.299454 -0.489 201 164 145
0.0461057 -0.299454 -0.489 201 164 145
0.0848524 -0.315376 -0.515 128 98 98
0.0913257 -0.320888 -0.524 116 91 94
0.0942124 -0.32395 -0.529 113 88 92
0.0999143 -0.329461 -0.538 109 87 90
0.104137 -0.333135 -0.544 107 85 88
0.107186 -0.336197 -0.549 105 84 89
0.180357 -0.382738 -0.625 186 197 229
0.183929 -0.382738 -0.625 181 189 225
0.196147 -0.38335 -0.626 207 208 239
0.219151 -0.383963 -0.627 205 205 231
0.244621 -0.384575 -0.628 110 130 180
0.24821 -0.384575 -0.628 131 156 197
0.272133 -0.384575 -0.628 115 122 164
0.288142 -0.385188 -0.629 77 94 138
0.29845 -0.384575 -0.628 177 182 204
0.303234 -0.384575 -0.628 162 169 197
0.3174 -0.3858 -0.63 82 109 162
0.3198 -0.3858 -0.63 100 124 172
0.3522 -0.3858 -0.63 158 165 193
0.3558 -0.3858 -0.63 168 175 203
0.356433 -0.385188 -0.629 160 170 197
0.392949 -0.384575 -0.628 120 127 155
0.414352 -0.38335 -0.626 171 176 196
0.423891 -0.38335 -0.626 75 81 107
0.439392 -0.38335 -0.626 55 91 153
0.467703 -0.382126 -0.624 136 141 161
0.479589 -0.382126 -0.624 163 161 174
0.5073 -0.381513 -0.623 82 106 166
0.51086 -0.381513 -0.623 99 122 174
0.519518 -0.380901 -0.622 200 202 215
0.532877 -0.380289 -0.621 161 168 187
0.0668743 -0.305914 -0.498 164 121 112
0.067959 -0.306529 -0.499 163 120 113
0.0850171 -0.316971 -0.516 127 97 97
0.115076 -0.345229 -0.562 102 81 86
0.116767 -0.347071 -0.565 104 83 88
0.202109 -0.384543 -0.626 167 174 202
0.222734 -0.385157 -0.627 155 160 190
0.235051 -0.385771 -0.628 205 203 224
0.259757 -0.385157 -0.627 194 199 219
0.285291 -0.385771 -0.628 143 151 187
0.301557 -0.385157 -0.627 183 185 210
0.30514 -0.385157 -0.627 87 110 154
0.33367 -0.386386 -0.629 163 168 197
0.369 -0.387 -0.63 168 173 202
0.375 -0.387 -0.63 113 126 170
0.386386 -0.386386 -0.629 158 160 181
0.38998 -0.386386 -0.629 115 119 146
0.391752 -0.385771 -0.628 68 73 103
0.399489 -0.385157 -0.627 169 174 196
0.401877 -0.385157 -0.627 170 174 199
0.425595 -0.383929 -0.625 119 123 150
0.442262 -0.383929 -0.625 111 133 182
0.450595 -0.383929 -0.625 59 73 100
0.460119 -0.383929 -0.625 172 174 187
0.465326 -0.383314 -0.624 158 163 183
0.494247 -0.3827 -0.623 86 108 166
0.508487 -0.3827 -0.623 78 105 172
0.526963 -0.381471 -0.621 173 177 189
0.48516 -0.3354 -0.546 149 115 103
0.461397 -0.307757 -0.501 167 126 106
0.472763 -0.301614 -0.491 164 121 102
0.483179 -0.303457 -0.494 157 115 93
0.04238 -0.301317 -0.489 199 162 143
0.0450819 -0.300701 -0.488 201 164 145
0.0478705 -0.300701 -0.488 199 161 140
0.0515886 -0.300701 -0.488 187 149 130
0.0555333 -0.301933 -0.49 190 149 129
0.0585714 -0.303166 -0.492 181 140 122
0.0605686 -0.303782 -0.493 178 136 122
0.101502 -0.333359 -0.541 104 83 88
0.120392 -0.352461 -0.572 109 89 101
0.191377 -0.385735 -0.626 222 227 247
0.197339 -0.385735 -0.626 219 221 242
0.204167 -0.385119 -0.625 168 179 209
0.249009 -0.386351 -0.627 119 146 191
0.274089 -0.386351 -0.627 178 187 216
0.297974 -0.386351 -0.627 183 183 207
0.351641 -0.387584 -0.629 167 173 197
0.35883 -0.387584 -0.629 66 75 108
0.377999 -0.387584 -0.629 105 123 169
0.379197 -0.387584 -0.629 119 137 183
0.382791 -0.387584 -0.629 171 174 193
0.401877 -0.386351 -0.627 170 174 199
0.4125 -0.385119 -0.625 171 177 193
0.424914 -0.384503 -0.624 78 84 118
0.440366 -0.384503 -0.624 94 127 181
0.446309 -0.384503 -0.624 82 103 146
0.456548 -0.385119 -0.625 154 153 161
0.469327 -0.383887 -0.623 120 127 156
0.470513 -0.383887 -0.623 127 134 160
0.50767 -0.38327 -0.622 73 100 167
0.511225 -0.38327 -0.622 143 156 188
0.513951 -0.382654 -0.621 184 181 188
0.519866 -0.382654 -0.621 201 200 206
0.529657 -0.382038 -0.62 169 173 185
0.512714 -0.358623 -0.582 133 105 102
0.462447 -0.306247 -0.497 175 133 111
0.462478 -0.304398 -0.494 175 133 111
0.469022 -0.30255 -0.491 172 129 110
0.0388914 -0.304103 -0.492 202 167 148
0.0449895 -0.301012 -0.487 201 164 146
0.0515886 -0.30163 -0.488 189 151 132
0.0535571 -0.302249 -0.489 190 149 129
0.0767743 -0.313374 -0.507 144 109 105
0.100286 -0.333771 -0.54 105 84 89
0.135654 -0.371475 -0.601 238 237 255
0.170287 -0.385073 -0.623 230 234 246
0.176503 -0.385691 -0.624 157 165 201
0.186011 -0.385691 -0.624 158 167 196
0.2125 -0.38631 -0.625 100 113 145
0.241457 -0.386928 -0.626 96 123 168
0.26369 -0.38631 -0.625 191 192 222
0.293197 -0.387546 -0.627 147 156 189
0.296307 -0.386928 -0.626 176 180 209
0.337924 -0.388164 -0.628 168 173 195
0.346297 -0.388164 -0.628 163 172 203
0.352278 -0.388164 -0.628 172 178 202
0.359455 -0.388164 -0.628 71 79 116
0.37381 -0.388164 -0.628 86 103 147
0.38936 -0.388164 -0.628 73 78 110
0.395906 -0.387546 -0.627 171 176 195
0.405357 -0.38631 -0.625 167 169 192
0.414881 -0.38631 -0.625 170 175 194
0.42542 -0.385073 -0.623 96 108 146
0.44512 -0.385691 -0.624 40 65 121
0.462207 -0.385073 -0.623 132 134 149
0.46814 -0.385073 -0.623 100 109 140
0.476867 -0.384455 -0.622 122 112 120
0.506486 -0.384455 -0.622 82 108 167
0.512769 -0.383837 -0.621 198 197 211
0.517848 -0.383219 -0.62 185 183 188
0.523033 -0.367767 -0.595 122 102 101
0.481886 -0.333771 -0.54 149 113 97
0.46899 -0.32141 -0.52 154 119 100
0.46128 -0.31152 -0.504 163 125 104
0.462461 -0.306575 -0.496 175 133 111
0.470867 -0.302867 -0.49 174 129 110
0.48314 -0.304721 -0.493 155 114 92
0.489859 -0.306575 -0.496 156 111 90
0.491793 -0.307193 -0.497 150 109 87
0.494723 -0.30843 -0.499 149 108 86
0.0355714 -0.30876 -0.498 203 167 141
0.0396667 -0.3038 -0.49 199 164 142
0.0477724 -0.30194 -0.487 198 157 137
0.0627 -0.3069 -0.495 172 130 114
0.0690476 -0.31 -0.5 154 110 99
0.180069 -0.38688 -0.624 176 187 217
0.191071 -0.3875 -0.625 217 222 244
0.236688 -0.38812 -0.626 191 193 214
0.340969 -0.38874 -0.627 174 179 208
0.380987 -0.38936 -0.628 134 147 189
0.38874 -0.38874 -0.627 78 84 120
0.39289 -0.38812 -0.626 171 174 193
0.396467 -0.38812 -0.626 164 170 186
0.427107 -0.38564 -0.622 56 81 137
0.438473 -0.38626 -0.623 49 80 137
0.44322 -0.38626 -0.623 39 65 126
0.456273 -0.38626 -0.623 114 113 119
0.461465 -0.38564 -0.622 120 122 137
0.466204 -0.38564 -0.622 119 126 154
0.472128 -0.38564 -0.622 129 130 148
0.4761 -0.38502 -0.621 106 97 100
0.50922 -0.38502 -0.621 91 114 156
0.513124 -0.3844 -0.62 194 195 216
0.517848 -0.3844 -0.62 155 152 159
0.52021 -0.3844 -0.62 200 199 207
0.465609 -0.31806 -0.513 157 118 101
0.481223 -0.30504 -0.492 159 118 96
0.485018 -0.30566 -0.493 158 118 93
0.509485 -0.31558 -0.509 139 98 76
0.0346924 -0.31033 -0.499 205 165 140
0.0362267 -0.307221 -0.494 204 167 141
0.0449895 -0.302868 -0.487 202 166 144
0.0617571 -0.307843 -0.495 174 131 115
0.0745476 -0.314062 -0.505 148 109 102
0.0921971 -0.328988 -0.529 111 88 94
0.0949248 -0.331475 -0.533 107 84 90
0.10367 -0.340182 -0.547 102 81 86
0.105094 -0.341426 -0.549 102 81 86
0.108162 -0.344535 -0.554 101 80 87
0.170013 -0.386825 -0.622 225 226 247
0.200274 -0.388069 -0.624 211 213 238
0.219291 -0.388069 -0.624 163 177 206
0.279167 -0.38869 -0.625 164 174 201
0.298214 -0.38869 -0.625 170 176 208
0.300595 -0.38869 -0.625 176 181 211
0.348134 -0.389934 -0.627 169 175 199
0.373214 -0.389934 -0.627 69 93 139
0.374409 -0.389934 -0.627 63 94 149
0.380966 -0.389312 -0.626 155 171 205
0.382158 -0.389312 -0.626 155 171 205
0.404709 -0.388069 -0.624 114 119 149
0.42186 -0.387447 -0.623 144 151 169
0.43303 -0.386825 -0.622 38 60 118
0.466637 -0.386203 -0.621 110 118 141
0.490294 -0.386203 -0.621 75 96 143
0.494229 -0.385581 -0.62 61 88 143
0.513124 -0.385581 -0.62 174 174 200
0.513475 -0.384959 -0.619 194 194 204
0.518191 -0.384959 -0.619 182 181 189
0.46224 -0.31344 -0.504 165 124 104
0.462351 -0.311574 -0.501 167 126 106
0.465291 -0.305977 -0.492 175 130 109
0.470867 -0.304733 -0.49 173 128 107
-0.28594 -0.3799 -0.609 245 246 240
0.0404343 -0.304419 -0.488 202 164 143
0.0525181 -0.304419 -0.488 187 149 128
0.07014 -0.312529 -0.501 153 110 101
0.122544 -0.359938 -0.577 181 168 178
0.126471 -0.364929 -0.585 236 234 255
0.228433 -0.388633 -0.623 195 199 226
0.269211 -0.389257 -0.624 186 192 208
0.282286 -0.389257 -0.624 179 187 208
0.290606 -0.389257 -0.624 157 162 184
0.308929 -0.389881 -0.625 84 111 166
0.31131 -0.389881 -0.625 80 110 164
0.322539 -0.390505 -0.626 160 160 198
0.323731 -0.390505 -0.626 127 127 165
0.334463 -0.390505 -0.626 177 180 197
0.349964 -0.390505 -0.626 176 178 203
0.406433 -0.388633 -0.623 137 143 169
0.420673 -0.388633 -0.623 152 151 157
0.423047 -0.388633 -0.623 169 172 187
0.44298 -0.387386 -0.621 42 68 129
0.475333 -0.386762 -0.62 153 155 167
0.496969 -0.386138 -0.619 72 102 166
0.507219 -0.386762 -0.62 170 184 221
0.520886 -0.385514 -0.618 202 202 210
0.484703 -0.338105 -0.542 149 113 101
0.4752 -0.329371 -0.528 154 116 103
0.463393 -0.310033 -0.497 172 130 108
-0.37062 -0.38106 -0.609 241 242 236
0.0328571 -0.312857 -0.5 206 164 140
0.0448971 -0.304097 -0.486 201 163 140
0.0458229 -0.304097 -0.486 199 161 138
0.0605686 -0.308477 -0.493 173 131 115
0.0770771 -0.318489 -0.509 139 104 100
0.08436 -0.32412 -0.518 119 93 94
0.110203 -0.349774 -0.559 101 82 86
0.11651 -0.356031 -0.569 103 86 92
0.132921 -0.374803 -0.599 135 149 178
0.15318 -0.388569 -0.621 175 188 220
0.194893 -0.389194 -0.622 217 218 238
0.233554 -0.390446 -0.624 202 195 226
0.237927 -0.38982 -0.623 132 150 174
0.256913 -0.38982 -0.623 194 199 221
0.284663 -0.390446 -0.624 179 187 208
0.288229 -0.390446 -0.624 180 185 205
0.289417 -0.390446 -0.624 178 183 203
0.304869 -0.390446 -0.624 118 129 161
0.307246 -0.390446 -0.624 77 98 145
0.317262 -0.391071 -0.625 137 150 185
0.327309 -0.391697 -0.626 128 143 176
0.3375 -0.391071 -0.625 169 174 196
0.347024 -0.391071 -0.625 172 174 195
0.351786 -0.391071 -0.625 171 176 198
0.357166 -0.390446 -0.624 170 173 190
0.388069 -0.390446 -0.624 165 172 190
0.401687 -0.38982 -0.623 111 120 151
0.402227 -0.389194 -0.622 100 109 140
0.409335 -0.389194 -0.622 127 137 162
0.417629 -0.389194 -0.622 114 105 106
0.424737 -0.389194 -0.622 88 101 133
0.43777 -0.389194 -0.622 21 53 114
0.450077 -0.388569 -0.621 171 176 196
0.476514 -0.387943 -0.62 175 175 187
0.484781 -0.387943 -0.62 117 126 157
0.487143 -0.387943 -0.62 81 96 129
0.492252 -0.387317 -0.619 141 158 204
0.493431 -0.387317 -0.619 110 127 173
0.508759 -0.387317 -0.619 183 190 219
0.518868 -0.386066 -0.617 200 200 210
0.471789 -0.326623 -0.522 156 118 105
0.463414 -0.309729 -0.495 173 131 109
0.463419 -0.309103 -0.494 174 132 110
0.466216 -0.307226 -0.491 180 135 112
0.467151 -0.307226 -0.491 177 132 109
0.0350714 -0.308161 -0.491 204 168 146
0.087 -0.327617 -0.522 114 90 90
0.118627 -0.360253 -0.574 99 84 91
0.121445 -0.362136 -0.577 162 154 167
0.1863 -0.389751 -0.621 189 196 225
0.194893 -0.390379 -0.622 218 219 240
0.221313 -0.391007 -0.623 195 202 221
0.23318 -0.391007 -0.623 201 196 226
0.247023 -0.390379 -0.622 114 133 175
0.27946 -0.391007 -0.623 183 192 207
0.285393 -0.391007 -0.623 178 184 206
0.29014 -0.391007 -0.623 176 183 201
0.291327 -0.391007 -0.623 169 178 207
0.299633 -0.391007 -0.623 171 180 211
0.342903 -0.391634 -0.624 149 157 180
0.348846 -0.391634 -0.624 165 173 194
0.357166 -0.391634 -0.624 166 171 190
0.37024 -0.391634 -0.624 80 106 165
0.395753 -0.391007 -0.623 135 133 138
0.40815 -0.390379 -0.622 115 126 148
0.457619 -0.389124 -0.62 109 108 113
0.464705 -0.389124 -0.62 173 172 188
0.474152 -0.389124 -0.62 158 159 164
0.487536 -0.388496 -0.619 158 169 191
0.493431 -0.388496 -0.619 124 138 177
0.502864 -0.388496 -0.619 103 131 178
0.517692 -0.387241 -0.617 192 195 212
0.523893 -0.386613 -0.616 198 202 211
0.485735 -0.34017 -0.542 150 114 102
0.472692 -0.328245 -0.523 156 118 105
0.467495 -0.322596 -0.514 154 117 101
0.466651 -0.321341 -0.512 160 121 104
0.463414 -0.310671 -0.495 173 131 109
0.475533 -0.307533 -0.49 164 122 100
0.0367162 -0.307208 -0.488 202 165 146
0.0458229 -0.305949 -0.486 196 158 135
0.0476743 -0.305949 -0.486 192 154 131
0.0525181 -0.307208 -0.488 187 146 124
0.0596295 -0.310355 -0.493 168 129 112
0.109138 -0.351904 -0.559 102 83 85
0.170648 -0.390305 -0.62 205 212 238
0.198129 -0.390934 -0.621 161 165 192
0.237545 -0.391564 -0.622 150 161 191
0.276642 -0.391564 -0.622 180 185 204
0.284935 -0.391564 -0.622 180 185 207
0.291327 -0.392193 -0.623 172 183 205
0.292513 -0.392193 -0.623 155 166 188
0.29726 -0.392193 -0.623 71 80 123
0.313189 -0.392823 -0.624 109 136 189
0.329829 -0.392823 -0.624 177 178 199
0.335233 -0.392193 -0.623 162 164 177
0.363713 -0.392193 -0.623 49 62 97
0.380327 -0.392193 -0.623 39 73 134
0.385073 -0.392193 -0.623 135 146 178
0.38982 -0.392193 -0.623 165 161 175
0.403946 -0.390934 -0.621 135 147 173
0.415774 -0.390934 -0.621 134 128 130
0.432819 -0.390305 -0.62 54 84 144
0.449352 -0.390305 -0.62 140 150 177
0.474567 -0.389675 -0.619 161 159 172
0.481641 -0.389675 -0.619 88 106 146
0.487536 -0.389675 -0.619 159 166 182
0.494989 -0.389046 -0.618 95 118 170
0.497949 -0.351274 -0.558 144 110 100
0.4727 -0.307837 -0.489 172 130 108
-0.320843 -0.383277 -0.607 243 244 238
0.0331333 -0.3094 -0.49 202 167 145
0.0534476 -0.308137 -0.488 185 144 124
0.0659257 -0.314451 -0.498 160 120 110
0.0772286 -0.322029 -0.51 133 100 95
0.107687 -0.351706 -0.557 100 81 83
0.114141 -0.358651 -0.568 99 80 84
0.12403 -0.368754 -0.584 243 242 255
0.182457 -0.391486 -0.62 162 173 205
0.183638 -0.391486 -0.62 152 163 195
0.215871 -0.392117 -0.621 198 202 229
0.232806 -0.392749 -0.622 190 195 225
0.237163 -0.392117 -0.621 164 175 207
0.263943 -0.391486 -0.62 187 192 211
0.279746 -0.392117 -0.621 182 187 206
0.28566 -0.392117 -0.621 181 186 205
0.31506 -0.39338 -0.623 94 125 182
0.316247 -0.39338 -0.623 82 107 163
0.331673 -0.39338 -0.623 174 170 187
0.338793 -0.39338 -0.623 134 135 153
0.33998 -0.39338 -0.623 110 123 157
0.369647 -0.39338 -0.623 42 63 126
0.370833 -0.39338 -0.623 41 62 125
0.373207 -0.39338 -0.623 39 63 123
0.37558 -0.39338 -0.623 33 61 124
0.376767 -0.39338 -0.623 38 68 130
0.390379 -0.392749 -0.622 172 168 182
0.408019 -0.391486 -0.62 166 171 190
0.42101 -0.391486 -0.62 142 144 165
0.428095 -0.391486 -0.62 116 142 191
0.429763 -0.390854 -0.619 52 80 130
0.436362 -0.391486 -0.62 42 76 137
0.438724 -0.391486 -0.62 78 104 153
0.44509 -0.390854 -0.619 91 105 142
0.459239 -0.390854 -0.619 174 176 188
0.462776 -0.390854 -0.619 174 176 191
0.47103 -0.390854 -0.619 172 174 187
0.491457 -0.390223 -0.618 119 131 169
0.50359 -0.389591 -0.617 129 148 188
0.515342 -0.389591 -0.617 100 108 127
0.519529 -0.388329 -0.615 190 187 206
0.464991 -0.320134 -0.507 164 125 108
0.46434 -0.31382 -0.497 174 131 114
0.46436 -0.311926 -0.494 175 132 113
0.477357 -0.308769 -0.489 162 121 101
0.485856 -0.310031 -0.491 159 118 96
0.492589 -0.311926 -0.494 153 115 92
0.030581 -0.312867 -0.494 202 165 138
0.0670086 -0.316033 -0.499 159 116 107
0.0713781 -0.318567 -0.503 148 110 101
0.0749905 -0.321733 -0.508 135 102 97
0.130421 -0.378733 -0.598 196 198 223
0.179805 -0.392033 -0.619 172 183 215
0.190724 -0.392667 -0.62 211 216 238
0.196629 -0.392667 -0.62 106 113 142
0.22379 -0.392667 -0.62 187 198 220
0.268667 -0.392667 -0.62 139 139 147
0.27177 -0.392033 -0.619 188 191 210
0.292757 -0.3933 -0.621 175 179 206
0.320478 -0.393933 -0.622 98 113 170
0.334695 -0.393933 -0.622 104 103 109
0.337065 -0.393933 -0.622 134 133 149
0.348912 -0.393933 -0.622 147 153 177
0.367869 -0.393933 -0.622 49 75 136
0.371423 -0.393933 -0.622 43 69 128
0.392117 -0.3933 -0.621 175 175 187
0.42033 -0.392033 -0.619 113 119 145
0.4738 -0.3914 -0.618 176 174 185
0.489487 -0.390767 -0.617 162 165 184
0.51568 -0.390133 -0.616 102 110 129
0.511133 -0.363533 -0.574 139 109 101
0.481617 -0.3382 -0.534 152 118 108
0.465909 -0.321733 -0.508 163 126 110
0.469022 -0.310967 -0.491 177 132 113
0.469933 -0.310333 -0.49 177 132 111
0.484867 -0.310333 -0.49 151 111 86
0.0365657 -0.308726 -0.486 202 165 139
0.05542 -0.310631 -0.489 178 135 119
0.117329 -0.363991 -0.573 98 78 87
0.146554 -0.392577 -0.618 186 191 220
0.178337 -0.392577 -0.618 157 170 205
0.199849 -0.393212 -0.619 205 207 222
0.211981 -0.393848 -0.62 199 200 218
0.22261 -0.393848 -0.62 196 196 220
0.234419 -0.393848 -0.62 172 183 215
0.236781 -0.393848 -0.62 147 159 197
0.262762 -0.393848 -0.62 185 190 209
0.27177 -0.393212 -0.619 168 172 184
0.2852 -0.393848 -0.62 178 184 198
0.289924 -0.393848 -0.62 176 182 198
0.31337 -0.395118 -0.622 56 90 154
0.34362 -0.394483 -0.621 133 141 164
0.356631 -0.394483 -0.621 112 112 120
0.375557 -0.394483 -0.621 77 107 167
0.382038 -0.393848 -0.62 72 95 137
0.390305 -0.393848 -0.62 174 178 190
0.392667 -0.393848 -0.62 175 179 190
0.39739 -0.393848 -0.62 164 167 182
0.413256 -0.393212 -0.619 169 167 178
0.44084 -0.392577 -0.618 146 166 199
0.452611 -0.392577 -0.618 128 139 159
0.463206 -0.392577 -0.618 173 175 190
0.48126 -0.391942 -0.617 131 142 172
0.502773 -0.391307 -0.616 111 133 172
0.506293 -0.391307 -0.616 191 194 209
0.508657 -0.362086 -0.57 142 109 100
0.46423 -0.31889 -0.502 163 122 104
0.464326 -0.316349 -0.498 168 127 109
0.482014 -0.310631 -0.489 163 118 89
-0.318633 -0.385471 -0.605 242 243 237
0.0328629 -0.309651 -0.486 204 166 143
0.0457286 -0.309014 -0.485 192 155 129
0.0495257 -0.309651 -0.486 185 147 124
0.0947905 -0.342783 -0.538 104 83 88
0.102329 -0.351066 -0.551 102 83 89
0.105375 -0.354251 -0.556 99 82 90
0.10846 -0.357437 -0.561 99 83 93
0.109919 -0.358711 -0.563 99 83 93
0.171274 -0.393754 -0.618 187 197 224
0.175983 -0.393754 -0.618 142 158 194
0.184223 -0.393754 -0.618 185 195 222
0.186577 -0.393754 -0.618 207 215 236
0.204565 -0.394391 -0.619 154 158 161
0.205744 -0.394391 -0.619 183 187 190
0.232862 -0.394391 -0.619 179 191 231
0.239936 -0.394391 -0.619 83 100 144
0.249369 -0.394391 -0.619 92 121 179
0.277666 -0.394391 -0.619 140 146 168
0.282382 -0.394391 -0.619 159 161 182
0.287098 -0.394391 -0.619 170 182 196
0.299371 -0.395029 -0.62 47 71 117
0.302914 -0.395029 -0.62 58 84 141
0.321146 -0.395666 -0.621 125 145 198
0.324171 -0.395029 -0.62 170 171 189
0.325352 -0.395029 -0.62 176 177 195
0.344248 -0.395029 -0.62 156 161 181
0.379064 -0.394391 -0.619 130 150 185
0.381422 -0.394391 -0.619 93 113 148
0.39739 -0.395029 -0.62 160 164 176
0.405003 -0.394391 -0.619 177 179 192
0.501957 -0.391843 -0.615 104 126 163
0.503129 -0.391843 -0.615 141 156 187
0.517514 -0.391206 -0.614 109 116 145
0.52248 -0.37464 -0.588 127 106 103
0.475592 -0.333863 -0.524 153 117 105
0.47212 -0.33004 -0.518 157 121 107
0.466876 -0.323669 -0.508 161 124 108
0.46512 -0.32112 -0.504 165 124 106
0.465287 -0.31666 -0.497 170 127 108
0.464357 -0.315386 -0.495 172 129 110
0.467166 -0.313474 -0.492 175 132 113
0.475494 -0.311563 -0.489 166 124 102
0.476381 -0.310926 -0.488 165 123 101
0.480099 -0.310926 -0.488 161 119 97
0.487667 -0.3122 -0.49 156 115 87
0.033719 -0.309938 -0.485 203 165 144
0.0584524 -0.313772 -0.491 169 126 109
0.07152 -0.32208 -0.504 139 104 98
0.103941 -0.354032 -0.554 99 82 88
0.12376 -0.37576 -0.588 148 149 177
0.167471 -0.394292 -0.617 221 221 249
0.174523 -0.394292 -0.617 149 158 197
0.194817 -0.394931 -0.618 181 188 214
0.195994 -0.394931 -0.618 201 208 234
0.215176 -0.39557 -0.619 200 202 217
0.224609 -0.39557 -0.619 192 196 208
0.226967 -0.39557 -0.619 182 195 211
0.242294 -0.39557 -0.619 48 84 146
0.250143 -0.394931 -0.618 54 87 158
0.265446 -0.394931 -0.618 184 187 202
0.278394 -0.394931 -0.618 154 152 173
0.288277 -0.39557 -0.619 166 178 192
0.314724 -0.39621 -0.62 39 72 139
0.317086 -0.39621 -0.62 39 67 130
0.331257 -0.39621 -0.62 170 173 190
0.357841 -0.39557 -0.619 127 131 158
0.382601 -0.39557 -0.619 86 104 144
0.389675 -0.39557 -0.619 174 180 196
0.393212 -0.39557 -0.619 156 159 174
0.394391 -0.39557 -0.619 162 166 169
0.423673 -0.394292 -0.617 168 175 193
0.4312 -0.393653 -0.616 103 131 181
0.437067 -0.393653 -0.616 83 110 157
0.448353 -0.394292 -0.617 136 138 163
0.485173 -0.393653 -0.616 171 175 187
0.489867 -0.393653 -0.616 146 151 189
0.509328 -0.392375 -0.614 190 192 205
0.514006 -0.392375 -0.614 188 196 209
0.52251 -0.391736 -0.613 142 153 199
0.4914 -0.34892 -0.546 147 115 104
0.4718 -0.313133 -0.49 171 129 107
0.486671 -0.312494 -0.489 159 115 86
0.0346429 -0.310862 -0.485 202 164 141
0.039181 -0.310221 -0.484 198 162 138
0.0504514 -0.311503 -0.486 183 143 118
0.0814 -0.332013 -0.518 116 92 92
0.088 -0.338423 -0.528 105 86 90
0.0908638 -0.341628 -0.533 103 84 88
0.111583 -0.362779 -0.566 98 83 90
0.142791 -0.395468 -0.617 223 220 229
0.19364 -0.396109 -0.618 174 183 216
0.21012 -0.396109 -0.618 153 152 170
0.213651 -0.396109 -0.618 196 198 213
0.223069 -0.396109 -0.618 199 203 215
0.231309 -0.396109 -0.618 57 75 123
0.252089 -0.395468 -0.617 59 83 143
0.254439 -0.395468 -0.617 157 171 200
0.26149 -0.395468 -0.617 185 190 210
0.295351 -0.39675 -0.619 96 101 121
0.323649 -0.39675 -0.619 173 169 196
0.331257 -0.39739 -0.62 171 174 191
0.348409 -0.39675 -0.619 180 177 198
0.367273 -0.39675 -0.619 92 115 165
0.380806 -0.396109 -0.618 145 154 185
0.418293 -0.394827 -0.616 133 138 168
0.419467 -0.394827 -0.616 165 167 190
0.457013 -0.394827 -0.616 163 164 182
0.461707 -0.394827 -0.616 168 168 192
0.505471 -0.394186 -0.615 153 161 172
0.516671 -0.392904 -0.613 114 128 155
0.520491 -0.392263 -0.612 120 134 181
0.526923 -0.380085 -0.593 119 103 103
0.465155 -0.322399 -0.503 163 125 106
0.487603 -0.313426 -0.489 158 117 85
0.0318714 -0.311786 -0.485 204 166 143
0.038259 -0.311143 -0.484 199 161 140
0.0419467 -0.311143 -0.484 195 157 134
0.0475762 -0.311786 -0.485 186 146 121
0.0910343 -0.343286 -0.534 101 84 90
0.0998657 -0.352929 -0.549 97 80 86
0.108653 -0.361286 -0.562 101 86 93
0.124602 -0.380571 -0.592 198 199 227
0.126579 -0.383143 -0.596 222 223 251
0.16016 -0.396 -0.616 181 186 215
0.17424 -0.396 -0.616 134 146 186
0.180107 -0.396 -0.616 141 162 205
0.18128 -0.396 -0.616 174 187 229
0.219182 -0.396643 -0.617 199 205 227
0.222708 -0.396643 -0.617 195 201 215
0.229759 -0.396643 -0.617 123 137 182
0.244257 -0.397286 -0.618 40 74 145
0.250913 -0.396643 -0.617 56 89 158
0.252089 -0.396643 -0.617 71 95 157
0.321949 -0.397286 -0.618 152 160 199
0.337797 -0.397929 -0.619 128 134 146
0.360794 -0.397286 -0.618 164 171 197
0.369631 -0.397929 -0.619 88 117 177
0.373169 -0.397929 -0.619 79 108 166
0.421129 -0.395357 -0.615 173 174 194
0.448071 -0.395357 -0.615 133 140 158
0.472267 -0.396 -0.616 88 106 152
0.498802 -0.394714 -0.614 131 150 192
0.52115 -0.375429 -0.584 133 105 101
0.509036 -0.365143 -0.568 138 109 103
0.474854 -0.334929 -0.521 154 118 104
0.466966 -0.325286 -0.506 161 123 102
0.466113 -0.323357 -0.503 165 127 106
0.475451 -0.313714 -0.488 170 126 101
0.47726 -0.313071 -0.487 168 124 97
0.482826 -0.313071 -0.487 163 119 90
0.492403 -0.315643 -0.491 158 119 88
0.03542 -0.31142 -0.483 204 164 139
0.03818 -0.31142 -0.483 199 161 140
0.0485 -0.31271 -0.485 184 143 121
0.1435 -0.396529 -0.615 208 207 221
0.149357 -0.396529 -0.615 223 226 245
0.163414 -0.396529 -0.615 113 124 154
0.193013 -0.397173 -0.616 198 205 233
0.202729 -0.397818 -0.617 187 192 214
0.221532 -0.397818 -0.617 190 196 218
0.282645 -0.397818 -0.617 182 184 199
0.331366 -0.398463 -0.618 173 177 189
0.344932 -0.397818 -0.617 170 175 194
0.350809 -0.397818 -0.617 166 171 190
0.353159 -0.397818 -0.617 133 139 165
0.367857 -0.398463 -0.618 82 106 152
0.370211 -0.398463 -0.618 88 117 175
0.38192 -0.397173 -0.616 153 161 180
0.4223 -0.396529 -0.615 177 178 196
0.434478 -0.395884 -0.614 99 123 171
0.441495 -0.395884 -0.614 169 174 196
0.475014 -0.396529 -0.615 96 113 165
0.51816 -0.394594 -0.612 105 119 158
0.522935 -0.37783 -0.586 132 107 103
0.481946 -0.342369 -0.531 148 116 105
0.46704 -0.32496 -0.504 165 127 106
0.465258 -0.321736 -0.499 168 130 109
0.468115 -0.317868 -0.493 170 128 104
0.474522 -0.314644 -0.488 169 127 103
0.486606 -0.314644 -0.488 155 116 87
0.0437905 -0.312987 -0.484 190 149 127
0.0513771 -0.31428 -0.486 176 135 113
0.0605686 -0.318807 -0.493 161 121 109
0.0682314 -0.32398 -0.501 144 106 97
0.0752857 -0.3298 -0.51 127 98 94
0.0778343 -0.332387 -0.514 120 94 93
0.0885 -0.34338 -0.531 103 86 92
0.119581 -0.377653 -0.584 146 146 174
0.121313 -0.379593 -0.587 188 188 212
0.149357 -0.3977 -0.615 221 222 240
0.165757 -0.3977 -0.615 169 179 215
0.166929 -0.3977 -0.615 167 176 215
0.169271 -0.3977 -0.615 152 162 197
0.170443 -0.3977 -0.615 161 171 206
0.178643 -0.3977 -0.615 104 126 176
0.179814 -0.3977 -0.615 133 155 205
0.193871 -0.3977 -0.615 202 207 226
0.22704 -0.398347 -0.616 188 189 217
0.231733 -0.398347 -0.616 72 94 133
0.232907 -0.398347 -0.616 72 94 133
0.238773 -0.398347 -0.616 39 77 142
0.288053 -0.398347 -0.616 175 180 200
0.312026 -0.398993 -0.617 114 145 200
0.320252 -0.398993 -0.617 85 102 145
0.33083 -0.398993 -0.617 174 177 192
0.368437 -0.398993 -0.617 89 118 174
0.388329 -0.3977 -0.615 108 117 150
0.408243 -0.3977 -0.615 168 174 196
0.414596 -0.397053 -0.614 166 172 198
0.420444 -0.397053 -0.614 176 175 193
0.427461 -0.397053 -0.614 94 122 159
0.446173 -0.397053 -0.614 145 147 159
0.499157 -0.396407 -0.613 98 120 167
0.50733 -0.396407 -0.613 180 192 204
0.509666 -0.396407 -0.613 186 192 208
0.53041 -0.394467 -0.61 72 95 147
0.482853 -0.344027 -0.532 147 117 106
0.466243 -0.3201 -0.495 169 128 108
0.468103 -0.31816 -0.492 171 129 105
0.488465 -0.315573 -0.488 152 115 89
-0.35604 -0.39044 -0.602 239 240 232
0.04002 -0.31326 -0.483 198 158 133
0.0543771 -0.316503 -0.488 171 129 113
0.0707 -0.327529 -0.505 134 103 98
0.0741686 -0.330123 -0.509 128 97 92
0.0845 -0.3405 -0.525 104 85 87
0.147945 -0.398223 -0.614 216 215 231
0.152623 -0.398223 -0.614 222 223 243
0.153792 -0.398223 -0.614 220 221 241
0.161979 -0.398223 -0.614 180 194 223
0.168996 -0.398223 -0.614 135 145 180
0.173674 -0.398223 -0.614 107 124 176
0.185671 -0.398871 -0.615 84 110 171
0.22352 -0.39952 -0.616 197 200 217
0.22704 -0.39952 -0.616 187 188 216
0.231733 -0.39952 -0.616 93 113 146
0.236043 -0.398871 -0.615 85 113 160
0.2419 -0.398871 -0.615 70 109 178
0.270014 -0.398871 -0.615 185 187 202
0.28336 -0.39952 -0.616 179 180 201
0.31504 -0.39952 -0.616 165 170 199
0.31856 -0.39952 -0.616 108 122 151
0.3608 -0.39952 -0.616 171 177 199
0.397173 -0.39952 -0.616 159 167 188
0.444279 -0.397574 -0.613 168 171 178
0.45436 -0.398223 -0.614 83 98 141
0.467225 -0.398223 -0.614 119 140 195
0.47814 -0.397574 -0.613 176 175 193
0.481643 -0.397574 -0.613 151 148 157
0.485146 -0.397574 -0.613 126 126 134
0.489816 -0.397574 -0.613 85 109 153
0.468 -0.32688 -0.504 163 126 108
0.467186 -0.321043 -0.495 169 128 108
0.46904 -0.319097 -0.492 168 127 107
0.478131 -0.315206 -0.486 168 123 100
0.479057 -0.315206 -0.486 166 123 104
0.0564667 -0.318733 -0.49 165 126 111
0.0719457 -0.329791 -0.507 130 99 94
0.0873238 -0.344752 -0.53 101 86 89
0.144201 -0.398742 -0.613 166 166 174
0.145369 -0.398742 -0.613 171 171 183
0.165488 -0.399392 -0.614 106 120 155
0.166657 -0.399392 -0.614 111 125 162
0.189186 -0.400043 -0.615 168 174 210
0.191529 -0.400043 -0.615 194 197 216
0.205251 -0.399392 -0.614 184 183 199
0.260219 -0.399392 -0.614 190 193 208
0.285243 -0.400043 -0.615 176 181 200
0.291796 -0.399392 -0.614 81 88 116
0.294135 -0.399392 -0.614 165 170 192
0.298129 -0.400043 -0.615 141 154 186
0.341471 -0.400043 -0.615 170 173 190
0.347893 -0.400693 -0.616 173 171 192
0.383019 -0.399392 -0.614 166 169 188
0.436106 -0.398742 -0.613 91 108 154
0.439609 -0.398742 -0.613 140 158 198
0.45362 -0.398742 -0.613 92 106 145
0.467225 -0.399392 -0.614 83 108 165
0.470733 -0.399392 -0.614 43 75 124
0.471903 -0.399392 -0.614 46 78 127
0.480475 -0.398742 -0.613 171 174 189
0.490183 -0.398091 -0.612 81 108 155
0.511166 -0.398091 -0.612 181 189 210
0.524051 -0.381179 -0.586 130 105 100
0.512812 -0.371422 -0.571 132 107 102
0.5058 -0.365568 -0.562 136 109 102
0.477673 -0.340199 -0.523 152 118 106
0.468 -0.32784 -0.504 164 125 108
0.46904 -0.320034 -0.492 168 127 107
0.471828 -0.319384 -0.491 169 126 107
0.4718 -0.318733 -0.49 170 128 106
0.472733 -0.318733 -0.49 174 129 108
0.477206 -0.316131 -0.486 169 124 101
0.496144 -0.319384 -0.491 147 109 90
-0.284 -0.391429 -0.6 240 243 234
0.0254571 -0.317057 -0.486 206 165 143
0.0335105 -0.314448 -0.482 203 161 139
0.0362648 -0.314448 -0.482 198 156 132
0.0513771 -0.317057 -0.486 174 135 118
0.083341 -0.341848 -0.524 104 88 91
0.116753 -0.379033 -0.581 193 188 208
0.140698 -0.39991 -0.613 190 191 212
0.16405 -0.39991 -0.613 128 142 177
0.188878 -0.400562 -0.614 190 195 227
0.191217 -0.400562 -0.614 205 206 224
0.212269 -0.400562 -0.614 166 168 180
0.214608 -0.400562 -0.614 194 196 217
0.236829 -0.400562 -0.614 80 106 155
0.276592 -0.400562 -0.614 183 185 198
0.28127 -0.400562 -0.614 178 181 196
0.303986 -0.401214 -0.615 97 127 177
0.322729 -0.401214 -0.615 65 77 115
0.342643 -0.401214 -0.615 170 171 192
0.361386 -0.401214 -0.615 163 169 185
0.369586 -0.401214 -0.615 115 136 181
0.390036 -0.400562 -0.614 68 80 118
0.400562 -0.400562 -0.614 118 136 176
0.427234 -0.399257 -0.612 111 135 181
0.450549 -0.399257 -0.612 174 175 193
0.472449 -0.334671 -0.513 160 123 107
0.468893 -0.330105 -0.506 161 122 105
0.467123 -0.326843 -0.501 166 127 110
0.469054 -0.321624 -0.493 171 128 111
0.479919 -0.316405 -0.485 151 113 92
0.483614 -0.316405 -0.485 158 115 96
-0.329714 -0.392571 -0.6 241 242 236
0.0219781 -0.321254 -0.491 211 165 142
0.0262743 -0.316674 -0.484 206 165 143
0.0353467 -0.315366 -0.482 201 156 133
0.113554 -0.376869 -0.576 94 83 97
0.118874 -0.383411 -0.586 220 223 238
0.166386 -0.401077 -0.613 122 137 168
0.181565 -0.401077 -0.613 113 145 196
0.187403 -0.401077 -0.613 122 145 189
0.235275 -0.401077 -0.613 129 145 181
0.239946 -0.401077 -0.613 111 146 204
0.241113 -0.401077 -0.613 110 146 206
0.243449 -0.401077 -0.613 85 119 165
0.246951 -0.401077 -0.613 154 176 215
0.259795 -0.401077 -0.613 184 192 205
0.288986 -0.401077 -0.613 85 100 131
0.290153 -0.401077 -0.613 129 144 175
0.300662 -0.401077 -0.613 74 100 149
0.311678 -0.401731 -0.614 108 126 166
0.318695 -0.401731 -0.614 166 172 198
0.346764 -0.401731 -0.614 150 155 193
0.415577 -0.400423 -0.612 180 183 200
0.432355 -0.399769 -0.611 97 124 171
0.469967 -0.401077 -0.613 61 87 144
0.471134 -0.401077 -0.613 83 109 166
0.498692 -0.399769 -0.611 90 121 185
0.510657 -0.399114 -0.61 173 182 199
0.519406 -0.397806 -0.608 71 95 155
0.524038 -0.397806 -0.608 67 87 150
0.49452 -0.35724 -0.546 143 114 106
0.491022 -0.353969 -0.541 148 111 102
0.483969 -0.347426 -0.531 159 117 105
0.47337 -0.336303 -0.514 164 125 108
0.473592 -0.319291 -0.488 172 127 106
0.477206 -0.317983 -0.486 172 127 106
-0.306346 -0.393058 -0.599 240 242 231
0.039019 -0.316284 -0.482 194 152 128
0.0543771 -0.320221 -0.488 167 125 109
0.0920571 -0.354343 -0.54 100 83 89
0.100593 -0.362873 -0.553 96 84 88
0.16728 -0.401589 -0.612 145 159 186
0.171943 -0.401589 -0.612 97 119 169
0.241886 -0.401589 -0.612 94 129 185
0.280812 -0.402245 -0.613 182 181 195
0.282686 -0.401589 -0.612 183 185 197
0.308835 -0.402245 -0.613 78 105 150
0.318176 -0.402245 -0.613 171 173 194
0.324543 -0.402901 -0.614 108 119 149
0.340361 -0.402245 -0.613 141 156 187
0.362546 -0.402245 -0.613 90 106 132
0.366646 -0.402901 -0.614 116 133 176
0.380606 -0.401589 -0.612 159 167 170
0.389931 -0.401589 -0.612 52 79 134
0.39991 -0.402245 -0.613 75 97 147
0.402245 -0.402245 -0.613 95 118 170
0.432355 -0.400932 -0.611 89 115 164
0.464537 -0.401589 -0.612 37 66 124
0.471531 -0.401589 -0.612 131 145 184
0.499038 -0.400276 -0.61 61 93 152
0.481327 -0.345812 -0.527 156 118 105
0.47337 -0.337282 -0.514 164 122 106
0.492102 -0.319565 -0.487 149 112 93
0.50592 -0.32547 -0.496 143 112 92
0.0218029 -0.386302 -0.587 199 163 141
0.0195238 -0.329048 -0.5 200 164 142
0.0297762 -0.316544 -0.481 194 152 128
0.0436095 -0.317202 -0.482 187 145 123
0.0628267 -0.326415 -0.496 148 108 100
0.0823429 -0.344842 -0.524 104 85 87
0.0922276 -0.35603 -0.541 103 84 90
0.117356 -0.384328 -0.584 218 219 240
0.177481 -0.402096 -0.611 90 120 174
0.179809 -0.402096 -0.611 121 151 205
0.202582 -0.403412 -0.613 198 201 220
0.24149 -0.402096 -0.611 92 125 178
0.250801 -0.402096 -0.611 188 190 213
0.255874 -0.402754 -0.612 86 99 133
0.263298 -0.403412 -0.613 190 189 205
0.266366 -0.402754 -0.612 165 167 182
0.267531 -0.402754 -0.612 130 132 147
0.342137 -0.402754 -0.612 123 136 178
0.358457 -0.402754 -0.612 172 173 193
0.36021 -0.403412 -0.613 154 155 175
0.363713 -0.403412 -0.613 81 105 143
0.368384 -0.403412 -0.613 120 142 189
0.398742 -0.403412 -0.613 61 90 146
0.446752 -0.401438 -0.61 177 179 200
0.483563 -0.402096 -0.611 158 166 187
0.487419 -0.401438 -0.61 74 104 156
0.493229 -0.401438 -0.61 37 76 145
0.50286 -0.40078 -0.609 77 100 141
0.5133 -0.40078 -0.609 87 101 140
0.47429 -0.338919 -0.515 162 120 106
0.468988 -0.331022 -0.503 167 129 110
0.468077 -0.329706 -0.501 168 127 109
0.4718 -0.322467 -0.49 172 129 110
0.473592 -0.32115 -0.488 173 128 107
-0.32292 -0.39468 -0.598 239 241 230
-0.318364 -0.39468 -0.598 239 241 230
-0.285991 -0.39402 -0.597 240 243 232
0.020579 -0.38544 -0.584 200 163 137
0.0270276 -0.31746 -0.481 205 165 140
0.0343571 -0.31746 -0.481 200 155 132
0.0408552 -0.31812 -0.482 191 149 125
0.0417733 -0.31812 -0.482 190 148 126
0.0494238 -0.3201 -0.485 173 135 116
0.0564667 -0.3234 -0.49 161 119 105
0.0672771 -0.33066 -0.501 132 101 96
0.0746057 -0.33792 -0.512 114 92 94
0.0838181 -0.34782 -0.527 103 84 86
0.0881476 -0.3531 -0.535 102 83 85
0.154205 -0.40326 -0.611 219 221 236
0.160924 -0.4026 -0.61 140 150 177
0.210411 -0.40392 -0.612 187 194 204
0.227525 -0.40326 -0.611 195 192 209
0.233344 -0.40326 -0.611 120 135 168
0.244581 -0.4026 -0.61 113 131 169
0.255874 -0.40392 -0.612 86 99 133
0.292219 -0.4026 -0.61 169 174 196
0.310663 -0.40392 -0.612 101 121 171
0.33102 -0.40458 -0.613 122 140 186
0.35496 -0.40392 -0.612 170 172 195
0.357291 -0.40392 -0.612 170 173 190
0.37128 -0.40392 -0.612 80 100 153
0.392786 -0.40326 -0.611 42 71 127
0.428162 -0.4026 -0.61 73 97 159
0.439781 -0.4026 -0.61 162 176 215
0.44486 -0.40194 -0.609 182 180 201
0.456048 -0.4026 -0.61 104 133 191
0.50054 -0.40194 -0.609 52 85 139
0.522314 -0.39996 -0.606 58 84 143
0.498867 -0.3234 -0.49 145 113 90
-0.362787 -0.395819 -0.598 236 239 232
0.02346 -0.3197 -0.483 207 165 143
0.0408552 -0.319038 -0.482 191 149 125
0.0564667 -0.324333 -0.49 160 118 104
0.0596295 -0.326319 -0.493 155 112 103
0.0617571 -0.327643 -0.495 151 112 105
0.0854657 -0.351471 -0.531 104 84 85
0.117959 -0.388538 -0.587 191 193 218
0.133038 -0.403762 -0.61 222 225 244
0.172543 -0.403762 -0.61 118 150 209
0.21705 -0.404424 -0.611 194 197 216
0.218214 -0.404424 -0.611 172 176 213
0.22599 -0.403762 -0.61 185 191 215
0.254292 -0.404424 -0.611 166 173 201
0.264767 -0.404424 -0.611 151 148 169
0.279896 -0.404424 -0.611 155 161 193
0.302009 -0.404424 -0.611 115 138 182
0.328149 -0.405086 -0.612 59 81 130
0.332811 -0.405086 -0.612 124 147 197
0.336309 -0.405086 -0.612 62 90 137
0.340971 -0.405086 -0.612 77 98 155
0.359035 -0.404424 -0.611 134 135 156
0.364286 -0.405086 -0.612 70 98 138
0.382848 -0.403762 -0.61 171 173 188
0.5202 -0.382581 -0.578 131 110 105
0.489437 -0.355443 -0.537 149 115 105
0.478071 -0.321024 -0.485 168 123 102
0.478008 -0.320362 -0.484 171 126 105
0.503799 -0.326319 -0.493 144 111 92
-0.284377 -0.39563 -0.596 238 241 230
0.0316086 -0.319292 -0.481 201 157 132
0.0485 -0.321948 -0.485 171 133 112
0.0629533 -0.329913 -0.497 146 107 100
0.16066 -0.40426 -0.609 154 160 186
0.169057 -0.404924 -0.61 137 150 182
0.170219 -0.404924 -0.61 131 154 196
0.186486 -0.404924 -0.61 189 195 209
0.205412 -0.405588 -0.611 133 136 151
0.219019 -0.404924 -0.61 84 87 128
0.2291 -0.40426 -0.609 194 195 216
0.23954 -0.40426 -0.609 142 169 216
0.24302 -0.40426 -0.609 93 120 163
0.2465 -0.40426 -0.609 176 183 209
0.265495 -0.404924 -0.61 169 170 188
0.275952 -0.404924 -0.61 140 153 187
0.314295 -0.404924 -0.61 172 172 196
0.315457 -0.404924 -0.61 165 165 189
0.321793 -0.405588 -0.611 132 138 154
0.326449 -0.405588 -0.611 64 87 137
0.328776 -0.405588 -0.611 51 82 137
0.348561 -0.405588 -0.611 165 173 186
0.360199 -0.405588 -0.611 87 106 138
0.381686 -0.404924 -0.61 174 176 197
0.42166 -0.40426 -0.609 71 96 150
0.42282 -0.40426 -0.609 81 106 160
0.42978 -0.40426 -0.609 46 83 153
0.434865 -0.403596 -0.608 78 113 171
0.445288 -0.403596 -0.608 156 164 183
0.47618 -0.40426 -0.609 74 92 116
0.527214 -0.401605 -0.605 62 87 151
0.504483 -0.369742 -0.557 137 112 105
0.471714 -0.337215 -0.508 160 121 104
0.478008 -0.321284 -0.484 172 127 106
0.48254 -0.32062 -0.483 170 125 104
0.4853 -0.32062 -0.483 167 120 102
0.492943 -0.322611 -0.486 142 110 87
0.494885 -0.323275 -0.487 144 114 88
-0.304811 -0.396766 -0.596 240 241 233
-0.302541 -0.396766 -0.596 239 240 232
0.0215752 -0.320874 -0.482 205 164 142
0.0389381 -0.320209 -0.481 194 153 125
0.04462 -0.32154 -0.483 180 140 114
0.0534476 -0.324869 -0.488 160 122 109
0.0544886 -0.325534 -0.489 159 121 108
0.0586905 -0.328197 -0.493 154 112 100
0.0608143 -0.329529 -0.495 148 108 100
0.0723714 -0.339514 -0.51 114 93 92
0.0736305 -0.340846 -0.512 113 89 89
0.109497 -0.380789 -0.572 91 81 92
0.1363 -0.40542 -0.609 222 224 237
0.160396 -0.404754 -0.608 180 184 209
0.18618 -0.40542 -0.609 203 204 222
0.22562 -0.40542 -0.609 187 192 211
0.22678 -0.40542 -0.609 187 192 211
0.22794 -0.40542 -0.609 192 197 219
0.23954 -0.40542 -0.609 146 170 216
0.2523 -0.40542 -0.609 189 190 208
0.259686 -0.406086 -0.61 99 108 137
0.27434 -0.40542 -0.609 154 168 203
0.27666 -0.40542 -0.609 123 142 185
0.336371 -0.406086 -0.61 45 80 136
0.352638 -0.406086 -0.61 169 171 194
0.354962 -0.406086 -0.61 171 174 191
0.360771 -0.406086 -0.61 84 104 137
0.401438 -0.406086 -0.61 36 67 131
0.40542 -0.40542 -0.609 140 166 217
0.430232 -0.404754 -0.608 49 86 154
0.470766 -0.404754 -0.608 69 100 154
0.473082 -0.404754 -0.608 84 112 149
0.500052 -0.404089 -0.607 66 107 163
0.488633 -0.356157 -0.535 146 114 103
0.476224 -0.322871 -0.485 167 122 101
0.48346 -0.32154 -0.483 166 119 101
0.48907 -0.322206 -0.484 161 120 100
0.506703 -0.328863 -0.494 145 107 88
-0.358168 -0.397901 -0.596 235 238 231
-0.281633 -0.397233 -0.595 239 240 232
0.0233629 -0.321125 -0.481 205 163 138
0.0361143 -0.320457 -0.48 194 152 128
0.0505552 -0.32513 -0.487 166 127 110
0.0544886 -0.326466 -0.489 160 120 108
0.0653686 -0.334477 -0.501 135 100 96
0.07126 -0.339818 -0.509 115 94 93
0.0898333 -0.359847 -0.539 98 79 81
0.097081 -0.367858 -0.551 100 81 85
0.109689 -0.382546 -0.573 87 74 81
0.13398 -0.40658 -0.609 220 226 242
0.151131 -0.405912 -0.608 215 217 232
0.165029 -0.405912 -0.608 182 189 207
0.17806 -0.40658 -0.609 119 146 189
0.19314 -0.40658 -0.609 92 108 141
0.21402 -0.40658 -0.609 181 185 214
0.229882 -0.405912 -0.608 169 176 204
0.25694 -0.40658 -0.609 186 183 210
0.26854 -0.40658 -0.609 165 179 216
0.27318 -0.40658 -0.609 152 174 215
0.286629 -0.405912 -0.608 172 180 193
0.291261 -0.405912 -0.608 176 174 198
0.292419 -0.405912 -0.608 161 159 183
0.31726 -0.40658 -0.609 169 168 186
0.321267 -0.407248 -0.61 141 145 157
0.33814 -0.40658 -0.609 31 58 125
0.34626 -0.40658 -0.609 152 171 204
0.36714 -0.40658 -0.609 62 97 153
0.36946 -0.40658 -0.609 77 108 172
0.372328 -0.405912 -0.608 76 95 154
0.3799 -0.40658 -0.609 165 171 195
0.43993 -0.405245 -0.607 102 118 144
0.496584 -0.405245 -0.607 42 86 151
0.500383 -0.404577 -0.606 72 105 150
0.481581 -0.349832 -0.524 156 120 108
0.469986 -0.334477 -0.501 161 124 105
0.4718 -0.327133 -0.49 170 129 109
0.474522 -0.325798 -0.488 171 128 109
0.478008 -0.323128 -0.484 171 126 107
0.479851 -0.323128 -0.484 171 126 105
-0.3145 -0.398367 -0.595 239 241 228
-0.3009 -0.398367 -0.595 239 241 230
0.0151457 -0.39435 -0.589 199 162 136
0.0242286 -0.321371 -0.48 203 161 136
0.04462 -0.32338 -0.483 177 136 114
0.101685 -0.374264 -0.559 102 83 87
0.136076 -0.40707 -0.608 214 217 234
0.144183 -0.40707 -0.608 173 176 193
0.15782 -0.406401 -0.607 197 200 219
0.177768 -0.40707 -0.608 118 142 186
0.180084 -0.40707 -0.608 143 154 199
0.185874 -0.40707 -0.608 200 201 221
0.2059 -0.40774 -0.609 101 117 153
0.21251 -0.40707 -0.608 125 146 191
0.233356 -0.40707 -0.608 116 133 161
0.250728 -0.40707 -0.608 192 194 209
0.251886 -0.40707 -0.608 192 194 209
0.26115 -0.40707 -0.608 73 92 132
0.264625 -0.40707 -0.608 109 130 173
0.26738 -0.40774 -0.609 140 161 204
0.281996 -0.40707 -0.608 158 166 189
0.31146 -0.40774 -0.609 92 114 161
0.3161 -0.40774 -0.609 172 169 188
0.34278 -0.40774 -0.609 88 119 173
0.3451 -0.40774 -0.609 150 167 197
0.35554 -0.40774 -0.609 169 172 191
0.393683 -0.406401 -0.607 32 63 128
0.400122 -0.40707 -0.608 35 65 127
0.40987 -0.406401 -0.607 56 85 141
0.417274 -0.405731 -0.606 100 109 140
0.43415 -0.406401 -0.607 41 81 142
0.43993 -0.406401 -0.607 138 154 180
0.441087 -0.406401 -0.607 165 172 188
0.443399 -0.406401 -0.607 153 160 176
0.450336 -0.406401 -0.607 124 141 171
0.471526 -0.405731 -0.606 108 114 126
0.473834 -0.405731 -0.606 163 172 181
0.476929 -0.406401 -0.607 165 174 189
0.478085 -0.406401 -0.607 164 173 188
0.499229 -0.405731 -0.606 62 104 154
0.496729 -0.36489 -0.545 135 110 106
0.47893 -0.32405 -0.484 169 127 105
0.4807 -0.32338 -0.483 167 125 103
-0.343967 -0.3995 -0.595 237 238 230
0.0196571 -0.322286 -0.48 208 166 142
0.0305648 -0.321614 -0.479 199 157 132
0.0514829 -0.326986 -0.487 163 121 107
0.0714 -0.342429 -0.51 115 91 91
0.128915 -0.407557 -0.607 217 223 245
0.163601 -0.407557 -0.607 191 192 210
0.183558 -0.408229 -0.608 197 202 232
0.213669 -0.408229 -0.608 73 99 150
0.224091 -0.408229 -0.608 197 194 215
0.238753 -0.407557 -0.607 128 151 192
0.269257 -0.408229 -0.608 90 115 172
0.276908 -0.407557 -0.607 58 88 138
0.30979 -0.408229 -0.608 83 106 158
0.320213 -0.408229 -0.608 172 170 191
0.364221 -0.408229 -0.608 44 83 138
0.369403 -0.407557 -0.607 60 94 157
0.404754 -0.408229 -0.608 53 87 148
0.433434 -0.406886 -0.606 55 93 155
0.44844 -0.406886 -0.606 159 165 181
0.47268 -0.406886 -0.606 158 165 175
0.477297 -0.406886 -0.606 162 169 188
0.48849 -0.407557 -0.607 70 102 161
0.508267 -0.376 -0.56 128 107 104
0.485213 -0.323629 -0.482 160 119 97
0.4899 -0.3243 -0.483 152 111 91
0.499619 -0.327657 -0.488 149 111 90
-0.334337 -0.39996 -0.594 237 238 230
0.0152743 -0.32724 -0.486 201 164 138
0.0196571 -0.3232 -0.48 206 166 140
0.0323895 -0.322527 -0.479 195 153 128
0.0788943 -0.350807 -0.521 105 83 85
0.0857876 -0.358887 -0.533 102 82 84
0.0944648 -0.368987 -0.548 100 81 87
0.099021 -0.374373 -0.556 101 82 86
0.139321 -0.408713 -0.607 168 166 179
0.140477 -0.408713 -0.607 172 170 181
0.141633 -0.408713 -0.607 181 184 203
0.154097 -0.40804 -0.606 166 176 201
0.217942 -0.408713 -0.607 171 177 199
0.223723 -0.408713 -0.607 194 193 211
0.226817 -0.40804 -0.606 190 194 219
0.233743 -0.40804 -0.606 118 140 187
0.267658 -0.408713 -0.607 74 103 163
0.271127 -0.408713 -0.607 62 91 151
0.313906 -0.408713 -0.607 167 173 197
0.319055 -0.409387 -0.608 168 170 193
0.356685 -0.408713 -0.607 106 119 151
0.365934 -0.408713 -0.607 36 77 143
0.368794 -0.40804 -0.606 37 77 139
0.376874 -0.40804 -0.606 111 123 147
0.407557 -0.408713 -0.607 118 144 195
0.40804 -0.40804 -0.606 121 139 177
0.429971 -0.40804 -0.606 39 82 151
0.477297 -0.40804 -0.606 165 173 192
0.486531 -0.40804 -0.606 63 94 149
0.517431 -0.40602 -0.603 84 107 151
0.525747 -0.405347 -0.602 133 146 180
0.472749 -0.340707 -0.506 159 123 107
0.471871 -0.331953 -0.493 168 131 112
0.472733 -0.329933 -0.49 165 127 108
0.473667 -0.329933 -0.49 165 127 108
0.4807 -0.32522 -0.483 165 124 102
