ply
format ascii 1.0
comment Created by Open3D
element vertex 1289
property double x
property double y
property double z
property uchar red
property uchar green
property uchar blue
end_header
0.4719 -0.302186 -0.495 169 122 102
0.50958 -0.313174 -0.513 153 111 87
0.0675505 -0.303741 -0.496 152 112 104
0.07774 -0.310477 -0.507 133 100 95
0.0918486 -0.322725 -0.527 109 89 91
0.0947467 -0.325787 -0.532 108 87 92
0.147024 -0.382738 -0.625 235 230 250
0.163167 -0.381513 -0.623 152 153 181
0.164617 -0.382126 -0.624 188 192 219
0.182446 -0.382126 -0.624 180 187 215
0.217262 -0.382738 -0.625 197 201 228
0.222024 -0.382738 -0.625 174 177 208
0.225956 -0.38335 -0.626 174 180 206
0.243842 -0.38335 -0.626 125 148 192
0.264112 -0.38335 -0.626 185 191 207
0.281998 -0.38335 -0.626 140 153 185
0.304653 -0.38335 -0.626 95 112 155
0.325443 -0.383963 -0.627 176 176 202
0.351717 -0.383963 -0.627 166 171 200
0.367829 -0.384575 -0.628 158 160 185
0.42848 -0.382126 -0.624 133 143 170
0.448686 -0.382126 -0.624 82 93 121
0.474497 -0.380901 -0.622 167 169 184
0.475682 -0.380901 -0.622 168 170 185
0.494638 -0.380901 -0.622 52 78 137
0.523414 -0.380289 -0.621 192 195 204
0.528476 -0.379676 -0.62 171 175 187
0.535321 -0.377839 -0.617 185 183 186
0.463333 -0.30619 -0.5 173 132 110
0.470014 -0.303129 -0.495 169 124 101
0.470957 -0.303129 -0.495 171 126 105
0.480386 -0.303129 -0.495 162 120 98
0.492889 -0.306803 -0.501 154 113 91
0.500699 -0.309865 -0.506 149 108 86
0.036641 -0.299157 -0.487 202 167 147
0.0580952 -0.299771 -0.488 177 136 116
0.0632571 -0.302229 -0.492 161 122 105
0.16198 -0.3827 -0.623 161 162 190
0.17056 -0.383314 -0.624 224 223 239
0.273214 -0.383929 -0.625 168 179 211
0.278421 -0.384543 -0.626 86 117 181
0.293922 -0.384543 -0.626 173 179 205
0.302976 -0.383929 -0.625 105 115 150
0.307038 -0.384543 -0.626 112 133 176
0.330886 -0.384543 -0.626 169 175 199
0.332078 -0.384543 -0.626 168 174 198
0.349964 -0.384543 -0.626 170 174 201
0.365436 -0.385771 -0.628 168 172 197
0.399405 -0.383929 -0.625 167 174 192
0.447967 -0.3827 -0.623 121 132 164
0.461465 -0.382086 -0.622 145 144 158
0.466204 -0.382086 -0.622 95 110 141
0.468573 -0.382086 -0.622 105 120 153
0.470943 -0.382086 -0.622 131 140 169
0.474917 -0.381471 -0.621 144 142 156
0.482014 -0.381471 -0.621 162 160 171
0.489111 -0.381471 -0.621 49 76 131
0.491477 -0.381471 -0.621 39 69 131
0.50094 -0.381471 -0.621 45 69 129
0.514779 -0.382086 -0.622 183 184 202
0.517149 -0.382086 -0.622 134 132 137
0.467186 -0.304071 -0.495 179 135 110
0.468129 -0.304071 -0.495 175 131 106
0.469071 -0.304071 -0.495 168 123 100
0.4785 -0.304071 -0.495 159 117 95
0.480386 -0.304071 -0.495 162 120 98
0.509562 -0.314514 -0.512 147 106 86
0.0323314 -0.303166 -0.492 210 168 144
0.0686333 -0.306247 -0.497 151 111 101
0.0840343 -0.317954 -0.516 118 92 91
0.0920229 -0.325349 -0.528 107 85 88
0.0949248 -0.32843 -0.533 108 86 89
0.0978648 -0.33151 -0.538 107 85 88
0.147977 -0.384503 -0.624 169 170 188
0.175937 -0.38327 -0.622 161 172 202
0.197897 -0.384503 -0.624 204 206 231
0.215726 -0.384503 -0.624 180 189 218
0.244643 -0.385119 -0.625 108 132 176
0.251383 -0.384503 -0.624 112 137 191
0.263269 -0.384503 -0.624 179 181 202
0.28869 -0.385119 -0.625 122 131 164
0.302976 -0.385119 -0.625 117 126 155
0.304167 -0.385119 -0.625 97 113 147
0.314192 -0.385735 -0.626 93 115 162
0.335119 -0.385119 -0.625 172 177 197
0.3875 -0.385119 -0.625 77 83 117
0.391697 -0.385735 -0.626 162 163 184
0.407086 -0.384503 -0.624 170 172 195
0.415259 -0.38327 -0.622 167 173 187
0.46028 -0.38327 -0.622 138 137 151
0.461465 -0.38327 -0.622 120 119 133
0.467389 -0.38327 -0.622 97 110 145
0.518683 -0.382654 -0.621 150 149 155
0.535321 -0.38019 -0.617 199 196 203
0.471696 -0.322268 -0.523 159 121 108
0.48419 -0.30563 -0.496 152 111 91
0.495785 -0.309328 -0.502 148 105 86
0.0392619 -0.299776 -0.485 206 168 145
0.0484 -0.299158 -0.484 196 154 132
0.0621933 -0.303485 -0.491 165 127 108
0.0686333 -0.307193 -0.497 152 112 102
0.14774 -0.385073 -0.623 158 160 183
0.154611 -0.384455 -0.622 215 218 237
0.178307 -0.384455 -0.622 169 180 212
0.182153 -0.385073 -0.623 158 168 204
0.191647 -0.385073 -0.623 213 216 233
0.20114 -0.385073 -0.623 109 118 151
0.222857 -0.385691 -0.624 102 115 168
0.244251 -0.385691 -0.624 98 122 166
0.24544 -0.385691 -0.624 102 126 172
0.2581 -0.385073 -0.623 189 191 212
0.283474 -0.385691 -0.624 170 182 208
0.292262 -0.38631 -0.625 104 110 142
0.324405 -0.38631 -0.625 117 126 157
0.332738 -0.38631 -0.625 174 176 189
0.33631 -0.38631 -0.625 166 171 193
0.33869 -0.38631 -0.625 171 175 204
0.344643 -0.38631 -0.625 168 174 196
0.349405 -0.38631 -0.625 171 175 200
0.351786 -0.38631 -0.625 174 176 199
0.381548 -0.38631 -0.625 165 176 198
0.38631 -0.38631 -0.625 50 59 92
0.40762 -0.385073 -0.623 166 170 195
0.421183 -0.384455 -0.622 162 167 187
0.425922 -0.384455 -0.622 33 64 118
0.445346 -0.383837 -0.621 86 108 168
0.460723 -0.383837 -0.621 123 123 135
0.477695 -0.383219 -0.62 173 168 172
0.49541 -0.383219 -0.62 29 65 125
0.500133 -0.383219 -0.62 57 89 148
0.51937 -0.382601 -0.619 190 190 200
0.530303 -0.381983 -0.618 195 192 203
0.534453 -0.380747 -0.616 197 194 201
0.481254 -0.331917 -0.537 154 118 106
0.49381 -0.309048 -0.5 148 103 84
0.496741 -0.310284 -0.502 146 101 80
0.0401029 -0.30008 -0.484 201 158 139
0.0541543 -0.30132 -0.486 182 140 118
0.05508 -0.30132 -0.486 181 139 117
0.0653962 -0.30628 -0.494 154 114 106
0.0732943 -0.31186 -0.503 139 104 100
0.0817505 -0.31868 -0.514 118 94 94
0.147503 -0.38564 -0.622 159 163 190
0.16974 -0.38502 -0.621 224 222 243
0.170923 -0.38502 -0.621 184 194 219
0.179491 -0.38564 -0.622 180 191 223
0.198767 -0.38626 -0.623 204 209 228
0.199953 -0.38626 -0.623 191 196 215
0.209447 -0.38626 -0.623 158 165 191
0.216567 -0.38626 -0.623 163 173 200
0.224873 -0.38626 -0.623 188 188 212
0.227611 -0.38688 -0.624 199 196 215
0.24742 -0.38626 -0.623 108 129 182
0.253353 -0.38626 -0.623 191 191 215
0.2581 -0.38626 -0.623 192 192 216
0.2759 -0.38626 -0.623 63 85 126
0.30794 -0.38626 -0.623 114 132 180
0.326263 -0.38688 -0.624 110 117 146
0.347024 -0.3875 -0.625 169 176 195
0.397577 -0.38688 -0.624 169 170 190
0.429476 -0.38564 -0.622 41 75 138
0.430661 -0.38564 -0.622 41 71 135
0.438249 -0.38502 -0.621 28 61 128
0.449352 -0.3844 -0.62 162 163 181
0.457619 -0.3844 -0.62 142 142 144
0.472971 -0.3844 -0.62 120 119 124
0.517848 -0.3844 -0.62 178 178 190
0.52324 -0.38316 -0.618 193 191 204
0.530303 -0.38316 -0.618 199 193 205
0.483047 -0.33418 -0.539 154 118 106
0.470066 -0.32178 -0.519 160 123 107
0.467495 -0.31868 -0.514 160 123 105
0.465274 -0.30876 -0.498 173 132 110
0.490886 -0.30876 -0.498 156 111 92
0.0320029 -0.302868 -0.487 206 168 147
0.0364152 -0.301002 -0.484 207 166 144
0.0428686 -0.301002 -0.484 199 156 137
0.0447124 -0.301002 -0.484 196 154 132
0.0493219 -0.301002 -0.484 190 147 128
0.0721924 -0.312196 -0.502 137 102 96
0.111189 -0.350754 -0.564 105 86 90
0.146318 -0.386825 -0.622 149 153 180
0.171829 -0.385581 -0.62 162 173 203
0.175371 -0.385581 -0.62 165 180 213
0.217753 -0.387447 -0.623 160 169 208
0.227247 -0.387447 -0.623 200 197 218
0.239113 -0.387447 -0.623 98 126 163
0.270718 -0.386825 -0.622 187 186 218
0.30794 -0.387447 -0.623 97 114 166
0.335771 -0.388069 -0.624 174 179 198
0.33696 -0.388069 -0.624 170 175 194
0.341714 -0.388069 -0.624 166 170 195
0.34528 -0.388069 -0.624 167 176 193
0.352411 -0.388069 -0.624 174 175 193
0.357166 -0.388069 -0.624 154 162 185
0.379749 -0.388069 -0.624 118 141 191
0.38982 -0.387447 -0.623 131 130 138
0.39694 -0.387447 -0.623 165 164 182
0.419323 -0.386203 -0.621 158 156 161
0.422871 -0.386203 -0.621 104 124 161
0.434215 -0.386825 -0.622 30 58 123
0.438724 -0.385581 -0.62 38 72 133
0.44509 -0.384959 -0.619 133 151 187
0.472971 -0.385581 -0.62 123 121 124
0.48282 -0.384959 -0.619 155 161 185
0.483999 -0.384959 -0.619 114 120 144
0.492252 -0.384959 -0.619 124 146 196
0.49461 -0.384959 -0.619 62 87 141
0.501685 -0.384959 -0.619 61 97 149
0.505222 -0.384959 -0.619 134 159 200
0.509938 -0.384959 -0.619 126 133 159
0.520886 -0.384337 -0.618 193 192 206
0.471877 -0.324012 -0.521 161 124 108
0.468405 -0.320281 -0.515 158 121 103
0.471888 -0.307221 -0.494 173 132 112
0.472829 -0.307221 -0.494 174 133 113
0.4899 -0.309087 -0.497 160 112 92
0.491834 -0.309709 -0.498 157 109 89
0.033719 -0.302548 -0.485 208 167 145
0.0758086 -0.316271 -0.507 130 97 90
0.101586 -0.341224 -0.547 103 83 85
0.142305 -0.386762 -0.62 217 226 255
0.146083 -0.387386 -0.621 133 140 169
0.164743 -0.386762 -0.62 221 223 248
0.169467 -0.386762 -0.62 219 217 239
0.1863 -0.387386 -0.621 204 209 238
0.202002 -0.38801 -0.622 118 124 158
0.220958 -0.38801 -0.622 163 178 211
0.235175 -0.38801 -0.622 182 186 213
0.239914 -0.38801 -0.622 108 131 172
0.258454 -0.387386 -0.621 147 152 184
0.268349 -0.38801 -0.622 180 187 197
0.270718 -0.38801 -0.622 185 187 208
0.28849 -0.38801 -0.622 173 180 198
0.36192 -0.389257 -0.624 63 72 101
0.363109 -0.389257 -0.624 90 99 128
0.364297 -0.389257 -0.624 86 95 124
0.395118 -0.38801 -0.622 165 162 171
0.396303 -0.38801 -0.622 143 140 157
0.438724 -0.386762 -0.62 56 86 146
0.462776 -0.386138 -0.619 175 171 185
0.465134 -0.386138 -0.619 166 164 178
0.46985 -0.386138 -0.619 173 172 186
0.496166 -0.385514 -0.618 65 101 153
0.499327 -0.386138 -0.619 69 109 160
0.509938 -0.386138 -0.619 154 160 184
0.519709 -0.385514 -0.618 192 184 195
0.527413 -0.384267 -0.616 192 195 204
0.51338 -0.361186 -0.579 133 109 107
0.478009 -0.330619 -0.53 157 120 101
0.03818 -0.30222 -0.483 202 160 136
0.0873333 -0.327874 -0.524 109 88 87
0.109919 -0.352277 -0.563 100 84 87
0.141124 -0.387943 -0.62 194 205 235
0.247809 -0.388569 -0.621 119 142 183
0.262762 -0.387943 -0.62 141 144 161
0.270283 -0.388569 -0.621 189 192 211
0.278563 -0.388569 -0.621 174 185 205
0.294413 -0.389194 -0.622 44 58 103
0.299152 -0.389194 -0.622 166 167 197
0.33588 -0.389194 -0.622 170 173 190
0.366087 -0.38982 -0.623 60 81 126
0.384455 -0.389194 -0.622 149 162 196
0.390934 -0.388569 -0.621 140 132 130
0.403946 -0.388569 -0.621 129 136 165
0.416286 -0.387943 -0.62 146 143 138
0.419323 -0.388569 -0.621 168 174 174
0.463955 -0.387317 -0.619 176 174 185
0.49852 -0.386691 -0.618 75 109 157
0.520043 -0.386066 -0.617 186 182 196
0.50401 -0.354154 -0.566 138 113 106
0.48587 -0.338511 -0.541 149 116 101
0.4824 -0.335383 -0.536 156 119 100
0.47287 -0.325997 -0.521 164 121 102
0.465909 -0.317863 -0.508 162 124 105
0.465238 -0.312857 -0.5 168 127 107
0.496667 -0.312857 -0.5 148 110 87
0.0300238 -0.304395 -0.485 206 165 143
0.0408552 -0.302512 -0.482 202 160 136
0.04554 -0.30314 -0.483 198 156 134
0.06674 -0.311927 -0.497 148 108 98
0.0833733 -0.325107 -0.518 114 90 90
0.142305 -0.389124 -0.62 193 203 230
0.17273 -0.388496 -0.619 143 161 199
0.177447 -0.388496 -0.619 179 194 227
0.186 -0.389124 -0.62 207 214 242
0.207591 -0.389751 -0.621 191 192 222
0.231249 -0.389751 -0.621 202 197 227
0.259219 -0.389124 -0.62 105 121 157
0.263517 -0.388496 -0.619 146 149 164
0.271029 -0.389124 -0.62 189 191 206
0.280476 -0.389124 -0.62 179 182 199
0.316924 -0.390379 -0.622 155 170 211
0.341254 -0.389751 -0.621 136 143 171
0.355449 -0.389751 -0.621 170 176 190
0.384455 -0.390379 -0.622 133 144 176
0.386203 -0.389751 -0.621 161 163 175
0.404476 -0.389124 -0.62 149 150 178
0.426914 -0.389124 -0.62 92 119 172
0.434479 -0.388496 -0.619 52 83 148
0.451434 -0.387869 -0.618 161 165 194
0.472623 -0.387869 -0.618 171 173 188
0.52136 -0.36904 -0.588 125 101 101
0.4842 -0.337659 -0.538 156 119 100
0.46512 -0.31632 -0.504 167 126 106
0.468124 -0.310044 -0.494 179 137 115
0.476567 -0.309416 -0.493 174 132 110
0.03174 -0.30406 -0.483 207 166 144
0.0445276 -0.30343 -0.482 195 153 131
0.113656 -0.359458 -0.571 107 90 96
0.13809 -0.388416 -0.617 189 196 224
0.143486 -0.390305 -0.62 192 199 225
0.151508 -0.389675 -0.619 205 209 234
0.16892 -0.389046 -0.618 212 210 232
0.186879 -0.389675 -0.619 205 207 228
0.208438 -0.390305 -0.62 182 183 213
0.230876 -0.390305 -0.62 195 192 223
0.25998 -0.389675 -0.619 178 184 210
0.269412 -0.389675 -0.619 182 184 197
0.27177 -0.389675 -0.619 180 183 200
0.27295 -0.389675 -0.619 177 180 197
0.28474 -0.389675 -0.619 175 181 197
0.29819 -0.390305 -0.62 108 116 152
0.303403 -0.390934 -0.621 102 118 152
0.316414 -0.390934 -0.621 110 132 181
0.321146 -0.390934 -0.621 96 106 155
0.344803 -0.390934 -0.621 136 143 171
0.353083 -0.390934 -0.621 167 170 185
0.358997 -0.390934 -0.621 110 109 125
0.369053 -0.391564 -0.622 43 64 127
0.381471 -0.390934 -0.621 65 88 142
0.38502 -0.390934 -0.621 161 172 204
0.390305 -0.390305 -0.62 176 176 184
0.393848 -0.390305 -0.62 120 119 125
0.407361 -0.389675 -0.619 179 177 198
0.412077 -0.389675 -0.619 123 122 127
0.427891 -0.389046 -0.618 97 128 174
0.450704 -0.388416 -0.617 129 135 169
0.46556 -0.389046 -0.618 162 161 175
0.485961 -0.388416 -0.617 164 170 184
0.504765 -0.388416 -0.617 128 137 170
0.511816 -0.388416 -0.617 150 151 172
0.471209 -0.325464 -0.517 162 123 106
0.486002 -0.310985 -0.494 154 113 95
0.49274 -0.312873 -0.497 151 115 93
0.0316743 -0.304349 -0.482 206 166 141
0.06674 -0.31382 -0.497 147 107 99
0.0748429 -0.320134 -0.507 127 98 94
0.0835343 -0.327711 -0.519 109 88 87
0.0947905 -0.339709 -0.538 104 84 86
0.1072 -0.3536 -0.56 103 84 90
0.147492 -0.389591 -0.617 204 213 244
0.163034 -0.390223 -0.618 224 222 246
0.175983 -0.390223 -0.618 175 190 223
0.181869 -0.390223 -0.618 149 155 179
0.1854 -0.390223 -0.618 203 209 233
0.190416 -0.390854 -0.619 210 211 231
0.218713 -0.390854 -0.619 195 198 217
0.219892 -0.390854 -0.619 194 197 216
0.27604 -0.390223 -0.618 163 168 187
0.28428 -0.390223 -0.618 176 179 196
0.288989 -0.390223 -0.618 172 177 196
0.315905 -0.391486 -0.62 60 86 143
0.354876 -0.391486 -0.62 141 140 148
0.3596 -0.391486 -0.62 134 131 148
0.361363 -0.392117 -0.621 96 115 157
0.372009 -0.392117 -0.621 38 63 127
0.39964 -0.390223 -0.618 161 162 180
0.419651 -0.390223 -0.618 106 115 148
0.45423 -0.389591 -0.617 142 144 157
0.473033 -0.389591 -0.617 171 174 193
0.474209 -0.389591 -0.617 167 170 189
0.496907 -0.38896 -0.616 119 144 185
0.4765 -0.3315 -0.525 159 120 103
0.469074 -0.313189 -0.496 175 134 112
0.47375 -0.311294 -0.493 173 131 109
0.493687 -0.31382 -0.497 157 115 93
0.0316743 -0.305267 -0.482 206 166 141
0.0472819 -0.305267 -0.482 193 151 127
0.0560057 -0.3078 -0.486 169 128 108
0.0949667 -0.341367 -0.539 102 82 83
0.107391 -0.3553 -0.561 102 86 89
0.11615 -0.366067 -0.578 231 230 248
0.119171 -0.3686 -0.582 233 232 250
0.143023 -0.3914 -0.618 200 201 222
0.155971 -0.3914 -0.618 217 218 246
0.159503 -0.3914 -0.618 168 169 197
0.179514 -0.3914 -0.618 162 175 207
0.180691 -0.3914 -0.618 148 161 193
0.188058 -0.392033 -0.619 207 212 232
0.192774 -0.392033 -0.619 171 178 207
0.217534 -0.392033 -0.619 195 197 212
0.228954 -0.3914 -0.618 122 136 185
0.244652 -0.392033 -0.619 68 98 160
0.317753 -0.392033 -0.619 54 85 149
0.380243 -0.392033 -0.619 71 94 138
0.41612 -0.3914 -0.618 161 163 186
0.418474 -0.3914 -0.618 107 120 154
0.425537 -0.3914 -0.618 157 167 194
0.469508 -0.390767 -0.617 166 169 184
0.476559 -0.390767 -0.617 116 119 138
0.482827 -0.390133 -0.616 172 171 187
0.523362 -0.388867 -0.614 152 161 194
0.53185 -0.388233 -0.613 153 159 191
0.517367 -0.367967 -0.581 128 108 101
0.469517 -0.3249 -0.513 159 124 105
0.466113 -0.318567 -0.503 166 128 107
0.47375 -0.312233 -0.493 174 132 110
0.478411 -0.3116 -0.492 171 130 108
0.484079 -0.312233 -0.493 156 115 93
0.0491181 -0.306185 -0.482 185 144 122
0.0570486 -0.309361 -0.487 165 124 106
0.0678229 -0.316349 -0.498 141 103 94
0.0713781 -0.319525 -0.503 131 100 98
0.101095 -0.349381 -0.55 98 82 85
0.16277 -0.391942 -0.617 212 214 239
0.163946 -0.391942 -0.617 214 216 241
0.176873 -0.391942 -0.617 151 164 196
0.221891 -0.392577 -0.618 188 195 211
0.238371 -0.392577 -0.618 100 126 177
0.254439 -0.391942 -0.617 102 114 154
0.25914 -0.391942 -0.617 184 189 208
0.263841 -0.391942 -0.617 185 191 207
0.32548 -0.392577 -0.618 167 169 190
0.356086 -0.392577 -0.618 153 151 162
0.389591 -0.391942 -0.617 169 172 187
0.415447 -0.391942 -0.617 135 142 170
0.421323 -0.391942 -0.617 150 159 190
0.430027 -0.391307 -0.616 85 115 165
0.433547 -0.391307 -0.616 87 109 156
0.440587 -0.391307 -0.616 163 171 192
0.447627 -0.391307 -0.616 111 115 142
0.455405 -0.391942 -0.617 173 175 188
0.467573 -0.391307 -0.616 162 167 187
0.46992 -0.391307 -0.616 159 164 184
0.493757 -0.390671 -0.615 110 128 174
0.4961 -0.390671 -0.615 129 147 185
0.516345 -0.390036 -0.614 135 149 178
0.473943 -0.330324 -0.52 157 120 104
0.468714 -0.323971 -0.51 158 126 105
0.47281 -0.313172 -0.493 177 136 114
0.488825 -0.313808 -0.494 158 116 92
0.489766 -0.313808 -0.494 158 116 92
0.05106 -0.30774 -0.483 177 136 114
0.0801029 -0.328766 -0.516 111 87 87
0.0881667 -0.337049 -0.529 103 83 84
0.115749 -0.366994 -0.576 229 221 236
0.123891 -0.378463 -0.594 197 199 224
0.154544 -0.393117 -0.617 218 220 235
0.17072 -0.39248 -0.616 179 188 219
0.194817 -0.393754 -0.618 179 185 219
0.199526 -0.393754 -0.618 194 200 212
0.250913 -0.393117 -0.617 65 90 144
0.254027 -0.39248 -0.616 157 169 207
0.309 -0.393754 -0.618 17 50 119
0.312531 -0.393754 -0.618 28 62 123
0.327304 -0.393117 -0.617 170 172 195
0.347283 -0.393117 -0.617 176 177 195
0.364326 -0.393754 -0.618 128 151 195
0.390767 -0.393117 -0.617 168 167 183
0.394292 -0.393117 -0.617 175 175 183
0.426507 -0.39248 -0.616 105 120 159
0.472267 -0.39248 -0.616 128 137 166
0.47696 -0.39248 -0.616 143 149 175
0.490243 -0.391843 -0.615 99 112 146
0.493757 -0.391843 -0.615 111 128 174
0.533607 -0.389294 -0.611 77 101 147
0.498443 -0.353614 -0.555 144 112 101
0.483651 -0.340234 -0.534 153 116 98
0.466143 -0.319846 -0.502 169 128 108
0.468095 -0.318571 -0.5 173 130 111
0.46812 -0.317297 -0.498 175 132 113
0.477474 -0.313474 -0.492 170 128 106
0.48216 -0.313474 -0.492 160 118 96
0.486896 -0.314111 -0.493 163 121 97
0.501429 -0.318571 -0.5 151 110 90
0.0426029 -0.307382 -0.481 192 153 124
0.0444352 -0.307382 -0.481 191 152 121
0.05198 -0.30866 -0.483 171 130 108
0.0549667 -0.309938 -0.485 167 126 106
0.0613829 -0.314411 -0.492 150 113 97
0.0801029 -0.329749 -0.516 109 87 89
0.0912048 -0.34189 -0.535 103 83 84
0.144907 -0.393653 -0.616 202 207 227
0.169547 -0.393653 -0.616 189 196 225
0.175413 -0.393653 -0.616 129 147 183
0.185973 -0.393653 -0.616 201 207 239
0.247388 -0.394292 -0.617 65 102 173
0.280557 -0.393014 -0.615 169 172 187
0.281729 -0.393014 -0.615 172 175 190
0.288053 -0.393653 -0.616 169 171 184
0.301449 -0.394292 -0.617 28 55 122
0.310177 -0.394931 -0.618 38 73 129
0.313201 -0.394292 -0.617 62 92 152
0.33318 -0.394292 -0.617 173 171 185
0.349633 -0.394292 -0.617 171 169 190
0.359035 -0.394292 -0.617 135 141 175
0.361386 -0.394292 -0.617 157 170 204
0.373743 -0.394931 -0.618 119 139 192
0.38254 -0.394292 -0.617 73 83 118
0.39248 -0.393653 -0.616 161 161 169
0.40304 -0.393653 -0.616 176 178 191
0.419957 -0.393014 -0.615 170 173 190
0.4305 -0.393014 -0.615 107 135 182
0.458187 -0.393653 -0.616 152 154 175
0.465643 -0.393014 -0.615 140 150 186
0.480871 -0.393014 -0.615 166 160 172
0.485557 -0.393014 -0.615 170 170 182
0.489071 -0.393014 -0.615 116 129 161
0.512001 -0.391736 -0.613 176 180 191
0.514336 -0.391736 -0.613 167 174 182
0.522823 -0.391097 -0.612 88 110 159
0.53418 -0.38918 -0.609 118 131 163
0.473178 -0.330388 -0.517 159 123 109
0.480286 -0.314411 -0.492 172 130 108
0.0211286 -0.31599 -0.493 200 162 139
0.0251952 -0.308298 -0.481 207 167 142
0.0324571 -0.307657 -0.48 202 160 135
0.0539314 -0.310221 -0.484 168 126 110
0.0913752 -0.34355 -0.536 103 84 88
0.09864 -0.351242 -0.548 103 84 88
0.140213 -0.394827 -0.616 182 181 195
0.141157 -0.394186 -0.615 213 209 224
0.166929 -0.394186 -0.615 209 211 236
0.17776 -0.394827 -0.616 122 140 178
0.180986 -0.394186 -0.615 171 185 222
0.194502 -0.395468 -0.617 199 202 221
0.203904 -0.395468 -0.617 177 176 190
0.20978 -0.395468 -0.617 153 156 173
0.21213 -0.395468 -0.617 186 189 206
0.225867 -0.394827 -0.616 184 191 210
0.246212 -0.395468 -0.617 65 99 170
0.304974 -0.395468 -0.617 44 81 149
0.316213 -0.394827 -0.616 83 101 147
0.332005 -0.395468 -0.617 176 174 188
0.33553 -0.395468 -0.617 139 137 151
0.339056 -0.395468 -0.617 174 172 185
0.352587 -0.394827 -0.616 151 149 171
0.410586 -0.394186 -0.615 160 161 191
0.4223 -0.394186 -0.615 174 176 191
0.439156 -0.393545 -0.614 151 167 190
0.441495 -0.393545 -0.614 166 174 195
0.466814 -0.394186 -0.615 151 164 209
0.496463 -0.393545 -0.614 118 139 186
0.50733 -0.392904 -0.613 171 184 200
0.52546 -0.391622 -0.611 87 111 159
0.517791 -0.371111 -0.579 135 110 105
0.487274 -0.344832 -0.538 151 118 103
0.468127 -0.318553 -0.497 174 133 113
0.489713 -0.31599 -0.493 159 121 100
0.02254 -0.3105 -0.483 202 162 136
0.0251429 -0.308571 -0.48 207 167 142
0.036039 -0.307929 -0.479 199 157 132
0.0500362 -0.309857 -0.482 177 135 113
0.0570486 -0.313071 -0.487 159 120 103
0.0856629 -0.338143 -0.526 105 85 87
0.087159 -0.340071 -0.529 104 84 86
0.116753 -0.3735 -0.581 221 220 238
0.1763 -0.395357 -0.615 113 130 176
0.190357 -0.395357 -0.615 156 166 201
0.203573 -0.396 -0.616 184 186 201
0.23056 -0.396 -0.616 62 83 130
0.24464 -0.396 -0.616 32 69 140
0.252443 -0.395357 -0.615 145 164 220
0.2911 -0.395357 -0.615 121 121 133
0.306827 -0.396 -0.616 35 69 132
0.309173 -0.396 -0.616 62 93 147
0.322729 -0.395357 -0.615 158 160 185
0.370187 -0.396 -0.616 84 110 159
0.377227 -0.396 -0.616 166 170 199
0.400043 -0.395357 -0.615 124 130 146
0.40524 -0.394714 -0.614 178 177 191
0.411088 -0.394714 -0.614 134 139 169
0.4298 -0.394714 -0.614 129 153 199
0.460208 -0.394714 -0.614 146 164 202
0.499157 -0.394071 -0.613 90 113 155
0.476504 -0.315643 -0.491 174 132 110
0.485856 -0.315643 -0.491 163 121 99
0.492589 -0.317571 -0.494 137 96 74
0.519314 -0.329143 -0.512 144 107 88
0.524354 -0.331714 -0.516 141 106 84
0.0278276 -0.308841 -0.479 208 166 142
0.0499324 -0.31013 -0.481 180 135 114
0.100411 -0.355909 -0.552 97 83 83
0.111481 -0.368159 -0.571 87 76 93
0.1599 -0.396529 -0.615 178 185 214
0.186843 -0.396529 -0.615 125 136 181
0.2024 -0.397173 -0.616 181 184 201
0.254371 -0.395884 -0.614 178 187 216
0.267969 -0.395239 -0.613 184 187 206
0.288288 -0.395884 -0.614 162 163 181
0.318043 -0.396529 -0.615 77 97 130
0.334987 -0.397173 -0.616 171 165 177
0.343814 -0.396529 -0.615 172 175 190
0.3485 -0.396529 -0.615 173 174 194
0.355529 -0.396529 -0.615 89 95 119
0.371929 -0.396529 -0.615 77 99 149
0.3731 -0.396529 -0.615 95 117 167
0.421613 -0.395884 -0.614 174 171 190
0.422783 -0.395884 -0.614 167 174 193
0.431435 -0.395239 -0.613 128 147 189
0.470733 -0.395884 -0.614 58 85 138
0.501492 -0.395239 -0.613 88 106 152
0.503828 -0.395239 -0.613 90 104 143
0.516467 -0.393305 -0.61 160 166 192
0.525762 -0.393305 -0.61 68 89 142
0.517998 -0.372672 -0.578 134 109 105
0.486791 -0.316578 -0.491 163 118 95
0.489657 -0.317223 -0.492 151 109 87
0.0232657 -0.309753 -0.479 204 164 138
0.0332324 -0.309107 -0.478 203 161 136
0.0442505 -0.309753 -0.479 190 146 119
0.0560057 -0.31428 -0.486 158 120 101
0.111871 -0.37054 -0.573 97 89 110
0.133474 -0.39576 -0.612 225 226 247
0.13953 -0.396407 -0.613 229 226 243
0.145369 -0.396407 -0.613 222 221 235
0.161979 -0.397053 -0.614 119 126 168
0.165488 -0.397053 -0.614 168 176 213
0.167827 -0.397053 -0.614 146 155 188
0.211443 -0.3977 -0.615 164 167 176
0.247354 -0.397053 -0.614 105 138 192
0.25746 -0.396407 -0.613 184 190 202
0.269136 -0.396407 -0.613 184 188 197
0.276142 -0.396407 -0.613 177 181 192
0.344425 -0.397053 -0.614 174 173 191
0.346764 -0.397053 -0.614 172 171 189
0.392375 -0.397053 -0.614 140 144 171
0.419759 -0.396407 -0.613 176 173 190
0.454788 -0.396407 -0.613 60 77 120
0.455955 -0.396407 -0.613 52 77 133
0.462961 -0.396407 -0.613 65 84 140
0.484354 -0.39576 -0.612 141 139 150
0.498343 -0.39576 -0.612 70 98 146
0.503006 -0.39576 -0.612 94 109 152
0.506503 -0.39576 -0.612 163 175 199
0.509167 -0.395113 -0.611 169 177 196
0.512658 -0.395113 -0.611 170 177 195
0.516467 -0.394467 -0.61 171 177 203
0.0378638 -0.310666 -0.479 202 157 134
0.0415133 -0.310666 -0.479 190 146 119
0.0509543 -0.312611 -0.482 171 129 107
0.0805686 -0.336609 -0.519 106 84 86
0.146536 -0.397574 -0.613 213 213 225
0.147704 -0.397574 -0.613 216 213 230
0.174559 -0.397574 -0.613 76 97 150
0.17923 -0.397574 -0.613 116 132 192
0.229811 -0.398223 -0.614 102 111 142
0.235659 -0.398223 -0.614 69 97 145
0.294824 -0.397574 -0.613 162 164 185
0.302322 -0.398223 -0.614 85 116 171
0.307668 -0.397574 -0.613 77 100 154
0.308835 -0.397574 -0.613 77 100 154
0.312338 -0.397574 -0.613 138 156 192
0.333899 -0.398223 -0.614 170 167 186
0.338577 -0.398223 -0.614 168 169 187
0.35554 -0.397574 -0.613 136 141 160
0.370154 -0.398223 -0.614 92 114 161
0.37539 -0.397574 -0.613 167 173 197
0.38006 -0.397574 -0.613 165 167 188
0.394071 -0.397574 -0.613 138 147 176
0.405748 -0.397574 -0.613 106 120 159
0.414411 -0.396926 -0.612 175 178 195
0.421406 -0.396926 -0.612 163 170 186
0.429566 -0.396926 -0.612 107 130 180
0.45362 -0.397574 -0.613 105 117 157
0.472697 -0.396926 -0.612 116 138 187
0.475416 -0.396277 -0.611 176 178 190
0.47658 -0.396277 -0.611 172 174 186
0.50184 -0.396926 -0.612 82 104 161
0.51678 -0.39498 -0.609 156 174 214
0.473726 -0.319097 -0.492 173 130 111
0.491531 -0.319097 -0.492 158 117 97
0.504228 -0.323637 -0.499 150 112 93
0.0580952 -0.317432 -0.488 151 113 104
0.0625733 -0.321335 -0.494 144 104 102
0.0671429 -0.325238 -0.5 134 99 95
0.0861514 -0.344102 -0.529 100 84 85
0.102014 -0.361014 -0.555 99 81 81
0.108731 -0.36947 -0.568 103 91 105
0.135584 -0.397441 -0.611 216 217 238
0.186235 -0.398742 -0.613 116 134 182
0.187403 -0.398742 -0.613 143 161 209
0.212269 -0.399392 -0.614 179 183 195
0.246951 -0.398742 -0.613 162 181 214
0.262869 -0.398091 -0.612 181 187 201
0.283388 -0.397441 -0.611 167 171 196
0.315326 -0.398091 -0.612 162 167 189
0.317009 -0.398742 -0.613 159 164 186
0.333355 -0.398742 -0.613 162 164 185
0.338026 -0.398742 -0.613 158 160 181
0.345031 -0.398742 -0.613 161 165 192
0.356708 -0.398742 -0.613 153 151 164
0.361378 -0.398742 -0.613 130 143 175
0.42024 -0.398091 -0.612 143 142 150
0.432355 -0.397441 -0.611 94 121 168
0.445157 -0.397441 -0.611 178 176 189
0.455211 -0.398091 -0.612 76 96 146
0.456377 -0.398091 -0.612 68 88 138
0.470761 -0.397441 -0.611 110 131 178
0.495201 -0.397441 -0.611 38 76 141
0.504511 -0.397441 -0.611 128 142 168
0.511819 -0.39679 -0.61 146 152 174
0.529829 -0.39549 -0.608 55 85 145
0.535011 -0.394189 -0.606 96 105 144
0.519997 -0.376626 -0.579 124 108 109
0.471888 -0.321335 -0.494 174 131 112
0.0258943 -0.311186 -0.477 200 159 137
0.0295286 -0.311186 -0.477 200 160 135
0.0423371 -0.311838 -0.478 191 150 122
0.0539314 -0.315752 -0.484 163 122 104
0.0570486 -0.31771 -0.487 155 115 105
0.0682314 -0.326843 -0.501 126 97 93
0.0905229 -0.350329 -0.537 103 83 85
0.133256 -0.398605 -0.611 222 223 241
0.141403 -0.398605 -0.611 172 171 187
0.148386 -0.398605 -0.611 192 190 203
0.176606 -0.399257 -0.612 70 95 159
0.1836 -0.399257 -0.612 76 101 165
0.187097 -0.399257 -0.612 166 184 232
0.194091 -0.399257 -0.612 193 200 218
0.207252 -0.39991 -0.613 167 170 177
0.20842 -0.39991 -0.613 171 174 181
0.210755 -0.39991 -0.613 138 141 148
0.272913 -0.398605 -0.611 181 184 191
0.274077 -0.398605 -0.611 179 180 200
0.294343 -0.399257 -0.612 159 160 180
0.308331 -0.399257 -0.612 79 101 150
0.31416 -0.399257 -0.612 169 173 198
0.318823 -0.399257 -0.612 143 149 175
0.325182 -0.39991 -0.613 157 164 190
0.340361 -0.39991 -0.613 151 155 182
0.342696 -0.39991 -0.613 148 153 183
0.352629 -0.399257 -0.612 166 171 190
0.372446 -0.399257 -0.612 112 127 160
0.41839 -0.398605 -0.611 182 179 188
0.433971 -0.397952 -0.61 96 120 168
0.440943 -0.397952 -0.61 167 170 179
0.449812 -0.398605 -0.611 177 173 196
0.466106 -0.398605 -0.611 35 61 120
0.477744 -0.398605 -0.611 174 172 193
0.487419 -0.397952 -0.61 63 89 148
0.493229 -0.397952 -0.61 38 77 144
0.503348 -0.398605 -0.611 67 89 138
0.470017 -0.324886 -0.498 171 130 112
0.472829 -0.322276 -0.494 173 130 111
0.481083 -0.319014 -0.489 168 123 100
0.482014 -0.319014 -0.489 172 127 104
0.4886 -0.319667 -0.49 162 120 96
0.0469876 -0.313403 -0.479 175 137 114
0.144657 -0.399114 -0.61 172 172 182
0.156789 -0.400423 -0.612 214 212 234
0.160286 -0.400423 -0.612 197 200 219
0.161451 -0.400423 -0.612 182 188 214
0.16728 -0.400423 -0.612 120 134 173
0.188263 -0.400423 -0.612 173 177 214
0.195257 -0.400423 -0.612 194 203 218
0.210755 -0.401077 -0.613 143 146 153
0.220903 -0.400423 -0.612 171 184 201
0.225197 -0.399769 -0.611 104 110 142
0.253129 -0.399769 -0.611 85 98 130
0.257362 -0.399114 -0.61 150 162 204
0.261275 -0.399769 -0.611 184 189 208
0.270586 -0.399769 -0.611 151 154 159
0.285248 -0.399114 -0.61 68 81 116
0.295026 -0.399769 -0.611 118 125 154
0.302009 -0.399769 -0.611 108 129 176
0.318302 -0.399769 -0.611 165 167 192
0.324651 -0.400423 -0.612 109 122 154
0.332811 -0.400423 -0.612 154 160 186
0.347397 -0.399769 -0.611 114 134 171
0.353216 -0.399769 -0.611 165 171 195
0.420717 -0.399769 -0.611 127 130 147
0.43674 -0.39846 -0.609 91 110 153
0.438619 -0.399114 -0.61 130 143 162
0.442105 -0.399114 -0.61 174 176 189
0.450238 -0.399114 -0.61 178 172 198
0.454886 -0.399114 -0.61 109 124 165
0.459533 -0.399114 -0.61 30 62 123
0.465343 -0.399114 -0.61 34 60 119
0.5002 -0.399114 -0.61 50 85 151
0.5075 -0.39846 -0.609 132 142 154
0.50982 -0.39846 -0.609 123 131 152
0.51709 -0.397806 -0.608 63 84 139
0.5193 -0.377523 -0.577 126 108 108
0.472829 -0.323217 -0.494 171 128 109
0.0460752 -0.314315 -0.479 178 137 115
0.056121 -0.319565 -0.487 157 118 103
0.0849829 -0.346469 -0.528 104 83 82
0.169334 -0.400932 -0.611 86 103 146
0.178645 -0.400932 -0.611 122 147 203
0.189119 -0.400932 -0.611 168 177 210
0.19843 -0.400932 -0.611 195 205 215
0.277114 -0.400276 -0.61 178 177 191
0.352052 -0.400932 -0.611 174 171 200
0.37758 -0.39962 -0.609 154 155 173
0.387495 -0.400276 -0.61 82 94 118
0.403762 -0.400276 -0.61 61 92 149
0.407248 -0.400276 -0.61 150 165 196
0.42514 -0.39962 -0.609 86 113 160
0.44254 -0.39962 -0.609 175 177 198
0.454886 -0.400276 -0.61 127 140 175
0.47154 -0.39962 -0.609 133 148 179
0.48198 -0.39962 -0.609 118 122 147
0.506667 -0.398964 -0.608 153 161 174
0.52924 -0.397651 -0.606 59 85 144
0.498283 -0.360249 -0.549 141 110 107
0.471785 -0.332032 -0.506 167 128 111
0.469986 -0.328751 -0.501 171 130 112
0.472829 -0.324158 -0.494 172 130 108
0.482888 -0.320221 -0.488 170 125 102
0.486606 -0.320221 -0.488 162 120 96
0.01518 -0.31786 -0.483 201 163 140
0.056121 -0.320492 -0.487 155 116 101
0.0571657 -0.32115 -0.488 151 111 101
0.0648467 -0.327073 -0.497 133 99 97
0.0782886 -0.340235 -0.517 110 85 80
0.0823429 -0.344842 -0.524 107 83 79
0.08664 -0.350107 -0.532 103 83 82
0.107839 -0.374456 -0.569 97 85 95
0.13514 -0.40078 -0.609 210 211 229
0.1421 -0.40078 -0.609 197 201 210
0.180972 -0.402096 -0.611 159 180 223
0.182136 -0.402096 -0.611 164 185 228
0.1833 -0.402096 -0.611 181 195 232
0.189971 -0.401438 -0.61 172 183 213
0.197266 -0.402096 -0.611 193 201 212
0.199593 -0.402096 -0.611 197 200 215
0.212395 -0.402096 -0.611 191 198 208
0.21705 -0.402096 -0.611 192 196 208
0.288733 -0.401438 -0.61 174 174 198
0.293381 -0.401438 -0.61 138 145 163
0.32359 -0.401438 -0.61 102 115 147
0.324752 -0.401438 -0.61 72 85 117
0.325914 -0.401438 -0.61 70 85 118
0.331724 -0.401438 -0.61 142 161 204
0.344505 -0.401438 -0.61 54 74 125
0.37294 -0.40078 -0.609 133 146 180
0.3799 -0.40078 -0.609 164 168 179
0.389819 -0.401438 -0.61 67 95 143
0.41238 -0.40078 -0.609 178 181 198
0.45066 -0.40078 -0.609 149 155 189
0.46922 -0.40078 -0.609 70 101 147
0.484663 -0.400122 -0.608 64 83 115
0.49358 -0.40078 -0.609 19 56 127
0.52116 -0.398806 -0.606 48 76 139
0.533246 -0.39749 -0.604 162 177 200
0.470904 -0.331022 -0.503 174 132 116
0.474663 -0.323783 -0.492 173 131 109
0.492333 -0.322467 -0.49 161 119 95
0.0330933 -0.31416 -0.476 198 154 129
0.0432476 -0.31548 -0.478 184 139 116
0.101321 -0.36762 -0.557 102 81 86
0.104557 -0.37158 -0.563 101 82 88
0.129128 -0.40128 -0.608 221 222 240
0.14094 -0.40194 -0.609 202 205 222
0.15834 -0.40194 -0.609 179 183 208
0.187648 -0.4026 -0.61 108 126 162
0.212048 -0.4026 -0.61 190 196 210
0.239933 -0.4026 -0.61 106 134 182
0.244581 -0.4026 -0.61 129 145 179
0.24882 -0.40194 -0.609 188 189 209
0.2523 -0.40194 -0.609 184 189 211
0.2697 -0.40194 -0.609 116 121 141
0.31378 -0.40194 -0.609 169 171 194
0.343343 -0.4026 -0.61 53 74 127
0.36598 -0.40194 -0.609 85 112 159
0.404754 -0.40128 -0.608 146 168 215
0.422126 -0.40128 -0.608 89 116 163
0.446446 -0.40128 -0.608 134 139 158
0.463817 -0.40128 -0.608 34 59 123
0.482347 -0.40128 -0.608 82 87 109
0.486979 -0.40128 -0.608 63 90 137
0.493928 -0.40128 -0.608 22 59 129
0.471785 -0.33396 -0.506 165 128 112
0.47 -0.33 -0.5 169 131 112
0.47001 -0.32934 -0.499 171 130 112
0.611253 -0.38544 -0.584 196 196 194
0.0203143 -0.313743 -0.474 210 168 144
0.0257314 -0.313743 -0.474 205 163 139
0.0404314 -0.315729 -0.477 186 144 120
0.0460752 -0.317052 -0.479 174 132 110
0.0811895 -0.346176 -0.523 105 81 81
0.0922276 -0.35809 -0.541 103 83 85
0.113629 -0.385229 -0.582 144 150 186
0.140709 -0.402438 -0.608 214 216 231
0.15602 -0.4031 -0.609 199 205 221
0.1595 -0.4031 -0.609 139 145 171
0.16414 -0.4031 -0.609 191 196 218
0.16994 -0.4031 -0.609 122 150 198
0.17574 -0.4031 -0.609 107 138 192
0.21518 -0.4031 -0.609 189 190 211
0.2407 -0.4031 -0.609 104 131 178
0.24882 -0.4031 -0.609 189 190 210
0.2755 -0.4031 -0.609 137 147 174
0.2987 -0.4031 -0.609 114 137 179
0.30682 -0.4031 -0.609 92 116 164
0.34742 -0.4031 -0.609 164 176 192
0.387383 -0.402438 -0.608 142 160 200
0.389699 -0.402438 -0.608 90 120 172
0.402438 -0.402438 -0.608 95 125 189
0.422126 -0.402438 -0.608 81 108 161
0.448024 -0.401776 -0.607 62 80 128
0.45571 -0.402438 -0.608 42 68 127
0.459185 -0.402438 -0.608 30 60 124
0.501209 -0.401776 -0.607 64 95 149
0.515389 -0.401114 -0.606 153 160 186
0.533511 -0.399129 -0.603 171 177 193
0.484681 -0.322348 -0.487 167 124 105
0.503014 -0.327643 -0.495 155 114 94
0.0230229 -0.314646 -0.474 205 163 139
0.0239257 -0.314646 -0.474 205 163 139
0.0257314 -0.314646 -0.474 203 161 137
0.03672 -0.315973 -0.476 196 151 128
0.0583333 -0.325267 -0.49 143 105 94
0.0639 -0.329913 -0.497 132 99 94
0.0661905 -0.331905 -0.5 124 93 88
0.0893333 -0.355802 -0.536 103 82 87
0.129128 -0.403596 -0.608 223 222 240
0.146499 -0.403596 -0.608 206 206 216
0.155764 -0.403596 -0.608 180 188 209
0.160396 -0.403596 -0.608 180 185 207
0.162712 -0.403596 -0.608 205 207 228
0.17922 -0.40426 -0.609 141 165 213
0.18502 -0.40426 -0.609 191 196 216
0.190507 -0.403596 -0.608 89 109 146
0.19662 -0.40426 -0.609 188 193 212
0.21286 -0.40426 -0.609 184 186 207
0.226408 -0.403596 -0.608 188 193 213
0.227566 -0.403596 -0.608 194 199 218
0.23104 -0.403596 -0.608 131 139 160
0.262309 -0.403596 -0.608 124 130 146
0.263467 -0.403596 -0.608 151 157 173
0.276206 -0.403596 -0.608 120 136 172
0.285001 -0.402932 -0.607 168 173 192
0.375184 -0.402932 -0.607 157 169 185
0.383277 -0.402932 -0.607 160 167 183
0.397806 -0.403596 -0.608 37 60 130
0.399464 -0.402932 -0.607 42 66 136
0.408713 -0.402932 -0.607 125 137 175
0.491959 -0.402932 -0.607 48 83 147
0.513386 -0.401605 -0.605 163 170 196
0.477357 -0.324603 -0.489 168 125 106
0.487464 -0.323275 -0.487 157 115 93
0.492183 -0.323939 -0.488 158 117 95
0.0312143 -0.316214 -0.475 200 158 133
0.0330238 -0.316214 -0.475 201 157 132
0.0376267 -0.31688 -0.476 193 148 119
0.0530095 -0.322206 -0.484 155 114 94
0.0856267 -0.35416 -0.532 104 84 86
0.103301 -0.374131 -0.562 100 85 92
0.134696 -0.404089 -0.607 217 219 232
0.146258 -0.404089 -0.607 216 214 227
0.177768 -0.404754 -0.608 115 137 184
0.187032 -0.404754 -0.608 168 177 206
0.18819 -0.404754 -0.608 135 144 173
0.191665 -0.404754 -0.608 88 101 133
0.196297 -0.404754 -0.608 192 193 214
0.213669 -0.404754 -0.608 190 196 222
0.251886 -0.404754 -0.608 185 188 207
0.270415 -0.404754 -0.608 97 115 155
0.278064 -0.404089 -0.607 58 81 135
0.298875 -0.404089 -0.607 100 119 161
0.304656 -0.404089 -0.607 95 113 159
0.313265 -0.404754 -0.608 162 164 176
0.319687 -0.404089 -0.607 132 135 150
0.321999 -0.404089 -0.607 149 159 184
0.325468 -0.404089 -0.607 81 98 141
0.328936 -0.404089 -0.607 30 61 118
0.33703 -0.404089 -0.607 27 59 120
0.343967 -0.404089 -0.607 145 158 192
0.355529 -0.404089 -0.607 163 165 190
0.369403 -0.404089 -0.607 80 103 153
0.376874 -0.403423 -0.606 164 171 197
0.40062 -0.404089 -0.607 36 66 130
0.469217 -0.403423 -0.606 151 162 194
0.47268 -0.403423 -0.606 123 121 143
0.51829 -0.402091 -0.604 56 82 131
0.527493 -0.402091 -0.604 79 97 137
0.472863 -0.331526 -0.498 173 130 111
0.47286 -0.33086 -0.497 173 130 113
0.475569 -0.326866 -0.491 168 127 107
0.480909 -0.323537 -0.486 169 124 103
0.481834 -0.323537 -0.486 170 125 104
0.489319 -0.324203 -0.487 162 120 96
0.0166676 -0.315784 -0.473 206 166 140
0.0366429 -0.317119 -0.475 193 149 124
0.0385333 -0.317787 -0.476 190 144 118
0.03944 -0.317787 -0.476 185 141 116
0.0651076 -0.333142 -0.499 124 95 91
0.06864 -0.33648 -0.504 121 91 89
0.0736305 -0.341821 -0.512 107 87 88
0.147414 -0.405245 -0.607 217 215 229
0.160132 -0.405245 -0.607 208 212 224
0.16707 -0.405245 -0.607 126 141 172
0.184716 -0.405912 -0.608 199 197 218
0.18819 -0.405912 -0.608 168 173 202
0.200599 -0.405245 -0.607 150 157 176
0.207878 -0.405912 -0.608 176 183 209
0.21251 -0.405912 -0.608 165 171 203
0.224879 -0.405245 -0.607 192 192 216
0.232972 -0.405245 -0.607 117 137 161
0.263033 -0.405245 -0.607 121 142 187
0.301846 -0.404577 -0.606 82 103 150
0.315062 -0.405245 -0.607 167 171 183
0.318006 -0.404577 -0.606 149 151 164
0.354943 -0.404577 -0.606 159 161 186
0.357841 -0.405245 -0.607 71 93 134
0.358997 -0.405245 -0.607 70 92 133
0.365934 -0.405245 -0.607 57 93 155
0.394189 -0.404577 -0.606 37 64 135
0.413811 -0.404577 -0.606 123 129 151
0.426957 -0.40391 -0.605 29 67 130
0.437329 -0.40391 -0.605 128 143 172
0.45652 -0.404577 -0.606 30 61 118
0.458829 -0.404577 -0.606 33 61 124
0.459983 -0.404577 -0.606 34 59 125
0.51099 -0.37587 -0.563 134 114 116
0.492398 -0.359179 -0.538 147 114 105
0.4728 -0.33648 -0.504 167 128 111
0.471911 -0.333142 -0.499 173 130 111
0.472843 -0.330471 -0.495 171 130 110
0.472829 -0.329804 -0.494 170 129 109
0.47375 -0.329136 -0.493 173 132 112
0.0202714 -0.316685 -0.473 207 165 140
0.0896667 -0.360204 -0.538 101 83 83
0.103485 -0.376942 -0.563 99 84 89
0.142554 -0.405731 -0.606 177 171 173
0.183256 -0.406401 -0.607 190 201 223
0.24644 -0.405731 -0.606 186 193 222
0.261446 -0.405731 -0.606 76 102 161
0.268814 -0.406401 -0.607 79 98 154
0.331857 -0.405731 -0.606 26 52 111
0.338783 -0.405731 -0.606 51 82 146
0.349748 -0.406401 -0.607 166 173 199
0.368794 -0.405731 -0.606 58 92 137
0.369949 -0.405731 -0.606 62 96 141
0.377405 -0.405062 -0.605 116 119 138
0.378557 -0.405062 -0.605 100 103 122
0.380862 -0.405062 -0.605 81 94 126
0.406886 -0.405731 -0.606 75 100 157
0.413129 -0.405062 -0.605 141 147 169
0.449594 -0.405731 -0.606 168 168 178
0.459224 -0.405062 -0.605 32 55 122
0.47651 -0.405062 -0.605 164 177 193
0.489994 -0.405731 -0.606 63 95 152
0.492303 -0.405731 -0.606 69 105 157
0.504484 -0.404392 -0.604 164 168 169
0.509086 -0.404392 -0.604 133 132 138
0.474617 -0.340118 -0.508 167 126 108
0.474633 -0.328736 -0.491 173 130 111
0.47917 -0.326728 -0.488 173 128 105
0.480909 -0.325389 -0.486 169 125 100
0.484611 -0.325389 -0.486 169 124 101
0.497933 -0.328067 -0.49 163 121 99
0.0097 -0.325643 -0.485 199 162 135
0.0148657 -0.317586 -0.473 206 166 140
0.0700143 -0.340414 -0.507 113 88 84
0.10026 -0.373986 -0.557 98 82 85
0.132166 -0.406886 -0.606 217 219 234
0.140014 -0.406214 -0.605 174 172 183
0.150634 -0.406886 -0.606 189 198 215
0.187881 -0.407557 -0.607 196 198 221
0.235662 -0.406214 -0.605 107 126 169
0.277606 -0.406886 -0.606 92 120 170
0.27876 -0.406886 -0.606 131 144 188
0.304805 -0.406214 -0.605 80 107 162
0.323243 -0.406214 -0.605 151 167 203
0.334166 -0.406886 -0.606 24 57 124
0.338224 -0.406214 -0.605 49 80 137
0.345138 -0.406214 -0.605 101 118 162
0.3751 -0.406214 -0.605 75 90 129
0.402757 -0.406214 -0.605 91 116 172
0.411295 -0.405543 -0.604 151 154 169
0.438907 -0.405543 -0.604 169 175 189
0.443509 -0.405543 -0.604 160 166 182
0.488033 -0.406214 -0.605 69 102 153
0.492979 -0.405543 -0.604 62 97 153
0.533143 -0.402857 -0.6 153 162 191
0.496059 -0.363914 -0.542 138 115 109
0.483577 -0.351829 -0.524 159 122 104
0.474676 -0.339743 -0.506 167 129 110
0.474689 -0.331014 -0.493 172 129 110
0.505762 -0.331686 -0.494 147 111 89
0.00930952 -0.387167 -0.575 195 161 136
0.0113095 -0.319833 -0.475 204 164 138
0.0166324 -0.317813 -0.472 207 167 141
0.027421 -0.317813 -0.472 200 158 133
0.02838 -0.318487 -0.473 199 157 132
0.0310829 -0.318487 -0.473 198 156 131
0.0854657 -0.35754 -0.531 103 83 84
0.0927391 -0.366293 -0.544 99 80 82
0.0956829 -0.36966 -0.549 95 76 78
0.123471 -0.40602 -0.603 137 149 175
0.135405 -0.407367 -0.605 215 216 236
0.141167 -0.407367 -0.605 182 184 199
0.145776 -0.407367 -0.605 209 206 225
0.216071 -0.407367 -0.605 171 176 195
0.291646 -0.406693 -0.604 90 112 161
0.295097 -0.406693 -0.604 85 109 157
0.321558 -0.406693 -0.604 139 148 179
0.32501 -0.406693 -0.604 97 123 174
0.333614 -0.407367 -0.605 23 57 121
0.345138 -0.407367 -0.605 59 81 130
0.354357 -0.407367 -0.605 88 104 130
0.37333 -0.406693 -0.604 91 105 144
0.382533 -0.406693 -0.604 106 122 155
0.392888 -0.406693 -0.604 30 61 126
0.39749 -0.406693 -0.604 35 66 133
0.402757 -0.407367 -0.605 122 148 205
0.407844 -0.406693 -0.604 153 168 191
0.420499 -0.406693 -0.604 66 102 164
0.43818 -0.40602 -0.603 169 175 189
0.440057 -0.406693 -0.604 171 177 191
0.44811 -0.406693 -0.604 142 145 154
0.489528 -0.406693 -0.604 85 112 159
0.503649 -0.40602 -0.603 162 165 174
0.516573 -0.405347 -0.602 110 130 167
0.51772 -0.405347 -0.602 120 135 168
0.475569 -0.330607 -0.491 173 131 109
0.489157 -0.326567 -0.485 169 124 101
0.503714 -0.33128 -0.492 145 109 85
0.0229257 -0.318712 -0.472 202 160 135
0.0346867 -0.319388 -0.473 193 152 124
0.0365657 -0.320063 -0.474 187 146 118
0.0520876 -0.326815 -0.484 150 112 93
0.0678143 -0.340995 -0.505 118 90 86
0.0774533 -0.349773 -0.518 104 83 82
0.0842952 -0.357876 -0.53 101 81 82
0.103852 -0.38151 -0.565 96 86 97
0.13403 -0.407844 -0.604 204 205 226
0.136331 -0.407844 -0.604 195 194 212
0.145535 -0.407844 -0.604 195 193 214
0.150386 -0.408519 -0.605 155 163 186
0.168824 -0.408519 -0.605 152 167 198
0.169976 -0.408519 -0.605 150 165 196
0.203731 -0.409194 -0.606 76 102 153
0.224138 -0.408519 -0.605 186 192 208
0.247186 -0.408519 -0.605 184 190 204
0.24949 -0.408519 -0.605 188 190 203
0.257557 -0.408519 -0.605 168 174 186
0.263319 -0.408519 -0.605 41 76 134
0.264471 -0.408519 -0.605 41 76 134
0.272538 -0.408519 -0.605 38 69 134
0.290014 -0.407169 -0.603 142 146 173
0.294609 -0.407169 -0.603 86 112 161
0.296906 -0.407169 -0.603 63 94 149
0.304301 -0.407844 -0.604 75 110 168
0.318729 -0.407169 -0.603 88 94 120
0.32562 -0.407169 -0.603 38 65 118
0.331912 -0.407844 -0.604 24 55 120
0.400941 -0.407844 -0.604 87 116 174
0.42828 -0.406493 -0.602 61 95 156
0.452712 -0.407844 -0.604 58 76 116
0.511987 -0.406493 -0.602 82 92 117
0.526286 -0.405143 -0.6 145 157 181
0.528571 -0.405143 -0.6 123 137 163
0.531113 -0.404468 -0.599 104 116 142
0.524409 -0.390963 -0.579 122 108 107
0.485423 -0.355175 -0.526 155 119 103
0.477379 -0.345722 -0.512 162 125 107
0.474729 -0.334243 -0.495 173 130 111
0.47824 -0.329516 -0.488 173 128 105
0.479115 -0.328841 -0.487 170 125 102
0.0490162 -0.325706 -0.481 153 114 97
0.0690486 -0.343311 -0.507 112 86 85
0.0886419 -0.364303 -0.538 100 81 85
0.121917 -0.406963 -0.601 209 211 232
0.131948 -0.409671 -0.605 183 189 211
0.18611 -0.409671 -0.605 193 199 213
0.188103 -0.408994 -0.604 194 202 215
0.222617 -0.408994 -0.604 185 191 205
0.287717 -0.408317 -0.603 159 167 190
0.314134 -0.408317 -0.603 154 166 188
0.369266 -0.408317 -0.603 53 92 147
0.378454 -0.408317 -0.603 167 168 188
0.391089 -0.408317 -0.603 36 66 130
0.40602 -0.408317 -0.603 158 166 177
0.407169 -0.408317 -0.603 126 134 145
0.43172 -0.40764 -0.602 65 102 157
0.437453 -0.40764 -0.602 167 173 185
0.440893 -0.40764 -0.602 167 173 185
0.445071 -0.408317 -0.603 172 176 185
0.450814 -0.408317 -0.603 60 76 110
0.495933 -0.40764 -0.602 73 98 138
0.517143 -0.406286 -0.6 146 152 178
0.529972 -0.405609 -0.599 161 169 192
0.475614 -0.343311 -0.507 164 125 108
0.47564 -0.342634 -0.506 165 126 109
0.474736 -0.340603 -0.503 167 126 108
0.473811 -0.337217 -0.498 168 125 106
0.474729 -0.335186 -0.495 173 130 113
0.481767 -0.328414 -0.485 172 130 108
0.485462 -0.328414 -0.485 169 127 105
0.49674 -0.329769 -0.487 160 120 95
0.0165971 -0.319831 -0.471 206 165 137
0.0201857 -0.319831 -0.471 200 159 129
0.0265219 -0.32051 -0.472 199 158 130
0.0301181 -0.32051 -0.472 194 153 125
0.06308 -0.338166 -0.498 125 96 92
0.0679486 -0.343598 -0.506 116 88 87
0.0764667 -0.351747 -0.518 102 83 85
0.121917 -0.408108 -0.601 220 217 236
0.139783 -0.410145 -0.604 202 205 224
0.159341 -0.410145 -0.604 204 209 229
0.16482 -0.409466 -0.603 134 150 183
0.166244 -0.410145 -0.604 144 163 196
0.176598 -0.410145 -0.604 116 134 170
0.1812 -0.410145 -0.604 187 191 216
0.190404 -0.410145 -0.604 190 196 212
0.192705 -0.410145 -0.604 128 139 167
0.236031 -0.409466 -0.603 73 104 159
0.261733 -0.410145 -0.604 79 104 158
0.282653 -0.408787 -0.602 150 159 190
0.286093 -0.408787 -0.602 160 170 195
0.337106 -0.409466 -0.603 21 55 118
0.338815 -0.410145 -0.604 36 70 133
0.353186 -0.409466 -0.603 131 139 160
0.363523 -0.409466 -0.603 38 77 136
0.378973 -0.408787 -0.602 164 169 188
0.384707 -0.408787 -0.602 133 139 151
0.4042 -0.408787 -0.602 131 146 179
0.41108 -0.408787 -0.602 175 181 195
0.433292 -0.408108 -0.601 101 133 184
0.445071 -0.409466 -0.603 171 175 186
0.454653 -0.408787 -0.602 106 129 171
0.461533 -0.408787 -0.602 114 132 168
0.478188 -0.330696 -0.487 173 128 107
0.0219333 -0.320048 -0.47 202 163 134
0.0328152 -0.32141 -0.472 194 153 125
0.0779019 -0.354776 -0.521 98 82 85
0.13266 -0.410614 -0.603 174 183 214
0.146443 -0.410614 -0.603 113 131 171
0.179751 -0.410614 -0.603 147 160 202
0.192386 -0.410614 -0.603 125 133 156
0.232586 -0.410614 -0.603 87 114 169
0.2494 -0.409933 -0.602 187 188 206
0.272786 -0.410614 -0.603 46 77 142
0.303293 -0.409933 -0.602 24 63 128
0.313613 -0.409933 -0.602 158 173 196
0.321106 -0.409252 -0.601 104 124 161
0.371475 -0.409252 -0.601 152 157 176
0.382923 -0.409252 -0.601 110 118 137
0.398467 -0.409933 -0.602 49 76 131
0.40764 -0.409933 -0.602 171 173 188
0.416121 -0.409252 -0.601 153 164 192
0.435582 -0.409252 -0.601 168 171 188
0.454653 -0.409933 -0.602 125 145 178
0.48332 -0.409933 -0.602 141 151 176
0.504268 -0.409252 -0.601 162 158 181
0.510286 -0.408571 -0.6 122 134 160
0.516 -0.408571 -0.6 163 168 188
0.511467 -0.381333 -0.56 123 103 115
0.475694 -0.342519 -0.503 165 127 106
0.475671 -0.337071 -0.495 170 129 111
0.4756 -0.335029 -0.492 175 134 114
0.503533 -0.333667 -0.49 146 112 87
0.0273629 -0.321626 -0.471 193 152 124
0.0346133 -0.322309 -0.472 188 147 119
0.0460752 -0.327089 -0.479 160 118 102
0.0470857 -0.327771 -0.48 157 118 103
0.0521952 -0.331186 -0.485 150 110 100
0.05542 -0.333917 -0.489 137 103 93
0.0726552 -0.349623 -0.512 105 86 88
0.0739181 -0.350989 -0.514 103 84 86
0.0874543 -0.366694 -0.537 99 83 86
0.138403 -0.411763 -0.603 152 165 197
0.14874 -0.411763 -0.603 156 170 207
0.17286 -0.411763 -0.603 123 142 184
0.186333 -0.41108 -0.602 190 195 214
0.189773 -0.41108 -0.602 196 199 214
0.23908 -0.41108 -0.602 99 133 196
0.250547 -0.41108 -0.602 175 182 208
0.253987 -0.41108 -0.602 131 146 175
0.257427 -0.41108 -0.602 116 129 164
0.25972 -0.41108 -0.602 81 103 161
0.277605 -0.410397 -0.601 63 93 147
0.310173 -0.41108 -0.602 129 144 177
0.334253 -0.41108 -0.602 24 55 119
0.3354 -0.41108 -0.602 24 55 119
0.34228 -0.41108 -0.602 149 165 199
0.35604 -0.41108 -0.602 64 86 127
0.377714 -0.409714 -0.6 164 173 190
0.382286 -0.409714 -0.6 113 124 144
0.405818 -0.410397 -0.601 147 157 184
0.434857 -0.409714 -0.6 170 172 187
0.506857 -0.409714 -0.6 82 87 117
0.510286 -0.409714 -0.6 135 146 174
0.511429 -0.409714 -0.6 149 162 181
