ply
format ascii 1.0
comment Created by Open3D
element vertex 1297
property double x
property double y
property double z
property uchar red
property uchar green
property uchar blue
end_header
0.17811 -0.455767 -0.565 164 171 179
0.189948 -0.455767 -0.565 148 160 174
0.240529 -0.455767 -0.565 190 194 197
0.320674 -0.45496 -0.564 176 179 188
0.321749 -0.45496 -0.564 175 178 187
0.452538 -0.455767 -0.565 133 142 157
0.457919 -0.455767 -0.565 151 152 154
0.472149 -0.45496 -0.564 80 109 139
0.47752 -0.45496 -0.564 67 91 119
0.479669 -0.45496 -0.564 55 77 118
0.487397 -0.454153 -0.563 146 152 150
0.48924 -0.39204 -0.486 169 125 100
0.48847 -0.385587 -0.478 156 115 87
0.489024 -0.383167 -0.475 174 127 101
0.4982 -0.379133 -0.47 179 134 105
0.511031 -0.376713 -0.467 173 126 96
0.523714 -0.37752 -0.468 161 117 82
0.844251 -0.46464 -0.576 121 120 115
0.847543 -0.46464 -0.576 124 125 119
0.851212 -0.465447 -0.577 122 123 117
0.859677 -0.46706 -0.579 94 95 90
0.859293 -0.466253 -0.578 91 92 87
0.865191 -0.46706 -0.579 84 85 80
0.89544 -0.47432 -0.588 105 106 100
-0.0190714 -0.359814 -0.445 191 151 115
-0.0182238 -0.359814 -0.445 190 150 114
0.0178838 -0.370326 -0.458 168 122 98
0.0395229 -0.385689 -0.477 112 88 78
0.0426914 -0.389731 -0.482 112 88 78
0.0537019 -0.403477 -0.499 103 82 77
0.0618067 -0.41318 -0.511 99 80 76
0.0817895 -0.442289 -0.547 103 99 116
0.0979124 -0.459269 -0.568 150 164 191
0.10727 -0.457651 -0.566 163 166 181
0.11178 -0.45846 -0.567 163 167 179
0.11934 -0.45846 -0.567 149 155 169
0.1215 -0.45846 -0.567 114 117 134
0.166271 -0.456843 -0.565 144 151 179
0.231919 -0.456843 -0.565 146 156 183
0.256217 -0.456034 -0.564 189 197 186
0.280926 -0.456034 -0.564 109 140 171
0.282 -0.456034 -0.564 109 143 181
0.442357 -0.455226 -0.563 32 64 103
0.44343 -0.455226 -0.563 36 68 107
0.477746 -0.455226 -0.563 61 89 128
0.48924 -0.392966 -0.486 170 124 101
0.49237 -0.382454 -0.473 179 132 106
0.528638 -0.380029 -0.47 154 118 86
0.623568 -0.435011 -0.538 195 198 187
0.8282 -0.46412 -0.574 120 119 115
0.842057 -0.465737 -0.576 127 126 121
0.850486 -0.467354 -0.578 117 120 113
0.862267 -0.468971 -0.58 95 97 94
0.877033 -0.46978 -0.581 104 105 100
-0.0304286 -0.364714 -0.45 190 152 116
-0.00974762 -0.360662 -0.445 186 143 109
0.000427619 -0.363904 -0.449 182 139 107
0.0125667 -0.368767 -0.455 174 128 102
0.0630257 -0.415774 -0.513 100 81 77
0.0678476 -0.421448 -0.52 98 80 76
0.106005 -0.457919 -0.565 158 164 178
0.123442 -0.45873 -0.566 139 144 163
0.125598 -0.45873 -0.566 144 148 160
0.152281 -0.457919 -0.565 33 65 126
0.154433 -0.457919 -0.565 38 67 125
0.160606 -0.457109 -0.564 55 81 140
0.186389 -0.457109 -0.564 160 171 177
0.234731 -0.457109 -0.564 183 191 212
0.445574 -0.456298 -0.563 35 62 107
0.462732 -0.456298 -0.563 79 88 105
0.483108 -0.456298 -0.563 136 149 166
0.488672 -0.455488 -0.562 138 142 143
0.494025 -0.455488 -0.562 127 144 162
0.520686 -0.440899 -0.544 122 97 92
0.494723 -0.404428 -0.499 156 117 100
0.48907 -0.39227 -0.484 171 125 101
0.495671 -0.381734 -0.471 181 134 108
0.513271 -0.376871 -0.465 167 124 90
0.537881 -0.384976 -0.475 140 106 81
0.827452 -0.466024 -0.575 120 119 115
0.85306 -0.469266 -0.579 101 103 98
0.882273 -0.472508 -0.583 95 96 90
0.0426914 -0.391568 -0.482 107 84 76
0.0717724 -0.428125 -0.527 94 79 76
0.07448 -0.432187 -0.532 93 78 75
0.0803048 -0.441935 -0.544 98 101 120
0.0817895 -0.444372 -0.547 95 98 117
0.1017 -0.458995 -0.565 135 146 176
0.1243 -0.458995 -0.565 95 101 115
0.135897 -0.458183 -0.564 166 168 183
0.196057 -0.458183 -0.564 195 195 205
0.198206 -0.458183 -0.564 194 198 210
0.221447 -0.45737 -0.563 111 138 185
0.238605 -0.45737 -0.563 173 176 185
0.241822 -0.45737 -0.563 197 200 209
0.46084 -0.456558 -0.562 138 147 164
0.462981 -0.456558 -0.562 57 83 118
0.506563 -0.424875 -0.523 135 105 94
0.493877 -0.382631 -0.471 181 134 106
0.824835 -0.468744 -0.577 25 28 21
0.832183 -0.467931 -0.576 128 129 124
0.861914 -0.472806 -0.582 93 95 90
0.865616 -0.473618 -0.583 85 87 82
0.875217 -0.472806 -0.582 105 107 102
0.877434 -0.472806 -0.582 76 77 71
-0.02072 -0.361543 -0.444 191 151 116
-0.0156457 -0.361543 -0.444 191 148 116
-0.0131086 -0.361543 -0.444 191 148 116
-0.00892 -0.363171 -0.446 185 140 109
-0.00128 -0.3648 -0.448 188 145 111
0.00817905 -0.368057 -0.452 178 132 106
0.0326067 -0.3819 -0.469 129 97 84
0.0355124 -0.384343 -0.472 124 94 86
0.0364886 -0.385157 -0.473 123 93 85
0.0375476 -0.386786 -0.475 119 92 83
0.0480667 -0.399 -0.49 103 82 79
0.05712 -0.4104 -0.504 101 82 78
0.109233 -0.460071 -0.565 160 162 177
0.449065 -0.457629 -0.562 108 119 137
0.450135 -0.457629 -0.562 106 111 117
0.451206 -0.457629 -0.562 135 140 146
0.477117 -0.456814 -0.561 44 77 122
0.502738 -0.419357 -0.515 137 107 96
0.498771 -0.412029 -0.506 147 114 99
0.492229 -0.384343 -0.472 176 129 101
0.497305 -0.382714 -0.47 181 136 105
0.503915 -0.380271 -0.467 175 131 96
0.507274 -0.379457 -0.466 173 129 94
0.5293 -0.3819 -0.469 149 114 86
0.54492 -0.389229 -0.478 140 108 83
0.626642 -0.438086 -0.538 188 184 183
0.865616 -0.474729 -0.583 105 107 102
0.873 -0.473914 -0.582 125 127 122
0.878942 -0.474729 -0.583 87 88 83
-0.0139543 -0.362389 -0.444 188 145 113
-0.00974762 -0.363205 -0.445 185 142 110
-0.00468286 -0.364837 -0.447 184 140 111
0.000427619 -0.36647 -0.449 186 143 109
0.003 -0.367286 -0.45 184 139 110
0.0152 -0.372183 -0.456 169 125 98
0.0160686 -0.372183 -0.456 168 124 97
0.0316457 -0.381977 -0.468 130 98 87
0.0537019 -0.407279 -0.499 100 80 79
0.0560486 -0.410544 -0.503 101 83 81
0.0629029 -0.41789 -0.512 98 80 78
0.06536 -0.421154 -0.516 99 81 81
0.0973952 -0.461148 -0.565 43 66 110
0.114411 -0.460331 -0.564 112 115 132
0.127303 -0.460331 -0.564 160 164 175
0.138873 -0.459515 -0.563 155 169 196
0.143163 -0.459515 -0.563 52 80 128
0.194637 -0.459515 -0.563 197 200 209
0.230688 -0.458699 -0.562 102 118 152
0.232829 -0.458699 -0.562 107 121 156
0.23604 -0.458699 -0.562 153 168 189
0.268154 -0.458699 -0.562 192 196 205
0.270295 -0.458699 -0.562 197 197 207
0.455746 -0.457883 -0.561 154 157 162
0.46002 -0.457883 -0.561 120 135 154
0.507531 -0.427684 -0.524 130 102 91
0.489992 -0.395036 -0.484 169 127 103
0.489804 -0.393404 -0.482 169 125 100
0.5115 -0.379529 -0.465 170 126 91
0.515703 -0.378712 -0.464 167 123 88
0.51747 -0.378712 -0.464 167 123 86
0.521243 -0.379529 -0.465 163 120 85
0.834727 -0.470942 -0.577 119 120 115
0.847546 -0.472574 -0.579 104 105 99
0.871169 -0.475839 -0.583 103 105 100
-0.00805238 -0.364052 -0.445 186 141 110
-0.00128 -0.366507 -0.448 188 143 110
0.020501 -0.374688 -0.458 157 115 91
0.0250257 -0.377142 -0.461 153 110 93
0.0306229 -0.381232 -0.466 135 97 86
0.0548714 -0.409866 -0.501 99 81 81
0.107774 -0.460588 -0.563 163 164 185
0.12386 -0.460588 -0.563 143 147 159
0.165389 -0.45977 -0.562 102 121 151
0.184657 -0.45977 -0.562 190 196 208
0.187869 -0.45977 -0.562 195 199 211
0.199644 -0.45977 -0.562 142 153 181
0.32538 -0.458951 -0.561 166 172 186
0.329654 -0.458951 -0.561 185 192 202
0.455746 -0.458951 -0.561 155 159 168
0.470933 -0.458133 -0.56 21 55 101
0.474133 -0.458133 -0.56 15 53 102
0.482667 -0.458133 -0.56 81 102 119
0.503714 -0.422137 -0.516 138 104 94
0.491253 -0.39923 -0.488 166 126 101
0.495514 -0.384505 -0.47 175 130 101
0.505499 -0.381232 -0.466 171 127 92
0.525914 -0.381232 -0.466 149 114 86
0.53808 -0.386141 -0.472 139 109 81
0.84388 -0.472859 -0.578 101 102 96
0.850114 -0.474495 -0.58 61 62 56
0.852324 -0.474495 -0.58 93 94 88
0.878225 -0.477768 -0.584 104 106 101
0.879337 -0.477768 -0.584 102 104 99
-0.0328533 -0.36736 -0.448 187 152 120
0.0143 -0.3731 -0.455 171 126 97
0.0481648 -0.40262 -0.491 102 82 81
0.06536 -0.42312 -0.516 97 78 80
0.103485 -0.46166 -0.563 166 163 180
0.136486 -0.46084 -0.562 159 166 185
0.14612 -0.46084 -0.562 100 119 161
0.239894 -0.46002 -0.561 190 194 206
0.456 -0.4592 -0.56 151 161 173
0.4592 -0.4592 -0.56 86 104 126
0.486933 -0.4592 -0.56 102 104 116
0.516091 -0.43952 -0.536 122 99 85
0.513253 -0.43624 -0.532 126 100 87
0.499757 -0.41574 -0.507 144 112 97
0.498748 -0.4141 -0.505 145 112 97
0.492333 -0.4018 -0.49 161 124 98
0.4899 -0.39606 -0.483 167 127 102
0.489704 -0.39442 -0.481 170 130 104
0.4898 -0.38868 -0.474 172 128 103
0.492083 -0.38622 -0.471 178 132 106
0.495514 -0.3854 -0.47 174 128 102
0.499646 -0.38376 -0.468 177 132 101
0.506186 -0.3813 -0.465 171 127 92
0.52189 -0.38048 -0.464 153 116 87
0.834311 -0.47478 -0.579 122 123 118
0.838375 -0.47396 -0.578 101 102 97
-0.0350229 -0.373145 -0.454 187 147 112
-0.03278 -0.367391 -0.447 190 154 122
-0.0189429 -0.363282 -0.442 192 149 115
-0.0156105 -0.364104 -0.443 192 149 114
-0.00212857 -0.367391 -0.447 189 144 113
0.00385714 -0.369857 -0.45 182 137 108
0.00817905 -0.371501 -0.452 176 130 104
0.0231686 -0.377254 -0.459 152 111 91
0.0268981 -0.380542 -0.463 145 106 89
0.0306229 -0.383008 -0.466 132 99 84
0.10116 -0.46191 -0.562 148 155 183
0.103301 -0.46191 -0.562 166 165 183
0.109724 -0.46191 -0.562 162 164 177
0.127922 -0.46191 -0.562 170 173 190
0.148261 -0.46191 -0.562 76 104 151
0.186466 -0.461089 -0.561 200 203 212
0.201426 -0.461089 -0.561 141 159 179
0.202494 -0.461089 -0.561 178 196 216
0.460267 -0.460267 -0.56 70 88 112
0.4624 -0.460267 -0.56 51 73 112
0.486064 -0.459445 -0.559 124 128 137
0.4976 -0.460267 -0.56 44 68 104
0.5031 -0.459445 -0.559 17 44 91
0.506294 -0.459445 -0.559 25 51 86
0.494529 -0.406843 -0.495 153 118 98
0.489804 -0.396158 -0.482 166 125 103
0.493724 -0.386295 -0.47 184 140 113
0.500357 -0.38383 -0.467 174 129 98
0.502836 -0.383008 -0.466 170 125 94
0.504414 -0.382186 -0.465 173 128 97
0.508632 -0.381364 -0.464 171 126 93
0.511946 -0.380542 -0.463 170 125 92
0.515473 -0.380542 -0.463 165 124 92
0.519001 -0.380542 -0.463 158 119 88
0.529465 -0.383008 -0.466 148 113 83
0.834648 -0.476705 -0.58 124 124 122
0.838723 -0.475883 -0.579 127 128 123
0.88424 -0.48328 -0.588 102 104 99
-0.0471467 -0.448152 -0.544 182 143 114
-0.00635714 -0.366595 -0.445 184 141 109
-0.00127714 -0.368243 -0.447 189 144 113
0.00816095 -0.371538 -0.451 176 131 102
0.0160686 -0.375657 -0.456 166 122 97
0.0195857 -0.376481 -0.457 156 114 92
0.0396057 -0.393781 -0.478 111 88 80
0.0481648 -0.40449 -0.491 103 82 77
0.0493 -0.406138 -0.493 102 81 76
0.0679781 -0.429205 -0.521 92 76 77
0.0776571 -0.444857 -0.54 85 82 93
0.10116 -0.462981 -0.562 135 144 173
0.114871 -0.462157 -0.561 164 166 178
0.11594 -0.462157 -0.561 153 155 167
0.120214 -0.462157 -0.561 162 164 176
0.121283 -0.462157 -0.561 168 170 183
0.213867 -0.461333 -0.56 135 158 190
0.227733 -0.461333 -0.56 199 205 217
0.237333 -0.461333 -0.56 173 190 206
0.239467 -0.461333 -0.56 169 178 195
0.445603 -0.46051 -0.559 38 62 100
0.484999 -0.46051 -0.559 143 151 162
0.490323 -0.46051 -0.559 103 119 142
0.491388 -0.46051 -0.559 99 120 139
0.496711 -0.46051 -0.559 67 90 122
0.489804 -0.397076 -0.482 164 126 103
0.490569 -0.389662 -0.473 174 132 107
0.49043 -0.388838 -0.472 177 135 110
0.498578 -0.384719 -0.467 177 132 103
0.515473 -0.381424 -0.463 168 125 91
0.63941 -0.445681 -0.541 96 92 89
0.891003 -0.486871 -0.591 101 103 100
-0.02394 -0.36414 -0.441 193 154 115
-0.0164171 -0.364966 -0.442 191 148 113
-0.00467238 -0.368269 -0.446 187 144 112
0.0222943 -0.379003 -0.459 150 109 91
0.0268981 -0.382306 -0.463 141 101 89
0.0437905 -0.399646 -0.484 103 83 76
0.0776571 -0.445886 -0.54 89 88 106
0.0792686 -0.449189 -0.544 83 82 100
0.10846 -0.463226 -0.561 162 164 176
0.114871 -0.463226 -0.561 166 169 176
0.119146 -0.463226 -0.561 166 169 178
0.135174 -0.463226 -0.561 113 125 151
0.136243 -0.463226 -0.561 92 111 143
0.152 -0.4624 -0.56 88 113 153
0.1552 -0.4624 -0.56 96 120 158
0.194667 -0.4624 -0.56 171 182 200
0.204267 -0.4624 -0.56 201 203 215
0.446668 -0.461574 -0.559 48 76 113
0.487129 -0.461574 -0.559 141 150 167
0.488193 -0.461574 -0.559 138 147 164
0.502035 -0.461574 -0.559 25 58 101
0.521331 -0.460749 -0.558 126 133 139
0.523457 -0.460749 -0.558 113 117 126
0.508467 -0.434326 -0.526 126 99 88
0.493338 -0.405426 -0.491 157 121 99
0.489147 -0.39304 -0.476 170 130 105
0.489024 -0.392214 -0.475 170 128 103
0.5053 -0.383957 -0.465 175 130 99
0.507749 -0.383131 -0.464 174 129 100
0.5093 -0.382306 -0.463 174 129 100
0.511064 -0.382306 -0.463 174 129 98
0.521647 -0.382306 -0.463 158 119 88
0.53124 -0.384783 -0.466 149 112 85
0.53327 -0.385609 -0.467 149 112 85
0.540529 -0.388911 -0.471 145 109 83
0.849367 -0.47974 -0.581 99 102 95
-0.0122352 -0.366635 -0.443 187 144 109
0.00128 -0.370773 -0.448 182 137 106
0.012539 -0.375739 -0.454 169 123 97
0.0386143 -0.394774 -0.477 113 88 81
0.0537019 -0.412982 -0.499 101 83 81
0.0583105 -0.418775 -0.506 100 80 79
0.0762029 -0.444431 -0.537 95 79 79
0.077801 -0.447742 -0.541 97 99 122
0.0947371 -0.465122 -0.562 128 141 173
0.0999114 -0.464294 -0.561 82 97 130
0.107391 -0.464294 -0.561 163 165 180
0.130667 -0.463467 -0.56 166 172 184
0.134933 -0.463467 -0.56 80 96 129
0.1392 -0.463467 -0.56 166 177 197
0.144533 -0.463467 -0.56 113 133 166
0.146667 -0.463467 -0.56 87 107 144
0.191467 -0.463467 -0.56 201 201 211
0.195733 -0.463467 -0.56 95 107 131
0.208161 -0.462639 -0.559 139 156 182
0.222003 -0.462639 -0.559 148 175 205
0.230521 -0.462639 -0.559 204 206 219
0.43524 -0.461811 -0.558 24 51 98
0.452246 -0.461811 -0.558 125 141 157
0.461574 -0.462639 -0.559 68 84 110
0.465 -0.461811 -0.558 66 99 142
0.474566 -0.461811 -0.558 72 102 140
0.505067 -0.463467 -0.56 30 58 98
0.509489 -0.462639 -0.559 60 78 102
0.489704 -0.398085 -0.481 168 128 103
0.4896 -0.397257 -0.48 169 129 104
0.489024 -0.393119 -0.475 170 128 103
0.505097 -0.384015 -0.464 174 129 100
0.526056 -0.383188 -0.463 152 111 81
0.850473 -0.480847 -0.581 105 105 103
0.85709 -0.48333 -0.584 103 108 104
-0.00970381 -0.367479 -0.443 187 143 108
0.0437905 -0.40149 -0.484 101 80 75
0.133867 -0.464533 -0.56 76 96 133
0.151729 -0.463704 -0.559 95 118 159
0.153858 -0.463704 -0.559 97 119 158
0.19219 -0.463704 -0.559 194 201 217
0.447994 -0.462874 -0.558 122 142 166
0.454371 -0.462874 -0.558 153 162 171
0.45756 -0.462874 -0.558 147 155 168
0.460749 -0.462874 -0.558 76 88 110
0.470314 -0.462874 -0.558 40 72 119
0.474566 -0.462874 -0.558 72 101 133
0.504 -0.464533 -0.56 68 85 113
0.49766 -0.415591 -0.501 144 113 95
0.489531 -0.391535 -0.472 173 132 102
0.502446 -0.384899 -0.464 173 128 97
0.50908 -0.38324 -0.462 175 130 99
0.517637 -0.38241 -0.461 160 119 89
0.5214 -0.38324 -0.462 159 120 89
0.52896 -0.384899 -0.464 147 111 85
-0.0375343 -0.376637 -0.453 184 145 112
-0.0362667 -0.37248 -0.448 187 147 112
-0.0305905 -0.365829 -0.44 192 154 117
-0.0238857 -0.365829 -0.44 190 151 112
-0.02058 -0.36666 -0.441 193 150 115
0.000425714 -0.371649 -0.447 180 135 106
0.00814286 -0.374143 -0.45 173 127 103
0.0142686 -0.377469 -0.454 165 120 99
0.0240952 -0.382457 -0.46 146 105 87
0.0470371 -0.406569 -0.489 101 82 78
0.0581952 -0.419871 -0.505 97 81 81
0.0720448 -0.439826 -0.529 88 74 74
0.115733 -0.4656 -0.56 165 166 171
0.12298 -0.464769 -0.559 169 172 181
0.185801 -0.464769 -0.559 188 194 206
0.217354 -0.463937 -0.558 156 177 208
0.431277 -0.463106 -0.557 73 101 149
0.433399 -0.463106 -0.557 31 62 109
0.438704 -0.463106 -0.557 33 56 106
0.445869 -0.463937 -0.558 125 150 181
0.473287 -0.464769 -0.559 61 90 132
0.48074 -0.464769 -0.559 109 121 133
0.486933 -0.4656 -0.56 147 154 162
0.496351 -0.466431 -0.561 108 117 124
0.498489 -0.466431 -0.561 109 112 121
0.525583 -0.463937 -0.558 116 112 111
0.50469 -0.429849 -0.517 131 104 93
0.499735 -0.420703 -0.506 139 107 92
0.491038 -0.390771 -0.47 179 135 108
0.498578 -0.388277 -0.467 177 134 102
0.4991 -0.386614 -0.465 176 133 101
0.504213 -0.385783 -0.464 174 129 98
0.505097 -0.385783 -0.464 174 129 98
0.506654 -0.384951 -0.463 169 124 91
-0.0322667 -0.366667 -0.44 192 152 117
-0.02142 -0.3675 -0.441 192 149 114
-0.00803429 -0.37 -0.444 190 146 111
0.0195429 -0.38 -0.456 150 107 88
0.02778 -0.385833 -0.463 142 100 88
0.0365657 -0.395 -0.474 114 87 78
0.0386143 -0.3975 -0.477 110 83 76
0.0986667 -0.466667 -0.56 102 116 143
0.102933 -0.466667 -0.56 66 86 119
0.135757 -0.465833 -0.559 170 178 201
0.444009 -0.464167 -0.557 96 119 151
0.44507 -0.464167 -0.557 118 141 173
0.455434 -0.465 -0.558 157 167 169
0.460749 -0.465 -0.558 97 113 126
0.466063 -0.465 -0.558 69 97 137
0.4816 -0.466667 -0.56 101 111 120
0.507531 -0.436667 -0.524 113 99 96
0.504666 -0.4325 -0.519 117 102 97
0.492102 -0.405833 -0.487 155 117 96
0.493567 -0.390833 -0.469 179 135 108
0.498398 -0.388333 -0.466 180 137 105
0.54707 -0.393333 -0.472 138 103 81
-0.0483143 -0.446017 -0.534 182 144 108
-0.0386514 -0.380869 -0.456 177 139 103
-0.034939 -0.369175 -0.442 191 151 116
-0.0288486 -0.36667 -0.439 193 150 116
-0.0280124 -0.36667 -0.439 187 144 110
-0.02634 -0.36667 -0.439 187 144 110
-0.0147 -0.36834 -0.441 190 147 112
-0.00549714 -0.370846 -0.444 188 144 109
0.00642857 -0.375857 -0.45 176 130 106
0.0326067 -0.391727 -0.469 118 91 80
0.0355876 -0.395068 -0.473 113 88 83
0.0365657 -0.395903 -0.474 112 87 82
0.0514895 -0.414278 -0.496 99 81 77
0.0605952 -0.425136 -0.509 94 80 80
0.0721809 -0.442676 -0.53 90 75 78
0.116383 -0.466063 -0.558 149 148 162
0.124045 -0.466898 -0.559 167 169 184
0.192909 -0.466063 -0.558 129 147 185
0.19716 -0.466063 -0.558 202 203 221
0.199286 -0.466063 -0.558 206 207 225
0.2046 -0.466063 -0.558 195 201 217
0.397672 -0.464392 -0.556 73 110 154
0.435798 -0.464392 -0.556 40 71 117
0.439765 -0.465228 -0.557 38 66 113
0.449057 -0.466063 -0.558 163 166 171
0.492077 -0.468569 -0.561 138 136 137
0.503483 -0.470239 -0.563 136 136 134
0.510082 -0.469404 -0.562 121 124 129
0.52546 -0.466898 -0.559 110 107 100
0.492102 -0.406761 -0.487 155 117 96
0.491929 -0.40509 -0.485 157 116 94
0.49082 -0.40342 -0.483 159 118 96
0.489492 -0.400079 -0.479 167 127 102
0.489391 -0.393397 -0.471 173 132 102
0.504009 -0.386715 -0.463 173 128 97
0.5082 -0.38588 -0.462 174 129 96
0.520019 -0.38421 -0.46 163 120 88
0.520895 -0.38421 -0.46 162 119 87
0.521771 -0.38421 -0.46 161 118 86
0.522648 -0.38421 -0.46 156 117 88
0.536566 -0.389221 -0.466 146 108 85
0.546809 -0.393397 -0.471 140 105 83
-0.0511029 -0.453731 -0.542 185 147 111
-0.0313571 -0.367506 -0.439 190 150 115
0.00298667 -0.37504 -0.448 174 128 102
0.00814286 -0.376714 -0.45 173 127 103
0.02778 -0.387597 -0.463 134 101 84
0.0365657 -0.396806 -0.474 112 87 83
0.0375476 -0.397643 -0.475 109 85 83
0.0537019 -0.417734 -0.499 99 81 79
0.06536 -0.431966 -0.516 91 75 76
0.0693676 -0.438663 -0.524 95 75 76
0.0995552 -0.467963 -0.559 126 138 164
0.10788 -0.467126 -0.558 163 160 179
0.128074 -0.467126 -0.558 155 158 177
0.131263 -0.467126 -0.558 99 113 142
0.140576 -0.466289 -0.557 161 167 183
0.190441 -0.466289 -0.557 85 112 159
0.397672 -0.465451 -0.556 77 112 154
0.398731 -0.465451 -0.556 88 123 165
0.420971 -0.465451 -0.556 164 177 185
0.424149 -0.465451 -0.556 160 170 180
0.449057 -0.467126 -0.558 156 160 159
0.456497 -0.467126 -0.558 145 145 143
0.462874 -0.467126 -0.558 126 126 136
0.464769 -0.467963 -0.559 133 133 141
0.476267 -0.4688 -0.56 142 140 141
0.489743 -0.470474 -0.562 139 138 136
0.497236 -0.470474 -0.562 133 135 134
0.517054 -0.449546 -0.537 118 101 93
0.497619 -0.418571 -0.5 145 112 95
0.491929 -0.406014 -0.485 160 118 96
0.496623 -0.390109 -0.466 178 135 103
0.502245 -0.387597 -0.463 174 129 98
0.50489 -0.387597 -0.463 164 119 86
0.5363 -0.389271 -0.465 144 106 83
-0.00717238 -0.371698 -0.443 187 142 109
-0.00380571 -0.372537 -0.444 186 140 114
0.00212857 -0.375054 -0.447 175 129 103
0.00469333 -0.375893 -0.448 175 129 105
0.0195429 -0.382606 -0.456 154 108 93
0.0231686 -0.385123 -0.459 149 103 88
0.0287238 -0.389318 -0.464 126 97 81
0.0306886 -0.391835 -0.467 121 95 82
0.0375476 -0.398548 -0.475 108 84 80
0.0766286 -0.453086 -0.54 95 106 126
0.0972514 -0.468189 -0.558 156 159 176
0.102566 -0.468189 -0.558 66 80 106
0.136332 -0.46735 -0.557 176 178 190
0.235638 -0.46651 -0.556 159 172 189
0.374757 -0.465671 -0.555 34 70 130
0.409643 -0.465671 -0.555 86 114 153
0.419912 -0.46651 -0.556 169 177 180
0.490614 -0.472384 -0.563 143 143 145
0.493831 -0.472384 -0.563 142 142 142
0.51246 -0.47574 -0.567 125 124 122
0.495471 -0.415329 -0.495 148 113 94
0.494343 -0.412811 -0.492 151 114 96
0.492017 -0.407777 -0.486 155 117 98
0.50644 -0.38764 -0.462 174 129 98
0.537186 -0.390157 -0.465 146 108 85
-0.0238314 -0.369178 -0.439 189 149 113
0.0107381 -0.37927 -0.451 165 119 103
0.0133743 -0.380951 -0.453 161 115 99
0.0159981 -0.381792 -0.454 158 112 96
0.0667286 -0.436454 -0.519 90 75 80
0.07532 -0.452432 -0.538 92 106 132
0.101503 -0.469251 -0.558 129 137 160
0.127845 -0.46841 -0.557 90 103 135
0.129967 -0.46841 -0.557 173 188 211
0.138206 -0.46757 -0.556 180 179 197
0.192217 -0.46757 -0.556 143 164 207
0.198571 -0.46757 -0.556 202 205 220
0.451991 -0.470092 -0.559 152 153 155
0.4688 -0.470933 -0.56 152 154 153
0.47498 -0.471774 -0.561 150 151 153
0.476049 -0.471774 -0.561 148 149 151
0.485252 -0.473456 -0.563 144 144 146
0.493406 -0.393566 -0.468 173 132 102
0.495735 -0.391884 -0.466 181 138 106
0.51301 -0.386838 -0.46 170 125 92
0.519763 -0.385997 -0.459 165 120 89
0.544217 -0.393566 -0.468 142 106 82
-0.0304514 -0.369171 -0.438 195 155 120
-0.0179781 -0.370014 -0.439 188 145 110
-0.0138286 -0.370857 -0.44 190 147 113
-0.0105 -0.3717 -0.441 186 143 109
-0.00042381 -0.375071 -0.445 180 135 104
0.0133743 -0.381814 -0.453 162 117 98
0.0159981 -0.382657 -0.454 157 112 93
0.0168629 -0.382657 -0.454 157 111 95
0.043881 -0.408786 -0.485 106 81 74
0.0460114 -0.411314 -0.488 105 82 76
0.0535943 -0.419743 -0.498 102 82 81
0.0547619 -0.421429 -0.5 102 82 81
0.0681086 -0.439971 -0.522 87 71 74
0.103443 -0.469471 -0.557 129 141 167
0.11173 -0.468629 -0.556 135 145 170
0.19963 -0.468629 -0.556 203 209 221
0.207729 -0.467786 -0.555 117 145 193
0.209843 -0.467786 -0.555 110 141 185
0.3885 -0.467786 -0.555 179 189 190
0.405414 -0.467786 -0.555 90 113 145
0.429444 -0.468629 -0.556 158 159 163
0.436582 -0.469471 -0.557 158 157 153
0.44268 -0.470314 -0.558 158 158 166
0.450927 -0.471157 -0.559 159 159 159
0.490205 -0.476214 -0.565 140 142 141
0.490722 -0.406257 -0.482 162 122 97
0.495735 -0.392771 -0.466 180 135 104
0.5071 -0.388557 -0.461 176 131 100
0.514517 -0.386871 -0.459 167 124 90
0.52326 -0.386871 -0.459 157 116 84
-0.0312143 -0.369161 -0.437 195 153 115
-0.0270524 -0.369161 -0.437 188 145 111
-0.02622 -0.369161 -0.437 190 147 113
-0.0229429 -0.370006 -0.438 191 148 114
-0.0146667 -0.371695 -0.44 189 146 112
0.00726952 -0.379298 -0.449 169 123 97
0.0107381 -0.380988 -0.451 167 120 100
0.0460114 -0.412244 -0.488 105 82 76
0.0524343 -0.419002 -0.496 102 81 78
0.0709029 -0.446034 -0.528 87 71 71
0.0960162 -0.470532 -0.557 160 162 174
0.118296 -0.470532 -0.557 144 159 190
0.121261 -0.469688 -0.556 123 135 159
0.1369 -0.468843 -0.555 177 176 190
0.198214 -0.468843 -0.555 203 205 217
0.364585 -0.467998 -0.554 100 126 153
0.389557 -0.468843 -0.555 161 164 169
0.394843 -0.468843 -0.555 135 143 154
0.419912 -0.469688 -0.556 166 166 166
0.430216 -0.470532 -0.557 159 163 164
0.44268 -0.471377 -0.558 159 163 162
0.446931 -0.471377 -0.558 160 160 160
0.45625 -0.472222 -0.559 153 155 154
0.460267 -0.473067 -0.56 151 153 152
0.484604 -0.478135 -0.566 133 131 132
0.529592 -0.479825 -0.568 50 50 52
0.49979 -0.429984 -0.509 132 106 93
0.496741 -0.42407 -0.502 135 107 93
0.49891 -0.39197 -0.464 177 132 99
0.499599 -0.391125 -0.463 178 133 100
-0.0337886 -0.37084 -0.438 192 152 117
-0.0329543 -0.37084 -0.438 196 153 119
-0.0320467 -0.369993 -0.437 196 153 119
-0.0278848 -0.369993 -0.437 188 148 112
-0.02044 -0.37084 -0.438 190 147 112
-0.0163057 -0.371687 -0.439 186 144 106
-0.0105 -0.37338 -0.441 184 141 107
-0.00966 -0.37338 -0.441 185 142 108
-0.00465143 -0.37592 -0.444 181 136 105
0.0151 -0.38354 -0.453 157 112 93
0.0177276 -0.384387 -0.454 155 109 93
0.0316457 -0.39624 -0.468 117 93 81
0.0709029 -0.44704 -0.528 82 70 72
0.0979619 -0.470747 -0.556 157 164 172
0.10008 -0.470747 -0.556 160 163 170
0.120202 -0.470747 -0.556 118 139 170
0.127386 -0.4699 -0.555 127 146 188
0.357198 -0.469053 -0.554 182 191 196
0.384271 -0.4699 -0.555 155 156 160
0.394843 -0.4699 -0.555 166 170 173
0.398731 -0.470747 -0.556 169 173 174
0.413558 -0.470747 -0.556 169 171 170
0.42279 -0.471593 -0.557 170 170 170
0.425972 -0.471593 -0.557 172 170 171
0.43524 -0.47244 -0.558 161 165 164
0.445603 -0.473287 -0.559 157 157 157
0.451733 -0.474133 -0.56 155 155 155
0.469167 -0.476673 -0.563 134 132 133
0.499329 -0.48514 -0.573 95 91 92
0.495471 -0.4191 -0.495 140 109 91
0.49164 -0.408093 -0.482 161 120 100
0.490291 -0.404707 -0.478 162 122 97
0.498717 -0.392007 -0.463 177 132 101
0.50292 -0.39116 -0.462 174 129 98
0.506222 -0.390313 -0.461 174 129 96
0.5071 -0.390313 -0.461 176 131 98
0.521248 -0.387773 -0.458 159 118 86
0.52212 -0.387773 -0.458 160 117 85
0.525883 -0.38862 -0.459 155 114 84
-0.0295495 -0.370826 -0.437 188 148 113
-0.0237229 -0.370826 -0.437 187 147 112
-0.0228905 -0.370826 -0.437 187 147 112
-0.0121524 -0.373371 -0.44 187 144 110
-0.00798 -0.37422 -0.441 184 141 107
-0.00548476 -0.375917 -0.443 182 137 106
0.00383143 -0.379311 -0.447 175 130 101
0.00726952 -0.381009 -0.449 167 122 93
0.0159981 -0.385251 -0.454 154 109 90
0.0240429 -0.389494 -0.459 141 102 85
0.0346133 -0.400526 -0.472 114 87 80
0.0592743 -0.429377 -0.506 97 81 84
0.109414 -0.470957 -0.555 63 86 128
0.123157 -0.470957 -0.555 50 79 123
0.142985 -0.470109 -0.554 80 107 152
0.3239 -0.46926 -0.553 188 198 207
0.338647 -0.46926 -0.553 64 108 157
0.396613 -0.471806 -0.556 169 173 172
0.420668 -0.472654 -0.557 169 169 171
0.437366 -0.473503 -0.558 160 158 163
0.456 -0.4752 -0.56 132 131 129
0.470833 -0.479443 -0.565 114 110 111
0.49278 -0.486231 -0.573 75 75 77
0.49669 -0.487929 -0.575 73 71 74
0.535652 -0.484534 -0.571 46 45 51
0.534196 -0.480291 -0.566 42 41 47
0.534329 -0.479443 -0.565 41 40 46
0.53351 -0.477746 -0.563 40 39 45
0.49979 -0.431923 -0.509 125 102 88
0.489929 -0.403071 -0.475 159 122 95
0.510381 -0.390343 -0.46 174 128 95
0.52098 -0.387797 -0.457 159 118 86
0.527631 -0.389494 -0.459 158 117 85
0.547217 -0.395434 -0.466 134 99 77
-0.0391486 -0.37591 -0.442 186 148 112
-0.0372105 -0.373359 -0.439 189 149 114
-0.0245552 -0.371658 -0.437 186 146 111
-0.00714 -0.37506 -0.441 185 140 109
-0.00295333 -0.376761 -0.443 176 131 100
-0.000422857 -0.377611 -0.444 175 130 99
0.00042381 -0.378462 -0.445 175 130 99
0.0142057 -0.384415 -0.452 157 112 91
0.0306886 -0.397172 -0.467 122 92 81
0.0355876 -0.402275 -0.473 110 86 82
0.0546524 -0.424388 -0.499 101 82 78
0.0914429 -0.472014 -0.555 113 122 161
0.0979619 -0.472865 -0.556 149 157 170
0.119986 -0.472014 -0.555 65 98 141
0.1221 -0.472014 -0.555 50 82 129
0.128211 -0.471164 -0.554 168 171 188
0.209087 -0.470313 -0.553 92 127 183
0.364186 -0.472014 -0.555 182 185 190
0.374757 -0.472014 -0.555 179 179 179
0.386023 -0.472865 -0.556 178 177 182
0.387082 -0.472865 -0.556 178 179 184
0.391318 -0.472865 -0.556 181 185 186
0.414302 -0.473715 -0.557 166 167 169
0.415363 -0.473715 -0.557 165 167 166
0.430696 -0.475416 -0.559 158 161 154
0.529202 -0.471164 -0.554 27 24 31
0.499775 -0.432042 -0.508 128 105 91
0.495471 -0.420986 -0.495 138 109 93
0.493112 -0.415032 -0.488 147 114 97
0.490143 -0.399724 -0.47 173 129 102
0.495557 -0.395471 -0.465 178 135 103
0.496259 -0.394621 -0.464 175 132 100
0.498717 -0.39377 -0.463 178 133 102
0.50028 -0.39292 -0.462 178 133 102
0.506222 -0.39207 -0.461 179 134 101
0.506876 -0.391219 -0.46 173 128 95
0.515757 -0.388668 -0.457 170 125 92
0.527354 -0.389518 -0.458 156 115 85
0.544271 -0.395471 -0.465 135 99 75
-0.0399905 -0.376752 -0.442 188 148 113
-0.0353762 -0.37249 -0.437 189 149 114
0.00468286 -0.381014 -0.447 174 129 100
0.0231181 -0.39039 -0.458 140 103 85
0.0355876 -0.403176 -0.473 109 85 81
0.0417733 -0.410848 -0.482 103 79 77
0.0448971 -0.414257 -0.486 104 80 78
0.0460114 -0.415962 -0.488 103 82 79
0.074019 -0.456876 -0.536 91 99 122
0.120825 -0.472219 -0.554 48 78 128
0.12188 -0.472219 -0.554 41 73 124
0.131377 -0.472219 -0.554 178 180 192
0.328113 -0.471367 -0.553 177 182 185
0.350867 -0.472219 -0.554 179 184 187
0.364186 -0.473071 -0.555 186 185 193
0.369471 -0.473071 -0.555 181 181 183
0.395205 -0.474776 -0.557 178 179 183
0.413983 -0.475629 -0.558 164 166 165
0.416109 -0.475629 -0.558 158 160 157
0.430696 -0.476481 -0.559 139 133 135
0.454417 -0.479038 -0.562 82 80 83
0.464629 -0.480743 -0.564 65 61 62
0.539195 -0.485005 -0.569 18 17 25
0.53838 -0.4833 -0.567 17 16 24
0.531112 -0.473924 -0.556 15 18 27
0.49558 -0.423633 -0.497 137 108 92
0.496443 -0.396357 -0.465 177 132 101
0.505344 -0.392948 -0.461 176 131 100
0.512524 -0.39039 -0.458 167 122 89
-0.0121248 -0.375031 -0.439 189 144 111
0.0159629 -0.386991 -0.453 157 115 93
0.0316457 -0.399806 -0.468 116 89 82
0.0568933 -0.428851 -0.502 98 80 76
0.0654867 -0.441666 -0.517 92 71 76
0.0860019 -0.473274 -0.554 73 88 117
0.0902229 -0.473274 -0.554 76 91 134
0.114493 -0.473274 -0.554 81 103 150
0.117659 -0.473274 -0.554 42 68 117
0.347701 -0.473274 -0.554 186 187 191
0.368019 -0.474983 -0.556 189 190 192
0.395914 -0.476691 -0.558 174 172 173
0.403012 -0.477546 -0.559 167 165 168
0.4272 -0.4784 -0.56 113 113 115
0.431467 -0.4784 -0.56 104 105 109
0.4336 -0.4784 -0.56 102 101 106
0.46926 -0.48438 -0.567 61 59 64
0.477756 -0.488651 -0.572 60 58 63
0.498643 -0.499757 -0.585 58 57 63
0.505418 -0.503174 -0.589 58 57 62
0.49447 -0.422017 -0.494 140 109 89
0.490143 -0.401514 -0.47 169 127 102
0.492351 -0.398951 -0.467 178 134 107
0.49396 -0.398097 -0.466 174 129 100
0.503588 -0.393826 -0.461 178 133 102
0.506 -0.392971 -0.46 174 129 98
0.511894 -0.392117 -0.459 172 127 96
-0.0432857 -0.385286 -0.45 187 147 112
-0.0294143 -0.372443 -0.435 191 148 113
-0.012961 -0.375868 -0.439 189 144 111
-0.0112886 -0.375868 -0.439 189 144 111
-0.0079619 -0.376724 -0.44 185 140 109
0.0064 -0.383573 -0.448 169 123 99
0.0133152 -0.386142 -0.451 160 114 91
0.0213267 -0.391279 -0.457 142 103 86
0.03672 -0.407547 -0.476 104 80 80
0.043881 -0.415252 -0.485 100 79 76
0.0953267 -0.473473 -0.553 157 159 172
0.103753 -0.473473 -0.553 130 138 151
0.115549 -0.47433 -0.554 70 96 145
0.123767 -0.473473 -0.553 118 138 173
0.18768 -0.472617 -0.552 136 165 205
0.190834 -0.472617 -0.552 140 163 194
0.302788 -0.471761 -0.551 78 98 135
0.337149 -0.47433 -0.554 187 188 192
0.350443 -0.475186 -0.555 187 188 190
0.395914 -0.477754 -0.558 158 158 160
0.424 -0.479467 -0.56 89 88 93
0.43729 -0.481179 -0.562 67 66 71
0.487752 -0.49659 -0.58 57 56 61
0.50998 -0.507721 -0.593 57 56 62
0.515183 -0.457206 -0.534 98 87 91
0.512333 -0.453781 -0.53 109 89 82
0.50853 -0.448644 -0.524 121 95 82
0.49558 -0.425527 -0.497 137 108 90
0.492183 -0.417821 -0.488 145 114 93
0.50028 -0.39556 -0.462 176 133 101
0.507523 -0.392991 -0.459 177 132 103
0.511651 -0.392135 -0.458 169 124 95
0.515757 -0.391279 -0.457 170 127 95
-0.0567686 -0.460797 -0.537 185 146 113
-0.0310714 -0.373271 -0.435 193 150 115
-0.0178962 -0.374988 -0.437 186 141 108
-0.000422857 -0.380994 -0.444 173 127 101
0.0297352 -0.399872 -0.466 124 94 84
0.0377057 -0.409311 -0.477 104 83 82
0.0513857 -0.424757 -0.495 101 82 78
0.0870571 -0.475385 -0.554 69 87 125
0.110926 -0.473669 -0.552 29 59 111
0.133006 -0.473669 -0.552 177 181 192
0.140366 -0.473669 -0.552 83 106 138
0.336093 -0.475385 -0.554 184 185 187
0.346214 -0.476243 -0.555 186 187 189
0.348956 -0.477101 -0.556 187 188 190
0.43485 -0.483108 -0.563 59 58 64
0.442069 -0.483966 -0.564 60 59 65
0.456843 -0.484824 -0.565 59 58 66
0.469831 -0.488256 -0.569 58 57 63
0.510437 -0.452216 -0.527 113 94 88
0.49347 -0.423041 -0.493 140 109 89
0.49174 -0.41446 -0.483 151 116 94
0.493406 -0.401589 -0.468 173 132 102
0.494671 -0.399014 -0.465 174 130 101
0.497835 -0.397298 -0.463 173 130 98
0.506222 -0.395582 -0.461 175 130 99
0.517234 -0.391291 -0.456 169 126 94
0.5213 -0.390433 -0.455 162 117 86
0.541001 -0.39215 -0.457 135 100 80
-0.0396286 -0.37668 -0.438 187 147 112
-0.0186857 -0.37496 -0.436 187 143 106
-0.0145667 -0.37582 -0.437 184 139 108
-0.00712381 -0.3784 -0.44 179 134 105
-0.0063 -0.37926 -0.441 176 131 102
0.00983524 -0.38614 -0.449 164 119 96
0.0195 -0.3913 -0.455 147 109 90
0.0259038 -0.39646 -0.461 131 98 83
0.0870571 -0.47644 -0.554 66 88 129
0.110926 -0.47472 -0.552 31 58 113
0.111977 -0.47472 -0.552 31 58 113
0.115131 -0.47472 -0.552 37 63 114
0.1185 -0.47558 -0.553 36 59 111
0.301738 -0.47386 -0.551 185 187 186
0.302788 -0.47386 -0.551 185 187 186
0.319687 -0.47558 -0.553 182 186 187
0.366154 -0.47988 -0.558 162 161 166
0.367217 -0.47988 -0.558 162 161 166
0.374264 -0.48074 -0.559 149 148 154
0.390563 -0.48246 -0.561 114 113 119
0.41588 -0.48332 -0.562 65 62 69
0.428416 -0.48418 -0.563 60 58 69
0.455495 -0.48676 -0.566 55 54 62
0.465496 -0.48934 -0.569 57 56 62
0.50469 -0.44462 -0.517 125 98 81
0.491836 -0.41624 -0.484 147 115 92
0.49174 -0.41538 -0.483 149 114 92
0.493241 -0.40162 -0.467 173 132 102
0.49396 -0.40076 -0.466 172 131 101
0.498717 -0.39818 -0.463 173 130 98
0.503371 -0.3956 -0.46 174 129 98
0.509907 -0.39388 -0.458 172 128 99
0.516366 -0.39216 -0.456 172 129 95
0.5355 -0.39474 -0.459 149 107 82
-0.03348 -0.374067 -0.434 194 152 114
-0.0186857 -0.37579 -0.436 185 143 105
-0.0120971 -0.377514 -0.438 187 142 109
0.00468286 -0.385271 -0.447 169 123 100
0.0124562 -0.388719 -0.451 159 117 92
0.0231686 -0.395614 -0.459 136 99 81
0.0287857 -0.400786 -0.465 126 94 79
0.0605952 -0.43871 -0.509 93 77 77
0.100411 -0.475771 -0.552 156 158 173
0.12144 -0.475771 -0.552 103 122 164
0.122491 -0.475771 -0.552 131 150 192
0.123319 -0.47491 -0.551 150 165 196
0.132765 -0.47491 -0.551 168 177 186
0.138012 -0.47491 -0.551 106 117 139
0.14326 -0.47491 -0.551 58 92 155
0.223667 -0.474048 -0.55 203 212 221
0.268714 -0.474048 -0.55 130 139 148
0.269762 -0.474048 -0.55 136 145 154
0.273952 -0.474048 -0.55 156 161 157
0.281286 -0.474048 -0.55 183 190 200
0.312313 -0.476633 -0.553 187 193 189
0.337307 -0.479219 -0.556 175 174 179
0.363616 -0.481805 -0.559 142 141 147
0.364681 -0.481805 -0.559 139 138 144
0.43902 -0.4887 -0.567 60 59 67
0.449531 -0.489562 -0.568 57 57 65
0.456023 -0.489562 -0.568 54 53 61
0.47396 -0.494733 -0.574 31 30 36
0.475881 -0.495595 -0.575 26 26 36
0.49447 -0.425781 -0.494 141 108 89
0.490914 -0.417162 -0.484 145 113 90
0.49082 -0.4163 -0.483 146 114 93
0.491317 -0.412852 -0.479 155 119 95
0.490887 -0.404233 -0.469 167 126 98
0.492514 -0.403371 -0.468 172 131 103
0.4994 -0.3982 -0.462 175 131 102
0.51376 -0.393029 -0.456 170 125 92
0.534333 -0.394752 -0.458 151 107 82
0.540171 -0.396476 -0.46 142 107 79
-0.0178143 -0.375757 -0.435 185 142 108
0.00983524 -0.38785 -0.449 161 117 92
0.0124286 -0.388714 -0.45 159 115 90
0.0133152 -0.389578 -0.451 159 115 90
0.0480667 -0.423267 -0.49 102 81 76
0.07144 -0.459547 -0.532 67 83 109
0.106527 -0.475959 -0.551 87 111 149
0.114923 -0.475959 -0.551 31 56 110
0.133814 -0.475959 -0.551 168 181 189
0.138012 -0.475959 -0.551 90 101 129
0.139062 -0.475959 -0.551 70 97 142
0.280238 -0.475095 -0.55 194 194 196
0.291243 -0.475959 -0.551 188 192 191
0.320843 -0.479414 -0.555 177 177 179
0.330952 -0.480278 -0.556 170 168 171
0.341709 -0.482006 -0.558 162 160 165
0.363427 -0.485461 -0.562 116 115 120
0.377611 -0.487189 -0.564 79 78 84
0.412747 -0.490644 -0.568 58 57 65
0.41526 -0.48978 -0.567 59 58 66
0.43146 -0.48978 -0.567 56 56 66
0.43763 -0.490644 -0.568 56 56 64
0.491005 -0.418948 -0.485 143 111 90
0.490914 -0.418084 -0.484 144 112 91
0.49043 -0.407718 -0.472 164 124 98
0.490143 -0.40599 -0.47 166 127 98
0.495557 -0.401671 -0.465 177 133 104
0.497143 -0.400808 -0.464 172 128 99
0.498717 -0.399944 -0.463 177 133 104
0.511154 -0.393897 -0.456 170 126 89
-0.031 -0.37572 -0.434 191 149 109
-0.0203 -0.376586 -0.435 184 141 106
-0.00546 -0.38178 -0.441 173 128 99
0.00725333 -0.38784 -0.448 164 120 95
0.0107143 -0.389571 -0.45 159 115 88
0.0150667 -0.391303 -0.452 154 113 91
0.0159629 -0.392169 -0.453 152 111 89
0.0407705 -0.416409 -0.481 104 80 78
0.0448971 -0.420737 -0.486 104 80 78
0.0570067 -0.435454 -0.503 97 77 79
0.0876352 -0.477009 -0.551 51 78 125
0.0981305 -0.477009 -0.551 139 148 165
0.229534 -0.475277 -0.549 210 214 217
0.235809 -0.475277 -0.549 104 120 154
0.253586 -0.475277 -0.549 189 188 193
0.27445 -0.477009 -0.551 189 194 197
0.277599 -0.477009 -0.551 190 196 194
0.303337 -0.477874 -0.552 191 191 193
0.33852 -0.483069 -0.558 139 137 140
0.362571 -0.488263 -0.564 86 83 90
0.36429 -0.489129 -0.565 84 81 88
0.375962 -0.491726 -0.568 66 63 70
0.38029 -0.491726 -0.568 67 64 71
0.396734 -0.496054 -0.573 58 57 65
0.406881 -0.497786 -0.575 58 57 63
0.424648 -0.491726 -0.568 54 54 62
0.434829 -0.493457 -0.57 50 50 60
0.448339 -0.495189 -0.572 24 22 35
0.492102 -0.421603 -0.487 141 115 92
0.490405 -0.414677 -0.479 154 120 95
0.489929 -0.411214 -0.475 156 120 94
0.491038 -0.406886 -0.47 166 126 100
0.507523 -0.397363 -0.459 161 117 80
0.508793 -0.395631 -0.457 170 125 92
0.512023 -0.394766 -0.456 170 126 91
0.516967 -0.3939 -0.455 173 128 97
0.541048 -0.398229 -0.46 150 107 75
-0.0570381 -0.459838 -0.53 183 145 108
-0.0301038 -0.375679 -0.433 191 147 110
-0.0202533 -0.376547 -0.434 185 142 107
0.0115714 -0.390429 -0.45 156 112 87
0.0133152 -0.391296 -0.451 154 112 88
0.0141743 -0.391296 -0.451 155 113 89
0.0326762 -0.407781 -0.47 110 85 80
0.0366429 -0.412119 -0.475 103 82 79
0.0448971 -0.421663 -0.486 104 80 80
0.104238 -0.47719 -0.55 65 93 133
0.152151 -0.476323 -0.549 82 118 178
0.219077 -0.476323 -0.549 154 171 187
0.23058 -0.476323 -0.549 167 170 163
0.246266 -0.476323 -0.549 196 196 204
0.250449 -0.476323 -0.549 194 195 199
0.255095 -0.47719 -0.55 197 196 202
0.29072 -0.478926 -0.552 190 185 189
0.292823 -0.478926 -0.552 190 185 189
0.313443 -0.481529 -0.555 170 168 171
0.359545 -0.491072 -0.566 69 66 73
0.377948 -0.49541 -0.571 62 59 68
0.408913 -0.504087 -0.581 55 56 61
0.493112 -0.423398 -0.488 141 115 92
0.490405 -0.41559 -0.479 152 117 95
0.495557 -0.403443 -0.465 173 129 100
0.544243 -0.398237 -0.459 129 97 72
-0.0420352 -0.379982 -0.437 188 146 106
-0.03844 -0.377373 -0.434 189 147 107
-0.0284543 -0.376504 -0.433 189 145 106
-0.02598 -0.376504 -0.433 181 137 100
-0.0243305 -0.376504 -0.433 187 143 106
-0.00959429 -0.380851 -0.438 177 132 101
0.0195 -0.395633 -0.455 139 102 84
0.0204114 -0.396503 -0.456 138 101 85
0.043881 -0.421719 -0.485 105 81 81
0.0449895 -0.423458 -0.487 104 80 80
0.068761 -0.458239 -0.527 87 86 92
0.0904543 -0.477369 -0.549 90 115 155
0.105286 -0.478238 -0.55 35 66 110
0.234763 -0.477369 -0.549 197 198 202
0.246266 -0.477369 -0.549 196 200 203
0.258238 -0.478238 -0.55 200 200 200
0.262429 -0.478238 -0.55 202 202 202
0.282309 -0.479977 -0.552 192 192 194
0.321026 -0.486064 -0.559 128 128 130
0.338937 -0.490411 -0.564 87 86 92
0.41791 -0.51215 -0.589 60 59 67
0.499735 -0.439979 -0.506 127 104 88
0.493112 -0.424328 -0.488 140 113 92
0.493241 -0.406068 -0.467 170 129 99
0.499599 -0.40259 -0.463 179 134 101
0.5049 -0.399111 -0.459 179 133 99
0.506417 -0.398242 -0.458 172 127 94
0.51642 -0.393894 -0.453 172 126 93
0.532869 -0.396503 -0.456 149 109 83
-0.0367019 -0.377329 -0.433 190 148 110
-0.0250971 -0.376457 -0.432 187 143 106
-0.0218562 -0.377329 -0.433 185 141 104
-0.0202533 -0.3782 -0.434 183 140 105
-0.0169467 -0.3782 -0.434 183 139 104
-0.0137029 -0.379943 -0.436 178 133 100
-0.0112371 -0.380814 -0.437 176 131 100
-0.00210476 -0.385171 -0.442 173 128 97
0.0317133 -0.4087 -0.469 110 85 80
0.0492 -0.428743 -0.492 101 80 77
0.0558257 -0.436586 -0.501 97 76 73
0.0810429 -0.478414 -0.549 26 54 102
0.111369 -0.478414 -0.549 25 52 105
0.212415 -0.477543 -0.548 158 168 169
0.219077 -0.478414 -0.549 184 193 198
0.255095 -0.479286 -0.55 201 201 201
0.291773 -0.482771 -0.554 169 169 171
0.303417 -0.484514 -0.556 144 144 146
0.315702 -0.487129 -0.559 112 110 115
0.352932 -0.497586 -0.571 65 64 70
0.433225 -0.503686 -0.578 9 7 18
0.499757 -0.441814 -0.507 124 101 87
0.490887 -0.4087 -0.469 164 123 93
0.49396 -0.406086 -0.466 173 130 98
0.496259 -0.404343 -0.464 175 132 100
0.4994 -0.4026 -0.462 177 134 100
0.504248 -0.400857 -0.46 177 133 98
0.506417 -0.399114 -0.458 171 126 93
0.509417 -0.397371 -0.456 176 130 96
0.518724 -0.393886 -0.452 162 117 86
-0.04092 -0.379027 -0.434 189 146 111
-0.0366171 -0.37728 -0.432 189 145 110
-0.0104286 -0.38252 -0.438 177 132 99
-0.00462 -0.38514 -0.441 172 127 98
0.0141743 -0.393873 -0.451 151 110 88
0.0231686 -0.40086 -0.459 129 93 77
0.0307543 -0.40872 -0.468 111 83 79
0.0317133 -0.409593 -0.469 109 84 80
0.0481648 -0.428807 -0.491 102 81 78
0.0547619 -0.436667 -0.5 95 76 72
0.0831343 -0.47946 -0.549 31 57 106
0.0923771 -0.478587 -0.548 75 92 122
0.0946371 -0.47946 -0.549 134 146 162
0.100728 -0.478587 -0.548 58 81 123
0.102815 -0.478587 -0.548 61 93 134
0.105947 -0.478587 -0.548 47 75 122
0.260807 -0.481207 -0.551 189 189 191
0.3321 -0.49518 -0.567 66 65 71
0.358839 -0.503913 -0.577 65 64 70
0.494123 -0.42706 -0.489 139 112 91
0.503371 -0.401733 -0.46 177 132 99
0.5049 -0.40086 -0.459 173 129 94
0.532567 -0.397367 -0.455 153 109 80
-0.0283229 -0.377228 -0.431 190 144 108
-0.0120419 -0.381604 -0.436 178 133 100
-0.00876 -0.383354 -0.438 176 131 100
-0.00792571 -0.383354 -0.438 174 129 100
0.0124286 -0.393857 -0.45 151 109 87
0.0133152 -0.394732 -0.451 150 109 89
0.0213267 -0.399984 -0.457 134 98 84
0.0387762 -0.419239 -0.479 101 81 83
0.0647514 -0.454249 -0.519 81 69 73
0.0852257 -0.480506 -0.549 41 69 117
0.0923771 -0.47963 -0.548 118 134 160
0.109078 -0.47963 -0.548 27 57 107
0.119516 -0.47963 -0.548 95 122 167
0.192231 -0.478755 -0.547 181 182 186
0.206152 -0.47963 -0.548 188 193 199
0.212415 -0.47963 -0.548 188 196 198
0.222214 -0.480506 -0.549 196 197 201
0.228489 -0.480506 -0.549 194 196 195
0.231 -0.481381 -0.55 197 197 197
0.242965 -0.482256 -0.551 195 193 196
0.256023 -0.483131 -0.552 184 182 185
0.294407 -0.489258 -0.559 101 100 105
0.314786 -0.49451 -0.565 68 67 72
0.31914 -0.49626 -0.567 66 65 71
0.32022 -0.49626 -0.567 66 65 71
0.322949 -0.497135 -0.568 67 66 72
0.411026 -0.53127 -0.607 15 15 25
0.4396 -0.51464 -0.588 8 8 18
0.497697 -0.43937 -0.502 129 106 90
0.492852 -0.42449 -0.485 144 114 90
0.49174 -0.42274 -0.483 145 115 91
0.491536 -0.42099 -0.481 147 115 92
0.491317 -0.419239 -0.479 150 118 93
0.496953 -0.405235 -0.463 175 132 100
0.502495 -0.40261 -0.46 178 133 100
0.503371 -0.40261 -0.46 178 133 100
0.514101 -0.397358 -0.454 175 129 95
-0.0210314 -0.379803 -0.433 184 141 107
-0.0145 -0.381557 -0.435 178 133 100
-0.00126286 -0.387697 -0.442 171 124 96
0.0807476 -0.479797 -0.547 34 58 102
0.0850705 -0.480674 -0.548 52 80 128
0.0932505 -0.479797 -0.547 150 157 175
0.101586 -0.479797 -0.547 122 142 166
0.124508 -0.479797 -0.547 159 169 179
0.126591 -0.479797 -0.547 172 181 188
0.127633 -0.479797 -0.547 169 179 189
0.134927 -0.479797 -0.547 161 173 187
0.219077 -0.481551 -0.549 196 195 201
0.224714 -0.482429 -0.55 199 199 199
0.23247 -0.483306 -0.551 191 191 193
0.234569 -0.483306 -0.551 188 188 190
0.236238 -0.482429 -0.55 189 187 190
0.240866 -0.483306 -0.551 182 180 183
0.248663 -0.484183 -0.552 178 173 177
0.25392 -0.484183 -0.552 172 170 173
0.264337 -0.485937 -0.554 152 151 157
0.265392 -0.485937 -0.554 148 147 153
0.2896 -0.4912 -0.56 82 82 84
0.427891 -0.542074 -0.618 12 12 22
0.509528 -0.459623 -0.524 97 87 86
0.495411 -0.433309 -0.494 134 109 89
0.49528 -0.431554 -0.492 135 108 89
0.49396 -0.408749 -0.466 170 129 99
0.5083 -0.3991 -0.455 176 130 97
0.525611 -0.396469 -0.452 159 114 81
0.532261 -0.398223 -0.454 151 107 72
-0.0424752 -0.380628 -0.433 188 148 113
-0.0398162 -0.37887 -0.431 185 145 109
-0.00378 -0.38766 -0.441 171 125 99
0.0213267 -0.401725 -0.457 137 99 86
0.02784 -0.407878 -0.464 119 92 83
0.0287857 -0.408757 -0.465 116 89 80
0.0307543 -0.411394 -0.468 109 86 80
0.108879 -0.480839 -0.547 28 55 108
0.139094 -0.480839 -0.547 97 123 160
0.169 -0.47996 -0.546 177 182 188
0.17316 -0.47996 -0.546 183 188 192
0.210711 -0.482597 -0.549 197 195 200
0.223024 -0.484355 -0.551 190 188 189
0.2392 -0.485234 -0.552 175 173 178
0.270012 -0.48963 -0.557 101 100 108
0.294891 -0.495783 -0.564 63 62 68
0.4458 -0.5538 -0.63 11 11 21
0.455876 -0.557316 -0.634 10 10 18
0.509528 -0.460621 -0.524 98 87 91
0.505675 -0.454468 -0.517 116 94 83
0.49096 -0.418427 -0.476 156 119 92
0.490569 -0.41579 -0.473 160 121 92
0.502495 -0.404362 -0.46 177 132 101
0.510642 -0.399088 -0.454 173 129 94
0.519294 -0.39645 -0.451 163 119 84
0.52273 -0.39645 -0.451 162 118 83
0.528194 -0.39733 -0.452 157 112 79
0.53399 -0.399088 -0.454 151 108 76
0.5369 -0.399967 -0.455 150 109 79
0.538949 -0.400846 -0.456 147 108 77
-0.048519 -0.390262 -0.443 183 144 111
-0.0433 -0.381452 -0.433 189 146 111
-0.0282571 -0.37881 -0.43 184 141 106
-0.0128724 -0.384095 -0.436 182 136 103
-0.0120419 -0.384095 -0.436 179 133 100
0.0150667 -0.39819 -0.452 142 103 88
0.0168257 -0.399071 -0.453 140 100 88
0.0268981 -0.407881 -0.463 121 91 83
0.0377057 -0.420214 -0.477 105 79 78
0.0492 -0.433429 -0.492 102 81 80
0.0595086 -0.447524 -0.508 83 69 69
0.10036 -0.481 -0.546 147 163 176
0.12428 -0.481 -0.546 174 178 187
0.12948 -0.481 -0.546 169 178 177
0.13156 -0.481 -0.546 165 169 172
0.1326 -0.481 -0.546 163 167 170
0.13468 -0.481 -0.546 139 146 152
0.18077 -0.481881 -0.547 181 188 196
0.195357 -0.481881 -0.547 191 193 192
0.204437 -0.483643 -0.549 193 195 192
0.210711 -0.483643 -0.549 188 192 193
0.229737 -0.486286 -0.552 175 172 179
0.239633 -0.487167 -0.553 153 152 157
0.246398 -0.488048 -0.554 134 133 138
0.250619 -0.488048 -0.554 122 121 126
0.298029 -0.502143 -0.57 61 60 66
0.38006 -0.540024 -0.613 9 9 19
0.383643 -0.541786 -0.615 10 10 18
0.392033 -0.54531 -0.619 9 9 17
0.448129 -0.559405 -0.635 8 8 18
0.474843 -0.568214 -0.645 10 13 18
0.512411 -0.465143 -0.528 85 74 80
0.499735 -0.445762 -0.506 122 98 86
0.491429 -0.422857 -0.48 150 115 93
0.490569 -0.41669 -0.473 157 120 94
0.503151 -0.404357 -0.459 171 126 93
0.5083 -0.400833 -0.455 175 130 97
0.508912 -0.399952 -0.454 171 126 93
0.51528 -0.39819 -0.452 172 127 94
0.521012 -0.39731 -0.451 161 118 83
0.525308 -0.39731 -0.451 161 118 83
-0.0472448 -0.387574 -0.439 183 142 112
-0.0433 -0.382277 -0.433 185 145 109
-0.01612 -0.38316 -0.434 182 136 103
0.00381429 -0.392871 -0.445 164 120 95
0.0150667 -0.399051 -0.452 140 103 87
0.0222457 -0.404349 -0.458 132 96 82
0.0470371 -0.431717 -0.489 105 81 81
0.0535943 -0.439663 -0.498 98 77 76
0.0620486 -0.452906 -0.513 81 69 69
0.14404 -0.48204 -0.546 168 169 174
0.178687 -0.482923 -0.547 190 191 193
0.179729 -0.482923 -0.547 194 192 195
0.212143 -0.485571 -0.55 184 182 185
0.236901 -0.489103 -0.554 126 127 132
0.267677 -0.495283 -0.561 65 62 69
0.272921 -0.497049 -0.563 63 60 71
0.273993 -0.497049 -0.563 65 62 73
0.309313 -0.51294 -0.581 62 61 69
0.38801 -0.549137 -0.622 7 7 17
0.402429 -0.552669 -0.626 6 9 16
0.404813 -0.552669 -0.626 5 8 15
0.453584 -0.565911 -0.641 6 9 18
0.49528 -0.434366 -0.492 134 108 91
0.492758 -0.427303 -0.484 145 114 93
0.491536 -0.424654 -0.481 147 115 94
0.491202 -0.422006 -0.478 151 115 91
0.489993 -0.41406 -0.469 158 118 92
0.493426 -0.408763 -0.463 170 126 97
0.517286 -0.397286 -0.45 162 117 84
0.532814 -0.399934 -0.453 152 111 79
0.541773 -0.400817 -0.454 136 99 70
-0.0379971 -0.379563 -0.429 191 148 114
-0.0193371 -0.382217 -0.432 184 138 105
-0.0185571 -0.383102 -0.433 183 137 104
-0.0145 -0.384871 -0.435 181 136 105
0.00210952 -0.39195 -0.443 163 119 94
0.00896 -0.396373 -0.448 155 115 89
0.0133152 -0.399028 -0.451 143 106 88
0.0213733 -0.405221 -0.458 132 95 86
0.0621695 -0.454768 -0.514 82 70 72
0.0635171 -0.457422 -0.517 77 65 67
0.07956 -0.48308 -0.546 28 67 106
0.0806 -0.48308 -0.546 34 69 109
0.0887571 -0.482195 -0.545 125 134 151
0.11388 -0.48308 -0.546 123 130 140
0.117824 -0.482195 -0.545 138 143 146
0.124052 -0.482195 -0.545 139 144 150
0.179013 -0.48485 -0.548 187 187 189
0.192934 -0.485734 -0.549 180 178 181
0.211479 -0.487504 -0.551 172 170 175
0.260197 -0.496351 -0.561 72 69 78
0.264943 -0.497236 -0.562 71 70 78
0.269109 -0.499006 -0.564 68 68 76
0.270662 -0.49989 -0.565 67 67 75
0.4038 -0.5574 -0.63 7 10 17
0.426487 -0.563593 -0.637 9 9 19
0.4277 -0.563593 -0.637 9 9 17
0.505675 -0.457422 -0.517 118 95 89
