ply
format ascii 1.0
comment Created by Open3D
element vertex 1303
property double x
property double y
property double z
property uchar red
property uchar green
property uchar blue
end_header
0.291938 -0.130338 -0.505 129 98 103
0.325605 -0.130338 -0.505 165 174 181
0.334262 -0.130338 -0.505 186 166 177
0.335224 -0.130338 -0.505 240 220 231
0.352272 -0.130596 -0.506 127 97 107
0.353236 -0.130596 -0.506 127 103 116
0.369621 -0.130596 -0.506 191 178 188
0.376146 -0.130854 -0.507 83 61 64
0.383007 -0.131887 -0.511 128 102 105
0.444167 -0.137565 -0.533 156 103 97
0.26026 -0.13182 -0.507 158 125 134
0.264123 -0.13182 -0.507 155 122 129
0.269917 -0.13182 -0.507 155 122 129
0.285205 -0.1313 -0.505 147 116 122
0.29328 -0.13104 -0.504 137 108 112
0.377855 -0.13208 -0.508 106 84 87
0.157292 -0.136452 -0.521 208 159 145
0.173486 -0.138286 -0.528 162 111 116
0.244588 -0.165262 -0.631 119 69 72
0.263157 -0.132786 -0.507 155 122 131
0.266054 -0.132786 -0.507 155 122 131
0.269917 -0.132786 -0.507 155 122 131
0.27324 -0.132524 -0.506 154 121 130
0.278059 -0.132524 -0.506 151 118 127
0.31536 -0.132 -0.504 193 187 191
0.32688 -0.132 -0.504 135 122 131
0.3288 -0.132 -0.504 134 110 123
0.33744 -0.132 -0.504 144 125 127
0.33936 -0.132 -0.504 130 104 113
0.351309 -0.132524 -0.506 132 105 112
0.356128 -0.132524 -0.506 127 102 108
0.366005 -0.132262 -0.505 149 126 134
0.371549 -0.132524 -0.506 113 90 98
0.437989 -0.138286 -0.528 161 106 99
0.446017 -0.139857 -0.534 142 93 89
0.46228 -0.143 -0.546 150 105 100
0.184629 -0.142457 -0.54 118 72 82
0.24251 -0.167519 -0.635 116 69 79
0.263602 -0.133488 -0.506 154 121 130
0.266493 -0.133488 -0.506 155 122 131
0.29136 -0.13296 -0.504 142 111 116
0.30096 -0.13296 -0.504 137 107 109
0.30707 -0.132696 -0.503 142 111 109
0.32112 -0.13296 -0.504 135 133 138
0.32304 -0.13296 -0.504 157 152 149
0.324315 -0.132696 -0.503 146 135 139
0.33648 -0.13296 -0.504 168 151 157
0.33936 -0.13296 -0.504 129 104 110
0.34128 -0.13296 -0.504 130 103 110
0.354462 -0.133224 -0.505 129 104 108
0.379569 -0.134279 -0.509 119 94 98
0.39098 -0.136917 -0.519 101 76 80
0.432322 -0.138764 -0.526 184 134 127
0.448709 -0.141402 -0.536 133 86 80
0.147252 -0.142157 -0.535 198 148 137
0.154019 -0.138171 -0.52 205 157 145
0.159962 -0.138171 -0.52 207 160 150
0.160952 -0.138171 -0.52 207 160 150
0.164239 -0.138437 -0.521 195 147 143
0.252952 -0.170057 -0.64 142 88 101
0.257426 -0.169791 -0.639 148 94 108
0.242744 -0.137374 -0.517 167 131 141
0.242786 -0.136843 -0.515 166 130 140
0.25013 -0.134983 -0.508 160 127 134
0.257819 -0.134451 -0.506 156 125 131
0.264566 -0.134451 -0.506 154 121 130
0.268421 -0.134451 -0.506 153 120 127
0.275586 -0.134186 -0.505 148 117 123
0.283281 -0.134186 -0.505 147 116 121
0.2904 -0.13392 -0.504 145 114 119
0.29232 -0.13392 -0.504 147 116 121
0.3144 -0.13392 -0.504 132 107 110
0.31536 -0.13392 -0.504 127 105 108
0.356386 -0.134186 -0.505 128 99 104
0.47268 -0.161023 -0.606 131 97 114
0.150057 -0.139162 -0.52 199 151 137
0.157677 -0.138894 -0.519 204 156 144
0.173486 -0.141303 -0.528 151 101 104
0.176162 -0.141838 -0.53 143 92 99
0.181557 -0.143711 -0.537 127 77 88
0.237475 -0.171544 -0.641 160 104 113
0.263927 -0.173685 -0.649 155 101 117
0.249162 -0.13595 -0.508 159 126 133
0.293656 -0.134612 -0.503 141 110 115
0.295572 -0.134612 -0.503 136 106 108
0.300363 -0.134612 -0.503 138 108 110
0.34704 -0.13488 -0.504 127 100 105
0.4305 -0.1405 -0.525 187 137 130
0.4425 -0.142106 -0.531 136 87 80
0.447871 -0.143176 -0.535 125 78 70
0.144465 -0.144465 -0.536 196 146 137
0.146221 -0.14123 -0.524 198 148 137
0.149769 -0.139883 -0.519 200 152 140
0.151453 -0.139613 -0.518 203 153 144
0.165231 -0.140422 -0.521 187 138 134
0.262119 -0.13611 -0.505 152 119 128
0.27504 -0.13584 -0.504 150 118 123
0.28752 -0.13584 -0.504 145 114 119
0.308371 -0.135301 -0.502 139 107 110
0.33198 -0.13557 -0.503 165 142 152
0.35088 -0.13584 -0.504 130 101 106
0.370814 -0.13611 -0.505 121 94 101
0.377111 -0.136649 -0.507 121 94 99
0.42592 -0.142309 -0.528 194 143 139
0.174822 -0.143586 -0.529 144 95 99
0.241896 -0.138157 -0.509 161 128 137
0.243843 -0.137614 -0.507 160 127 136
0.26448 -0.1368 -0.504 152 119 126
0.274494 -0.136529 -0.503 149 117 122
0.288866 -0.136529 -0.503 147 115 120
0.31124 -0.136257 -0.502 138 106 109
0.328751 -0.135986 -0.501 239 209 219
0.330364 -0.136257 -0.502 234 211 221
0.339926 -0.136257 -0.502 131 102 107
0.342519 -0.136529 -0.503 128 99 104
0.36816 -0.1368 -0.504 127 97 105
0.381286 -0.138429 -0.51 118 89 94
0.426117 -0.143043 -0.527 199 148 144
0.460587 -0.147657 -0.544 147 104 97
0.142771 -0.143773 -0.526 201 148 140
0.152146 -0.141313 -0.517 204 151 143
0.1551 -0.141313 -0.517 207 155 144
0.160333 -0.141587 -0.518 195 145 136
0.239729 -0.14186 -0.519 168 132 142
0.243362 -0.138307 -0.506 160 127 136
0.26256 -0.13776 -0.504 151 118 125
0.26352 -0.13776 -0.504 151 118 125
0.289824 -0.137487 -0.503 148 116 119
0.292116 -0.137213 -0.502 141 109 112
0.312196 -0.137213 -0.502 140 105 109
0.339926 -0.137213 -0.502 131 100 106
0.3624 -0.13776 -0.504 127 98 102
0.36336 -0.13776 -0.504 127 98 102
0.3672 -0.13776 -0.504 125 96 101
0.37444 -0.138307 -0.506 125 96 101
0.428314 -0.143773 -0.526 194 145 140
0.457861 -0.148147 -0.542 136 93 86
0.148207 -0.142298 -0.517 200 150 139
0.15836 -0.142573 -0.518 208 158 147
0.173814 -0.145601 -0.529 135 84 93
0.180534 -0.147803 -0.537 132 76 89
0.238446 -0.140922 -0.512 167 129 142
0.250576 -0.138995 -0.505 156 123 130
0.25296 -0.13872 -0.504 156 124 129
0.274494 -0.138445 -0.503 145 113 118
0.285033 -0.138445 -0.503 143 113 115
0.28695 -0.138445 -0.503 144 114 116
0.287335 -0.13817 -0.502 145 115 117
0.289248 -0.13817 -0.502 150 120 122
0.290204 -0.13817 -0.502 153 123 125
0.321117 -0.137894 -0.501 136 105 110
0.358807 -0.138445 -0.503 127 95 98
0.43261 -0.14973 -0.544 161 108 104
0.426117 -0.14505 -0.527 198 147 143
0.4295 -0.1445 -0.525 193 144 139
0.143124 -0.144114 -0.52 201 148 140
0.150869 -0.143006 -0.516 200 150 141
0.16132 -0.14356 -0.518 194 145 141
0.18496 -0.150766 -0.544 134 74 86
0.261081 -0.139403 -0.503 152 120 125
0.26448 -0.13968 -0.504 152 120 125
0.287335 -0.139126 -0.502 149 114 120
0.289248 -0.139126 -0.502 156 121 127
0.313483 -0.138849 -0.501 138 103 107
0.315391 -0.138849 -0.501 140 105 109
0.344707 -0.139126 -0.502 130 99 104
0.348531 -0.139126 -0.502 129 99 101
0.3514 -0.139126 -0.502 128 98 100
0.358093 -0.139126 -0.502 126 96 98
0.361681 -0.139403 -0.503 123 93 95
0.424711 -0.146609 -0.529 185 136 132
0.160024 -0.144268 -0.517 204 151 143
0.239507 -0.141198 -0.506 160 129 137
0.24432 -0.14064 -0.504 158 125 134
0.24528 -0.14064 -0.504 158 125 134
0.25629 -0.140361 -0.503 154 123 129
0.27873 -0.140082 -0.502 147 115 120
0.279686 -0.140082 -0.502 146 114 117
0.304286 -0.139524 -0.5 136 104 105
0.321429 -0.139524 -0.5 135 100 106
0.385771 -0.143989 -0.516 88 57 63
0.424914 -0.147337 -0.528 194 144 135
0.4295 -0.1465 -0.525 186 135 131
0.142298 -0.145252 -0.517 202 150 137
0.146652 -0.14469 -0.515 200 148 137
0.147633 -0.14469 -0.515 200 148 137
0.159714 -0.144971 -0.516 206 153 147
0.24528 -0.1416 -0.504 158 125 134
0.262039 -0.141319 -0.503 150 118 123
0.267788 -0.141319 -0.503 149 117 122
0.274905 -0.141038 -0.502 145 115 117
0.280642 -0.141038 -0.502 146 114 117
0.282554 -0.141038 -0.502 145 113 116
0.284854 -0.140757 -0.501 144 112 115
0.292857 -0.140476 -0.5 139 104 108
0.342111 -0.140757 -0.501 128 97 102
0.351654 -0.140757 -0.501 126 96 98
0.37666 -0.143005 -0.509 124 94 96
0.424914 -0.148343 -0.528 196 146 135
0.457016 -0.151995 -0.541 137 96 90
0.46332 -0.1534 -0.546 154 109 106
0.161993 -0.146237 -0.517 199 151 147
0.249584 -0.142277 -0.503 156 123 130
0.273949 -0.141994 -0.502 145 113 118
0.288095 -0.141429 -0.5 138 106 109
0.290952 -0.141429 -0.5 140 105 109
0.292857 -0.141429 -0.5 139 104 108
0.324286 -0.141429 -0.5 178 158 167
0.32839 -0.141146 -0.499 190 168 171
0.332857 -0.141429 -0.5 136 104 107
0.35381 -0.141429 -0.5 127 97 99
0.361197 -0.141711 -0.501 118 92 93
0.462471 -0.154157 -0.545 151 107 104
0.146368 -0.146368 -0.514 199 151 137
0.1545 -0.146652 -0.515 199 149 138
0.17248 -0.150354 -0.528 130 81 87
0.236117 -0.144374 -0.507 162 124 135
0.239033 -0.143805 -0.505 161 123 134
0.24144 -0.14352 -0.504 159 121 132
0.252458 -0.143235 -0.503 155 122 129
0.268211 -0.14295 -0.502 149 117 122
0.297024 -0.142096 -0.499 139 104 108
0.309048 -0.142381 -0.5 136 104 105
0.31 -0.142381 -0.5 139 107 108
0.344286 -0.142381 -0.5 129 99 101
0.356667 -0.142381 -0.5 124 94 96
0.365743 -0.14295 -0.502 126 97 101
0.36743 -0.143235 -0.503 129 100 104
0.4315 -0.1495 -0.525 181 122 116
0.447871 -0.152348 -0.535 129 88 82
0.457016 -0.154056 -0.541 139 98 92
0.150284 -0.147347 -0.514 199 153 140
0.23952 -0.14448 -0.504 161 123 134
0.283333 -0.143333 -0.5 146 111 117
0.370814 -0.144767 -0.505 127 92 98
0.384789 -0.14792 -0.516 75 50 54
0.425093 -0.152507 -0.532 163 123 113
0.4305 -0.1505 -0.525 180 123 116
0.135929 -0.149769 -0.519 200 150 139
0.138359 -0.149191 -0.517 198 150 136
0.14441 -0.148326 -0.514 200 152 138
0.148037 -0.148037 -0.513 199 149 138
0.149014 -0.148037 -0.513 199 149 138
0.151263 -0.148326 -0.514 198 151 141
0.1695 -0.1515 -0.525 155 104 113
0.17248 -0.152366 -0.528 129 78 83
0.23952 -0.14544 -0.504 161 121 132
0.251 -0.144863 -0.502 155 122 129
0.254317 -0.144574 -0.501 152 121 127
0.267255 -0.144863 -0.502 148 115 122
0.280476 -0.144286 -0.5 147 112 119
0.283333 -0.144286 -0.5 147 112 118
0.28847 -0.143997 -0.499 138 103 109
0.333142 -0.143997 -0.499 131 99 102
0.356667 -0.144286 -0.5 128 97 102
0.362151 -0.144574 -0.501 203 187 188
0.434326 -0.151789 -0.526 165 110 103
0.14441 -0.149305 -0.514 199 151 137
0.1542 -0.149305 -0.514 200 151 137
0.161993 -0.150176 -0.517 195 148 142
0.164597 -0.150757 -0.519 178 134 131
0.236615 -0.146981 -0.506 161 123 134
0.258134 -0.145529 -0.501 153 120 127
0.273403 -0.145529 -0.501 145 112 119
0.277619 -0.145238 -0.5 144 112 117
0.294172 -0.144948 -0.499 139 104 110
0.325238 -0.145238 -0.5 226 203 211
0.327439 -0.144948 -0.499 162 139 145
0.33029 -0.144948 -0.499 131 100 105
0.340476 -0.145238 -0.5 128 96 99
0.4255 -0.1525 -0.525 195 147 137
0.135405 -0.151161 -0.517 200 152 138
0.143151 -0.149991 -0.513 198 150 138
0.156462 -0.150576 -0.515 197 149 137
0.236229 -0.152038 -0.52 146 111 118
0.23506 -0.149407 -0.511 146 113 120
0.235615 -0.14853 -0.508 154 121 130
0.23952 -0.14736 -0.504 159 121 132
0.242877 -0.147068 -0.503 155 122 131
0.253363 -0.146483 -0.501 152 121 126
0.257619 -0.14619 -0.5 152 119 126
0.261429 -0.14619 -0.5 147 114 121
0.265769 -0.146483 -0.501 147 115 120
0.278571 -0.14619 -0.5 144 111 118
0.293583 -0.145606 -0.498 137 102 108
0.304353 -0.145313 -0.497 137 105 108
0.310657 -0.145606 -0.498 136 104 107
0.316033 -0.145898 -0.499 134 102 105
0.355953 -0.145898 -0.499 127 95 98
0.424294 -0.155254 -0.531 171 126 129
0.425309 -0.153792 -0.526 195 147 137
0.466252 -0.159932 -0.547 144 101 95
0.1285 -0.1545 -0.525 205 155 144
0.166224 -0.153323 -0.521 168 127 125
0.169177 -0.154206 -0.524 154 112 113
0.236117 -0.149203 -0.507 141 109 112
0.281816 -0.146849 -0.499 149 117 122
0.284668 -0.146849 -0.499 146 114 119
0.333423 -0.146554 -0.498 130 98 103
0.351201 -0.146849 -0.499 128 97 102
0.355003 -0.146849 -0.499 130 95 101
0.355953 -0.146849 -0.499 126 91 98
0.370585 -0.148909 -0.506 120 88 93
0.485055 -0.184811 -0.628 80 48 53
0.4265 -0.1545 -0.525 192 144 134
0.460774 -0.159797 -0.543 137 96 92
0.13245 -0.15313 -0.517 201 153 139
0.149014 -0.151946 -0.513 198 148 137
0.168854 -0.154908 -0.523 156 111 114
0.243835 -0.148984 -0.503 158 122 132
0.251454 -0.148391 -0.501 153 120 127
0.261429 -0.148095 -0.5 147 116 121
0.278014 -0.147799 -0.499 145 110 114
0.290737 -0.147503 -0.498 138 102 106
0.296429 -0.147503 -0.498 139 105 106
0.333423 -0.147503 -0.498 131 99 104
0.358805 -0.147799 -0.499 156 137 141
0.4255 -0.1555 -0.525 188 139 134
0.126982 -0.157096 -0.527 205 155 144
0.129747 -0.154413 -0.518 203 155 141
0.132194 -0.153817 -0.516 202 154 140
0.13416 -0.153817 -0.516 200 152 138
0.236079 -0.15173 -0.509 99 78 83
0.260476 -0.149048 -0.5 148 117 122
0.27381 -0.149048 -0.5 146 111 115
0.278965 -0.14875 -0.499 147 112 116
0.294531 -0.148451 -0.498 137 103 104
0.295833 -0.148153 -0.497 138 104 105
0.310033 -0.148153 -0.497 137 102 106
0.3154 -0.148451 -0.498 137 102 106
0.334371 -0.148451 -0.498 132 100 105
0.342909 -0.148451 -0.498 128 96 99
0.469564 -0.18303 -0.614 46 21 25
0.4425 -0.158289 -0.531 132 88 85
0.453457 -0.160375 -0.538 131 88 82
0.126771 -0.1566 -0.522 204 156 144
0.131938 -0.1545 -0.515 202 155 139
0.146773 -0.1536 -0.512 195 147 135
0.171827 -0.1578 -0.526 155 98 104
0.182571 -0.162 -0.54 155 103 107
0.239033 -0.1515 -0.505 97 72 75
0.249088 -0.1506 -0.502 149 118 123
0.273262 -0.1497 -0.499 145 113 118
0.27556 -0.1494 -0.498 143 111 116
0.318553 -0.1491 -0.497 138 103 107
0.356189 -0.1494 -0.498 214 187 194
0.358805 -0.1497 -0.499 223 206 212
0.48238 -0.1869 -0.623 72 43 47
0.4235 -0.1575 -0.525 188 139 132
0.4315 -0.1575 -0.525 166 108 97
0.4335 -0.1575 -0.525 150 97 89
0.439826 -0.1587 -0.529 134 90 87
0.136311 -0.154877 -0.513 200 153 137
0.164597 -0.156689 -0.519 174 130 129
0.239995 -0.152462 -0.505 88 68 70
0.252409 -0.151254 -0.501 151 116 122
0.262807 -0.15065 -0.499 151 116 122
0.265238 -0.150952 -0.5 150 115 121
0.273262 -0.15065 -0.499 144 112 117
0.28826 -0.150047 -0.497 141 105 107
0.292993 -0.150047 -0.497 137 103 104
0.31666 -0.150047 -0.497 137 102 106
0.347651 -0.150349 -0.498 127 97 99
0.3672 -0.15216 -0.504 120 88 93
0.437989 -0.159406 -0.528 138 93 88
0.126787 -0.157373 -0.518 203 157 142
0.137021 -0.15555 -0.512 198 152 136
0.159095 -0.156158 -0.514 193 144 137
0.1725 -0.1595 -0.525 163 108 113
0.240946 -0.154031 -0.507 100 81 83
0.248131 -0.152512 -0.502 152 121 127
0.249088 -0.152512 -0.502 156 125 131
0.282956 -0.15069 -0.496 140 104 108
0.299962 -0.15069 -0.496 136 104 105
0.30752 -0.15069 -0.496 139 105 106
0.323287 -0.150993 -0.497 133 101 102
0.32518 -0.150993 -0.497 136 101 105
0.332753 -0.150993 -0.497 134 99 103
0.351687 -0.150993 -0.497 126 91 95
0.471858 -0.18745 -0.617 51 26 30
0.422486 -0.161019 -0.53 173 126 118
0.42968 -0.159196 -0.524 167 109 95
0.132145 -0.156526 -0.512 198 155 139
0.13507 -0.156526 -0.512 199 153 137
0.17383 -0.160806 -0.526 161 104 110
0.251956 -0.153469 -0.502 144 113 119
0.256226 -0.153163 -0.501 145 112 119
0.259955 -0.152551 -0.499 147 112 118
0.264708 -0.152551 -0.499 148 113 119
0.270817 -0.152246 -0.498 146 111 115
0.28768 -0.151634 -0.496 140 104 108
0.304686 -0.151634 -0.496 140 106 107
0.30752 -0.151634 -0.496 138 104 105
0.311299 -0.151634 -0.496 138 104 105
0.314133 -0.151634 -0.496 136 101 105
0.329913 -0.15194 -0.497 131 99 102
0.331807 -0.15194 -0.497 130 98 101
0.3337 -0.15194 -0.497 134 99 103
0.337487 -0.15194 -0.497 129 97 100
0.33938 -0.15194 -0.497 127 95 98
0.346953 -0.15194 -0.497 127 97 99
0.35358 -0.15194 -0.497 203 172 177
0.481641 -0.189237 -0.619 69 42 49
0.422486 -0.162029 -0.53 171 127 118
0.422693 -0.160194 -0.524 190 141 134
0.42469 -0.160194 -0.524 184 135 128
0.426686 -0.160194 -0.524 171 122 108
0.441667 -0.162029 -0.53 129 89 87
0.444347 -0.16264 -0.532 128 90 87
0.468336 -0.167226 -0.547 131 96 94
0.121731 -0.161808 -0.526 206 158 148
0.129471 -0.157809 -0.513 198 154 141
0.150674 -0.157501 -0.512 194 148 135
0.163963 -0.159039 -0.517 179 134 129
0.245774 -0.155963 -0.507 98 78 87
0.258571 -0.15381 -0.5 144 112 117
0.293349 -0.152579 -0.496 136 102 103
0.309729 -0.152271 -0.495 139 105 106
0.316968 -0.152579 -0.496 134 99 103
0.324526 -0.152579 -0.496 134 100 101
0.34506 -0.152887 -0.497 128 97 102
0.346953 -0.152887 -0.497 127 96 101
0.35074 -0.152887 -0.497 130 94 98
0.358805 -0.153502 -0.499 134 115 121
0.464537 -0.188263 -0.612 130 97 106
0.480475 -0.18857 -0.613 81 45 49
0.44536 -0.163653 -0.532 130 92 89
0.45075 -0.164884 -0.536 127 89 86
0.121269 -0.16219 -0.524 206 160 147
0.142314 -0.157857 -0.51 195 147 133
0.162663 -0.159714 -0.516 180 135 132
0.165267 -0.160333 -0.518 175 127 127
0.24912 -0.156 -0.504 87 72 77
0.275398 -0.153524 -0.496 145 113 116
0.276343 -0.153524 -0.496 152 117 123
0.278232 -0.153524 -0.496 140 104 108
0.298072 -0.153524 -0.496 137 102 106
0.302186 -0.153214 -0.495 138 104 105
0.304071 -0.153214 -0.495 140 106 107
0.3069 -0.153214 -0.495 137 103 104
0.318214 -0.153214 -0.495 134 100 101
0.47103 -0.191595 -0.619 147 90 97
0.423067 -0.164667 -0.532 167 126 122
0.448051 -0.165286 -0.534 124 89 83
0.450929 -0.165595 -0.535 124 89 83
0.12284 -0.16132 -0.518 204 156 146
0.138429 -0.158829 -0.51 196 150 135
0.152625 -0.159451 -0.512 193 145 133
0.17052 -0.162566 -0.522 195 139 138
0.259524 -0.155714 -0.5 143 111 114
0.263757 -0.155403 -0.499 145 110 116
0.277671 -0.154157 -0.495 138 103 107
0.293349 -0.154469 -0.496 135 100 104
0.317271 -0.154157 -0.495 133 98 102
0.331139 -0.154469 -0.496 130 100 100
0.342476 -0.154469 -0.496 128 96 99
0.428163 -0.168483 -0.541 136 98 97
0.4225 -0.1635 -0.525 189 140 133
0.424875 -0.162877 -0.523 174 126 114
0.458229 -0.168171 -0.54 131 96 92
0.121333 -0.162933 -0.52 206 158 148
0.1462 -0.1598 -0.51 194 145 130
0.15038 -0.160113 -0.511 193 143 132
0.176503 -0.16544 -0.528 168 113 116
0.248652 -0.161993 -0.517 59 49 58
0.253416 -0.157607 -0.503 91 70 79
0.256667 -0.156667 -0.5 89 66 72
0.27122 -0.155727 -0.497 146 111 117
0.276343 -0.155413 -0.496 157 122 126
0.283329 -0.1551 -0.495 136 104 105
0.284271 -0.1551 -0.495 140 105 109
0.296529 -0.1551 -0.495 138 104 105
0.319157 -0.1551 -0.495 132 100 101
0.328305 -0.155413 -0.496 129 97 98
0.350979 -0.155413 -0.496 220 190 202
0.420891 -0.16544 -0.528 176 129 123
0.421695 -0.164187 -0.524 188 141 133
0.423879 -0.163873 -0.523 179 132 124
0.4325 -0.1645 -0.525 152 106 93
0.118817 -0.164554 -0.522 206 156 145
0.140096 -0.160456 -0.509 195 147 133
0.141066 -0.160456 -0.509 195 148 132
0.149407 -0.161087 -0.511 193 145 133
0.160074 -0.162032 -0.514 199 150 145
0.25718 -0.157934 -0.501 84 65 71
0.270273 -0.156673 -0.497 150 114 118
0.279557 -0.156043 -0.495 135 103 106
0.307221 -0.155728 -0.494 135 103 104
0.310044 -0.155728 -0.494 134 102 103
0.31663 -0.155728 -0.494 132 100 103
0.320394 -0.155728 -0.494 130 98 99
0.3267 -0.156043 -0.495 129 97 100
0.367693 -0.15951 -0.506 116 87 89
0.423879 -0.16487 -0.523 178 131 123
0.425871 -0.16487 -0.523 174 126 114
0.438994 -0.166446 -0.528 131 94 88
0.460958 -0.170859 -0.542 132 97 91
0.117276 -0.166183 -0.524 205 157 145
0.151353 -0.16206 -0.511 193 146 130
0.152327 -0.16206 -0.511 192 145 129
0.177845 -0.167769 -0.529 149 96 104
0.262807 -0.158254 -0.499 98 75 83
0.270273 -0.15762 -0.497 145 108 115
0.291814 -0.156986 -0.495 133 101 102
0.29593 -0.156669 -0.494 135 103 104
0.337071 -0.156986 -0.495 126 94 97
0.458071 -0.184894 -0.583 100 66 67
0.4335 -0.1665 -0.525 147 101 86
0.444523 -0.168403 -0.531 128 91 83
0.447212 -0.169037 -0.533 124 89 83
0.118893 -0.165267 -0.518 203 157 142
0.154273 -0.163033 -0.511 192 145 129
0.157501 -0.163352 -0.512 195 147 135
0.165932 -0.164948 -0.517 166 118 118
0.168551 -0.165586 -0.519 156 101 106
0.256439 -0.162395 -0.509 96 80 90
0.269869 -0.158886 -0.498 161 130 136
0.283697 -0.15761 -0.494 136 102 103
0.292166 -0.15761 -0.494 133 101 102
0.294989 -0.15761 -0.494 133 101 102
0.298148 -0.15729 -0.493 135 105 105
0.302843 -0.15729 -0.493 135 103 104
0.304721 -0.15729 -0.493 135 103 104
0.332627 -0.15761 -0.494 126 94 95
0.347443 -0.157929 -0.495 125 95 97
0.355473 -0.158567 -0.497 142 115 122
0.362874 -0.160162 -0.502 125 94 99
0.48617 -0.201319 -0.631 123 77 88
0.473052 -0.193024 -0.605 65 41 41
0.125318 -0.164328 -0.512 200 157 140
0.131629 -0.163686 -0.51 197 154 135
0.148143 -0.163686 -0.51 191 144 128
0.1533 -0.164007 -0.511 195 146 131
0.155247 -0.164007 -0.511 192 144 130
0.25795 -0.164328 -0.512 64 56 69
0.257914 -0.163686 -0.51 81 69 79
0.265238 -0.160476 -0.5 88 67 74
0.265658 -0.160155 -0.499 87 66 73
0.277671 -0.158871 -0.495 133 101 102
0.285579 -0.15855 -0.494 133 102 100
0.303782 -0.15823 -0.493 135 103 104
0.312867 -0.15855 -0.494 127 97 97
0.318512 -0.15855 -0.494 128 96 99
0.322276 -0.15855 -0.494 127 97 97
0.347443 -0.158871 -0.495 135 106 110
0.421695 -0.168179 -0.524 180 133 125
0.430678 -0.168179 -0.524 160 108 94
0.267559 -0.161106 -0.499 82 62 71
0.280874 -0.159491 -0.494 135 99 101
0.301291 -0.158846 -0.492 133 103 101
0.331686 -0.159491 -0.494 125 95 95
0.343671 -0.159814 -0.495 124 95 99
0.350271 -0.159814 -0.495 119 93 106
0.355473 -0.16046 -0.497 116 89 96
0.464799 -0.191454 -0.593 84 48 48
0.461138 -0.174666 -0.541 133 98 94
0.114947 -0.168227 -0.518 204 158 145
0.11571 -0.167902 -0.517 203 157 144
0.125073 -0.165953 -0.511 202 156 140
0.128714 -0.165629 -0.51 201 155 139
0.154943 -0.165629 -0.51 193 145 133
0.262256 -0.165304 -0.509 87 73 86
0.266299 -0.16303 -0.502 87 74 84
0.273113 -0.161407 -0.497 114 91 99
0.285579 -0.160432 -0.494 133 102 100
0.29627 -0.160108 -0.493 136 101 99
0.303166 -0.159783 -0.492 136 102 103
0.355473 -0.161407 -0.497 121 86 90
0.361918 -0.16303 -0.502 112 85 94
0.482419 -0.201352 -0.62 66 50 50
0.420467 -0.172124 -0.53 167 116 115
0.4195 -0.1705 -0.525 182 135 129
0.4345 -0.1705 -0.525 138 95 89
0.121417 -0.167253 -0.512 199 156 139
0.144659 -0.165947 -0.508 192 142 131
0.173503 -0.17052 -0.522 157 106 115
0.305849 -0.209393 -0.641 102 99 128
0.303461 -0.204493 -0.626 115 112 143
0.30222 -0.20286 -0.621 108 105 134
0.264832 -0.167907 -0.514 63 52 68
0.275007 -0.162353 -0.497 103 80 86
0.282386 -0.1617 -0.495 133 99 97
0.289343 -0.161373 -0.494 130 99 97
0.312233 -0.161047 -0.493 130 98 99
0.316929 -0.161047 -0.493 129 97 100
0.319746 -0.161047 -0.493 128 96 99
0.320685 -0.161047 -0.493 127 95 98
0.322846 -0.16072 -0.492 126 96 98
0.343918 -0.161373 -0.494 117 90 95
0.352869 -0.162027 -0.496 157 134 140
0.362639 -0.164313 -0.503 109 83 92
0.452967 -0.174767 -0.535 140 103 95
-0.154143 -0.213571 -0.65 186 185 180
-0.15267 -0.213243 -0.649 188 187 182
0.122153 -0.1679 -0.511 198 155 139
0.150761 -0.167243 -0.509 196 147 133
0.156886 -0.167571 -0.51 195 146 139
0.2664 -0.1656 -0.504 94 81 91
0.268211 -0.164943 -0.502 93 76 84
0.271361 -0.163957 -0.499 87 67 76
0.294731 -0.161657 -0.492 136 102 101
0.300354 -0.161657 -0.492 132 100 101
0.305977 -0.161657 -0.492 132 100 101
0.3116 -0.161657 -0.492 130 98 99
0.330075 -0.161986 -0.493 125 93 96
0.41909 -0.173157 -0.527 188 141 135
0.423069 -0.171514 -0.522 188 133 126
0.119233 -0.168873 -0.511 198 155 139
0.12821 -0.167882 -0.508 199 156 140
0.133751 -0.167551 -0.507 198 155 138
0.13858 -0.167551 -0.507 193 145 131
0.150465 -0.167882 -0.508 196 146 135
0.154639 -0.168212 -0.509 199 149 140
0.156886 -0.168543 -0.51 196 147 140
0.16529 -0.170195 -0.515 173 124 120
0.270124 -0.165899 -0.502 94 77 87
0.300354 -0.162594 -0.492 131 99 100
0.30442 -0.162264 -0.491 134 100 101
0.319097 -0.162594 -0.492 126 96 98
0.337588 -0.162925 -0.493 128 94 93
0.342283 -0.162925 -0.493 121 90 95
0.362639 -0.16623 -0.503 107 84 92
0.421831 -0.176144 -0.533 168 122 122
0.419699 -0.17317 -0.524 187 139 129
0.429856 -0.172839 -0.523 155 106 91
0.465946 -0.179449 -0.543 133 94 87
-0.150429 -0.216048 -0.65 189 189 181
0.108293 -0.174168 -0.524 203 156 146
0.11177 -0.171841 -0.517 204 157 147
0.132786 -0.168517 -0.507 201 155 140
0.140511 -0.168517 -0.507 191 143 131
0.154639 -0.169182 -0.509 199 149 140
0.172838 -0.172838 -0.52 148 101 111
0.269917 -0.168517 -0.507 96 80 91
0.280122 -0.164861 -0.496 111 85 88
0.326594 -0.163531 -0.492 125 93 96
0.333831 -0.163864 -0.493 124 92 93
0.338527 -0.163864 -0.493 125 93 94
0.347682 -0.164196 -0.494 223 202 211
0.350271 -0.164529 -0.495 149 129 138
0.420816 -0.177159 -0.533 168 122 122
0.453986 -0.177824 -0.535 140 97 91
-0.160333 -0.217286 -0.65 184 183 178
-0.154903 -0.216617 -0.648 189 186 179
-0.152434 -0.216617 -0.648 189 189 181
0.10788 -0.174497 -0.522 202 155 147
0.14534 -0.169483 -0.507 190 140 131
0.151134 -0.169483 -0.507 194 144 137
0.167577 -0.172491 -0.516 158 109 112
0.310732 -0.214277 -0.641 97 97 125
0.286157 -0.165471 -0.495 132 100 101
0.300679 -0.164134 -0.491 131 99 100
0.329136 -0.164803 -0.493 125 93 96
0.338527 -0.164803 -0.493 125 93 94
0.420027 -0.17784 -0.532 174 124 123
0.439335 -0.175834 -0.526 147 102 96
0.443017 -0.176503 -0.528 136 91 85
0.462343 -0.180514 -0.54 137 94 88
0.105701 -0.176836 -0.526 201 154 146
0.10804 -0.174147 -0.518 202 155 145
0.130596 -0.170112 -0.506 200 154 141
0.142162 -0.170112 -0.506 192 144 134
0.1521 -0.170449 -0.507 196 147 140
0.154031 -0.170449 -0.507 200 150 143
0.15627 -0.170785 -0.508 199 149 140
0.157238 -0.170785 -0.508 197 147 138
0.312671 -0.216843 -0.645 97 98 126
0.273352 -0.170785 -0.508 71 59 71
0.278793 -0.167087 -0.497 82 65 71
0.290635 -0.165742 -0.493 132 100 101
0.295068 -0.16507 -0.491 134 100 101
0.296938 -0.16507 -0.491 132 100 101
0.300067 -0.164733 -0.49 131 99 100
0.335966 -0.165406 -0.492 123 91 92
0.344161 -0.165742 -0.493 169 146 152
0.346978 -0.165742 -0.493 205 184 193
0.424063 -0.175491 -0.522 174 122 111
-0.151433 -0.219424 -0.649 189 189 179
0.105098 -0.176824 -0.523 204 157 149
0.107053 -0.175133 -0.518 200 153 143
0.108606 -0.174457 -0.516 202 155 145
0.159173 -0.171752 -0.508 193 144 137
0.17918 -0.178176 -0.527 151 108 117
0.318267 -0.209619 -0.62 101 99 120
0.279354 -0.168371 -0.498 87 66 75
0.280687 -0.168033 -0.497 86 66 75
0.282011 -0.167695 -0.496 84 64 73
0.285214 -0.167357 -0.495 79 62 70
0.286157 -0.167357 -0.495 99 70 74
0.308161 -0.166005 -0.491 130 98 101
0.314708 -0.166005 -0.491 125 95 97
0.320034 -0.166343 -0.492 126 96 98
0.323783 -0.166343 -0.492 126 94 97
0.328469 -0.166343 -0.492 125 93 96
0.332217 -0.166343 -0.492 122 93 97
0.351214 -0.167357 -0.495 127 98 103
0.35358 -0.168033 -0.497 117 88 93
0.422074 -0.176486 -0.522 182 129 125
0.104102 -0.17782 -0.523 202 158 145
0.11242 -0.17374 -0.511 200 156 143
0.117797 -0.17306 -0.509 201 157 146
0.135148 -0.1717 -0.505 198 152 137
0.153728 -0.17204 -0.506 200 150 141
0.180526 -0.17952 -0.528 170 120 129
0.319211 -0.21624 -0.636 97 94 123
0.277343 -0.1734 -0.51 51 47 62
0.311267 -0.1666 -0.49 127 97 99
0.328469 -0.16728 -0.492 123 93 95
0.343463 -0.16728 -0.492 197 175 178
0.424041 -0.18394 -0.541 140 96 95
0.444023 -0.17952 -0.528 137 93 84
-0.152434 -0.221554 -0.648 189 189 179
0.1313 -0.172662 -0.505 199 156 140
0.148614 -0.172662 -0.505 197 149 139
0.150538 -0.172662 -0.505 201 153 143
0.290284 -0.168901 -0.494 124 95 100
0.296938 -0.167875 -0.491 135 100 106
0.318449 -0.167875 -0.491 125 93 94
0.3444 -0.168217 -0.492 209 188 193
0.42108 -0.178474 -0.522 185 135 126
-0.162786 -0.221757 -0.645 184 181 174
-0.160329 -0.221757 -0.645 184 184 176
0.119266 -0.174311 -0.507 204 158 143
0.123129 -0.174311 -0.507 204 158 145
0.124094 -0.174311 -0.507 202 156 143
0.127705 -0.173968 -0.506 201 155 140
0.14256 -0.17328 -0.504 195 147 133
0.147652 -0.173624 -0.505 198 150 140
0.1515 -0.173624 -0.505 201 153 143
0.319063 -0.222789 -0.648 100 97 126
0.282061 -0.174655 -0.508 64 56 69
0.345337 -0.169154 -0.492 140 117 125
0.346274 -0.169154 -0.492 110 87 95
0.350271 -0.170186 -0.495 121 92 94
0.4175 -0.1805 -0.525 185 134 130
0.428212 -0.179125 -0.521 150 102 88
0.432017 -0.179469 -0.522 152 104 94
0.434837 -0.179812 -0.523 159 110 103
0.447887 -0.181875 -0.529 122 82 72
-0.16874 -0.224369 -0.649 179 179 169
-0.155655 -0.223331 -0.646 187 187 179
-0.151667 -0.224714 -0.65 188 190 179
0.1095 -0.17666 -0.511 204 158 143
0.13776 -0.17424 -0.504 195 147 133
0.1512 -0.17424 -0.504 205 158 148
0.153424 -0.174586 -0.505 207 160 150
0.15886 -0.175277 -0.507 200 153 143
0.161109 -0.175623 -0.508 195 148 140
0.168886 -0.177697 -0.514 167 117 116
0.28351 -0.173549 -0.502 100 85 92
0.288625 -0.171474 -0.496 92 71 78
0.289929 -0.171129 -0.495 85 66 72
0.290871 -0.171129 -0.495 84 65 71
0.296003 -0.169746 -0.491 133 101 102
0.311563 -0.169054 -0.489 128 98 100
0.321533 -0.1694 -0.49 127 95 98
0.324333 -0.1694 -0.49 125 93 96
0.34183 -0.169746 -0.491 226 205 212
0.417703 -0.181154 -0.524 191 132 126
0.432017 -0.180463 -0.522 153 105 95
-0.162281 -0.223519 -0.643 184 184 176
-0.151667 -0.225952 -0.65 188 190 179
0.105043 -0.178329 -0.513 204 160 147
0.113919 -0.176938 -0.509 207 161 145
0.13296 -0.1752 -0.504 200 154 139
0.140361 -0.174852 -0.503 194 148 133
0.157583 -0.175895 -0.506 205 161 150
0.16498 -0.177633 -0.511 198 154 145
0.17748 -0.181457 -0.522 180 122 134
0.3245 -0.225605 -0.649 101 98 129
0.331152 -0.221781 -0.638 98 97 128
0.33338 -0.220043 -0.633 100 100 128
0.311563 -0.169986 -0.489 129 99 101
0.334348 -0.170681 -0.491 121 89 92
0.340894 -0.170681 -0.491 130 107 113
0.352633 -0.172767 -0.497 119 90 95
0.416429 -0.184238 -0.53 165 115 114
0.415075 -0.183195 -0.527 174 126 124
0.417703 -0.182152 -0.524 188 134 124
0.4264 -0.180762 -0.52 156 106 95
0.433011 -0.181457 -0.522 153 105 93
0.451603 -0.184586 -0.531 130 93 84
-0.159831 -0.224744 -0.643 184 184 176
0.0985 -0.1835 -0.525 205 160 141
0.0989314 -0.182451 -0.522 204 159 140
0.134612 -0.17581 -0.503 196 150 137
0.288291 -0.175461 -0.502 93 75 87
0.29533 -0.172315 -0.493 100 75 79
0.312494 -0.170917 -0.489 127 97 99
0.342765 -0.171616 -0.491 122 97 103
0.430197 -0.182102 -0.521 159 109 98
0.444186 -0.184199 -0.527 124 84 76
-0.165697 -0.225617 -0.642 180 177 170
-0.155896 -0.227374 -0.647 186 186 176
0.102888 -0.179931 -0.512 204 161 145
0.107343 -0.179229 -0.51 207 161 145
0.11903 -0.177823 -0.506 205 159 143
0.12816 -0.17712 -0.504 200 154 138
0.141038 -0.176417 -0.502 191 147 134
0.141994 -0.176417 -0.502 194 150 137
0.149644 -0.176417 -0.502 208 161 151
0.158233 -0.177471 -0.505 208 164 153
0.332429 -0.228429 -0.65 99 98 129
0.337229 -0.224211 -0.638 96 96 124
0.339434 -0.218589 -0.622 83 85 110
0.292634 -0.175011 -0.498 94 74 85
0.325267 -0.1722 -0.49 125 93 96
0.336467 -0.1722 -0.49 154 125 130
0.342765 -0.172551 -0.491 128 102 111
0.419883 -0.188717 -0.537 149 107 108
0.419281 -0.183094 -0.521 188 133 126
0.419467 -0.182743 -0.52 188 133 126
0.42541 -0.182743 -0.52 166 117 103
0.429205 -0.183094 -0.521 156 106 95
0.10366 -0.180553 -0.511 208 162 146
0.12528 -0.17808 -0.504 202 156 140
0.13008 -0.17808 -0.504 200 155 136
0.145819 -0.177373 -0.502 199 153 140
0.292489 -0.17702 -0.501 90 78 90
0.308769 -0.17278 -0.489 132 97 101
0.314644 -0.172427 -0.488 127 95 98
0.331123 -0.17278 -0.489 123 88 94
0.349329 -0.1749 -0.495 119 87 92
0.4212 -0.1908 -0.54 156 118 115
0.442341 -0.185853 -0.526 131 86 80
-0.169893 -0.228773 -0.644 178 179 173
-0.159831 -0.228418 -0.643 183 183 175
0.0985857 -0.182948 -0.515 204 158 142
0.120719 -0.179395 -0.505 203 157 142
0.12336 -0.17904 -0.504 202 156 140
0.128864 -0.178685 -0.503 200 154 138
0.134345 -0.17833 -0.502 197 154 135
0.135301 -0.17833 -0.502 195 152 135
0.154732 -0.178685 -0.503 212 165 155
0.156 -0.17904 -0.504 214 167 157
0.166273 -0.180816 -0.509 208 161 151
0.1805 -0.1865 -0.525 192 141 148
0.294762 -0.177619 -0.5 96 81 88
0.301291 -0.174777 -0.492 117 85 90
0.315573 -0.173356 -0.488 127 95 98
0.417296 -0.185079 -0.521 190 137 133
0.430197 -0.185079 -0.521 135 85 76
0.443343 -0.186855 -0.526 125 87 78
-0.156137 -0.231429 -0.648 187 187 179
0.103457 -0.182143 -0.51 205 162 146
0.106163 -0.181786 -0.509 202 159 143
0.110792 -0.181429 -0.508 202 159 143
0.117833 -0.180357 -0.505 202 156 141
0.12432 -0.18 -0.504 197 154 138
0.140757 -0.178929 -0.501 194 148 133
0.15792 -0.18 -0.504 208 164 155
0.15888 -0.18 -0.504 208 164 155
0.339334 -0.231786 -0.649 95 95 123
0.343305 -0.227857 -0.638 84 84 112
0.348351 -0.221786 -0.621 69 67 88
0.347846 -0.220714 -0.618 68 66 87
0.347329 -0.219643 -0.615 68 66 87
0.308467 -0.175 -0.49 128 98 100
0.320877 -0.174643 -0.489 123 91 92
0.32274 -0.174643 -0.489 125 93 94
0.336711 -0.174643 -0.489 112 92 94
0.354762 -0.178571 -0.5 86 68 82
0.435833 -0.186786 -0.523 132 85 79
0.438663 -0.187143 -0.524 135 88 82
-0.162997 -0.23015 -0.641 182 183 175
-0.157129 -0.232304 -0.647 186 186 178
0.0983943 -0.18455 -0.514 205 159 144
0.0999619 -0.183832 -0.512 204 158 143
0.104429 -0.183114 -0.51 203 160 143
0.114948 -0.181319 -0.505 202 159 143
0.144574 -0.179883 -0.501 198 152 139
0.154425 -0.180242 -0.502 207 163 152
0.3498 -0.2262 -0.63 98 95 122
0.298326 -0.178806 -0.498 95 79 89
0.299357 -0.177729 -0.495 91 72 78
0.307533 -0.175933 -0.49 128 93 99
0.319291 -0.175215 -0.488 126 94 95
0.333917 -0.175574 -0.489 158 127 132
0.3444 -0.176651 -0.492 116 90 93
0.41652 -0.191731 -0.534 157 115 119
0.42739 -0.186705 -0.52 152 102 91
0.4415 -0.1885 -0.525 145 98 92
-0.162029 -0.231731 -0.642 182 183 175
0.125031 -0.181559 -0.503 198 152 136
0.128864 -0.181559 -0.503 198 152 136
0.133123 -0.180837 -0.501 196 153 137
0.140476 -0.180476 -0.5 192 148 135
0.179371 -0.186251 -0.516 196 154 156
0.344614 -0.232814 -0.645 91 90 121
0.347494 -0.230649 -0.639 77 76 107
0.356685 -0.222708 -0.617 64 61 82
0.30629 -0.177228 -0.491 124 99 105
0.317432 -0.176145 -0.488 123 91 92
0.319291 -0.176145 -0.488 123 91 92
0.447197 -0.190222 -0.527 137 92 86
0.465593 -0.194553 -0.539 130 90 88
0.476499 -0.197802 -0.548 124 85 78
-0.175614 -0.234769 -0.647 175 176 168
-0.16614 -0.231866 -0.639 183 183 173
-0.156378 -0.235494 -0.649 187 187 177
0.0972257 -0.186146 -0.513 208 159 145
0.127651 -0.182154 -0.502 196 150 134
0.133123 -0.181791 -0.501 195 152 135
0.135031 -0.181791 -0.501 196 150 134
0.13694 -0.181791 -0.501 196 150 134
0.138571 -0.181429 -0.5 197 150 134
0.142666 -0.181791 -0.501 197 149 135
0.157607 -0.182517 -0.503 206 159 149
0.1734 -0.185057 -0.51 208 167 163
0.355083 -0.229689 -0.633 66 64 86
0.310631 -0.177437 -0.489 129 93 95
0.312785 -0.177074 -0.488 127 92 96
0.316503 -0.177074 -0.488 124 92 95
0.412131 -0.189411 -0.522 186 133 127
0.416683 -0.188323 -0.519 182 126 125
0.417671 -0.188323 -0.519 181 126 121
-0.160329 -0.235271 -0.645 184 186 175
0.0909771 -0.190406 -0.522 203 155 141
0.0922533 -0.188947 -0.518 206 159 143
0.0987933 -0.186393 -0.511 206 157 142
0.113024 -0.184205 -0.505 207 159 139
0.12287 -0.18311 -0.502 199 154 135
0.123827 -0.18311 -0.502 199 154 135
0.129564 -0.18311 -0.502 197 152 133
0.16272 -0.18384 -0.504 204 160 151
0.175687 -0.186393 -0.511 209 167 168
0.180283 -0.187123 -0.513 210 170 171
0.21164 -0.188947 -0.518 196 145 154
0.351024 -0.233812 -0.641 90 89 120
0.361682 -0.231259 -0.634 63 64 85
0.303333 -0.182381 -0.5 68 64 79
0.311563 -0.178369 -0.489 125 93 96
0.314644 -0.178004 -0.488 125 93 96
0.323939 -0.178004 -0.488 122 92 94
0.324869 -0.178004 -0.488 122 92 94
0.42558 -0.189311 -0.519 152 103 96
0.440659 -0.191135 -0.524 145 98 90
0.446193 -0.19223 -0.527 133 88 82
-0.168574 -0.2343 -0.639 181 181 171
-0.165181 -0.234667 -0.64 183 183 175
0.091719 -0.188833 -0.515 206 159 143
0.0976286 -0.187 -0.51 205 158 140
0.103051 -0.186267 -0.508 207 158 143
0.112062 -0.185167 -0.505 205 156 139
0.11376 -0.1848 -0.504 206 157 140
0.118325 -0.184433 -0.503 198 151 131
0.127397 -0.1837 -0.501 196 151 132
0.13026 -0.1837 -0.501 196 151 132
0.138571 -0.183333 -0.5 197 151 135
0.14619 -0.183333 -0.5 204 156 142
0.15 -0.183333 -0.5 201 155 142
0.161439 -0.184433 -0.503 204 157 149
0.164967 -0.185167 -0.505 206 162 151
0.17272 -0.186267 -0.508 212 168 169
0.351986 -0.2365 -0.645 94 93 125
0.356672 -0.233933 -0.638 71 71 99
0.306529 -0.182967 -0.499 84 70 83
0.317432 -0.178933 -0.488 124 94 96
0.319291 -0.178933 -0.488 127 97 99
0.332305 -0.178933 -0.488 161 136 140
0.47389 -0.199833 -0.545 123 84 77
0.477543 -0.200933 -0.548 118 89 83
-0.304721 -0.239203 -0.649 254 255 250
-0.168574 -0.235517 -0.639 181 181 171
-0.162281 -0.236991 -0.643 183 185 172
-0.160329 -0.237729 -0.645 184 186 173
-0.159347 -0.238097 -0.646 185 187 174
0.0966571 -0.187971 -0.51 205 160 141
0.101315 -0.187603 -0.509 203 156 138
0.135714 -0.184286 -0.5 198 151 135
0.169149 -0.186497 -0.506 211 164 154
0.218817 -0.189446 -0.514 193 132 139
0.224583 -0.190183 -0.516 193 133 141
0.353623 -0.238834 -0.648 87 86 118
0.362424 -0.222986 -0.605 64 65 86
0.413169 -0.195711 -0.531 149 110 113
0.419827 -0.19092 -0.518 170 117 111
0.435994 -0.192394 -0.522 132 85 77
0.445347 -0.193869 -0.526 133 88 82
0.456507 -0.19608 -0.532 138 95 88
-0.309944 -0.239698 -0.647 251 254 247
-0.172495 -0.237105 -0.64 181 181 171
-0.156619 -0.24081 -0.65 186 186 174
0.0879943 -0.193389 -0.522 206 160 144
0.0954981 -0.188572 -0.509 200 157 138
0.103814 -0.187831 -0.507 203 156 136
0.1128 -0.18672 -0.504 199 152 134
0.127143 -0.185238 -0.5 196 149 133
0.128095 -0.185238 -0.5 197 150 134
0.130952 -0.185238 -0.5 196 149 131
0.132857 -0.185238 -0.5 197 150 132
0.13381 -0.185238 -0.5 196 149 131
0.138571 -0.185238 -0.5 199 152 136
0.144286 -0.185238 -0.5 202 155 139
0.170112 -0.187461 -0.506 211 164 156
0.19418 -0.189313 -0.511 207 157 158
0.1971 -0.189313 -0.511 204 154 155
0.198073 -0.189313 -0.511 203 156 150
0.20002 -0.189313 -0.511 209 161 157
0.21462 -0.189313 -0.511 193 132 139
0.22611 -0.190795 -0.515 198 141 150
0.2355 -0.1945 -0.525 203 157 167
0.354169 -0.240439 -0.649 77 76 110
0.366896 -0.237475 -0.641 62 63 84
0.367216 -0.227102 -0.613 63 64 85
0.310354 -0.183756 -0.496 77 69 80
0.3465 -0.183386 -0.495 114 89 93
0.414486 -0.197834 -0.534 139 97 99
0.4455 -0.1945 -0.525 134 90 81
0.461119 -0.198205 -0.535 137 94 87
-0.304543 -0.240558 -0.646 231 233 228
-0.173986 -0.238696 -0.641 179 181 170
-0.0513019 -0.241675 -0.649 71 68 77
0.0866648 -0.195872 -0.526 203 160 143
0.0908286 -0.189914 -0.51 205 159 143
0.0954981 -0.189542 -0.509 204 159 140
0.0964676 -0.189542 -0.509 204 159 140
0.11809 -0.186935 -0.502 195 148 130
0.140476 -0.18619 -0.5 199 152 136
0.145238 -0.18619 -0.5 202 156 141
0.15 -0.18619 -0.5 205 157 143
0.152857 -0.18619 -0.5 197 149 135
0.161118 -0.186935 -0.502 198 150 138
0.1717 -0.188052 -0.505 212 164 160
0.176243 -0.188797 -0.507 217 169 169
0.180461 -0.18917 -0.508 217 171 171
0.19245 -0.189542 -0.509 203 151 155
0.198268 -0.189542 -0.509 203 152 151
0.228071 -0.191776 -0.515 217 164 170
0.230927 -0.192521 -0.517 195 142 150
0.356774 -0.24093 -0.647 81 80 111
0.3588 -0.239813 -0.644 80 80 108
0.312837 -0.182839 -0.491 99 76 84
0.336711 -0.182094 -0.489 180 157 165
0.339959 -0.182839 -0.491 122 91 96
0.355424 -0.188052 -0.505 87 67 78
0.409718 -0.195128 -0.524 166 114 116
0.419016 -0.192521 -0.517 170 117 113
0.436151 -0.19401 -0.521 137 87 80
-0.294048 -0.243286 -0.65 249 250 245
-0.164923 -0.239169 -0.639 184 186 175
0.099181 -0.190137 -0.508 202 155 135
0.0999514 -0.189763 -0.507 201 154 134
0.109392 -0.189389 -0.506 199 152 132
0.11376 -0.18864 -0.504 199 152 132
0.121429 -0.187143 -0.5 196 149 131
0.122381 -0.187143 -0.5 195 148 130
0.128095 -0.187143 -0.5 196 151 132
0.140195 -0.186769 -0.499 200 153 137
0.146849 -0.186769 -0.499 203 156 140
0.147799 -0.186769 -0.499 202 155 139
0.16848 -0.18864 -0.504 205 157 147
0.206737 -0.189389 -0.506 200 144 147
0.212392 -0.190137 -0.508 184 127 133
0.21336 -0.190137 -0.508 185 128 134
0.219057 -0.190886 -0.51 196 139 146
0.226209 -0.192009 -0.513 202 147 153
0.32142 -0.182277 -0.487 129 94 98
0.327913 -0.182277 -0.487 122 93 97
0.420986 -0.193506 -0.517 161 108 102
0.431352 -0.194629 -0.52 137 89 79
0.434167 -0.195003 -0.521 138 91 83
0.459395 -0.199494 -0.533 131 94 88
0.464889 -0.200991 -0.537 123 85 82
0.11376 -0.1896 -0.504 198 150 130
0.11809 -0.188848 -0.502 196 149 129
0.12879 -0.187719 -0.499 197 151 135
0.160797 -0.188471 -0.501 199 147 134
0.16623 -0.189224 -0.503 197 148 134
0.16752 -0.1896 -0.504 200 150 139
0.16848 -0.1896 -0.504 204 154 143
0.174586 -0.189976 -0.505 211 162 158
0.178787 -0.190352 -0.506 212 164 164
0.372219 -0.243019 -0.646 63 63 89
0.373169 -0.238129 -0.633 70 71 92
0.371427 -0.235495 -0.626 67 68 89
0.317151 -0.183957 -0.489 133 104 108
0.328841 -0.183205 -0.487 127 98 102
0.339024 -0.18471 -0.491 116 91 97
0.414893 -0.194867 -0.518 177 122 119
0.44565 -0.197124 -0.524 130 89 83
-0.318814 -0.243871 -0.645 251 252 246
-0.315867 -0.243493 -0.644 228 229 223
-0.302373 -0.243493 -0.644 136 138 133
-0.291571 -0.245762 -0.65 243 244 239
-0.169526 -0.241225 -0.638 184 184 176
0.113534 -0.190182 -0.503 195 147 127
0.121429 -0.189048 -0.5 194 147 127
0.142096 -0.18867 -0.499 199 150 135
0.179395 -0.190938 -0.505 211 160 159
0.20016 -0.19056 -0.504 195 142 136
0.20112 -0.19056 -0.504 191 138 134
0.236229 -0.19661 -0.52 227 207 216
0.372795 -0.244628 -0.647 65 62 89
0.368985 -0.23215 -0.614 63 61 83
0.368949 -0.231394 -0.612 60 58 80
0.367957 -0.226479 -0.599 58 55 74
0.320877 -0.184889 -0.489 122 95 100
0.32208 -0.18451 -0.488 121 90 96
0.42476 -0.195853 -0.518 157 108 101
0.444799 -0.197744 -0.523 135 92 83
0.4475 -0.1985 -0.525 138 95 86
0.466779 -0.203415 -0.538 127 86 80
-0.320275 -0.24434 -0.643 249 250 244
-0.31244 -0.24396 -0.642 151 156 149
-0.307549 -0.24396 -0.642 141 144 137
-0.173986 -0.24358 -0.641 182 183 175
-0.0511438 -0.24586 -0.647 74 71 80
0.102646 -0.19228 -0.506 198 151 131
0.10361 -0.19228 -0.506 197 150 130
0.10629 -0.1919 -0.505 194 147 127
0.10992 -0.19152 -0.504 193 145 125
0.143997 -0.18962 -0.499 198 149 134
0.182281 -0.1919 -0.505 205 154 151
0.1919 -0.1919 -0.505 195 142 138
0.213906 -0.19266 -0.507 183 126 132
0.221971 -0.1938 -0.51 194 141 149
0.370239 -0.24662 -0.649 70 67 94
0.368414 -0.2337 -0.615 63 61 83
0.369878 -0.22952 -0.604 59 56 75
0.317271 -0.1881 -0.495 76 65 73
0.349746 -0.19038 -0.501 94 69 73
0.428707 -0.19684 -0.518 146 97 90
0.469543 -0.2052 -0.54 126 88 79
-0.314395 -0.244801 -0.641 159 162 153
-0.310732 -0.244801 -0.641 149 151 146
-0.173986 -0.244801 -0.641 182 184 173
-0.168574 -0.244037 -0.639 184 184 174
0.0814 -0.197827 -0.518 203 156 138
0.0895048 -0.194008 -0.508 202 157 136
0.0931914 -0.193626 -0.507 205 158 140
0.09802 -0.193626 -0.507 202 155 135
0.10361 -0.193244 -0.506 195 148 128
0.104573 -0.193244 -0.506 195 148 128
0.10629 -0.192862 -0.505 192 145 125
0.107252 -0.192862 -0.505 189 142 122
0.119524 -0.190952 -0.5 196 148 128
0.152551 -0.19057 -0.499 193 142 125
0.155714 -0.190952 -0.5 187 134 120
0.19824 -0.19248 -0.504 178 125 117
0.20496 -0.19248 -0.504 187 131 132
0.206329 -0.192862 -0.505 186 130 131
0.20729 -0.192862 -0.505 181 125 128
0.2263 -0.195153 -0.511 189 136 144
0.230117 -0.195917 -0.513 179 126 132
0.231995 -0.196681 -0.515 169 120 126
0.367867 -0.236781 -0.62 138 138 162
0.363814 -0.223414 -0.585 59 56 73
0.321254 -0.187515 -0.491 119 102 110
0.327657 -0.18637 -0.488 122 87 91
0.344366 -0.189425 -0.496 119 89 91
0.414092 -0.197445 -0.517 176 118 114
-0.309511 -0.246022 -0.641 147 149 144
-0.172495 -0.245638 -0.64 185 185 175
0.12974 -0.191521 -0.499 197 149 129
0.134492 -0.191521 -0.499 197 148 131
0.15065 -0.191521 -0.499 193 140 124
0.152551 -0.191521 -0.499 192 139 123
0.172936 -0.193056 -0.503 198 143 136
0.1848 -0.19344 -0.504 185 130 127
0.211974 -0.194591 -0.507 172 115 121
0.232976 -0.197662 -0.515 156 102 115
0.24242 -0.202268 -0.527 255 253 255
0.326466 -0.187683 -0.489 120 91 95
0.333234 -0.187299 -0.488 119 89 91
0.417047 -0.19843 -0.517 173 115 111
-0.3205 -0.247243 -0.641 238 241 234
-0.316837 -0.247243 -0.641 157 160 153
-0.168574 -0.246471 -0.639 185 185 175
-0.165439 -0.247243 -0.641 185 185 173
-0.0522143 -0.248786 -0.645 71 69 80
0.0830571 -0.196714 -0.51 200 155 132
0.0856343 -0.195943 -0.508 204 157 139
0.0893286 -0.195557 -0.507 202 155 135
0.113534 -0.194014 -0.503 192 144 124
0.117854 -0.193243 -0.501 191 143 121
0.123333 -0.192857 -0.5 194 146 124
0.131641 -0.192471 -0.499 197 149 129
0.139245 -0.192471 -0.499 196 148 128
0.165899 -0.193629 -0.502 190 134 117
0.18576 -0.1944 -0.504 187 132 129
0.19536 -0.1944 -0.504 179 126 120
0.20304 -0.1944 -0.504 175 119 118
0.228693 -0.197486 -0.512 178 125 133
0.366204 -0.230657 -0.598 66 67 87
0.32593 -0.189386 -0.491 127 112 115
0.3262 -0.189 -0.49 132 110 113
0.327397 -0.188614 -0.489 118 89 93
0.327913 -0.187843 -0.487 115 85 93
0.334849 -0.188614 -0.489 119 90 95
0.417067 -0.209829 -0.544 130 98 111
0.408365 -0.200957 -0.521 182 124 120
0.410947 -0.1998 -0.518 172 121 117
0.413108 -0.199414 -0.517 176 123 117
0.450356 -0.202886 -0.526 124 90 81
0.469543 -0.208286 -0.54 122 91 89
-0.16376 -0.249627 -0.644 185 185 175
-0.0657286 -0.250014 -0.645 65 64 72
-0.0615619 -0.248076 -0.64 67 66 74
-0.0578143 -0.247689 -0.639 68 65 72
0.101883 -0.196523 -0.507 198 150 130
0.121671 -0.194197 -0.501 190 144 121
0.131905 -0.19381 -0.5 197 149 129
0.136393 -0.193422 -0.499 196 147 130
0.324233 -0.192647 -0.497 54 53 61
0.326594 -0.190709 -0.492 85 74 78
0.407372 -0.20195 -0.521 187 126 121
0.426894 -0.200399 -0.517 152 102 91
0.469543 -0.209314 -0.54 121 89 90
-0.329662 -0.252022 -0.647 251 252 246
-0.16376 -0.250853 -0.644 186 186 174
0.0836991 -0.197878 -0.508 204 158 135
0.107252 -0.19671 -0.505 194 146 126
0.120002 -0.195541 -0.502 192 146 123
0.122626 -0.195151 -0.501 189 143 120
0.138294 -0.194372 -0.499 195 147 127
0.1752 -0.19632 -0.504 194 141 127
0.215171 -0.198657 -0.51 168 113 118
0.363576 -0.235662 -0.605 122 120 142
0.36253 -0.230598 -0.592 125 127 150
0.327731 -0.193983 -0.498 60 52 65
0.328469 -0.191646 -0.492 93 82 86
0.329 -0.190867 -0.49 126 114 116
0.331123 -0.190477 -0.489 115 85 93
-0.330894 -0.253254 -0.647 251 252 246
-0.164014 -0.252471 -0.645 186 186 174
-0.163543 -0.253646 -0.648 186 186 174
-0.0639 -0.250123 -0.639 66 65 73
0.0774533 -0.20276 -0.518 206 161 138
0.0931914 -0.198454 -0.507 203 157 133
0.0941571 -0.198454 -0.507 202 156 132
0.09802 -0.198454 -0.507 201 153 131
0.11545 -0.196889 -0.503 190 142 120
0.129048 -0.195714 -0.5 194 149 126
0.140195 -0.195323 -0.499 196 145 126
0.147799 -0.195323 -0.499 191 138 120
0.155714 -0.195714 -0.5 177 124 108
0.161751 -0.196106 -0.501 179 126 112
0.18709 -0.197671 -0.505 171 116 111
0.227629 -0.201194 -0.514 179 122 129
0.359971 -0.229377 -0.586 125 122 143
0.359855 -0.228594 -0.584 131 128 149
0.330343 -0.192583 -0.492 97 88 91
0.3318 -0.1918 -0.49 115 90 96
0.4055 -0.2055 -0.525 173 122 118
0.408774 -0.203151 -0.519 170 117 111
0.411138 -0.202369 -0.517 170 117 111
-0.330383 -0.254093 -0.646 251 252 246
-0.16281 -0.255667 -0.65 187 187 175
-0.0690914 -0.25252 -0.642 59 59 67
-0.0677629 -0.252127 -0.641 65 64 72
0.0764667 -0.203747 -0.518 206 161 140
0.09108 -0.199027 -0.506 205 159 135
0.101682 -0.199027 -0.506 200 150 127
0.160797 -0.19706 -0.501 180 127 113
0.164943 -0.197453 -0.502 188 132 117
0.169104 -0.197847 -0.503 185 132 118
0.17232 -0.19824 -0.504 184 131 117
0.207554 -0.199813 -0.508 153 99 97
0.212673 -0.200993 -0.511 140 86 86
0.233347 -0.203747 -0.518 159 106 114
0.359468 -0.230887 -0.587 118 107 124
0.358743 -0.229707 -0.584 116 111 131
0.357877 -0.22774 -0.579 124 122 144
0.35869 -0.226167 -0.575 110 108 129
0.3629 -0.22538 -0.573 52 48 62
0.365343 -0.2242 -0.57 56 58 71
0.363001 -0.221447 -0.563 51 53 66
0.347575 -0.197453 -0.502 80 67 76
0.407618 -0.209647 -0.533 155 110 113
0.40659 -0.204533 -0.52 175 122 118
0.425086 -0.20296 -0.516 160 107 101
0.437443 -0.20414 -0.519 135 96 81
0.468673 -0.212007 -0.539 123 90 83
-0.170057 -0.252952 -0.64 187 188 174
-0.165243 -0.254929 -0.645 187 188 174
0.0860905 -0.199595 -0.505 205 159 135
0.0939714 -0.19999 -0.506 202 154 132
0.0987905 -0.19999 -0.506 201 150 129
0.105329 -0.199595 -0.505 196 146 123
0.11088 -0.1992 -0.504 188 140 118
0.131214 -0.198014 -0.501 193 142 121
0.133123 -0.198014 -0.501 190 139 118
0.134077 -0.198014 -0.501 189 138 117
0.150952 -0.197619 -0.5 182 129 113
0.168146 -0.198805 -0.503 177 124 110
0.177823 -0.19999 -0.506 176 123 109
0.204085 -0.201176 -0.509 151 97 95
0.21588 -0.203152 -0.514 140 89 96
0.224467 -0.204733 -0.518 160 107 113
0.226877 -0.205129 -0.519 163 110 116
0.23569 -0.205919 -0.521 166 120 130
0.2415 -0.2075 -0.525 248 231 241
0.376076 -0.252952 -0.64 124 121 142
0.420171 -0.203943 -0.516 163 110 104
0.43364 -0.204733 -0.518 143 100 84
0.451358 -0.207895 -0.526 119 89 79
0.45408 -0.208686 -0.528 119 91 80
-0.320215 -0.253377 -0.638 162 164 159
-0.167881 -0.254569 -0.641 189 187 172
0.0795143 -0.200954 -0.506 209 164 143
0.0881886 -0.200954 -0.506 206 158 136
0.0997543 -0.200954 -0.506 198 147 126
