ply
format ascii 1.0
comment Created by Open3D
element vertex 1288
property double x
property double y
property double z
property uchar red
property uchar green
property uchar blue
end_header
0.347443 -0.408519 -0.605 145 150 182
0.356662 -0.408519 -0.605 76 99 141
0.37448 -0.407844 -0.604 83 97 136
0.410145 -0.407844 -0.604 127 134 150
0.44811 -0.407844 -0.604 156 159 168
0.467669 -0.407844 -0.604 79 93 120
0.478023 -0.407844 -0.604 169 172 191
0.488377 -0.407844 -0.604 66 95 151
0.491829 -0.407844 -0.604 97 121 169
0.498227 -0.406493 -0.602 101 125 171
0.501978 -0.405818 -0.601 164 168 177
0.507702 -0.405818 -0.601 161 160 174
0.504314 -0.384886 -0.57 141 110 105
0.4698 -0.352474 -0.522 156 119 103
0.46224 -0.34032 -0.504 174 128 105
0.4632 -0.34032 -0.504 173 128 105
0.472843 -0.334243 -0.495 172 124 102
0.485061 -0.333568 -0.494 161 111 84
0.509485 -0.343696 -0.509 146 106 81
0.590738 -0.389612 -0.577 191 190 188
1.01783 -0.390288 -0.578 203 206 189
1.02444 -0.390288 -0.578 204 206 192
0.0303095 -0.321643 -0.475 185 141 116
0.0399371 -0.326383 -0.482 158 119 104
0.0692352 -0.354146 -0.523 106 86 88
0.0908743 -0.377846 -0.558 104 85 89
0.101086 -0.392743 -0.58 155 168 200
0.102895 -0.395451 -0.584 146 162 198
0.126603 -0.411026 -0.607 188 198 223
0.135852 -0.411026 -0.607 208 211 228
0.165913 -0.411026 -0.607 124 136 162
0.174874 -0.410349 -0.606 126 145 188
0.178337 -0.410349 -0.606 122 140 186
0.207194 -0.410349 -0.606 169 183 218
0.208349 -0.410349 -0.606 162 176 211
0.2222 -0.410349 -0.606 195 200 219
0.235662 -0.409671 -0.605 124 143 176
0.252948 -0.409671 -0.605 193 196 211
0.263754 -0.410349 -0.606 79 105 164
0.287044 -0.408994 -0.604 191 197 211
0.288866 -0.408317 -0.603 187 193 209
0.296248 -0.408994 -0.604 109 136 181
0.336514 -0.408994 -0.604 35 73 146
0.352621 -0.408994 -0.604 113 121 142
0.360674 -0.408994 -0.604 37 77 139
0.387643 -0.408317 -0.603 61 93 140
0.411763 -0.408317 -0.603 179 186 196
0.415209 -0.408317 -0.603 179 187 198
0.4221 -0.408317 -0.603 59 97 159
0.460003 -0.408317 -0.603 56 85 141
0.476083 -0.408317 -0.603 166 169 186
0.491014 -0.408317 -0.603 111 132 175
0.492163 -0.408317 -0.603 93 114 157
0.46311 -0.342634 -0.506 170 125 104
0.465258 -0.337894 -0.499 175 129 106
0.481262 -0.333831 -0.493 166 116 91
0.942391 -0.392066 -0.579 208 210 196
0.987004 -0.391389 -0.578 205 208 191
0.996912 -0.391389 -0.578 205 207 193
1.01012 -0.391389 -0.578 205 207 193
1.01717 -0.390711 -0.577 203 206 189
1.03875 -0.391389 -0.578 203 206 189
1.04646 -0.391389 -0.578 203 205 191
0.00404571 -0.32051 -0.472 206 167 138
0.0130086 -0.319831 -0.471 203 161 136
0.0139352 -0.32051 -0.472 204 163 135
0.0148343 -0.32051 -0.472 204 163 135
0.0257314 -0.321869 -0.474 195 151 122
0.0275371 -0.321869 -0.474 187 143 116
0.0369514 -0.325264 -0.479 170 126 101
0.0632714 -0.34971 -0.515 113 87 86
0.121978 -0.412182 -0.607 154 166 182
0.158714 -0.411503 -0.606 194 202 215
0.186417 -0.411503 -0.606 192 195 212
0.21031 -0.410824 -0.605 89 115 164
0.212614 -0.410824 -0.605 65 95 149
0.22529 -0.410824 -0.605 199 197 219
0.241424 -0.410824 -0.605 104 124 174
0.269787 -0.410145 -0.604 67 92 149
0.294609 -0.409466 -0.603 116 141 182
0.319877 -0.409466 -0.603 143 154 182
0.322174 -0.409466 -0.603 127 145 185
0.327917 -0.409466 -0.603 44 74 136
0.333063 -0.410145 -0.604 42 75 152
0.361825 -0.410145 -0.604 35 75 137
0.377306 -0.409466 -0.603 175 183 196
0.385853 -0.408787 -0.602 108 137 181
0.449666 -0.409466 -0.603 82 85 102
0.460003 -0.409466 -0.603 71 97 148
0.464973 -0.408787 -0.602 59 81 122
0.47034 -0.409466 -0.603 123 139 165
0.488717 -0.409466 -0.603 113 134 179
0.497399 -0.408108 -0.601 109 132 174
0.498544 -0.408108 -0.601 143 150 169
0.4716 -0.355821 -0.524 153 115 102
0.469892 -0.353784 -0.521 154 116 103
0.465609 -0.348351 -0.513 164 123 105
0.463306 -0.340203 -0.501 174 127 107
0.470019 -0.336808 -0.496 174 128 104
0.975994 -0.39249 -0.578 205 207 193
0.99471 -0.39249 -0.578 206 209 192
0.996912 -0.39249 -0.578 205 208 191
1.02309 -0.391131 -0.576 203 205 191
0.00135429 -0.322771 -0.474 207 167 141
0.00762571 -0.320729 -0.471 207 165 140
0.0202286 -0.32141 -0.472 198 154 129
0.0716362 -0.358181 -0.526 106 83 89
0.07406 -0.360224 -0.529 106 83 89
0.0781029 -0.36499 -0.536 102 86 89
0.0941667 -0.384738 -0.565 98 88 99
0.135629 -0.412657 -0.606 208 207 225
0.166519 -0.411976 -0.605 118 134 167
0.183805 -0.411976 -0.605 193 195 208
0.331363 -0.410614 -0.603 43 72 148
0.335957 -0.410614 -0.603 44 72 145
0.339403 -0.410614 -0.603 41 77 139
0.360077 -0.410614 -0.603 54 94 156
0.41108 -0.409933 -0.602 179 186 194
0.412227 -0.409933 -0.602 179 186 194
0.415667 -0.409933 -0.602 176 180 189
0.446627 -0.409933 -0.602 140 145 164
0.475293 -0.409933 -0.602 167 170 185
0.478733 -0.409933 -0.602 166 172 184
0.485613 -0.409933 -0.602 82 105 146
0.50259 -0.40789 -0.599 163 163 173
0.464286 -0.340476 -0.5 174 127 107
0.468127 -0.338433 -0.497 172 126 102
0.4917 -0.337071 -0.495 159 113 89
0.917644 -0.39359 -0.578 208 210 196
0.974306 -0.39291 -0.577 204 206 192
0.998485 -0.39291 -0.577 205 208 191
1.00398 -0.39291 -0.577 205 207 193
1.02089 -0.392229 -0.576 204 206 192
-0.000455238 -0.326406 -0.478 202 165 136
0.00403714 -0.321626 -0.471 206 167 138
0.00672857 -0.321626 -0.471 205 166 137
0.0211276 -0.322309 -0.472 199 155 128
0.0220733 -0.322991 -0.473 200 156 129
0.0399371 -0.329137 -0.482 156 114 98
0.0420333 -0.331186 -0.485 152 113 98
0.0528571 -0.341429 -0.5 125 95 93
0.123881 -0.413129 -0.605 153 164 192
0.125033 -0.413129 -0.605 132 143 173
0.12849 -0.413129 -0.605 203 211 234
0.135405 -0.413129 -0.605 205 210 232
0.207661 -0.412446 -0.604 72 108 160
0.211112 -0.412446 -0.604 65 87 147
0.224918 -0.412446 -0.604 195 196 216
0.236423 -0.412446 -0.604 89 112 162
0.241025 -0.412446 -0.604 110 136 185
0.250229 -0.412446 -0.604 191 197 209
0.26934 -0.411763 -0.603 54 80 141
0.281507 -0.41108 -0.602 186 190 215
0.299853 -0.41108 -0.602 70 100 164
0.322787 -0.41108 -0.602 66 83 127
0.330813 -0.41108 -0.602 47 75 148
0.377199 -0.410397 -0.601 175 184 199
0.380633 -0.410397 -0.601 157 162 166
0.384068 -0.410397 -0.601 146 147 167
0.395515 -0.410397 -0.601 32 67 133
0.433292 -0.410397 -0.601 113 149 199
0.44245 -0.410397 -0.601 178 181 190
0.445885 -0.410397 -0.601 135 141 163
0.479083 -0.410397 -0.601 163 170 180
0.480228 -0.410397 -0.601 165 175 187
0.508585 -0.408349 -0.598 141 152 180
0.469981 -0.355086 -0.52 160 121 104
0.467424 -0.351671 -0.515 161 123 104
0.478411 -0.335966 -0.492 166 120 96
0.49558 -0.33938 -0.497 154 113 91
0.500476 -0.341429 -0.5 149 111 88
0.931443 -0.394009 -0.577 207 210 193
0.949028 -0.394009 -0.577 206 208 194
0.967711 -0.394009 -0.577 206 208 194
0.98688 -0.393326 -0.576 205 208 191
0.996287 -0.394009 -0.577 205 208 191
1.00068 -0.394009 -0.577 204 206 192
1.05271 -0.393326 -0.576 203 205 191
0.0202286 -0.323208 -0.472 198 154 129
0.0211276 -0.323208 -0.472 199 155 128
0.05746 -0.347174 -0.507 117 93 91
0.0609524 -0.350598 -0.512 113 89 87
0.0692352 -0.35813 -0.523 105 86 88
0.0881124 -0.379358 -0.554 100 80 81
0.0976829 -0.392369 -0.573 165 164 182
0.15269 -0.414281 -0.605 199 202 221
0.15819 -0.413596 -0.604 199 199 211
0.195006 -0.413596 -0.604 78 101 143
0.209614 -0.412911 -0.603 67 106 161
0.257854 -0.412911 -0.603 178 189 217
0.2613 -0.412911 -0.603 101 125 173
0.271187 -0.412227 -0.602 65 92 147
0.27348 -0.412227 -0.602 118 147 207
0.275773 -0.412227 -0.602 158 178 229
0.277605 -0.411542 -0.601 155 173 195
0.307369 -0.411542 -0.601 74 107 158
0.315382 -0.411542 -0.601 119 131 145
0.358883 -0.411542 -0.601 60 98 160
0.360028 -0.411542 -0.601 54 92 154
0.365751 -0.411542 -0.601 63 99 157
0.401239 -0.411542 -0.601 72 91 124
0.413831 -0.411542 -0.601 185 183 204
0.416121 -0.411542 -0.601 162 179 207
0.432571 -0.410857 -0.6 121 153 202
0.437143 -0.410857 -0.6 181 179 190
0.44703 -0.411542 -0.601 119 123 150
0.481372 -0.411542 -0.601 162 171 186
0.50259 -0.410172 -0.599 159 163 174
0.48215 -0.368402 -0.538 153 116 98
0.4735 -0.3595 -0.525 156 118 105
0.470019 -0.339642 -0.496 172 126 103
0.481223 -0.336903 -0.492 169 121 99
0.48216 -0.336903 -0.492 166 118 96
0.489766 -0.338272 -0.494 164 118 95
0.927047 -0.395108 -0.577 207 210 193
0.967131 -0.394423 -0.576 205 207 193
0.977006 -0.394423 -0.576 204 206 192
0.978103 -0.394423 -0.576 203 205 191
0.99456 -0.394423 -0.576 204 206 192
1.00926 -0.393738 -0.575 205 208 191
0.0103171 -0.32342 -0.471 205 166 135
0.0201857 -0.32342 -0.471 196 154 129
0.0265781 -0.324793 -0.473 186 144 119
0.0552 -0.34608 -0.504 119 94 90
0.0586562 -0.349513 -0.509 115 91 89
0.0610714 -0.35226 -0.513 110 89 88
0.0632714 -0.353633 -0.515 110 89 88
0.0978533 -0.394147 -0.574 171 174 193
0.113134 -0.41406 -0.603 184 190 214
0.115623 -0.414747 -0.604 215 216 236
0.130579 -0.414747 -0.604 166 173 201
0.13288 -0.414747 -0.604 181 187 213
0.138862 -0.415433 -0.605 169 172 191
0.142319 -0.415433 -0.605 190 196 218
0.182049 -0.41406 -0.603 183 195 209
0.226843 -0.41406 -0.603 135 145 170
0.227991 -0.41406 -0.603 104 131 184
0.22914 -0.41406 -0.603 101 125 173
0.25972 -0.413373 -0.602 139 160 203
0.286286 -0.412 -0.6 118 124 150
0.294776 -0.412687 -0.601 64 95 150
0.299355 -0.412687 -0.601 53 90 145
0.311429 -0.412 -0.6 180 188 211
0.340567 -0.412687 -0.601 160 175 208
0.431003 -0.412687 -0.601 73 102 146
0.434857 -0.412 -0.6 176 179 194
0.446286 -0.412 -0.6 103 113 138
0.455429 -0.412 -0.6 142 152 179
0.495429 -0.412 -0.6 83 105 142
0.498026 -0.411313 -0.599 159 166 192
0.50175 -0.410627 -0.598 149 153 165
0.465909 -0.348827 -0.508 165 127 108
0.465214 -0.34402 -0.501 171 129 107
0.470957 -0.3399 -0.495 173 126 106
0.480245 -0.337153 -0.491 160 114 91
0.58271 -0.388653 -0.566 194 176 166
0.937509 -0.39552 -0.576 207 210 193
0.952869 -0.39552 -0.576 207 210 193
0.9792 -0.39552 -0.576 205 208 191
1.00598 -0.394833 -0.575 205 207 193
1.0086 -0.394147 -0.574 204 206 192
1.04869 -0.394833 -0.575 202 204 190
-0.0022619 -0.327071 -0.475 203 166 137
-0.00135143 -0.325694 -0.473 203 166 137
0.00134286 -0.323629 -0.47 206 167 138
0.00402 -0.32294 -0.469 205 166 137
0.00760952 -0.323629 -0.47 205 166 137
0.0238248 -0.325006 -0.472 192 151 119
0.0293429 -0.326383 -0.474 179 137 112
0.0321867 -0.32776 -0.476 175 130 107
0.0399371 -0.331891 -0.482 152 110 96
0.0731905 -0.364943 -0.53 104 86 86
0.0808924 -0.372517 -0.541 101 86 89
0.0881124 -0.381469 -0.554 101 82 84
0.0998086 -0.398683 -0.579 182 186 211
0.150137 -0.415897 -0.604 181 186 215
0.162523 -0.415209 -0.603 117 136 166
0.16482 -0.415209 -0.603 104 126 167
0.189773 -0.41452 -0.602 194 195 213
0.19092 -0.41452 -0.602 175 176 194
0.24252 -0.41452 -0.602 85 119 167
0.2494 -0.41452 -0.602 198 198 222
0.251693 -0.41452 -0.602 171 176 196
0.265012 -0.413831 -0.601 58 84 145
0.318286 -0.413143 -0.6 169 183 209
0.319429 -0.413143 -0.6 174 188 214
0.344001 -0.413831 -0.601 183 190 208
0.402186 -0.412454 -0.599 105 115 140
0.409031 -0.412454 -0.599 182 185 200
0.428 -0.413143 -0.6 111 138 183
0.439837 -0.412454 -0.599 179 180 198
0.458857 -0.413143 -0.6 130 138 161
0.482857 -0.413143 -0.6 125 136 154
0.498333 -0.411766 -0.598 165 167 180
0.517101 -0.410389 -0.596 164 170 182
0.519371 -0.410389 -0.596 160 166 178
0.469314 -0.355303 -0.516 160 122 111
0.466771 -0.351171 -0.51 164 125 108
0.469074 -0.341531 -0.496 171 126 105
0.476537 -0.338777 -0.492 170 124 101
0.478374 -0.338089 -0.491 167 121 98
0.500371 -0.342909 -0.498 147 110 91
0.93369 -0.395929 -0.575 207 210 193
0.938071 -0.395929 -0.575 206 209 192
0.9408 -0.396617 -0.576 206 209 192
0.941897 -0.396617 -0.576 206 209 192
0.949024 -0.395929 -0.575 206 209 192
0.95231 -0.395929 -0.575 207 210 193
0.958881 -0.395929 -0.575 206 209 192
0.997214 -0.395929 -0.575 204 206 192
1.00379 -0.395929 -0.575 203 205 191
0.012981 -0.324524 -0.47 201 162 133
0.0247238 -0.325905 -0.472 188 147 119
0.0330933 -0.328667 -0.476 169 124 103
0.0340714 -0.329357 -0.477 167 122 103
0.036039 -0.330738 -0.479 164 119 100
0.0431343 -0.336262 -0.487 142 102 90
0.0541324 -0.34731 -0.503 123 93 85
0.0658667 -0.359048 -0.52 105 85 86
0.068239 -0.361119 -0.523 104 86 86
0.0731905 -0.365952 -0.53 103 87 88
0.148987 -0.417048 -0.604 144 157 199
0.167117 -0.416357 -0.603 115 138 190
0.208919 -0.414976 -0.601 113 153 215
0.23564 -0.415667 -0.602 56 98 158
0.236787 -0.415667 -0.602 72 110 173
0.248986 -0.414976 -0.601 192 196 223
0.25242 -0.414976 -0.601 95 109 144
0.262723 -0.414976 -0.601 54 80 139
0.266857 -0.414286 -0.6 59 84 150
0.27554 -0.413595 -0.599 84 114 164
0.318896 -0.413595 -0.599 179 190 212
0.32346 -0.413595 -0.599 86 105 147
0.356 -0.414286 -0.6 69 102 156
0.415877 -0.413595 -0.599 164 170 184
0.435273 -0.413595 -0.599 180 177 198
0.444401 -0.413595 -0.599 109 116 145
0.447824 -0.413595 -0.599 165 172 200
0.456951 -0.413595 -0.599 101 104 123
0.475207 -0.413595 -0.599 151 158 186
0.501208 -0.411524 -0.596 73 88 121
0.503478 -0.411524 -0.596 97 112 145
0.509154 -0.411524 -0.596 157 161 173
0.466043 -0.34869 -0.505 170 127 110
0.468127 -0.343167 -0.497 174 129 108
0.470019 -0.342476 -0.496 173 128 107
0.472829 -0.341095 -0.494 171 126 107
0.475628 -0.340405 -0.493 172 125 107
0.922738 -0.397024 -0.575 207 209 195
0.945738 -0.397024 -0.575 205 208 191
0.947929 -0.397024 -0.575 206 209 192
0.961587 -0.396333 -0.574 205 207 193
0.969833 -0.397024 -0.575 205 207 193
0.973119 -0.397024 -0.575 206 208 194
0.9758 -0.396333 -0.574 205 208 191
0.981881 -0.397024 -0.575 205 208 191
0.984547 -0.396333 -0.574 205 208 191
0.98564 -0.396333 -0.574 204 207 190
0.991107 -0.396333 -0.574 205 207 193
1.02212 -0.395643 -0.573 203 205 191
-0.00317333 -0.329573 -0.476 199 164 134
0.00223333 -0.324727 -0.469 203 166 137
0.00580667 -0.324727 -0.469 204 167 138
0.0147714 -0.325419 -0.47 198 158 132
0.0302457 -0.328189 -0.474 176 134 110
0.117533 -0.416813 -0.602 215 214 230
0.142084 -0.418198 -0.604 135 152 196
0.164547 -0.416813 -0.602 115 136 183
0.16684 -0.416813 -0.602 115 138 188
0.171427 -0.416813 -0.602 94 118 164
0.187169 -0.416121 -0.601 186 190 201
0.203195 -0.416121 -0.601 26 68 142
0.207774 -0.416121 -0.601 96 134 199
0.217714 -0.415429 -0.6 163 169 193
0.22838 -0.416121 -0.601 97 126 184
0.237538 -0.416121 -0.601 66 107 173
0.240972 -0.416121 -0.601 83 124 176
0.248986 -0.416121 -0.601 174 184 211
0.32346 -0.414736 -0.599 77 96 138
0.345138 -0.414736 -0.599 121 121 131
0.373038 -0.414044 -0.598 173 183 195
0.381511 -0.413351 -0.597 64 83 123
0.382649 -0.413351 -0.597 59 82 123
0.396958 -0.414044 -0.598 107 122 151
0.412905 -0.414044 -0.598 177 184 194
0.432269 -0.414044 -0.598 166 170 195
0.434547 -0.414044 -0.598 175 176 197
0.441381 -0.414044 -0.598 122 129 157
0.471784 -0.414736 -0.599 60 76 109
0.489221 -0.414044 -0.598 86 112 163
0.504613 -0.412659 -0.596 136 147 179
0.5083 -0.411967 -0.595 118 121 128
0.5151 -0.411967 -0.595 161 161 171
0.471962 -0.360038 -0.52 163 121 107
0.469074 -0.343421 -0.496 170 125 106
0.471888 -0.342036 -0.494 175 128 108
0.4756 -0.340651 -0.492 171 124 106
0.483933 -0.339267 -0.49 165 119 96
0.97252 -0.397427 -0.574 204 207 190
0.991107 -0.397427 -0.574 204 206 192
1.00903 -0.396734 -0.573 203 205 191
1.04504 -0.396734 -0.573 202 204 190
0.00401143 -0.324926 -0.468 203 168 138
0.0102733 -0.32562 -0.469 204 168 136
0.0379429 -0.333257 -0.48 154 110 101
0.0441524 -0.338811 -0.488 139 99 91
0.0562714 -0.350614 -0.505 115 90 86
0.112947 -0.41796 -0.602 173 179 201
0.146443 -0.418654 -0.603 106 125 167
0.14874 -0.418654 -0.603 172 185 217
0.151681 -0.417266 -0.601 199 198 214
0.155115 -0.417266 -0.601 196 199 214
0.184571 -0.416571 -0.6 190 188 209
0.256571 -0.416571 -0.6 107 132 172
0.265714 -0.416571 -0.6 57 84 153
0.284192 -0.415183 -0.598 192 199 207
0.28647 -0.415183 -0.598 135 138 147
0.28761 -0.415183 -0.598 153 156 165
0.313808 -0.415183 -0.598 186 193 212
0.321781 -0.415183 -0.598 89 110 153
0.337728 -0.415183 -0.598 56 85 141
0.343423 -0.415183 -0.598 132 131 139
0.368482 -0.415183 -0.598 136 160 204
0.382649 -0.414489 -0.597 68 92 130
0.390609 -0.414489 -0.597 107 127 151
0.409488 -0.415183 -0.598 173 182 199
0.424295 -0.415183 -0.598 119 147 187
0.43113 -0.415183 -0.598 123 140 183
0.445937 -0.415183 -0.598 161 176 197
0.461111 -0.414489 -0.597 164 171 190
0.47783 -0.415183 -0.598 146 151 180
0.486943 -0.415183 -0.598 72 100 147
0.510567 -0.4131 -0.595 162 164 159
0.513967 -0.4131 -0.595 163 163 173
0.511133 -0.39852 -0.574 128 107 104
0.469453 -0.356863 -0.514 163 122 104
0.468127 -0.34506 -0.497 171 128 109
0.470957 -0.343671 -0.495 174 129 108
0.492469 -0.341589 -0.492 152 111 93
0.91676 -0.39852 -0.574 206 208 194
0.963186 -0.397826 -0.573 205 207 193
0.97252 -0.39852 -0.574 204 206 192
0.983453 -0.39852 -0.574 204 206 192
0.987197 -0.397826 -0.573 203 205 191
0.990471 -0.397826 -0.573 204 206 192
1.01053 -0.397131 -0.572 203 205 191
1.03085 -0.397826 -0.573 204 206 192
0.00401143 -0.325817 -0.468 205 168 139
0.029281 -0.329298 -0.473 175 133 108
0.032119 -0.33069 -0.475 170 125 106
0.0647514 -0.361323 -0.519 109 84 79
0.0869 -0.384993 -0.553 100 85 92
0.120772 -0.41841 -0.601 212 215 224
0.151681 -0.41841 -0.601 195 197 212
0.168571 -0.417714 -0.6 71 102 157
0.170857 -0.417714 -0.6 72 107 161
0.19225 -0.417018 -0.599 128 143 176
0.202857 -0.417714 -0.6 28 70 146
0.217351 -0.417018 -0.599 105 118 150
0.228761 -0.417018 -0.599 60 95 151
0.234466 -0.417018 -0.599 38 81 150
0.237889 -0.417018 -0.599 44 83 150
0.23903 -0.417018 -0.599 51 90 157
0.258857 -0.417714 -0.6 132 155 189
0.308112 -0.416322 -0.598 177 186 203
0.317831 -0.415626 -0.597 139 147 168
0.333171 -0.416322 -0.598 99 119 178
0.342284 -0.416322 -0.598 129 141 163
0.352535 -0.416322 -0.598 166 177 197
0.361648 -0.416322 -0.598 117 145 195
0.362787 -0.416322 -0.598 107 135 185
0.375196 -0.41493 -0.596 177 180 197
0.400843 -0.415626 -0.597 144 156 182
0.42999 -0.416322 -0.598 100 118 158
0.43113 -0.416322 -0.598 128 146 186
0.442917 -0.415626 -0.597 90 104 139
0.446329 -0.415626 -0.597 164 174 186
0.469071 -0.415626 -0.597 142 155 174
0.472135 -0.416322 -0.598 98 113 142
0.467844 -0.353665 -0.508 164 127 109
0.467071 -0.350184 -0.503 168 126 110
0.467123 -0.348791 -0.501 170 128 112
0.469074 -0.34531 -0.496 172 129 112
0.472829 -0.343918 -0.494 175 130 107
0.474663 -0.342526 -0.492 170 125 104
0.476537 -0.342526 -0.492 170 123 103
0.902547 -0.399613 -0.574 208 210 196
0.919529 -0.398917 -0.573 206 208 194
0.927693 -0.399613 -0.574 207 209 195
0.959326 -0.398221 -0.572 205 207 193
0.998549 -0.398221 -0.572 204 206 192
0.99789 -0.397525 -0.571 203 205 191
1.01925 -0.398221 -0.572 202 205 188
1.02034 -0.398221 -0.572 202 205 188
0.0120343 -0.326709 -0.468 204 165 134
0.0310829 -0.330199 -0.473 172 130 108
0.0388571 -0.335086 -0.48 155 111 100
0.051801 -0.34835 -0.499 122 92 84
0.0611905 -0.358821 -0.514 110 85 80
0.0672429 -0.365104 -0.523 106 85 82
0.0772257 -0.374877 -0.537 104 86 86
0.08268 -0.38116 -0.546 106 81 85
0.108597 -0.416763 -0.597 154 168 197
0.158286 -0.418857 -0.6 183 190 206
0.168571 -0.418857 -0.6 72 102 162
0.174286 -0.418857 -0.6 90 130 191
0.183123 -0.418159 -0.599 189 191 212
0.184264 -0.418159 -0.599 180 186 212
0.188828 -0.418159 -0.599 87 108 151
0.219267 -0.417461 -0.598 178 190 204
0.233325 -0.418159 -0.599 35 75 145
0.243593 -0.418159 -0.599 147 172 213
0.265968 -0.417461 -0.598 55 83 148
0.279836 -0.416065 -0.596 192 194 209
0.301911 -0.416763 -0.597 101 134 187
0.337163 -0.416763 -0.597 58 85 132
0.3383 -0.416763 -0.597 57 80 132
0.339437 -0.416763 -0.597 75 98 150
0.36218 -0.416763 -0.597 102 128 177
0.385413 -0.416065 -0.596 150 162 186
0.387684 -0.416065 -0.596 159 167 190
0.389954 -0.416065 -0.596 113 119 141
0.429271 -0.416763 -0.597 100 118 156
0.436499 -0.416065 -0.596 111 120 135
0.446716 -0.416065 -0.596 167 175 186
0.455798 -0.416065 -0.596 161 169 182
0.458837 -0.416763 -0.597 162 170 183
0.464523 -0.416763 -0.597 165 171 183
0.48872 -0.416065 -0.596 67 98 155
0.494396 -0.416065 -0.596 114 133 173
0.513103 -0.414669 -0.594 133 135 150
0.491468 -0.342765 -0.491 154 113 95
0.899267 -0.400707 -0.574 208 210 196
0.932626 -0.400009 -0.573 205 207 193
0.954968 -0.39931 -0.572 206 208 194
0.980649 -0.400009 -0.573 205 207 193
0.993101 -0.39931 -0.572 204 206 192
0.996803 -0.398612 -0.571 205 207 193
1.0142 -0.398612 -0.571 203 205 191
1.02579 -0.39931 -0.572 203 205 191
0.00756095 -0.3269 -0.467 205 166 137
0.0120343 -0.3276 -0.468 203 164 133
0.0138171 -0.3276 -0.468 200 161 130
0.01742 -0.3283 -0.469 195 156 125
0.0201 -0.3283 -0.469 192 151 123
0.0378638 -0.3353 -0.479 158 112 99
0.051801 -0.3493 -0.499 121 91 83
0.0685 -0.3675 -0.525 109 85 83
0.07854 -0.3773 -0.539 105 85 84
0.115049 -0.4207 -0.601 204 206 227
0.128571 -0.42 -0.6 158 172 207
0.164868 -0.4193 -0.599 96 131 187
0.185095 -0.4186 -0.598 135 143 164
0.223823 -0.4186 -0.598 131 160 192
0.235213 -0.4186 -0.598 50 90 160
0.240909 -0.4186 -0.598 83 120 175
0.250439 -0.4193 -0.599 184 193 210
0.256855 -0.4186 -0.598 133 149 182
0.310488 -0.4172 -0.596 177 190 207
0.315029 -0.4172 -0.596 172 175 194
0.322975 -0.4172 -0.596 107 130 172
0.340004 -0.4172 -0.596 99 112 129
0.3825 -0.4165 -0.595 154 163 180
0.424011 -0.4172 -0.596 102 128 179
0.428552 -0.4172 -0.596 111 129 169
0.433093 -0.4172 -0.596 169 177 196
0.444446 -0.4172 -0.596 168 175 185
0.46488 -0.4172 -0.596 168 172 184
0.471691 -0.4172 -0.596 144 151 169
0.478503 -0.4172 -0.596 127 142 175
0.493261 -0.4172 -0.596 58 90 139
0.4905 -0.3815 -0.545 142 115 104
0.473031 -0.3633 -0.519 160 123 105
0.470432 -0.3598 -0.514 162 123 108
0.468765 -0.3563 -0.509 168 124 111
0.468811 -0.3556 -0.508 165 128 109
0.4756 -0.3444 -0.492 166 121 98
0.476504 -0.3437 -0.491 171 125 102
0.481083 -0.3423 -0.489 170 123 103
0.503153 -0.3479 -0.497 151 113 92
0.912476 -0.4004 -0.572 207 209 196
0.919013 -0.4004 -0.572 207 209 196
0.939174 -0.4011 -0.573 207 210 193
0.960911 -0.3997 -0.571 205 207 193
0.970221 -0.4004 -0.572 204 206 192
0.984385 -0.4004 -0.572 205 207 193
1.00049 -0.399 -0.57 204 206 192
1.03704 -0.3997 -0.571 202 204 190
-0.00586857 -0.332703 -0.474 201 165 129
0.00044381 -0.327088 -0.466 203 166 137
0.0541324 -0.353058 -0.503 118 88 80
0.0600943 -0.360077 -0.513 113 84 80
0.0648762 -0.36499 -0.52 111 83 80
0.07476 -0.374817 -0.534 108 84 84
0.109918 -0.419739 -0.598 147 163 199
0.112571 -0.421143 -0.6 154 165 197
0.118089 -0.420441 -0.599 216 215 231
0.130857 -0.421143 -0.6 119 137 185
0.146612 -0.420441 -0.599 186 191 221
0.20332 -0.419739 -0.598 26 70 133
0.210154 -0.419739 -0.598 155 181 230
0.211293 -0.419739 -0.598 164 180 214
0.240909 -0.419739 -0.598 84 122 184
0.255716 -0.419739 -0.598 150 165 204
0.27416 -0.418335 -0.596 119 135 171
0.279836 -0.418335 -0.596 189 187 198
0.299135 -0.418335 -0.596 118 148 198
0.357032 -0.418335 -0.596 100 124 170
0.371167 -0.417633 -0.595 177 178 198
0.3723 -0.417633 -0.595 165 167 190
0.3791 -0.417633 -0.595 160 171 191
0.415367 -0.417633 -0.595 154 160 184
0.439167 -0.417633 -0.595 126 138 176
0.466367 -0.417633 -0.595 165 167 180
0.4709 -0.417633 -0.595 158 166 179
0.476232 -0.418335 -0.596 84 93 132
0.4879 -0.417633 -0.595 33 62 122
0.468929 -0.354462 -0.505 165 127 106
0.471909 -0.348145 -0.496 175 130 109
0.492333 -0.343933 -0.49 156 115 93
0.902066 -0.402191 -0.573 207 209 196
0.915745 -0.40149 -0.572 208 210 197
0.923932 -0.400788 -0.571 205 207 194
0.928819 -0.40149 -0.572 205 207 193
0.941893 -0.40149 -0.572 206 209 192
0.948431 -0.40149 -0.572 206 209 192
0.963087 -0.400788 -0.571 205 207 193
0.968525 -0.400788 -0.571 205 207 193
0.974579 -0.40149 -0.572 205 207 193
1.00198 -0.399384 -0.569 203 205 191
1.02726 -0.400788 -0.571 203 206 189
1.02834 -0.400788 -0.571 203 205 191
0.00576952 -0.327975 -0.466 202 163 130
0.00845048 -0.328679 -0.467 201 162 129
0.0388571 -0.337829 -0.48 150 107 98
0.0430457 -0.342051 -0.486 141 103 94
0.0441524 -0.343459 -0.488 138 100 91
0.0496 -0.34909 -0.496 126 93 84
0.0625324 -0.36387 -0.517 113 84 80
0.0710371 -0.372315 -0.529 111 87 85
0.11903 -0.420878 -0.598 209 212 229
0.161175 -0.420878 -0.598 84 114 164
0.172566 -0.420878 -0.598 42 77 141
0.220037 -0.420174 -0.597 187 190 207
0.22686 -0.420174 -0.597 74 109 167
0.267349 -0.41947 -0.596 61 88 143
0.2805 -0.418767 -0.595 127 128 132
0.296367 -0.418767 -0.595 113 140 185
0.353033 -0.418767 -0.595 128 143 176
0.367767 -0.418767 -0.595 164 175 195
0.378463 -0.418063 -0.594 159 170 188
0.382989 -0.418063 -0.594 164 171 190
0.386383 -0.418063 -0.594 169 176 195
0.388646 -0.418063 -0.594 159 165 179
0.404486 -0.418063 -0.594 127 136 165
0.408567 -0.418767 -0.595 72 88 124
0.4097 -0.418767 -0.595 90 106 139
0.445217 -0.418063 -0.594 163 167 176
0.44748 -0.418063 -0.594 132 134 133
0.4675 -0.418767 -0.595 162 164 176
0.469767 -0.418767 -0.595 160 166 180
0.482554 -0.418063 -0.594 25 58 109
0.485633 -0.418767 -0.595 20 53 106
0.499526 -0.418063 -0.594 110 125 148
0.504332 -0.417359 -0.593 103 102 107
0.473178 -0.36387 -0.517 166 125 107
0.471471 -0.361054 -0.513 164 123 105
0.469048 -0.351905 -0.5 168 127 105
0.471909 -0.34909 -0.496 174 129 108
0.476537 -0.346274 -0.492 170 124 101
0.484809 -0.344163 -0.489 170 123 103
0.495209 -0.34557 -0.491 156 115 93
0.901581 -0.402579 -0.572 208 210 196
0.907029 -0.402579 -0.572 207 209 196
0.909208 -0.402579 -0.572 206 208 195
0.940804 -0.402579 -0.572 206 209 192
0.948948 -0.401875 -0.571 206 208 194
0.950035 -0.401875 -0.571 205 207 193
0.953298 -0.401875 -0.571 205 207 193
0.957649 -0.401875 -0.571 204 207 190
0.99873 -0.400468 -0.569 203 205 192
1.02111 -0.401171 -0.57 204 206 192
-0.00767429 -0.334509 -0.474 202 166 134
-0.00489238 -0.329569 -0.467 201 165 131
0.00132857 -0.328157 -0.465 200 164 130
0.00665714 -0.328863 -0.466 200 161 128
0.02184 -0.330274 -0.468 187 146 118
0.0440619 -0.343683 -0.487 139 100 93
0.0496 -0.350034 -0.496 123 93 85
0.0858467 -0.39026 -0.553 105 82 88
0.0953333 -0.403669 -0.572 153 167 206
0.0970971 -0.406491 -0.576 144 163 203
0.114474 -0.422017 -0.598 198 204 228
0.142049 -0.422723 -0.599 92 112 163
0.147507 -0.422017 -0.598 92 112 163
0.149785 -0.422017 -0.598 100 117 161
0.164317 -0.421311 -0.597 50 84 145
0.200706 -0.421311 -0.597 25 70 129
0.205254 -0.421311 -0.597 36 76 145
0.215489 -0.421311 -0.597 184 190 212
0.221174 -0.421311 -0.597 189 193 204
0.236697 -0.420606 -0.596 89 127 189
0.25032 -0.420606 -0.596 183 191 210
0.255996 -0.420606 -0.596 80 104 150
0.258267 -0.420606 -0.596 65 95 149
0.2737 -0.4199 -0.595 85 110 151
0.296367 -0.4199 -0.595 117 142 182
0.302033 -0.4199 -0.595 104 125 168
0.3145 -0.4199 -0.595 178 184 206
0.43164 -0.419194 -0.594 139 151 191
0.437297 -0.419194 -0.594 139 146 175
0.441823 -0.419194 -0.594 171 174 189
0.448611 -0.419194 -0.594 163 166 173
0.451245 -0.418489 -0.593 161 164 181
0.453504 -0.418489 -0.593 126 132 146
0.465583 -0.419194 -0.594 164 164 172
0.474634 -0.419194 -0.594 102 116 145
0.478029 -0.419194 -0.594 47 66 109
0.484817 -0.419194 -0.594 20 53 106
0.485949 -0.419194 -0.594 22 51 107
0.488211 -0.419194 -0.594 21 50 106
0.498685 -0.418489 -0.593 109 125 150
0.50473 -0.396611 -0.562 129 111 109
0.470019 -0.350034 -0.496 171 129 107
0.486671 -0.345094 -0.489 165 120 99
0.893954 -0.403669 -0.572 208 210 196
0.895044 -0.403669 -0.572 208 210 196
0.901581 -0.403669 -0.572 208 210 196
0.911969 -0.402963 -0.571 206 208 195
0.913056 -0.402963 -0.571 206 208 195
0.925571 -0.402257 -0.57 207 209 195
0.932633 -0.402963 -0.571 207 209 195
0.944597 -0.402963 -0.571 206 209 192
0.949457 -0.402257 -0.57 205 207 193
1.01174 -0.401551 -0.569 203 205 191
1.02003 -0.402257 -0.57 204 206 192
1.03414 -0.402257 -0.57 202 205 188
1.03558 -0.401551 -0.569 203 205 191
0.02826 -0.333289 -0.471 171 131 106
0.048459 -0.349564 -0.494 129 96 91
0.0507486 -0.352394 -0.498 121 90 87
0.0566057 -0.35947 -0.508 114 86 85
0.0858467 -0.391313 -0.553 104 83 92
0.0970971 -0.407589 -0.576 138 161 203
0.116557 -0.422449 -0.597 199 206 224
0.124517 -0.422449 -0.597 119 131 169
0.130421 -0.423156 -0.598 109 130 177
0.159769 -0.422449 -0.597 94 117 159
0.20037 -0.421741 -0.596 29 71 129
0.206046 -0.421741 -0.596 66 102 160
0.238968 -0.421741 -0.596 76 111 165
0.243509 -0.421741 -0.596 184 190 206
0.245367 -0.421033 -0.595 184 187 204
0.248767 -0.421033 -0.595 182 190 201
0.2635 -0.421033 -0.595 89 109 144
0.265767 -0.421033 -0.595 115 131 164
0.27324 -0.420326 -0.594 85 112 155
0.277766 -0.420326 -0.594 122 120 125
0.303789 -0.420326 -0.594 165 177 201
0.306051 -0.420326 -0.594 183 188 210
0.310577 -0.420326 -0.594 179 186 205
0.313971 -0.420326 -0.594 156 163 189
0.329811 -0.420326 -0.594 151 159 180
0.346783 -0.420326 -0.594 167 177 204
0.350177 -0.420326 -0.594 175 182 198
0.36879 -0.419618 -0.593 169 174 193
0.381214 -0.419618 -0.593 167 173 189
0.39025 -0.419618 -0.593 170 174 185
0.394769 -0.419618 -0.593 151 154 161
0.411274 -0.420326 -0.594 125 141 174
0.423007 -0.419618 -0.593 49 78 134
0.430913 -0.419618 -0.593 88 105 151
0.442209 -0.419618 -0.593 175 177 190
0.445597 -0.419618 -0.593 121 123 122
0.450115 -0.419618 -0.593 149 154 173
0.460281 -0.419618 -0.593 102 104 116
0.488519 -0.419618 -0.593 34 61 114
0.47281 -0.348856 -0.493 170 128 104
0.4756 -0.348149 -0.492 167 125 101
0.90653 -0.40405 -0.571 208 210 196
0.927743 -0.403343 -0.57 206 208 194
0.958143 -0.403343 -0.57 204 207 190
0.9614 -0.403343 -0.57 204 207 190
0.983557 -0.402635 -0.569 204 206 193
1.02763 -0.403343 -0.57 203 205 191
1.03089 -0.403343 -0.57 202 204 190
-0.00220952 -0.329219 -0.464 205 166 133
0.00132571 -0.329219 -0.464 201 162 129
0.00397714 -0.329219 -0.464 196 155 125
0.0137581 -0.330638 -0.466 195 154 122
0.0164562 -0.331348 -0.467 195 154 124
0.02546 -0.332767 -0.469 176 136 110
0.0291571 -0.334186 -0.471 168 125 106
0.0775133 -0.382433 -0.539 104 84 85
0.08164 -0.3874 -0.546 103 81 93
0.10692 -0.421457 -0.594 125 146 191
0.112009 -0.423586 -0.597 127 145 183
0.116362 -0.422876 -0.596 172 181 198
0.120903 -0.422876 -0.596 124 135 165
0.122038 -0.422876 -0.596 115 126 156
0.123173 -0.422876 -0.596 108 122 159
0.13156 -0.424295 -0.598 97 119 166
0.138394 -0.424295 -0.598 73 94 151
0.206046 -0.422876 -0.596 51 87 147
0.231767 -0.422167 -0.595 71 106 164
0.241967 -0.422167 -0.595 181 187 209
0.2431 -0.422167 -0.595 182 187 206
0.2533 -0.422167 -0.595 92 108 141
0.254433 -0.422167 -0.595 92 108 141
0.311184 -0.420748 -0.593 158 166 189
0.31284 -0.421457 -0.594 131 142 172
0.318497 -0.421457 -0.594 170 181 203
0.330386 -0.420748 -0.593 172 179 195
0.338292 -0.420748 -0.593 171 178 204
0.34452 -0.421457 -0.594 85 103 141
0.36036 -0.421457 -0.594 75 100 156
0.365401 -0.420748 -0.593 143 159 185
0.373806 -0.420038 -0.592 118 137 169
0.383954 -0.420038 -0.592 159 164 168
0.404251 -0.420038 -0.592 170 173 190
0.430913 -0.420748 -0.593 55 75 128
0.43882 -0.420748 -0.593 165 168 185
0.467058 -0.420748 -0.593 154 157 166
0.470447 -0.420748 -0.593 148 151 160
0.48513 -0.420748 -0.593 27 54 107
0.504883 -0.419329 -0.591 156 156 166
0.506009 -0.419329 -0.591 156 154 165
0.4756 -0.349086 -0.492 166 124 100
0.487535 -0.346248 -0.488 163 121 97
0.881515 -0.405138 -0.571 208 210 197
0.895654 -0.405138 -0.571 207 209 195
0.9082 -0.404429 -0.57 207 209 195
0.935343 -0.404429 -0.57 205 207 193
0.966216 -0.403719 -0.569 204 206 192
0.988976 -0.403719 -0.569 204 206 192
0.994811 -0.40301 -0.568 204 206 192
1.00671 -0.40301 -0.568 204 206 193
1.0132 -0.40301 -0.568 203 205 191
-0.0104048 -0.337929 -0.475 199 163 131
-0.00575714 -0.330814 -0.465 205 163 139
0.00309333 -0.330103 -0.464 198 159 126
0.0301181 -0.335794 -0.472 166 123 104
0.0858467 -0.39342 -0.553 104 83 92
0.126791 -0.424723 -0.597 95 112 158
0.165177 -0.424011 -0.596 64 99 155
0.169718 -0.424011 -0.596 65 100 158
0.17653 -0.424011 -0.596 106 128 165
0.1921 -0.4233 -0.595 79 108 164
0.201167 -0.4233 -0.595 56 84 132
0.211367 -0.4233 -0.595 145 156 186
0.213992 -0.424011 -0.596 185 188 203
0.224967 -0.4233 -0.595 79 112 165
0.227233 -0.4233 -0.595 82 115 169
0.248349 -0.422589 -0.594 181 188 204
0.27278 -0.421877 -0.593 84 104 137
0.279557 -0.421877 -0.593 183 182 196
0.346199 -0.421877 -0.593 101 115 150
0.381699 -0.421166 -0.592 170 175 179
0.388465 -0.421166 -0.592 162 166 177
0.413272 -0.421166 -0.592 78 102 148
0.422293 -0.421166 -0.592 30 59 119
0.443718 -0.421166 -0.592 138 140 137
0.445973 -0.421166 -0.592 145 146 151
0.456122 -0.421166 -0.592 119 127 150
0.48093 -0.421166 -0.592 66 99 152
0.497003 -0.420454 -0.591 64 75 107
0.476839 -0.370654 -0.521 156 119 100
0.47001 -0.355003 -0.499 170 129 107
0.470017 -0.354291 -0.498 172 131 109
0.470967 -0.35358 -0.497 169 128 106
0.513883 -0.356426 -0.501 152 110 88
0.516892 -0.357849 -0.503 144 106 87
0.597752 -0.404091 -0.568 193 190 185
0.936953 -0.404803 -0.569 205 208 191
0.938037 -0.404803 -0.569 205 208 191
0.966682 -0.404091 -0.568 204 206 193
0.986156 -0.404091 -0.568 205 207 193
1.03051 -0.404091 -0.568 203 205 191
-0.0113095 -0.338833 -0.475 197 162 132
0.00220476 -0.330273 -0.463 198 159 126
0.0272467 -0.334553 -0.469 177 132 111
0.0410248 -0.345253 -0.484 140 102 91
0.0441524 -0.348107 -0.488 135 97 86
0.0578 -0.3638 -0.51 113 85 81
0.0829829 -0.390907 -0.548 104 81 87
0.12885 -0.425147 -0.596 95 116 163
0.13112 -0.425147 -0.596 78 100 149
0.170567 -0.424433 -0.595 71 103 160
0.198566 -0.42372 -0.594 99 125 174
0.20196 -0.42372 -0.594 73 96 140
0.227983 -0.42372 -0.594 101 129 179
0.268262 -0.423007 -0.593 148 162 191
0.281341 -0.422293 -0.592 185 187 199
0.292617 -0.422293 -0.592 104 128 166
0.309531 -0.422293 -0.592 133 147 176
0.32022 -0.423007 -0.593 178 181 196
0.321935 -0.422293 -0.592 178 185 203
0.372049 -0.42158 -0.591 145 156 174
0.3743 -0.42158 -0.591 162 165 182
0.396814 -0.42158 -0.591 129 128 126
0.39794 -0.42158 -0.591 160 159 157
0.402443 -0.42158 -0.591 170 174 186
0.40582 -0.42158 -0.591 170 174 185
0.422706 -0.42158 -0.591 27 57 111
0.436952 -0.422293 -0.592 144 147 162
0.473036 -0.422293 -0.592 75 86 114
0.491374 -0.42158 -0.591 89 118 160
0.471888 -0.352387 -0.494 170 128 104
0.473726 -0.35096 -0.492 173 128 107
0.899514 -0.4066 -0.57 207 209 196
0.906029 -0.4066 -0.57 207 209 196
0.916914 -0.405173 -0.568 207 209 195
0.93045 -0.405887 -0.569 206 209 192
0.936953 -0.405887 -0.569 206 209 192
0.943456 -0.405887 -0.569 206 209 192
0.945624 -0.405887 -0.569 205 207 193
0.947208 -0.405173 -0.568 205 207 193
0.94829 -0.405173 -0.568 206 208 194
0.960191 -0.405173 -0.568 205 207 193
0.9801 -0.40446 -0.567 205 207 194
0.98766 -0.40446 -0.567 204 206 192
0.99954 -0.40446 -0.567 203 205 191
-0.00662857 -0.33187 -0.464 202 162 136
-0.00132 -0.33044 -0.462 201 162 129
0.0128152 -0.33187 -0.464 197 158 125
0.0226829 -0.334016 -0.467 178 136 112
0.0389381 -0.34403 -0.481 143 105 92
0.0543476 -0.361195 -0.505 115 87 84
0.111633 -0.425567 -0.595 176 190 217
0.118234 -0.424851 -0.594 199 208 225
0.143367 -0.425567 -0.595 164 181 209
0.152433 -0.425567 -0.595 188 192 204
0.195171 -0.424851 -0.594 78 112 160
0.196303 -0.424851 -0.594 88 120 179
0.208397 -0.424136 -0.593 60 88 151
0.222326 -0.424851 -0.594 178 182 194
0.27232 -0.423421 -0.592 168 183 204
0.273448 -0.423421 -0.592 150 165 186
0.317425 -0.423421 -0.592 176 182 198
0.339977 -0.423421 -0.592 171 175 187
0.344488 -0.423421 -0.592 99 115 149
0.356891 -0.423421 -0.592 70 100 154
0.358019 -0.423421 -0.592 61 96 150
0.35854 -0.422706 -0.591 44 79 133
0.360791 -0.422706 -0.591 87 117 169
0.401317 -0.422706 -0.591 173 176 183
0.401762 -0.42199 -0.59 164 170 184
0.420454 -0.422706 -0.591 29 57 120
0.422706 -0.422706 -0.591 33 63 117
0.424238 -0.42199 -0.59 41 72 127
0.486871 -0.422706 -0.591 45 72 125
0.509906 -0.421275 -0.589 152 149 160
0.473478 -0.366202 -0.512 156 121 102
0.470904 -0.359765 -0.503 165 129 107
0.47094 -0.358334 -0.501 166 128 107
0.470957 -0.354043 -0.495 172 130 106
0.4719 -0.354043 -0.495 170 129 107
0.4774 -0.350467 -0.49 172 127 104
0.478289 -0.349751 -0.489 171 126 103
0.600972 -0.40697 -0.569 192 194 189
0.8702 -0.407686 -0.57 208 210 197
0.901188 -0.40697 -0.569 208 210 197
0.909858 -0.40697 -0.569 206 208 194
0.915832 -0.406255 -0.568 207 210 193
0.923406 -0.406255 -0.568 206 208 194
0.927733 -0.406255 -0.568 205 208 191
0.954781 -0.406255 -0.568 205 207 193
0.98442 -0.40554 -0.567 205 207 194
0.98766 -0.40554 -0.567 204 206 193
1.01034 -0.40554 -0.567 203 206 189
1.03194 -0.40554 -0.567 202 204 190
1.03443 -0.404825 -0.566 203 205 191
0.00308 -0.33132 -0.462 199 160 127
0.00749619 -0.332037 -0.463 198 159 126
0.0190838 -0.334189 -0.466 180 138 113
0.0463886 -0.352834 -0.492 127 93 84
0.0486552 -0.355703 -0.496 122 91 86
0.0763448 -0.385823 -0.538 105 80 83
0.0803048 -0.390126 -0.544 102 81 86
0.0925029 -0.407337 -0.568 128 140 178
0.136567 -0.4267 -0.595 83 101 151
0.1377 -0.4267 -0.595 73 91 141
0.166886 -0.425983 -0.594 74 110 160
0.184677 -0.425266 -0.593 171 178 194
0.186936 -0.425266 -0.593 121 136 165
0.230988 -0.425266 -0.593 120 146 183
0.257661 -0.424549 -0.592 164 175 197
0.35854 -0.423831 -0.591 30 69 128
0.377038 -0.423114 -0.59 161 164 173
0.396814 -0.423831 -0.591 152 149 160
0.406257 -0.423114 -0.59 145 151 165
0.416371 -0.423114 -0.59 58 86 151
0.42761 -0.423114 -0.59 40 69 129
0.444467 -0.423114 -0.59 157 159 171
0.465819 -0.423114 -0.59 136 138 150
0.478991 -0.423831 -0.591 108 124 150
0.495986 -0.350683 -0.489 158 112 86
0.505762 -0.354269 -0.494 155 111 84
0.513732 -0.357854 -0.499 146 105 77
0.896852 -0.408054 -0.569 208 210 197
0.915832 -0.407337 -0.568 206 209 192
0.932061 -0.407337 -0.568 206 208 194
0.933143 -0.407337 -0.568 204 206 192
0.935307 -0.407337 -0.568 204 207 190
0.937471 -0.407337 -0.568 205 208 191
0.99709 -0.405186 -0.565 204 207 190
0.998167 -0.405186 -0.565 204 207 190
-0.00484 -0.3322 -0.462 204 165 132
0.00308 -0.3322 -0.462 199 160 127
0.0083781 -0.332919 -0.463 198 159 126
0.0181571 -0.334357 -0.465 183 138 115
0.0226829 -0.335795 -0.467 177 132 111
0.0291571 -0.338671 -0.471 167 124 105
0.0359638 -0.343705 -0.478 150 108 92
0.04212 -0.349457 -0.486 135 99 85
0.0567171 -0.365995 -0.509 113 85 84
0.0579133 -0.367433 -0.511 113 85 84
0.0591171 -0.368871 -0.513 110 84 83
0.125023 -0.427114 -0.594 174 189 220
0.155571 -0.427114 -0.594 183 190 198
0.163491 -0.427114 -0.594 77 106 150
0.193387 -0.425676 -0.592 114 138 174
0.203535 -0.425676 -0.592 100 117 147
0.206918 -0.425676 -0.592 89 109 146
0.235109 -0.425676 -0.592 93 116 158
0.235837 -0.424957 -0.591 111 134 176
0.258789 -0.425676 -0.592 174 182 205
0.263299 -0.425676 -0.592 136 143 161
0.283117 -0.424957 -0.591 172 181 198
0.2955 -0.424957 -0.591 108 137 181
0.310134 -0.424957 -0.591 119 135 168
0.330962 -0.424238 -0.59 164 171 181
0.33321 -0.424238 -0.59 163 173 183
0.352911 -0.424957 -0.591 82 110 160
0.355163 -0.424957 -0.591 38 71 125
0.405569 -0.423519 -0.589 153 161 174
0.410056 -0.423519 -0.589 37 65 115
0.423519 -0.423519 -0.589 73 104 159
0.433229 -0.424238 -0.59 82 96 123
0.452689 -0.423519 -0.589 134 143 160
0.46919 -0.424238 -0.59 92 98 114
0.487468 -0.423519 -0.589 55 88 133
0.495321 -0.423519 -0.589 125 133 146
0.480583 -0.376781 -0.524 152 120 105
0.473571 -0.366714 -0.51 155 118 100
0.4746 -0.352333 -0.49 172 130 108
0.47824 -0.350895 -0.488 168 126 102
0.480043 -0.350176 -0.487 173 129 104
0.491174 -0.350176 -0.487 158 114 87
0.52383 -0.363838 -0.506 147 107 81
0.870841 -0.409138 -0.569 209 211 197
0.883375 -0.408419 -0.568 207 209 195
0.9207 -0.4077 -0.567 206 209 192
0.981606 -0.406981 -0.566 205 207 194
0.99171 -0.406262 -0.565 204 206 192
1.01574 -0.4077 -0.567 204 206 192
1.02581 -0.406981 -0.566 203 206 189
1.02796 -0.406981 -0.566 203 206 189
1.02938 -0.406262 -0.565 203 206 189
-0.0110714 -0.335243 -0.465 202 163 134
0.00924 -0.33308 -0.462 196 157 124
0.0615476 -0.372732 -0.517 109 83 82
0.0628952 -0.374895 -0.52 109 83 82
0.0725895 -0.384268 -0.533 106 85 84
0.0789771 -0.390756 -0.542 105 84 83
0.0861571 -0.400129 -0.555 99 82 90
0.112388 -0.427525 -0.593 197 209 231
0.123891 -0.428246 -0.594 184 192 211
0.142885 -0.427525 -0.593 111 125 160
0.151921 -0.427525 -0.593 182 185 200
0.1779 -0.427525 -0.593 171 181 191
0.193387 -0.426804 -0.592 130 151 180
0.214045 -0.427525 -0.593 162 164 176
0.236963 -0.426083 -0.591 127 143 179
0.243305 -0.425362 -0.59 175 186 208
0.245969 -0.426083 -0.591 114 129 158
0.250471 -0.426083 -0.591 123 132 161
0.251597 -0.426083 -0.591 170 181 203
0.266905 -0.425362 -0.59 176 183 199
0.282638 -0.425362 -0.59 171 182 202
0.319182 -0.424641 -0.589 169 175 191
0.327035 -0.424641 -0.589 152 152 160
0.341076 -0.425362 -0.59 167 169 181
0.354562 -0.425362 -0.59 36 67 124
0.382009 -0.424641 -0.589 110 113 122
0.421275 -0.424641 -0.589 33 64 118
0.429129 -0.424641 -0.589 115 138 172
0.44968 -0.42392 -0.588 155 154 168
0.458298 -0.424641 -0.589 160 160 172
0.472562 -0.425362 -0.59 116 122 144
0.491955 -0.424641 -0.589 109 123 152
0.485076 -0.382105 -0.53 148 116 101
0.477974 -0.374174 -0.519 155 124 106
0.472843 -0.356871 -0.495 173 128 107
0.490166 -0.350383 -0.486 159 115 90
0.879048 -0.409501 -0.568 208 210 196
0.888785 -0.409501 -0.568 207 209 196
0.889867 -0.409501 -0.568 208 210 197
0.963278 -0.408059 -0.566 205 207 194
0.969747 -0.408059 -0.566 205 207 194
0.977293 -0.408059 -0.566 204 206 192
0.9964 -0.406617 -0.564 203 205 191
1.01503 -0.408059 -0.566 203 205 191
1.02042 -0.408059 -0.566 202 204 190
1.02292 -0.407338 -0.565 203 205 191
1.024 -0.407338 -0.565 203 205 191
-0.0178829 -0.411306 -0.569 199 157 133
-0.0110476 -0.335406 -0.464 204 163 135
-0.00131714 -0.333237 -0.461 201 163 127
0.00131714 -0.333237 -0.461 200 161 128
0.0181571 -0.336129 -0.465 180 138 114
0.0190429 -0.336129 -0.465 177 135 111
0.0235724 -0.337574 -0.467 177 135 111
0.0245143 -0.338297 -0.468 175 133 109
0.0301181 -0.341189 -0.472 163 120 101
0.039019 -0.348417 -0.482 138 104 92
0.0628952 -0.375886 -0.52 108 84 80
0.113517 -0.428654 -0.593 201 209 222
0.120294 -0.428654 -0.593 198 204 218
0.124812 -0.428654 -0.593 131 147 181
0.128417 -0.429377 -0.594 86 107 152
0.139496 -0.428654 -0.593 80 106 155
0.225706 -0.427209 -0.591 87 112 153
0.226831 -0.427209 -0.591 91 116 157
0.258351 -0.427209 -0.591 173 180 199
0.264657 -0.426486 -0.59 174 178 189
0.284886 -0.426486 -0.59 157 173 198
0.303475 -0.425763 -0.589 151 162 194
0.319182 -0.425763 -0.589 162 168 182
0.325913 -0.425763 -0.589 139 138 154
0.352314 -0.426486 -0.59 33 62 120
0.357327 -0.425763 -0.589 27 53 110
0.38696 -0.42504 -0.588 79 99 124
0.39592 -0.42504 -0.588 165 165 177
0.39704 -0.42504 -0.588 163 164 169
0.434 -0.42504 -0.588 87 95 116
0.45864 -0.42504 -0.588 154 154 164
0.46088 -0.42504 -0.588 162 160 173
0.46312 -0.42504 -0.588 156 155 169
0.47737 -0.425763 -0.589 138 144 168
0.481858 -0.425763 -0.589 74 99 140
0.48664 -0.42504 -0.588 77 102 143
0.49 -0.42504 -0.588 104 119 150
0.498419 -0.396126 -0.548 131 110 109
0.4728 -0.36432 -0.504 167 126 108
0.47188 -0.362874 -0.502 168 127 109
0.477357 -0.353477 -0.489 171 126 105
0.485462 -0.350586 -0.485 164 119 96
0.486386 -0.350586 -0.485 165 120 97
0.538114 -0.372994 -0.516 149 112 86
0.89586 -0.40986 -0.567 207 209 195
0.90126 -0.40986 -0.567 207 209 195
0.930935 -0.409137 -0.566 206 209 192
0.958348 -0.408414 -0.565 205 207 194
0.961576 -0.408414 -0.565 204 206 193
0.962652 -0.408414 -0.565 205 207 194
0.963729 -0.408414 -0.565 205 207 194
0.972338 -0.408414 -0.565 205 207 193
0.997474 -0.407691 -0.564 203 205 191
1.0007 -0.407691 -0.564 202 204 190
1.01826 -0.409137 -0.566 202 204 190
-0.0119314 -0.33629 -0.464 201 162 131
-0.00569524 -0.33339 -0.46 202 165 123
0.00219524 -0.334115 -0.461 201 160 128
0.0154667 -0.33629 -0.464 187 146 118
0.0226829 -0.338464 -0.467 175 133 111
0.0254057 -0.339189 -0.468 176 131 110
0.077801 -0.392096 -0.541 104 83 80
0.0847933 -0.400793 -0.553 96 84 94
0.113326 -0.429059 -0.592 199 207 220
0.133849 -0.429784 -0.593 103 125 172
0.142644 -0.429059 -0.592 91 106 147
0.159828 -0.429784 -0.593 88 117 159
0.162941 -0.429059 -0.592 126 153 196
0.170834 -0.429059 -0.592 90 115 155
0.180677 -0.428334 -0.591 170 179 194
0.184054 -0.428334 -0.591 164 179 198
0.194186 -0.428334 -0.591 157 172 195
0.202066 -0.428334 -0.591 164 171 187
0.222329 -0.428334 -0.591 149 151 174
0.237686 -0.42761 -0.59 161 177 202
0.244429 -0.42761 -0.59 91 102 132
0.268696 -0.426885 -0.589 175 179 190
0.291134 -0.426885 -0.589 62 86 134
0.32872 -0.42616 -0.588 145 151 165
0.34162 -0.426885 -0.589 144 142 147
0.353961 -0.426885 -0.589 43 69 126
0.378 -0.42616 -0.588 153 155 154
0.37912 -0.42616 -0.588 158 161 170
0.39928 -0.42616 -0.588 164 164 174
0.4004 -0.42616 -0.588 159 162 169
0.46984 -0.42616 -0.588 96 106 131
0.475127 -0.426885 -0.589 153 156 165
0.476249 -0.426885 -0.589 153 156 165
0.506451 -0.404417 -0.558 130 109 108
0.478188 -0.352959 -0.487 178 133 112
0.501667 -0.355133 -0.49 156 114 90
0.522641 -0.364555 -0.503 146 108 87
0.8991 -0.41094 -0.567 207 209 195
0.912071 -0.40949 -0.565 205 207 193
0.979211 -0.408766 -0.564 204 207 190
0.991029 -0.408766 -0.564 203 205 191
1.01969 -0.40949 -0.565 203 205 191
-0.00219048 -0.334267 -0.46 202 163 130
-0.000438095 -0.334267 -0.46 201 162 129
0.00836 -0.33572 -0.462 192 151 121
0.0119057 -0.336447 -0.463 192 151 123
0.0499 -0.362607 -0.499 115 87 83
0.0567171 -0.369873 -0.509 109 83 82
0.0579133 -0.371327 -0.511 109 83 82
0.116511 -0.42946 -0.591 195 201 213
0.159558 -0.430187 -0.592 96 125 167
0.19161 -0.428733 -0.59 162 173 195
0.2242 -0.428733 -0.59 95 113 151
0.233917 -0.428007 -0.589 83 105 142
0.239527 -0.428007 -0.589 173 178 198
0.24177 -0.428007 -0.589 119 123 148
0.244014 -0.428007 -0.589 75 86 116
0.25299 -0.428007 -0.589 170 178 191
0.28728 -0.42728 -0.588 88 111 152
0.30184 -0.42728 -0.588 70 95 136
0.30632 -0.42728 -0.588 153 168 197
0.31416 -0.42728 -0.588 161 167 181
0.31528 -0.42728 -0.588 161 167 181
0.31976 -0.42728 -0.588 120 123 132
0.32312 -0.42728 -0.588 129 134 156
0.33544 -0.42728 -0.588 152 156 165
0.34162 -0.428007 -0.589 106 104 109
0.390774 -0.426553 -0.587 162 164 176
0.404191 -0.426553 -0.587 100 107 135
0.408664 -0.426553 -0.587 141 154 173
0.417609 -0.426553 -0.587 51 82 128
0.441089 -0.426553 -0.587 159 158 172
0.47432 -0.42728 -0.588 156 159 168
0.489167 -0.426553 -0.587 69 89 116
0.472836 -0.364787 -0.502 168 125 108
0.472862 -0.362607 -0.499 171 128 111
0.477357 -0.35534 -0.489 171 126 105
0.60426 -0.41202 -0.567 193 193 191
0.87642 -0.41202 -0.567 208 210 196
0.87858 -0.41202 -0.567 208 210 196
0.901827 -0.411293 -0.566 206 208 194
0.94651 -0.410567 -0.565 205 208 191
0.995706 -0.409113 -0.563 202 205 188
1.02755 -0.40984 -0.564 203 206 189
0.011 -0.3366 -0.462 192 151 123
0.0199286 -0.338786 -0.465 179 134 113
0.0244619 -0.340243 -0.467 176 131 110
0.0401029 -0.352629 -0.484 134 100 88
0.0443333 -0.357 -0.49 124 91 82
0.127769 -0.430586 -0.591 127 146 189
0.166043 -0.430586 -0.591 121 145 181
0.174752 -0.429857 -0.59 170 172 195
0.180371 -0.429857 -0.59 156 163 189
0.190163 -0.429129 -0.589 165 173 196
0.219332 -0.429129 -0.589 164 169 189
0.24472 -0.4284 -0.588 108 128 155
0.318098 -0.427671 -0.587 108 108 116
0.319216 -0.427671 -0.587 102 102 110
0.33432 -0.4284 -0.588 154 157 164
0.33544 -0.4284 -0.588 158 161 166
0.382948 -0.427671 -0.587 156 157 175
0.385184 -0.427671 -0.587 147 153 169
0.472395 -0.427671 -0.587 152 152 162
0.474631 -0.427671 -0.587 150 156 172
0.480222 -0.427671 -0.587 86 102 138
0.482752 -0.426943 -0.586 105 124 164
0.493313 -0.3927 -0.539 140 111 103
0.477357 -0.356271 -0.489 172 125 105
0.481767 -0.353357 -0.485 172 127 104
0.485462 -0.353357 -0.485 162 120 96
0.82134 -0.4131 -0.567 210 212 199
0.884577 -0.412371 -0.566 207 209 195
0.886733 -0.412371 -0.566 207 209 195
0.888889 -0.412371 -0.566 207 209 195
0.90131 -0.411643 -0.565 206 208 194
0.905614 -0.411643 -0.565 206 208 194
0.908843 -0.411643 -0.565 206 208 194
0.922833 -0.411643 -0.565 206 208 194
0.938389 -0.410914 -0.564 205 208 191
0.981765 -0.410186 -0.563 204 206 192
0.991796 -0.409457 -0.562 204 207 190
1.02111 -0.410914 -0.564 203 206 189
1.02541 -0.410914 -0.564 204 207 190
1.02788 -0.410186 -0.563 202 205 186
-0.00918 -0.335289 -0.459 203 164 133
0.0254057 -0.341863 -0.468 173 126 108
0.0391 -0.35282 -0.483 134 102 89
