ply
format ascii 1.0
comment Created by Open3D
element vertex 1297
property double x
property double y
property double z
property uchar red
property uchar green
property uchar blue
end_header
0.206152 -0.138305 -0.548 209 158 157
0.273973 -0.155467 -0.616 104 61 68
0.232391 -0.123414 -0.489 174 151 159
0.233323 -0.123414 -0.489 175 152 160
0.234705 -0.123162 -0.488 172 146 155
0.2562 -0.123667 -0.49 163 140 150
0.299744 -0.123919 -0.491 206 209 218
0.30442 -0.123919 -0.491 243 242 255
0.319746 -0.124424 -0.493 187 167 179
0.327643 -0.124929 -0.495 141 115 126
0.332084 -0.125181 -0.496 148 125 135
0.358093 -0.126695 -0.502 101 76 80
0.407553 -0.136538 -0.541 111 72 75
0.41028 -0.132752 -0.526 197 139 135
0.411282 -0.132752 -0.526 195 137 133
0.204928 -0.137823 -0.542 211 157 155
0.206229 -0.137314 -0.54 216 165 162
0.223299 -0.138331 -0.544 123 72 71
0.2728 -0.15664 -0.616 117 74 81
0.27872 -0.158674 -0.624 150 109 115
0.238862 -0.123837 -0.487 170 144 153
0.279894 -0.124346 -0.489 148 126 138
0.295068 -0.124854 -0.491 163 172 181
0.310663 -0.125109 -0.492 233 232 240
0.324158 -0.125617 -0.494 134 110 123
0.34222 -0.12638 -0.497 143 123 132
0.407553 -0.137569 -0.541 109 70 73
0.418087 -0.134009 -0.527 156 109 101
0.425892 -0.135534 -0.533 137 93 90
0.208927 -0.138087 -0.539 217 163 161
0.217946 -0.138599 -0.541 168 110 106
0.229128 -0.125021 -0.488 172 146 157
0.240223 -0.124509 -0.486 168 142 153
0.243926 -0.124509 -0.486 167 141 152
0.263806 -0.126046 -0.492 162 136 145
0.265281 -0.126302 -0.493 162 136 145
0.267159 -0.126302 -0.493 159 133 142
0.302867 -0.125533 -0.49 236 239 254
0.325099 -0.126558 -0.494 137 109 123
0.332084 -0.12707 -0.496 142 119 129
0.352394 -0.127583 -0.498 130 105 111
0.220413 -0.139888 -0.542 144 90 88
0.22516 -0.14092 -0.546 107 59 57
0.22773 -0.125692 -0.487 173 145 157
0.228658 -0.125692 -0.487 173 146 155
0.229586 -0.125692 -0.487 176 149 158
0.233296 -0.125692 -0.487 176 150 161
0.243 -0.125434 -0.486 170 142 154
0.284551 -0.126209 -0.489 141 118 128
0.286414 -0.126209 -0.489 117 125 128
0.300067 -0.126467 -0.49 182 189 199
0.321624 -0.127241 -0.493 141 115 128
0.351446 -0.128531 -0.498 131 105 114
0.416286 -0.145566 -0.564 91 49 53
0.403305 -0.13679 -0.53 163 120 114
0.406041 -0.136016 -0.527 196 143 139
0.4095 -0.1355 -0.525 196 138 134
0.226339 -0.12688 -0.488 173 143 155
0.240223 -0.12636 -0.486 170 142 154
0.246703 -0.12636 -0.486 173 145 157
0.252257 -0.12636 -0.486 165 138 145
0.268717 -0.12714 -0.489 158 132 141
0.27058 -0.12714 -0.489 178 152 163
0.297591 -0.12714 -0.489 185 192 202
0.3038 -0.1274 -0.49 199 203 214
0.307226 -0.12766 -0.491 199 201 213
0.308161 -0.12766 -0.491 199 201 213
0.329529 -0.1287 -0.495 134 111 119
0.342476 -0.12896 -0.496 127 100 109
0.368407 -0.13286 -0.511 130 97 104
0.407829 -0.1404 -0.54 123 84 85
0.4105 -0.1365 -0.525 192 134 130
0.211613 -0.140905 -0.538 199 146 142
0.225572 -0.143262 -0.547 107 62 59
0.236033 -0.127024 -0.485 171 143 155
0.279677 -0.127548 -0.487 145 123 135
0.304733 -0.128333 -0.49 193 197 206
0.320971 -0.128857 -0.492 138 111 120
0.334243 -0.129643 -0.495 141 110 118
0.407045 -0.138024 -0.527 198 149 144
0.200503 -0.143512 -0.544 200 146 144
0.21122 -0.141666 -0.537 191 138 134
0.220413 -0.142985 -0.542 135 85 84
0.226337 -0.128211 -0.486 175 143 156
0.248043 -0.127948 -0.485 163 135 147
0.250814 -0.127948 -0.485 166 139 148
0.265217 -0.128211 -0.486 157 133 146
0.2754 -0.128211 -0.486 147 123 136
0.276326 -0.128211 -0.486 147 123 136
0.288617 -0.128739 -0.488 118 119 124
0.290476 -0.128739 -0.488 196 205 210
0.30318 -0.129003 -0.489 165 169 178
0.315643 -0.12953 -0.491 168 152 165
0.319384 -0.12953 -0.491 132 111 120
0.323783 -0.129794 -0.492 139 109 117
0.334243 -0.130586 -0.495 138 107 115
0.338014 -0.130586 -0.495 134 104 112
0.34909 -0.13085 -0.496 131 102 107
0.350034 -0.13085 -0.496 130 103 112
0.404033 -0.139028 -0.527 184 136 132
0.410716 -0.138236 -0.524 189 134 127
0.4145 -0.1385 -0.525 179 126 118
0.20444 -0.142954 -0.538 214 163 162
0.210197 -0.142689 -0.537 201 148 144
0.222263 -0.144549 -0.544 119 71 71
0.226337 -0.129137 -0.486 174 140 154
0.245271 -0.128871 -0.485 166 138 150
0.296053 -0.129669 -0.488 105 118 126
0.325657 -0.130731 -0.492 140 109 115
0.338957 -0.131529 -0.495 133 104 109
0.358334 -0.133123 -0.501 125 96 101
0.360723 -0.133654 -0.503 125 94 100
0.416684 -0.150394 -0.566 76 40 42
0.419976 -0.151191 -0.569 73 37 39
0.41085 -0.144549 -0.544 106 74 75
0.199029 -0.144514 -0.54 204 150 148
0.213663 -0.143979 -0.538 176 122 120
0.22082 -0.145317 -0.543 123 75 75
0.233262 -0.129795 -0.485 172 140 153
0.243844 -0.129528 -0.484 167 139 151
0.265595 -0.129795 -0.485 161 133 145
0.271501 -0.129528 -0.484 152 126 137
0.296053 -0.130598 -0.488 171 178 186
0.300701 -0.130598 -0.488 147 156 163
0.30256 -0.130598 -0.488 215 220 226
0.304111 -0.130866 -0.489 155 154 160
0.308769 -0.130866 -0.489 138 121 129
0.32219 -0.131401 -0.491 134 107 114
0.323125 -0.131401 -0.491 141 110 116
0.331014 -0.131936 -0.493 136 105 113
0.35358 -0.133007 -0.497 128 97 105
0.408857 -0.144514 -0.54 127 93 91
0.4075 -0.1405 -0.525 201 147 147
0.4155 -0.1405 -0.525 169 121 107
0.197441 -0.14743 -0.547 198 143 140
0.215087 -0.145273 -0.539 163 109 109
0.22082 -0.146351 -0.543 119 70 73
0.230153 -0.149047 -0.553 88 48 49
0.223533 -0.132067 -0.49 176 142 156
0.234625 -0.13045 -0.484 173 141 154
0.271138 -0.130719 -0.485 147 120 129
0.271501 -0.13045 -0.484 150 123 132
0.280376 -0.130719 -0.485 153 124 129
0.283731 -0.130989 -0.486 149 124 130
0.30163 -0.131528 -0.488 184 184 192
0.404827 -0.143387 -0.532 149 110 105
0.403794 -0.142309 -0.528 171 126 121
0.422903 -0.142309 -0.528 138 95 89
0.201638 -0.145486 -0.536 217 163 161
0.22356 -0.131914 -0.486 176 142 156
0.230937 -0.131371 -0.484 171 141 153
0.243754 -0.130829 -0.482 170 140 152
0.26597 -0.131371 -0.484 160 130 138
0.275189 -0.131371 -0.484 149 122 129
0.27611 -0.131371 -0.484 149 122 129
0.282224 -0.131643 -0.485 152 125 130
0.30163 -0.132457 -0.488 159 152 160
0.354527 -0.1349 -0.497 128 98 106
0.4255 -0.156071 -0.575 69 33 37
0.411714 -0.142229 -0.524 185 133 122
0.4165 -0.1425 -0.525 162 114 102
0.197267 -0.147053 -0.538 212 156 155
0.200617 -0.146507 -0.536 219 165 163
0.20368 -0.146507 -0.536 217 163 161
0.204701 -0.146507 -0.536 214 160 160
0.210197 -0.14678 -0.537 194 144 143
0.215087 -0.147327 -0.539 156 101 104
0.222263 -0.148693 -0.544 109 63 66
0.222535 -0.135027 -0.494 176 142 156
0.291137 -0.13284 -0.486 150 127 135
0.311563 -0.13366 -0.489 181 160 165
0.334091 -0.13448 -0.492 133 102 108
0.346978 -0.134753 -0.493 133 104 109
0.414709 -0.143227 -0.524 169 120 106
0.427329 -0.14514 -0.531 136 96 86
0.2033 -0.147252 -0.535 214 160 158
0.205722 -0.147528 -0.536 211 157 157
0.216113 -0.148353 -0.539 138 86 88
0.22412 -0.15028 -0.546 99 57 59
0.222165 -0.134041 -0.487 175 141 155
0.23641 -0.132665 -0.482 173 141 154
0.243754 -0.132665 -0.482 172 140 153
0.24559 -0.132665 -0.482 170 138 151
0.247427 -0.132665 -0.482 173 141 152
0.26266 -0.13294 -0.483 166 136 148
0.27554 -0.13294 -0.483 148 121 128
0.296691 -0.133766 -0.486 144 124 133
0.298543 -0.133766 -0.486 144 124 133
0.301012 -0.134041 -0.487 149 128 135
0.304419 -0.134316 -0.488 143 117 126
0.3234 -0.134867 -0.49 141 110 115
0.342526 -0.135417 -0.492 130 99 104
0.343463 -0.135417 -0.492 130 99 104
0.346274 -0.135417 -0.492 149 120 124
0.357854 -0.137344 -0.499 126 95 100
0.419157 -0.152757 -0.555 71 41 41
0.194854 -0.148826 -0.537 203 150 146
0.207764 -0.148549 -0.536 202 154 152
0.212243 -0.148826 -0.537 164 114 115
0.228147 -0.133583 -0.482 175 145 157
0.2507 -0.13386 -0.483 168 138 150
0.28106 -0.13386 -0.483 150 120 128
0.28533 -0.134137 -0.484 154 124 132
0.295766 -0.134691 -0.486 154 124 134
0.297617 -0.134691 -0.486 154 124 134
0.298543 -0.134691 -0.486 152 122 132
0.309996 -0.135246 -0.488 143 120 130
0.340651 -0.136354 -0.492 132 102 110
0.426524 -0.146886 -0.53 135 90 84
0.191507 -0.151244 -0.542 203 145 141
0.196167 -0.14929 -0.535 214 161 157
0.21122 -0.149849 -0.537 173 123 124
0.231818 -0.15543 -0.557 137 88 91
0.221718 -0.135059 -0.484 174 142 155
0.227673 -0.134222 -0.481 174 144 156
0.286251 -0.135059 -0.484 152 122 130
0.291783 -0.135059 -0.484 152 122 130
0.30565 -0.135896 -0.487 147 115 126
0.339024 -0.137012 -0.491 131 100 105
0.340894 -0.137012 -0.491 133 104 109
0.436972 -0.162685 -0.583 64 28 28
0.417186 -0.153755 -0.551 87 59 58
0.404728 -0.146221 -0.524 191 143 133
0.208395 -0.15031 -0.535 190 142 142
0.235919 -0.135138 -0.481 171 141 151
0.256608 -0.135419 -0.482 167 137 149
0.26634 -0.1357 -0.483 168 136 147
0.27094 -0.1357 -0.483 142 112 122
0.28474 -0.1357 -0.483 151 121 129
0.297929 -0.136262 -0.485 150 120 128
0.304723 -0.136824 -0.487 149 117 128
0.324869 -0.137105 -0.488 134 105 110
0.332733 -0.137667 -0.49 134 103 108
0.338333 -0.137667 -0.49 132 101 106
0.346506 -0.137948 -0.491 223 203 215
0.43166 -0.160986 -0.573 62 30 31
0.41591 -0.146938 -0.523 157 108 94
0.437873 -0.151433 -0.539 147 99 97
0.189092 -0.153026 -0.541 196 143 137
0.209806 -0.151611 -0.536 177 127 128
0.228114 -0.135771 -0.48 176 144 157
0.245997 -0.136054 -0.481 169 137 148
0.24783 -0.136054 -0.481 170 138 149
0.254243 -0.136054 -0.481 169 137 148
0.260656 -0.136054 -0.481 167 135 148
0.27165 -0.136054 -0.481 161 129 140
0.28474 -0.13662 -0.483 151 121 129
0.294549 -0.136903 -0.484 151 120 128
0.313354 -0.137469 -0.486 138 112 121
0.338333 -0.1386 -0.49 131 102 104
0.343 -0.1386 -0.49 129 100 102
0.349311 -0.138883 -0.491 174 155 161
0.4329 -0.165471 -0.585 80 45 51
0.409392 -0.152177 -0.538 134 100 98
0.404951 -0.147934 -0.523 191 144 136
0.191071 -0.152348 -0.535 205 151 149
0.191731 -0.152063 -0.534 209 155 153
0.198851 -0.152063 -0.534 215 164 161
0.204954 -0.152063 -0.534 197 147 146
0.208395 -0.152348 -0.535 175 129 129
0.241829 -0.136686 -0.48 168 136 147
0.262489 -0.13697 -0.481 167 135 146
0.265789 -0.137255 -0.482 164 132 143
0.270734 -0.13697 -0.481 180 150 160
0.278064 -0.13697 -0.481 153 122 130
0.28842 -0.13754 -0.483 151 121 129
0.292705 -0.137825 -0.484 149 122 129
0.323275 -0.138679 -0.487 133 106 111
0.331123 -0.139249 -0.489 135 104 109
0.332054 -0.139249 -0.489 133 102 107
0.344867 -0.139533 -0.49 125 96 98
0.355703 -0.141242 -0.496 124 94 96
0.423106 -0.15007 -0.527 143 100 94
0.429351 -0.151209 -0.531 141 96 93
0.196449 -0.152793 -0.533 211 160 157
0.215486 -0.1548 -0.54 122 73 76
0.219874 -0.138747 -0.484 175 141 155
0.225841 -0.137887 -0.481 176 144 157
0.257908 -0.137887 -0.481 166 134 147
0.2875 -0.13846 -0.483 150 120 130
0.297314 -0.138747 -0.484 148 121 128
0.328587 -0.139893 -0.488 135 104 109
0.329516 -0.139893 -0.488 134 103 108
0.334849 -0.14018 -0.489 130 101 105
0.344163 -0.14018 -0.489 166 140 143
0.18394 -0.156117 -0.541 196 141 136
0.194418 -0.153809 -0.533 210 159 156
0.195433 -0.153809 -0.533 209 158 155
0.197464 -0.153809 -0.533 215 166 162
0.20051 -0.153809 -0.533 211 161 160
0.226286 -0.138514 -0.48 179 145 159
0.242743 -0.138514 -0.48 166 134 147
0.247314 -0.138514 -0.48 166 136 146
0.261943 -0.138514 -0.48 163 131 144
0.267429 -0.138514 -0.48 159 127 138
0.270171 -0.138514 -0.48 175 143 154
0.280812 -0.138803 -0.481 155 123 134
0.285069 -0.139091 -0.482 152 120 131
0.2921 -0.13938 -0.483 154 124 134
0.29854 -0.13938 -0.483 147 121 130
0.339741 -0.140823 -0.488 127 101 104
0.422303 -0.151789 -0.526 144 103 97
0.185649 -0.155986 -0.537 202 145 138
0.186995 -0.155405 -0.535 203 146 139
0.189697 -0.155114 -0.534 198 145 141
0.20254 -0.154824 -0.533 206 156 155
0.248229 -0.139429 -0.48 164 134 146
0.250971 -0.139429 -0.48 167 137 149
0.256457 -0.139429 -0.48 164 137 146
0.258286 -0.139429 -0.48 163 136 145
0.277486 -0.139429 -0.48 153 121 132
0.288741 -0.14001 -0.482 146 116 126
0.315481 -0.140881 -0.485 140 107 116
0.316405 -0.140881 -0.485 140 107 114
0.339741 -0.141752 -0.488 131 102 106
0.343459 -0.141752 -0.488 197 170 175
0.351897 -0.142914 -0.492 120 93 98
0.41444 -0.1586 -0.546 89 58 64
0.410153 -0.156567 -0.539 128 88 89
0.405324 -0.153952 -0.53 167 123 124
0.405171 -0.151629 -0.522 186 139 133
0.41035 -0.151338 -0.521 176 126 117
0.413327 -0.151338 -0.521 168 118 109
0.181879 -0.158178 -0.541 197 144 138
0.182571 -0.157886 -0.54 197 144 138
0.186296 -0.155839 -0.533 205 146 138
0.230806 -0.139758 -0.478 170 138 149
0.235358 -0.139758 -0.478 166 136 146
0.257748 -0.14005 -0.479 163 137 146
0.270521 -0.14005 -0.479 156 124 135
0.318518 -0.141512 -0.484 137 106 111
0.322611 -0.142097 -0.486 136 105 110
0.198107 -0.15656 -0.532 207 154 150
0.19912 -0.15656 -0.532 210 159 156
0.245887 -0.140963 -0.479 163 135 147
0.256835 -0.140963 -0.479 164 134 146
0.263222 -0.140963 -0.479 162 134 146
0.273258 -0.140963 -0.479 153 122 130
0.292723 -0.141551 -0.481 145 115 125
0.416109 -0.153617 -0.522 164 111 103
0.197734 -0.157277 -0.531 207 153 151
0.208395 -0.158462 -0.535 156 101 106
0.218057 -0.142171 -0.48 175 141 155
0.23214 -0.141283 -0.477 169 137 150
0.243552 -0.141579 -0.478 165 135 145
0.248105 -0.141579 -0.478 162 134 146
0.265404 -0.141579 -0.478 159 129 139
0.27724 -0.141579 -0.478 154 122 133
0.2912 -0.142171 -0.48 149 118 126
0.305267 -0.142764 -0.482 143 113 121
0.315752 -0.143356 -0.484 140 111 116
0.321948 -0.143652 -0.485 136 105 110
0.326567 -0.143652 -0.485 135 103 106
0.459123 -0.180972 -0.611 161 133 145
0.434014 -0.15787 -0.533 145 106 107
0.184586 -0.158289 -0.531 194 141 137
0.185248 -0.15799 -0.53 194 141 137
0.193324 -0.15799 -0.53 206 153 149
0.197734 -0.158289 -0.531 204 150 148
0.198746 -0.158289 -0.531 193 142 141
0.199757 -0.158289 -0.531 189 138 137
0.215251 -0.161568 -0.542 109 63 66
0.281534 -0.188694 -0.633 173 140 151
0.22079 -0.14249 -0.478 172 138 152
0.227597 -0.142191 -0.477 168 136 149
0.236683 -0.142191 -0.477 164 134 146
0.263583 -0.14249 -0.478 160 130 140
0.268135 -0.14249 -0.478 175 145 155
0.272688 -0.14249 -0.478 153 123 133
0.275419 -0.14249 -0.478 151 121 131
0.283294 -0.142788 -0.479 150 118 129
0.338349 -0.144874 -0.486 130 101 106
0.341828 -0.145172 -0.487 207 178 183
0.349751 -0.145769 -0.489 129 93 105
0.3514 -0.146067 -0.49 126 91 98
0.440135 -0.160375 -0.538 144 104 104
-0.140524 -0.195 -0.65 197 194 189
0.184238 -0.159 -0.53 196 143 135
0.21788 -0.1638 -0.546 104 59 62
0.277917 -0.1899 -0.633 184 152 157
0.23214 -0.1431 -0.477 166 134 147
0.243043 -0.1431 -0.477 162 135 144
0.246677 -0.1431 -0.477 166 136 148
0.258489 -0.1431 -0.477 163 133 145
0.271209 -0.1431 -0.477 153 123 133
0.273026 -0.1431 -0.477 152 122 132
0.27815 -0.1434 -0.478 153 121 134
0.284524 -0.1434 -0.478 151 120 128
0.289681 -0.1437 -0.479 149 118 126
0.31602 -0.1449 -0.483 141 110 116
0.31694 -0.1449 -0.483 141 110 116
0.3197 -0.1449 -0.483 139 108 114
0.33211 -0.1455 -0.485 133 102 108
0.338349 -0.1458 -0.486 131 104 109
0.350683 -0.1467 -0.489 122 89 96
0.198371 -0.16001 -0.53 206 156 157
0.276711 -0.191106 -0.633 178 143 147
0.279443 -0.190502 -0.631 171 141 151
0.217109 -0.146122 -0.484 168 140 154
0.217149 -0.14431 -0.478 172 140 153
0.241226 -0.144009 -0.477 163 133 143
0.253037 -0.144009 -0.477 163 133 145
0.258489 -0.144009 -0.477 162 132 144
0.279971 -0.14431 -0.478 153 121 132
0.283613 -0.14431 -0.478 150 118 129
0.296068 -0.144612 -0.479 145 115 123
0.31418 -0.14582 -0.483 141 111 119
0.349966 -0.14733 -0.488 127 90 98
0.413958 -0.164236 -0.544 108 72 76
0.408571 -0.15699 -0.52 185 135 128
0.418097 -0.157594 -0.522 165 115 108
-0.137835 -0.197172 -0.649 197 197 189
0.171648 -0.16345 -0.538 203 150 142
0.176494 -0.161323 -0.531 202 149 141
0.177506 -0.161323 -0.531 202 149 141
0.219867 -0.144613 -0.476 170 140 152
0.228027 -0.144613 -0.476 168 138 150
0.230747 -0.144613 -0.476 167 135 148
0.234373 -0.144613 -0.476 167 135 148
0.247973 -0.144613 -0.476 164 134 146
0.267013 -0.144613 -0.476 163 131 142
0.27064 -0.144613 -0.476 155 123 134
0.32982 -0.14674 -0.483 132 103 108
0.412533 -0.157981 -0.52 177 124 116
0.170663 -0.167531 -0.548 201 148 140
0.17986 -0.161723 -0.529 204 151 143
0.190583 -0.161417 -0.528 200 149 145
0.191589 -0.161417 -0.528 207 156 152
0.215763 -0.147049 -0.481 168 141 156
0.22168 -0.14552 -0.476 167 137 149
0.24072 -0.14552 -0.476 164 134 144
0.29636 -0.146131 -0.478 144 114 122
0.311963 -0.147049 -0.481 139 109 117
0.3197 -0.14766 -0.483 138 107 115
0.32982 -0.14766 -0.483 133 102 108
0.333269 -0.147966 -0.484 130 103 110
0.40373 -0.160194 -0.524 172 123 118
0.403183 -0.159583 -0.522 176 125 121
0.408571 -0.158971 -0.52 190 140 131
0.427312 -0.160806 -0.526 144 100 97
0.434409 -0.162334 -0.531 153 108 103
-0.141108 -0.19903 -0.647 195 194 189
0.169671 -0.164576 -0.535 203 151 138
0.190583 -0.162423 -0.528 200 149 145
0.203937 -0.164269 -0.534 184 135 138
0.217044 -0.150118 -0.488 170 139 154
0.223024 -0.146119 -0.475 168 138 150
0.22984 -0.146427 -0.476 166 136 146
0.243833 -0.146119 -0.475 163 135 147
0.261573 -0.146427 -0.476 158 128 140
0.271547 -0.146427 -0.476 153 120 131
0.314711 -0.147965 -0.481 139 108 114
0.325465 -0.148272 -0.482 132 101 107
0.3289 -0.14858 -0.483 131 100 106
0.33074 -0.14858 -0.483 133 103 111
0.335112 -0.148888 -0.484 133 103 111
0.336034 -0.148888 -0.484 139 109 117
0.337878 -0.148888 -0.484 134 107 116
0.407366 -0.164269 -0.534 118 73 78
0.40461 -0.159962 -0.52 191 141 134
0.180526 -0.163429 -0.528 199 149 140
0.186207 -0.163119 -0.527 198 148 141
0.188214 -0.163119 -0.527 199 150 143
0.278552 -0.198095 -0.64 175 146 151
0.279771 -0.198095 -0.64 175 146 151
0.215333 -0.147333 -0.476 169 139 151
0.219405 -0.147024 -0.475 167 137 149
0.232071 -0.147024 -0.475 166 136 148
0.23569 -0.147024 -0.475 164 134 146
0.240214 -0.147024 -0.475 163 133 145
0.25469 -0.147024 -0.475 161 129 142
0.261573 -0.147333 -0.476 162 130 143
0.265548 -0.147024 -0.475 165 133 146
0.272786 -0.147024 -0.475 153 121 134
0.279707 -0.147333 -0.476 150 118 129
0.283929 -0.147643 -0.477 148 116 127
0.300912 -0.147952 -0.478 142 111 119
0.325465 -0.14919 -0.482 133 100 109
0.341348 -0.150119 -0.485 152 132 141
0.342271 -0.150119 -0.485 174 147 156
0.352546 -0.151357 -0.489 94 64 72
0.404033 -0.163119 -0.527 155 102 110
0.4056 -0.160952 -0.52 194 144 135
0.40659 -0.160952 -0.52 190 140 131
0.409763 -0.160643 -0.519 192 139 131
-0.1505 -0.200871 -0.645 191 190 185
0.183195 -0.164123 -0.527 200 150 141
0.186207 -0.164123 -0.527 199 149 140
0.20254 -0.165991 -0.533 195 154 152
0.271606 -0.198691 -0.638 93 66 71
0.273249 -0.199003 -0.639 95 68 73
0.281083 -0.200249 -0.643 175 146 151
0.214417 -0.148863 -0.478 169 139 149
0.24964 -0.147617 -0.474 163 133 143
0.265891 -0.147617 -0.474 156 124 137
0.270976 -0.147929 -0.475 153 121 134
0.27369 -0.147929 -0.475 152 120 133
0.303644 -0.148863 -0.478 141 110 116
0.312229 -0.149486 -0.48 138 107 113
0.4035 -0.1635 -0.525 165 115 114
0.403403 -0.162254 -0.521 190 139 135
0.41174 -0.161631 -0.519 179 127 116
0.417486 -0.161943 -0.52 155 105 98
-0.155173 -0.201787 -0.644 188 187 182
0.164236 -0.170453 -0.544 207 157 148
0.164474 -0.168573 -0.538 202 152 143
0.169463 -0.16544 -0.528 201 151 142
0.271238 -0.200533 -0.64 93 61 66
0.274959 -0.201473 -0.643 98 71 76
0.262833 -0.148833 -0.475 156 126 136
0.263183 -0.14852 -0.474 155 125 135
0.27731 -0.148833 -0.475 151 119 130
0.320209 -0.150713 -0.481 133 102 108
0.3381 -0.15134 -0.483 232 206 215
0.353988 -0.153847 -0.491 88 59 63
0.421266 -0.163247 -0.521 150 102 92
0.430318 -0.164813 -0.526 147 98 93
-0.157871 -0.203329 -0.645 187 187 179
0.16345 -0.169598 -0.538 203 153 144
0.16638 -0.167391 -0.531 202 152 143
0.17884 -0.165815 -0.526 197 147 138
0.191226 -0.16613 -0.527 204 155 148
0.21306 -0.150369 -0.477 169 139 151
0.214429 -0.149423 -0.474 169 137 148
0.228391 -0.149108 -0.473 161 134 143
0.241394 -0.148792 -0.472 164 137 146
0.242807 -0.149108 -0.473 162 135 144
0.273114 -0.149423 -0.474 151 119 132
0.288167 -0.149738 -0.475 143 112 120
0.3381 -0.15226 -0.483 215 188 197
0.426868 -0.16487 -0.523 149 100 93
-0.160329 -0.204557 -0.645 186 186 178
-0.148043 -0.204557 -0.645 194 194 186
0.1775 -0.1665 -0.525 196 146 137
0.211122 -0.171891 -0.542 103 67 71
0.265113 -0.20202 -0.637 96 57 60
0.215133 -0.1554 -0.49 171 139 150
0.213071 -0.150643 -0.475 171 141 153
0.213976 -0.150009 -0.473 168 136 149
0.230193 -0.150009 -0.473 160 133 142
0.2365 -0.150009 -0.473 162 135 144
0.243708 -0.150009 -0.473 161 134 143
0.254519 -0.150009 -0.473 163 133 145
0.271637 -0.150009 -0.473 153 121 134
0.286357 -0.150643 -0.475 144 113 121
0.309753 -0.151911 -0.479 137 106 112
0.325029 -0.152229 -0.48 130 97 104
0.325943 -0.152229 -0.48 130 97 104
0.344331 -0.153497 -0.484 123 93 101
0.404559 -0.167769 -0.529 150 100 103
0.415694 -0.164597 -0.519 164 114 103
-0.152483 -0.205148 -0.643 189 189 181
0.186855 -0.167819 -0.526 195 148 138
0.191226 -0.168138 -0.527 200 151 146
0.214111 -0.174519 -0.547 113 81 86
0.213377 -0.155057 -0.486 172 140 153
0.240883 -0.150271 -0.471 161 134 143
0.247688 -0.15059 -0.472 161 134 143
0.253082 -0.15059 -0.472 162 132 144
0.265669 -0.15059 -0.472 155 123 136
0.270164 -0.15059 -0.472 152 120 133
0.279434 -0.151229 -0.474 147 116 124
0.289976 -0.151548 -0.475 143 112 120
0.297214 -0.151548 -0.475 140 109 115
0.31249 -0.152824 -0.479 136 105 111
0.317965 -0.152824 -0.479 135 104 110
0.31979 -0.152824 -0.479 134 103 109
0.402843 -0.165586 -0.519 187 137 130
0.406013 -0.165267 -0.518 191 138 134
-0.165499 -0.207335 -0.646 183 183 175
-0.153708 -0.206372 -0.643 190 190 182
-0.1505 -0.207014 -0.645 191 191 183
0.164048 -0.170105 -0.53 203 150 142
0.1745 -0.1685 -0.525 201 151 142
0.18385 -0.168821 -0.526 194 144 137
0.194237 -0.169142 -0.527 198 149 145
0.206106 -0.172351 -0.537 102 67 65
0.207129 -0.172351 -0.537 102 67 65
0.211511 -0.174277 -0.543 115 80 84
0.211243 -0.153094 -0.477 171 141 153
0.213075 -0.15181 -0.473 168 138 148
0.213524 -0.15149 -0.472 167 137 147
0.229707 -0.15149 -0.472 161 134 143
0.235101 -0.15149 -0.472 163 136 145
0.239986 -0.151169 -0.471 162 135 144
0.259024 -0.15181 -0.473 160 130 140
0.278531 -0.152131 -0.474 147 116 124
0.284851 -0.152131 -0.474 146 115 121
0.291786 -0.152452 -0.475 142 111 117
0.2945 -0.152452 -0.475 142 111 117
0.302373 -0.152773 -0.476 140 109 115
0.31614 -0.153736 -0.479 136 105 110
0.321614 -0.153736 -0.479 131 100 105
0.330514 -0.154057 -0.48 124 93 98
0.337616 -0.154378 -0.481 212 195 203
0.339236 -0.154699 -0.482 191 174 182
0.403794 -0.169463 -0.528 137 91 93
0.419649 -0.166574 -0.519 156 103 97
0.157886 -0.174343 -0.54 209 154 147
0.162029 -0.171114 -0.53 207 154 146
0.1685 -0.1695 -0.525 204 154 145
0.1705 -0.1695 -0.525 201 151 140
0.21712 -0.178217 -0.552 99 68 74
0.213524 -0.152389 -0.472 167 137 147
0.215322 -0.152389 -0.472 165 135 145
0.225211 -0.152389 -0.472 162 132 142
0.242677 -0.152066 -0.471 161 134 141
0.243574 -0.152066 -0.471 161 134 141
0.249486 -0.152389 -0.472 161 134 143
0.253981 -0.152389 -0.472 160 130 140
0.291171 -0.153034 -0.474 142 111 116
0.294783 -0.153034 -0.474 141 110 115
0.299929 -0.153357 -0.475 140 109 114
0.327089 -0.154649 -0.479 126 100 103
0.331429 -0.154971 -0.48 127 96 101
0.332343 -0.154971 -0.48 125 96 101
0.334868 -0.155294 -0.481 136 113 119
0.339236 -0.155617 -0.482 208 191 199
0.409169 -0.166917 -0.517 191 138 132
0.412123 -0.166917 -0.517 177 123 113
0.422438 -0.167886 -0.52 153 103 96
0.433324 -0.169823 -0.526 140 91 87
-0.153708 -0.208822 -0.643 189 189 181
0.158166 -0.173423 -0.534 210 160 151
0.17816 -0.170175 -0.524 201 151 144
0.180156 -0.170175 -0.524 200 149 145
0.1835 -0.1705 -0.525 198 147 143
0.210827 -0.153288 -0.472 170 138 149
0.219817 -0.153288 -0.472 165 135 145
0.226529 -0.152963 -0.471 163 133 143
0.236397 -0.152963 -0.471 166 139 148
0.269591 -0.152963 -0.471 150 119 127
0.280647 -0.153612 -0.473 145 114 122
0.299929 -0.154262 -0.475 140 109 114
0.30846 -0.154911 -0.477 135 106 110
0.31548 -0.155236 -0.478 137 106 111
0.31639 -0.155236 -0.478 134 103 108
0.3367 -0.15621 -0.481 190 169 178
0.338532 -0.15621 -0.481 185 168 178
0.340154 -0.156535 -0.482 228 201 208
0.401418 -0.169201 -0.521 172 121 118
0.429856 -0.16985 -0.523 142 94 90
-0.16919 -0.211027 -0.646 181 180 175
-0.15836 -0.20972 -0.642 188 188 180
-0.151729 -0.2107 -0.645 191 191 181
0.154341 -0.177053 -0.542 204 155 148
0.186145 -0.171173 -0.524 194 147 139
0.192867 -0.171827 -0.526 200 155 150
0.20216 -0.173787 -0.532 143 104 105
0.231419 -0.153533 -0.47 162 135 144
0.239476 -0.153533 -0.47 162 136 145
0.271962 -0.154187 -0.472 150 119 127
0.286953 -0.154513 -0.473 145 114 120
0.299024 -0.155167 -0.475 139 108 113
0.311186 -0.15582 -0.477 135 106 110
0.339449 -0.157127 -0.481 217 190 195
0.405429 -0.16856 -0.516 193 140 134
0.416062 -0.168887 -0.517 167 115 104
0.419827 -0.169213 -0.518 153 103 96
0.429034 -0.17052 -0.522 142 94 90
0.439648 -0.173133 -0.53 143 96 88
-0.149734 -0.212586 -0.647 191 191 181
0.1635 -0.1725 -0.525 205 158 150
0.1655 -0.1725 -0.525 200 153 145
0.171173 -0.172171 -0.524 199 151 141
0.209452 -0.156071 -0.475 162 135 142
0.22922 -0.154757 -0.471 159 132 141
0.231014 -0.154757 -0.471 160 133 142
0.243574 -0.154757 -0.471 161 135 144
0.247163 -0.154757 -0.471 161 134 143
0.270489 -0.154757 -0.471 150 119 127
0.274659 -0.155086 -0.472 150 119 127
0.286347 -0.155086 -0.472 143 112 118
0.298394 -0.155743 -0.474 140 109 114
0.306 -0.1564 -0.476 137 108 112
0.320032 -0.157057 -0.478 129 98 103
0.328001 -0.157386 -0.479 129 99 101
0.339449 -0.158043 -0.481 217 190 195
0.402067 -0.1702 -0.518 187 136 132
0.420813 -0.1702 -0.518 148 99 94
-0.151964 -0.213488 -0.646 191 191 183
0.154824 -0.176144 -0.533 202 153 146
0.16219 -0.17317 -0.524 202 155 147
0.176824 -0.172839 -0.523 196 149 139
0.182801 -0.172839 -0.523 193 146 136
0.19487 -0.17383 -0.526 208 164 163
0.206357 -0.176805 -0.535 120 80 81
0.207609 -0.157637 -0.477 166 141 147
0.211277 -0.155654 -0.471 168 135 144
0.223362 -0.155324 -0.47 161 134 141
0.240371 -0.155324 -0.47 161 135 144
0.245369 -0.155654 -0.471 157 130 139
0.246266 -0.155654 -0.471 156 129 138
0.278255 -0.155985 -0.472 145 114 122
0.291458 -0.156315 -0.473 143 112 117
0.307813 -0.157307 -0.476 135 106 110
0.313003 -0.157637 -0.477 135 106 110
0.316637 -0.157637 -0.477 131 100 105
0.329826 -0.158298 -0.479 123 94 96
0.333475 -0.158298 -0.479 122 101 108
0.344331 -0.15995 -0.484 119 93 96
0.347393 -0.160942 -0.487 122 95 100
0.408377 -0.170526 -0.516 192 137 130
0.411326 -0.170526 -0.516 180 126 116
0.423603 -0.171517 -0.519 139 90 85
0.4264 -0.171848 -0.52 141 93 89
-0.170589 -0.213389 -0.642 181 181 173
-0.167881 -0.213056 -0.641 182 182 174
-0.148961 -0.215715 -0.649 191 191 181
0.151152 -0.178821 -0.538 208 158 147
0.161192 -0.174168 -0.524 202 155 145
0.163873 -0.173835 -0.523 195 148 138
0.182801 -0.173835 -0.523 193 146 136
0.212937 -0.180815 -0.544 110 79 85
0.211277 -0.156551 -0.471 167 134 143
0.213071 -0.156551 -0.471 164 134 142
0.228733 -0.156219 -0.47 160 134 143
0.23679 -0.156219 -0.47 162 135 144
0.239476 -0.156219 -0.47 161 134 143
0.261857 -0.156219 -0.47 151 121 129
0.281851 -0.156884 -0.472 147 116 122
0.28365 -0.156884 -0.472 145 114 120
0.3002 -0.157549 -0.474 139 108 113
0.302006 -0.157549 -0.474 139 108 113
0.308976 -0.157881 -0.475 134 105 109
0.310786 -0.157881 -0.475 134 103 108
0.400866 -0.172506 -0.519 175 124 121
0.415257 -0.171509 -0.516 168 116 102
-0.163706 -0.213609 -0.639 186 185 180
-0.162489 -0.213609 -0.639 186 185 180
0.14938 -0.18018 -0.539 205 155 144
0.156389 -0.176503 -0.528 203 153 144
0.160194 -0.175166 -0.524 200 152 142
0.161881 -0.174831 -0.523 203 156 146
0.208433 -0.160791 -0.481 166 139 148
0.20935 -0.160791 -0.481 166 139 148
0.217557 -0.157449 -0.471 165 135 143
0.244848 -0.157114 -0.47 158 128 138
0.247163 -0.157449 -0.471 156 126 136
0.252905 -0.157114 -0.47 156 129 138
0.260962 -0.157114 -0.47 156 126 134
0.26398 -0.15678 -0.469 151 121 129
0.281851 -0.157783 -0.472 145 114 120
0.302909 -0.158451 -0.474 139 108 113
0.310786 -0.158786 -0.475 134 103 108
0.322089 -0.159454 -0.477 130 99 104
0.336212 -0.160123 -0.479 219 199 210
0.344331 -0.161794 -0.484 121 90 95
0.348107 -0.163131 -0.488 119 90 95
0.464053 -0.20592 -0.616 79 47 48
0.404245 -0.172826 -0.517 193 143 136
0.408377 -0.172491 -0.516 193 138 131
-0.168574 -0.214826 -0.639 182 182 172
0.164554 -0.175491 -0.522 197 148 141
0.18579 -0.175828 -0.523 206 157 152
0.230033 -0.157673 -0.469 165 138 147
0.235393 -0.157673 -0.469 162 135 144
0.24806 -0.158346 -0.471 158 128 138
0.25201 -0.15801 -0.47 153 123 133
0.263087 -0.157673 -0.469 151 122 127
0.277076 -0.15801 -0.47 146 115 121
0.278563 -0.158346 -0.471 146 115 121
0.286637 -0.158346 -0.471 145 114 120
0.295337 -0.158682 -0.472 142 111 116
0.303811 -0.159354 -0.474 139 108 113
0.310786 -0.15969 -0.475 135 104 109
0.320507 -0.160027 -0.476 130 99 104
0.439905 -0.20037 -0.596 56 26 34
0.400093 -0.174147 -0.518 179 128 125
0.14678 -0.181557 -0.537 200 150 139
0.1565 -0.1775 -0.525 203 153 142
0.18579 -0.176824 -0.523 206 157 152
0.1935 -0.1775 -0.525 211 166 163
0.210829 -0.158905 -0.47 126 101 107
0.221571 -0.158905 -0.47 151 124 131
0.22646 -0.158567 -0.469 164 137 146
0.238073 -0.158567 -0.469 160 134 143
0.25058 -0.158567 -0.469 157 127 137
0.256833 -0.158567 -0.469 155 125 133
0.262193 -0.158567 -0.469 150 120 128
0.31531 -0.160595 -0.475 133 102 107
0.320507 -0.160933 -0.476 129 98 103
0.400967 -0.176824 -0.523 150 108 110
0.400093 -0.175133 -0.518 178 127 124
0.402067 -0.175133 -0.518 192 139 135
0.42558 -0.175471 -0.519 140 93 85
0.431023 -0.176486 -0.522 144 100 89
-0.171009 -0.21726 -0.639 179 180 172
0.145214 -0.1819 -0.535 201 151 140
0.168209 -0.17714 -0.521 201 151 142
0.206654 -0.16286 -0.479 123 98 104
0.2345 -0.15946 -0.469 159 133 142
0.255047 -0.15946 -0.469 164 134 144
0.284527 -0.15946 -0.469 143 112 117
0.338037 -0.16286 -0.479 152 123 128
0.451562 -0.20536 -0.604 55 30 33
0.447101 -0.20128 -0.592 60 31 33
0.40129 -0.17578 -0.517 192 139 135
0.410529 -0.1751 -0.515 178 124 114
0.433841 -0.17782 -0.523 148 104 93
-0.166833 -0.217793 -0.637 184 184 176
0.143926 -0.182577 -0.534 201 152 138
0.189774 -0.178816 -0.523 204 156 154
0.208586 -0.161037 -0.471 84 63 68
0.211724 -0.160695 -0.47 79 54 58
0.2162 -0.160695 -0.47 82 57 61
0.233607 -0.160353 -0.469 133 106 111
0.243057 -0.160695 -0.47 156 129 138
0.249687 -0.160353 -0.469 161 131 139
0.25862 -0.160353 -0.469 164 133 139
0.260407 -0.160353 -0.469 150 119 125
0.2747 -0.160353 -0.469 145 116 120
0.297403 -0.161037 -0.471 140 109 115
0.299832 -0.161379 -0.472 140 109 115
0.446346 -0.202066 -0.591 60 27 36
0.409548 -0.176081 -0.515 183 126 117
0.44017 -0.180184 -0.527 147 100 92
-0.179589 -0.222789 -0.648 175 176 170
-0.171956 -0.21935 -0.638 180 180 172
0.209483 -0.161934 -0.471 124 105 109
0.223362 -0.16159 -0.47 76 51 55
0.263648 -0.16159 -0.47 145 115 123
0.267553 -0.161247 -0.469 148 117 125
0.270233 -0.161247 -0.469 150 120 128
0.271127 -0.161247 -0.469 142 115 120
0.2914 -0.16159 -0.47 141 110 116
0.408752 -0.176718 -0.514 184 129 122
0.409731 -0.176718 -0.514 180 127 119
0.41249 -0.177062 -0.515 168 118 107
-0.155896 -0.223677 -0.647 189 189 179
-0.154903 -0.224023 -0.648 189 189 179
0.141673 -0.19118 -0.553 205 156 142
0.162933 -0.179771 -0.52 203 153 146
0.170857 -0.179771 -0.52 197 149 139
0.172838 -0.179771 -0.52 194 146 136
0.173829 -0.179771 -0.52 193 145 135
0.182102 -0.180117 -0.521 196 147 140
0.1955 -0.1815 -0.525 212 166 166
0.204429 -0.183229 -0.53 135 91 92
0.233607 -0.16214 -0.469 81 54 59
0.237686 -0.162486 -0.47 79 52 57
0.249687 -0.16214 -0.469 143 118 124
0.25058 -0.16214 -0.469 159 132 139
0.260407 -0.16214 -0.469 110 80 88
0.264543 -0.162486 -0.47 141 111 119
0.2747 -0.16214 -0.469 143 114 119
0.279167 -0.16214 -0.469 144 113 119
0.30163 -0.163177 -0.472 137 106 111
0.324357 -0.164214 -0.475 126 94 99
0.33048 -0.16456 -0.476 228 201 208
0.3332 -0.16456 -0.476 225 204 211
0.449261 -0.208811 -0.604 64 39 43
0.400093 -0.17908 -0.518 175 126 121
0.405815 -0.177697 -0.514 192 135 128
0.418376 -0.178043 -0.515 155 107 95
-0.160806 -0.223171 -0.642 187 187 177
0.173829 -0.180762 -0.52 191 143 133
0.190406 -0.181457 -0.522 212 164 162
0.1965 -0.1825 -0.525 200 154 156
0.20026 -0.183195 -0.527 125 79 81
0.211755 -0.171376 -0.493 68 57 65
0.209452 -0.165119 -0.475 86 69 79
0.22294 -0.163729 -0.471 94 72 75
0.251473 -0.163033 -0.469 96 71 77
0.264543 -0.163381 -0.47 114 87 94
0.279167 -0.163033 -0.469 144 113 119
0.300094 -0.163729 -0.471 137 106 111
0.313982 -0.164424 -0.473 131 101 103
0.321869 -0.164771 -0.474 126 96 98
0.324577 -0.164771 -0.474 128 96 101
0.328881 -0.165119 -0.475 122 97 101
0.404643 -0.179024 -0.515 195 137 133
0.4395 -0.1825 -0.525 140 100 92
-0.170206 -0.222297 -0.636 181 181 171
-0.160806 -0.224394 -0.642 187 187 177
-0.156886 -0.225792 -0.646 187 187 177
0.153911 -0.182801 -0.523 205 157 145
0.154908 -0.182801 -0.523 205 157 145
0.164597 -0.181403 -0.519 204 154 145
0.17779 -0.181752 -0.52 191 141 134
0.212174 -0.165325 -0.473 78 68 77
0.246638 -0.164276 -0.47 78 53 59
0.248793 -0.163927 -0.469 76 51 57
0.279167 -0.163927 -0.469 143 112 118
0.297667 -0.164276 -0.47 138 107 112
0.323674 -0.165674 -0.474 128 98 100
0.32548 -0.165674 -0.474 126 96 98
0.326383 -0.165674 -0.474 122 93 97
0.41382 -0.179306 -0.513 161 111 100
0.424103 -0.180354 -0.516 141 98 89
0.433174 -0.182102 -0.521 140 102 91
0.442178 -0.184199 -0.527 141 98 91
-0.166833 -0.22386 -0.637 185 185 175
-0.164923 -0.224563 -0.639 186 186 178
0.139071 -0.186609 -0.531 204 155 141
0.146938 -0.183797 -0.523 207 157 146
0.149927 -0.183797 -0.523 204 154 145
0.165267 -0.18204 -0.518 202 152 143
0.16954 -0.182391 -0.519 204 154 145
0.170529 -0.182391 -0.519 201 151 142
0.196126 -0.184149 -0.524 192 146 148
0.204043 -0.185906 -0.529 136 90 93
0.2119 -0.171849 -0.489 38 32 42
0.21669 -0.166929 -0.475 61 50 56
0.219405 -0.166929 -0.475 67 54 61
0.232404 -0.165874 -0.472 104 85 89
0.236397 -0.165523 -0.471 82 61 66
0.25326 -0.16482 -0.469 72 50 53
0.25594 -0.16482 -0.469 70 50 51
0.280354 -0.164469 -0.468 143 112 118
0.304829 -0.165171 -0.47 133 104 108
0.322991 -0.166226 -0.473 126 96 98
0.323892 -0.166226 -0.473 126 95 100
0.337534 -0.167631 -0.477 120 94 95
0.435693 -0.20172 -0.574 100 69 74
0.407366 -0.187663 -0.534 126 90 92
0.403857 -0.180634 -0.514 191 131 130
0.404836 -0.180634 -0.514 189 131 129
0.4223 -0.180986 -0.515 146 103 94
0.430523 -0.182391 -0.519 143 103 93
-0.310902 -0.229313 -0.649 253 254 248
-0.309666 -0.229313 -0.649 254 255 249
-0.30843 -0.229313 -0.649 248 249 243
-0.178311 -0.22578 -0.639 180 180 172
-0.167519 -0.224367 -0.635 183 183 175
-0.154143 -0.229667 -0.65 188 188 176
0.136551 -0.18974 -0.537 203 153 142
0.20026 -0.186207 -0.527 131 86 89
0.208006 -0.18868 -0.534 133 96 113
0.221237 -0.16854 -0.477 47 37 45
0.224871 -0.16854 -0.477 56 46 54
0.235599 -0.167127 -0.473 111 94 100
0.24806 -0.16642 -0.471 77 55 58
0.257727 -0.165713 -0.469 70 50 52
0.267229 -0.166067 -0.47 68 48 50
0.27081 -0.166067 -0.47 73 51 54
0.2747 -0.165713 -0.469 120 93 100
0.28006 -0.165713 -0.469 140 110 118
0.285703 -0.16536 -0.468 141 110 116
0.300352 -0.166067 -0.47 135 104 109
0.316914 -0.166773 -0.472 127 97 99
0.317813 -0.166773 -0.472 125 97 96
0.332703 -0.16748 -0.474 205 188 194
0.442929 -0.2067 -0.585 68 39 43
0.409911 -0.18126 -0.513 175 120 115
0.417564 -0.181613 -0.514 157 108 101
0.418543 -0.181613 -0.514 159 110 103
-0.318078 -0.229484 -0.646 250 251 245
-0.178032 -0.226642 -0.638 180 180 172
-0.17654 -0.226287 -0.637 181 181 173
-0.164923 -0.226997 -0.639 185 185 177
-0.163962 -0.227352 -0.64 184 186 175
0.15233 -0.185079 -0.521 204 155 141
0.219428 -0.17087 -0.481 39 33 43
0.230806 -0.169804 -0.478 51 41 49
0.237903 -0.168383 -0.474 87 74 81
0.240104 -0.168028 -0.473 105 90 95
0.259171 -0.166962 -0.47 69 49 51
0.261857 -0.166962 -0.47 68 48 50
0.266333 -0.166962 -0.47 69 49 51
0.269019 -0.166962 -0.47 71 51 53
0.292567 -0.166607 -0.469 138 107 113
0.312654 -0.167317 -0.471 129 99 101
0.325006 -0.167672 -0.472 130 101 106
0.453863 -0.214564 -0.604 62 39 47
0.408934 -0.182237 -0.513 174 121 113
0.423281 -0.182948 -0.515 150 103 95
0.426069 -0.183303 -0.516 155 108 100
-0.172086 -0.226429 -0.634 183 183 175
0.14123 -0.187143 -0.524 207 159 145
0.146657 -0.186429 -0.522 203 157 142
0.147651 -0.186429 -0.522 202 156 141
0.158666 -0.185357 -0.519 201 151 140
0.172826 -0.184643 -0.517 197 145 134
0.193389 -0.186429 -0.522 204 155 148
0.229093 -0.172857 -0.484 39 34 41
0.264209 -0.168214 -0.471 74 54 56
0.27081 -0.167857 -0.47 76 54 56
0.28006 -0.1675 -0.469 103 78 82
0.287207 -0.1675 -0.469 144 112 117
0.304829 -0.167857 -0.47 133 102 107
0.326804 -0.168571 -0.472 124 99 102
0.327703 -0.168571 -0.472 137 112 115
0.456271 -0.219643 -0.615 67 62 84
0.45426 -0.215357 -0.603 63 36 43
0.407366 -0.190714 -0.534 118 79 80
0.412038 -0.182857 -0.512 167 117 108
0.42148 -0.183571 -0.514 154 106 96
-0.324957 -0.231586 -0.645 249 250 244
-0.315124 -0.22979 -0.64 249 250 244
-0.309029 -0.22979 -0.64 250 251 246
-0.171148 -0.227995 -0.635 182 182 174
-0.168729 -0.227995 -0.635 183 183 175
-0.0562467 -0.233022 -0.649 73 71 76
0.131682 -0.193168 -0.538 205 155 144
0.144669 -0.187423 -0.522 205 157 143
0.186346 -0.186346 -0.519 205 156 151
0.191033 -0.187064 -0.521 198 151 145
0.2254 -0.175933 -0.49 43 40 51
0.231 -0.175933 -0.49 33 30 39
0.24 -0.172343 -0.48 38 31 39
0.276181 -0.168752 -0.47 70 50 52
0.288993 -0.168393 -0.469 140 111 115
0.292567 -0.168393 -0.469 139 108 113
0.294981 -0.168752 -0.47 140 109 114
0.306619 -0.168752 -0.47 134 103 108
0.311095 -0.168752 -0.47 128 97 102
0.32141 -0.16947 -0.472 125 96 100
0.332902 -0.16983 -0.473 141 118 124
0.334509 -0.170189 -0.474 120 89 94
0.398667 -0.186705 -0.52 148 107 111
0.39812 -0.185987 -0.518 170 117 113
0.401899 -0.18455 -0.514 181 128 122
0.410088 -0.183832 -0.512 172 119 113
0.419683 -0.184191 -0.513 163 113 104
0.440659 -0.188141 -0.524 135 92 83
-0.31657 -0.230288 -0.638 242 243 237
-0.314139 -0.230288 -0.638 226 227 221
-0.301904 -0.232092 -0.643 252 253 248
-0.185187 -0.233175 -0.646 176 177 169
-0.0536914 -0.233897 -0.648 76 73 80
0.14268 -0.188417 -0.522 195 145 134
0.150057 -0.187695 -0.52 206 158 146
0.157373 -0.186973 -0.518 203 155 143
0.167577 -0.186251 -0.516 200 151 137
0.169543 -0.186251 -0.516 198 149 135
0.1985 -0.1895 -0.525 127 79 79
0.249926 -0.172535 -0.478 54 44 52
0.25122 -0.172174 -0.477 57 47 55
0.261173 -0.17037 -0.472 99 83 84
0.269591 -0.170009 -0.471 80 57 63
0.321626 -0.170009 -0.471 126 95 100
0.46265 -0.224512 -0.622 113 112 144
0.3979 -0.187334 -0.519 153 114 119
0.39812 -0.186973 -0.518 173 120 114
0.399738 -0.18589 -0.515 180 125 118
0.401117 -0.185169 -0.513 178 125 117
0.403071 -0.185169 -0.513 182 127 120
0.408137 -0.184808 -0.512 178 124 114
-0.294048 -0.235857 -0.65 252 253 248
-0.16614 -0.231866 -0.639 185 185 177
-0.0559867 -0.234406 -0.646 72 69 76
-0.0536086 -0.234769 -0.647 76 73 80
-0.0524571 -0.235131 -0.648 78 75 82
0.162663 -0.187234 -0.516 200 152 138
0.177406 -0.187234 -0.516 202 152 143
0.190667 -0.188686 -0.52 185 140 134
0.1995 -0.1905 -0.525 131 83 83
0.242866 -0.181791 -0.501 41 37 51
0.245933 -0.1778 -0.49 38 36 47
0.245859 -0.177074 -0.488 38 36 47
0.261377 -0.171994 -0.474 94 83 87
0.288714 -0.170543 -0.47 80 58 61
0.298562 -0.170543 -0.47 133 102 107
0.41789 -0.185783 -0.512 163 113 102
0.441657 -0.190137 -0.524 133 95 86
0.44519 -0.191226 -0.527 133 95 86
-0.298693 -0.234907 -0.644 247 248 243
-0.164474 -0.234177 -0.642 186 186 178
-0.0584476 -0.235636 -0.646 69 66 73
0.133246 -0.191135 -0.524 206 157 143
0.153723 -0.189311 -0.519 202 152 141
0.16529 -0.187852 -0.515 197 149 135
0.173138 -0.187852 -0.515 199 149 138
0.205826 -0.193689 -0.531 163 101 104
0.233113 -0.186393 -0.511 47 38 55
0.269167 -0.173262 -0.475 102 86 89
0.269503 -0.172897 -0.474 105 89 90
0.273439 -0.172532 -0.473 99 78 83
0.290505 -0.171438 -0.47 73 51 54
0.2914 -0.171438 -0.47 77 55 58
0.295876 -0.171438 -0.47 131 104 109
0.305724 -0.171438 -0.47 132 101 106
0.313781 -0.171438 -0.47 130 99 104
0.322733 -0.171438 -0.47 125 96 101
0.4633 -0.224329 -0.615 73 57 67
0.41789 -0.186758 -0.512 162 114 102
0.44704 -0.192594 -0.528 128 94 85
-0.295471 -0.2365 -0.645 250 249 244
-0.181963 -0.2343 -0.639 181 181 173
-0.163506 -0.235767 -0.643 186 186 178
-0.161557 -0.2365 -0.645 186 186 178
-0.0569514 -0.235767 -0.643 70 67 74
0.137709 -0.1914 -0.522 205 155 144
0.140422 -0.191033 -0.521 202 154 144
0.15244 -0.189933 -0.518 201 151 140
0.154115 -0.189567 -0.517 199 149 138
0.166928 -0.188467 -0.514 198 149 135
0.167907 -0.188467 -0.514 196 147 133
0.176081 -0.188833 -0.515 201 153 143
0.177062 -0.188833 -0.515 201 153 143
0.178043 -0.188833 -0.515 202 154 144
0.191289 -0.1903 -0.519 186 143 137
0.192648 -0.190667 -0.52 202 157 151
0.238805 -0.189567 -0.517 47 39 54
0.242227 -0.189933 -0.518 46 40 54
0.2442 -0.189933 -0.518 42 36 50
0.280053 -0.173067 -0.472 82 62 64
0.299713 -0.171967 -0.469 129 100 104
0.320943 -0.172333 -0.47 125 96 101
0.467067 -0.227333 -0.62 80 68 82
0.397983 -0.188467 -0.514 181 130 126
0.401117 -0.1881 -0.513 183 133 126
0.405393 -0.187367 -0.511 174 121 113
0.411233 -0.187367 -0.511 165 115 106
0.434627 -0.189933 -0.518 136 96 88
-0.336535 -0.238097 -0.646 251 252 246
-0.310731 -0.234411 -0.636 142 144 141
-0.297467 -0.23736 -0.644 190 189 185
-0.291909 -0.238834 -0.648 255 255 251
-0.291123 -0.239203 -0.649 255 255 250
0.136714 -0.192394 -0.522 211 161 150
0.16497 -0.189446 -0.514 201 151 140
0.188582 -0.190551 -0.517 204 161 155
0.193638 -0.191657 -0.52 199 154 148
0.196371 -0.192394 -0.522 200 152 148
0.237675 -0.192026 -0.521 58 51 67
0.238668 -0.192026 -0.521 116 109 125
0.241114 -0.192394 -0.522 60 54 68
0.244565 -0.192763 -0.523 62 56 70
0.282449 -0.174334 -0.473 85 64 69
0.28335 -0.174334 -0.473 83 62 67
0.31222 -0.17286 -0.469 129 98 104
0.315793 -0.17286 -0.469 128 96 99
0.329 -0.173229 -0.47 162 135 140
0.333097 -0.173966 -0.472 118 88 90
0.335605 -0.174334 -0.473 115 89 90
0.398186 -0.189077 -0.513 184 134 127
0.40442 -0.18834 -0.511 170 120 111
0.408486 -0.187971 -0.51 168 118 109
0.42179 -0.188709 -0.512 159 111 99
0.436454 -0.191289 -0.519 138 98 88
-0.181678 -0.236364 -0.638 182 183 175
-0.175154 -0.234141 -0.632 183 184 176
-0.172747 -0.234141 -0.632 184 185 177
-0.160826 -0.239698 -0.647 186 188 177
-0.0546714 -0.238957 -0.645 74 72 77
0.122657 -0.196352 -0.53 201 153 139
0.130251 -0.19413 -0.524 203 156 140
0.166603 -0.190054 -0.513 198 150 138
0.184286 -0.191166 -0.516 212 162 155
0.185269 -0.191166 -0.516 216 167 162
0.188582 -0.191536 -0.517 209 164 158
0.243036 -0.19413 -0.524 50 43 59
0.2455 -0.1945 -0.525 110 104 118
0.253943 -0.195611 -0.528 79 73 87
0.262496 -0.195241 -0.527 40 36 50
0.264504 -0.195241 -0.527 47 41 53
0.274306 -0.181163 -0.489 36 34 45
0.274267 -0.17931 -0.484 31 29 40
0.280613 -0.176347 -0.476 62 49 58
0.287854 -0.175235 -0.473 75 54 59
0.300352 -0.174124 -0.47 72 52 54
0.32721 -0.174124 -0.47 122 95 100
0.329 -0.174124 -0.47 119 92 97
0.403305 -0.196352 -0.53 141 100 98
0.406543 -0.188943 -0.51 167 115 102
0.443803 -0.193759 -0.523 129 94 88
-0.339521 -0.24093 -0.647 251 252 246
-0.0615619 -0.238324 -0.64 69 67 72
0.122194 -0.196617 -0.528 201 152 137
0.125739 -0.195872 -0.526 206 157 140
0.14652 -0.192893 -0.518 203 154 139
0.179655 -0.191404 -0.514 206 156 147
0.183929 -0.191776 -0.515 214 165 160
0.236595 -0.194755 -0.523 44 38 52
0.250393 -0.19699 -0.529 101 97 111
0.257409 -0.197734 -0.531 99 96 113
0.25992 -0.198107 -0.532 52 49 66
0.268017 -0.198851 -0.534 46 43 60
0.270051 -0.198851 -0.534 38 35 52
0.27554 -0.17986 -0.483 32 30 41
0.276231 -0.179115 -0.481 34 30 44
0.277148 -0.179115 -0.481 34 30 44
0.278732 -0.17837 -0.479 42 32 40
0.287854 -0.176136 -0.473 75 54 59
0.310433 -0.174647 -0.469 129 100 105
0.313113 -0.174647 -0.469 128 97 103
0.3149 -0.174647 -0.469 128 97 103
0.410429 -0.189914 -0.51 166 116 107
0.4114 -0.189914 -0.51 167 117 108
-0.32563 -0.236549 -0.632 226 231 225
-0.313377 -0.237297 -0.634 148 148 146
-0.31217 -0.237297 -0.634 147 147 145
-0.0699524 -0.243286 -0.65 63 62 68
-0.0685029 -0.242537 -0.648 68 65 72
-0.0535257 -0.241789 -0.646 73 70 77
0.126259 -0.196126 -0.524 207 158 143
0.129007 -0.195751 -0.523 204 155 140
0.134468 -0.195003 -0.521 206 157 140
0.158786 -0.192009 -0.513 204 155 141
0.162377 -0.191634 -0.512 200 150 139
0.177351 -0.192009 -0.513 200 150 139
0.179306 -0.192009 -0.513 204 154 143
0.182592 -0.192383 -0.514 215 165 158
0.240042 -0.196126 -0.524 46 40 54
0.265485 -0.199494 -0.533 61 58 75
0.283613 -0.178909 -0.478 45 38 45
0.286053 -0.17816 -0.476 61 52 57
0.29269 -0.177786 -0.475 76 58 58
0.396147 -0.19388 -0.518 172 122 125
0.4015 -0.19126 -0.511 168 118 111
0.408486 -0.190886 -0.51 166 116 105
0.417229 -0.190886 -0.51 161 113 101
0.439276 -0.194629 -0.52 134 96 87
0.441113 -0.195003 -0.521 133 96 88
-0.28865 -0.244148 -0.649 251 253 248
-0.179614 -0.238881 -0.635 184 184 174
-0.1734 -0.237 -0.63 185 185 175
-0.16926 -0.239633 -0.637 184 186 175
-0.165439 -0.241138 -0.641 185 187 176
-0.164987 -0.242267 -0.644 185 187 176
-0.161074 -0.243771 -0.648 186 186 176
-0.0666457 -0.241514 -0.642 68 65 72
-0.0545867 -0.242267 -0.644 72 71 79
0.1215 -0.1975 -0.525 204 155 138
0.137181 -0.195619 -0.52 206 157 142
0.167253 -0.19261 -0.512 198 149 134
0.17213 -0.19261 -0.512 194 146 132
0.179306 -0.192986 -0.513 201 153 143
0.186871 -0.193738 -0.515 208 160 158
0.187852 -0.193738 -0.515 209 161 159
0.236595 -0.196748 -0.523 76 68 81
0.255867 -0.200133 -0.532 133 129 144
0.259393 -0.20051 -0.533 87 84 101
0.260897 -0.200886 -0.534 41 38 55
0.27923 -0.201638 -0.536 40 37 54
0.283576 -0.198252 -0.527 41 39 53
0.294831 -0.179443 -0.477 63 51 55
0.312886 -0.17681 -0.47 138 109 111
0.403629 -0.191857 -0.51 170 120 113
0.4046 -0.191857 -0.51 172 122 115
0.420967 -0.192233 -0.511 162 114 104
-0.341457 -0.24425 -0.646 251 252 247
-0.286619 -0.245762 -0.65 252 253 248
-0.164014 -0.243871 -0.645 186 188 175
-0.0661267 -0.240847 -0.637 68 65 72
-0.051381 -0.245762 -0.65 75 74 82
0.131743 -0.197366 -0.522 205 156 139
0.142298 -0.195475 -0.517 205 156 141
0.171154 -0.193585 -0.512 194 145 131
0.233945 -0.198878 -0.526 54 46 59
0.24104 -0.198122 -0.524 98 92 106
0.25134 -0.200769 -0.531 34 30 45
0.290538 -0.183376 -0.485 31 29 40
0.293943 -0.181486 -0.48 32 29 40
0.31086 -0.178083 -0.471 73 54 58
0.328105 -0.177705 -0.47 118 90 89
0.329 -0.177705 -0.47 118 90 89
0.400527 -0.193207 -0.511 176 125 121
0.408654 -0.19245 -0.509 164 114 105
0.413502 -0.19245 -0.509 159 109 100
0.423887 -0.193207 -0.511 153 105 95
0.4275 -0.193963 -0.513 150 105 99
-0.317904 -0.23978 -0.631 147 149 144
-0.287414 -0.24662 -0.649 253 252 248
-0.160333 -0.247 -0.65 187 187 177
-0.0513019 -0.24662 -0.649 76 75 83
0.1175 -0.1995 -0.525 203 154 139
0.12303 -0.19874 -0.523 204 155 138
0.137906 -0.19722 -0.519 200 151 134
0.148614 -0.1957 -0.515 199 150 133
0.158476 -0.19456 -0.512 200 151 137
0.18126 -0.19494 -0.513 205 156 149
0.233706 -0.19798 -0.521 49 36 53
0.286003 -0.20786 -0.547 49 46 63
0.287045 -0.20786 -0.547 38 36 50
0.298852 -0.1843 -0.485 31 31 43
0.300912 -0.18164 -0.478 47 36 44
0.302373 -0.18088 -0.476 52 39 48
0.305617 -0.18012 -0.474 65 46 50
0.314676 -0.1786 -0.47 108 83 86
0.319152 -0.1786 -0.47 127 102 105
0.403629 -0.1938 -0.51 169 119 112
0.43127 -0.19532 -0.514 147 104 97
0.441257 -0.1976 -0.52 142 102 94
-0.285381 -0.248238 -0.65 252 252 250
-0.18232 -0.242891 -0.636 182 185 176
-0.167619 -0.244419 -0.64 185 187 176
0.1165 -0.2005 -0.525 202 155 137
0.127766 -0.199354 -0.522 203 154 137
0.130498 -0.198972 -0.521 207 158 143
0.135929 -0.198209 -0.519 201 152 135
0.150969 -0.195917 -0.513 198 149 134
0.18126 -0.195917 -0.513 205 156 149
0.19646 -0.197445 -0.517 206 168 167
0.238131 -0.199354 -0.522 55 44 58
0.272534 -0.207374 -0.543 35 32 49
0.27716 -0.20852 -0.546 71 68 85
0.285476 -0.210048 -0.55 96 92 107
0.28914 -0.209666 -0.549 44 41 58
0.304597 -0.207374 -0.543 38 36 50
0.30314 -0.18446 -0.483 31 27 41
0.313982 -0.180641 -0.473 69 50 54
0.319831 -0.179877 -0.471 135 113 115
0.32342 -0.179877 -0.471 122 97 100
0.3297 -0.179877 -0.471 120 90 92
